# .PCD v0.7 - Point Cloud Data file format
VERSION 0.7
FIELDS x y z normal_x normal_y normal_z
SIZE 4 4 4 4 4 4
TYPE F F F F F F
COUNT 1 1 1 1 1 1
WIDTH 512
HEIGHT 1
VIEWPOINT 0 0 0 1 0 0 0
POINTS 512
DATA ascii
-0.11510722 0.1154317 1.2872859 0.4828004539 -0.4243996441 0.7660213113
-0.20077945 -0.20983718 1.7220001 -0.4883557558 0.7869948745 0.3770248592
-0.30451953 -0.22408719 1.0338126 0.5260375142 0.5221952796 0.6712649465
-0.4507671 0.065889388 1.1930001 0.5959336162 -0.6309842467 0.4967111647
-0.23592365 0.034533154 1.0425653 -0.6273484826 -0.3287148476 0.7059606314
-0.1248198 -0.1218479 1.13 0.1492803097 -0.8240919113 0.5464319587
-0.3025026 0.19158497 1.2780001 0.2132242322 -0.9127346873 0.348497957
-0.44196272 -0.10976217 1.108 0.8099341393 0.1291337013 0.5721285939
-0.21828736 0.12195398 1.169 -0.7153626084 -0.465212971 0.5213763118
-0.38211226 0.021981979 1.067 0.5840498209 -0.5417785048 0.6044516563
-0.16153255 -0.0089533962 1.2256669 -0.9201347828 -0.3568998873 0.1611659527
-0.22382599 -0.10567216 1.0320002 -0.3340762854 0.2699533999 0.9030604362
-0.34188423 0.11161457 1.1470001 0.3534890711 -0.8184700012 0.4529374242
-0.34438607 -0.10489585 1.0380001 0.1746240705 0.08039247245 0.9813477993
-0.16732423 0.032281496 1.1255714 -0.5144895315 -0.6986200809 0.497222811
-0.19418633 0.18737288 1.2953334 -0.5594127178 -0.7698633671 0.3071933687
-0.45877546 -0.010829464 1.123 0.7448523641 -0.357907176 0.5631140471
-0.13694674 0.026467444 1.3127145 -0.721503377 0.6843457222 0.1053744629
-0.19109625 -0.058200583 1.1065 -0.8396599889 0.09091258794 0.535449326
-0.30149662 -0.022779744 1.0190001 0.1427529007 0.2048354447 0.9683305621
-0.26454315 0.10242963 1.0946667 -0.3902973831 -0.7520865798 0.5310685039
-0.19726051 -0.18129423 1.0715001 -0.7116468549 0.6076063514 0.3526659906
-0.37204069 0.1404534 1.223 0.4381420016 -0.7823743224 0.4426307678
-0.16494538 0.083079405 1.2247498 -0.382812798 -0.6559327841 0.6505432725
-0.29542613 0.16133472 1.1950001 0.2755672634 -0.8449648023 0.4583636224
-0.36325559 -0.17263322 1.08 0.1002009809 0.2404280454 0.9654812813
-0.11285242 -0.061085258 1.1810001 0.595200479 -0.4605100155 0.6585339308
-0.40474176 -0.054721095 1.0640557 0.6093274951 -0.3474332392 0.7127482891
-0.27484703 -0.15524787 1.0658572 0.08908870816 0.405026108 0.9099544287
-0.31432632 0.058286063 1.0505716 0.3500366807 -0.7000086308 0.6224646568
-0.099321947 0.0349264 1.245 -0.3734092414 -0.4478176236 0.8124191761
-0.22441772 0.17502752 1.2248464 -0.3470971584 -0.7267492414 0.5927554965
-0.4059405 0.048050102 1.1339999 0.6378199458 -0.5364576578 0.5526290536
-0.23570849 -0.18097468 1.0070001 -0.4026707709 0.08977721632 0.9109315872
-0.15726011 -0.11613162 1.0634211 -0.1205394045 -0.2279760838 0.9661765695
-0.21234094 -0.033977307 1.0220002 -0.5499736667 -0.1346958876 0.8242487311
-0.31272805 -0.22682434 1.1010001 0.07554859668 0.4490511119 0.8903064132
-0.14159656 0.1238993 1.3460001 0.7852838039 -0.5971105099 0.1636717021
-0.16886967 0.14017287 1.2590001 -0.8064703941 -0.3870135546 0.4470190406
-0.18184446 -0.0036181288 1.0700001 -0.6553217173 -0.4941525459 0.5712851286
-0.3965365 0.098357618 1.1810001 0.6018456221 -0.5715166926 0.5578086972
-0.28574342 -0.085385427 1.0225627 0.193155393 0.168898046 0.9665217996
-0.22222458 0.067013167 1.124125 -0.8913545609 -0.4077717662 0.1980132014
-0.16330284 -0.02130037 1.1570001 -0.3970901668 -0.7610809207 0.5129085779
-0.27520993 0.13443217 1.1443334 0.0445737429 -0.8336328864 0.5505173802
-0.19159725 0.058714747 1.1750001 -0.5040128827 -0.7626373768 0.405407548
-0.39502618 -0.12484036 1.0627271 0.5729448795 0.01131781191 0.8195157647
-0.085823029 0.055291072 1.317 -0.3318387568 0.9066265821 0.2605979741
-0.35559654 -0.024344757 1.0430626 0.464988023 -0.3840827346 0.7976632118
-0.33878872 0.076251589 1.1010001 0.43238765 -0.7599019408 0.4853760898
-0.13872671 0.035048958 1.197 -0.9295035601 0.2551541924 0.2663071454
-0.10498685 -0.013652707 1.2114285 0.3897984922 -0.6891265512 0.6108696461
-0.10827184 0.16182566 1.3280001 0.4929348528 -0.716789782 0.4931811094
-0.46242586 0.022509292 1.1670001 0.6710684299 -0.5649505854 0.4801021218
-0.197047 0.13223001 1.215 -0.7360348105 -0.4392905235 0.5150501132
-0.26734242 -0.20343341 1.0826668 0.0982433632 0.3916885853 0.9148378372
-0.23566203 0.20120201 1.268 -0.2025325447 -0.9380089641 0.2812822461
-0.18996051 -0.072277658 1.057 -0.9532063603 0.2029920816 0.2240353823
-0.42306036 -0.0059034736 1.0864 0.6954125166 -0.3644208908 0.6193535328
-0.2749953 0.18518908 1.234286 0.02177898213 -0.8794308901 0.475528121
-0.32541102 -0.14429201 1.0633702 -0.152769357 0.5081596375 0.8476056457
-0.44142184 -0.058663905 1.097 0.5779064894 -0.4582433105 0.6753052473
-0.13873249 0.011096846 1.266 -0.6753118634 0.6668903828 -0.3149779141
-0.28304982 0.022490881 1.0365001 0.2647489905 -0.4472078681 0.854349494
-0.20787632 0.033897322 1.087 -0.6006472707 -0.6929773092 0.3987546861
-0.16151093 0.11642484 1.302 -0.8671928048 -0.3815980852 0.3199367821
-0.41144246 -0.1582471 1.0940001 0.6118693352 0.3811749518 0.6930523515
-0.12432168 0.075778708 1.2528 -0.7107100487 -0.4061739743 0.5743812919
-0.34477207 0.023818569 1.0369335 0.4112503827 -0.2562425733 0.8747644424
-0.19928561 -0.14741677 1.0380001 -0.7480342984 -0.19539994 0.634242475
-0.26965126 0.074130937 1.057 -0.5174996257 -0.4748426378 0.7118417025
-0.25626338 -0.015555618 1.031 0.03181310743 -0.108050622 0.9936362505
-0.33547279 0.13622926 1.1862001 0.3221547902 -0.7829703093 0.5321407914
-0.14343143 -0.096468404 1.1645001 0.331879884 -0.7557959557 0.5644716024
-0.32363433 -0.063768625 1.0410001 0.1705123931 0.02470321953 0.9850458503
-0.25501743 -0.22175191 1.0163999 -0.02931868099 0.4906989634 0.8708357811
-0.30668885 0.10781877 1.1120001 0.38903597 -0.7480887175 0.5376005173
-0.24539962 -0.065069735 1.0148623 0.04210809246 0.05804502591 0.9974255562
-0.24568136 0.15398535 1.1859999 -0.3709801435 -0.7513190508 0.5457961559
-0.33592474 -0.20235564 1.0614616 -0.3906061947 -0.8110036254 0.4355455637
-0.37392429 0.083828613 1.1355999 0.4854307175 -0.7177237868 0.4992289841
-0.1602722 -0.13501719 1.108 0.2105534524 -0.9061313868 0.3668694794
-0.26568848 -0.1183413 1.0414617 0.1597229838 0.5965074897 0.7865540981
-0.23438762 0.067800395 1.0805714 -0.5226042867 -0.6696230173 0.5277213454
-0.36891887 -0.077129133 1.0600001 0.1885567605 0.295389235 0.9365850687
-0.24220985 0.10946498 1.13 -0.5927482843 -0.5794792771 0.5593328476
-0.37450376 0.052789886 1.0948 0.5592338443 -0.6653679013 0.494513005
-0.1432035 -0.0604637 1.21 0.6886181831 -0.4696170092 0.5525078177
-0.16067547 0.098621495 1.2640001 -0.7812334895 -0.5652571321 0.2648746371
-0.091689244 0.062618546 1.2755001 -0.7012394667 -0.3468710184 -0.6228512526
-0.19698817 0.17163175 1.2576667 -0.6348912716 -0.6392841935 0.4338534474
-0.1959805 0.092793815 1.1966363 -0.7437620759 -0.3061939776 0.5941911936
-0.2384095 -0.1482005 1.0500001 0.3883150518 0.528859973 0.7546645403
-0.16523069 -0.15473491 1.0706666 -0.5188951492 0.4318647981 0.7377266288
-0.41469842 -0.089946002 1.08 0.4448746145 0.5164586902 0.7316809297
-0.30537155 -0.18222478 1.0769999 -0.007568819914 0.3588093817 0.9333801866
-0.19306831 -0.10348465 1.0813333 -0.2986271381 -0.5159139037 0.8029038906
-0.15830408 0.0020838366 1.1880001 -0.9095183611 0.4121325016 -0.05406630039
-0.30475006 -0.11678527 1.0423501 0.002814162523 0.6404494643 0.7679951191
-0.15318041 0.038167875 1.161 -0.6128209829 -0.7140576839 0.3384849727
-0.43298697 0.09064953 1.2165 0.6004486084 -0.6309722662 0.4912590384
-0.3959111 -0.016865559 1.0620556 0.3640363216 0.2267058492 0.9033725858
-0.21930517 0.00090997998 1.0380001 -0.2735794783 -0.6103752255 0.743368268
-0.1626129 -0.12246157 1.1450001 0.4141974747 -0.7827768922 0.4644359648
-0.12884369 0.048176341 1.2780001 -0.6734834313 0.6838638186 0.2806248963
-0.43775296 0.018225899 1.1340001 0.6498473883 -0.5979952812 0.4691482186
-0.31086862 0.17318287 1.2270001 0.3408427238 -0.8491874337 0.4033694267
-0.20517243 -0.18348019 1.031 -0.6857936978 -0.02316153981 0.7274273634
-0.16658035 -0.076719895 1.0857999 0.1831139922 -0.5872718692 0.7884041071
-0.21799794 0.08510606 1.1674615 -0.812410295 -0.3165697455 0.4896663725
-0.30394801 0.087242141 1.08175 0.4022569656 -0.7497309446 0.5254454017
-0.4366405 0.047837071 1.161 0.6545441151 -0.5927693248 0.4692510664
-0.16794454 -0.0029000135 1.1037142 -0.8146619201 -0.4173842371 0.4026367068
-0.3700366 0.12195573 1.189 0.3917518258 -0.7823387384 0.4842278659
-0.36436996 -0.14277187 1.0556364 0.1572272927 0.4824241102 0.8617114425
-0.18632761 -0.034712173 1.0470003 -0.8511169553 0.1222413331 0.5105457306
-0.18557981 -0.028626673 1.126 -0.478025943 -0.6801351309 0.5557943583
-0.13529655 0.047267526 1.2346667 -0.8326357007 -0.3005786538 0.4651561379
-0.34477881 0.058133043 1.0710909 0.4026487172 -0.6977511644 0.5924671888
-0.31850088 -0.00091260998 1.041 0.3528233767 -0.3448917866 0.8698076606
-0.20998271 -0.071195856 1.028 -0.7138334513 0.190713644 0.6738472581
-0.27426273 -0.045524277 1.0275384 0.3419576287 -0.2214084715 0.913259685
-0.41468912 0.024304641 1.1022307 0.6459296942 -0.5287892818 0.5505966544
-0.40470704 0.074720345 1.1570001 0.5617495179 -0.6969892383 0.4456943572
-0.30458555 0.13803336 1.1620001 0.3610343039 -0.8006851673 0.478076905
-0.16229233 0.059680838 1.1943334 -0.4302929342 -0.8505253792 0.3024144769
-0.13402042 -0.028948409 1.223 0.4409237802 -0.4356719553 0.7847140431
-0.42078963 -0.12565149 1.087 0.6650058627 -0.1277484 0.7358312011
-0.24685764 -0.17343642 1.0706668 0.198564142 0.4075313509 0.8913419843
-0.17566486 0.11530814 1.2334547 -0.7973698974 -0.1407807171 0.5868407488
-0.19604781 0.046615481 1.1313335 -0.2768787146 -0.8612577319 0.4261141419
-0.26537228 0.17021886 1.2060001 -0.05100740492 -0.8829065561 0.4667699933
-0.12145574 0.0032460045 1.2333335 0.1664175391 -0.6480609775 0.7431837916
-0.15499677 0.022378266 1.2245386 -0.7813161016 0.5510895848 0.2929939628
-0.12107322 0.14169769 1.307 -0.2354141027 -0.6897389889 0.6847191453
-0.36490199 -0.054598797 1.0380001 0.2102604359 0.2122876346 0.954318881
-0.39354444 0.12198816 1.21 0.4599493742 -0.7794950604 0.4252458215
-0.11679523 -0.097663738 1.1485001 0.2279471606 -0.7446224689 0.6273575425
-0.25555149 0.016623301 1.0232354 -0.3237423897 -0.2666448653 0.9077947736
-0.21721959 0.15005991 1.197 -0.5583396554 -0.6214253902 0.5496247411
-0.13594621 0.10555219 1.3151821 -0.5069573522 -0.7701150179 0.3871912658
-0.27494282 0.15137069 1.1746 0.03078596294 -0.874450624 0.484136641
-0.25503394 -0.096318528 1.0231428 0.05009035766 0.4576523602 0.8877191544
-0.20351893 -0.11528913 1.05525 -0.8076271415 -0.2063012272 0.552429378
-0.41401079 -0.034965161 1.0863571 0.6668254137 0.1384339184 0.7322430611
-0.3332268 -0.20603193 1.0915385 -0.2526398599 0.4508173764 0.8561173081
-0.26560721 0.1997634 1.273 0.1141284406 -0.9505218267 0.2889341712
-0.33308071 0.15487194 1.21 0.3336599469 -0.8173395991 0.4697095454
-0.20414223 0.015424431 1.0633181 -0.5599932075 -0.6694790125 0.4880630374
-0.22328828 -0.15641667 1.0190003 -0.452327311 -0.3992625475 0.7974894643
-0.2473478 0.13309571 1.1553999 -0.5847520232 -0.6781409979 0.4451851547
-0.13497159 0.093355358 1.2830001 -0.07456637919 -0.9236776829 0.3758448362
-0.37551206 -0.1051754 1.0520689 0.5058161616 -0.1129108369 0.8552199006
-0.46436334 0.036605217 1.1930001 0.6463859677 -0.5871849656 0.4872360528
-0.38605213 -0.15600552 1.0710714 0.3226361871 0.4957447648 0.8063144684
-0.20330776 0.15442249 1.2346667 -0.6929889917 -0.4947481751 0.5243954062
-0.12067755 -0.03777732 1.197 0.6642693281 -0.4629428089 0.5868817568
-0.33479619 -0.17432143 1.0731785 -0.1598703712 0.2317879945 0.9595393538
-0.18324348 0.025442911 1.1020666 -0.5655902028 -0.6365844011 0.5242785215
-0.24478726 0.1882142 1.2410001 -0.06379746646 -0.8317939043 0.5514062047
-0.37320596 -0.0016521659 1.0470001 0.2825308442 0.2307939529 0.9310802817
-0.31481558 0.034870062 1.0335486 -0.1142594367 -0.07132309675 0.9908874035
-0.16591513 -0.047593415 1.1165625 -0.3857034445 -0.6380941272 0.6663848162
-0.36837885 0.10765861 1.164 0.3838854432 -0.7729867697 0.5050974488
-0.28075251 0.047866002 1.0500001 -0.3982070982 -0.2508948743 0.8823167682
-0.23498972 0.084413044 1.1052352 -0.5838822126 -0.6952601671 0.4191596806
-0.3259533 -0.035115495 1.0270998 0.02679172903 -0.0182866361 0.9994737506
-0.18182652 -0.13319488 1.0600001 -0.2520140111 -0.2078131586 0.9451468587
-0.34490201 0.093930781 1.1248751 0.4389478564 -0.6967855692 0.5672870874
-0.13781931 0.074461147 1.2250001 -0.5407380462 -0.5053313375 0.6724898219
-0.30401337 0.12375084 1.1353334 0.3674156368 -0.8173082471 0.4438613951
-0.14258856 -0.077362619 1.1872222 0.5751678944 -0.5885823965 0.5681132674
-0.10634433 0.091522835 1.268 -0.05270134658 -0.5813580155 0.8119392991
-0.28284487 -0.21524176 1.0187693 0.318045944 0.5389350057 0.7799973488
-0.27523986 0.11700973 1.1153334 -0.1451065689 -0.8280181289 0.5415995121
-0.46149063 -0.064810365 1.1145 0.8829459548 -0.0317677781 0.4683986604
-0.44026199 -0.080477998 1.08 0.7717195749 0.2975601852 0.5620558858
-0.31236058 -0.085014448 1.028 0.2504414916 -0.01206557918 0.9680565596
-0.38314006 0.065328799 1.1182729 0.5007714629 -0.6637435555 0.5555829406
-0.145638 -0.13802151 1.0857999 -0.9445155859 0.2173880041 0.2462370992
-0.21719855 0.19100375 1.245 -0.4646238387 -0.7664055824 0.4435619116
-0.44061705 -0.023996996 1.095 0.7853807211 0.1107416078 0.6090266109
-0.29917213 -0.060557503 1.031 0.3121104538 -0.2345391512 0.9206402302
-0.46258476 0.0050197933 1.1440001 0.5642258525 -0.6484354138 0.5110584497
-0.38342464 -0.038549226 1.0532501 0.5488106012 -0.3462643325 0.7608600259
-0.41608047 0.086354733 1.194 0.6626585126 -0.552842021 0.5052220821
-0.20850903 0.061444689 1.149 -0.6917732954 -0.6479710937 0.3187211752
-0.19049966 -0.1589046 1.0600001 -0.5710353255 0.4575259686 0.6816073656
-0.19042076 -0.049715765 1.0700001 -0.9921554923 0.1077705398 0.063348189
-0.4031606 0.01038587 1.077 0.6368700266 -0.5145787597 0.5741125941
-0.22720782 0.044189259 1.0724444 -0.8229876757 -0.4005176723 0.4028360546
-0.22628169 -0.20367046 1.0154001 -0.4461133182 0.2525399625 0.8586072922
-0.29718122 -0.20926909 1.09 0.09184547514 0.4326066077 0.8968923688
-0.22554485 0.097952157 1.1460001 -0.9059283137 -0.2655648291 0.3298017681
-0.35638765 0.037808146 1.0605 0.5088765621 -0.6219092607 0.5952088237
-0.24471967 -0.034895536 1.0187861 0.2329379618 -0.3366357684 0.9123684764
-0.1741374 0.052099425 1.1562001 -0.3042593896 -0.9027912021 0.3039641976
-0.39524916 -0.085597262 1.0639231 0.353520602 0.4237048924 0.8339648247
-0.27583843 -0.0042681 1.0190004 -0.1309668869 0.09932818264 0.9863982797
-0.24554004 0.053497706 1.0563078 -0.2527283132 -0.6993235946 0.6686365604
-0.157608 0.058968984 1.223 -0.3632020652 -0.4050785601 0.8390444517
-0.15521735 0.13159731 1.2830001 -0.9799007773 -0.08322490752 0.1812956184
-0.42780149 0.065337084 1.1830001 0.5824834108 -0.6709511876 0.4588437378
-0.13598853 -0.1291891 1.108 0.1910963953 -0.9097961783 0.3684468865
-0.34401596 0.0025941362 1.0500001 0.07862064987 0.3345713317 0.9390850663
-0.21708547 0.051365212 1.1055 -0.8238632679 -0.5157778263 0.234994784
-0.27473879 0.092206486 1.0732501 -0.1833634228 -0.7766551971 0.6026479006
-0.28453356 0.19410188 1.2580001 0.1591246426 -0.9223343134 0.352106154
-0.3443985 -0.1292645 1.0500001 -0.001920024049 0.5055880547 0.862772882
-0.28459743 -0.13487658 1.0559567 0.08642745763 0.5386703014 0.8380719423
-0.09715414 0.0066050012 1.2328891 0.2936311066 -0.6417637467 0.708463192
-0.19786805 -0.081077635 1.1010001 0.02928614803 -0.5283307433 0.848533392
-0.43295744 0.0038814417 1.1065 0.6878753304 -0.4799905717 0.544459939
-0.32576701 0.12599117 1.1636666 0.37150231 -0.7861025929 0.4939926267
-0.32225779 0.072587378 1.0752858 0.3955729902 -0.741027832 0.5425862074
-0.20699131 0.12508586 1.194 -0.7774659991 -0.309138149 0.5477044582
-0.14883633 0.0063892724 1.2444285 -0.6264972687 0.5687277913 0.5329632759
-0.3438341 -0.07581605 1.0470001 0.3137425184 0.03877253458 0.9487161636
-0.29860726 -0.15790229 1.0700001 0.08128903806 0.3673970103 0.9265050292
-0.35642916 0.13569503 1.2036002 0.4446679056 -0.772151649 0.4539298117
-0.24449652 0.004728979 1.0410001 -0.4846955538 -0.2014327794 0.8511727452
-0.33567473 0.046418548 1.0519167 0.4376031756 -0.6855744123 0.581799984
-0.19860314 -0.016152147 1.0380001 -0.6919400096 -0.305845201 0.653970778
-0.18139111 0.073900074 1.21 -0.6932381988 -0.4109338224 0.5920761824
-0.39154387 0.036379911 1.092 0.5501500368 -0.6386333108 0.5380357504
-0.38753054 -0.066275991 1.0500001 0.3628871143 0.3097731173 0.8788365126
-0.31755409 0.089764528 1.1010001 0.4646839797 -0.7091806531 0.5302184224
-0.25116792 -0.19863223 1.01 -0.2448501587 0.3416539431 0.9073703885
-0.14784944 0.12439179 1.3233335 -0.6989582181 -0.591355145 0.4021896124
-0.42321557 -0.065181039 1.0741111 0.6341325045 -0.303963989 0.7109724283
-0.31139025 -0.23377368 1.054 0.6138433218 0.458068192 0.6429384947
-0.32033664 -0.21294585 1.0470001 0.6897634864 0.4428759217 0.5727890134
-0.29564574 0.076068915 1.0630001 0.2489119619 -0.7332696915 0.6327388287
-0.22390871 -0.13476424 1.0375791 0.2192892134 -0.1197347566 0.9682849646
-0.38340664 0.0912873 1.1570001 0.5673320293 -0.6217525601 0.5399612188
-0.19928561 -0.053233828 1.0380001 -0.8083372116 0.1157831922 0.57722193
-0.22448792 -0.055235267 1.0161668 -0.3691442013 0.09760258347 0.9242328405
-0.44290838 -0.039319083 1.1120001 0.5785991549 -0.06726300716 0.8128337264
-0.20800546 -0.094977953 1.0447059 -0.8466647863 0.1769292504 0.5018513203
-0.18828036 0.10510702 1.2143333 -0.7782413363 -0.2617048621 0.5708336234
-0.27246362 -0.066641919 1.0190001 0.279022336 -0.1289013773 0.9515939355
-0.23637879 0.16286854 1.2048001 -0.3373545706 -0.786103189 0.5179128647
-0.24399962 -0.12414308 1.0372382 0.2111581713 0.449498564 0.8679650426
-0.15752494 -0.095454313 1.07275 0.2771121264 -0.4143105447 0.8669230938
-0.28479144 -0.10581695 1.0323079 0.04064047709 0.5457257628 0.8369777203
-0.42661566 0.035922669 1.1427144 0.6347147822 -0.4743107855 0.6100544333
-0.12195398 -0.077886567 1.169 0.4803049862 -0.5532817841 0.6805779934
-0.14456582 0.086087205 1.2429999 -0.4226784408 -0.8348619342 0.3526307642
-0.2249811 0.016418314 1.0532222 -0.4773567021 -0.5453900099 0.6889704466
-0.25696558 0.083595 1.0851249 -0.5152336359 -0.6406790018 0.5692667961
-0.18718849 -0.039357949 1.095 -0.9487220645 -0.05470290408 0.3113423884
-0.18635654 0.1755262 1.278 -0.6082542539 -0.708165884 0.358507812
-0.226221 -0.083604552 1.0190001 -0.4119962156 0.3032208085 0.8592532873
-0.34470001 -0.1555364 1.0637141 -0.07686758041 0.4699143469 0.8793587685
-0.42482537 -0.10491395 1.0941875 0.7227905393 -0.007135803811 0.6910303235
-0.23429163 0.13582586 1.1758573 -0.497879833 -0.6533373594 0.5703209043
-0.28498799 0.17305517 1.2160001 0.1415575445 -0.8653481603 0.4807639718
-0.30070487 0.0015020221 1.028 0.3948230147 -0.4575104117 0.7967427373
-0.40472338 -0.1441368 1.0718 0.5437121391 0.3224084079 0.7748741508
-0.35842693 0.068965614 1.108 0.4328205287 -0.7274744511 0.532397747
-0.14066818 -0.10874349 1.138 0.1827307343 -0.7769993544 0.6023964286
-0.1842732 0.14644979 1.2424546 -0.6427129507 -0.5493369699 0.533993423
-0.25151217 0.098460183 1.1120001 -0.5881974697 -0.6397887468 0.4946657121
-0.29396841 0.10227668 1.0944 0.2783205211 -0.7981324792 0.5343428254
-0.17866875 0.011107951 1.0860001 -0.7378237247 -0.5293568373 0.418804884
-0.10386922 0.12898046 1.302 -0.3763236701 -0.623408854 0.6853772402
-0.3149156 0.14373989 1.1844286 0.3964644372 -0.7962427139 0.4569611549
-0.093325026 0.043737955 1.334 -0.4067472219 0.8611615896 0.3048892319
-0.3341991 -0.015547542 1.0369475 0.3920491934 -0.485356003 0.7814902067
-0.35185629 0.12072489 1.177 0.3836051226 -0.7882307172 0.4811854064
-0.23500323 -0.015427313 1.0261537 0.04612428695 -0.4477181435 0.8929843307
-0.44503719 0.026407033 1.1544545 0.6452383399 -0.5291368961 0.5510731936
-0.15122588 0.021603696 1.2970001 -0.8413823843 0.5067082644 -0.18794249
-0.27494046 -0.18410251 1.0761428 0.08743809909 0.3669989705 0.9261027575
-0.11686079 0.072858639 1.2729999 0.1924280971 -0.03718617558 0.9806062579
-0.18168478 -0.019071883 1.1450001 -0.3648515344 -0.7600428462 0.5377901196
-0.10183954 0.054780073 1.2581111 -0.1901528686 -0.5328487158 0.8245690465
-0.3517625 -0.19042076 1.0700001 -0.6314923763 -0.4784187376 0.6101908684
-0.39443654 0.071480237 1.1356 0.5624443293 -0.6706143022 0.4836660028
-0.2940931 0.063532211 1.0442001 0.01189939305 -0.5468940735 0.8371172547
-0.13738438 0.054971926 1.2148461 -0.7936509848 -0.3766158223 0.4777851701
-0.20946284 0.10215183 1.177 -0.8509508967 -0.1060058549 0.5144369006
-0.15482995 0.10441792 1.2857274 -0.7148553729 -0.6444193125 0.2714877427
-0.26467419 0.033149272 1.0380001 0.07168541104 -0.6215255857 0.7801071405
-0.16527763 0.094911784 1.2422308 -0.6884063482 -0.5626607537 0.457722187
-0.17785111 0.16233763 1.2640001 -0.6654592156 -0.5974007249 0.4475224912
-0.25582087 -0.13667232 1.0517777 0.2890386879 0.5552530885 0.7798401117
-0.28468814 -0.23130618 1.0320001 0.352054745 0.6348534822 0.6877633929
-0.12532125 0.054968312 1.2540001 -0.8743883371 -0.0922749266 0.4763720632
-0.30518931 0.015621973 1.0426958 0.1218722388 -0.1710436642 0.9776968956
-0.16631494 -0.063403666 1.1029999 -0.2050709277 -0.58280617 0.7863096595
-0.17652303 -0.11335435 1.0707059 0.1118529961 -0.5315260291 0.8396243453
-0.1646689 0.11527158 1.25225 -0.9069034457 -0.1992742568 0.3712356985
-0.11305142 0.022032388 1.2360001 0.220545873 -0.4095633626 0.8852216601
-0.25511789 0.12487731 1.1350001 -0.4149578214 -0.6787273884 0.605920136
-0.13490458 0.035393178 1.2931111 -0.8155663013 0.5722462535 -0.08594052494
-0.36912051 0.018410001 1.0500001 0.5359782577 -0.4188641906 0.7329939008
-0.32724375 0.10457695 1.1238573 0.4164866805 -0.7452279925 0.5207437873
-0.20350808 0.18673745 1.2755001 -0.5788778663 -0.7455311418 0.3302782774
-0.23167144 0.11735323 1.1539999 -0.69173491 -0.5468055606 0.4717059731
-0.17192514 -0.0051439875 1.1743335 -0.411837399 -0.7471646667 0.5216655135
-0.1555946 0.052554477 1.1754 -0.5259344578 -0.8328061104 0.1727047414
-0.1653771 0.014648298 1.1139565 -0.7370461226 -0.4106697142 0.5367619395
-0.1672481 -0.035224576 1.1328233 -0.3777863681 -0.6921517849 0.6149824262
-0.32404891 -0.12739 1.0504446 -0.09731473029 0.6202645302 0.7783327103
-0.40299976 -0.10584989 1.0748889 0.6384189725 -0.07310103625 0.7662097812
-0.29424068 -0.03624887 1.0324287 0.05937482789 0.330697149 0.9418672919
-0.22827756 0.087698221 1.1240001 -0.8327406645 -0.4876736104 0.2621401846
-0.20327415 0.038703371 1.113 -0.4689921141 -0.8126147389 0.3459821343
-0.27718747 -0.022272842 1.028 -0.2700655162 0.2857887149 0.9194506407
-0.17911966 -0.022039691 1.0623335 -0.8135217428 -0.08376390487 0.5754702687
-0.15479654 -0.12521605 1.1246667 0.285110116 -0.8549869061 0.4332545996
-0.18461259 -0.086001717 1.0864706 0.2232119739 -0.6308200359 0.7431302071
-0.30459443 -0.13357152 1.0550003 0.02601774223 0.5836302638 0.8116025925
-0.25476477 0.17908952 1.2262001 -0.0981938839 -0.8522104025 0.5139021873
-0.19499651 -0.0043394994 1.0537001 -0.7014993429 -0.4411886036 0.5596885681
-0.10575971 -0.024081634 1.1944546 0.5007174015 -0.605919838 0.6181774139
-0.2010401 -0.096322276 1.0633334 -0.9215962887 -0.02083889022 0.3875900209
-0.22304265 0.078361347 1.1438572 -0.8873971701 -0.396522373 0.2351516336
-0.34535718 -0.055266187 1.0350001 0.1638720483 0.4149585068 0.8949611187
-0.37523571 -0.12493962 1.0522223 0.4029718041 0.1965100765 0.8938665986
-0.43597803 0.07597807 1.2036667 0.5652129054 -0.6418861747 0.5181857944
-0.1957034 0.074997082 1.1851816 -0.7000439763 -0.4440815449 0.5592226982
-0.19154027 -0.060035009 1.087 -0.9832372069 -0.03821821883 0.178280592
-0.16149253 0.012667833 1.204 -0.9220244288 0.386729151 -0.01764840633
-0.32514557 -0.10444799 1.0360001 0.1244818494 0.32402125 0.9378243685
-0.29435575 0.14923497 1.174 0.2636911869 -0.8224393129 0.5040441751
-0.25556147 -0.15449357 1.0657827 0.1845541745 0.4647469223 0.8659965396
-0.097348392 0.073507972 1.2590001 -0.0491107665 -0.04088395089 0.9979562163
-0.41549718 -0.015260574 1.0713749 0.5949956179 -0.01147934329 0.8036469817
-0.38602611 0.11417049 1.1680001 0.457551986 -0.7343727946 0.5013409853
-0.39104068 0.00092663668 1.057 0.5293243527 -0.1941779405 0.825899899
-0.37503889 -0.015271533 1.0602858 0.3173510432 0.2099208683 0.9247818589
-0.25524849 0.065309018 1.0676944 -0.388895452 -0.6313938498 0.6708965302
-0.25437003 0.14604315 1.1674615 -0.3554622829 -0.8125166893 0.4620208144
-0.21791071 -0.17450868 1.0173334 -0.562097311 -0.04073898494 0.8260671496
-0.15798016 -0.13499264 1.0631669 -0.6023159623 0.1080031618 0.7909176946
-0.1216375 0.012054167 1.25 0.5101465583 -0.4886246026 0.7078110576
-0.13362943 0.088163733 1.265 -0.3363821805 -0.841360569 0.4230359793
-0.15804371 0.02700747 1.141 -0.5415266752 -0.7073715329 0.4542844296
-0.42870578 -0.14098378 1.0940001 0.7010474801 0.1635899395 0.6940971017
-0.27857834 -0.21492097 1.0920001 0.1080911607 0.4133588076 0.9041298628
-0.13302247 -0.042807054 1.2106668 0.6959371567 -0.4264221191 0.5777851343
-0.20400058 -0.16497637 1.0321002 -0.7342990637 -0.1215624586 0.667852819
-0.31577182 0.15402098 1.2033334 0.3388683796 -0.8132842779 0.4730083644
-0.30131647 0.18652925 1.2590001 0.2504378557 -0.8995585442 0.3578761518
-0.19580789 -0.20477618 1.705 -0.4883557558 0.7869948745 0.3770248592
-0.31513676 -0.16552545 1.0722259 -0.04340889305 0.3210512996 0.9460664392
-0.37391761 0.13074782 1.2060001 0.3990439773 -0.7912066579 0.4634176791
-0.30190647 -0.10003468 1.028 0.1231619865 0.3447558284 0.9305775166
-0.42855322 -0.041504029 1.1010001 0.6913571358 -0.002273562597 0.7225096226
-0.38547924 0.11185577 1.1861429 0.4264359176 -0.7776696682 0.4619332254
-0.41030368 0.081238069 1.1730001 0.628004849 -0.6094263792 0.4839518666
-0.26522011 0.054562405 1.0565714 -0.2926874459 -0.4865964651 0.8231390715
-0.29451779 0.034754716 1.0433334 -0.0893458575 -0.07069335133 0.9934886694
-0.20777038 0.17570867 1.2427143 -0.6882725358 -0.572429657 0.4456515014
-0.19507976 0.021100739 1.087 -0.5703659654 -0.688724637 0.447594732
-0.2926296 0.18120348 1.2340001 0.245586887 -0.8735951781 0.4201411605
-0.1326735 -0.058894642 1.1954 0.6527510285 -0.4895403683 0.5781576633
-0.11735031 0.097104572 1.2830001 0.1845805496 -0.665243566 0.7234507203
-0.32777631 0.017871724 1.0366668 0.05756160617 0.2979164422 0.9528548717
-0.36635813 0.095989749 1.1465001 0.473459512 -0.7229404449 0.5031830668
-0.1667299 0.15155235 1.273 -0.8272415996 -0.4306336045 0.3608684838
-0.26163152 0.16156529 1.189 -0.07693528384 -0.8530451059 0.5161346793
-0.39778602 -0.032235619 1.0710001 0.5602321029 0.001881496515 0.8283335567
-0.32199705 0.11650988 1.149 0.3947188556 -0.8090049624 0.435554862
-0.12157482 -0.0095981844 1.2165 0.420049578 -0.6512556076 0.6320003867
-0.31547102 -0.20531319 1.0926666 0.06709661335 0.4537198544 0.8886148334
-0.15387008 0.13237807 1.3040001 -0.9337027073 0.1490808576 0.3255366683
-0.098958135 0.14669088 1.3280001 0.3530494571 -0.7047917247 0.6153248549
-0.20155606 -0.075888418 1.0429091 -0.7828484178 0.2756845951 0.5578049421
-0.22594646 0.072434582 1.0958 -0.800365448 -0.4969066679 0.3354085088
-0.21335983 0.028275421 1.0711112 -0.6062360406 -0.6417260766 0.4697504342
-0.089401588 0.038630318 1.2590001 -0.61577034 -0.4202696383 0.6664835215
-0.255191 0.19452111 1.2536 -0.002368788468 -0.8941001892 0.447860688
-0.35257781 0.06423381 1.0855 0.4957987666 -0.7477391958 0.4416669607
-0.21550383 -0.01748562 1.0267142 -0.3551743925 -0.4294501543 0.8303154111
-0.21435694 0.15617748 1.2130715 -0.6226350069 -0.6176248193 0.480484426
-0.36208847 0.046168189 1.0746666 0.5829154253 -0.633936584 0.5082657337
-0.44361657 0.0049290583 1.1245 0.6378346682 -0.6015853286 0.4808970988
-0.3266834 0.057450306 1.0626668 0.3870139122 -0.7287293077 0.5649546981
-0.28501925 0.14098816 1.1570001 0.191016674 -0.856410265 0.4796603918
-0.28481495 0.12702724 1.132 0.1075608134 -0.8392257094 0.5330392718
-0.21254854 0.053888001 1.1340001 -0.6729828119 -0.6528461576 0.347686708
-0.3345831 -0.085486002 1.0360801 0.3788931668 -0.149061501 0.913356781
-0.34306169 -0.036915816 1.0271 0.312884897 -0.1272438467 0.9412289858
-0.40821356 -0.075005099 1.0600001 0.4947052598 0.1464059353 0.8566399217
-0.41867495 0.098325178 1.2060001 0.62976408 -0.6156679392 0.4736562073
-0.2044014 0.064970948 1.1654706 -0.6642976403 -0.6072826982 0.4357939065
-0.32529289 -0.18648641 1.0805334 -0.1424788982 0.4337333143 0.8897051215
-0.40239 -0.1619028 1.08 0.4972987771 0.4734901786 0.7269807458
-0.18352477 0.038084302 1.1235001 -0.3331017792 -0.8142995238 0.4753519595
-0.16637358 0.041909706 1.1450001 -0.4690552056 -0.7831366658 0.408269763
-0.24440984 -0.10702567 1.031 0.007195055019 0.4714180529 0.8818805218
-0.36387187 -0.16182478 1.067 0.1612200588 0.4977171719 0.8522239923
-0.14744657 0.026519166 1.21 -0.8330352306 0.5439029336 0.101103507
-0.40420264 0.1068344 1.1934445 0.5936453938 -0.6768023968 0.4353431463
-0.41753879 -0.050180398 1.08 0.6751772165 -0.3256638646 0.6618751884
-0.31452346 -0.017017027 1.028 0.3568738699 -0.2563790679 0.8982821703
-0.18647331 0.064951874 1.1950001 -0.6189467311 -0.6007364988 0.5059847236
-0.17350702 -0.0052306317 1.0845001 -0.8084166646 -0.4410257339 0.3898189366
-0.26399818 0.14464422 1.1538 -0.09266819805 -0.8795545101 0.4666866362
-0.17807393 0.093409963 1.2247144 -0.7601177692 -0.3848600686 0.5235491395
-0.29420987 0.13335188 1.1454002 0.2702486217 -0.8335000873 0.4819163084
-0.23524472 0.19700578 1.2514286 -0.09082501382 -0.8931874037 0.4404169917
-0.1738732 -0.096140839 1.0757368 0.239636302 -0.4399552941 0.8654558063
-0.21682072 -0.191734 1.0220001 -0.4919243753 0.08600813895 0.866379261
-0.1189286 0.039642867 1.2920001 -0.3767735958 0.8202838302 0.430320859
-0.26459888 -0.083510764 1.0188125 0.1234870329 0.2232082635 0.9669172764
-0.20838542 -0.11010758 1.0380001 -0.7832083702 -0.02931022458 0.6210680604
-0.25471476 0.043862168 1.0457369 -0.05366820842 -0.6398224235 0.766646564
-0.24175836 0.079312034 1.09 -0.4444050193 -0.7125486732 0.5429351926
-0.29467294 -0.19424061 1.0808001 0.05489748344 0.397936523 0.915768981
-0.30389914 -0.04654311 1.041 0.1710821539 0.08189116418 0.9818475842
-0.24622262 0.024216866 1.0345001 -0.5623608828 -0.2726987898 0.7806315422
-0.22130118 0.10511628 1.166 -0.8785828948 -0.1170402616 0.463026613
-0.32804167 -0.05136916 1.028 -0.1035969779 0.3156299889 0.943210125
-0.12309316 0.1551246 1.326 0.5442048907 -0.7449553609 0.3858530819
-0.36314678 -0.096408918 1.0458461 0.4508860707 -0.2070500404 0.868234992
-0.12564299 -0.091942176 1.1610001 0.3367961347 -0.7046076059 0.624577105
-0.16240375 0.12501167 1.2651428 -0.9565271735 -0.1084665582 0.2707227767
-0.1787874 0.13111076 1.2360001 -0.7111515403 -0.4052301943 0.5745015144
-0.24467486 -0.084904753 1.0179658 -0.02283181436 0.3479048312 0.9372518063
-0.20788617 0.18362178 1.2580001 -0.637727499 -0.6790242791 0.3636340201
-0.22861449 0.034550313 1.057 -0.7182224393 -0.3631753325 0.5935150981
-0.33671433 0.087931767 1.1120001 0.4287163615 -0.6852402091 0.588768363
-0.30211335 0.050958879 1.0380001 -0.03379677236 -0.3682643175 0.9291066527
-0.44284025 0.05600673 1.1830001 0.6281437874 -0.6242765784 0.4644503891
-0.37687021 0.036526654 1.0853846 0.542083919 -0.6589652896 0.5214496851
-0.15235722 0.074044585 1.2181667 -0.2564093471 -0.5469947457 0.7969008684
-0.14807163 -0.099721707 1.149 0.359161377 -0.7759577632 0.5185486078
-0.39586765 0.084826022 1.1657273 0.5525977612 -0.6658711433 0.5012497306
-0.35959989 0.088166364 1.13 0.4502393603 -0.7072734237 0.5450218916
-0.20722297 0.14061558 1.2060001 -0.7339961529 -0.5095771551 0.4489774704
-0.41816998 -0.14233559 1.08 0.6311442256 0.2555328012 0.7323660254
-0.250902 -0.1855728 1.08 0.102308169 0.3498474956 0.9312034249
-0.33687145 0.068737686 1.08 0.375872612 -0.7759613991 0.5065606833
-0.3962976 0.056189947 1.1245 0.6060347557 -0.5468310714 0.5776656866
-0.35560796 0.10744864 1.1547143 0.3866928518 -0.7913164496 0.4735893607
-0.31291914 0.11154531 1.126 0.411967814 -0.7773830891 0.4753504097
-0.1367258 0.11647013 1.3330001 -0.704741478 -0.5109038949 0.4922567308
-0.24640207 0.17184536 1.215 -0.1876023114 -0.848747611 0.4944015741
-0.35693133 0.14213133 1.2190001 0.4268863499 -0.7906987667 0.4388205707
-0.35545892 -0.11539884 1.0417502 0.2798870206 0.1929989308 0.9404332042
-0.23815548 -0.1626574 1.0632501 0.3455854058 0.4647906423 0.8151934743
-0.29526603 -0.14437769 1.0624781 0.09896274656 0.479978025 0.8716807961
-0.34380674 0.14501294 1.2030001 0.387042135 -0.7930424213 0.4704063237
-0.44510832 -0.014683583 1.1068 0.7727079988 -0.2238158733 0.5939939022
-0.13784765 0.038625348 1.2126667 -0.9737091064 0.1102633625 0.1993302554
-0.35776794 -0.0023404078 1.0443332 0.095316872 0.3021275699 0.9484902024
-0.26878601 -0.2266762 1.0220001 0.2076978683 0.5517135262 0.8077584505
-0.1371071 -0.084669083 1.1745386 0.4427202642 -0.6544606686 0.6129274368
-0.23509437 -0.094727896 1.0254443 -0.201339826 0.4178678095 0.8859168887
-0.40700242 0.016892783 1.0906668 0.6295892 -0.5207509995 0.5765724182
-0.37821153 -0.0919974 1.0600001 0.4621391594 -0.05550604686 0.885068655
-0.41198161 0.06345927 1.149 0.6227632761 -0.6255187392 0.4699917138
-0.4228023 -0.08699251 1.067 0.4200741947 0.5204594135 0.7434108257
-0.19680621 0.1142832 1.2050588 -0.7989140749 -0.2574076056 0.5435785651
-0.18092759 -0.044494461 1.1138572 -0.6266953945 -0.51733464 0.5827673078
-0.33755621 -0.19546719 1.0752727 -0.6618911624 -0.3983941972 0.6349662542
-0.26175117 -0.2114314 1.0070001 -0.001405566931 0.4318703413 0.9019346237
-0.43048891 -0.01995644 1.0840001 0.7289087772 0.08408080041 0.679428041
-0.15922984 0.0085492535 1.2190001 -0.9213417172 0.3416872323 0.1854163557
-0.29301006 -0.0098265568 1.0190001 0.1799385548 -0.1505268961 0.9720924497
-0.43346432 -0.067326248 1.0855 0.6410734057 -0.3393423259 0.6883833408
-0.34469604 0.11754552 1.1636666 0.3389693499 -0.8106864095 0.4773755074
-0.19778915 0.053758074 1.1570001 -0.3664750457 -0.8690809608 0.3322564662
-0.45689639 0.016315313 1.1539999 0.6016242504 -0.5957813263 0.5320647359
-0.18469614 0.05119295 1.1450001 -0.2469251901 -0.9028542638 0.3519689441
-0.18541791 -0.16947138 1.0700001 -0.4693157971 0.5528364778 0.688559711
-0.19097133 -0.14461142 1.0506668 -0.6679478288 -0.1509289742 0.7287428379
-0.14789893 0.091609038 1.2590001 -0.4000740647 -0.8712612987 0.2843316197
-0.4404645 -0.099079989 1.1190001 0.7794520855 0.2738876045 0.5634180903
-0.2740581 0.014294762 1.0270624 0.260659188 -0.4194359779 0.8695574999
-0.2061599 0.0027518566 1.0458 -0.5320394635 -0.5693190098 0.626745522
-0.37274528 0.061639089 1.10725 0.471448034 -0.6865557432 0.5535142422
-0.26552001 -0.10665589 1.0314738 0.1086116433 0.551586926 0.8270159364
-0.12404073 -0.10874349 1.138 0.1323958486 -0.7769511342 0.6154821515
-0.35231656 0.13029458 1.189 0.4146977067 -0.7598190904 0.500700295
-0.22639202 0.14243071 1.1873335 -0.4910931587 -0.6006182432 0.6309399605
-0.36688304 -0.070625365 1.04625 0.171624884 0.4634796381 0.8693282008
-0.20050944 -0.13028494 1.054 -0.6238572001 -0.4007656574 0.6709613204
-0.14577039 0.10561629 1.3034286 -0.5328663588 -0.7446355224 0.4019595087
-0.18568054 0.12514092 1.2236954 -0.7505078316 -0.3187181652 0.5789272785
-0.41071394 -0.11990959 1.077 0.6755867004 -0.1585987508 0.720020175
-0.22575003 0.055574477 1.0836874 -0.818390727 -0.4684042335 0.3329175413
-0.1961305 0.14162989 1.2270001 -0.6511766315 -0.561257422 0.510841608
-0.33112577 -0.15852763 1.0700001 -0.1304270476 0.3817869127 0.9150013924
-0.33310264 -0.11955191 1.041 -0.002196922433 0.4650054872 0.885305047
-0.1920284 0.0076966076 1.0706002 -0.6276122332 -0.6022772789 0.4933203459
-0.11090052 0.043923192 1.2525001 -0.2858208716 -0.5415390134 0.7905959487
-0.22505414 -0.025241764 1.017765 -0.1265756786 -0.3577333987 0.9252055883
-0.19855765 -0.034215249 1.0380001 -0.7702219486 0.0255033318 0.637265861
-0.11601854 0.055813793 1.2753075 -0.1329413056 0.753503263 0.6438629627
-0.1660061 0.066086419 1.2125833 -0.4307637811 -0.5888648629 0.6838718653
-0.42848575 -0.053558193 1.0910001 0.6727510691 -0.368475616 0.64158535
-0.21409339 -0.084834814 1.0328622 -0.6964298487 0.2629127204 0.6677292585
-0.35268342 0.083519369 1.1175001 0.4231616259 -0.6795119643 0.5993310809
-0.12872769 -0.072128922 1.1810001 0.5489146113 -0.5375769734 0.640081048
-0.20890929 -0.05450334 1.0266666 -0.7313381433 0.1105878428 0.6729894876
-0.1462806 0.018420519 1.2360001 -0.4397370219 0.6306146383 0.6394971013
-0.18607104 -0.071961768 1.101 0.05598735437 -0.4770606458 0.8770852685
-0.18988687 -0.11879622 1.067 -0.3637371659 -0.5099844933 0.7794941068
-0.42000926 0.050879981 1.138 0.6237645149 -0.5074746013 0.5944639444
-0.20703426 -0.13508961 1.0349002 -0.5506770015 -0.3887149692 0.7386850119
-0.42026436 0.01154044 1.097 0.6645734906 -0.4887154102 0.5652427077
-0.2631543 -0.028388217 1.028 0.2147420049 -0.2370000333 0.9474791884
-0.14115912 -0.11944233 1.126 0.189887017 -0.8458848596 0.4984191954
-0.33361295 0.033635147 1.0369092 0.2998940051 -0.3531804383 0.8861868978
-0.35736927 0.015391513 1.0414287 0.3810021281 -0.1172479317 0.9171097875
-0.25845653 0.11114029 1.1153334 -0.4918809831 -0.685102582 0.5372965336
-0.29477659 -0.22291198 1.0952631 0.09291040897 0.4548781514 0.8856937885
