# .PCD v0.7 - Point Cloud Data file format
VERSION 0.7
FIELDS x y z normal_x normal_y normal_z
SIZE 4 4 4 4 4 4
TYPE F F F F F F
COUNT 1 1 1 1 1 1
WIDTH 512
HEIGHT 1
VIEWPOINT 0 0 0 1 0 0 0
POINTS 512
DATA ascii
-0.17083253 0.040936828 0.89800006 0.2274408191 -0.1291813105 0.9651854038
-0.055524558 -0.22352195 1.6240001 -0.9089194536 0.3740126491 0.1843365878
0.021521291 0.24083348 1.169 -0.218287468 -0.573148489 0.7898426056
0.036279097 -0.07881321 1.427 -0.9267250896 0.3371403217 0.165882647
-0.1351354 -0.18420118 0.97199988 0.1230068654 0.51499933 0.8483189344
0.031450417 0.047624916 1.0250001 0.6397747397 -0.4577897489 0.6173465848
-0.16216141 0.19181378 1.057 -0.1217935309 -0.7962450385 0.5925876498
-0.29836476 -0.074591182 1.001 0.8575445414 -0.03682618961 0.513089776
-0.025983723 -0.065644808 0.90709698 -0.3029191494 -0.07252541929 0.9502526522
0.0090971701 0.098047279 1.153 -0.8919075131 -0.05997241288 0.4482234418
-0.08375147 0.10194231 0.98266673 -0.04464518279 -0.8805090785 0.4719222188
-0.19459219 -0.084324956 0.92485285 0.3024723232 0.3605807126 0.8823219538
-0.055454422 0.1849643 1.1031303 -0.6608544588 -0.2868422866 0.69353652
-0.20284452 0.12535624 0.97491664 0.2898955345 -0.7953469753 0.5323380232
-0.26343596 0.024893485 0.95361125 0.6461818218 0.03483683243 0.762387991
-0.094541319 -0.14475551 0.87791908 -0.1631659269 0.1545758694 0.974414289
-0.17519979 0.23348232 1.1463333 0.3276557922 -0.8073164821 0.4907971025
-0.23822276 -0.15222177 0.98100007 0.4452884197 0.5340371728 0.7186949849
-0.069151469 0.021965759 0.92800003 -0.8589766622 -0.06842944026 0.5074214339
-0.0024520371 -0.03677338 0.99227273 0.6554063559 -0.6359118223 0.4075029194
-0.11518367 -0.048488911 0.89099985 0.05880489945 0.4480030537 0.892095983
-0.018532734 0.11675622 1.057 -0.8791601062 -0.09593794495 0.4667691886
-0.089960903 0.2415804 1.153 -0.3747785687 -0.7502167821 0.544716239
-0.011198833 0.04384239 1.0950001 -0.9547891617 0.1634463519 0.248320356
0.024475459 0.16548634 1.1067775 -0.1413706541 -0.3655395508 0.9199973941
-0.09297049 0.1389955 1.0500001 -0.401299119 -0.5354110599 0.7431648374
-0.038140554 0.043770116 0.99633336 -0.6432173848 -0.5111573339 0.5700786114
-0.14398451 0.10200252 0.93530005 -0.1622980088 -0.7789610028 0.6057054996
-0.1255578 -0.11724222 0.94000036 0.1294443756 0.4157142639 0.900236547
-0.21417014 -0.014397529 0.91758615 0.2961030304 0.2182024717 0.9298982024
-0.144243 0.14775777 1.00175 -0.2886397243 -0.7819629312 0.5524681807
-0.022982597 0.18624853 1.1623334 -0.5632321239 -0.6316781044 0.5326840878
-0.2566075 -0.05492755 0.95220017 0.5709243417 0.2199310511 0.7909966707
0.044499598 0.10793521 1.08 -0.08742493391 -0.5961855054 0.7980725169
-0.22379373 0.073717542 0.93507695 0.5787063837 -0.557441771 0.5952794552
-0.14161278 -0.18298313 0.90750003 0.4587992728 0.688008368 0.5622701645
-0.21120061 0.15828764 1.0317501 0.3796868324 -0.788084805 0.4845206738
-0.1150456 0.014672105 0.8807345 -0.1128130183 -0.16311647 0.9801357985
-0.11528496 0.21562098 1.0923846 -0.3790691495 -0.7065057755 0.5976254344
-0.051087748 -0.12082658 0.92500007 -0.7536979318 0.3551079929 0.5530259609
-0.30093774 -0.0034891334 0.99500006 0.7876871824 0.2318607271 0.5707797408
-0.18493751 -0.1357546 0.95533329 0.02821148746 0.451446414 0.8918521404
-0.02675139 -0.015116822 0.93363172 0.3058814406 -0.4917840362 0.8152208328
-0.10547926 0.06287992 0.91450012 -0.2386665195 -0.7265952826 0.6442806721
-0.074972123 -0.085159019 0.88694721 -0.1570847631 -0.4249367416 0.8914892673
-0.23512338 -0.10555945 0.95346439 0.6451244354 0.09060490131 0.7586865425
-0.16138557 -0.011808701 0.89800006 0.582914412 -0.08238430321 0.8083462119
0.0099422764 -0.00090384332 1.031 0.7625784874 -0.400198251 0.5082473755
-0.036522459 0.094321087 1.0112002 -0.6673971415 -0.5357324481 0.5172733665
-0.028070519 0.052656807 1.0464001 -0.9132971168 -0.2027231157 0.3532586694
-0.0033944533 0.11882822 1.1065 -0.8703084588 0.4476917088 0.2052689046
-0.070168398 -0.041939735 0.92000002 -0.7068174481 -0.3434906006 0.6184037924
0.0036776166 0.046123773 1.1436667 -0.9227361679 0.2937363982 0.2495533824
-0.06215464 0.066058733 0.9538334 -0.7037923336 -0.4450319707 0.5537353754
-0.26825956 -0.11409686 0.99350005 0.7476270199 0.2166204751 0.6277973056
0.0065094805 -0.054645311 0.94673687 0.5662249327 -0.8050057292 0.1770738214
0.015496779 0.2026553 1.1380002 -0.361689955 -0.6217572093 0.6946929693
-0.15488328 -0.066143468 0.90855175 0.07332131267 0.5358787775 0.8411051631
-0.050180398 0.1448604 1.08 -0.2154641449 -0.7540893555 0.6204227805
-0.12527391 0.17016625 1.0380001 -0.5269024372 -0.5656875372 0.6343275309
-0.13227497 0.24184602 1.126 0.0004530730075 -0.8744543791 0.4851075113
-0.21070859 0.030101227 0.92800003 0.5115794539 -0.1167349815 0.8512693048
0.032746829 -0.0081423046 0.98820007 0.5960283279 -0.5487343669 0.5862088203
-0.030714016 -0.00087754335 1.001 -0.7708736062 -0.5930656195 0.2324370742
0.01794677 0.081221409 1.0552001 0.1387943029 -0.5923122168 0.793663919
-0.12581643 0.11400631 0.97460878 -0.5821795464 -0.6714389324 0.4585157931
-0.16789269 -0.17616268 0.94342858 -0.08605529368 0.9390773177 -0.3327585459
-0.18771093 0.10276221 0.93774992 -0.1267602742 -0.5623075962 0.8171548247
-0.095041282 0.17503402 1.073423 -0.4872212708 -0.4672817886 0.7377419472
-0.045826413 0.016504353 0.96417391 -0.356439203 -0.7268818617 0.5870212317
-0.025004841 0.16393404 1.1246365 -0.3210020363 -0.8602140546 0.3962188959
-0.11517634 -0.084712356 0.91444451 0.3315175176 0.565603435 0.7551085353
-0.26725498 -0.018109303 0.97042859 0.5127732754 0.3267558813 0.7939106822
-0.10979023 -0.15504727 0.95600003 0.1229181066 0.3712701201 0.9203529954
-0.014086499 0.084859066 1.0835834 -0.7862225771 -0.2587042749 0.5611828566
-0.07450527 0.2164264 1.1242 -0.366595149 -0.7201293707 0.5890854597
-0.059481833 -0.12284291 0.88500005 -0.2940809727 -0.07750401646 0.9526329041
-0.10874283 0.12211374 1.0167501 -0.5876443982 -0.6743505597 0.4471301734
-0.097245902 -0.18187092 0.89377785 -0.07784531265 0.4832869768 0.8719941378
-0.2175536 -0.047795862 0.94000006 0.2921212912 0.3564768136 0.8874623775
-0.14812537 0.072869785 0.90771431 -0.2110623866 -0.4700750113 0.8570193648
-0.0085764304 0.15532866 1.087 -0.738583982 -0.339907676 0.5821996927
-0.16498086 0.12183336 0.96508336 -0.1440315992 -0.7524029016 0.6427633762
-0.085697778 -0.015640698 0.89561558 -0.6545007229 -0.1121348739 0.7476994991
0.0029425318 0.07599473 1.1185 -0.944372654 0.1523072571 0.2914837599
-0.17062476 0.17062476 1.0190001 -0.233830452 -0.7661821246 0.5985718369
-0.16398926 -0.10673456 0.94000036 -0.006295797415 0.5238177776 0.8518070579
-0.18581893 0.065676667 0.92396003 0.400267601 -0.2943899632 0.8678250909
-0.2372523 0.084186301 0.97000003 0.7308424711 -0.5262628198 0.434645474
-0.10570189 0.085608013 0.95530444 -0.3265303671 -0.8032953739 0.4980908632
-0.023045814 0.20638049 1.1950001 -0.9504361749 0.310654074 -0.01285129972
-0.063939795 -0.015138842 0.95312017 0.7220723629 -0.50475353 0.4731124341
-0.18482988 -0.044804677 0.91266674 0.5838452578 -0.04816001281 0.8104352951
-0.14535798 -0.14536002 0.9529168 0.1018765047 0.3304405212 0.9383124113
-0.28611594 -0.040873706 0.99200004 0.8633087873 -0.034672454 0.5034836531
-0.2416985 -0.0055756001 0.94742858 0.6278637052 -0.03184803948 0.7776714563
-0.26481116 -0.083485238 0.97440916 0.4639263153 0.487316221 0.7397940755
0.0438684 0.13550462 1.1120001 0.4183956683 -0.4573858976 0.7846930623
-0.20551696 -0.16181557 0.97275007 0.2841217816 0.4423616827 0.850641489
-0.043290678 0.12160381 1.0318573 -0.1667909026 -0.9143971801 0.3688611984
-0.040615965 0.20109856 1.13 -0.8387128711 -0.3215090334 0.4395368397
-0.14864233 0.21910267 1.1010001 0.2492271513 -0.8090052009 0.5323498845
-0.18532883 0.14760749 0.99481249 0.258037895 -0.8076144457 0.5302596688
-0.051119309 0.063079379 1.0230001 -0.9280541539 -0.1641682535 0.3343116343
-0.051313926 0.086861007 0.98100013 -0.5853834748 -0.53025949 0.6133115292
-0.024754116 -0.096066736 0.92290008 -0.3336215019 0.4401145279 0.8336641192
-0.13746046 0.036114782 0.9011429 0.2748601735 -0.3580799699 0.8923175335
-0.12476391 0.19366877 1.0620834 -0.2862896621 -0.709185183 0.6442783475
-0.24263136 0.043246746 0.93466675 0.6368381381 -0.1084277332 0.7633351684
0.027366903 0.020304477 1.0070001 0.7297115326 -0.3288404346 0.5994873643
-0.088958874 0.024404645 0.89800006 -0.6808390021 -0.1397281885 0.7189814448
-0.076057002 0.053748425 0.92495996 -0.5761147141 -0.4760400355 0.6644378901
-0.086313345 0.20130999 1.0957143 -0.3325295746 -0.676320076 0.6572787166
-0.18554462 0.0076888343 0.90733337 0.1594716609 0.1798486412 0.9706818461
-0.031450417 0.028754666 1.0250001 -0.9305908084 -0.269372046 0.2478698492
-0.034156688 0.083639085 1.0530001 -0.8953092694 -0.182668522 0.4062677622
0.022109533 -0.032313932 0.97000003 0.5698922873 -0.6753112078 0.4681640565
0.01490212 0.12248341 1.1330769 -0.7258948088 0.5736799836 0.3794311285
-0.011941953 -0.060562763 0.97300005 0.6238354445 -0.6729868054 0.3973890245
-0.20804526 -0.11265692 0.93800002 0.1593689471 0.3411488235 0.9264011383
-0.00303239 0.22810312 1.153 -0.216963768 -0.5810671449 0.7844027281
0.021978034 0.12804593 1.09 0.05475731939 -0.6241355538 0.7793949246
-0.13505235 -0.024838794 0.88533336 0.2660521269 0.1517303288 0.9519423246
-0.07916826 0.1137475 1.0380001 -0.4938014448 -0.5810136199 0.6469801664
-0.097016409 -0.10716154 0.93310004 0.2478746325 0.597222209 0.7628130913
-0.084858567 -0.055000756 0.89627773 -0.3890592456 0.03330611438 0.9206104279
-0.17363523 0.21876077 1.1190001 0.3498604298 -0.7943811417 0.4965443611
-0.10238765 0.22938772 1.123 -0.3706017435 -0.7092927098 0.5996316671
-0.22482719 -0.13415796 0.9567368 0.3262198865 0.5449612737 0.7723974586
-0.063148439 0.11351236 1.002 -0.3796740174 -0.715303719 0.5866755843
-0.090482011 -0.11472811 0.88000005 -0.2073406577 -0.07665866613 0.9752606153
-0.23445712 -0.07535968 0.95512503 0.5310474634 0.2242738008 0.8171228766
-0.12495635 0.07809218 0.93161547 -0.3289720416 -0.6542195082 0.6810097098
-0.055561733 -0.06877555 0.90800011 -0.2671009004 -0.5211712718 0.8105785847
-0.031533699 0.10797903 1.09 -0.5989589095 -0.07494466752 0.7972650528
-0.018708067 0.03367452 1.067 -0.9505509138 -0.00869561173 0.310446918
-0.025172994 0.14452316 1.0635599 0.04913533106 -0.6735556126 0.7375015616
-0.070168398 -0.011291467 0.92000002 -0.8579766154 -0.0447907187 0.5117322803
-0.24880862 -0.12578863 0.97112507 0.7026244402 0.2308899909 0.6730592251
-0.063457161 0.12673356 1.0614001 -0.4921602011 -0.4987005293 0.7134957314
-0.035027254 -0.036568638 0.91603857 0.1939696521 -0.4138046801 0.8894613385
-0.16351773 -0.17725083 0.97176474 -0.1643777043 0.4232865274 0.8909593225
-0.12556131 0.14354087 1.0254999 -0.7116239071 -0.5214750171 0.470802784
-0.24878924 0.059878085 0.96200007 0.7737658024 -0.4813939035 0.4117601216
-0.2418313 -0.034328781 0.93753844 0.5958870053 0.082209602 0.7988493443
-0.088552102 -0.092540935 0.91000003 0.5699964166 0.4448190928 0.6908256412
-0.14106356 0.010131637 0.88900006 0.4870684147 -0.2342327833 0.8413675427
-0.074033156 0.15665936 1.0726 -0.5030792356 -0.5532881618 0.6639152765
0.0061888769 0.18431321 1.1143334 -0.1926191002 -0.5918455124 0.7826983929
-0.18679965 -0.015693836 0.92128581 0.3099394441 0.2458823174 0.9184113741
-0.0031869605 -0.064957544 0.92194748 -0.6968377829 -0.0626135394 0.7144904733
0.018054573 0.10442541 1.075857 -0.01626411825 -0.6097199917 0.7924500108
-0.037929971 0.1558366 1.1023749 -0.2260120958 -0.784532249 0.5774319768
-0.28424254 0.0025619122 0.97366667 0.6985012889 0.04798415303 0.7139982581
-0.16503075 0.085051708 0.92466682 0.3133539557 -0.6621183753 0.6807411909
-0.049215365 -0.09229967 0.89680004 -0.6974380612 -0.02059734426 0.7163490057
-0.12196599 -0.17472285 0.88700002 0.2448875755 0.4967575669 0.8326235414
-0.14531051 -0.092786968 0.92734784 0.06492368877 0.5836346745 0.8094167709
-0.10561389 0.044855855 0.89550006 -0.2518179119 -0.560816288 0.788715899
-0.22292405 0.050701141 0.91800004 0.1425813884 0.1669900864 0.9755946398
-0.14505014 0.1625416 1.0229377 -0.2523047924 -0.735198319 0.629146874
-0.074068964 0.086796045 0.96415788 -0.2900037766 -0.7367123365 0.6108623147
-0.22798353 0.015166333 0.94092304 0.4549438953 0.04500352964 0.8893822432
0.014461493 0.029826829 1.031 0.7272202969 -0.3468551636 0.5923193097
-0.0068708747 0.11685748 1.0815001 -0.7549013495 0.4403495491 0.4860208333
-0.084614992 0.075963631 0.94415385 -0.2864615619 -0.7761803269 0.5616795421
-0.062769577 0.042426284 0.94554555 -0.9125344753 -0.1307032108 0.3875531554
-0.2189405 0.091527499 0.95200008 0.6357116103 -0.5791675448 0.5103290081
0.041166164 0.08699128 1.0624001 -0.02190901153 -0.6405037642 0.7676424384
-0.27774245 -0.054184139 0.97263646 0.8046550155 -0.09228432924 0.5865269899
-0.15395255 -0.044188552 0.89688009 0.3184608519 0.2962225378 0.9004637003
-0.19245736 0.042389356 0.91662508 0.5706373453 -0.403013587 0.7155089378
0.032144152 0.066417724 1.041 0.4165739715 -0.5356206894 0.7345587611
-0.17574185 -0.1583558 0.96199995 0.1125424728 0.2410955727 0.9639539123
-0.078537934 -0.16096389 0.88700002 -0.2356535792 0.3156489432 0.9191480279
-0.019643471 0.062672019 1.067 -0.896094501 -0.03187575564 0.442717284
-0.14661197 0.13117914 0.97800004 -0.1972494721 -0.796474874 0.5715945959
-0.20397836 0.083906978 0.92545837 0.0261565242 -0.3743008077 0.926938355
0.0060876352 0.14599599 1.1039286 -0.541300714 -0.1521717161 0.82694453
-0.033813909 0.019941537 0.98900002 -0.8725023866 -0.3839692175 0.3021708727
0.0090407701 -0.016331716 0.99800009 0.6090292335 -0.5778924823 0.5432528853
-0.10903542 0.11164963 0.995 -0.6119135022 -0.7229748964 0.3207322359
-0.19152185 0.1212693 0.95400006 -0.04758212343 -0.8217882514 0.5678027868
-0.14390595 0.20359626 1.0729092 -0.04651929811 -0.7734992504 0.6320876479
-0.1059396 -0.13424909 0.94442856 0.1240376011 0.3622634709 0.9237856269
-0.036674473 0.0015431838 0.94771433 0.262346983 -0.6817278862 0.6829503775
-0.28345278 -0.092401333 0.98646164 0.611333549 0.4659216106 0.6396782994
-0.010829464 0.10337215 1.123 -0.9697465897 -0.0977172181 0.2237026691
-0.29706287 -0.051797848 1.01 0.8831194043 -0.1041239798 0.4574475586
-0.051066618 -0.026105642 0.93650019 0.4422587156 -0.4858230352 0.753911972
-0.0068914765 0.04134886 1.123 -0.9516198039 0.2206920981 0.2138099372
-0.033027247 0.17815386 1.1416665 -0.7189635634 -0.477424562 0.505130887
-0.10631657 0.16420022 1.0558 -0.5878124833 -0.393887639 0.7066321969
-0.064046346 0.16552785 1.092 -0.6356359124 -0.4098276794 0.6542233825
-0.1054147 -0.066972151 0.90163648 0.1611258388 0.4540288448 0.8762968779
-0.21413264 -0.075691655 0.93439996 0.6139521599 0.01598643698 0.7891813517
-0.10483716 -0.02485225 0.88585711 -0.2882395387 0.07538192719 0.9545865655
-0.0082888836 0.19377315 1.1820002 0.6104161739 -0.6652743816 0.4298861921
-0.14502363 0.11283549 0.95693749 -0.1703706235 -0.793597579 0.5841033459
-0.1443796 0.18137223 1.0453637 -0.1292287856 -0.7839068174 0.6072808504
-0.19534151 0.15541479 1.0143334 0.3789919615 -0.7823957801 0.4941881895
-0.15630949 0.23318124 1.1242001 0.3276557922 -0.8073164821 0.4907971025
-0.16472332 0.1040444 0.94499999 -0.007623787504 -0.7235072851 0.6902746558
-0.12336102 0.23069483 1.108 -0.2417139411 -0.7867308855 0.5680042505
-0.060096815 0.038323924 0.99350005 -0.2388800532 -0.6370622516 0.7328628898
-0.10436354 0.19601402 1.0829333 -0.4489831328 -0.6361610889 0.6274657249
-0.18485378 -0.11553664 0.94133365 -0.06176323816 0.4781512022 0.8761031628
-0.17480342 -0.075186893 0.91451627 0.229425773 0.4535886943 0.8611742854
-0.12477323 0.05439274 0.90519243 0.1003069133 -0.6068794131 0.7884388566
-0.14532323 -0.16587485 0.96405268 0.1316617131 0.5126364231 0.8484510183
-0.076016366 0.18395709 1.0860525 -0.4757488668 -0.4626324177 0.7480870485
-0.049198534 -0.099203601 0.92000002 -0.4525985718 0.4826592803 0.7497963309
-0.27648559 0.02337018 0.97280008 0.7272687554 -0.06523295492 0.6832457781
-0.16465773 -0.12776606 0.95100015 0.03428759053 0.3637650609 0.9308594465
-0.16558166 0.1554967 1.0036 -0.1804870516 -0.774941802 0.6057141423
-0.25454152 -0.10474306 0.97478563 0.7876130342 0.06446886063 0.6127883196
-0.20237823 -0.057217669 0.92710006 0.6069564819 -0.016574312 0.7945622206
-0.13572714 -0.05831923 0.90100002 0.1712633669 0.550496161 0.8170818686
-0.20219439 -0.0285355 0.93000007 0.1884059012 0.3507342339 0.9173269272
-0.12520008 -0.004636982 0.88155544 0.09568508714 -0.05218624324 0.9940427542
-0.16517581 0.015424929 0.90661556 0.2274874002 0.0927985087 0.9693492055
-0.12766282 0.13212129 0.98871428 -0.6121270657 -0.6745049953 0.4127269089
-0.20313579 0.055098355 0.93183327 -0.007810347248 0.1053775176 0.9944016337
-0.15596479 -0.17826942 0.92537498 -0.3662623167 0.8440972567 -0.3916015327
-0.029740039 0.063986145 1.028 -0.8339543939 -0.3569800556 0.4208150208
0.013541819 0.084695995 1.1365883 -0.9559681416 -0.06178896129 0.2868920863
-0.08351358 0.0051263482 0.90572733 -0.747831583 -0.06891672313 0.6603017449
0.01853887 0.00088280335 1.0070001 0.7199800611 -0.4460648596 0.5316529274
-0.17200199 0.1384616 0.98100007 -0.1182475835 -0.7526459098 0.6477203369
-0.068965614 0.20106876 1.108 -0.3459565938 -0.6855946183 0.6405263543
-0.0079755234 0.064551301 1.0917779 -0.92917943 0.08137065917 0.3605612814
0.01545075 0.21761009 1.153 -0.2506651282 -0.5611563325 0.7888413072
-0.2556434 -0.025245527 0.95423543 0.7469804287 -0.1074782908 0.6561011076
0.043666765 0.12550272 1.09175 -0.2439717352 -0.6492056251 0.7204233408
-0.12284555 -0.10006624 0.92800003 0.1892530918 0.5753204226 0.7957321405
-0.11100236 -0.15761764 0.88133335 -0.04405357689 0.3109509051 0.9494044781
-0.090679467 0.048131924 0.91000003 -0.5412291884 -0.5031241775 0.6737484932
-0.047509834 -0.052647579 0.92136365 0.2656012774 -0.5370292068 0.8006594777
0.02122673 0.1202848 1.153 -0.834405303 0.3896162212 0.3898294866
-0.12475076 -0.17221349 0.95825005 0.1387733668 0.4361515939 0.8891084194
-0.06781777 -0.1420989 0.8846668 -0.2629558146 0.1014902145 0.9594550729
-0.20541674 -0.141802 0.95900005 0.1064861044 0.5702972412 0.8145070672
-0.22799087 -0.0048373789 0.93161541 0.7111436129 -0.2145874798 0.6694975495
-0.11340764 0.14600328 1.0423335 -0.6180362701 -0.4489327967 0.6453607678
-0.24833864 0.018913206 0.93800002 0.3392345309 0.264536351 0.9027405381
-0.010655884 0.16565055 1.105 0.1589249969 -0.791940093 0.5895538926
-0.12342902 0.096283793 0.9529376 -0.5337741971 -0.7030539513 0.4698938727
-0.13409264 -0.074250028 0.91429639 0.1512844115 0.6010141373 0.7847898006
-0.095113672 0.10713467 1.0125387 -0.4716829658 -0.7961156964 0.3790975809
-0.14474474 -0.12419484 0.94682741 0.1208030283 0.3854722381 0.9147774577
-0.08516591 0.23364869 1.1334285 -0.3807026148 -0.7396577001 0.5549522638
-0.17241822 -0.026689555 0.9069286 0.5764740705 -0.0304933209 0.8165462613
-0.26543674 0.0044458224 0.95320016 0.4701389968 0.2343259603 0.8509175777
-0.20420122 0.01427465 0.91274202 0.5459915996 -0.1233436465 0.828661263
-0.020163333 -0.0508116 0.92000002 -0.2735870183 -0.3318420053 0.9027906656
-0.027831243 0.10861374 1.0353333 -0.9117856622 -0.0359169133 0.4090927243
-0.0020496466 0.24083348 1.169 0.6823062301 -0.4327112436 0.589253068
-0.10496087 0.075260319 0.93413794 -0.3005169034 -0.8050322533 0.5114808679
0.0059233443 -0.044520054 0.96433347 0.6011155248 -0.6952957511 0.3939846754
-0.10128394 0.0039055501 0.89099991 -0.4951843321 -0.03712715954 0.8679942489
-0.16428091 0.1806208 1.0353333 -0.2596949339 -0.7953374386 0.547719717
-0.060687251 0.02478775 0.97500002 -0.3032615185 -0.7528942227 0.5841085315
-0.01505675 0.16963938 1.1450001 -0.5314789414 -0.6477782726 0.5458144546
-0.12644601 -0.13895166 0.95100003 0.1433615237 0.3409228921 0.9290958047
-0.14431556 0.087221578 0.9212001 -0.3258113563 -0.6073638797 0.7245385051
-0.033426352 0.09462861 1.0752307 -0.8548737764 -0.2489101738 0.4552301764
-0.22465843 -0.033996776 0.92737031 0.2851617932 0.3364000618 0.8975064158
-0.053954449 0.21091287 1.1190001 -0.4613957405 -0.7167061567 0.5229209065
-0.12085113 -0.18878052 0.90100002 0.272977829 0.6120533347 0.7422087789
-0.045088209 0.11254547 1.0142857 -0.6240515709 -0.5573920012 0.5476073027
0.00099764671 0.10874349 1.138 -0.7321462631 0.4844219983 0.4788497984
-0.17619096 -0.091016717 0.92772734 0.04829895496 0.5854852796 0.8092430234
-0.15492807 0.055332284 0.90166694 -0.1291097701 -0.2315220088 0.9642241597
-0.00099063327 0.060428634 1.13 -0.9271723032 0.2754440904 0.2539332509
-0.047780085 0.067928515 0.98500007 -0.9078755975 0.07459447533 0.4125500619
-0.081673242 -0.03617635 0.90100002 -0.725682199 0.01244025677 0.6879175305
-0.26517677 -0.13345934 0.995 0.7996547818 0.2215054035 0.5581107736
-0.0051065832 0.17873041 1.1650001 -0.1931618005 -0.8337619901 0.5172324777
-0.0048510977 0.094388828 1.1067142 -0.9131410122 -0.2715756595 0.3040068746
-0.077086255 0.03511481 0.91473919 -0.7479193807 -0.1810159385 0.6386312246
-0.011281999 0.13446715 1.0726001 -0.7927105427 -0.1843069047 0.5810687542
-0.037301291 0.053879347 1.013 -0.8149906397 -0.4365600944 0.3810584247
-0.06152638 0.0051514525 0.96381813 0.229047969 -0.520747304 0.8224106431
-0.10272219 0.095569648 0.97160006 -0.3101837933 -0.8462401032 0.4332016706
-0.094695941 0.12467937 1.0347828 -0.4844150543 -0.6163173318 0.6208824515
0.018017605 0.052232854 1.0380001 0.6148437262 -0.4631038904 0.6383588314
-0.00095556665 0.1347349 1.09 -0.6955705285 -0.2040459812 0.6888736486
-0.2353939 -0.054612618 0.94141698 0.2634987831 0.4277490377 0.8646381497
-0.096974239 -0.041973922 0.889 -0.3138208389 0.193484202 0.9295592308
-0.26560935 -0.095241159 0.99336356 0.5584775805 0.4004858732 0.726439178
-0.17707403 0.055528816 0.91042852 0.5348932743 -0.414300561 0.7363723516
0.017141243 0.13810021 1.1172501 -0.2347271442 0.6876857281 0.6870163679
-0.043236148 0.17472142 1.126 -0.7761067748 -0.3903528452 0.4952604473
-0.22396418 -0.094835602 0.94242871 0.5661021471 0.08594780415 0.819842279
-0.087777607 -0.07495679 0.90284997 0.2928311229 0.1053628325 0.9503412843
-0.065065496 -0.10479235 0.88695437 -0.2962637246 -0.1807744652 0.9378424287
-0.12157963 0.03039491 0.88900006 0.1627741754 -0.4351626337 0.8855156898
-0.20119369 0.13761431 0.99350005 0.3920925558 -0.7845464945 0.4803646505
-0.27208403 -0.034891114 0.97675008 0.7628582716 -0.01525966357 0.6463856697
0.021686541 0.18336228 1.1245 -0.308463186 -0.6132456064 0.727172792
0.02456495 0.145897 1.1021427 -0.01494501997 -0.3525896966 0.9356586933
-0.043497048 0.071342424 1.0380001 -0.8859027624 -0.2135412097 0.4117966592
-0.032686692 0.12797125 1.0532 -0.2380898744 -0.7531893253 0.6132039428
-0.095283903 0.21369962 1.105857 -0.3468124866 -0.7104317546 0.6123788357
-0.058955085 0.025225705 0.95485717 -0.8872411847 -0.3841957748 0.2553364635
-0.065496415 0.10277976 0.98740011 -0.3463238776 -0.7177690268 0.6040425301
-0.21004757 0.068406299 0.91800004 -0.008506233804 -0.1636650562 0.9864792824
-0.18507725 0.085233547 0.93354297 0.06014885753 -0.385683924 0.9206682444
-0.28064641 -0.075090885 0.97700006 0.6879801154 0.2177488804 0.6922923923
-0.035229068 -0.084879264 0.91336131 -0.3753765523 0.3535908759 0.8567764759
-0.16500914 -0.14557116 0.95362532 0.09655091912 0.3183091879 0.9430573583
-0.18544465 0.025361069 0.90397221 0.3312831223 0.02674020454 0.9431523681
-0.25637943 -0.069998324 0.96200007 0.4047319591 0.4606312811 0.7899435759
-0.13464738 0.21299748 1.0850908 -0.08395183086 -0.7830278873 0.6162949204
-0.045498673 0.095260575 0.99575001 -0.6146300435 -0.5889135599 0.5247959495
-0.15612732 -0.08128278 0.91800004 0.008811747655 0.6138703823 0.7893576622
-0.063704744 0.0053546801 0.93166667 -0.8179633617 -0.1308379173 0.5601940155
0.033031046 0.10376605 1.0663335 -0.04100373387 -0.628572166 0.7766696215
-0.15465678 0.034896966 0.90471423 0.0330491066 -0.03213216364 0.9989370704
-0.18953533 -0.066942267 0.92000002 0.4813109934 0.195299238 0.8545162082
-0.28785291 -0.057920199 0.99600005 0.8732749224 -0.1192989871 0.4723967612
-0.13276985 0.066445254 0.92107147 -0.2826344073 -0.5885540247 0.7574443817
-0.28409848 -0.01507028 0.96660894 0.6265673637 0.3162358999 0.7123259306
-0.1699243 -0.0023932999 0.91000003 0.4171059728 0.06305896491 0.9066676497
-0.0083517106 -0.08163695 0.92199999 -0.4240286946 0.3016079366 0.8539509773
-0.24672595 -0.094328344 0.96323532 0.6836465001 0.08813851327 0.7244715691
-0.0053693643 0.056144584 1.1137501 -0.9388032556 0.2410317957 0.2460734099
-0.052072931 0.05149024 1.003 -0.8803676963 -0.2883172035 0.3765977919
-0.017722614 0.10556111 1.0742726 -0.9262438416 0.3708492815 0.06740288436
-0.122513 0.12398259 1.003 -0.7296892405 -0.5885451436 0.3480923474
-0.17541268 0.11443888 0.95333356 -0.1887569427 -0.7123498917 0.6759648323
-0.0018905803 0.21558939 1.1414444 -0.2989674211 -0.6009128094 0.7412977219
-0.081908219 0.1472224 1.0600001 -0.4112974703 -0.5374661088 0.7361824512
-0.14596069 -0.10838085 0.94064289 0.08281291276 0.4985937774 0.8628709316
0.020952333 -0.041904666 0.95600003 0.5669654012 -0.702136457 0.4307605028
-0.046665046 0.19493647 1.1153637 -0.743463099 -0.3280549049 0.5827886462
-0.066183127 0.14308515 1.0651176 -0.4811442792 -0.5423705578 0.6887193322
-0.028644208 0.20154479 1.1670001 -0.6480969787 -0.6231434941 0.437792778
-0.05849383 0.08053498 0.96700007 -0.6079781651 -0.4984849989 0.6179605126
0.016174883 0.014169508 1.0180626 0.7915889621 -0.2872414589 0.539332211
-0.03678162 0.13548845 1.0757778 0.3034417033 -0.6782447696 0.6692586541
-0.030981401 -0.1100655 0.93000007 -0.3037168086 0.4540542364 0.8376101851
-0.069253162 -0.058904987 0.90800005 -0.4888316393 -0.4114398658 0.7692599297
-0.081004001 -0.13269228 0.88000005 -0.2158132046 0.06761244684 0.9740909934
-0.20479694 -0.095078714 0.9327274 0.2812942266 0.3010112345 0.9111891985
-0.094455644 -0.16478263 0.88371813 -0.1755540669 0.3733921051 0.9109111428
-0.25243619 -0.14160359 0.97499996 0.6210039258 0.3996868134 0.6742436886
-0.10630372 -0.097212024 0.92346162 0.2850465775 0.6648920178 0.6904107332
-0.068252005 0.060577083 0.93800002 -0.7274247408 -0.423050493 0.5402605534
-0.14889175 0.018562101 0.90100002 0.4217991531 -0.1941368431 0.8856615424
-0.12905468 0.14257872 1.006 -0.6588823199 -0.626157701 0.4168940187
-0.055790186 -0.042719316 0.93169576 -0.1356544793 -0.562770009 0.8154065013
-0.1043847 0.24157602 1.1340001 -0.3104657233 -0.7893482447 0.5296606421
-0.2573424 -0.0075940765 0.96244454 0.4945353568 0.28142488 0.8223350048
-0.17380989 -0.054826282 0.90554851 0.3870116174 0.1565042138 0.9086959958
-0.22452208 -0.15354644 0.97195005 0.3044641018 0.6139391065 0.7282721996
0.026240498 0.034699671 1.0148753 0.7093653083 -0.3629490435 0.6042093039
-0.15808725 0.14190282 0.98900002 -0.2550543249 -0.7536290884 0.60579741
0.015984263 -0.024734601 0.98575014 0.5966353416 -0.6090419888 0.5225841403
-0.26729432 -0.045294128 0.96369231 0.7426377535 -0.1543819308 0.6516558528
-0.21501161 0.014248965 0.92500013 0.7174331546 -0.2376284301 0.6548453569
-0.18834218 0.1384616 0.98100007 0.2298370004 -0.7803013325 0.5816397071
-0.051699821 -0.0062621902 0.94700009 0.3973969221 -0.6015550494 0.6929698586
-0.2148481 -0.12463624 0.94652003 0.2557319403 0.4582990408 0.8512127399
-0.1065599 0.18293044 1.0652223 -0.5432186127 -0.5121914148 0.6652619839
-0.14762673 -0.0044276044 0.89149994 0.5082328916 -0.1240996271 0.8522315621
-0.22927025 0.079202451 0.95100003 0.7287261486 -0.5320996046 0.4310780168
-0.22437961 -0.064604968 0.94723994 0.4321959317 0.2394168079 0.8694171906
-0.13721499 -0.039576244 0.89099997 0.2545470297 0.32253775 0.9116880894
-0.11704273 0.20262052 1.075909 -0.352422446 -0.6975092292 0.6239225268
-0.18198146 -0.17191592 0.95660001 0.3695301116 0.3697532713 0.8524845839
-0.096705973 0.1019544 0.9974001 -0.2727215588 -0.9278367162 0.2544444799
-0.22730494 0.03921295 0.92800009 0.1966858506 0.3523450494 0.9149686694
-0.080083497 0.1297905 1.0500001 -0.4457415938 -0.5227941871 0.726636529
-0.088616095 0.22137673 1.1190001 -0.3586991727 -0.7126321197 0.6029016376
0.0033153144 0.116551 1.124091 -0.8142252564 0.4806567729 0.3255860806
-0.19484562 -0.0049902103 0.91292316 0.1390918344 0.2858292162 0.9481324553
-0.16660316 0.06733983 0.91037494 0.3596833348 -0.4865107536 0.7962004542
-0.12539558 -0.15491682 0.95419377 0.1502139717 0.3599316478 0.920806706
-0.10714781 -0.11676396 0.94016701 0.09345708787 0.4359473586 0.8951064944
-0.14185378 0.055797074 0.9102307 -0.255856812 -0.3454690874 0.9028778672
-0.02763845 0.043502614 1.0337502 -0.8934172392 -0.2196294069 0.3918783069
-0.19446483 -0.15492107 0.96414316 0.263046205 0.3394263685 0.9031037688
-0.022043783 0.085361034 1.0700001 -0.810926795 -0.2566281855 0.5258704424
-0.078291588 0.17120817 1.0760001 -0.5135284066 -0.4415727854 0.735732317
-0.25015509 0.045709401 0.94800007 0.7862436175 -0.2971623242 0.5417707562
0.004842707 0.16568333 1.1051998 -0.3585788012 -0.3075375259 0.8813863397
-0.23530909 0.027771419 0.9357143 0.2243171483 0.3244592249 0.9189167619
-0.1388831 0.12421354 0.9653334 -0.3321964443 -0.7300656438 0.5972015262
0.028293541 -0.01971974 0.97800004 0.5651835203 -0.631673038 0.5306192636
-0.09342324 0.15734975 1.061143 -0.4431231022 -0.5075958371 0.7389102578
0.0087421201 0.1291891 1.108 -0.6993091702 0.6695702672 0.2502844632
-0.048458628 0.12953363 1.0630001 -0.03202771023 -0.8472246528 0.5302684903
-0.065460257 0.093302704 0.97538877 -0.3317098618 -0.685844779 0.6477541924
-0.028279638 0.013953653 1.0035714 -0.9223636985 -0.2895404696 0.255756706
-0.044835649 0.034528363 0.98624992 -0.4772598445 -0.6488452554 0.5926406384
-0.1291032 0.09127678 0.93800002 -0.47339499 -0.6342388391 0.6112596393
-0.035439085 0.19560879 1.1431818 -0.8232332468 -0.3080291748 0.47687006
-0.11659021 0.17452559 1.0515791 -0.5844646692 -0.4447689056 0.6786616445
-0.28447425 -0.027629903 0.98483342 0.7386474013 0.2782503366 0.6139843464
-0.14239943 0.23098624 1.108 0.2109329253 -0.8148773909 0.5398908854
-0.066702604 -0.076304518 0.89596301 -0.2935862839 -0.4951304793 0.817712009
-0.19729839 -0.13114443 0.94800007 -0.03914198652 0.5322172642 0.8457024693
-0.075226471 -0.11495171 0.88234776 -0.2520946264 -0.1002809182 0.9624925852
-0.036334466 -0.053650178 0.91127992 0.08433662355 -0.3637928665 0.9276540875
-0.23401767 -0.14170821 0.96600008 0.4235301316 0.5399997234 0.7273393273
0.018432209 0.06666816 1.0513334 0.3783915043 -0.5250946879 0.7622961402
-0.06884025 0.12024097 1.0470001 -0.1360344142 -0.7944911718 0.5918432474
-0.1184815 -0.059240751 0.90100002 0.1417935044 0.5304295421 0.8357865214
0.018467948 0.09345907 1.0639 0.02304294705 -0.6217609048 0.7828680873
-0.054090891 0.066784389 0.97100013 -0.7202606201 -0.341820538 0.6036417484
-0.094141498 0.064494386 0.92415011 -0.3631604016 -0.7154841423 0.596822381
-0.1683508 0.22697076 1.1305715 0.3341736197 -0.8030749559 0.4933544695
0.03381604 0.077759087 1.0505716 0.07720638067 -0.6100109816 0.7886227369
-0.036907773 0.16304936 1.115375 -0.4862621427 -0.7020674348 0.5202407837
0.030714016 0.0070203468 1.001 0.7115472555 -0.4167930782 0.5656713247
-0.15537477 -0.025110433 0.89508355 0.5027597547 0.06256055832 0.8621593714
-0.12778425 0.16108179 1.0265 -0.5455026031 -0.5685198307 0.6158020496
-0.10510517 0.024581892 0.88546139 -0.306517452 -0.2379297167 0.9216488004
-0.11449599 0.086970404 0.9435001 -0.3998349905 -0.7648234963 0.505150497
-0.10781948 0.22114325 1.108 -0.3875741363 -0.7171025872 0.5792669058
-0.17288603 0.093287513 0.93530774 0.1146106347 -0.6462653279 0.7544571161
-0.23488201 0.055744603 0.93429422 0.5809168816 -0.2328601331 0.7799434662
-0.13407356 -0.18378416 0.89489466 0.3901573122 0.5480915308 0.7398465872
-0.017121475 0.15187708 1.0734 -0.3782167733 -0.5516762733 0.7433742881
-0.068280935 0.19137897 1.097 -0.4897838235 -0.5331381559 0.6898372769
-0.071154654 -0.027493725 0.9223333 -0.8279168606 -0.08008655906 0.5551034212
-0.13463847 0.22151233 1.097 0.05444853753 -0.8202139139 0.5694598556
0.024616798 0.11771879 1.08 -0.02953139693 -0.5860540271 0.8097336292
-0.24915743 -0.081635199 0.97000003 0.5503382683 0.3178918958 0.7720573545
-0.084575199 -0.09572383 0.88406456 0.1185723767 -0.4239286482 0.8979004025
-0.078274645 -0.0082254708 0.90800005 -0.8002799153 -0.1218639985 0.5871126056
-0.27099314 -0.0709273 0.96700007 0.5445334315 0.3632021248 0.7560209036
-0.025883583 0.20396264 1.1810001 -0.9286524057 0.2644348443 0.2601516843
-0.20121077 0.10060539 0.93300003 0.1860824078 -0.5146483183 0.8369650245
-0.072986878 0.077699363 0.95300013 -0.4189074934 -0.713028729 0.5622335076
-0.069039688 0.037360027 0.92650008 -0.8233222961 -0.1515603662 0.5469642282
0.013185943 0.23126115 1.1570001 -0.216963768 -0.5810671449 0.7844027281
-0.053511206 0.16607451 1.1017998 -0.6644261479 -0.405084759 0.6280480027
-0.10665455 0.1324349 1.0366365 -0.5015062094 -0.6300452352 0.5929034352
-0.15471326 0.15649681 1.0142502 -0.3094325364 -0.7526471615 0.5811830759
-0.11507531 0.10460921 0.97426081 -0.5278435946 -0.751776278 0.3952386677
-0.03515967 -0.024903098 0.92426085 0.3257084191 -0.4150127769 0.8495165706
-0.13322502 0.10307014 0.94510001 -0.4137229323 -0.7463743687 0.521304667
-0.11492757 -0.034799613 0.88481379 -0.05667328089 0.2414040416 0.9687684178
-0.22473182 -0.11444171 0.94699991 0.4693677723 0.2530009449 0.8459813595
-0.22353081 0.063086107 0.92493343 0.3796586692 -0.1780512482 0.9078309536
-0.17578232 0.075682096 0.92329186 0.4016934037 -0.5023949146 0.7656642199
-0.182409 0.041927349 0.90662509 0.5176415443 -0.3642958403 0.7741677761
-0.115246 -0.014695309 0.88230616 -0.1161944494 0.04170432314 0.9923505187
-0.29088634 -0.074997514 0.98900002 0.8000466228 0.1656934768 0.576603055
-0.21026061 0.12892523 0.98700005 0.3901596665 -0.7754097581 0.4965029359
-0.14472605 0.19409706 1.0625001 -0.05794106424 -0.7849245667 0.6168762445
-0.258863 -0.12556146 0.98100001 0.7828958035 0.1909866929 0.5921133161
-0.2398034 -0.020601667 0.94000006 0.6907532215 -0.1546478868 0.7063596845
-0.13447696 0.18681829 1.0545385 -0.1644133627 -0.7525691986 0.6376580596
-0.065198891 -0.026155669 0.93500006 -0.8220778704 -0.2363015264 0.518024683
-0.21443653 0.043961499 0.93100011 0.01431639027 0.1308789253 0.99129498
-0.11790133 0.16117744 1.0458 -0.6556235552 -0.3798881769 0.6525662541
-0.042168248 -0.0084875943 0.93700004 0.1847305298 -0.571262598 0.7997084856
-0.088959746 0.10872858 1.0250001 -0.5025716424 -0.6839967966 0.5287439227
-0.21892691 -0.0016170116 0.92150003 0.6413346529 -0.1032775044 0.7602786422
-0.093109101 0.18780625 1.0825555 -0.3965466917 -0.5779266953 0.7132681608
-0.019459371 0.13065577 1.057 -0.7355041504 -0.2533115149 0.6283844113
-0.19609909 -0.045056317 0.9246251 0.5410370827 -0.01465093903 0.8408710957
-0.11471462 0.073794819 0.92331988 -0.2049024105 -0.7399893403 0.6406487226
-0.10415195 0.099405237 0.98600006 -0.3735761642 -0.86522156 0.3344137073
-0.12430177 0.043312814 0.89691669 0.2151539922 -0.5375900865 0.8152948022
-0.21401654 0.083502062 0.93533343 0.520431459 -0.5846076012 0.6224026084
-0.10364754 0.2057084 1.0927334 -0.4181738794 -0.6773210168 0.6052824259
-0.021433624 0.046594832 1.0630001 -0.9338310361 -0.01393407676 0.357442975
0.015504377 0.10444117 1.1634001 -0.9336759448 0.06094144285 0.3528957665
-0.1223732 -0.071450792 0.90760005 0.2487161756 0.5560901165 0.7930347323
-0.13501415 0.025439138 0.8927815 0.4317525625 -0.3612639308 0.8264853954
-0.18367478 0.1263822 0.96410531 0.01670272648 -0.7838715911 0.6206982732
-0.076837815 -0.066178702 0.89674097 -0.1677740216 -0.3255925477 0.930505991
0.0084555484 -0.03696163 0.97555566 0.5773175359 -0.70141536 0.4179963768
-0.03011613 0.06844575 1.041 -0.8377744555 -0.2949793339 0.4594792128
-0.13424386 -0.10475074 0.93451428 0.1297741532 0.5019056797 0.8551312089
-0.1849705 -0.10270859 0.93649989 -0.01415716205 0.5054677725 0.8627293706
-0.15448914 -0.1548048 0.95677769 0.01377213933 0.3784938455 0.9255013466
0.0078864936 0.19322041 1.1245 -0.2258728743 -0.6648296714 0.7120273113
-0.0022017083 0.074305788 1.1059998 -0.927297473 0.1232874021 0.3534397185
-0.0042588464 -0.048032567 0.97266674 0.6397562623 -0.662116468 0.3902739584
-0.10456263 -0.083146572 0.90626109 0.3038877547 0.4901704192 0.8169364929
-0.20635767 0.149185 1.0190001 0.4080295563 -0.7724240422 0.4866959751
-0.2020566 0.032954954 0.91680002 0.6081441045 -0.3034239113 0.7335493565
-0.19373861 0.07523793 0.93126941 -0.1275931895 -0.2307571769 0.9646093249
-0.24478373 0.0074777915 0.94780004 0.4012210667 0.2008334249 0.8936932087
-0.018259916 -0.037646521 0.92160004 -0.2335879058 -0.4021095335 0.8852934837
-0.23462521 -0.12510413 0.95568007 0.5352097154 0.3267596066 0.7789600492
-0.078384273 0.014526241 0.91371435 -0.8081243038 -0.05066788569 0.5868287086
-0.17503472 -0.014570992 0.91193551 0.526102066 0.04764592648 0.8490856886
-0.070168398 0.0048392001 0.92000002 -0.815141201 -0.07781518996 0.5740118623
-0.017042398 0.031244399 1.08 -0.9435151219 0.1318364441 0.3039710522
-0.092411108 0.036518499 0.90225005 -0.5899614692 -0.366723299 0.7193465829
-0.015194011 0.1781105 1.1552857 -0.5469871759 -0.6372892857 0.5428327918
-0.24513961 -0.11521621 0.96399999 0.7068549395 0.1196019351 0.6971738935
-0.084370546 0.067128271 0.93272722 -0.3624767959 -0.7258108854 0.5846444368
-0.24483798 -0.067104228 0.95517397 0.3996990919 0.4453913569 0.8011661172
-0.1355512 -0.084833525 0.92318195 0.1098617837 0.592232585 0.7982424498
-0.093377441 -0.026173998 0.89236379 -0.4997342527 -0.01409172639 0.8660641313
-0.10463756 -0.17372891 0.88644826 -0.03812630847 0.458445549 0.8879042864
-0.27373391 -0.10826132 1.0040001 0.6668633223 0.3199897408 0.6729784012
0.020002026 -0.012175146 0.99200004 0.5957043171 -0.5618043542 0.5740315318
-0.015080879 -0.064931445 0.91443211 -0.4097797871 -0.0033280598 0.9121783972
-0.27352977 0.015767081 0.96252632 0.6424859762 0.09540439397 0.7603352666
-0.061385076 -0.092924051 0.89199996 -0.3823035657 -0.3330740035 0.8619197607
-0.044062663 -0.035497561 0.92537922 0.3706704676 -0.4283625484 0.824080646
0.015693003 0.15586932 1.1067647 -0.1562240124 -0.1754863262 0.972007513
-0.29149607 -0.0077067763 0.97700006 0.678162992 0.3394341171 0.6518278122
-0.095190741 0.087932661 0.96260005 -0.239594236 -0.8101511598 0.5350230932
