# .PCD v0.7 - Point Cloud Data file format
VERSION 0.7
FIELDS x y z normal_x normal_y normal_z
SIZE 4 4 4 4 4 4
TYPE F F F F F F
COUNT 1 1 1 1 1 1
WIDTH 512
HEIGHT 1
VIEWPOINT 0 0 0 1 0 0 0
POINTS 512
DATA ascii
-0.20319775 -0.24692111 1.0420715 -0.3059580624 0.3123736084 0.8993399739
-0.25204518 -0.38891739 1.904 0.9702858329 -0.1954400837 0.1426482797
-0.12334263 0.11261514 1.4116668 0.6823831201 -0.1611750871 0.7130048275
-0.40344813 0.040241629 1.177 0.3880370259 -0.7122092247 0.5849660635
-0.072892204 -0.10117873 1.2410001 0.472584635 -0.5929974318 0.6519339085
-0.18809719 0.02526099 1.0742726 -0.6076352 -0.4314579666 0.6668009162
-0.38427719 -0.1482347 1.077 0.4987549186 -0.01754017361 0.8665655851
-0.23435876 0.14236102 1.2434 0.1296012998 -0.874843955 0.4667457342
-0.4121815 0.10968415 1.317 0.4800125957 -0.8130207062 0.3295227289
-0.11617433 0.044683702 1.27425 -0.8826792836 -0.1033683196 0.4584673047
-0.1371624 -0.11392246 1.0664288 -0.7674984932 0.2243555039 0.6005086899
-0.32410127 -0.016533727 1.0654118 0.381537348 -0.4594541788 0.8020792603
-0.32789963 -0.25789487 1.13 0.5709981918 0.01387385 0.8208341002
-0.097711213 -0.19440813 1.1570001 -0.05886947364 -0.9077896476 0.4152737856
-0.28429917 0.073183522 1.1459233 0.2219280154 -0.7785123587 0.5870829821
-0.2651723 -0.12491385 1.0463797 0.1265022457 0.0005023241392 0.991966188
-0.11394534 -0.024858078 1.1547778 -0.5553299189 -0.6976071596 0.4527173042
-0.16459255 0.07740631 1.1746668 -0.7218923569 -0.4996765852 0.4787428677
-0.34336033 0.11317105 1.2346668 0.4221421182 -0.7596465349 0.4947051108
-0.40856612 -0.051193826 1.123 0.7468233109 -0.1837411821 0.6391354203
-0.14066423 0.13723558 1.3045001 -0.7277680635 -0.6571920514 0.1960924566
-0.057002448 0.074978314 1.3490001 -0.08784452826 -0.723102212 0.6851325035
-0.056887772 -0.024469895 1.2941428 0.460409224 -0.4076126516 0.7885906696
-0.23000051 -0.25665295 1.126 -0.1362511814 0.5938612819 0.7929466367
-0.20390642 -0.055999435 1.0430402 -0.2351149172 0.272421509 0.9330099225
-0.29050058 -0.23397575 1.057 0.6681932807 0.1710283309 0.72406286
-0.11725241 -0.11017684 1.153 -0.1446888 -0.7053716183 0.6939135194
-0.14724459 -0.19462229 1.0862499 -0.8585194349 -0.08645337075 0.5054405332
-0.22527197 -0.18533234 1.0826521 0.08709345013 0.4986419082 0.8624215722
-0.29751831 0.14763111 1.2855 0.258454442 -0.8981075287 0.3558147848
-0.34431922 0.02618389 1.1246667 0.4021571279 -0.6964375377 0.5943436623
-0.3349897 -0.09488973 1.0557144 0.2780585885 0.3688575923 0.8869202137
-0.12335708 -0.15486391 1.2253333 0.4155836701 -0.69312042 0.5889604092
-0.26517928 0.027500214 1.0816 0.2127302438 -0.7264688015 0.6534439325
-0.14462881 -0.035031088 1.0841724 -0.6837379932 -0.5316934586 0.4998043776
-0.10044496 -0.015120747 1.2320001 -0.6335365772 -0.6726704836 0.3822901845
-0.15928333 0.12027516 1.2360001 -0.5607234836 -0.6058205962 0.5644205213
-0.21593292 0.069242932 1.123 0.1277463883 -0.7893998623 0.6004404426
-0.40561262 0.078377508 1.2360001 0.4324172139 -0.775349617 0.4602698386
-0.2367485 0.10733059 1.1810001 0.2130565494 -0.7972411513 0.5648127794
-0.31573078 -0.17295794 1.0664288 0.05262491852 0.601505518 0.7971334457
-0.34430754 0.072363786 1.1750001 0.4018776417 -0.7287732363 0.5544221401
-0.27501026 -0.056053299 1.0453752 0.2353074253 -0.3589918911 0.9031916857
-0.14569762 0.015489046 1.1956668 -0.8092216849 -0.4786597192 0.3406539261
-0.19521441 -0.134729 1.0454402 0.01169541851 0.399953872 0.9164606333
-0.36085442 -0.20923491 1.153 0.4935784936 -0.1717539281 0.8525730968
-0.1528008 0.011828424 1.1245 -0.9340183139 -0.2748529613 0.2281790525
-0.19542003 0.16287425 1.2852223 -0.08773833513 -0.9289731383 0.3595982194
-0.2856743 0.12189057 1.2184443 0.1203397065 -0.8237506151 0.5540336967
-0.085947521 -0.0058868164 1.3430001 0.9138385653 0.06473938376 0.4008838832
-0.11101668 0.050249655 1.3330001 -0.5988596678 -0.7295508385 0.330337137
-0.058435969 0.032082494 1.307 0.2212301791 -0.44513008 0.8677075505
-0.38647366 -0.083592355 1.0805 0.6919847727 -0.03990059346 0.7208085656
-0.15167144 -0.14676912 1.118 -0.1429194659 -0.5012742877 0.8534038067
-0.10023397 -0.076209806 1.2846668 0.661580503 -0.5434410572 0.5167040229
-0.23956406 -0.01009657 1.0470001 -0.2722527683 0.2845769227 0.9191814065
-0.13586015 0.066515334 1.2255456 -0.8884752393 -0.1418141127 0.4364636242
-0.094247103 0.0663407 1.3961999 -0.7532958388 -0.5254481435 0.3955370486
-0.37277323 -0.016583137 1.0966251 0.4439734221 -0.6474606395 0.6194209456
-0.34907025 0.13417032 1.2970001 0.3324202299 -0.9028412104 0.2727169991
-0.10745654 0.093107261 1.302 -0.9073265195 -0.3647778332 0.209035337
-0.4000563 0.0069835265 1.138 0.3702277243 -0.6557841897 0.6579350829
-0.19690284 -0.22392872 1.1010001 0.1698790491 0.438126266 0.882715404
-0.25708821 -0.22516887 1.0967001 -0.1586422324 0.3758771718 0.9129890203
-0.11624551 -0.071738131 1.1037143 -0.7978585362 -0.3878793418 0.4614882469
-0.38725084 0.10601968 1.273 0.4959124625 -0.789257288 0.3621377647
-0.085136205 -0.16474448 1.196273 0.168740049 -0.7087031007 0.6850304604
-0.19770761 0.1215849 1.2060001 -0.2166172713 -0.8365505338 0.5032495856
-0.25542769 -0.26366669 1.0443001 0.2956865132 0.4542714655 0.8403611779
-0.29927996 0.039968986 1.1120001 0.2606163621 -0.7697952986 0.5826614499
-0.18140264 -0.20778976 1.0534285 -0.5739674568 -0.2650602758 0.774793148
-0.30529049 0.094229512 1.186 0.2885060608 -0.8023130894 0.52254951
-0.15451173 -0.0742319 1.0511851 -0.2379101813 -0.3928456008 0.8882967234
-0.34873798 -0.052389603 1.08 0.5122225881 0.0944551751 0.8536429405
-0.27471465 -0.18573079 1.080909 -0.1138423681 0.4060134888 0.9067485929
-0.081467755 0.0066959802 1.273 -0.7501989007 -0.500713408 0.4318421781
-0.35133001 -0.18697254 1.09 0.3925542235 0.5394004583 0.744948566
-0.1318647 0.098621495 1.2640001 -0.8660235405 -0.3513085842 0.3557885587
-0.30018032 -0.23647647 1.1010001 -0.5775936842 0.05036749318 0.8147690892
-0.22433823 -0.09551245 1.0470001 0.09682606161 -0.2019050568 0.97460711
-0.16227975 -0.15196142 1.0700001 -0.4308505654 0.3958318233 0.810977757
-0.17547129 -0.018280013 1.057 -0.3465149701 -0.4421927929 0.8272804022
-0.16845238 0.051334098 1.1370001 -0.6854468584 -0.5584791303 0.4671869576
-0.11112189 -0.11662297 1.2550001 0.6375898719 -0.5569304824 0.532266438
-0.37561581 0.076252587 1.2046667 0.3550595343 -0.7240274549 0.5913687348
-0.28361857 -0.0054157949 1.0552857 0.2790046632 -0.5389481783 0.7947900891
-0.1145555 -0.16799037 1.0949999 -0.004767043516 -0.4113627374 0.9114592671
-0.34455609 -0.13556226 1.0658332 0.4388070107 -0.1687783599 0.8825883865
-0.39871502 -0.11015843 1.1120001 0.7477539182 0.02241623215 0.6635974646
-0.067711785 -0.054882061 1.2662222 0.5109251738 -0.6107414365 0.6049383283
-0.12752745 0.025813073 1.234286 -0.8578829765 -0.08857475221 0.5061534047
-0.2548342 0.055855773 1.1147306 0.1545695662 -0.7673190832 0.6223581433
-0.25208551 0.15797357 1.2780001 0.1890887618 -0.8876196742 0.4199722707
-0.15110226 -0.22714083 1.1120001 -0.5816153884 0.5416947007 0.6068693399
-0.27330381 -0.26270911 1.1190001 -0.07809244841 0.5683813691 0.8190507889
-0.30492222 -0.13490495 1.0540004 0.1780931503 -0.006016857456 0.9839952588
-0.23578691 -0.15188415 1.057 -0.03537014872 0.6206609607 0.7832808495
-0.20657976 0.092639707 1.1570001 -0.1210176721 -0.8202674389 0.5590313077
-0.12125483 -0.20110427 1.1245 -0.8646924496 0.305490911 0.3987258077
-0.29448763 -0.095396876 1.053875 0.06419540197 0.3603238761 0.9306157231
-0.16289169 0.14885566 1.2640001 -0.3891999125 -0.796066761 0.4634664357
-0.22523011 0.035511628 1.0844346 0.1056850478 -0.7661680579 0.6338905692
-0.36393717 0.044121258 1.1549999 0.3585178256 -0.6847754121 0.6344664097
-0.24556573 0.081519477 1.1480001 0.1140863746 -0.8393190503 0.5315334797
-0.30416104 0.013059424 1.0840526 0.2968114614 -0.6685453057 0.6818725467
-0.15656452 0.0020405042 1.0861429 -0.8087197542 -0.3979333937 0.4331528842
-0.31202254 -0.056477498 1.0561429 0.2716334462 -0.5106847286 0.8157305717
-0.11481772 -0.0075410875 1.1949999 -0.4554496408 -0.8570988774 0.2407221347
-0.19443373 0.14273129 1.2428182 -0.1321271807 -0.8745455742 0.466596663
-0.12850969 -0.037277617 1.1190001 -0.6941407323 -0.6103286743 0.3816641271
-0.27568287 0.1383906 1.2514286 0.1905535161 -0.9023663402 0.3865544796
-0.085527606 -0.1325797 1.223857 0.426558435 -0.4974605143 0.7553681135
-0.086757123 0.046669353 1.365 -0.6268188357 -0.700376153 0.3414255381
-0.18487845 -0.095184967 1.044 0.03350608796 -0.2177396417 0.9754315615
-0.19417828 -0.17363577 1.0651765 0.1216950715 0.4724721014 0.8729034662
-0.18608813 0.05393827 1.104 -0.593449831 -0.6775675416 0.4344186783
-0.32565492 0.056787841 1.1465001 0.4032667279 -0.7296977043 0.5521931052
-0.098348409 0.030877516 1.3045001 -0.5225861669 -0.8259399533 0.2114873976
-0.090172179 -0.0456568 1.302 0.4000522196 -0.5626086593 0.7234843969
-0.15211394 0.095256843 1.21 -0.7674588561 -0.4867837131 0.417191267
-0.24512962 0.12433007 1.2136924 0.1235693768 -0.8470443487 0.5169588327
-0.31470987 -0.20447433 1.0839998 0.0821024105 0.09479115903 0.992105782
-0.11838574 -0.1343838 1.123 -0.06913597882 -0.5783270001 0.8128702641
-0.12101664 -0.17512627 1.1962 0.2546494901 -0.7675839067 0.5881909132
-0.14280869 -0.0078359386 1.1663333 -0.6779848337 -0.7130524516 0.1785853356
-0.34501314 0.093571089 1.2041819 0.3636413217 -0.7547279596 0.5460317731
-0.2150352 0.013726155 1.055375 -0.2846141756 -0.2965991199 0.9116050005
-0.15005991 0.052468501 1.197 -0.963401556 0.100664638 0.2484433949
-0.27480948 -0.15789084 1.0600002 -0.04491604865 0.5752984285 0.8167093992
-0.34442526 0.0035243172 1.0960001 0.4121948779 -0.6523936391 0.6359857917
-0.37386122 -0.11526933 1.0844374 0.5167060494 -0.03125595674 0.8555921912
-0.37352574 0.097442374 1.2350001 0.3843588829 -0.8269439936 0.4104044735
-0.209085 -0.021373134 1.0600001 0.05029870942 -0.4579305649 0.8875638843
-0.24296467 -0.063395269 1.0380001 -0.02118912339 0.1106167138 0.9936372638
-0.2722953 0.098357618 1.1810001 0.06656209379 -0.8621397614 0.5022793412
-0.31531596 0.13111076 1.2360001 0.2276966572 -0.8724595308 0.4323986769
-0.071284398 0.047912464 1.3330001 0.7102353573 -0.4166019261 0.567457974
-0.13145179 -0.06378188 1.0721428 -0.8222083449 -0.2680636644 0.5021108985
-0.3860209 0.12511815 1.3053334 0.4725879431 -0.8244442344 0.3113717139
-0.062943786 0.10267258 1.365 0.8103905916 -0.5285057425 0.2528810203
-0.17522398 0.10511287 1.1855334 -0.5258103609 -0.7203060985 0.4524185658
-0.38385031 -0.055811062 1.0953126 0.5446639061 -0.4272638559 0.7216556072
-0.16527447 -0.12484416 1.0466005 -0.3697669804 0.2703633904 0.8889184594
-0.35083905 -0.23777245 1.138 0.4935784936 -0.1717539281 0.8525730968
-0.10431943 0.015375899 1.25265 -0.554273963 -0.527553618 0.6437914968
-0.36312497 0.12030584 1.2590001 0.4944672287 -0.7313973904 0.4696381986
-0.073492713 0.0041871546 1.3031112 -0.09295858443 0.06785904616 0.993354857
-0.17617545 -0.053028625 1.0584999 -0.3835349083 0.05470188707 0.9219049215
-0.25514078 -0.094809063 1.0515385 0.04675171152 0.0216086898 0.9986727834
-0.13949959 0.1305716 1.273 -0.8105025291 -0.4965453744 0.3106900454
-0.14042096 -0.013940753 1.136 -0.8202033043 -0.5112153888 0.2567594051
-0.37135705 0.012042945 1.126 0.4329366386 -0.6645267606 0.6090731025
-0.2253124 -0.21400112 1.0965384 -0.05966978893 0.3672536016 0.9282048941
-0.31610847 0.10925896 1.21 0.286023289 -0.7871949673 0.5463650227
-0.25458881 -0.035164312 1.0546898 0.1190754175 -0.2053748518 0.9714124799
-0.21621616 0.15545544 1.2648 -0.001490277122 -0.9075260162 0.4199932218
-0.22514905 -0.12538788 1.0440003 0.01782168262 0.08308700472 0.9963829517
-0.16650005 0.15970412 1.2920001 -0.3819637001 -0.9104307294 0.1588068008
-0.24436443 0.015859067 1.0637143 0.1145601049 -0.7432550788 0.6591265798
-0.34504503 -0.16524771 1.0685 0.3571923077 0.4431531727 0.8222097754
-0.2267139 -0.27077165 1.0470001 -0.1108619794 0.464109987 0.8788125515
-0.11312648 0.074131541 1.2737691 -0.8774359226 -0.2244050354 0.4239676297
-0.1745498 0.027123054 1.101923 -0.6705337763 -0.5514468551 0.4962769747
-0.15570197 -0.16549258 1.095 -0.9004516006 -0.2775399387 0.3349007368
-0.12260972 0.11638013 1.2919999 -0.8700562119 -0.4139207304 0.2677160203
-0.29490036 -0.032136533 1.0559286 0.100171566 0.412730813 0.905328095
-0.091609038 -0.088297866 1.2590001 0.5828273892 -0.559982419 0.5888394713
-0.35170332 -0.019355485 1.077 0.4418412745 -0.5522370338 0.7069728374
-0.30839643 0.078371368 1.161 0.2982669473 -0.7773379087 0.5538796186
-0.18521442 0.077974156 1.1442729 -0.5004167557 -0.7204691172 0.4801117778
-0.36466259 -0.093694113 1.0645652 0.4647194147 0.2694930136 0.8434508443
-0.14066818 -0.1177223 1.138 -0.04595224559 -0.6626181006 0.7475463748
-0.15301077 0.048515607 1.161 -0.872887969 -0.383887291 0.3011596799
-0.28453714 -0.21218409 1.086 -0.1370283961 0.3762405217 0.9163330793
-0.39378351 -0.01271228 1.1157 0.4713769257 -0.5688040853 0.6739923954
-0.18642417 -0.20486124 1.0825713 0.3344364762 0.4833699465 0.809015274
-0.37511429 0.059064541 1.1820002 0.3642303944 -0.7405868769 0.5646833777
-0.32485873 0.022622941 1.1043636 0.4002760649 -0.7134019136 0.5751841664
-0.40346539 -0.074755892 1.1024117 0.8290643096 -0.05592363328 0.5563496351
-0.15688255 -0.21538557 1.0649047 -0.7205378413 -0.09309524298 0.6871379018
-0.10803725 -0.047949109 1.1348 -0.6382027864 -0.6120197177 0.4670428932
-0.16452059 -0.18479645 1.0666765 -0.2502437234 -0.2451319247 0.9366367459
-0.23525925 -0.24720837 1.0347061 -0.02207161859 0.3271780312 0.9447049499
-0.20384426 0.10848867 1.1823335 -0.1322729439 -0.8489360809 0.5116751194
-0.12592439 -0.092786402 1.08 -0.8789299726 0.04261481762 0.4750432074
-0.14516264 -0.01531785 1.1039165 -0.8470780849 -0.4284064472 0.3145259917
-0.21530256 0.1358241 1.2251819 0.02272440121 -0.8602356911 0.5093900561
-0.1018336 -0.030762233 1.21 -0.6967508793 -0.6973116994 0.1682100743
-0.13550462 -0.17059933 1.1120001 -0.1002928689 -0.4878711104 0.8671349883
-0.19492331 -0.00093803334 1.0700001 -0.2921134233 -0.3254089952 0.8993212581
-0.17570457 -0.23390612 1.052667 -0.5986884832 0.08136112243 0.7968390584
-0.38540235 0.028446704 1.153 0.3325249553 -0.6892837882 0.6436730027
-0.14961281 -0.10004783 1.0470001 -0.5269258618 0.1311086863 0.8397378325
-0.14251328 0.093447991 1.2346667 -0.8499254584 -0.3388470709 0.4034963846
-0.21758166 -0.24186532 1.108 -0.06183576584 0.5488377213 0.8336387277
-0.22483332 -0.036793076 1.0455716 0.111534752 -0.5032804012 0.8568949103
-0.30079019 -0.25186458 1.0733334 0.769356668 0.6308393478 0.1006581187
-0.1053052 0.06521742 1.365 -0.6395028234 -0.6188171506 0.4561814368
-0.37168828 -0.035878461 1.077 0.6226502657 0.1236244813 0.7726730704
-0.12600331 0.001789861 1.2250001 -0.6432303786 -0.6917250752 0.3282851279
-0.12595114 0.0759224 1.2515 -0.8733848333 -0.2318041176 0.4283290505
-0.17407446 0.11605357 1.2145001 -0.4449159205 -0.7743518949 0.4499210715
-0.080821656 0.074790187 1.376 0.4833167791 -0.7507482767 -0.4503131807
-0.3046627 0.05673407 1.1320001 0.2525091171 -0.744045794 0.6185749769
-0.10146365 -0.18118508 1.1810001 0.08520873636 -0.8350216746 0.5435791612
-0.40228835 0.09438172 1.2555001 0.4214838147 -0.8323029876 0.3600322008
-0.22361763 0.052352052 1.1058333 0.2043673098 -0.7985023856 0.5662402511
-0.32180679 0.14114334 1.2880001 0.2884999812 -0.9062720537 0.3089315891
-0.22246644 0.12067755 1.197 0.05345688388 -0.8737490773 0.483430326
-0.32454965 0.042747214 1.1252502 0.3884240389 -0.6638093591 0.6391274333
-0.19113846 -0.21952434 1.0333334 -0.5222590566 0.1179360524 0.8445925713
-0.12211149 -0.1362828 1.2436666 0.5513421297 -0.6315181851 0.5451666117
-0.25420704 -0.16837698 1.0700001 -0.05884930119 0.6454125047 0.7615638375
-0.36580768 -0.16496789 1.0827 0.4236877561 0.4458021522 0.7885106802
-0.12825692 0.13368291 1.3260001 -0.8492469788 -0.4836878479 0.2117206752
-0.3355245 -0.06408412 1.0624286 0.3979517519 -0.4495155513 0.7997313142
-0.24599355 -0.24429369 1.1079999 -0.177665323 0.487898767 0.8546284437
-0.093487732 0.032720707 1.3330001 -0.3657827377 -0.884904027 0.2883536518
-0.32439214 -0.1153612 1.0647776 0.2927871943 -0.1005352512 0.9508776665
-0.27474764 -0.24466094 1.1021427 -0.03823020309 0.5242395997 0.8507122397
-0.27401164 0.042888284 1.1068 0.1924903691 -0.8042885661 0.5621986389
-0.1435488 0.035091098 1.2129334 -0.8181735277 -0.167309925 0.5500903726
-0.39738071 0.068003036 1.2120001 0.4261617661 -0.7363667488 0.5254998803
-0.26493299 0.11399765 1.204 0.1296050251 -0.816270709 0.5629428625
-0.11048367 -0.094859719 1.273 0.6729254723 -0.5293709636 0.5166601539
-0.14915256 0.032170162 1.1120001 -0.6951221228 -0.5556992888 0.4560740292
-0.12982994 -0.04904687 1.097 -0.8273813725 -0.4664073288 0.3128965497
-0.2826764 0.013767333 1.0725454 0.3408408463 -0.6814738512 0.6476271749
-0.10146365 -0.02174221 1.1810001 -0.6458184123 -0.7258033752 0.2369134873
-0.39274037 -0.12594378 1.0947058 0.6446088552 -0.2706143558 0.7150155902
-0.27440542 0.15524568 1.2863334 0.2488624901 -0.8932406902 0.3744175136
-0.21189092 -0.15289503 1.057 0.04953951016 0.578204751 0.8143863678
-0.24299885 -0.20106964 1.087 -0.08003040403 0.4079569578 0.9094868302
-0.077819943 0.048637468 1.3870001 -0.6153319478 -0.664650023 0.4238005579
-0.20565918 0.047884505 1.09 0.05714341998 -0.7549776435 0.6532559991
-0.1415295 0.11702958 1.2515 -0.8080055714 -0.3785776794 0.4514487684
-0.27577406 -0.25454745 1.0525714 0.5630489588 0.2870973647 0.7749522328
-0.31437206 -0.084512174 1.0467002 0.1758099198 0.1752592176 0.9686976075
-0.27527493 0.06144191 1.1254547 0.2117481828 -0.7347142696 0.6444824338
-0.079967782 -0.015066394 1.322 0.8330264091 -0.3150466383 0.4547665715
-0.30140501 0.13851333 1.2640001 0.2210186422 -0.9063612819 0.3600833416
-0.2154908 -0.07469862 1.0539234 -0.03443324193 0.1325594336 0.9905768037
-0.14858201 -0.13400507 1.0615001 -0.5767490864 0.4068747163 0.7083879113
-0.28679484 0.027552232 1.0912001 0.2902969718 -0.6980965137 0.6545142531
-0.13432433 -0.20594712 1.1023332 -0.5604817867 0.3931022584 0.7289243937
-0.28559273 0.087027885 1.1653637 0.1532822847 -0.8168689013 0.5560842752
-0.10256854 0.025738055 1.2763335 -0.6101480722 -0.7164238691 0.3383136392
-0.068636611 -0.074914292 1.2541429 0.5082015991 -0.4948649406 0.7048686743
-0.18499036 -0.15373744 1.0569998 -0.07632951438 0.4770965576 0.8755299449
-0.26569048 0.13015607 1.2270001 0.1028555259 -0.8806786537 0.462413013
-0.085425526 -0.0042664446 1.252889 -0.5062408447 -0.6417840123 0.5760498643
-0.18531352 -0.073017575 1.0510001 -0.06652379781 -0.2984356284 0.952108562
-0.30728546 -0.22344004 1.0728573 -0.5427473783 -0.5492454171 0.6354169846
-0.18516126 0.064098693 1.1248463 -0.5897257924 -0.64096421 0.4913128912
-0.2539793 0.09182097 1.1669999 0.1045390889 -0.8383011818 0.5350912809
-0.24489178 0.044443287 1.0928462 0.1461617053 -0.8282734156 0.5409250855
-0.10343664 -0.14726762 1.2163333 0.3823466003 -0.6225718856 0.6827996373
-0.27680334 -0.082214929 1.0470001 0.03352113068 0.2276623994 0.9731629491
-0.34105051 0.12692818 1.2590001 0.3377320468 -0.8740212917 0.3493190706
-0.14746673 0.074953534 1.193 -0.9064157009 -0.2496588677 0.3407067358
-0.29745039 -0.16030814 1.057 -0.04509089515 0.4248364866 0.9041464329
-0.18505383 0.1546917 1.2640001 -0.1116957739 -0.899392724 0.4226308465
-0.19525038 -0.034999404 1.0459659 -0.1312704831 -0.2776625454 0.9516677856
-0.1848446 0.09472353 1.1638335 -0.3931753039 -0.7361487746 0.5509067178
-0.32499677 -0.14522925 1.0569998 0.2602582574 0.05443849787 0.9640031457
-0.30411664 -0.005374176 1.0649048 0.3162987232 -0.6197198629 0.7182635069
-0.052738514 0.083665811 1.3717144 0.8634762168 -0.4586912096 0.209788397
-0.26505643 -0.014518051 1.0461727 0.07003557682 0.08741220832 0.9937072396
-0.29552519 -0.19355485 1.077 -0.05068092421 0.3876615167 0.9204075336
-0.36490548 -0.13483408 1.07556 0.3948483765 -0.2673663199 0.8789823651
-0.1676815 0.064979807 1.156111 -0.7477926612 -0.5153388381 0.4186072052
-0.39869398 0.10986737 1.2920001 0.5173036456 -0.784917295 0.3410304785
-0.059240751 0.065051302 1.325 0.5705915093 -0.4904004931 0.6587356925
-0.1604037 -0.042211499 1.0700001 -0.6105288267 -0.2672522366 0.7455406189
-0.38896647 -0.041918691 1.1120001 0.6818554401 -0.1289533377 0.7200306654
-0.075000182 -0.044476934 1.2856923 0.4799491763 -0.6435501575 0.5962314606
-0.17564893 0.13511449 1.2330002 -0.3651259542 -0.7601951957 0.5373884439
-0.12183612 0.095121846 1.2851429 -0.8901978135 -0.3376533985 0.3058399558
-0.2554206 0.14643379 1.2558572 0.1914052516 -0.8727142215 0.4491479695
-0.36364177 -0.068388328 1.076 0.4248021245 -0.5304111838 0.733626008
-0.20524827 -0.11508539 1.0438236 0.1541755944 0.009552890435 0.9879972935
-0.24528237 -0.13454273 1.0440003 -0.0182210207 0.2801636159 0.9597793221
-0.12751061 0.055582013 1.2431818 -0.9213718772 -0.1049870923 0.3742347062
-0.078342438 0.077155434 1.3540001 0.5660464764 -0.6196721196 0.5436890721
-0.11789661 -0.15469675 1.1145 0.2074802518 -0.4978655279 0.8420699835
-0.32412705 0.0039109075 1.0838888 0.3759246767 -0.6523392797 0.6581292152
-0.14554858 0.0090340497 1.1450001 -0.9238283634 -0.3583858609 0.1345391273
-0.29575342 0.10783409 1.202 0.1587190479 -0.8049658537 0.5716976523
-0.27501863 -0.1052915 1.0532904 0.1759214252 -0.1147003397 0.977699101
-0.20548473 -0.19437565 1.0820475 0.2606370151 0.5057114363 0.8223894238
-0.34501514 -0.1071839 1.0706 0.3567364812 0.3405190706 0.8699343801
-0.15530807 0.031684924 1.1850001 -0.9898445606 -0.122925058 0.0713942498
-0.11915215 -0.19083719 1.105 -0.6778315902 0.2420966476 0.694214344
-0.38371068 0.04402357 1.1677999 0.3690022826 -0.7171741128 0.5911840796
-0.32507664 0.085733473 1.1853335 0.3039520383 -0.7770144343 0.5512365103
-0.092102602 -0.10943956 1.2360001 0.5250716805 -0.6053923368 0.5981636643
-0.37865469 0.12171333 1.2855 0.4662636518 -0.8204992414 0.3307253122
-0.12371256 -0.011856478 1.1760001 -0.3764953911 -0.8741545081 0.3067654967
-0.33329201 -0.18096592 1.077 0.2728563845 0.5543180704 0.7863084078
-0.31465447 -0.036814399 1.0640771 0.2296557277 0.1603607088 0.9599701762
-0.3470732 0.056488454 1.161 0.3900977075 -0.6819587946 0.6186727285
-0.32988089 -0.23676136 1.13 0.62825948 -0.02097498067 0.777721107
-0.16971126 0.040220588 1.1190001 -0.6297360659 -0.6384798884 0.4424656928
-0.35909933 0.029008023 1.141 0.418166399 -0.6886097789 0.5924132466
-0.29601309 -0.066851534 1.0470001 0.1271384954 -0.2752589881 0.9529261589
-0.27359363 -0.028848032 1.0615001 0.01394692622 0.3925538063 0.9196233153
-0.26495188 -0.20442939 1.0860356 -0.1381256729 0.367792964 0.9195920825
-0.17396431 -0.002132372 1.0705453 -0.2846877277 -0.6408250332 0.7129489779
-0.08453723 -0.065748163 1.2754999 0.6435254812 -0.5139341354 0.5672271252
-0.21522653 -0.16895024 1.0700001 0.1404710859 0.552670598 0.8214761615
-0.15768281 0.01489483 1.1035 -0.7563655376 -0.4590707719 0.4660098851
-0.39141324 -0.02596599 1.097 0.7485969067 -0.2189929336 0.6258153319
-0.39533633 0.059614211 1.1930001 0.4037601948 -0.7259328365 0.5567756891
-0.1151439 -0.054449894 1.1153076 -0.7133190632 -0.5093787909 0.4813617766
-0.10466116 -0.00470701 1.2129285 -0.6384341121 -0.7520555258 0.163751021
-0.22578733 0.096454449 1.1637692 0.1365717798 -0.8167347312 0.5606179237
-0.22510622 0.083848245 1.1459231 0.1678357273 -0.8210315704 0.5456540585
-0.24864897 0.068353698 1.13 0.1149054691 -0.7725134492 0.6245155334
-0.35712439 0.077295914 1.1955001 0.4009900093 -0.7127236724 0.5755276084
-0.35381389 0.099711187 1.223 0.3861204684 -0.7981427908 0.4624705911
-0.29472834 0.12786007 1.2360001 0.1303083003 -0.9073436856 0.3996838927
-0.11408698 -0.19352667 1.1445296 -0.2400484383 -0.9167339206 0.3193363547
-0.26477903 0.0038877535 1.0552999 0.2791385949 -0.5699058771 0.7728446722
-0.3610172 0.0045329509 1.1079999 0.4984610975 -0.6301286221 0.5953775644
-0.13723792 -0.084223621 1.0557144 -0.7588054538 -0.04168807343 0.6499818563
-0.343523 0.04190116 1.138 0.4469313025 -0.6803979874 0.5807847977
-0.1751042 0.012563739 1.0846314 -0.5075257421 -0.5818448663 0.6355109811
-0.075120687 -0.024275996 1.3032501 0.4522118866 -0.3946523666 0.7998461723
-0.28713465 -0.12586305 1.0500001 0.2440416962 -0.1004341468 0.9645499587
-0.21446687 0.14665261 1.2432222 -0.01966444589 -0.8940058947 0.4476235211
-0.18582265 0.040976275 1.087 -0.5721973777 -0.5336793065 0.6227170229
-0.1029947 -0.12630701 1.2337779 0.5364722013 -0.5876726508 0.6056718826
-0.34468648 -0.034733385 1.0659999 0.3528572619 0.08885971457 0.9314481616
-0.10442784 -0.16243896 1.2032 0.275187701 -0.7275207043 0.6284786463
-0.18606056 -0.11617411 1.0380001 -0.0676747188 0.1078614965 0.9918599129
-0.10527013 -0.0011081067 1.2640001 -0.5262861848 -0.5737689734 0.6275444627
-0.26487416 0.077218674 1.1438571 0.136077255 -0.8140180111 0.5646748543
-0.13544211 0.015140911 1.2136154 -0.83745116 -0.3505488336 0.4192744195
-0.15444225 0.13494068 1.2525884 -0.5397004485 -0.6287107468 0.5598626733
-0.13129748 -0.098727569 1.161 -0.1448499262 -0.6922098398 0.7070106268
-0.22395326 -0.0083633997 1.0600001 -0.2718948722 0.1897721142 0.9434297681
-0.25499389 -0.18484709 1.0812799 -0.0714244172 0.4340310395 0.8980621099
-0.1558753 0.036240965 1.1324999 -0.7052922249 -0.5998731852 0.3777765036
-0.20624647 0.032943849 1.0736001 -0.1091122776 -0.7133081555 0.6923048496
-0.19543393 0.13279887 1.2258574 -0.189779073 -0.8415444493 0.5057537556
-0.22305885 -0.054826297 1.0380001 -0.04252255708 0.1234196424 0.9914430976
-0.20467027 -0.095465966 1.0443637 0.1154642701 -0.2333490103 0.9655134678
-0.2733748 -0.23630831 1.0459285 0.5392763615 0.2442954332 0.8059160709
-0.25519589 -0.15348898 1.0568333 -0.01816860214 0.6277294755 0.778219521
-0.20714229 0.080667362 1.136 -0.06269217283 -0.8296244144 0.5547909737
-0.13171917 -0.0010537533 1.202 -0.5318453312 -0.7966176271 0.2872993052
-0.38547382 0.087251127 1.2236668 0.4194895625 -0.7692664266 0.4819312096
-0.10411206 -0.041442662 1.153 -0.6323670149 -0.6236132979 0.4595850706
-0.2332433 0.15958752 1.273 0.04803236201 -0.9040344357 0.4247524738
-0.24556117 -0.11528342 1.0448573 0.06583904475 -0.143127203 0.9875119328
-0.085028999 0.022673888 1.2932501 -0.6023669243 -0.7154172063 0.3540230095
-0.079235762 0.03902657 1.3490001 0.3062395453 -0.8777717948 0.3684210181
-0.34715787 -0.21727444 1.142143 0.4935784936 -0.1717539281 0.8525730968
-0.16631722 -0.14314882 1.0534545 -0.4134755135 0.4804383218 0.773444891
-0.14548896 0.011350203 1.177 -0.7914765477 -0.5532566309 0.2597536743
-0.24209149 -0.078242503 1.0500001 -0.09373902529 0.253590107 0.9627590775
-0.15820345 -0.01694018 1.0857999 -0.8830862045 -0.2669398487 0.3858779967
-0.055714797 -0.0056851828 1.2970001 0.2916993201 -0.2066462934 0.9339212179
-0.12788053 -0.028232759 1.1366667 -0.620018661 -0.6501590014 0.4391697645
-0.40330786 0.01819434 1.153 0.3521978557 -0.6974593401 0.6241050363
-0.057988871 -0.043207392 1.2970001 0.4706942737 -0.5258236527 0.708488822
-0.15844259 -0.016912363 1.0652223 -0.7539967299 -0.2455594689 0.6092532277
-0.10986737 0.043040827 1.2920001 -0.9386783838 -0.2091528922 0.2741129994
-0.28564516 -0.14462176 1.0516553 0.1183245182 0.3061112761 0.9446137547
-0.30396289 -0.21752101 1.0924 -0.1824170053 0.3880012333 0.9034262896
-0.30294916 -0.11646723 1.0567858 0.2473606914 -0.1314544827 0.9599648118
-0.23507573 -0.025508745 1.0566537 -0.09510780871 -0.2343415767 0.9674908519
-0.12324911 0.036422875 1.2590001 -0.9083374739 -0.2281476706 0.3505305946
-0.32875264 0.068193272 1.161 0.3746778965 -0.7131854296 0.592438221
-0.15098742 -0.21253644 1.097 -0.6663936973 0.5207896233 0.5335705876
-0.23454201 0.13286047 1.2264287 0.1327101737 -0.8653728366 0.4832369089
-0.075111739 0.025804872 1.3123573 0.002683828119 -0.7855163813 0.618835032
-0.11330245 -0.18781181 1.1643333 -0.08110656589 -0.8930173516 0.44265306
-0.15285297 0.10703486 1.2250001 -0.6702521443 -0.5973158479 0.4404269159
-0.22854963 0.00458935 1.0470001 -0.279084444 -0.1422293633 0.9496750236
-0.34732637 -0.082297295 1.06075 0.38400805 -0.1342797428 0.913513422
-0.25524175 0.10310134 1.1857275 0.1783599257 -0.8269531131 0.533231914
-0.21369888 0.16216718 1.2858572 -0.01246744394 -0.9053994417 0.42437765
-0.28524694 -0.17519785 1.0703213 -0.1236807555 0.5516738892 0.8248387575
-0.14571783 -0.056116354 1.0636817 -0.4220843613 -0.5089485049 0.750210762
-0.13522145 -0.13497379 1.13 0.02033932507 -0.5754825473 0.81756109
-0.12268237 0.0082417941 1.2415715 -0.7449074388 -0.3781377971 0.5496587157
-0.13604406 0.044577353 1.2263848 -0.8356783986 -0.1240648925 0.5350229144
-0.38500911 -0.10688002 1.095875 0.72781533 0.09082873911 0.6797315478
-0.23504061 -0.16594607 1.0682144 0.006872536149 0.6322306395 0.7747497559
-0.16001709 0.087852523 1.1930001 -0.6743272543 -0.5364407897 0.5074583292
-0.27524498 -0.22537491 1.0939599 -0.09483619779 0.3919279575 0.9150948524
-0.32499325 0.11513197 1.2245001 0.3495355546 -0.7707229853 0.5327391624
-0.31690973 -0.10100339 1.057 0.09070913494 0.344150871 0.9345223308
-0.3689802 -0.046245337 1.0913334 0.5536286235 0.1267880648 0.8230553865
-0.11234922 0.061496414 1.3490001 -0.6238660812 -0.6931461096 0.3610257208
-0.077328719 -0.11390151 1.2270001 0.3673943877 -0.5717110038 0.7335992455
-0.10817891 0.0010818066 1.2340001 -0.5595871806 -0.7063751221 0.4334702194
-0.05865952 0.014952427 1.312 0.02178681456 -0.2604639232 0.9652377367
-0.38506392 0.097747639 1.2528 0.403041929 -0.8302028179 0.3851239681
-0.3623614 0.1069621 1.245 0.4768479466 -0.730822742 0.4883791506
-0.10659754 0.042014249 1.3155714 -0.5818762779 -0.7806949615 0.2278932184
-0.30389827 0.03173621 1.097 0.3109429181 -0.7091948986 0.6327377558
-0.29003727 -0.049111743 1.057 0.2753140628 -0.3145339191 0.908444047
-0.096131027 -0.1043625 1.2531667 0.5816863775 -0.5685498118 0.5817148089
-0.33514196 0.10391288 1.2144001 0.3577182889 -0.7856779695 0.5047253966
-0.08553905 -0.14514391 1.211647 0.3063481748 -0.6188644171 0.7232963443
-0.28845751 0.048240338 1.123 0.2227522284 -0.746247232 0.6272929907
-0.12444477 -0.075729415 1.0836428 -0.8951183558 -0.1813803017 0.4072644413
-0.23497503 -0.22789679 1.101 -0.0560125187 0.4032558799 0.9133713841
-0.37538269 -0.0035763325 1.1137335 0.4160298109 -0.6524981856 0.6333761215
-0.10591395 0.067071304 1.2880001 -0.9653748274 -0.09263689071 0.2438644171
-0.17476231 -0.03452383 1.0510666 -0.4718461037 -0.03648734465 0.8809255958
-0.13211769 0.11512999 1.275 -0.8531894088 -0.3792669177 0.3580844104
-0.062577695 0.045490056 1.317 0.5851553679 -0.4323821664 0.6860312223
-0.24388224 0.1128571 1.1956667 0.2317279279 -0.8115260005 0.5364025831
-0.2843439 0.14346708 1.2653333 0.2314839959 -0.8920726776 0.3880998492
-0.36367071 0.12922812 1.3045001 0.3817363679 -0.87981534 0.2832001746
-0.20106876 0.061194841 1.108 -0.07515715808 -0.8230533004 0.5629695058
-0.2451209 -0.045770802 1.045174 0.1568229049 -0.3895567656 0.9075527787
-0.35833749 -0.010511233 1.09 0.4577010572 -0.6234456301 0.6338968873
-0.23950796 0.1512101 1.2590001 0.1031961441 -0.8699324727 0.4822530746
-0.19682729 0.01584382 1.06328 -0.4754278064 -0.2186620533 0.85214746
-0.2244968 0.021514276 1.067 0.08302661777 -0.6691721082 0.7384546399
-0.3152844 -0.1880976 1.08 0.06083319709 0.4641253948 0.8836780787
-0.14961632 0.052623671 1.177 -0.9766974449 -0.0007842312334 0.2146192938
-0.15402684 -0.16231307 1.1120001 -0.3418673575 -0.5804678202 0.7390425205
-0.3308093 -0.12880249 1.057 0.3495109379 -0.1808647215 0.9193095565
-0.13488534 -0.14723809 1.1182001 -0.003365061246 -0.4688202739 0.8832871914
-0.17622012 -0.17282119 1.0666364 -0.08722394705 0.2481172532 0.9647952318
-0.14383237 0.054336388 1.2153333 -0.884829998 -0.03366177902 0.4646963775
-0.13739751 -0.18543711 1.0960001 -0.4427179098 -0.3291099668 0.8340787888
-0.12103347 -0.12103347 1.141 -0.1476017088 -0.6808816195 0.7173659801
-0.36161447 -0.22459956 1.1458002 0.4935784936 -0.1717539281 0.8525730968
-0.33066902 -0.20106964 1.087 0.2582420707 0.2410207987 0.9355319142
-0.13550462 -0.21934199 1.1120001 -0.611769557 0.5462640524 0.5721307993
-0.089401588 0.012140957 1.2590001 -0.5712894201 -0.5940503478 0.5663326383
-0.25479439 -0.24842454 1.0380001 0.3197776675 0.2838596702 0.9039723277
-0.18704227 0.11205746 1.1946001 -0.2922281325 -0.8351773024 0.4659201801
-0.094794542 0.043269053 1.3460001 -0.4798036516 -0.7951939106 0.370749414
-0.26511395 -0.1412715 1.0464 0.08391070366 0.3643179238 0.9274866581
-0.2490084 0.0293508 1.08 0.1367196292 -0.7276656628 0.6721684933
-0.16559447 -0.20447727 1.0558946 -0.4466741979 -0.245181784 0.8604464531
-0.33234784 -0.0084975297 1.077 0.3931016028 -0.6197032928 0.6792929769
-0.16477841 0.10374393 1.2041818 -0.60208112 -0.6461365223 0.469047904
-0.15305859 -0.1152573 1.0517778 -0.5718138814 0.2283398807 0.7879655957
-0.36491618 0.05306866 1.1686 0.3643657863 -0.7104397416 0.6020904779
-0.16491599 -0.085204549 1.0451003 -0.1108458117 -0.2710210979 0.9561698437
-0.2158431 0.12756477 1.2111429 -0.001120805508 -0.877935648 0.4787773192
-0.16462916 -0.10518327 1.0433003 -0.2649319172 0.06476607174 0.9620895982
-0.18769521 -0.24499297 1.0466667 -0.442365706 0.2941734791 0.8472157717
-0.13569103 -0.0034863434 1.1831819 -0.5646727681 -0.7644524574 0.311058104
-0.07272476 0.063340917 1.3380001 0.7702200413 -0.3303466439 0.5455567241
-0.3554745 -0.114004 1.081 0.384516716 0.06386529654 0.9209061265
-0.34293532 0.08165127 1.189 0.3686385751 -0.7482520342 0.5515654683
-0.38451946 0.0134739 1.1353334 0.3508803546 -0.6808530688 0.6429013014
-0.18465193 -0.18559666 1.0719166 0.2675281763 0.3325137794 0.9043579102
-0.30499232 0.12189042 1.2250001 0.2037779838 -0.8444607258 0.4953388572
-0.2163175 -0.1389955 1.0500001 0.02751320601 0.4343104959 0.9003429413
-0.20547175 -0.26211748 1.0470001 -0.2441316098 0.3723514676 0.8954072595
-0.28509808 -0.024061492 1.0460001 0.02688178793 0.297391355 0.9543771744
-0.16115412 -0.16828318 1.0700001 -0.4325725138 0.2353832126 0.8703308105
-0.13698375 -0.047822073 1.0743333 -0.6361435056 -0.5346275568 0.5563226342
-0.39082676 -0.14142387 1.09 0.5591852069 -0.2300816029 0.7964761853
-0.32539871 -0.074552186 1.052815 0.3759091496 -0.2643269002 0.8881574273
-0.24500239 -0.21478872 1.0950526 -0.09187843651 0.4264322221 0.8998410702
-0.20255975 0.14751999 1.2557501 -0.0510914661 -0.8977976441 0.4374345839
-0.12213194 0.086747915 1.302 -0.9036452174 -0.3713018894 0.2134485394
-0.14031927 -0.09943153 1.0600001 -0.7444791198 0.11726477 0.6572669148
-0.32924971 -0.051591832 1.0700001 0.3605976701 -0.1834856272 0.9144957066
-0.26498699 0.037173897 1.0941875 0.2156078368 -0.7962560058 0.5652341247
-0.15206923 -0.005534397 1.1143335 -0.9015275836 -0.3880410194 0.1914997697
-0.19971344 -0.20926909 1.09 0.2535569966 0.4889426827 0.834651947
-0.18938719 -0.051094767 1.0470001 -0.389025569 0.1827204674 0.9029242992
-0.11404381 0.081674941 1.2880001 -0.8702090979 -0.4097271264 0.2736051679
-0.13435903 -0.013915548 1.1545 -0.5708269477 -0.7674573064 0.2918319702
-0.12669761 0.12783903 1.302 -0.8727656603 -0.4496408999 0.1900083572
-0.36679909 0.087586015 1.2110001 0.3613276184 -0.7544611096 0.5479331613
-0.06463901 0.087375484 1.3547144 0.6012978554 -0.651982367 0.4619089961
-0.31439456 -0.16057289 1.057 0.06558275968 0.4105327725 0.9094843268
-0.079320796 0.064676963 1.3920001 0.7429434657 -0.6655662656 -0.07110910863
-0.30117971 0.071517587 1.149 0.2575222552 -0.7608361244 0.5956599116
-0.15807381 0.063846171 1.1683334 -0.8036932945 -0.424382329 0.4171051383
-0.2351349 0.056397777 1.1155 0.1585296392 -0.7561362982 0.6349222064
-0.19600798 -0.23382504 1.0378262 -0.3908801079 0.2702780664 0.8798650503
-0.1234813 0.085571446 1.2644 -0.853022635 -0.3304696381 0.4039086699
-0.15384001 -0.19509654 1.0722222 -0.7780695558 -0.2786786854 0.562979579
-0.21540268 -0.2250548 1.101 0.02359002456 0.4101859629 0.9116967916
-0.27468368 0.10602055 1.1950001 0.08757240325 -0.8420861363 0.5321860909
-0.16330802 0.026026988 1.1132501 -0.6024507284 -0.6116260886 0.5128027201
-0.091460876 -0.059844773 1.2880001 0.6838149428 -0.5003657937 0.5310661197
-0.24518108 0.0062390817 1.0516471 0.03654677421 -0.5100420713 0.8593726754
-0.3574959 0.068391398 1.1820002 0.4066778719 -0.7344181538 0.5433627367
-0.39472184 -0.055278394 1.1062665 0.5934659243 -0.3426359594 0.7282848358
-0.38891563 -0.0716675 1.09 0.5246844888 -0.4847099185 0.6998302937
-0.34648484 0.017136704 1.1124285 0.3896356523 -0.7166272402 0.5784716606
-0.17866203 -0.20111172 1.067 0.4668455422 -0.3709498048 0.8027773499
-0.21786919 -0.19875787 1.09 0.1351348311 0.4893759191 0.861539185
-0.27509299 0.083293937 1.1548181 0.1224304363 -0.8208862543 0.5578141212
-0.31134993 -0.01667946 1.057 0.3459663689 -0.3471908271 0.8716454506
-0.14669387 0.14225444 1.2662858 -0.6525012255 -0.6739269495 0.3465034068
-0.17775667 0.081904992 1.1570001 -0.6064421535 -0.6116420627 0.5080569983
-0.13659641 -0.025427366 1.1242001 -0.8252842426 -0.504383266 0.2539752722
-0.25500867 -0.074952014 1.0426003 -0.01070048288 0.2899655998 0.9569772482
-0.11405423 -0.033801854 1.1425002 -0.6052128077 -0.6451394558 0.4663824141
-0.31545052 0.082851574 1.174 0.3205749691 -0.7843856215 0.5310093164
-0.32877105 0.097999059 1.202 0.311694473 -0.7597337365 0.5706585646
-0.29924402 0.089464709 1.1730001 0.2637975514 -0.8123611212 0.5200771689
-0.2249957 0.074851014 1.1336923 0.1265294403 -0.8024909496 0.5830939412
-0.33059362 0.03041069 1.1190001 0.393786937 -0.6804560423 0.6179898381
-0.13888504 0.13211016 1.2880001 -0.7772764564 -0.5900335908 0.2184072137
-0.16216141 -0.058378112 1.057 -0.207937479 -0.4164181352 0.8850750923
