# .PCD v0.7 - Point Cloud Data file format
VERSION 0.7
FIELDS x y z normal_x normal_y normal_z
SIZE 4 4 4 4 4 4
TYPE F F F F F F
COUNT 1 1 1 1 1 1
WIDTH 512
HEIGHT 1
VIEWPOINT 0 0 0 1 0 0 0
POINTS 512
DATA ascii
0.063428968 -0.054384183 1.1153126 -0.6788569689 0.4816689491 -0.55420959
0.081284709 -0.29729819 1.6042 -0.9931451678 0.08691903204 0.07815199345
-0.25235969 -0.19158037 1.00475 -0.7291653156 0.045972161 -0.6827916503
-0.20305616 0.073020197 1.141 -0.538557291 0.7356535196 -0.4108161926
0.041283108 -0.063801169 1.427 -0.9935524464 0.1089519709 0.03135380521
-0.017869096 -0.20143214 0.92650008 0.7454806566 0.08874951303 -0.660592258
0.091460876 0.10275234 1.2880001 -0.775441587 0.6240286231 -0.09632566571
-0.084746972 0.0069866334 0.96318185 0.01505978685 0.7319338322 -0.6812092662
-0.021697208 0.10849071 1.1423334 0.619430542 0.603392303 -0.5022185445
-0.23340397 -0.027134463 1.0172857 -0.6386025548 0.5786642432 -0.5072814822
-0.11641093 -0.27690104 1.0027144 -0.01199647039 -0.4661130309 -0.8846438527
-0.14288488 -0.1255542 0.93718183 -0.4360861182 0.1524674147 -0.8868949413
0.061776441 -0.15271847 1.0237502 -0.3515632749 0.786813736 -0.5072744489
-0.11357291 0.081313588 1.0557144 -0.2350154966 0.8842814565 -0.4035021365
0.032975316 -0.025918651 1.2247144 -0.5059288144 0.8479337096 0.1582543552
-0.022332646 0.0083752349 1.0615001 0.4712902904 0.8085598946 -0.3523015678
-0.011394036 -0.081425674 0.95100003 0.9142711759 -0.190565154 -0.3574815989
0.083034538 0.063155942 1.1810001 0.3127946258 0.5385242105 -0.7824009061
-0.11802913 0.12941791 1.1810001 -0.3183920681 0.8932965398 -0.3172504008
-0.27247149 -0.0019497067 1.1120001 -0.392380476 0.741318047 -0.5445044637
-0.095927261 -0.25577569 0.91016662 -0.1463617384 -0.396646589 -0.9062283039
-0.19693148 -0.25714564 1.0513334 -0.5636261106 -0.6701301932 -0.48296085
-0.28199649 -0.10190812 1.041 -0.7275620103 0.1676860303 -0.6652329564
-0.1683726 -0.20833983 0.97000003 -0.07790046185 -0.4370555878 -0.8960546255
-0.16496024 -0.03510464 0.95442122 -0.2018095106 -0.2019968629 -0.9583684802
0.011207891 -0.07058277 1.0366668 0.1276211143 0.7905440927 -0.5989598036
-0.22841756 -0.11236236 0.97100002 -0.6165651083 0.1731934547 -0.7680178881
-0.195802 0.035543572 1.0628572 -0.5524556041 0.740250051 -0.383174479
0.017876109 0.035763618 1.133 0.3667466342 0.8222724199 -0.4351608455
-0.065100886 -0.13579178 0.92173916 0.04244367406 -0.3469638824 -0.936917603
-0.095315509 -0.065156564 0.93538463 -0.1001186818 -0.0216364637 -0.9947402477
-0.084947467 -0.19628127 0.96333343 -0.1943189502 -0.4162941575 -0.8882225752
0.10006887 -0.0020215933 1.153 0.4065771103 0.6152685881 -0.6753810644
-0.019074515 -0.019941537 0.98900002 0.5074772239 0.7033302784 -0.4977885187
-0.042558406 0.075225003 1.0822856 0.6748848557 0.3456938565 -0.6519403458
-0.15781325 0.024481403 0.9933334 -0.500556469 0.7703670263 -0.3949403763
-0.2550258 0.037019879 1.1730002 -0.6521857977 0.7069174647 -0.2737178206
0.018142177 -0.15230374 0.9625001 0.05505393818 0.2583175302 -0.964490056
0.044605676 0.079419866 1.2410001 -0.4094315469 0.3996358216 -0.8201566935
-0.094475895 0.11288053 1.1150588 -0.1111406907 0.880653739 -0.4605395794
0.046747636 -0.11421485 1.0839 -0.7517750859 0.4983052909 -0.4318866134
-0.064144507 0.04682821 1.0243572 0.4990945458 0.7291938066 -0.4681677818
-0.0477871 0.15063325 1.1850001 0.2899092734 0.8936023712 -0.3426768482
0.033511948 -0.0039098356 1.0852222 0.4859989882 0.8012036681 -0.3491098881
-0.1562129 0.08462321 1.1036153 -0.4561935961 0.7578851581 -0.4663662612
-0.14772272 -0.26372936 0.95200008 0.02467364632 0.9611445069 -0.2749408782
-0.28184289 -0.048384462 1.0738001 -0.5790376067 0.66682899 -0.4690996706
0.02174221 0.10042831 1.1810001 0.6160991788 0.4822945595 -0.6227469444
-0.20528659 -0.16529931 0.96312916 -0.5079443455 0.1172825992 -0.8533682227
-0.21495236 -0.054841515 0.97145426 -0.3742997646 -0.1216051355 -0.9192996621
0.04833151 -0.0082266396 1.1730001 -0.6603370905 0.6477175355 0.380022347
-0.046542935 -0.038319804 0.93800002 0.1687351763 0.6546453238 -0.7368636131
0.012495276 -0.10607126 0.9945001 0.09255156666 0.6962124705 -0.7118443847
0.080412246 0.11472148 1.223 -0.7609661818 0.5640869737 -0.3205251992
-0.24436516 -0.006533796 1.0650001 -0.6989685297 0.4652300179 -0.543142736
-0.18159097 -0.088510022 0.94800007 -0.4420523942 0.1858140677 -0.8775322437
-0.11457015 0.0523743 1.0046923 -0.205224067 0.8295869231 -0.5192962885
-0.25729239 -0.075530738 1.0029093 -0.7525416017 -0.09965640306 -0.6509606242
0.015747739 -0.012486539 1.0324001 0.4833713472 0.7198268771 -0.4981981218
-0.079980932 -0.24682286 0.98100007 -0.06912453473 -0.4105163515 -0.9092293978
-0.063821569 -0.21555154 0.90773332 0.2960807383 0.05431916937 -0.9536171556
-0.15422295 0.051580314 1.0374286 -0.4201650023 0.712790072 -0.5615974665
-0.22875477 0.029921509 1.1010001 -0.6913716793 0.6221283674 -0.3673711121
-0.26581499 -0.13246477 1.0040001 -0.7665922642 -0.1865012795 -0.6144538522
-0.047658008 -0.083672352 0.91624999 0.3082297146 0.03038193658 -0.9508267045
-0.13536246 -0.17476475 0.95293576 0.04552589357 -0.5346863866 -0.8438233733
-0.1340073 0.0032511547 0.94604152 0.06783022732 0.3080435991 -0.9489511251
0.033649273 0.052549325 1.1846 0.7274128199 0.6154206991 -0.3035258949
-0.029087801 -0.15873627 0.94800007 0.6964430809 0.4270472825 -0.5767127872
-0.19720075 0.0048060617 1.0142 -0.6368605494 0.6608097553 -0.3971638381
-0.21401028 -0.21320234 0.98460013 -0.30815956 -0.5857086778 -0.7496553063
-0.12463561 -0.2253712 0.97377765 0.03602057695 -0.2811030447 -0.9590013623
-0.16933517 -0.28043339 1.0220001 -0.5398164988 -0.5737644434 -0.6159484982
0.027258195 -0.14645506 1.054 -0.4479256272 0.726401329 -0.5212520957
-0.063812941 0.12862967 1.1450001 -0.03653582558 0.8474689126 -0.5295862556
-0.051852643 0.0087898979 1.0025002 0.7398942113 0.5829926133 -0.3356727064
-0.14654565 0.10648724 1.1423334 -0.4295205474 0.8423324823 -0.325558126
0.022289248 -0.048031103 1.0743333 -0.8999583721 0.09715463221 0.4250128269
-0.013634751 0.066040412 1.115579 0.7434430718 0.2848101556 -0.605124414
0.072701089 -0.078366108 1.077 -0.6789675355 0.5229892135 -0.5152526498
-0.022363139 -0.22280096 0.96528578 0.09186318517 -0.7827141285 -0.6155645847
0.028124781 -0.17225492 1.0025001 -0.1802953631 0.9386206269 -0.2940831184
0.05222654 0.0065703248 1.1240001 0.6933376789 0.4456265271 -0.56630373
-0.13592225 -0.082179263 0.93740004 -0.1057764813 -0.1761846542 -0.9786574244
-0.0083388528 0.13237929 1.189 0.5790634751 0.7085135579 -0.4033535421
-0.02150025 -0.1298615 0.98100007 0.5783572793 0.2822383046 -0.7654047608
-0.1047775 -0.14488938 0.93373328 -0.01930711605 -0.4741731882 -0.8802198768
0.013138236 -0.19423249 0.95868403 0.5331889391 -0.2564985156 -0.8061749339
-0.096188568 -0.10507762 0.92200017 -0.33865273 0.1049168035 -0.9350437522
-0.1959442 0.057686862 1.1028333 -0.5154473186 0.7673671842 -0.3813943863
-0.085084587 -0.024540232 0.93322223 0.2568018734 0.3277641535 -0.9091883302
-0.22871883 -0.14784107 0.99200004 -0.6494842172 -0.1505789608 -0.7453162074
0.012751117 0.075324744 1.1456155 0.7960485816 0.1924182028 -0.5738309026
0.056518849 0.036273692 1.1546665 0.3035127819 0.7548995018 -0.5813834667
-0.0025123514 0.017593471 1.1026001 0.6377524734 0.5473334789 -0.5419389009
-0.19410619 -0.016591968 0.97572017 -0.6067256927 0.5987299085 -0.5228827596
-0.25826862 -0.050193548 1.041 -0.7320144176 0.5668566823 -0.377926439
-0.12375032 -0.037052315 0.93646663 -0.3679316044 0.5451504588 -0.7532843351
-0.064963765 -0.17387158 0.93699986 -0.3377361 -0.3691483736 -0.8658313155
-0.078266747 0.091471106 1.0756668 0.3395532072 0.783878088 -0.5198448896
0.070878498 -0.1242675 1.0500001 -0.5755213499 0.5142328739 -0.6358771324
-0.18083416 -0.12635385 0.95814288 -0.4532676637 0.008790045045 -0.8913311362
-0.055594515 0.10826711 1.1126001 0.2898296118 0.7735412121 -0.5635892153
-0.25539756 0.02095058 1.138 -0.5225893259 0.7687708735 -0.3686349988
0.060563639 0.055254545 1.2120001 -0.41575104 0.8285518885 -0.3750371635
-0.032867953 -0.11503588 0.93276 0.7152113318 -0.1697740108 -0.6779746413
-0.16383658 0.063181214 1.073 -0.4638097882 0.8029497862 -0.3743689358
-0.051872369 -0.011054766 0.97000003 0.6069668531 0.5755205154 -0.5480577946
-0.057908103 -0.25300127 0.911125 0.1950289309 -0.2268244922 -0.9542087913
-0.11359671 0.031366255 0.96700007 0.1470772475 0.7227129936 -0.6753178835
0.065035082 0.092306428 1.1964999 0.3512147069 0.6689149141 -0.6551343799
0.011408064 -0.037734363 1.001 0.6155080199 0.5704263449 -0.5438416004
-0.14522804 -0.25352141 0.98754168 0.11649701 -0.4571657777 -0.8817186952
-0.048380952 0.042779759 1.0654001 0.8771276474 0.341927439 -0.3372428417
-0.017321931 0.0021826494 1.0245715 0.2905925512 0.8785591125 -0.3790644109
0.084240191 -0.025550317 1.1243848 -0.2490580231 0.5750900507 -0.7792570591
-0.17234562 -0.16421148 0.94778943 -0.3273231685 -0.1378324926 -0.9348057508
-0.0038771066 -0.050979242 0.97100013 0.7745017409 0.3400392532 -0.5334044695
-0.12416887 0.096367806 1.09375 -0.3684149981 0.8165891767 -0.4443562627
0.045818105 -0.092611067 1.1120001 -0.8165165186 0.4538564384 -0.3568124771
-0.21465184 0.0041428753 1.0448573 -0.6279541254 0.5911272764 -0.5062035918
-0.085835308 0.03092383 0.98900002 0.3472281098 0.7052773237 -0.618074894
-0.10375086 0.12591125 1.149 -0.2425102741 0.9002356529 -0.3616137505
-0.22924131 0.04565154 1.132 -0.7153907418 0.6207877994 -0.3206845522
-0.072764508 0.068160839 1.0506668 0.508128047 0.6572091579 -0.5566704273
-0.16106996 0.0016954733 0.96700007 -0.5294852257 0.6745060086 -0.5144774914
-0.17865969 0.027717864 1.031 -0.5183700323 0.6885792613 -0.5071007609
-0.023921851 0.044979639 1.0916667 0.6374397278 0.3789466321 -0.6708726287
-0.26247033 -0.1565845 1.0265 -0.6561381221 -0.1785726398 -0.7332084179
-0.18651083 -0.23211379 0.98428577 -0.4009422064 -0.2741692066 -0.8741147518
0.028735381 0.069177769 1.2140001 0.4539375901 0.7667536139 -0.4539048374
-0.12461039 -0.26326606 0.92426091 -0.5333153605 -0.3706029058 -0.7604131699
-0.22697952 -0.07913845 0.99200004 -0.5498040318 -0.1700572819 -0.8177995086
0.073210433 -0.0047063851 1.1930001 -0.4554739296 0.7840423584 0.4216883183
-0.065840878 -0.22154184 0.96700007 -0.1678700298 -0.3894329667 -0.9056277275
-0.045730092 0.023593556 1.0350001 0.8230547905 0.4866860509 -0.2927755713
-0.094106704 0.065259948 1.0246471 0.2856890261 0.7861538529 -0.5480363965
0.0084186299 0.010289436 1.067 0.2257606685 0.9262610674 -0.3017822802
-0.094551191 -0.17165321 0.94773334 -0.1799528748 -0.5531702042 -0.8134000897
-0.25569007 -0.10406408 1.0138751 -0.7080872059 0.3328580558 -0.6227504015
-0.0040039564 -0.085394569 1.0147501 0.3227273524 0.7278345227 -0.6050652266
-0.043568581 -0.18767899 0.91750008 -0.02145048231 0.4638881087 -0.8856340647
-0.28322127 -0.065960795 1.0333637 -0.7662034035 0.3899584711 -0.5107491612
-0.23120682 -0.1889094 0.97799999 -0.6489287019 -0.07408668101 -0.7572336197
-0.17963426 -0.061564792 0.96200007 -0.521246314 0.225889504 -0.8229678869
-0.10754859 -0.01083823 0.95100003 -0.1994680613 0.5438144803 -0.8151553869
0.084552735 0.023952192 1.1543332 0.0316369608 0.300601095 -0.9532250762
-0.11510449 -0.19466054 0.96541715 -0.01285015233 -0.388091892 -0.9215310812
-0.28152221 -0.027862221 1.0960001 -0.61310184 0.5644889474 -0.5526828766
-0.055682361 -0.20029028 0.94800007 -0.5514222383 -0.4998061061 -0.6679276824
-0.012921189 -0.095119216 0.98280013 0.892242074 0.07821904123 -0.4447312057
0.058215048 0.068428218 1.1650001 0.1822583377 0.3789868355 -0.9072766304
-0.20515442 -0.13472633 0.97321206 -0.4323503971 -0.1335571557 -0.8917598128
-0.0010189788 0.096805334 1.1623334 0.6511723399 0.5830438733 -0.4858337641
-0.029182041 0.13362636 1.1680001 0.5019900203 0.7810493708 -0.3714402616
-0.19423214 -0.19514364 0.96457708 -0.2195886374 -0.4846248627 -0.8467110395
-0.2062169 -0.094478488 0.9634763 -0.5828434229 0.3569768965 -0.7299733162
-0.039305348 -0.23021705 0.91500002 0.3320583701 0.004639232997 -0.9432474375
-0.21734262 -0.031628091 0.99300003 -0.6192730069 0.6509034634 -0.4391192198
-0.031204073 -0.031204073 0.96200007 0.5338069201 0.6859467626 -0.4944969416
-0.030412946 -0.064669818 0.93042862 0.6583763957 0.2273535281 -0.717531085
0.033997133 0.022988537 1.108 0.2044508457 0.628664732 -0.7503202558
-0.083729558 0.14226809 1.1627142 -0.167552501 0.8032390475 -0.5716058016
-0.12533918 0.068226419 1.0326365 -0.354747355 0.8042349815 -0.4768232703
-0.14668436 -0.054035671 0.94105017 -0.526307404 0.4144195318 -0.7424668074
-0.13702194 0.076874197 1.0720001 -0.4698134065 0.7888978124 -0.3961257339
-0.027958214 0.092703551 1.1190001 0.6513482332 0.5182785392 -0.5541956425
-0.077893585 -0.082533129 0.92075002 -0.3052228391 0.3287754953 -0.8937257528
0.033503022 -0.18116283 0.973625 0.8236141801 0.203859672 -0.5292455554
-0.064510599 -0.057155687 0.92700005 -0.2218206972 0.4933390915 -0.8410779834
-0.15781537 -0.10647252 0.95169246 -0.2427190393 -0.1484993994 -0.9586633444
-0.018630305 -0.11513833 0.95730001 0.9459291697 -0.1423094273 -0.2914894223
0.075821146 0.00099764671 1.138 0.1903705597 0.5771099925 -0.7941681743
-0.23802969 -0.053522471 0.99275005 -0.7091178298 0.4400880933 -0.5508850813
-0.26153508 -0.029269271 1.077 -0.6964042187 0.497581929 -0.5171396136
-0.14344881 -0.15338558 0.93745446 -0.1621449143 -0.3717343509 -0.9140692353
0.0054220087 -0.12582077 0.97680026 -0.2407834679 0.5411527157 -0.8057152629
0.032794345 0.077886567 1.169 0.5823831558 0.09849666059 -0.8069251776
-0.10525391 -0.25507185 0.98699993 0.04839057848 -0.4500513673 -0.8916906118
-0.094999515 -0.22554371 0.97299993 -0.1049209312 -0.3638826013 -0.925516665
-0.24730329 0.0087973503 1.115 -0.541202426 0.7334389687 -0.4112993479
-0.16424221 -0.2457449 0.96390915 0.172675401 0.7594462633 -0.6272357106
-0.0087871226 -0.15108182 0.97000003 0.007219305262 0.577424705 -0.8164120317
-0.22187994 0.019827571 1.077 -0.6220748425 0.7004942298 -0.3497580886
-0.13475238 0.034134459 0.98347068 -0.4167850912 0.7866987586 -0.4554066658
-0.0048187883 -0.17506425 0.95338458 0.333194524 0.2863829434 -0.8983129859
0.026254123 -0.16234787 1.0326668 -0.4196611643 0.8060470819 -0.417339921
-0.064974129 -0.10508163 0.91500062 0.05390511826 -0.06083122641 -0.9966914058
0.081670262 -0.054765362 1.0960001 -0.6361908913 0.5723226666 -0.5174049735
-0.19127795 -0.038120449 0.95780003 -0.3885763884 0.01522105932 -0.9212908149
-0.24739259 -0.16280967 1.0026667 -0.6561492085 0.1278751343 -0.7437177896
-0.12044612 0.11163473 1.1170001 -0.2938243449 0.8620227575 -0.413018167
-0.12121845 -0.10738815 0.92800003 -0.368109107 0.2280718684 -0.9013761282
-0.068979636 -0.0066486401 0.94800007 0.4520097375 0.5125926137 -0.7300246954
-0.075974561 0.11059588 1.097 0.1464318186 0.8757085204 -0.4601003528
-0.058242228 0.012849304 0.97700006 0.6552503705 0.5822662711 -0.4812617898
0.053369712 -0.1706081 0.99800003 -0.279257834 0.8950451612 -0.3477200568
-0.15677825 0.032829635 1.0190001 -0.4184315205 0.7420625687 -0.523696661
-0.040615965 0.11986663 1.13 0.3557385504 0.7186886668 -0.5974417925
-0.18275695 0.0023106013 0.98799998 -0.5887026787 0.6567798257 -0.4712424576
0.032119606 0.04226264 1.1570001 0.3475883603 0.8887058496 -0.2989719212
-0.24555336 -0.12550019 0.98355556 -0.6448328495 -0.02409830131 -0.7639436126
-0.043375969 -0.14529563 0.93254566 0.4909653068 -0.2123181522 -0.8449106812
-0.23915467 -0.10087979 0.99200004 -0.7467279434 0.3493586779 -0.565991044
-0.18255532 0.074826032 1.1148889 -0.5077164173 0.7510989308 -0.4219887257
0.0060221525 -0.056735784 1.056625 -0.9505147338 0.2588871121 0.1717533469
-0.097401485 -0.27576584 0.92478579 -0.2412219644 -0.4582590759 -0.8554592729
0.064239375 -0.10431493 1.0631427 -0.642442584 0.4549772143 -0.6166549325
-0.20640855 0.038998514 1.085 -0.6086896062 0.670679152 -0.4238944054
-0.14522749 -0.19504611 0.96313357 0.06440620869 -0.4110662341 -0.9093274474
-0.14389834 -0.018841844 0.95100003 -0.04656995833 -0.05826160684 -0.9972145557
-0.13547553 0.045528971 1.0158126 -0.5246525407 0.68099612 -0.5108659267
-0.12656464 -0.06171333 0.92800003 -0.1120944619 -0.1289142817 -0.9852999449
0.0028474131 0.054618333 1.1357143 0.7904238701 0.2793263495 -0.5451667905
-0.1761197 0.046188641 1.0536667 -0.5263277292 0.7661751509 -0.3687204123
0.052625168 -0.14090227 1.0427144 -0.4544888437 0.6901123524 -0.5631915927
0.022671694 -0.005318298 1.0555 0.4982242882 0.7825777531 -0.3732889891
-0.21697783 -0.0058269841 1.0227501 -0.5844762921 0.695732832 -0.4175443053
-0.07460317 0.12193089 1.1246667 0.03332241997 0.86762923 -0.4960938394
-0.065934405 0.033645589 1.0046 0.5083095431 0.716737628 -0.4773977101
-0.011428664 -0.19790091 0.95383334 0.5822536945 -0.4170790315 -0.6978722811
-0.27505767 -0.11513 1.0220001 -0.6340175271 0.4573745131 -0.623562634
-0.0049620173 0.084419742 1.1328572 0.6160905957 0.4826380014 -0.6224893332
-0.081495523 -0.23742454 0.90644455 0.04518303648 -0.1569401771 -0.9865739942
-0.0062376079 0.042567424 1.1071428 0.7098088264 0.3853066862 -0.5896695852
-0.084404968 0.046667129 1.0123687 0.4207490981 0.7412907481 -0.5229323506
0.058663905 -0.079821378 1.097 -0.7756582499 0.4839420617 -0.4051596522
-0.0043451753 -0.013788906 1.0133159 0.5026966929 0.6892189384 -0.5217981339
-0.2077288 0.058085304 1.123 -0.5353122354 0.7404008508 -0.4065063
0.073011428 0.00719831 1.1730001 -0.3304579258 0.7974947691 0.5047768354
-0.086268269 -0.12620904 0.9212274 -0.1952064633 -0.2753150463 -0.9413267374
0.037521333 -0.13038664 1.0700001 -0.6032469869 0.628613472 -0.4908545315
-0.098023728 -0.043967333 0.9262858 0.1415321827 -0.03196945414 -0.9894173145
-0.028356483 -0.13365731 0.94580001 0.8477056026 -0.1347313672 -0.5130717754
-0.013253739 0.11749992 1.1632223 0.5936169028 0.6356904507 -0.4934740663
-0.035342593 -0.168176 0.92675018 0.1587732881 0.3439795077 -0.9254561663
-0.10423003 0.09212552 1.0738572 -0.173192203 0.8801214099 -0.4420302212
-0.0040750657 0.002748111 1.0434546 0.2871640325 0.9055012465 -0.3124169111
-0.15819646 -0.073993035 0.94023091 -0.4100219607 0.1613955796 -0.8976822495
-0.037607148 -0.0062480029 0.98744446 0.5264344215 0.7102835178 -0.4672944546
-0.0459655 0.094813026 1.0938667 0.4323299825 0.7170214057 -0.5467824936
-0.19126455 -0.14754695 0.95900005 -0.4926123023 0.2035949528 -0.8460982442
-0.17598855 0.066450804 1.0922 -0.4631578922 0.7757264376 -0.4286412001
-0.17708667 0.018594099 1.01 -0.5054738522 0.7810846567 -0.3666101098
-0.013090824 0.016888719 1.0822999 0.5716088414 0.6864871383 -0.4494426548
-0.090869129 0.081690431 1.0470001 0.2318959236 0.804782927 -0.5463961363
-0.16464113 -0.18526648 0.95623326 0.003936852328 -0.4558223784 -0.8900620341
-0.026435444 -0.046861127 0.94612503 0.6402401924 0.5086655617 -0.5756317377
-0.16407241 -0.13465025 0.94520825 -0.4708684981 0.1581561714 -0.8679109812
-0.03211651 0.027986005 1.0712 0.6340375543 0.5727235079 -0.5196000338
-0.12088006 -0.1603511 0.93800002 0.01101400331 -0.5921217799 -0.8057731986
-0.056323674 0.053507958 1.0453845 0.7095957994 0.5460304618 -0.4453364313
-0.053848594 0.14317961 1.1645 0.1133415923 0.8753742576 -0.4699718654
-0.18169266 -0.26723078 1.0380001 -0.4992732704 -0.6870548725 -0.5279032588
0.05865426 -0.042748019 1.1340001 -0.5878236294 0.4369399846 -0.6808426976
-0.18483275 0.051775496 1.0738333 -0.5092762113 0.7574615479 -0.4085214436
-0.13674277 0.016619699 0.96383339 -0.3477726877 0.7003631592 -0.623334229
-0.25305274 -0.056593508 1.0140001 -0.7623959184 0.4879033566 -0.4250915349
-0.20516247 -0.074690357 0.97396004 -0.4776328504 0.1590458453 -0.8640435338
0.048088674 0.02726784 1.131 0.6736938953 0.5331515074 -0.5117479563
-0.084849834 -0.15461437 0.93496287 -0.1928718984 -0.5080005527 -0.8394854665
-0.25646752 -0.0085488148 1.0835 -0.6797167659 0.551431179 -0.4836411774
-0.17619498 -0.014122922 0.96286666 -0.5232154727 0.526676774 -0.669968009
0.061658595 0.0090971701 1.153 0.8171045184 0.5752939582 0.03710931167
-0.14606634 0.064816877 1.0532 -0.4798287451 0.8044285774 -0.3502271473
-0.10534455 0.04231324 0.98735315 0.2366975099 0.7587003708 -0.6069168448
-0.20268394 0.022928717 1.0461428 -0.605494082 0.6215046644 -0.4971004725
-0.105618 -0.084362991 0.93229645 -0.3467290998 0.2749610841 -0.8967581987
0.074489318 0.044899888 1.1640002 0.1640933603 0.4468001425 -0.8794561028
-0.2236733 -0.16513669 0.97504759 -0.6839783192 0.2208737582 -0.6952614188
-0.057527304 0.070622951 1.067 0.5525715351 0.6161343455 -0.5612870455
-0.14435121 -0.23417714 0.97635293 0.1358818561 -0.3194206953 -0.9378200769
-0.074829176 -0.042381164 0.94015813 0.2146109343 0.3031790853 -0.9284527898
-0.21454735 0.046748567 1.1046363 -0.5921206474 0.7008200288 -0.3977994919
-0.13809623 -0.10366519 0.9410001 -0.4112328589 0.08063637465 -0.9079566598
-0.27569327 -0.055669017 1.0525556 -0.5954128504 0.6785268784 -0.4302148223
-0.20555735 -0.014736026 1.0070001 -0.6004003286 0.6087319851 -0.5186181664
-0.12284555 -0.13504873 0.92800021 -0.1968093812 -0.1688156724 -0.9657987952
0.015792273 0.055669557 1.1545999 0.8316607475 0.2439388931 -0.4988328516
-0.027142886 -0.085102722 0.93500006 0.7315995693 -0.07459308207 -0.677641511
-0.038277023 0.13195498 1.149 0.3901375234 0.7790324688 -0.490816772
-0.20619959 -0.033785135 0.97358841 -0.6209377646 0.4817355573 -0.6183583736
-0.12477177 -0.26402384 0.98835737 -0.04383804277 -0.4953837991 -0.8675673604
-0.13801494 0.099566981 1.1245 -0.4471012652 0.821958065 -0.3528248668
-0.032745074 0.0075012865 1.0434 0.5721929073 0.7734193206 -0.2727962732
-0.19449435 -0.21220009 0.97733337 -0.3077391684 -0.5182004571 -0.7979754806
-0.09538611 0.10369866 1.0941111 -0.090593189 0.9002940655 -0.4257504344
-0.04222231 0.054560512 1.0823334 0.7365992069 0.1948396116 -0.6476566195
0.065555677 0.075810432 1.1827778 -0.7762969732 0.408259213 -0.4802992642
-0.0069020549 -0.11257768 0.99239987 0.2954729199 0.4723934531 -0.8303855658
-0.20531349 -0.11387693 0.95687485 -0.2538780868 -0.290907234 -0.9224526286
0.084283546 -0.043754432 1.1129231 -0.4929626286 0.5581755042 -0.6674038768
-0.24850431 0.026371887 1.1570001 -0.632455647 0.7188887 -0.2884422541
-0.079040267 -0.26857561 0.92000002 -0.0447663255 -0.4368820488 -0.898404181
-0.10492976 0.0051963036 0.96414316 0.1802093387 0.5351954699 -0.8252820373
0.00084510667 -0.21043156 0.96400005 0.3647722006 -0.4933102727 -0.7896747589
0.015721662 0.016965412 1.1143637 0.1751946509 0.6765839458 -0.7152209282
0.043585036 0.0054423469 1.1047692 0.4396423995 0.660413444 -0.6087434888
-0.22506967 -0.13264836 0.97617644 -0.402009666 -0.4457687736 -0.7997989655
-0.02476375 -0.008141933 1.0043751 0.4627729952 0.7883225679 -0.4054487944
-0.22906423 0.0055756001 1.0600001 -0.668107152 0.5762220025 -0.4707451761
-0.0061409036 -0.035053078 0.98594451 0.6005685925 0.6036354303 -0.5243487954
-0.11528592 -0.17484993 0.95365536 -0.01611211151 -0.5923401713 -0.8055268526
0.046851113 -0.021864941 1.1876668 -0.5059288144 0.8479337096 0.1582543552
-0.21156815 -0.18531042 0.96610004 -0.4103231132 -0.1666109711 -0.8965911865
0.055627134 -0.094261445 1.0836667 -0.7719497085 0.4675374031 -0.4306999743
-0.23063521 -0.065160878 0.9780001 -0.5118124485 -0.177693367 -0.8405195475
0.076738141 0.097711958 1.2115 -0.906190753 0.3980472386 -0.1427469701
-0.14522929 -0.21542339 0.9702608 0.02781729214 -0.3063483536 -0.9515129328
-0.029812803 0.072127752 1.097 0.7628986239 0.3258914351 -0.5583730936
0.053837851 -0.071462944 1.1166668 -0.7714065909 0.4417021871 -0.4580732584
-0.055573743 -0.023917517 0.95566648 0.4304395616 0.6070392728 -0.6680008173
-0.092786051 0.12259202 1.1332 -0.1148811504 0.8935092092 -0.4341008961
-0.037216503 0.0036825004 1.0142857 0.5571594834 0.7680053115 -0.31581828
0.012664152 -0.024253158 1.0171999 0.5456285477 0.6323022246 -0.5499848723
-0.065356396 -0.15528421 0.93154305 -0.07594536245 -0.3882819712 -0.9184058905
0.030714016 -0.10530519 1.001 0.07296210527 0.6873604655 -0.7226424217
-0.045247175 -0.10504835 0.92175007 0.5137335658 -0.1140674502 -0.8503331542
0.068756968 -0.016937785 1.1366667 -0.2126468569 0.5002581477 -0.839358747
-0.10530782 -0.12474614 0.92400002 -0.2071104199 -0.1499390155 -0.9667593241
0.045069434 0.06813848 1.2240001 -0.5863319635 0.6371689439 -0.5002304912
-0.18544184 -0.1067735 0.95212525 -0.2814725935 -0.2675645053 -0.9215109348
-0.031454802 -0.21319364 0.92000002 0.3446479142 0.1709550172 -0.9230342507
-0.24138753 0.010578737 1.097 -0.6864792109 0.6713647246 -0.279312849
-0.27145982 0.010858393 1.126 -0.2774631679 0.7686029673 -0.5764232278
-0.23995243 -0.043386232 1.01 -0.691960156 0.540984273 -0.4780451655
-0.082455754 0.1317253 1.1470001 -0.1617230624 0.8532616496 -0.4957723022
0.016333615 0.086142041 1.1645 0.6493005157 0.5099475384 -0.5642361045
-0.10145751 0.1404008 1.169 -0.3150283098 0.8626485467 -0.3957204223
-0.12550731 -0.015057798 0.95441681 -0.02055394836 0.2171779722 -0.9759156108
-0.15352415 0.073241115 1.085 -0.4659561217 0.785112679 -0.4080232084
0.053559549 -0.12416496 1.0625501 -0.5775767565 0.5454187393 -0.6073907018
-0.1143261 0.12227922 1.1340001 -0.2643718421 0.883731842 -0.3861678243
0.045328382 -0.15834366 1.0169231 -0.3637636602 0.8201331496 -0.4416532218
-0.26020256 -0.17139623 1.013 -0.7265495062 0.1253562421 -0.6755824685
-0.26711696 -0.042720344 1.0627143 -0.6171622872 0.6581751704 -0.4311799705
-0.1154181 -0.24279232 0.97752643 0.03731228784 -0.3844235837 -0.9224024415
0.043711651 0.053850126 1.2044002 0.4504742324 0.7763943076 -0.44077757
0.013633077 -0.17490242 0.95496017 0.4458006918 0.08537299931 -0.8910517097
-0.045567188 -0.055392832 0.9252646 0.206744805 0.5008689165 -0.8404682875
0.091783494 -0.0089788204 1.138 0.4212481678 0.5259740949 -0.7388513088
-0.050121002 -0.18486993 0.93725002 -0.6557950974 -0.02745567448 -0.7544395328
-0.064836986 0.096616365 1.0924119 0.2885046601 0.7680914998 -0.5716647506
-0.1620606 -0.018165035 0.94800001 -0.3520667553 0.1089858711 -0.929608047
-0.10317092 -0.025349984 0.93576187 -0.2883476615 0.5230866671 -0.8020198941
-0.1953641 -0.058031302 0.97060013 -0.2710044384 -0.1642986387 -0.9484527111
-0.058625035 -0.23299831 0.90777779 0.2652125955 -0.07196357101 -0.9615006447
-0.26807913 -0.071587145 1.0250001 -0.8100382686 0.1937851012 -0.5534305573
0.050226863 -0.025647759 1.2190001 -0.5404341817 0.8320471048 0.1250141561
-0.04546921 -0.12462074 0.92391425 0.5007501245 -0.2124160975 -0.8391237855
-0.021193417 -0.098337457 0.96700007 0.942248702 -0.2209522426 -0.2516893744
-0.18549135 -0.17546491 0.95308357 -0.2860145569 -0.23931247 -0.927860558
-0.022408038 -0.18453565 0.93104559 0.6538827419 0.2921915054 -0.6978979111
-0.25068021 -0.023297418 1.0630001 -0.695465982 0.5226010084 -0.4931685627
-0.22328226 -0.096219651 0.97708327 -0.6270650029 0.4162261784 -0.658441484
-0.01763404 -0.06514433 0.94662505 0.8188259006 0.1753872335 -0.5465925336
-0.2508494 -0.14522859 1.0040001 -0.5749968886 -0.3686558604 -0.730391264
-0.024910213 -0.13614087 0.96453851 0.8820197582 -0.01269698981 -0.471041292
-0.20234628 -0.22410603 0.99275005 -0.3484695256 -0.5410692692 -0.7653842568
-0.0093106385 -0.071098104 0.96550006 0.9564083815 -0.1227735132 -0.2649710476
0.024762765 0.0056397431 1.0725 0.3843095303 0.8861414194 -0.2589586377
-0.0424219 0.027665846 1.052 0.7498806715 0.5678572655 -0.3394365013
-0.17045556 0.043639589 1.0370001 -0.4944547117 0.6888995767 -0.5300301313
-0.14090781 -0.038479239 0.94733334 -0.3814485371 0.3479137123 -0.8564187288
-0.15487517 -0.16482082 0.94474226 -0.133598417 -0.3686108291 -0.9199334383
0.069159798 -0.036787122 1.1190001 -0.5159800053 0.5107380748 -0.6876853704
-0.25060743 -0.03709352 1.0320001 -0.7575165033 0.5527846813 -0.3472720683
-0.23915467 -0.18175754 0.99200004 -0.7442575693 0.150336504 -0.6507530808
-0.19794171 0.0099422764 1.031 -0.6214874387 0.6612734199 -0.4200842679
0.034511559 0.036484763 1.1248 0.2384551764 0.8178696632 -0.52366817
-0.096469276 0.022951424 0.97766674 0.3509674668 0.5992462635 -0.7195315957
0.067066826 0.025879757 1.1639091 0.01547407266 0.00188691169 -0.9998784661
0.021259166 -0.13690904 0.97000003 -0.15502581 0.5001772046 -0.8519329429
0.018060209 -0.17802207 0.98100007 0.8124909997 0.273465991 -0.5148540735
-0.16476071 -0.055696484 0.95516008 -0.4975543618 0.3413009942 -0.7974668145
-0.26723561 -0.09552291 1.0345001 -0.7171617746 0.1185845211 -0.6867434978
-0.053608574 0.024649303 1.0127692 0.770849824 0.5453583002 -0.3292033076
-0.075321421 0.016119514 0.9744485 0.1866924763 0.7683569193 -0.6121875644
0.0200669 -0.041089367 1.09 -0.8224512935 0.05027790368 0.5666092038
0.011527728 -0.092220515 1.0115 0.1691582203 0.7495225072 -0.6400011778
-0.11726747 0.014471901 0.95639127 0.3134798408 0.4104829431 -0.8562909365
-0.10427161 -0.21231951 0.96700007 -0.1076050922 -0.3044025004 -0.9464461207
-0.21280207 0.021373134 1.0600001 -0.5945481062 0.6967688799 -0.4012800157
-0.10558983 0.072310381 1.0353333 -0.01658749394 0.8547583222 -0.5187610984
-0.008749133 -0.088366248 0.99800003 0.4859898686 0.5992489457 -0.6361718178
-0.12596719 -0.20700692 0.97027284 0.02363953739 -0.3222323358 -0.946365416
-0.11345206 0.061639309 1.0190001 -0.127502203 0.8381912112 -0.5302628279
-0.024054857 0.13770534 1.1930001 0.4924312532 0.7827307582 -0.3805837333
0.026889995 0.064254411 1.1950001 0.7989775538 0.5453361273 -0.2534627318
-0.16507278 -0.22492629 0.97205859 -0.1021156013 -0.1748491526 -0.9792855382
-0.098901153 -0.23994279 0.98100007 -0.02909920178 -0.3979851305 -0.9169302583
-0.13933076 -0.25475043 0.94042861 -0.1866177768 0.8703195453 -0.4557605684
-0.24239494 -0.07295382 0.98899996 -0.6008243561 -0.2213073075 -0.7681362033
-0.16795838 0.0081845596 0.98250008 -0.5159780979 0.6938900352 -0.5022780299
-0.066136509 0.023473885 0.98735315 0.4507282078 0.7210844755 -0.5261950493
-0.19084419 -0.079868719 0.95900005 -0.5493934155 0.4330125451 -0.7146096826
-0.18855523 0.080809377 1.138 -0.4920501411 0.7831841707 -0.3801436424
-0.13036208 0.041120928 0.99800003 -0.41899544 0.8139513731 -0.402400285
0.0037416131 0.043145675 1.1236001 0.6541115046 0.4995648861 -0.5679551363
-0.22553581 -0.045606509 0.98500007 -0.6528629661 0.5118651986 -0.5583583117
-0.17567067 -0.14491318 0.95137519 -0.4857075512 0.147516489 -0.8615840673
-0.24880676 -0.089428768 1.01 -0.6562589407 -0.1856224537 -0.7313470244
-0.044774331 -0.20504007 0.91429734 0.3074501157 0.2041538656 -0.9294060469
-0.073428944 0.056550253 1.0341251 0.4508612156 0.7439343929 -0.4932400584
0.043844294 -0.15295832 1.0355002 -0.4148493409 0.7734507322 -0.4792431295
0.067348704 -0.066151835 1.0936251 -0.6947027445 0.5590232015 -0.4526380002
-0.25914443 -0.0058000265 1.103 -0.4776414335 0.7329252958 -0.4844369888
0.06561587 0.10864267 1.2270001 -0.7118824124 0.6418226957 -0.2851088643
-0.24520104 -0.14122954 0.9883334 -0.5127896667 -0.5328496099 -0.6731404066
-0.06482929 0.0048433444 0.9642427 0.5160487294 0.6010477543 -0.6102747917
0.064191282 -0.011388777 1.1810001 -0.6216659546 0.6470019817 0.4414973557
-0.080614761 -0.18034436 0.94800007 -0.3306165338 -0.516970396 -0.789578557
-0.20833983 -0.1505149 0.97000003 -0.5562315583 0.1787383556 -0.8115781546
-0.25191718 -0.11741047 0.9962858 -0.7254026532 0.3892627954 -0.5676842928
-0.16543697 -0.094642282 0.9434287 -0.2215598673 -0.2363501787 -0.9460707307
-0.074856065 -0.25536793 0.91138464 0.05012289062 -0.3339374661 -0.9412616491
-0.26851425 -0.0200669 1.09 -0.6649364233 0.537411809 -0.5186984539
-0.022599669 -0.17263018 0.94218177 0.6729878187 0.4411619306 -0.5936864018
0.047002193 0.043604817 1.1656667 0.02064979076 0.7838141322 -0.62065202
0.022239281 -0.056524832 1.057 -0.9615409374 0.2064751387 0.1811272055
-0.13821672 0.08842089 1.0923333 -0.4623372853 0.7699277401 -0.4398358166
-0.17467323 -0.046333328 0.96440011 -0.2506321967 -0.1265923828 -0.9597697258
-0.083954088 0.087211788 1.0611252 0.3252363503 0.8005486727 -0.5033319592
0.043432344 -0.17664973 0.98680001 -0.1087348536 0.9318538308 -0.34615767
-0.058070399 -0.070168398 0.92000002 -0.08178406209 0.3688363433 -0.9258893728
-0.048185106 0.06115802 1.057 0.7931571007 0.4485603571 -0.4119410515
-0.17326991 -0.074843131 0.94609517 -0.4901197553 0.3257537782 -0.8084968328
-0.094786324 -0.18450677 0.95744425 -0.1889686882 -0.4964581728 -0.8472426534
0.022305032 0.066915095 1.1743335 0.9026626348 0.07419624925 -0.4239045382
-0.11514767 -0.046757761 0.92699999 -0.1438618004 0.1529715955 -0.9777031541
-0.1847662 0.03526729 1.0437691 -0.552354753 0.6945939064 -0.4609159231
-0.053598523 -0.0025835368 0.98350006 0.6909399033 0.5777139664 -0.4345671833
-0.15618694 -0.0034143773 0.95272732 -0.4512424469 0.4998504817 -0.7392765284
-0.059095223 -0.20768146 0.96300006 -0.2994352281 -0.469568342 -0.830568552
-0.053849719 0.086379789 1.0827333 0.3752687275 0.6401283145 -0.6703798771
-0.056466099 0.11986663 1.13 0.1461373717 0.80821383 -0.5704684854
-0.036662076 -0.016984791 0.97585714 0.512840271 0.7213011384 -0.4655314684
0.096691951 0.01119591 1.161 0.1161445081 0.5073357224 -0.8538857698
-0.0064383657 0.097126015 1.1421429 0.6112618446 0.6026940942 -0.5129510164
-0.14232507 0.021434499 0.97800004 -0.4691105783 0.7130138874 -0.5211011767
-0.23097712 -0.038496189 0.99800003 -0.6521878242 0.599791348 -0.4635745287
-0.081696346 -0.068688802 0.92725003 -0.2722399235 0.3638153374 -0.8907995224
0.028092783 0.0087184496 1.105 0.1708517373 0.7429091334 -0.6472215652
0.048405737 -0.098414302 1.097 -0.8122081757 0.436555624 -0.3869587481
-0.23311138 -0.16768354 0.98850006 -0.7123183012 0.224571079 -0.6649589539
-0.085558616 -0.21454018 0.96700042 -0.09513230622 -0.3162905574 -0.9438803792
-0.10482121 -0.15847424 0.94150007 -0.01586942933 -0.5502111316 -0.8348747492
-0.12876481 0.089946002 1.08 -0.3942391574 0.8102350235 -0.4336988032
-0.21439752 -0.12296854 0.96568751 -0.3298577964 -0.3665925264 -0.8699446917
-0.025316281 0.12321678 1.1552222 0.5916649103 0.6634855866 -0.4579514563
-0.017645108 -0.15797314 0.95849997 0.4743264616 0.5351698399 -0.6990047693
0.067338526 -0.13922694 1.0380001 -0.4479221106 0.6726940274 -0.5889384747
-0.1750474 -0.19615597 0.96305549 -0.07937949151 -0.4785458148 -0.8744671345
-0.084397852 -0.0072892993 0.94626313 0.02780395187 0.6711246371 -0.7408229709
-0.11546928 0.10614808 1.1034545 -0.1693084091 0.8719636798 -0.4593625665
0.0050835814 -0.076793991 1.0237143 0.2773750722 0.7512696385 -0.5988797545
0.0016986877 0.11187699 1.1636667 0.6570501328 0.5592566729 -0.5054870248
-0.13713214 0.058383368 1.0325 -0.5077656507 0.7025674582 -0.498570919
-0.07334365 -0.024920408 0.94310731 0.4624436796 0.3307362199 -0.8226538897
0.070712812 0.060464576 1.169 0.1673661768 0.4979492426 -0.8509024978
-0.048884686 0.13069171 1.138 0.1874948442 0.8178123236 -0.5440852046
-0.19609018 0.067990758 1.1240001 -0.5109435916 0.7524765134 -0.4155908525
0.058503844 0.025892349 1.1421429 0.7115713954 0.5105959773 -0.4826570749
-0.00084072334 -0.15805599 0.95900005 -0.06098903716 0.4830854237 -0.8734465241
-0.22539538 0.038703371 1.113 -0.6778367162 0.6374231577 -0.3663729131
-0.20479259 -0.045741577 0.96425945 -0.4224684238 -0.05404900387 -0.9047647119
-0.091381721 -0.14200823 0.92714292 -0.1240852103 -0.4763612449 -0.8704497814
-0.018547198 -0.028534187 0.97650003 0.5696562529 0.6598442793 -0.4899972379
-0.26045066 -0.057677653 1.028 -0.7022029161 0.5788642764 -0.4145204127
-0.096359596 0.051361855 1.0043334 0.3016311228 0.7865555286 -0.5388405323
-0.19450699 -0.12455215 0.96440655 -0.2491458505 -0.3223950267 -0.9132293463
-0.14899038 -0.24868841 0.95300007 -0.1638954431 0.7992278337 -0.5782501101
-0.017069226 0.082206964 1.1190001 0.6404252052 0.4587658346 -0.6159459949
0.071853355 -0.091739655 1.0700001 -0.6491079926 0.4790047109 -0.5909427404
-0.28571442 -0.041089367 1.09 -0.6082478762 0.5890192986 -0.5320627689
0.012092448 0.031700559 1.1183333 0.3255186379 0.5890008211 -0.7396726608
0.0065506925 -0.13864349 0.96700007 -0.2506662309 0.5227829814 -0.8147787452
-0.0069547719 0.007707654 1.0720001 0.2191142887 0.9241704345 -0.3128864467
-0.084153764 0.10252987 1.084 0.1381006092 0.8522942066 -0.5045025945
0.076072752 0.0081144264 1.1570001 -0.1142247468 0.7469792366 -0.6549616456
-0.14740273 0.095664494 1.1135001 -0.4385605752 0.8184151053 -0.3712967932
-0.016476072 0.055247884 1.1055999 0.7424488068 0.3517344296 -0.5701339245
-0.083549187 -0.095929906 0.91724998 -0.2949841022 0.1698070318 -0.9402924776
-0.17449977 0.012969473 0.99638462 -0.5364266634 0.7160481811 -0.4466781914
-0.21765576 -0.14428484 0.9819231 -0.6391972899 -0.04182394594 -0.7679046392
-0.042167667 -0.021083834 0.96200007 0.4639750719 0.7051331401 -0.5362036824
-0.15435569 0.013497802 0.97420013 -0.4917813241 0.7030368447 -0.5137025714
-0.12746923 0.028674157 0.9715001 -0.30103755 0.7457966208 -0.5942758918
0.022509292 0.051151745 1.1670001 0.7716289163 0.4596401155 -0.4396814704
-0.19271639 -0.0055820872 0.99560004 -0.6760103106 0.6101891994 -0.4131334126
-0.075289883 -0.11568154 0.91548669 -0.0687687397 -0.1458000243 -0.986921072
0.0036862246 -0.025703229 1.0048181 0.5878673792 0.6025959849 -0.5397129059
-0.19466557 -0.095241927 0.95300025 -0.4496148527 0.1634971499 -0.878131628
-0.11535054 -0.025050111 0.94415134 -0.3356633782 0.5334846973 -0.7763531208
-0.0049477974 -0.0058407914 1.02575 0.3807098567 0.8137508035 -0.4391692579
-0.03688553 0.092216134 1.10725 0.6535694599 0.5715045929 -0.4962150753
-0.011875124 0.025896261 1.0939231 0.7170174718 0.4279016852 -0.5502600074
-0.011118763 0.10714445 1.153 0.6307653785 0.5946996212 -0.4984650314
-0.12742789 0.07844267 1.061 -0.395300597 0.8478547335 -0.3533833921
-0.24415517 0.02067443 1.123 -0.6311614513 0.6455330253 -0.4300259054
-0.076077826 -0.23449129 0.97412515 -0.1020923555 -0.405059427 -0.908572495
0.0087565854 0.10352249 1.1750001 0.5897704363 0.5819227695 -0.5599434376
-0.19488475 0.050766014 1.0843999 -0.5260696411 0.7427402735 -0.4142313302
-0.13047956 -0.02825672 0.94800007 -0.2388830334 0.3860163689 -0.891025424
-0.21870203 -0.020364966 1.01 -0.5573889613 0.6300600171 -0.5406866074
-0.1285715 -0.24811289 0.98100007 -0.05268674716 -0.4318455756 -0.9004074335
-0.032488391 0.10599747 1.123 0.6060435176 0.5698357821 -0.5549760461
-0.014412838 0.12664632 1.1745001 0.5756174326 0.6945100427 -0.431648463
-0.1761981 -0.0040049637 0.97329998 -0.5433831215 0.6518796682 -0.5289496779
-0.017762884 -0.037282743 0.96492314 0.6336848736 0.5984636545 -0.4901884794
-0.077379853 -0.16775981 0.94150007 -0.2926738262 -0.4864929616 -0.8232051134
-0.27448764 -0.013520391 1.1015 -0.5919296741 0.6271727681 -0.5062346458
