# .PCD v0.7 - Point Cloud Data file format
VERSION 0.7
FIELDS x y z normal_x normal_y normal_z
SIZE 4 4 4 4 4 4
TYPE F F F F F F
COUNT 1 1 1 1 1 1
WIDTH 512
HEIGHT 1
VIEWPOINT 0 0 0 1 0 0 0
POINTS 512
DATA ascii
-0.024412645 0.065916024 1.3923751 -0.1853038818 -0.5813397169 0.7922793627
-0.40994072 -0.41810688 1.863 -0.1100700498 0.7910990715 0.6017032862
-0.21052536 -0.33342087 1.2190001 0.5314895511 0.1848216206 0.8266558051
0.021004057 -0.3360649 1.8430001 -0.1712313592 0.7945171595 0.5825995803
-0.29105684 -0.13157363 1.516 0.6078439355 -0.2402794808 0.7568299174
0.01739149 -0.16167679 1.2246001 -0.5676050186 -0.5524252653 0.6104514003
0.042482391 -0.13916644 1.6710001 -0.4083508551 0.7433000207 0.5298628211
-0.18377925 -0.11742105 1.316375 0.583652854 -0.5693525076 0.578953445
-0.20195244 0.02172906 1.4580001 0.640610218 -0.3622472286 0.6770491004
-0.13369615 -0.19403276 1.1765001 0.3950223327 0.09508672357 0.9137372971
0.036226496 -0.062519923 1.3330001 -0.7431334257 -0.4525009096 0.4929458797
-0.26127687 -0.21722209 1.2744285 0.7085633278 -0.4075542986 0.5760533214
-0.085629895 -0.055563059 1.3846925 0.4221404493 0.1885908246 0.8866966367
-0.058568347 -0.29807106 1.1930001 -0.2826797962 0.7095142603 0.6455088258
-0.068702608 -0.080891788 1.2640001 0.3174822927 -0.8313165307 0.456199348
-0.20202395 -0.10614818 1.439 0.3816719949 0.2403058559 0.8925130963
-0.12115387 0.061610673 1.4150001 0.431638062 -0.4306928515 0.7925857902
-0.27232638 -0.034962092 1.5089999 0.8612831235 -0.02514958382 0.5075026155
-0.035357151 -0.20553887 1.156294 -0.3200232089 -0.1994307786 0.926181674
0.024185481 0.016547959 1.452 -0.8817365766 -0.4409930408 0.1675283611
-0.27775955 -0.17923801 1.3540001 0.6563646793 -0.5024574399 0.5627804995
-0.13730353 -0.1318533 1.243 0.5937247276 -0.7438867092 0.3067954779
-0.19514658 -0.24491136 1.2134445 0.3591168821 0.1803170145 0.9157078266
-0.065889388 -0.13222702 1.193 0.1397810131 -0.8129249215 0.5653443933
-0.16479288 -0.034692626 1.4133334 0.4470616877 -0.01417391468 0.8943908215
-0.13909982 -0.30852968 1.1930001 0.3067477047 0.3199145496 0.8964153528
-0.013890053 -0.0059518362 1.3581668 0.3283687234 -0.4957921207 0.8039677739
-0.26192695 -0.29522103 1.266 0.7932851911 0.06509576738 0.6053603888
0.0078119766 -0.1015557 1.273 -0.8409466743 -0.3458417058 0.4161756933
-0.20300969 -0.1768149 1.245 0.5806956291 -0.6655293107 0.4688959122
-0.074866958 0.014243829 1.3870002 0.2046202719 -0.211512804 0.9557158947
-0.12030935 -0.069894001 1.307 0.3417157829 -0.6714856625 0.657523632
-0.047517087 -0.052925538 1.322 0.2072790414 -0.9384618402 0.2762692869
-0.10461154 -0.25321114 1.1670001 0.3525348902 0.05941536278 0.9339106083
-0.22530682 -0.045825124 1.4519998 0.6182325482 -0.117212519 0.7772063613
-0.23449227 -0.16636629 1.3047779 0.5759831071 -0.6600614786 0.482247144
-0.2487191 -0.14433441 1.47 0.6437339187 -0.1336707026 0.7534844279
-0.015133721 -0.10678793 1.2157333 -0.3602339327 -0.7408661246 0.5668764114
0.031744756 -0.024417579 1.3927501 -0.8588516116 -0.4685303569 0.2070101202
-0.25741914 -0.085806377 1.4829999 0.8497661948 -0.04829433188 0.5249429345
-0.29486683 -0.085606493 1.5500001 0.8521293402 -0.2201353759 0.4747799039
-0.12739195 0.006154201 1.4040002 0.5208631754 -0.1450200528 0.8412317038
-0.08436881 -0.17495692 1.1633637 0.005002329126 0.06163882092 0.9980859756
-0.14824346 -0.08595629 1.4210001 0.3674062788 0.2368666381 0.8993924856
-0.017647125 -0.15468554 1.1842002 -0.6265859604 -0.2616689503 0.7341113091
-0.11818255 -0.14589792 1.1930001 0.3947171569 -0.4508410394 0.8005877733
-0.24242419 -0.25432757 1.2345001 0.5548762679 0.1910521537 0.8096983433
0.011796427 0.024813173 1.3920001 -0.7369894385 -0.5216147304 0.4298425615
-0.0034035959 -0.055589557 1.2941428 0.160085246 -0.8725566864 0.461538285
-0.044565454 -0.25608504 1.1612221 -0.1881376803 0.2917404473 0.9378122091
-0.075681202 0.065916017 1.3923751 0.2523747981 -0.3350750208 0.9077619314
-0.16088293 -0.16795473 1.21 0.6723824143 -0.560444057 0.4835332036
-0.24051788 0.0013000966 1.483 0.66536659 -0.3385713398 0.6653245091
-0.16221344 0.034194089 1.427 0.5368791819 -0.3285998702 0.7770346403
-0.17528032 -0.14411226 1.2756666 0.5866943002 -0.609755218 0.5329055786
-0.14553663 -0.24543588 1.1932501 0.6675581932 -0.04693927988 0.7430765629
-0.095151745 -0.11210472 1.2256669 0.383715719 -0.8706980348 0.3076478541
-0.18362394 -0.29485369 1.2055 0.5778366923 -0.0008225620841 0.8161519766
-0.14561221 -0.10376541 1.28425 0.4800628424 -0.6898188591 0.5419313312
0.0039392142 -0.21073119 1.1818001 -0.5980803967 -0.2769031823 0.7520800829
0.0082099829 -0.36944926 1.8730001 -0.177413404 0.8026686311 0.569427371
-0.23194058 -0.14010623 1.3430001 0.6023834944 -0.5971064568 0.5297150612
-0.055247542 -0.02402067 1.3700002 0.2688819766 -0.3009768724 0.9149401188
-0.28197107 -0.17180562 1.4960001 0.7521244287 -0.3346337676 0.5677403212
-0.26208737 -0.19858605 1.317 0.7231907248 -0.6100466847 0.3237872422
-0.21867661 -0.29048088 1.2410001 0.6993494034 -0.2169545889 0.6810588241
0.014312975 -0.025407245 1.3279998 -0.09800802916 -0.5995963812 0.7942786813
-0.22301963 -0.21501563 1.245 0.6272468567 -0.510989666 0.5877507329
-0.1939055 -0.065677673 1.427 0.2699486315 0.08114023507 0.9594498277
-0.10008816 -0.30026448 1.177 0.1356405765 0.3649992049 0.9210739732
-0.19493905 -0.015450293 1.4362727 0.5938167572 -0.1581831276 0.7888978124
-0.12290817 -0.053629454 1.4040002 0.4807627201 0.2136341482 0.8504279256
-0.18211302 -0.20590138 1.2060002 0.5621224046 -0.3125481606 0.7657231688
-0.074469775 -0.22510564 1.1609998 0.434037149 -0.2084207386 0.8764545321
-0.035109624 0.02467918 1.3810003 0.3202338815 -0.3204515278 0.8914937377
-0.10477766 -0.10206894 1.2640001 0.3940912783 -0.7517158985 0.5287865996
-0.052202579 -0.10188503 1.2320002 -0.2463629097 -0.7715297937 0.5865553021
-0.024455493 -0.078924544 1.268 0.08073783666 -0.8513236046 0.5183913112
0.021174129 -0.12595332 1.245 -0.4896940291 -0.5047216415 0.7109541893
-0.27510852 -0.074425489 1.516 0.8515702486 -0.101604417 0.514300108
-0.16704708 -0.33197963 1.2060001 0.2756561041 0.3658823073 0.8889003396
-0.081551038 -0.05776532 1.2920001 0.2020928562 -0.8182830811 0.5381182432
-0.25249314 -0.037550263 1.4770001 0.7224002481 -0.1367098838 0.6778261662
0.025143385 -0.083427399 1.3036667 -0.7421097159 -0.4783087671 0.4695678055
-0.23464562 -0.094366051 1.454625 0.6028418541 0.05119036138 0.7962167859
-0.10196499 -0.015112355 1.3870001 0.3225774765 -0.08516890556 0.9427035451
-0.27041221 -0.25385636 1.2590001 0.8209351301 -0.05559916049 0.5683082342
-0.16048522 -0.088901892 1.317 0.6150038242 -0.6003003716 0.5112825036
-0.2053794 -0.14486203 1.3043078 0.5430386662 -0.6834650636 0.4878365099
-0.015365704 -0.23478688 1.1623331 -0.3087040186 -0.1277478784 0.9425403476
-0.074732721 -0.27525121 1.1648186 -0.07018843293 0.4761766791 0.8765439987
-0.1644318 -0.15636069 1.2438 0.6372312903 -0.6345010996 0.4374296069
-0.051652133 -0.16507974 1.1810001 -0.2285593897 0.03456826881 0.9729160666
-0.10587125 0.033656314 1.398 0.2553938329 -0.308149308 0.9164158702
-0.015218056 -0.043490019 1.3353078 0.3885873258 -0.7534708381 0.5303598642
0.032167532 -0.039315868 1.3590001 -0.8107072711 -0.4762114286 0.3405530751
-0.23357029 -0.32197773 1.245 0.7349314094 -0.009204413742 0.6780790091
-0.10418633 -0.21559635 1.1766801 0.2523843944 -0.09688099474 0.9627648592
-0.2213991 -0.17890793 1.2755001 0.567817986 -0.6978324056 0.4365921021
-0.16002235 0.0024809667 1.4150001 0.3970267177 -0.1771320403 0.900552094
-0.045125321 -0.059786692 1.2867501 -0.07384576648 -0.8769105077 0.4749471247
-0.26780695 -0.11514912 1.4960001 0.8137047887 -0.1726198643 0.5550557971
-0.12462946 -0.27578956 1.181 0.3862830997 0.0847530067 0.9184782505
0.0085805627 -0.18410577 1.202 -0.5921572447 -0.4064345062 0.6958166361
-0.0034884322 -0.092809193 1.2426001 -0.4660019577 -0.6681133509 0.5800575018
-0.034536637 -0.12453839 1.1938003 -0.06426175684 -0.7311493754 0.6791840792
-0.006175898 -0.13617417 1.2255001 -0.795627594 -0.3711984456 0.4787363112
-0.22265895 -0.0074134441 1.4580001 0.5968136191 -0.3039620519 0.7425769567
-0.22459671 -0.12466726 1.454 0.3815487623 0.09070433676 0.9198876619
-0.13572811 -0.024504906 1.4040002 0.3891542256 -0.008563344367 0.921132803
-0.055789314 -0.051041286 1.3540001 0.6385874748 -0.6534720659 0.4064238071
-0.053418458 0.084435627 1.404 -0.03178916126 -0.5197792053 0.8537089825
-0.25395018 -0.16714965 1.3380001 0.7289688587 -0.5066440105 0.4603435695
-0.093501106 -0.11706984 1.1950001 0.08334299922 -0.641607523 0.7624917626
-0.15478778 -0.27506205 1.1930002 0.4370056391 -0.2253749818 0.8707652688
-0.12237631 -0.12637281 1.2165 0.5483877063 -0.7590891719 0.3507913649
-0.016787166 -0.18422309 1.1758573 -0.5562944412 -0.3567952812 0.7504888773
-0.15400971 -0.21339075 1.1883334 0.2987683415 0.2554446757 0.9195028543
-0.1349767 0.034673627 1.4125 0.4619365036 -0.2321650386 0.8559871912
-0.063581616 -0.19653933 1.1676668 0.3352543414 -0.4926479459 0.8030582666
0.00123084 0.05046444 1.404 -0.4855187535 -0.5330824852 0.6928886175
-0.27387556 -0.2861082 1.2920001 0.8421968222 0.2613117099 0.4716150463
-0.28769365 -0.10287333 1.5240002 0.6395190358 -0.3935796022 0.660386622
-0.24548638 -0.19368418 1.2845 0.6291412711 -0.6450454593 0.4337021708
-0.052473761 0.04759248 1.3920001 0.02247182652 -0.1693872362 0.9852933288
-0.21498033 -0.26230979 1.2270001 0.4150974452 0.3589303493 0.8359803557
-0.18493021 0.015099707 1.4350001 0.6216080189 -0.3193076253 0.7152944207
-0.24465866 -0.27261966 1.2590001 0.5208485723 0.5691649914 0.6362137198
-0.15428679 -0.12631199 1.2661332 0.5917364359 -0.587598145 0.5518844128
-0.20054802 -0.15797357 1.2780001 0.5668148994 -0.6665791869 0.4841415286
-0.16876535 -0.12119391 1.2920001 0.6415359378 -0.6178830862 0.4545900226
-0.10602009 -0.082250781 1.2852727 0.3605726361 -0.7125955224 0.6018263698
-0.095532015 0.075745642 1.410625 0.4369390309 -0.355863452 0.8261026144
-0.27367416 -0.14641674 1.4855715 0.7849863768 -0.3379417658 0.5192222595
-0.20115028 -0.19899894 1.2270001 0.6442202926 -0.452789098 0.6164107323
-0.071737632 -0.14859939 1.169 0.03482046723 -0.4954273403 0.8679512143
-0.24799147 -0.23305061 1.2528 0.6794935465 -0.489813447 0.5462337136
-0.11040653 -0.16818938 1.177 0.3754968047 -0.4497665763 0.8103777766
-0.13840258 -0.17117296 1.1930001 0.5212551355 -0.4375037551 0.7327234149
0.00524132 -0.073269717 1.2737691 -0.6126782894 -0.5891033411 0.526861012
-0.25027078 -0.11679304 1.4640001 0.721776545 -0.01428281888 0.6919788122
-0.12488303 -0.23454243 1.1765201 0.4921616614 -0.1797989905 0.8517330885
0.017267702 -0.05525104 1.3130001 -0.7656744123 -0.3866537213 0.5140443444
-0.24205677 -0.064685374 1.464 0.734316349 -0.08066350967 0.6739977002
-0.14258699 -0.14541863 1.2147778 0.6867309809 -0.6165518761 0.3850511312
-0.16611606 -0.25373539 1.21 0.3489227593 -0.1470792443 0.9255380034
-0.28034222 -0.20175256 1.3380001 0.6332480311 -0.5987644792 0.4903856218
-0.038338095 -0.0028249121 1.381 0.3611751795 -0.2428414971 0.9003224373
0.011567618 0.0019944168 1.3650001 -0.1089226305 -0.7808585167 0.6151388288
-0.17388946 -0.092991255 1.427 0.1985948235 0.1421973705 0.9697113037
-0.048014153 -0.23201245 1.149 -0.1176534742 0.0765883103 0.9900969267
-0.18364151 -0.17827016 1.2250001 0.5276996493 -0.6765795946 0.5135884881
-0.16064259 -0.062644407 1.4150001 0.3211519122 0.2149709761 0.9223062992
0.0185415 0.0061805001 1.4100001 -0.8668856025 -0.4622506499 0.186637938
-0.067488432 -0.25081521 1.149 0.1767025441 0.1502072364 0.9727353454
-0.26361015 -0.061640188 1.4960001 0.8606738448 0.001939991373 0.5091530085
-0.21749604 -0.23480375 1.2229998 0.5429828763 -0.1238588095 0.8305591941
-0.029675167 -0.032049179 1.3540001 0.48516348 -0.6621559858 0.5711092949
-0.07710997 -0.095178828 1.2438571 0.3859680295 -0.8557296395 0.3446091712
-0.2139428 -0.12771665 1.322 0.5369622707 -0.6293608546 0.5617618561
-0.20746362 -0.30556655 1.2229999 0.5756633878 -0.1178303584 0.8091524243
-0.2224486 -0.077793933 1.439 0.5539208055 -0.0002024181595 0.8325693011
-0.076791093 -0.01453601 1.3816001 0.2834181488 -0.214155823 0.9347788095
-0.06474264 -0.11517627 1.2122307 -0.131133467 -0.7061104774 0.6958534718
-0.28681728 -0.063288316 1.536 0.8723543882 -0.04289083928 0.4869888723
-0.094074048 -0.1452557 1.1844 0.2880339026 -0.5285205245 0.7985628247
-0.023599647 -0.052382804 1.3132501 0.08686032146 -0.8567780256 0.5083175302
-0.19457167 -0.27489421 1.2163333 0.6278806329 -0.03815411031 0.77737391
-0.044919778 -0.084525973 1.2549586 -0.1949109435 -0.8043640852 0.5612558722
-0.2417154 -0.20639627 1.2590001 0.6236051321 -0.4225724041 0.6576847434
-0.20513165 -0.045303065 1.4355001 0.5024379492 -0.1447870731 0.8524041176
-0.013227149 0.014433441 1.3720001 -0.1214251071 -0.4267604351 0.8961760402
-0.21634676 -0.1946706 1.2569447 0.6776140332 -0.4779999554 0.5588875413
-0.0031307018 -0.036390685 1.3148572 0.3441680968 -0.6814924479 0.6458454728
-0.11460225 -0.11387461 1.245 0.463119328 -0.8427171707 0.2744964659
-0.16291468 -0.30523548 1.1970003 0.3058745563 0.2632254362 0.914960742
-0.14436579 0.051791538 1.427 0.4572815001 -0.365603745 0.8106957078
-0.016126283 0.068226583 1.4150001 -0.3496927321 -0.6379694939 0.6860830188
-0.10709403 -0.19292298 1.169 0.141339317 0.2178778946 0.9656875134
-0.0024593421 -0.16271867 1.2026668 -0.6067886949 -0.4908410013 0.6252060533
-0.17777193 0.036736716 1.4450001 0.6236850619 -0.4016937315 0.6705662608
-0.17473118 -0.014977521 1.4236251 0.5282319188 -0.1091070324 0.8420609832
-0.10401787 -0.27693737 1.1681427 0.3165206611 0.1490499973 0.9368023872
0.020670922 0.0012159366 1.3870001 -0.7927318215 -0.388926059 0.4693748951
-0.1651786 -0.22844005 1.2026668 0.3536847234 0.3342270851 0.8736128211
-0.11474197 -0.034179151 1.3923751 0.468842417 0.1199159622 0.8751039505
-0.015585313 0.04564729 1.384231 -0.2448270917 -0.3893606067 0.8879516125
-0.054617215 -0.28130847 1.1754 -0.2922751009 0.6764499545 0.6760109067
-0.046432652 -0.13580558 1.177 -0.174069941 -0.5415717363 0.8224352002
-0.26229864 -0.018360905 1.4960001 0.7763550878 -0.2309196144 0.5864715576
-0.18474783 -0.16478616 1.2531667 0.4568237066 -0.7661886215 0.451959163
-0.0037858849 -0.11471753 1.2345002 -0.8538874984 -0.1993239224 0.4807765484
-0.085329823 0.044087913 1.3944 0.3705300093 -0.1256049275 0.9202885032
-0.070161387 -0.054058772 1.312 0.1541212946 -0.9498516917 0.2720815539
-0.13498475 -0.11292563 1.2659999 0.3725872338 -0.7303717136 0.5724822283
-0.012659504 -0.13505006 1.2035 -0.8371524811 -0.1926886141 0.5119051337
-0.26854667 -0.095248081 1.5090001 0.7814762592 -0.1632336676 0.6022040248
-0.0076528615 -0.021781221 1.3430001 0.5825018287 -0.5240283608 0.6213580966
-0.25054169 -0.17895834 1.317 0.7683801055 -0.5274758935 0.3624379039
-0.18404773 -0.04526655 1.425154 0.4379386902 -0.03519051895 0.8983158469
-0.23529734 -0.025240988 1.4640001 0.6752387285 -0.2316337973 0.7002845407
-0.024008043 -0.096031465 1.2336001 0.1950383037 -0.8522724509 0.4853779674
-0.18870074 -0.33773145 1.223 0.4017302692 0.3238522708 0.8565818667
-0.12473214 -0.09541212 1.2861252 0.343321383 -0.7004795671 0.625666678
-0.096161209 0.0061015999 1.3920001 0.2255034894 -0.202034995 0.953063488
-0.085387297 -0.19500446 1.1747392 0.004134187475 0.1254309267 0.9920937419
-0.044730905 -0.18486813 1.1637371 0.1889847666 -0.5576567054 0.8082721233
-0.10411973 -0.064003021 1.3972501 0.4786269367 0.2234858721 0.8490996957
-0.073997453 -0.035715397 1.37525 0.4422720969 0.005347463302 0.8968650103
-0.23442933 -0.15583546 1.3243077 0.6059007049 -0.6304886341 0.4851477742
-0.24821588 -0.31248608 1.2640001 0.6010929942 -0.3316779733 0.7271017432
-0.20141856 0.00380035 1.4450001 0.6716709733 -0.2442529649 0.6994273067
-0.25544664 -0.27785423 1.2780001 0.6729775071 0.4736316502 0.5681323409
-0.14391316 -0.085662752 1.3028334 0.5074908733 -0.6441032887 0.5723494887
-0.15492751 -0.18564449 1.1946002 0.6031723619 -0.4121559262 0.6828693748
-0.025458902 -0.06535124 1.2948571 -0.06335637718 -0.8691792488 0.4904216528
-0.17557441 -0.27450362 1.2037499 0.4689236581 -0.2567557395 0.8450959325
-0.23583668 -0.29437459 1.254125 0.6377701163 -0.2117999345 0.7405336499
-0.26933831 -0.1610875 1.47 0.7337846756 -0.3355989456 0.5907058716
-0.1456179 -0.04503464 1.4121876 0.1791977137 0.1909892559 0.9650965333
-0.26183382 -0.20276269 1.2957501 0.7120288014 -0.6218190789 0.326122731
-0.099303536 -0.0684852 1.302 0.3152983189 -0.7171754837 0.6214872003
-0.13104326 -0.25555155 1.177 0.5230649114 0.02333049662 0.851973474
-0.1839617 -0.13628773 1.2946923 0.5914672613 -0.6578226686 0.4663001597
-0.19715106 -0.22382177 1.21 0.5121975541 -0.1061543003 0.8522822261
-0.055916972 0.024311827 1.3866253 0.1637003869 -0.184626773 0.9690795541
-0.065718308 -0.071824178 1.2830001 0.2368115336 -0.7626433969 0.6019097567
-0.21155281 -0.025335668 1.4450001 0.5606486797 -0.2628742754 0.7852197886
-0.21591634 -0.16492413 1.2946923 0.573081255 -0.638700068 0.5134589076
-0.19866143 -0.11802826 1.3330001 0.5640796423 -0.5473202467 0.6182675362
-0.094418257 -0.034660678 1.384667 0.3955801725 0.02889543027 0.9179767966
-0.035304245 -0.11279026 1.2146924 0.1491678804 -0.8563079834 0.4944548309
0.024357306 -0.097267918 1.2880001 -0.6408292055 -0.4707325697 0.6064229608
-0.26297557 -0.1859967 1.3371668 0.6769534945 -0.5040195584 0.5363751054
-0.086110331 -0.24466813 1.1623999 0.3627732396 -0.0894946754 0.9275701046
-0.1269159 -0.29613712 1.177 0.2960273027 0.2558326125 0.9202812314
-0.12541513 -0.21454783 1.1822799 0.4006373584 0.06597602367 0.9138582349
0.0082108602 -0.0082108602 1.3380001 0.3025602102 -0.7084077001 0.6376643181
0.019884773 -0.044449411 1.3342501 -0.8148329258 -0.3813911378 0.4365639985
-0.19597709 -0.085425906 1.4330003 0.2385219932 0.1523641944 0.9591102004
-0.18309818 -0.31554404 1.2060002 0.4420557022 0.1697734743 0.880774498
-0.095683783 -0.10514301 1.245 0.4211719036 -0.842531383 0.3357903361
-0.074101008 -0.29211473 1.1810001 -0.2451350391 0.7045832872 0.6659362912
-0.26122913 -0.23788525 1.268 0.7092716694 -0.436388582 0.5536232591
-0.15009849 0.021088216 1.4150001 0.3878536522 -0.1959532499 0.9006507993
-0.017902264 -0.20580554 1.1669999 -0.4969153106 -0.2090061903 0.8422538638
-0.15695664 -0.10400072 1.3036667 0.6699821949 -0.5832958221 0.4592275023
-0.072628029 -0.096956111 1.2243334 0.1526953876 -0.811370492 0.5642358065
-0.064200051 -0.05318461 1.3742858 0.5667355061 -0.07235332578 0.8207166791
-0.0059994194 -0.077301063 1.2576667 -0.176774472 -0.8201110959 0.5442137122
-0.084982313 -0.082743742 1.2754999 0.2964766324 -0.7720888257 0.5621213913
-0.035430487 -0.021318343 1.37 0.3575458527 -0.4486781061 0.8190536499
-0.21703285 -0.10628882 1.452 0.4348649085 0.2100482136 0.8756553531
0.044276051 -0.05384925 1.365 -0.6585077047 -0.627504766 0.4154579937
-0.28171948 -0.045395553 1.5230001 0.8715099692 0.01569833606 0.4901264608
-0.044022251 0.066040613 1.3950001 -0.03600721806 -0.3780303895 0.9250926971
-0.13518 -0.073947228 1.4122727 0.3305630386 0.09681914002 0.9388046265
-0.2040503 -0.1724447 1.265 0.5830819607 -0.7154373527 0.3849219084
-0.14699212 -0.32371899 1.2028 0.2380651087 0.3494760692 0.906196177
0.021356476 0.012562633 1.4330001 -0.87775594 -0.4464336932 0.1739006341
-0.033587728 -0.22449981 1.1610001 -0.3894827366 0.001269776258 0.9210329056
-0.059059408 -0.21616606 1.153 0.3677495718 -0.1212601289 0.9219849706
-0.034541544 -0.041564081 1.3355 0.2655569911 -0.8782847524 0.3976120651
-0.17021886 -0.18924955 1.2060001 0.6050873995 -0.4443496466 0.6606229544
-0.10365582 0.054918159 1.41 0.3477047086 -0.3153477609 0.8829820156
-0.23362575 -0.23470493 1.2337501 0.5645282865 -0.3541640639 0.7455706596
-0.28932893 -0.09380421 1.507 0.6311993003 -0.2885814011 0.7199362516
0.0072538326 -0.11534658 1.2531334 -0.7145932317 -0.5085421205 0.4803554714
-0.055933259 0.0050848429 1.3810003 0.1499738842 -0.3130758703 0.9378119707
-0.26026216 -0.126894 1.4770001 0.7882766128 -0.1358146518 0.6001452804
0.013341697 -0.14529835 1.2337779 -0.4725957513 -0.5761746764 0.6668403149
-0.15217471 -0.14532153 1.2340002 0.6992985606 -0.6481289268 0.3015135527
0.023775199 -0.11042353 1.2672 -0.5126313567 -0.6768369675 0.5282999277
-0.22629222 -0.268722 1.2410001 0.5100978613 0.4513036609 0.732205689
-0.21925083 -0.3175357 1.2320001 0.6464511752 0.01290273387 0.7628462315
-0.11018385 -0.1290725 1.197 0.4044260681 -0.6020358801 0.6884710193
-0.22559683 0.0061673503 1.4723334 0.6306051612 -0.3117609918 0.7107335925
0.039807681 -0.027744746 1.376 -0.8220757246 -0.4879606068 0.2934039831
-0.17485175 -0.074194118 1.427 0.2085301131 0.2508352697 0.945302546
-0.092895806 -0.2277333 1.1669999 0.3024553359 -0.3186403215 0.8983257413
-0.22562508 -0.064600691 1.4519999 0.6478711963 -0.1640352309 0.743878603
-0.027188843 -0.092780076 1.2516667 0.1901409179 -0.8459585309 0.4981973171
-0.24000327 -0.046203841 1.4640001 0.6929305792 -0.1238617375 0.7102854848
-0.12185316 0.0246168 1.404 0.4971052408 -0.18526721 0.8476806283
-0.0827398 -0.1113805 1.21 0.00207402627 -0.8134556413 0.5816232562
-0.27670228 -0.14098641 1.503 0.6755409837 -0.2957105339 0.6754255295
-0.041291878 -0.071423784 1.273 -0.09943864495 -0.8219859004 0.5607594252
-0.030902499 0.077874303 1.4100001 -0.2638402879 -0.6178679466 0.7406939268
-0.0048523503 0.025482947 1.3840002 -0.325525403 -0.5015788078 0.8015309572
-0.034279011 -0.16672066 1.1754001 -0.1422828585 -0.4305345416 0.8912887573
-0.14071815 -0.2282761 1.189 0.5609947443 0.06260535121 0.8254486322
-0.15478864 -0.01485731 1.4125 0.3914087713 -0.1348508447 0.9102826118
-0.19638738 -0.13368368 1.3156365 0.5326122642 -0.6396617293 0.554217577
-0.075081237 0.080004603 1.4039999 0.2631113231 -0.4859648049 0.833433032
-0.25871924 -0.10400774 1.483 0.8621403575 -0.09783127904 0.4971348345
-0.03354555 0.044274397 1.3870003 0.06906569749 -0.2967121899 0.9524661899
-0.00719831 -0.22211927 1.1730002 -0.4228392839 -0.2274858207 0.8771870732
-0.28442135 -0.11614975 1.5090001 0.5887544155 -0.2159562409 0.778929472
-0.011754127 -0.067716144 1.2767501 0.1301620901 -0.8771567941 0.4622270167
-0.24997097 -0.19061714 1.302 0.7152056098 -0.6182717681 0.325915575
-0.2648375 -0.27148613 1.2640001 0.6719129086 0.4545104504 0.5847676992
-0.01783929 -0.11857881 1.197 -0.3646701276 -0.586951077 0.7228444815
-0.044586133 -0.055365633 1.304143 0.03200466186 -0.9024627805 0.4295772314
-0.15263081 -0.29290223 1.189 0.3032555878 0.136306718 0.9431100488
-0.0058951667 -0.17570373 1.1872855 -0.5745241046 -0.355325222 0.7373371124
-0.28389227 -0.085705563 1.5275 0.8169108033 -0.2415924519 0.5237268806
-0.23665382 -0.18107928 1.2936667 0.5855646729 -0.6644673347 0.4643244445
-0.091918498 0.061278999 1.3980001 0.5215292573 -0.2375827581 0.8194886446
-0.22955604 -0.30462414 1.2410001 0.7276028395 -0.1956287771 0.6575131416
-0.05901457 -0.18118508 1.1810001 0.01652693562 -0.278406024 0.9603212476
-0.21227212 -0.2181813 1.2260002 0.647990942 -0.4182345867 0.6365434527
-0.11483632 -0.0048891697 1.3935002 0.4268552065 -0.08486954868 0.9003286958
-0.16311972 -0.14672758 1.2584286 0.6284967065 -0.6273767352 0.4597720504
-0.21891886 -0.15297483 1.312 0.5605726838 -0.6719537377 0.4839797914
-0.0049485886 -0.19543697 1.1823331 -0.6173547506 -0.2972815037 0.7283521295
0.0045076949 -0.13232344 1.2415715 -0.514628768 -0.4967733324 0.6988372207
-0.073564172 0.033438258 1.3870001 0.2682794034 -0.08861763775 0.9592565298
0.027318185 -0.072682925 1.3219999 -0.7321243882 -0.4347653389 0.5243786573
-0.085461974 -0.13282464 1.193 0.06851366907 -0.6457643509 0.7604566216
-0.12528707 -0.1771073 1.1759335 0.4144519866 -0.3719756305 0.8305803537
-0.20845027 -0.2775737 1.2320001 0.6352412105 0.1102691442 0.764401257
-0.13478275 -0.15426137 1.1942177 0.502923429 -0.4555270374 0.7345496416
0.011338587 -0.064625897 1.2932501 -0.773191154 -0.4594024718 0.4371781945
-0.028385883 -0.25275412 1.1563333 -0.1730228662 0.1528158635 0.9729904532
-0.15704782 -0.16027483 1.2270001 0.734854579 -0.5877586007 0.3384206295
-0.24317034 -0.017350812 1.4770001 0.6824468374 -0.2809991539 0.6747635007
0.004541791 -0.14774176 1.219 -0.6927525401 -0.4668679237 0.5496619344
-0.1959202 -0.32443768 1.2153751 0.4706790745 0.1669338346 0.8663684726
-0.17516752 -0.10397465 1.3220003 0.5818352103 -0.5851241946 0.5648871064
0.0043021794 0.014117341 1.3742857 -0.3048369288 -0.5371239781 0.786493659
-0.17178956 -0.21441716 1.1956668 0.4281387031 0.07913651317 0.9002414346
-0.27251533 -0.055561382 1.5090001 0.8729821444 0.006567391567 0.4877079725
-0.25335637 -0.05438314 1.4770001 0.7660361528 -0.04218901694 0.6414114833
-0.21269283 -0.093100429 1.439 0.4857757688 0.2193011343 0.8461258411
-0.13004299 -0.13850106 1.2060001 0.5649623275 -0.6288972497 0.5341402292
-0.2487191 -0.091497697 1.47 0.8036889434 -0.08775274456 0.5885435939
-0.26510903 -0.045152843 1.4960002 0.8479364514 -0.02230763994 0.5296282768
-0.18436986 -0.23349182 1.2060002 0.2409154624 0.1979921609 0.9501362443
-0.11422142 -0.26483151 1.1746668 0.3523995876 0.1242703572 0.927562058
-0.026022391 0.0044037891 1.37 0.4331850708 -0.1329738796 0.8914418817
-0.13743185 -0.0052815177 1.41 0.3863036335 -0.1332239211 0.912699759
-0.034247119 -0.14426032 1.1838797 -0.2976973355 -0.2997733951 0.9063730836
-0.0753792 -0.12521657 1.2050589 -0.1152032092 -0.6765964627 0.7272863388
0.012092365 -0.086574718 1.2872858 -0.77692312 -0.3137143254 0.5458697081
-0.019804776 -0.13654871 1.189 -0.5164349079 -0.2999461591 0.8020768762
-0.16795179 -0.17011891 1.2360001 0.561350286 -0.7248154879 0.3994100392
-0.25212494 -0.26194799 1.245 0.5582188964 0.40150249 0.7260767221
-0.17514046 0.005004013 1.427 0.5259694457 -0.175884679 0.8321182132
-0.063930042 -0.089935482 1.2360001 -0.04444387555 -0.8630571961 0.5031471252
-0.08809448 -0.093635015 1.2640001 0.3802293539 -0.7743209004 0.5058189631
-0.10497031 -0.1181701 1.2144001 0.3930475116 -0.8504598737 0.3496164083
-0.08765959 -0.21435326 1.1742309 0.303733319 -0.1909463108 0.9334267974
-0.1169298 0.043626443 1.4040002 0.3500766754 -0.3538217545 0.8673272133
-0.067109071 -0.16391411 1.167909 -0.3325904906 0.09602801502 0.9381695986
-0.18253402 -0.15588938 1.2662858 0.5290616155 -0.6952751279 0.4865041375
-0.064712025 -0.061303545 1.295 0.1441402882 -0.8793219924 0.4538903534
-0.085493743 0.024428423 1.3931252 0.2819963992 -0.2053000182 0.9371925592
-0.19543231 -0.3048664 1.212579 0.568728745 -0.04566070065 0.8212568164
0.033592992 -0.05186053 1.3445001 -0.7887955904 -0.4569935799 0.4110455215
-0.24389997 -0.1351385 1.4580001 0.5472995639 0.03899114206 0.8360280395
-0.11829564 -0.1015557 1.273 0.3704071343 -0.7264116406 0.5788995028
-0.26623315 -0.083935574 1.4960001 0.8535333872 -0.03176747635 0.5200688243
-0.049062651 -0.04188275 1.365 0.5403165221 -0.5556057096 0.6319496632
-0.25180092 -0.24526064 1.2434 0.6803393364 -0.2378788739 0.6932185888
-0.13135535 0.061299164 1.427 0.4206036627 -0.4187820852 0.8048068881
-0.2326989 -0.19632074 1.267 0.5695098042 -0.5718352795 0.5904769301
-0.17222147 0.02210106 1.427 0.5189394355 -0.3126811981 0.7955704331
-0.048469584 -0.27245748 1.164 -0.1824898869 0.5559513569 0.8109349608
0.0046683177 -0.046581887 1.3058463 -0.1632047296 -0.7782478333 0.6063781977
-0.13230741 -0.13230741 1.2270001 0.6012292504 -0.7567295432 0.2566783726
-0.18864675 0.027240489 1.452 0.6426151395 -0.4342142642 0.6312715411
-0.24426554 -0.15499428 1.3366365 0.6444138885 -0.5996172428 0.4745417833
-0.15954544 -0.091707222 1.4330001 0.3491072953 0.2261193246 0.9093921781
-0.0080666486 -0.053007212 1.3145001 0.3255423307 -0.7795317173 0.5351191163
0.012127806 -0.16821128 1.2030001 -0.6440823674 -0.4395696819 0.6260482073
-0.25193384 -0.0091374964 1.4890001 0.7030075192 -0.2834079862 0.6522732377
-0.18802072 -0.10343236 1.4330001 0.1777393222 0.2006953955 0.9633950591
-0.0019403555 -0.028329192 1.3280001 0.4931263328 -0.6263332367 0.6037657261
-0.19509479 -0.18406214 1.2336001 0.5472146273 -0.5945946574 0.5890784264
-0.21305104 0.0128344 1.4640001 0.6014788151 -0.3322020769 0.7265431881
-0.21638939 -0.14300011 1.3235 0.5504888892 -0.6389119029 0.5373579264
-0.096190497 -0.16331621 1.1735002 0.3932771385 -0.3989614248 0.8283494711
-0.24684696 -0.2243789 1.2655001 0.6790782213 -0.4318837523 0.5935732126
-0.058829594 -0.26067597 1.1570001 -0.1105374023 0.4188865721 0.9012854695
-0.10602219 -0.23130386 1.174143 0.2786127031 -0.2726845741 0.9208790064
-0.1282125 -0.1216375 1.25 0.4811596572 -0.7778265476 0.4043157101
-0.19233443 -0.14699365 1.2848752 0.53619802 -0.6667891145 0.5175750256
-0.20907184 -0.24874189 1.223 0.4328582585 0.2004959434 0.878882885
-0.1140116 -0.30393335 1.18225 0.2900966406 0.2960524857 0.9100532532
-0.28212097 -0.16381218 1.483 0.7575536966 -0.3470834196 0.5528522134
-0.086174056 -0.2873154 1.1730001 -0.05136663094 0.4307444394 0.9010109305
-0.054707732 -0.075433083 1.2666665 0.08506110311 -0.8456470966 0.5269209146
-0.046067666 -0.1216673 1.2033334 0.09161989391 -0.8426182866 0.530660212
-0.094910584 -0.26478562 1.166167 0.3091453612 0.1635776758 0.9368412495
-0.062325153 -0.0076398575 1.376 0.1848910749 -0.3660170734 0.9120563269
-0.15093745 -0.15832776 1.204 0.6864315271 -0.5245608687 0.5036343932
-0.21343088 -0.065738097 1.4381429 0.5206528306 -0.09928397089 0.8479759693
-0.15787043 0.047319252 1.4330001 0.513867557 -0.3916237056 0.7632634044
-0.017805099 -0.020179113 1.3540001 0.5639412999 -0.4835809171 0.6694174409
-0.15628938 -0.1143284 1.284875 0.6138769388 -0.6271047592 0.4794733822
-0.12429737 -0.16687182 1.1868463 0.3918761313 -0.4702913761 0.7907332778
-0.053352356 -0.1990063 1.1570001 0.2954979837 -0.5552227497 0.7774372697
-0.20748596 -0.0127292 1.452 0.5951897502 -0.2449073344 0.765355885
-0.12898046 -0.081040822 1.302 0.3560412228 -0.6782200933 0.6428468823
-0.0085790595 0.060053419 1.3980001 -0.416986078 -0.5645371675 0.7123344541
-0.24167244 -0.28550929 1.266 0.7299748063 -0.08528668433 0.678131938
-0.11462738 -0.28578839 1.1761668 0.2920107245 0.1890100092 0.9375526309
-0.0074621863 -0.12472336 1.2160002 -0.8765642643 -0.287535876 0.3859509826
-0.035902131 -0.10117873 1.2410001 0.1030061617 -0.8521144986 0.5131185055
-0.060878363 -0.13929795 1.177 -2.67877349e-05 -0.6593481302 0.7518377304
-0.02025363 0.01310529 1.3590001 0.1386093646 -0.3483197987 0.9270710349
-0.19381633 -0.20575117 1.2160666 0.5807780027 -0.4040591419 0.7067058086
-0.075058445 -0.26067597 1.1570001 0.2068861872 0.3228909969 0.9235472679
-0.21306857 -0.20656957 1.2351112 0.701580584 -0.4631279707 0.5415691733
-0.20846695 -0.19100375 1.245 0.70323807 -0.4815379679 0.5230462551
-0.11502025 -0.11803071 1.2262002 0.494179219 -0.8291498423 0.2613378465
-0.23611115 -0.22430025 1.2526875 0.6167321801 -0.5041509271 0.6045438647
-0.11569896 -0.070157878 1.404 0.4444985688 0.09511265159 0.8907157779
-0.14575197 -0.068515882 1.4210001 0.319558531 0.1677727699 0.9325956702
-0.065514043 -0.2352507 1.1551536 0.2988618314 -0.1078453511 0.9481830001
-0.065897278 0.054914404 1.3920001 0.07931160182 -0.2369804233 0.9682716131
-0.17776771 -0.12324305 1.3034286 0.6383062601 -0.6036035419 0.4777320027
-0.044989653 0.034046229 1.3870004 0.2059771866 -0.2461542934 0.947091043
-0.12800735 -0.0369252 1.404 0.4440010786 0.1741986126 0.8789299726
-0.26314366 -0.14673521 1.4754446 0.7027489543 -0.3363223374 0.6269220114
-0.0095153395 -0.14907366 1.2060001 -0.8186162114 -0.3019086421 0.4885884821
-0.23126905 -0.2474041 1.2270001 0.4886904061 0.03582831845 0.8717212677
-0.40774029 -0.40774029 1.853 -0.1100700498 0.7910990715 0.6017032862
-0.14602974 -0.13382116 1.2567692 0.5989953876 -0.6542908549 0.4616361856
-0.07095477 -0.17892942 1.1730001 -0.2684088349 0.01325890981 0.963213861
0.022862881 -0.05850932 1.3260001 -0.7907652259 -0.39021492 0.4716171026
-0.2575708 -0.29131371 1.2830001 0.7128765583 -0.1796739697 0.6778821945
-0.11483107 0.014447116 1.3964001 0.4513227344 -0.1483124644 0.8799495697
-0.044841062 -0.046021052 1.3460001 0.4978550971 -0.7937390804 0.3494546115
-0.17398578 -0.17800093 1.2142223 0.6214997768 -0.5769546032 0.529963553
-0.18810511 -0.1942998 1.223 0.6085612774 -0.472704947 0.6373407245
-0.24449567 -0.16586427 1.3268001 0.685547471 -0.5850327611 0.4333144128
-0.22421521 -0.025761021 1.4547999 0.5835325122 -0.2308842093 0.7785770893
-0.10557328 -0.09084212 1.273 0.3812250793 -0.6926906705 0.6122475266
-0.1836473 -0.025770668 1.427 0.5349242687 -0.1096789539 0.8377508521
-0.0072061997 -0.0012010334 1.3700001 -0.03018112667 -0.4380368292 0.8984502554
-0.18535291 -0.25541371 1.2124231 0.3102268577 -0.03010512702 0.9501857758
-0.095078729 -0.18503571 1.1684548 0.03895080835 0.1569345295 0.9868406057
-0.14405371 -0.26642638 1.1889998 0.5579531193 -0.125737831 0.8202915788
0.011147694 -0.03728288 1.3153334 -0.2837494612 -0.6042357087 0.7445706725
-0.08947961 -0.071357161 1.2920001 0.2847550213 -0.7152605057 0.6382138729
-0.022919573 0.030157333 1.376 -0.00229367218 -0.6038079262 0.7971265316
-0.22902916 -0.27943751 1.25 0.6844407916 0.2268217653 0.692887187
-0.13489707 -0.054452688 1.4116668 0.3219525516 0.1649357378 0.9322782755
-0.08659713 -0.10389578 1.2335387 0.422129631 -0.851334393 0.3115065992
-0.10470054 -0.154452 1.1824399 0.3841739595 -0.4858971834 0.7850568891
-0.23356067 -0.18677217 1.2774444 0.5682453513 -0.6805865169 0.4624924362
-0.16351709 -0.19690135 1.1951334 0.5826727748 -0.3086904585 0.7517995834
-0.26457512 -0.1741358 1.3447145 0.679866612 -0.4938070476 0.5421586633
-0.14625026 0.035129961 1.4210001 0.4510443509 -0.2715545893 0.8501865268
-0.27257165 -0.24352506 1.27425 0.8165653944 -0.2529388368 0.5188862085
-0.12356076 -0.015041208 1.3979999 0.4992339909 -0.05499577895 0.8647201061
-0.073932894 -0.20603994 1.1664002 0.4363270402 -0.3200052381 0.8409609795
-0.14532354 -0.19495744 1.1844285 0.4195365906 -0.04203172401 0.9067648053
-0.025174361 -0.04530964 1.3253332 0.1405906975 -0.8892911077 0.4351960421
-0.11360522 -0.20512915 1.177 0.1762544066 0.1810103953 0.9675585628
-0.11040302 0.070707552 1.4150001 0.4666444957 -0.3389381468 0.8169233799
-0.23433957 -0.11462262 1.4527498 0.42168051 0.03641460463 0.9060129523
-0.16438316 -0.28531539 1.1931542 0.4172560871 -0.08035761118 0.9052292705
-0.25527999 -0.025716474 1.4839231 0.7296612263 -0.2119229138 0.6501408815
-0.19572584 -0.035259124 1.4330003 0.4922286868 -0.1449816078 0.8583071828
-0.24778368 -0.075346865 1.4710001 0.7749607563 -0.06642924249 0.6285085678
-0.15700872 -0.24472824 1.2044616 0.538798511 0.05526803434 0.8406198025
-0.14752497 -0.03393602 1.4040002 0.2699112296 0.08153396845 0.9594269991
-0.15747038 -0.26244682 1.2035 0.4643917084 -0.2867945731 0.8379076123
0.023992456 -0.11581451 1.2540591 -0.6890819073 -0.5329726934 0.4910257161
-0.27147913 -0.12852634 1.4960001 0.7464801073 -0.243063122 0.6194252968
-0.024531325 -0.0143598 1.3649999 0.4773975611 -0.4578021467 0.7500058413
-0.21925083 -0.30241495 1.2320001 0.647529304 -0.1945353895 0.7367915511
-0.18679667 -0.0047351462 1.4330003 0.5683504939 -0.1450946331 0.809892118
-0.015061531 -0.062011335 1.3033637 0.1695913374 -0.8405017257 0.5145829916
-0.046157591 0.014577432 1.3855002 0.273055464 -0.207106337 0.9394400716
-0.28146434 -0.19158497 1.3490001 0.6581423283 -0.5092189312 0.5545671582
-0.075679071 -0.13799231 1.1847333 0.1945899874 -0.7208014131 0.6652669311
-0.012554218 -0.16425419 1.1934 -0.6598076224 -0.3818253875 0.6471964717
-0.11170574 -0.17934409 1.169 0.2721491456 -0.2157229185 0.9377624989
-0.17078343 -0.23867249 1.21 0.2286058813 0.2401927263 0.9434229136
-0.097236365 0.044310238 1.4040002 0.3312231898 -0.3228485286 0.886600256
-0.051718511 -0.092003971 1.2420001 -0.2180420607 -0.7914228439 0.5710582733
-0.21744488 -0.33103108 1.2340001 0.5875831842 0.1513653845 0.7948802114
0.027623767 -0.0324279 1.3700001 -0.8195139766 -0.504447639 0.2718996406
-0.20672576 -0.15369424 1.293875 0.5911517143 -0.6338191032 0.4988115728
-0.05560194 -0.24538697 1.1531818 -0.08124697953 0.2144366652 0.9733529091
-0.052649677 -0.051870614 1.3346667 0.370811224 -0.9092368484 0.1891753972
-0.24285419 -0.10481076 1.4580001 0.5906654596 -0.03932198882 0.8059578538
-0.010982881 0.035389278 1.3920001 -0.3333203197 -0.4309793413 0.8385429978
-0.13471052 -0.28495842 1.1819999 0.3766698539 0.1215779409 0.9183347225
-0.16285639 -0.1261979 1.27675 0.6232304573 -0.5713998675 0.5339344144
-0.27126169 -0.20140891 1.3280001 0.6576837897 -0.6068041325 0.4463639855
-0.025516367 -0.19496208 1.1643603 -0.4838577211 -0.2614474297 0.8351807594
-0.24783771 -0.20284873 1.2748749 0.6489467025 -0.5307299495 0.5451549888
-0.22477537 -0.22453302 1.2333335 0.6820463538 -0.4411196411 0.5832891464
-0.14522393 0.0053669536 1.4126667 0.3807043731 -0.1702954024 0.9088804126
-0.26575887 -0.13548358 1.4860001 0.7779099941 -0.3046521544 0.5495845079
-0.058414929 -0.15372351 1.169 -0.3220983744 -0.08643452078 0.9427521825
-0.1912273 -0.10778266 1.322 0.5391459465 -0.583824873 0.6070174575
-0.044041682 -0.21549796 1.1540666 -0.2248749882 -0.1137626767 0.9677237868
-0.17482257 -0.054945193 1.4243751 0.4311414361 0.102333948 0.8964623809
-0.25768083 -0.065067947 1.4845001 0.8140597939 -0.02060169354 0.5804155469
-0.034314405 -0.10685029 1.2266365 0.13443546 -0.8572117686 0.4971067607
-0.022432439 -0.17324746 1.1810001 -0.4288083017 -0.4511031806 0.7827064395
-0.19445124 0.0152014 1.4450001 0.6537239552 -0.3261404932 0.6828450561
-0.17527431 -0.30476889 1.2019999 0.4468915462 0.1353163272 0.8842948675
-0.23492876 -0.073716097 1.4547999 0.7032705545 -0.1047959775 0.7031559944
-0.13481599 0.014843427 1.4108334 0.4501105547 -0.1783643961 0.8749780655
-0.10721383 -0.045151837 1.3920001 0.4465578794 0.2153201997 0.8684602976
-0.14663692 -0.11286129 1.2746665 0.5059424639 -0.6681442261 0.5455322862
