# .PCD v0.7 - Point Cloud Data file format
VERSION 0.7
FIELDS x y z normal_x normal_y normal_z
SIZE 4 4 4 4 4 4
TYPE F F F F F F
COUNT 1 1 1 1 1 1
WIDTH 512
HEIGHT 1
VIEWPOINT 0 0 0 1 0 0 0
POINTS 512
DATA ascii
-0.015374103 0.22233319 1.3490001 -0.471447736 -0.5401974916 0.6970822811
0.21524972 -0.41692513 2.2120001 0.05430344492 0.8271618485 0.5593339205
-0.36461443 -0.28399616 2.0900002 -0.5303735733 0.7381536365 0.4169329703
-0.00160693 -0.075525708 1.8330001 -0.3544370234 0.8185172081 0.4521105289
-0.22267973 -0.15285622 1.1861429 0.3508640528 -0.007105846889 0.9363994598
-0.28159496 0.14402318 1.2260001 -0.1373832673 -0.7477982044 0.6495565176
0.0010458634 -0.0041834535 1.1930001 -0.7945551872 -0.184263438 0.5785577297
-0.15025628 -0.26973718 2.0650001 0.04413809627 0.8237143755 0.5652843714
-0.22401288 0.24986053 1.404 0.2097349167 -0.9393151999 0.271474123
-0.10449515 0.14143965 1.2040002 -0.03468762338 -0.8246018887 0.5646490455
0.022295386 0.1560677 1.4960001 -0.3206949532 -0.8031491637 0.502101779
-0.18485832 0.0051065828 1.1650004 0.1650978625 0.07890938222 0.9831154346
0.011589533 0.075331964 1.322 -0.4278974235 -0.8192988634 0.381645292
-0.071157865 -0.1328977 1.1936666 -0.5240997672 -0.5032907724 0.6870355606
-0.28906417 -0.06636104 1.2830001 -0.3334070444 -0.6187170744 0.7113571167
-0.14559133 0.22175223 1.3031112 0.004565704148 -0.8582996726 0.5131284595
-0.30051959 0.024251055 1.2028 0.4081963897 -0.2951589823 0.8638616204
-0.086254656 0.047002047 1.153 -0.1321750879 -0.214792639 0.9676744342
-0.24863932 0.21311942 1.307 -0.003013026202 -0.7864617109 0.6176316738
0.044082414 0.15429786 1.3968751 -0.6482043862 0.3743031323 0.663120091
-0.19485073 0.1067328 1.1737275 0.1530140489 -0.5613495111 0.8133102059
-0.026666887 0.15195307 1.2674999 -0.8103195429 -0.3822028935 0.444188267
-0.15320802 -0.080801487 1.197 0.2096285373 0.566067934 0.7972596288
-0.26232642 -0.062193945 1.189 0.1917661577 0.4678627253 0.8627457619
-0.09770976 0.26176566 1.376 -0.009125408716 -0.8678729534 0.496702373
-0.062012769 -0.054397166 1.2410001 -0.1617031991 -0.5178128481 0.8400725722
0.01393374 -0.015481934 1.766 -0.7836514115 -0.5084153414 -0.3569374084
-0.1860383 0.16863121 1.2410001 0.1590773165 -0.7560081482 0.6349378228
-0.027339727 0.086715773 1.2046667 -0.8073108792 -0.3041246235 0.5057246089
-0.084223777 -0.038931232 1.1610001 -0.006852780469 0.235605672 0.9718245864
-0.14465176 -0.17207389 1.1730002 -0.0697652325 0.3731380403 0.9251490831
-0.26847917 -0.13588333 1.25 -0.07066745311 -0.3069314659 0.9491044283
-0.15372731 -0.14500739 1.2436666 -0.0303099677 0.6201934218 0.7838631272
0.015695123 0.035290536 1.2542727 -0.5801731348 -0.6608944535 0.4760437012
-0.065481447 0.21197361 1.2953334 -0.1874767542 -0.7949165702 0.5770269632
0.0049111745 0.15594997 1.3335001 -0.877474308 -0.1340311468 0.4605154395
-0.25571081 0.078328997 1.202 0.5364665389 -0.2860463858 0.7939653993
-0.11560581 0.18523084 1.2539166 -0.05805603042 -0.8173210025 0.5732502937
-0.19426495 0.24371421 1.3430001 0.2031323761 -0.8012684584 0.5627664924
-0.12577361 0.10041603 1.1570001 0.02326982841 -0.3894715309 0.9207445383
0.033090658 0.089467339 1.3980001 -0.7168320417 -0.6314906478 0.295586437
-0.0066959802 -0.02343593 1.273 -0.05380382761 -0.6248281598 0.7789062262
-0.03013191 0.074771777 1.273 -0.3255326152 -0.8821245432 0.3404186368
-0.24317594 0.026791813 1.1689999 0.2329809219 0.2895205319 0.9283844829
-0.026716417 -0.098672628 1.2190001 -0.06774222106 -0.2170335352 0.973810792
-0.21436408 -0.094970413 1.2057894 0.02696048096 0.4734120667 0.8804283738
0.0088674836 0.12794511 1.4450001 -0.3145502806 -0.7539271116 0.5767599344
-0.15663315 0.26104942 1.3850001 0.04623105377 -0.9442495108 0.3259687126
-0.12754864 0.0032964859 1.1570001 -0.06604386866 -0.01769486256 0.9976598024
-0.24489158 0.16732408 1.2640001 -0.03087727912 -0.7153528333 0.6980808973
-0.22588482 0.1344285 1.2131 0.3158651292 -0.8166722059 0.4829863012
-0.045540739 0.0048372564 1.1634351 -0.2377796769 -0.2983532846 0.9243625402
-0.073550478 0.10459685 1.1755 -0.5562451482 -0.2455880642 0.7939003706
-0.15397125 0.052135192 1.1570001 0.1761444211 -0.2735953033 0.9455785155
-0.19493911 0.20395531 1.2853334 0.1873070002 -0.7843406796 0.5913761854
-0.19563624 -0.051798202 1.177 0.05467095599 0.6262409687 0.7777103186
-0.042373683 0.25787413 1.381 -0.2083043456 -0.7957207561 0.56871593
-0.050673086 0.13784999 1.2126667 -0.7400958538 -0.4714788795 0.4795474708
-0.15911674 0.14225669 1.202 0.1534265429 -0.8357458115 0.5272468925
-0.094769366 -0.083940074 1.1879333 -0.04937914759 0.4691549242 0.8817343116
-0.20670924 -0.1381688 1.2410001 0.1470130831 0.5420004129 0.8274193406
-0.02501975 0.11541808 1.3220003 -0.3490267992 0.1748357564 0.9206588864
-0.29407346 -0.023732243 1.177 0.3866195977 0.06415153295 0.9200053811
-0.30127791 0.088989556 1.223 0.1091419309 -0.6563656926 0.7465065718
-0.11692563 -0.1246482 1.21525 0.5006465316 0.4321466088 0.7500682473
-0.08488106 0.23503742 1.3355001 -0.1021644846 -0.8636806011 0.4935769737
-0.14483196 -0.044882022 1.1634448 0.1047410145 0.5162245631 0.8500244021
-0.064551771 0.1733747 1.2437999 -0.1847501993 -0.7642239928 0.6179231405
-0.024408393 0.18624792 1.3033637 -0.6639567614 -0.516785562 0.5404573083
-0.29277134 -0.09442389 1.2421429 -0.3073509037 -0.4795525074 0.8219274879
-0.20669432 0.058614809 1.1730001 0.2718119323 -0.3590177298 0.8928743005
-0.020021314 0.038988873 1.202 -0.6906506419 -0.5744137764 0.4393751621
-0.23878384 -0.025620583 1.169 0.11295598 0.01763915643 0.9934434295
-0.13476786 0.24476577 1.3457694 -0.09274039418 -0.8630397916 0.4965495765
-0.045092221 0.062104296 1.1689999 -0.4554824829 -0.1891615391 0.869915843
-0.18415785 -0.13862336 1.1670001 0.3404238224 0.1502372324 0.9281920195
-0.17533094 -0.11349134 1.219 0.06568467617 0.4379028678 0.8966195583
0.013481234 0.10385739 1.3565001 -0.8375248909 -0.2408363968 0.4904588759
-0.017336961 -0.058512241 1.2360001 -0.01009046193 -0.5440289974 0.8390057087
-0.25140169 -0.12835276 1.21 0.5632058978 -0.7559710741 0.3336268365
0.0072184727 0.17680788 1.3720001 -0.9215120673 -0.2194786221 0.320381999
-0.10481366 -0.15330304 1.1748463 -0.1601924896 -0.1905795485 0.9685131907
-0.23547268 0.23311794 1.3430001 0.1579478383 -0.8204676509 0.5494409204
-0.1548962 0.19432786 1.2655385 0.06321140379 -0.7847898006 0.6165300608
-0.10516022 0.21718377 1.3038751 -0.04847058281 -0.8101834655 0.5841689706
-0.14580719 0.16956837 1.2320001 0.002118816366 -0.7099827528 0.7042158842
-0.087230086 0.0010143033 1.1570001 0.009785195813 -0.1612986624 0.9868571162
0.043636959 0.1347612 1.4640001 -0.2643682361 -0.7975624204 0.5422210097
-0.064642541 -0.084452927 1.2141305 -0.5687453747 -0.3753286302 0.7318860292
-0.029618183 -0.031660818 1.1650001 -0.4035592675 0.1070545092 0.9086689353
-0.27456412 0.050388169 1.1730001 0.1482522041 -0.4836529791 0.8626129031
0.0056249127 0.064176157 1.28425 -0.4889695942 -0.7594256401 0.4291636646
-0.16330284 0.090272993 1.1570001 0.1349165142 -0.1292641163 0.9823890924
0.044619124 0.1121733 1.427 -0.1982552558 -0.7856686115 0.5860202312
-0.27180299 0.11412271 1.2037144 0.6232864261 -0.3707920015 0.6884964108
-0.27106795 0.18783547 1.2830001 -0.04122825712 -0.7289800048 0.6832923293
-0.23147535 0.093553185 1.177 0.2727756202 -0.1806355566 0.9449678659
-0.01496478 0.05460988 1.2435454 -0.522588551 -0.7350617647 0.4319553077
-0.045491401 0.22399335 1.325 -0.4359845221 -0.7522677779 0.4939744174
-0.25741664 -0.096804596 1.2548333 0.1023945212 -0.4331492186 0.8954870701
-0.13535032 -0.13647553 1.1626003 -0.3224981725 -0.019693207 0.9463652372
0.0064329803 0.018226776 1.223 -0.6247829795 -0.5990670919 0.5007642508
-0.26565591 0.005210381 1.1883597 0.2492085844 -0.2457617372 0.9367476702
-0.050391678 -0.12865961 1.223 -0.4825139046 0.003350552404 0.8758819103
-0.11534595 0.064309858 1.1643604 -0.05208586156 -0.1624244601 0.985345304
-0.20528254 0.22190836 1.317 0.2695756853 -0.7736518979 0.5734036565
-0.015778186 0.14445511 1.3043333 -0.8763001561 0.2645556331 0.4026268423
0.002339385 0.1908385 1.3355 -0.8077110648 -0.337226063 0.4836128354
-0.08448261 0.19230911 1.268 0.003699041903 -0.8132101893 0.5819583535
-0.13554253 0.12582742 1.1825001 -0.01128962636 -0.6995276213 0.7145163417
-0.12496196 -0.066783808 1.182647 0.1064451337 0.593326807 0.7978926897
-0.21309488 0.18090719 1.266 0.3414807916 -0.7455149293 0.5723620653
-0.044036899 0.1875588 1.275 -0.6059804559 -0.6359749436 0.4778321385
-0.0078409063 0.24186182 1.376 -0.3420228958 -0.6672977805 0.6616147161
-0.017741323 0.081847131 1.30575 -0.5127123594 -0.7312924862 0.449819237
-0.28055525 0.16173185 1.2550001 -0.04793872684 -0.7610880136 0.6468746662
-0.22526486 -0.062888853 1.189 -0.01359437685 0.6175194383 0.7864381671
-0.16298987 0.24099216 1.3280001 -0.02084580995 -0.7669343352 0.6413869262
-0.095199376 0.16602857 1.2324446 -0.04112434387 -0.7329058647 0.6790860295
-0.026820261 0.12565662 1.2327275 -0.6582208276 -0.5449466705 0.5194019675
-0.067909233 0.25138327 1.3590001 -0.08254238963 -0.8020176291 0.5915694833
-0.066155888 0.029136015 1.1730001 -0.3966564238 0.03430938348 0.9173257351
-0.29369956 0.063985713 1.1965001 0.3927746713 -0.5169399381 0.7605926394
-0.12633923 0.035130102 1.1479093 -0.02787680924 0.09651028365 0.9949415326
-0.034106717 -0.037407368 1.2550001 -0.04204122722 -0.6047599316 0.7952973843
-0.10440812 0.11663375 1.1758573 -0.06278064102 -0.6874755621 0.7234887481
-0.15696892 -0.014701701 1.1609999 0.1099181548 -0.08874735236 0.9899706841
-0.18495737 -0.077762097 1.2030909 0.007006019354 0.5215603113 0.8531856537
-0.23486251 0.19082579 1.2880001 0.03444704786 -0.7526243329 0.6575484872
-0.15586461 0.018933661 1.1570001 0.09741614759 0.2351989746 0.9670529962
-0.19416396 0.13132799 1.1946001 0.1039773226 -0.7635589242 0.6373118758
-0.24202575 -0.10218865 1.2270001 0.6241494417 0.4773143232 0.6185535789
-0.12510234 -0.095715679 1.2038461 0.2213391215 0.5404391885 0.8117477894
-0.2161866 -0.0034013991 1.1730002 0.2456597537 -0.07538860291 0.966420114
-0.11416284 -0.025599314 1.1559563 0.005963094532 0.04346503317 0.9990371466
-0.053354286 0.10776583 1.2028 -0.6614637971 -0.3439972103 0.6664319634
-0.23509535 0.14634252 1.2422501 0.1814734638 -0.7412402034 0.6462432742
-0.23604943 0.056917265 1.1842728 0.2997093797 -0.4388755858 0.8470906019
-0.074694037 0.072646737 1.1671333 -0.2297331691 -0.3805602193 0.8957659006
-0.16609532 0.11844146 1.1816667 0.201224789 -0.6903269291 0.6949512959
-0.18561749 0.035500616 1.1569997 0.04959513992 0.01364977099 0.9986761212
-0.12548254 0.20278879 1.2780001 -0.1183280647 -0.8138551712 0.5688920617
-0.01908898 0.012897958 1.177 -0.5977227688 -0.3882977664 0.7013931274
-0.17588082 0.22114004 1.307 0.07508148253 -0.8358923197 0.5437341332
0.01155096 0.15144593 1.4640001 -0.3184955716 -0.7807699442 0.5375489593
-0.074964412 0.1332341 1.1954001 -0.133293137 -0.7084143162 0.6930960417
-0.094836824 -0.11503719 1.1970003 0.08431142569 -0.2516702116 0.9641336203
-0.16565493 -0.05901457 1.1810001 0.110210821 0.6850982904 0.7200651765
-0.29659736 -0.035888977 1.204 0.4771654904 0.1971776485 0.8564076424
-0.18422364 -0.025445247 1.1609998 0.1445772201 0.2187487334 0.9650111198
-0.21490699 0.02546026 1.1617999 0.2476906776 0.263402909 0.9323455691
-0.26729786 0.092855655 1.2245001 0.5986871123 0.1834939122 0.7796818018
-0.078286335 -0.063866921 1.1750001 0.03250978515 0.6211522818 0.7830153108
-0.14474203 -0.1265153 1.2229998 0.02069673687 0.5453463793 0.8379552364
-0.17631187 -0.16574807 1.1730002 0.2436798215 0.4393110871 0.8646536469
-0.1142201 0.23341456 1.3258183 -0.01930739731 -0.8533081412 0.5210493803
-0.075097293 0.15241577 1.2170768 -0.06444060057 -0.7579650879 0.6491042376
-0.17995775 0.068898112 1.1730001 0.2206616849 -0.05741440877 0.9736590981
-0.19503488 0.14614493 1.2257501 0.1986017525 -0.6990153193 0.6869752407
-0.12595737 0.25842029 1.3736 0.04918893799 -0.9096804857 0.4123855829
-0.055340752 -0.043120019 1.161889 -0.1241643205 0.1999875456 0.971899271
-0.10507585 0.023687534 1.16225 -0.09172275662 0.3876057565 0.9172506332
-0.18473722 0.18885304 1.2640001 0.1577167511 -0.7714169621 0.6164748669
-0.044209201 0.15507509 1.2337501 -0.7378370762 -0.4265117347 0.5231483579
-0.003118084 0.095193803 1.3350835 -0.7423312664 -0.1278877705 0.6577150226
-0.26445046 -0.034488946 1.1753531 0.3393619955 0.1494513005 0.9287075996
-0.25560817 0.13391078 1.2255455 -0.09653259069 -0.7833490968 0.6140403748
-0.2450279 0.11018385 1.197 0.2870711088 -0.6817901134 0.6728687882
-0.30120075 -0.0027199457 1.1938 0.29132393 -0.2764088809 0.9158211946
-0.036114719 0.24329239 1.3581668 -0.2902956307 -0.7391996384 0.6077107787
-0.21577288 -0.11659776 1.2229998 0.1604786068 0.5398976803 0.8262912035
-0.23244554 -0.12716752 1.189 0.4542538226 -0.1918010265 0.8699803948
-0.045362242 -0.074523672 1.2320002 -0.1098724306 -0.4279969037 0.897076726
-0.054413039 0.085128225 1.181 -0.303688854 -0.4905763566 0.8167667389
-0.2761516 -0.077039883 1.2590001 -0.3405781686 -0.6183726192 0.7082526684
-0.062924609 -0.016225088 1.161 -0.1065621153 0.03845213726 0.9935622811
-0.24432595 -0.087005317 1.2044001 0.1463809758 0.6870537996 0.7117090225
-0.21437044 0.16530637 1.2437999 0.3816022277 -0.6979637146 0.6059920788
-0.27506205 0.03242176 1.1930001 0.6397936344 0.5248733163 0.5614019036
-0.025403852 0.2062189 1.324 -0.6121108532 -0.6240178943 0.4857179821
-0.24488455 -0.12786007 1.2360001 0.438952297 -0.5857717395 0.6813166738
0.030025832 0.08767543 1.3700001 -0.8426259756 -0.3921173215 0.3690873086
0.018686149 0.11336264 1.4210001 -0.1826453656 -0.7738536 0.6064579487
-0.094808944 0.094811738 1.1629201 -0.343939364 -0.07400009781 0.9360713959
-0.12533483 0.15450956 1.2244117 -0.0429148674 -0.7224592566 0.6900804043
-0.0048733898 -0.092594407 1.853 -0.3544370234 0.8185172081 0.4521105289
-0.1129775 -0.12956403 1.1823335 -0.1946504265 -0.6629377007 0.7229279876
-0.10506927 -0.052686781 1.1675882 0.05390258506 0.5407480001 0.839455843
-0.071919978 -0.11307774 1.21 -0.5240929723 -0.1593473107 0.8366211653
-0.21358524 -0.035265978 1.169 0.1216958761 0.2685753703 0.955540359
-0.1784227 -0.15122412 1.2410001 0.05845805258 0.649979353 0.7577001452
-0.042978141 0.036075268 1.1813334 -0.5830952525 -0.231263563 0.7787920833
-0.13667737 0.076326326 1.1570001 0.01370955538 0.08971637487 0.9958729744
-0.16518155 0.15445596 1.2234999 0.1371766776 -0.6483579278 0.7488755584
-0.23880415 0.0054785409 1.182143 0.368555665 0.02525166236 0.9292626381
0.022372534 0.17287867 1.3920001 -0.858971417 -0.2406353801 0.4519543052
-0.096147537 0.2480844 1.3540001 -0.08981925249 -0.8495027423 0.5198822618
-0.21517405 0.11507497 1.1862172 0.2906137705 -0.6298692822 0.7202835083
-0.16445707 0.20726055 1.284875 0.0742874369 -0.8312723637 0.5508790016
-0.0052991873 0.17447183 1.3145002 -0.8681153655 -0.2028867453 0.4530040324
-0.075449102 0.22474934 1.3146924 -0.05702278391 -0.8661200404 0.4965727329
-0.20645185 -0.13431481 1.1822 0.397893101 -0.01027022209 0.9173743129
-0.018292177 0.16327462 1.2880001 -0.8058432341 -0.3071088493 0.5062615871
-0.22482926 0.20729434 1.3047779 0.1526865065 -0.7829031348 0.6031165123
-0.20447341 0.085136361 1.1671054 0.2250249535 0.05913538113 0.9725568295
0.022378378 0.043640751 1.2763333 -0.5082820654 -0.685305059 0.5215422511
-0.005003137 0.12738757 1.317 -0.4153357446 0.2631033063 0.8707886338
-0.094177499 0.20570441 1.2850001 0.0150102647 -0.8099739552 0.5862737894
-0.15492313 -0.10505201 1.2103999 0.1045954376 0.4230863154 0.9000321031
-0.24144977 -0.050559998 1.177 0.08363617957 0.4852884114 0.8703448176
-0.27502063 -0.11515021 1.2409998 -0.2948071957 -0.2816437781 0.9131076336
-0.053411502 0.23604132 1.344 -0.1973933131 -0.8284150362 0.5241798162
0.021584993 0.078098439 1.3430001 -0.6361908913 -0.6381553411 0.4336114824
-0.15548423 -0.15490429 1.161381 -0.02078089491 0.3818401098 0.92399472
-0.13474692 0.14591666 1.2048572 -0.03075583465 -0.8463428617 0.5317497253
-0.035066668 0.13917083 1.25 -0.7812434435 -0.4346760213 0.4480127692
-0.044315793 0.20762438 1.3036667 -0.47671175 -0.6918414235 0.5423110723
0.035469934 0.12351138 1.4450001 -0.1818718463 -0.8120214939 0.5545662045
-0.16480894 0.17681491 1.245 0.1204823181 -0.7993104458 0.5887162685
-0.017669592 -0.015168212 1.1758573 -0.6777045131 -0.04339282215 0.7340528965
-0.28421068 0.082754619 1.2060002 0.2292336375 -0.6371882558 0.7358281612
-0.086261548 -0.13785335 1.177 -0.1912536919 -0.5088388324 0.8393480182
-0.0047564427 0.036769502 1.2336001 -0.6129975915 -0.6409566998 0.4619615674
-0.12780631 -0.13860685 1.2320001 0.08134824038 0.6311647296 0.7713712454
0.0011870067 0.20772617 1.3540001 -0.6471092701 -0.4387360215 0.6235064268
-0.26343769 0.14842655 1.2410001 -0.1610832661 -0.7172366381 0.6779556274
-0.25507176 0.095035046 1.1835884 0.6282703876 0.0115091484 0.7779099345
-0.035820935 0.1138676 1.2156154 -0.6442757249 -0.5037733912 0.5754312873
0.0011037233 0.051874995 1.2590001 -0.562337935 -0.6866007447 0.4608204067
-0.085474998 0.17862083 1.25 -0.02160472609 -0.8049455285 0.5929552317
-0.19482899 -0.10508385 1.2119048 -0.01485548168 0.5041363835 0.8634963036
-0.18494071 -0.13548051 1.2265 0.07095642388 0.4962520897 0.8652739525
-0.23294961 0.21904218 1.322 0.04660098255 -0.8418991566 0.5376189947
-0.045339584 0.17551832 1.2550001 -0.6044366956 -0.6208372116 0.499216795
0.01068306 0.16261992 1.3540001 -0.9339516759 -0.1947981268 0.2996463478
-0.13559754 0.2283138 1.322 -0.04008494318 -0.8482553363 0.5280682445
-0.0085514449 -0.044072222 1.2505 -0.06517440081 -0.6196193695 0.7821918726
-0.0046424759 0.015199646 1.2040001 -0.7729802728 -0.4466144443 0.4505963027
-0.22441567 0.04450722 1.1680769 0.2849894464 -0.3016099632 0.9098420143
-0.21434808 0.23247556 1.3342501 0.2670400739 -0.7700993419 0.5793415308
-0.07379096 -0.069058016 1.2270001 -0.5109670162 -0.4924488664 0.7045614719
-0.030876638 0.053239528 1.2145001 -0.7977023125 -0.5305118561 0.2867544591
-0.27507505 -0.015570684 1.1840398 0.2224171907 -0.2023116946 0.9537298083
-0.20292729 -0.16047822 1.1810001 0.3881461918 0.09579412639 0.916605711
-0.14474219 0.11357789 1.1671537 0.05700214952 -0.6439718604 0.7629226446
-0.1653697 -0.035950031 1.1624547 0.1356836557 0.3915096521 0.9101154804
0.0358469 0.16934569 1.4100001 0.0002441841061 0.8310210109 0.5562410355
-0.28282607 -0.043084074 1.189 0.4206061065 0.3600678742 0.8327314258
-0.26606894 0.064928472 1.1887997 0.09673576802 -0.6690652966 0.7368811965
-0.048089549 -0.099385068 1.2190001 -0.2720928192 -0.2424941957 0.9312153459
-0.18491688 0.23376535 1.3266156 0.05736018345 -0.7754436731 0.6288059354
-0.11557973 0.17120248 1.2360001 0.0064570955 -0.7471240163 0.6646533012
-0.063882545 0.05538084 1.161 -0.3830797672 -0.1098660976 0.9171583056
-0.10742521 -0.0041637681 1.1610001 0.05205139145 -0.1419811398 0.9884998798
-0.035730552 0.075618014 1.1838572 -0.6916927099 -0.3329077661 0.6408849955
-0.06535136 0.19669808 1.2758571 -0.1638076752 -0.8104888797 0.5623831749
-0.094854459 0.13029458 1.189 -0.08718596399 -0.7424867749 0.6641626358
-0.025218487 -0.077567756 1.2270001 0.08223544061 -0.3944118917 0.9152467251
-0.10704745 0.043130331 1.149 0.01144208107 -0.2863275111 0.9580634832
-0.25489247 0.19738002 1.2947778 -0.05346754193 -0.7496584654 0.6596615911
-0.21473348 0.19521663 1.2846668 0.2907961905 -0.7161137462 0.6345223784
-0.12673649 -0.16226369 1.169 -0.228382647 0.2070207447 0.9513063431
-0.11570159 0.13237929 1.189 -0.07364823669 -0.7495822906 0.6578011513
-0.13490234 -0.025357587 1.1569997 -0.007422552444 0.1266854852 0.9919151664
-0.20526817 -0.06633053 1.1934 0.02288764901 0.6585513949 0.7521876097
-0.26208651 0.029923264 1.177 0.3237546384 0.5828739405 0.7452790737
-0.16435106 -0.13321324 1.2269999 0.003380997805 0.5457928777 0.8379133344
-0.078003168 -0.09199477 1.197 -0.6692509055 0.153046608 0.7271037698
-0.095151484 0.074693426 1.1670804 -0.2100635618 -0.1229303256 0.9699285626
-0.084698871 0.025508795 1.1640401 -0.254883647 0.288035363 0.9230763316
-0.13465425 0.19094414 1.2590001 -0.05275949091 -0.7968264222 0.6019003987
-0.26378617 0.17504649 1.2653333 -0.05762095749 -0.7056776881 0.7061861157
-0.25541496 -0.015673554 1.1755265 0.2662527859 -0.291988194 0.9186143875
-0.0723776 0.26176566 1.376 -0.07491564751 -0.8375099897 0.5412621498
-0.1255562 0.21801122 1.302 -0.05525362864 -0.8294981122 0.5557696819
-0.21752274 0.14710326 1.2320001 0.3181202114 -0.6929174662 0.6470432281
0.024352048 0.063994914 1.2920001 -0.4589299858 -0.7805284858 0.4244508445
-0.059414331 0.12195573 1.189 -0.6047933102 -0.3328720927 0.7234785557
0.01055682 0.1114331 1.3380001 -0.8090516329 0.1098982766 0.5773714781
-0.25397924 0.051149614 1.177 -0.02785356529 -0.5560144186 0.8307058215
-0.15446077 0.24879362 1.3450001 -0.1059151888 -0.8421764374 0.5286973119
-0.10494616 -0.068050295 1.181 0.08820017427 0.587027967 0.8047477007
-0.14482598 -0.06575378 1.1855216 0.1633712202 0.6409316063 0.7500110269
-0.17484502 0.10368238 1.1663334 0.1947441846 -0.5287777781 0.8261166811
-0.095110439 0.15068059 1.2190001 0.01407298073 -0.7468088269 0.6648898721
-0.12500334 -0.052032158 1.1679091 0.0384411402 0.5970602036 0.8012748361
0.040935948 0.096757695 1.4150001 -0.3923352063 -0.810865581 0.4342466295
-0.25171947 0.22479355 1.3355 0.07981403172 -0.824534893 0.5601534843
-0.2220785 -0.077187434 1.202 -0.07202666253 0.4788471758 0.8749386072
-0.01004397 0.066959798 1.273 -0.3827223182 -0.8373923302 0.3902534246
-0.17476133 -0.096264571 1.21 0.03698308393 0.4013777077 0.9151656628
-0.28567147 0.015698101 1.1936318 0.2011853904 -0.4273479879 0.8814182281
-0.035287879 0.052061439 1.1956667 -0.8839891553 -0.111954391 0.4539046288
-0.24745548 -0.075675093 1.189 -0.04468210787 0.5191622376 0.8535069227
0.02542421 0.10290752 1.381 -0.7908507586 -0.5471841097 0.2741252482
-0.032573719 0.22880094 1.3430001 -0.4220040739 -0.70115453 0.5747128725
-0.1348246 0.054404479 1.1563332 -0.01759568602 -0.332426101 0.9429651499
-0.17478508 0.13367665 1.1947502 0.1879012138 -0.7578066587 0.6248377562
-0.14520667 0.20711863 1.284 -0.01379422098 -0.8272298574 0.561694324
-0.034880459 -0.055588555 1.2433999 -0.01954202726 -0.5390709639 0.842033565
-0.11524554 0.083387569 1.162263 -0.1707646698 0.2025420368 0.9642697573
-0.29143205 -0.065378293 1.2640001 -0.30311656 -0.6239401698 0.7202908993
-0.28412327 0.10185552 1.223 0.4010472 0.05292536318 0.9145272374
-0.23521841 0.076024279 1.1837825 0.3865172565 0.2217432559 0.8952286243
-0.18489932 -0.063664004 1.1874616 0.05239648744 0.6885744929 0.7232701778
-0.16533144 0.035500616 1.1569997 0.09531356394 0.001783080515 0.9954457283
-0.032673527 0.17649244 1.2852727 -0.7310000658 -0.4767856002 0.4881745279
-0.13494368 -0.11476053 1.2120498 0.1179371476 0.4571568668 0.8815318346
-0.15544155 0.074529596 1.1633335 0.1552293748 0.124342829 0.9800217748
-0.10486218 0.1911975 1.268 -0.04452206567 -0.8277568221 0.5593178272
-0.24496198 0.12486207 1.2131335 0.1265128702 -0.7718183994 0.6231299043
-0.20426333 -0.01531975 1.1650003 0.2302393764 -0.04646415263 0.9720241427
-0.21524112 -0.052761246 1.177 0.05008454993 0.5903512836 0.8055910468
-0.022792747 0.09696576 1.322 -0.6117537618 -0.3087519407 0.7283059955
-0.22532524 0.014941031 1.1730002 0.2499968708 0.2720111012 0.9292532206
-0.044291247 -0.012509741 1.1570001 -0.2128295153 0.02078026533 0.9768683314
-0.046093505 0.022681996 1.1684287 -0.346839726 -0.3075450063 0.8860689998
-0.06385418 0.0056456532 1.1611816 -0.108900696 -0.2383903265 0.9650443792
0.025229387 0.13439299 1.4556924 -0.2719961405 -0.7623800039 0.587192297
-0.14523856 0.09355741 1.1569998 0.1164972335 -0.08533874154 0.9895179272
-0.11651018 0.24601692 1.3470001 0.02040234767 -0.8657974601 0.4999785423
-0.035677481 -0.11776724 1.2240001 -0.2958271205 -0.02216537669 0.9549843073
-0.14638174 0.034091417 1.153 0.1964327395 0.175687775 0.9646491408
-0.025156729 0.06594871 1.2536668 -0.4256185293 -0.8076616526 0.4080827832
-0.29093146 0.048661135 1.1810001 0.7679777741 -0.008447608911 0.6404207945
0.0021436254 0.22548532 1.358 -0.4348177016 -0.5196766257 0.7354384661
-0.095034175 0.2283138 1.322 -0.09712354839 -0.8476915359 0.52152282
-0.1450607 0.0048148124 1.1615453 0.08246638626 0.006514376495 0.9965725541
-0.19373193 0.05172947 1.1570001 0.1477538198 -0.4201988578 0.895322144
-0.18503802 0.084849097 1.1661204 0.1874352545 0.1316482723 0.9734150171
-0.098727569 0.058015171 1.161 0.01444830187 -0.4298573136 0.9027812481
-0.18511793 0.11748586 1.1844286 0.09058453888 -0.6771788597 0.7302213907
-0.11319993 -0.081929229 1.189 0.1339333653 0.497376591 0.8571338058
-0.043174081 0.13433807 1.2346668 -0.7591634393 -0.45972386 0.4607872069
-0.19509304 0.17750931 1.2537501 0.1923163384 -0.7772634625 0.599062562
-0.21197274 0.13117126 1.197 0.229512468 -0.7651954889 0.6014980078
-0.1647262 0.0051002717 1.1642002 0.08517012745 0.04788543656 0.9952150583
0.0022916067 0.072185613 1.307 -0.3169042766 -0.9027075171 0.2910168767
-0.27505183 -0.094495453 1.2526318 -0.3418166935 -0.4811835587 0.8072321415
-0.25483462 -0.11548603 1.2442499 0.2734920084 -0.3435668051 0.8984230757
-0.17506333 0.049872689 1.161 0.08130842447 -0.3707706928 0.9251583815
-0.30035916 -0.084716685 1.2550001 -0.3077453077 -0.5754745007 0.7577083111
-0.021370504 0.14509447 1.2830001 -0.944273293 -0.1303583831 0.3022492826
-0.17572096 -0.046175037 1.174143 0.1161231697 0.6026745439 0.7894927263
-0.13504627 -0.084798753 1.1941431 0.1982704997 0.5949985981 0.7788873315
-0.19460455 0.21689841 1.3038751 0.1425815523 -0.8128681183 0.5647264719
-0.083862811 0.11906448 1.1810001 -0.2185353935 -0.6638795733 0.7151966095
-0.17506331 0.02137401 1.161 0.06776833534 0.2191375494 0.9733376503
-0.094330207 -0.015214549 1.1569997 -0.004557720851 -0.03214786202 0.9994727373
-0.062722869 0.23115508 1.325 -0.1635886729 -0.8720282316 0.4613084197
-0.15471238 0.22745028 1.317 0.0105720954 -0.8065723181 0.5910409093
-0.12262835 -0.14268078 1.1730002 -0.3619434536 -0.07801433653 0.9289298654
-0.14177541 0.25376606 1.3590001 -0.04696332663 -0.9139229059 0.4031616747
-0.20484525 0.13668558 1.2148889 0.2003742009 -0.8292853236 0.5216665864
-0.22287673 0.065693602 1.177 0.3783423901 -0.1522786766 0.913054347
-0.023234881 0.24799466 1.3709999 -0.3250729144 -0.7519251704 0.5735295415
-0.28746778 0.032883767 1.21 0.2514426112 0.06394542754 0.9657575488
-0.24159443 -0.14119154 1.1930001 0.457237035 -0.1586297899 0.8750833869
-0.026456922 0.03104189 1.1882 -0.5244076848 -0.5340240002 0.6631854773
-0.014339988 -0.027574146 1.2581999 -0.05380382761 -0.6248281598 0.7789062262
-0.1221372 0.022391818 1.161 -0.1177983135 0.3842104673 0.9156996608
-0.038567197 0.091727391 1.189 -0.4880046546 -0.5569138527 0.672085166
-0.17584755 0.14357896 1.2157143 0.1217337698 -0.7913191915 0.5991617441
-0.19528688 -0.11809114 1.2230002 0.07769867033 0.4480316341 0.890634954
-0.084962144 0.25488645 1.365 -0.06106938794 -0.8334550858 0.549202323
-0.077425882 -0.075333282 1.1935 -0.570679009 0.5301328301 0.6271241307
-0.2665996 0.097999059 1.202 0.718242228 0.2270116657 0.6577185988
0.0073196404 0.086653069 1.3466001 -0.7893699408 -0.2946027517 0.5386133194
-0.016093846 0.045065053 1.2240001 -0.6804991364 -0.664639473 0.3085048497
-0.25330481 0.15790594 1.2508334 -0.09491362423 -0.7331015468 0.6734638214
-0.20772266 0.01131163 1.1730001 0.2495297492 0.1973415315 0.9480460286
-0.022020113 0.13212068 1.322 -0.417694062 0.2810902596 0.8640138507
-0.25816077 -0.13338308 1.2270001 0.4606796503 -0.7507256866 0.4734820127
-0.055247538 0.2570211 1.37 -0.1513321251 -0.8149735928 0.5593895316
-0.26401481 0.12733303 1.2124001 -0.03513913602 -0.7006956339 0.7125944495
-0.22484098 -0.104432 1.2155 0.2384214252 0.5652178526 0.7897366881
-0.036993578 0.16573735 1.266 -0.7955855727 -0.4531450868 0.4021233022
0.012806348 0.14203402 1.3280001 -0.8184289336 -0.02035276964 0.574247241
-0.25556806 0.18473201 1.2770909 -0.05395250395 -0.7199903131 0.6918837428
-0.18178824 0.16027483 1.2270001 0.1484413445 -0.6110458374 0.7775526643
-0.15531114 0.13237929 1.1889999 0.1524872631 -0.6990623474 0.6986125708
-0.01045425 0.18817914 1.325 -0.6907120943 -0.5052787066 0.5173105597
-0.054288246 -0.11496584 1.2142502 -0.4474065602 -0.0785041675 0.8908784986
-0.036632176 0.19509757 1.29575 -0.6082803011 -0.6068422794 0.5116028786
-0.23234472 -0.12155071 1.2270001 0.2165725678 0.5564225316 0.8021784425
-0.19547448 -0.035823651 1.1674002 0.1293882132 0.3872703612 0.9128419161
-0.00347686 0.14757338 1.322 -0.7141659856 0.07070257515 0.6963965297
-0.12414591 0.11670221 1.1748463 -0.04115581512 -0.6912408471 0.7214515209
-0.059414331 0.1011086 1.189 -0.5740637779 -0.3512803018 0.7396302819
-0.14373739 0.23956232 1.3330001 -0.1397270858 -0.8157103658 0.5613313913
-0.1049544 -0.095083058 1.1943336 0.2028902024 0.4119970798 0.888309598
-0.0046568527 0.11525711 1.3279997 -0.4411367774 0.2616251409 0.8584582806
-0.07462047 0.1654651 1.2336001 -0.09121410549 -0.7644808292 0.638160646
-0.21602839 0.097058535 1.1730002 0.3549948931 -0.273702085 0.8939048052
-0.22863932 0.16880159 1.2640001 0.2186578959 -0.7377084494 0.6387292147
-0.11326534 0.20954086 1.2920001 -0.05983535945 -0.8066061735 0.5880529284
-0.20184636 0.036514919 1.1570001 0.1993207783 -0.02575114369 0.9795958996
-0.035795573 0.10240089 1.2041818 -0.6130569577 -0.4900976419 0.6196494699
0.022916067 0.069894001 1.307 -0.3497376144 -0.8743651509 0.3364063203
-0.20545296 -0.13015607 1.2270001 0.1161097884 0.4994059205 0.8585523963
0.025365911 0.14702941 1.4711667 -0.3114059567 -0.7976406813 0.5165227056
-0.026346298 -0.0051130955 1.1667145 -0.5386111736 -0.1656192988 0.8261163831
-0.075703911 -0.025910843 1.1569999 -0.08787682652 0.1134226993 0.9896529317
-0.13551408 0.17582269 1.2426001 -0.02971107885 -0.773859024 0.6326606274
-0.22700383 -0.015167869 1.1730002 0.0971891731 -0.1210140511 0.9878814816
-0.24083962 0.1997485 1.302 0.01648861542 -0.752951622 0.6578692794
-0.10853045 0.10041603 1.1570001 -0.1733949184 -0.4009774029 0.8995283842
-0.22902916 0.15889584 1.25 0.3229390383 -0.6920701265 0.6455612779
-0.048714966 0.1254773 1.2028 -0.7604441047 -0.3112485409 0.569955349
-0.057707459 0.15068059 1.2190001 -0.3458836675 -0.7116188407 0.6115252972
-0.075504109 0.20430396 1.2855002 -0.09524028003 -0.8127551079 0.574768126
-0.085277654 0.14158304 1.2042222 -0.02984342724 -0.7820093632 0.6225517988
-0.17521147 0.19781041 1.2729999 0.1205265075 -0.7786484361 0.6157758832
-0.14466028 -0.093923315 1.2057145 0.1383430362 0.5041419864 0.8524681926
-0.2687071 0.021075066 1.202 0.3901539147 -0.3369084895 0.8568970561
-0.14961807 -0.02951649 1.161 0.1131089404 0.2137566805 0.9703166485
-0.12315501 -0.037949771 1.1610001 -0.004901043605 0.2957168818 0.9552630782
-0.15217619 -0.13992038 1.1650001 -0.07538253814 0.2284733802 0.9706273079
-0.085479826 0.2132737 1.29575 -0.0186729636 -0.827270031 0.561494112
-0.16493957 0.16802546 1.2320002 0.1424215734 -0.6618183255 0.7360112667
-0.094673857 0.033820547 1.1541427 -0.1760754436 0.3013597131 0.9371124506
-0.14602862 0.15675029 1.2229998 0.03532269597 -0.6763451099 0.735737443
-0.094472237 -0.12664817 1.1841999 -0.004855656065 -0.6559004188 0.7548317909
-0.23599276 0.13531527 1.2250001 0.2160154581 -0.816229105 0.5358240008
-0.22581874 0.18342879 1.2776153 0.2156446874 -0.7320979834 0.6461655498
-0.052525192 0.21891886 1.312 -0.3341701031 -0.7741681337 0.5375816822
-0.24996133 0.066935256 1.1930001 0.28098616 -0.4744806886 0.8342151046
-0.064492859 0.14061558 1.2060001 -0.2303632498 -0.7240225673 0.6501723528
0.026440268 0.15782805 1.3920001 -0.8062499166 0.2778213024 0.5222800374
-0.19508027 0.023070363 1.1610001 0.1563385576 0.2807712257 0.9469560385
-0.25688019 -0.046820529 1.1810001 0.2074816078 0.4399855733 0.8737071157
-0.075687893 0.24243778 1.3490001 -0.1140728667 -0.8179583549 0.5638541579
-0.0080488361 -0.015817219 1.1882728 -0.7539685369 -0.138811186 0.6420769691
-0.21753958 -0.12864119 1.1930001 0.391213119 -0.09498799592 0.9153849483
-0.0093812095 0.011465923 1.189 -0.747143209 -0.3601073027 0.5586588979
-0.098727569 -0.02951649 1.161 0.06880027801 0.2079203129 0.9757231474
-0.065243728 0.18363516 1.2553571 -0.1632669717 -0.7866914868 0.5953657031
-0.047676638 -0.059595801 1.2360001 -0.09668122977 -0.5119744539 0.8535425663
-0.075218871 0.085526027 1.1754001 -0.4057055116 -0.2238276154 0.8861739635
-0.2816914 0.037146121 1.177 0.5960674286 0.3510092199 0.7221469283
-0.2418583 0.042017758 1.169 0.08222289383 -0.2282088101 0.9701340795
-0.28844365 -0.10770585 1.2360001 -0.3619644642 -0.403958261 0.8401187062
-0.16089725 0.11170574 1.169 0.1636357456 -0.6518555284 0.7404780388
-0.11368176 0.25568423 1.3650001 0.02157707885 -0.8817496896 0.4712238908
0.021817312 0.085677803 1.3573335 -0.8074191213 -0.3263785839 0.4914788306
-0.10692283 -0.12210529 1.2028 0.625590086 -0.5434008837 0.5597789884
-0.11845229 -0.1078446 1.21 0.3791525662 0.4474554956 0.8099548817
-0.28536782 -0.0052059973 1.1879998 0.1485432982 -0.2936069965 0.9443144798
-0.054405134 -0.084575355 1.2252606 -0.3351893425 -0.429053694 0.8387854695
-0.17719205 0.24366827 1.335 0.03097578883 -0.7812829018 0.6234080195
-0.11489373 0.14680968 1.2135001 -0.07368660718 -0.8040601611 0.5899640322
-0.057390105 0.070712812 1.169 -0.2335922271 -0.479506433 0.8458772302
-0.057088356 0.20241198 1.2870001 -0.3339624703 -0.7674971223 0.5471903086
-0.078178063 -0.11700475 1.197 -0.4660630524 -0.4127714634 0.7825630903
-0.15486735 0.21485397 1.2936666 0.03513136134 -0.8357354403 0.548007369
-0.015921406 0.20582548 1.3355001 -0.6197838187 -0.5919181108 0.515267849
-0.098530322 0.2404609 1.3380001 -0.08977227658 -0.8439676166 0.5288285017
-0.057063989 0.16254278 1.2340001 -0.3847621083 -0.6911805868 0.6117414236
-0.0080819903 0.081974469 1.317 -0.4740897119 -0.6702376008 0.570982039
0.024761744 0.11875736 1.4360002 -0.197550863 -0.8032153845 0.5619775057
0.0012667833 0.14061294 1.4450001 -0.3201889992 -0.74136585 0.5897929072
-0.20219231 0.16231729 1.2360001 0.2425227016 -0.6648443341 0.7065159082
-0.16670376 -0.077556238 1.2019999 0.1079708412 0.5635427833 0.8190005422
0.013455081 0.023354901 1.2348573 -0.6016478539 -0.624563098 0.497936517
-0.011719061 0.034095101 1.2152501 -0.7391949892 -0.572497189 0.3547361791
-0.22434981 0.12212911 1.1952224 0.3698141873 -0.6830108166 0.6298679709
-0.059161849 -0.069918551 1.2270001 -0.258148849 -0.5350373983 0.8044216037
-0.16397904 -0.14301676 1.1570001 0.1388557851 0.2691695988 0.9530303478
-0.25501281 0.015115779 1.1872855 0.4557259083 0.2256111354 0.8610537052
-0.015131392 0.23411922 1.3575716 -0.3759427965 -0.6286297441 0.6808022261
-0.14596149 0.25694048 1.376 0.04144116491 -0.9385337234 0.3426910043
-0.14554685 0.064122051 1.1609998 0.07355695963 -0.0528678 0.99588871
-0.19435437 0.07095477 1.1730001 0.1218129471 -0.03196668252 0.9920381904
-0.084872082 0.10532874 1.1664404 -0.3674323559 -0.3032556474 0.8792209625
-0.065390393 -0.053574681 1.1618001 -0.09627167881 0.4342878461 0.8956148028
-0.30016276 0.013596223 1.1930001 0.2567850053 -0.4611561298 0.8493506312
-0.045564607 0.12423784 1.2181668 -0.7605848312 -0.364521265 0.5372475982
-0.24163388 -0.1137738 1.2360001 0.5534780025 0.001875098795 0.8328616619
-0.074481636 0.015306987 1.1638801 -0.1485802382 -0.203737542 0.9676853418
-0.19453682 -0.0050919945 1.1618 0.2313572615 -0.03761797771 0.9721413255
-0.12472697 0.23632216 1.3352224 -0.01797943376 -0.8642566204 0.5027297139
-0.18367656 -0.15297127 1.1674615 0.3178007901 0.3022180796 0.8987029195
-0.17669392 0.20954086 1.2920001 0.09742545336 -0.8339316845 0.543200016
-0.045234531 -0.045840893 1.2450002 -0.04342323169 -0.5297439098 0.847045362
-0.23474362 -0.07440953 1.1954001 -0.1322441995 0.5040027499 0.8535178304
-0.14512762 -0.055413883 1.1756668 0.1418108046 0.6548390388 0.7423446178
-0.034244232 0.016609203 1.1735716 -0.3958073854 -0.4363592267 0.8080390692
-0.23191077 -0.15215865 1.197 0.4703232348 -0.09174405038 0.8777124286
0.012749101 0.054121632 1.2754999 -0.5026472211 -0.6817858219 0.5315203071
-0.03728288 0.21178864 1.3153334 -0.5335970521 -0.6740847826 0.5107679963
-0.014855054 0.17569207 1.3037857 -0.7570945621 -0.369697541 0.5386386514
-0.068032838 0.23342302 1.3380001 -0.09820464998 -0.8675726652 0.4875176847
-0.2915124 -0.030923247 1.189 0.4437541366 0.2005206496 0.8734264374
-0.084909827 -0.05422321 1.1669203 0.08554965258 0.551296711 0.8299115896
0.0062648794 0.03567354 1.2425001 -0.583270669 -0.6492862701 0.488080591
-0.13477369 0.025144557 1.1551665 -0.009678945877 0.3602483571 0.9328061938
-0.27715379 -0.055430755 1.1930001 0.4158361554 0.4432503879 0.7941091657
-0.16485183 0.064527132 1.1666366 0.2380814254 -0.106078364 0.9654349089
-0.13413198 0.13831542 1.193 -0.01140219532 -0.7814152241 0.623907268
-0.045850262 -0.025476394 1.1622801 -0.1841591746 0.08657671511 0.9790760279
-0.17421062 -0.0050942395 1.16212 0.1112113819 -0.0832041204 0.9903075695
-0.24458571 -0.0052554323 1.1751055 0.2534252107 -0.2506471872 0.9343188405
-0.0047292663 0.073675238 1.2850001 -0.4032811224 -0.8608974218 0.3101934195
-0.0039488571 0.16463415 1.3244001 -0.8800541759 -0.09289184958 0.4656992555
-0.1846551 0.13822544 1.2036002 0.161872983 -0.8225213289 0.5452117324
-0.082895264 -0.10484847 1.2019999 -0.4020470381 0.04483981431 0.9145203829
-0.084558338 0.064186715 1.1621199 -0.08326198906 -0.3972711563 0.9139163494
-0.23401858 0.10408653 1.18575 0.2750911117 -0.5726348162 0.7722786069
-0.24685706 0.21904218 1.322 0.0101704197 -0.8238243461 0.5667539239
-0.07417094 0.035135921 1.1633639 -0.3800115883 0.2536544502 0.8895226717
-0.055022616 0.045381527 1.1647779 -0.4799945951 0.2590841949 0.8381411433
0.028531117 0.10296012 1.4150001 -0.3937982321 -0.8024228215 0.4483754337
