# .PCD v0.7 - Point Cloud Data file format
VERSION 0.7
FIELDS x y z normal_x normal_y normal_z
SIZE 4 4 4 4 4 4
TYPE F F F F F F
COUNT 1 1 1 1 1 1
WIDTH 512
HEIGHT 1
VIEWPOINT 0 0 0 1 0 0 0
POINTS 512
DATA ascii
-0.29659209 -0.11782175 1.0511429 -0.4505127966 -0.5025138855 -0.7379146814
0.49972105 -0.45376968 2.184 0.7213037014 0.6925854087 0.006818923634
-0.14867127 -0.025529411 1.7130001 0.9816972613 0.1124066189 0.1537376493
-0.19679676 0.30526543 1.2755001 0.2394191474 0.9012836218 -0.3610627651
-0.40235421 0.16215836 1.0945001 -0.6250368357 0.4534641802 -0.6353732347
-0.10805355 0.01855465 1.245 -0.3278892338 0.6101218462 -0.7212766409
-0.1889094 0.089004457 1.036 0.4138832092 -0.2612124979 -0.8720486164
-0.40175879 0.28904313 1.273 -0.304436177 0.8752027154 -0.3759505451
-0.10798429 0.17714541 1.3840001 0.6947748661 0.5361289382 -0.4794306159
-0.24528472 0.22271794 1.1246667 0.1406741291 0.8223100305 -0.5513774157
-0.14821365 -0.061029151 1.105 0.4246141016 -0.1293135434 -0.8960919976
-0.39706337 -0.028931754 1.138 -0.4627496004 0.2439064234 -0.8522748947
-0.14217648 0.16524816 1.224 0.9016920328 -0.0138205383 -0.4321579635
-0.31506389 0.025231916 1.033143 -0.1154725254 0.007893482223 -0.9932793379
-0.29473025 0.1469702 1.043 -0.1871111542 0.5961199403 -0.780788362
-0.12265005 0.078539692 1.1436667 0.8356271982 0.4287955761 -0.3433096111
-0.35561368 0.24174444 1.169 -0.1896546334 0.7634984851 -0.617333889
-0.095506936 0.10555919 1.305611 -0.5631787777 0.4484273493 -0.6940768361
-0.4080708 0.056807999 1.08 -0.6874274611 0.1634652168 -0.7076175213
-0.28509337 0.29277173 1.2258574 0.01452214736 0.8614886999 -0.507569015
-0.15158705 0.26372677 1.4150001 -0.5761212111 0.09285320342 -0.8120730519
-0.21631749 -0.0079776673 1.0500001 -0.05476016179 -0.5556906462 -0.8295837641
-0.16690798 0.16281687 1.1062222 0.7538111806 0.5038844347 -0.4217453599
-0.17824298 0.25120795 1.189 0.5129480958 0.7189594507 -0.4690218568
-0.1198491 0.22029406 1.302 0.9351331592 0.2088388503 -0.2862033248
-0.14575531 -0.042119768 1.193 0.2065665573 0.7616957426 -0.6141253114
-0.13827752 0.027279237 1.0730001 0.8129501939 -0.336029619 -0.4756007493
-0.23499417 -0.084291972 1.1041536 -0.02780126594 -0.3506934643 -0.9360775352
-0.35233524 -0.042716753 1.067 -0.1124550179 -0.3393062353 -0.9339299202
-0.3253856 0.19621605 1.1033846 -0.2245312482 0.6901881695 -0.6879142523
-0.35506788 0.095153585 1.0417781 -0.2725654244 0.4360271394 -0.8576645255
-0.22180752 0.15875135 1.0516001 0.1104075313 0.6966456771 -0.7088688016
-0.15449777 0.0074045025 1.1414 -0.1988966912 0.5798971653 -0.7900375724
-0.26476231 0.074766286 1.026655 0.07249355316 -0.1840013117 -0.9802490473
-0.2824918 -0.03086831 1.067 0.1423770934 -0.629393816 -0.7639320493
-0.37141913 -0.090661362 1.1120001 -0.6003741622 0.1002000719 -0.7934171557
-0.35569018 0.28546348 1.223 -0.2270088941 0.8369711637 -0.4979420304
-0.14297995 0.24557625 1.245 0.8801185489 0.301061213 -0.3670878112
-0.41083056 0.20641993 1.1430001 -0.3477456868 0.6828020811 -0.642537415
-0.24330568 0.25987118 1.1810001 0.04833861813 0.8177648187 -0.5735190511
-0.22786741 -0.11484947 1.0464 0.4545924366 -0.2946391106 -0.8405554891
-0.14770518 0.10005835 1.087 0.7282337546 0.3590863347 -0.5837230682
-0.13252044 0.055500016 1.2920001 -0.5283300877 0.6238865256 -0.5758758187
-0.30545312 -0.10637579 1.1131999 0.001592178014 -0.5514483452 -0.8342075348
0.49833503 -0.48527008 2.1290002 0.7755226493 0.6224024892 -0.1057343856
-0.088232338 0.16485344 1.32425 0.02668576501 0.5197404027 -0.8539073467
-0.19416411 -0.064880118 1.0612221 0.6905224919 0.2486306131 -0.6792359948
-0.18484867 0.2157317 1.1340002 0.5902554393 0.6351106763 -0.4982298315
-0.37495935 0.014443958 1.041778 -0.4113991559 -0.0367529057 -0.9107139707
-0.29715055 0.24074231 1.149 -0.06223879755 0.8045299649 -0.5906419158
-0.13296929 0.12154545 1.1850001 0.6694065332 0.7255642414 -0.1595349461
-0.26511839 0.18769751 1.0818181 -0.066370897 0.7562106848 -0.6509534121
-0.35450664 0.15306804 1.0638125 -0.2619979382 0.705647409 -0.6583455205
-0.40214628 0.25754538 1.204 -0.2235171497 0.8273313046 -0.5153280497
-0.21478334 0.2878114 1.2250001 0.1312315911 0.8428370953 -0.5219233036
-0.11116134 0.15006781 1.268 0.8451994658 0.3283047378 -0.4217272103
-0.093773529 0.22197025 1.3540001 0.5470847487 0.4785526097 -0.6867937446
-0.32266593 0.30448037 1.2648 -0.09824033827 0.9310634732 -0.351382494
-0.40127224 0.11046789 1.077 -0.5877574682 0.4731731117 -0.6562380195
-0.18448019 0.035037499 1.0425457 0.2121161371 0.1180254444 -0.9700911045
-0.26495394 0.0063480367 1.035036 0.01287548523 -0.4789215922 -0.8777632713
-0.33796486 -0.093512908 1.0712858 -0.9180327654 -0.3101552427 -0.2470213771
-0.21366657 0.19347671 1.0966251 0.07010760903 0.8071528673 -0.5861647725
-0.14555472 -0.075809747 1.153 0.3036758006 0.8830487132 -0.3577792048
-0.13254674 0.18415786 1.3380001 -0.557620585 0.6099671125 -0.5630270243
-0.31898832 0.26878688 1.1930001 -0.04590700567 0.8303573132 -0.5553370714
-0.16737196 -0.012730452 1.0700001 0.6468328238 -0.4602233171 -0.6081132889
-0.1868469 -0.091961168 1.1120001 0.4774002731 -0.6241879463 -0.6184483767
-0.12825266 0.19800797 1.2590001 0.9086571932 -0.01432570349 -0.4172971547
-0.17612058 0.13279462 1.0638463 0.4242507219 0.567730844 -0.7054736018
-0.23340988 0.11056256 1.0380001 0.09241958708 0.3875543475 -0.9172024131
-0.14545415 -0.0081398506 1.2264287 0.03834663704 0.6839967966 -0.7284764051
-0.31495479 0.074602589 1.0269654 -0.05270981044 0.01104983687 -0.9985487461
-0.23412533 -0.043100089 1.0755881 -0.2138476223 -0.5208626986 -0.8264207244
-0.2417154 0.30573136 1.2590001 0.05764260516 0.9171088338 -0.3944473863
-0.16199836 0.20946284 1.177 0.9175714254 0.2841974199 -0.2780188024
-0.36593777 0.20889826 1.132 -0.1603543162 0.7467551827 -0.6454790235
-0.17466915 -0.024900038 1.115909 0.2678281367 0.5858325958 -0.7648975253
-0.1495944 0.018837813 1.2640001 -0.4958074391 0.6325964332 -0.5949762464
-0.29431456 -0.067845233 1.09 0.1728920043 -0.4243369997 -0.8888455629
-0.22494894 0.054719687 1.0450002 0.1363635659 0.01646099985 -0.9905220866
-0.1680833 0.28268555 1.245 0.4112322927 0.7123948336 -0.5686665177
-0.15396868 0.066075839 1.0601429 0.4413577318 0.3812324405 -0.8123208284
-0.39678809 -0.010318367 1.0700001 -0.6171213984 -0.3996315598 -0.6778317094
-0.12982994 0.061549012 1.097 0.9494599104 0.1715156138 -0.2628844678
-0.13834588 0.26431939 1.2830001 0.8424187303 0.4836286902 -0.2375582606
-0.21455279 0.24235396 1.149 0.1092513129 0.8358359337 -0.5379984975
-0.37383676 0.054500028 1.0537779 -0.5148961544 -0.2391699255 -0.8232130408
-0.33503956 -0.012199878 1.0449474 0.05089075118 -0.5340429544 -0.843924284
-0.098933585 0.052245826 1.268 -0.2913203835 0.6506630778 -0.7012631297
-0.2848914 0.21555726 1.1149412 -0.1273049265 0.7626813054 -0.634122014
-0.31611723 0.16978404 1.0700001 -0.160273537 0.7184082866 -0.6769061685
-0.3685112 -0.049851649 1.115 -0.4125671685 0.253457278 -0.874955833
-0.16156529 0.15739585 1.189 0.9268881083 0.2211470157 -0.3032695353
-0.28535873 0.10648718 1.0410001 0.02605880983 0.1296145618 -0.9912219644
-0.14879948 0.20426705 1.2167501 0.9320507646 0.01754642837 -0.3619025648
-0.14259093 0.11320971 1.1427779 0.7667269111 0.5167768598 -0.3808826208
-0.25453666 0.14373316 1.0341156 -0.01146144979 0.5140265226 -0.8576977253
-0.17189506 0.14578441 1.2410001 0.7556443214 -0.3307628632 -0.5653296113
-0.39421538 0.23434295 1.169 -0.2414705753 0.7616081238 -0.6013693213
-0.33510011 0.13080962 1.0380001 -0.2429417074 0.2992326915 -0.9227345586
-0.15712936 0.18306816 1.138 0.7357043624 0.5294649005 -0.4223813415
-0.36722398 0.17684849 1.1023334 -0.2438411415 0.6537209153 -0.7163731456
-0.26471373 -0.10511941 1.0330001 -0.0356625095 -0.2716368735 -0.9617388248
-0.18537852 0.17397308 1.0746111 0.6164932251 0.5736507177 -0.5393152833
-0.27120036 -0.10097885 1.097 -0.04618908092 -0.3059445024 -0.9509282708
-0.28589153 0.30805364 1.2640001 -0.05002909154 0.9143589735 -0.401801914
-0.33609298 0.22806309 1.1409999 -0.2235951871 0.7368125916 -0.638053596
-0.15305197 0.1296555 1.1120001 0.9436055422 0.2862205803 -0.1663920581
-0.28465435 0.044392779 1.0366156 -0.008820390329 -0.01811310835 -0.9997970462
-0.28419715 0.26550487 1.1850001 -0.01428181864 0.8308724761 -0.5562795997
-0.37420738 0.12577119 1.052 -0.6207545996 0.01383019611 -0.783882916
-0.31523967 -0.045055158 1.0724361 0.2425401062 -0.4199992716 -0.8745141029
-0.40341619 0.025688564 1.0636365 -0.613037467 0.1159327701 -0.7815015316
-0.38881922 0.2775737 1.2320001 -0.3094692826 0.8654303551 -0.3940292299
-0.31376293 -0.087155133 1.0465001 -0.6015672088 -0.296515435 -0.7417516708
-0.35444367 0.26504821 1.1950001 -0.2201457769 0.7880451083 -0.5749093294
-0.13402042 0.1318761 1.223 0.6607239246 0.6371911764 -0.3967761397
-0.12469239 0.20465258 1.396 -0.9373438358 0.2823912203 0.2040631473
-0.26290268 0.24208535 1.149 0.06337607652 0.8433407545 -0.5336290002
-0.34469461 0.058036301 1.0362222 -0.1543058604 -0.505559504 -0.8488811851
-0.10052298 0.18803711 1.3490001 -0.6772857904 0.4322713315 -0.5953364372
-0.41482726 0.1276409 1.103 -0.7243179679 0.2957771719 -0.6227996349
-0.18076777 -0.055476338 1.0910001 0.8437224627 0.04355297238 -0.5350098014
-0.25450641 0.28326195 1.2147001 0.02037856542 0.8393011689 -0.5432846546
-0.39381778 0.085831471 1.0550001 -0.6380431652 0.1340122819 -0.7582490444
-0.19979233 -0.10221934 1.0600001 0.5693779588 -0.1909504235 -0.7995916009
-0.10158638 0.14381891 1.302 0.8795771599 0.3249287605 -0.3475131094
-0.23424263 0.025406534 1.0322818 0.1496411413 -0.01874047332 -0.9885627627
-0.39204618 0.19210307 1.118 -0.314815104 0.6294173002 -0.7104402184
-0.19604896 -0.029079033 1.0700001 0.2183529735 -0.491691947 -0.8429477811
-0.21405338 0.26843828 1.193 0.1771414876 0.8506620526 -0.4949696064
-0.1871635 0.2724829 1.2165002 0.3686242104 0.7997044325 -0.4739082456
-0.26537433 -0.054409213 1.0833213 0.09026210755 -0.4056750238 -0.9095496535
-0.1783025 0.19334456 1.1068751 0.7449219227 0.5223497748 -0.4150205553
-0.29438058 -0.0047857906 1.0428464 0.02546442673 -0.5359784961 -0.8438475132
-0.11756217 0.094533004 1.1763334 0.8226927519 0.484788537 -0.2969120443
-0.14373651 -0.030519396 1.123 0.04101422429 0.4561814368 -0.8889411092
-0.32406071 0.29079384 1.2240001 -0.07177137583 0.8689380288 -0.4896892607
-0.15736954 0.24481905 1.2164286 0.8109005094 0.4661644399 -0.3537387252
-0.24526754 -0.016664511 1.0617501 -0.007306955755 -0.6558225751 -0.7548797131
-0.2055082 0.11795972 1.0512002 0.1694971025 0.4107280076 -0.8958644867
-0.11060026 0.1222424 1.3280001 -0.6915255785 0.1875991076 -0.6975664496
-0.13895583 0.091987103 1.11625 0.9353210926 0.334553659 -0.1151013374
-0.32480529 0.24812472 1.1663333 -0.1415514946 0.8121337891 -0.5660405159
-0.18388434 0.23782827 1.1610001 0.4648945332 0.7338244915 -0.4953530729
-0.23503442 0.18392824 1.0737 0.04128095508 0.7702877522 -0.6363589168
-0.078693986 0.21671112 1.381 -0.7856940627 0.5884155035 -0.190924108
-0.36535978 -0.01551748 1.0521821 -0.3491102159 -0.5630542636 -0.7490606904
-0.38557404 0.14579383 1.0729229 -0.6409504414 0.3418699801 -0.687246263
-0.21250488 -0.071470253 1.087 -0.4354282618 -0.4425090849 -0.7839565873
-0.16748959 0.096601874 1.057 0.7420918941 -0.1931458563 -0.6418678761
-0.18528445 0.0045843516 1.0463004 0.305896759 -0.4262047112 -0.8513382077
-0.11847404 -0.021979349 1.223 -0.06133857369 0.598502636 -0.798769176
-0.28494123 0.16748464 1.0633334 -0.1333476901 0.7662670016 -0.6285326481
-0.10275234 0.081782475 1.2880001 -0.3883302808 0.5628716946 -0.7296403646
-0.16773045 0.2963199 1.2755001 0.4995934963 0.8291551471 -0.2508148849
-0.29470471 0.19487505 1.095 -0.09733070433 0.7204229832 -0.6866713166
-0.34498885 0.024422182 1.0376924 -0.03309876099 0.1365759522 -0.9900764823
-0.21336038 0.22153941 1.126 0.07962331921 0.7786827087 -0.6223450899
-0.14452901 0.02748087 1.161 -0.5413950086 0.3975557983 -0.7408379316
-0.31500164 0.1058272 1.043348 -0.1025553942 0.04951484501 -0.993494153
-0.13451354 0.14711565 1.25 0.8382157087 0.1614518464 -0.5208913088
-0.19634074 0.062832378 1.0470001 0.2068923563 0.1213153824 -0.9708131552
-0.37612814 0.29144126 1.2545 -0.2828141749 0.8819774389 -0.3770038784
-0.23521665 0.07570193 1.028 0.1821029186 -0.2651436031 -0.9468566179
-0.32452142 -0.073052563 1.0865384 0.2977349758 -0.5229082704 -0.7986994386
-0.15875925 0.14236873 1.087 0.7302480936 0.4457512498 -0.5177292228
-0.25461906 0.16819726 1.0600001 -0.01415745076 0.7408536077 -0.6715173125
-0.12564825 0.19026735 1.365 -0.3237720132 0.9331794381 -0.1560379118
-0.39195287 -0.063590378 1.1236666 -0.4745475352 0.2462128699 -0.8450940251
-0.34518427 0.17307004 1.0847 -0.2418604791 0.7414230108 -0.6259356141
-0.31531715 0.21719867 1.1248751 -0.1599455327 0.7745560408 -0.6119480133
-0.25650457 0.20679624 1.101 0.02695370838 0.7277544737 -0.68530792
-0.26576805 0.30069447 1.245 -0.01753912494 0.9029662609 -0.4293533564
-0.1639716 0.17654084 1.2103078 0.8250374198 0.05790742859 -0.5621031523
-0.13005877 0.041129693 1.268 -0.4595318437 0.6921002269 -0.5566217899
-0.18634513 -0.086519107 1.0845001 0.916883409 -0.2663361132 -0.2973043919
-0.33266255 -0.069497749 1.057 -0.377555728 0.3668172956 -0.8502333164
-0.16074941 0.14584023 1.2143334 0.9215320349 0.3513606191 -0.1653009951
-0.25735602 0.047455721 1.041 0.05498179421 0.09812031686 -0.9936545491
-0.22524579 0.13667129 1.0352002 0.4085104465 -0.08722117543 -0.9085767269
-0.22139429 -0.088251404 1.0450001 0.4882006049 -0.1806243807 -0.8538354635
-0.16266301 0.012421012 1.0602729 0.6985437274 -0.4217921495 -0.5780380964
-0.15833259 0.042680956 1.0470001 0.4982540011 0.05509357527 -0.8652789593
-0.31474942 0.052688725 1.0428948 -0.06255244464 -0.3626258969 -0.9298331141
-0.1229148 0.19847266 1.2863334 0.9375662208 0.1045518741 -0.3317204714
-0.19549088 0.29312983 1.243 0.3260549307 0.8117789626 -0.4844616354
-0.19757152 0.14800653 1.0470001 0.5474483967 0.05093545839 -0.835287869
-0.13517061 -0.060878363 1.177 0.1587853879 0.8279392719 -0.5378696322
-0.27480409 0.12749036 1.02775 0.01568667591 -0.2900618911 -0.9568793178
-0.32084334 -0.1131838 1.067 -0.5964057446 -0.4189444184 -0.6846792698
-0.37763292 0.26837397 1.21 -0.2267629057 0.8243836761 -0.5186233521
-0.14079705 0.21938145 1.245 0.9244113564 0.09625161439 -0.3690518141
-0.11220895 0.0032059699 1.2190001 -0.2961866856 0.5353220105 -0.7910144329
-0.12067755 -0.03672795 1.197 0.1172636971 0.7294360399 -0.6739230752
-0.37432 0.2277565 1.1537273 -0.1040094942 0.7775110006 -0.620208621
-0.38363281 0.25182775 1.1870002 -0.1854844987 0.8058401346 -0.5623319149
-0.21538639 0.30396849 1.255125 0.1023919955 0.9101499915 -0.4014260769
-0.33965135 0.20969778 1.123 -0.2386095524 0.7369419932 -0.6324412823
-0.29497552 0.2801739 1.2060001 -0.01261746883 0.8418049216 -0.5396344066
-0.13352071 0.013461216 1.245 -0.3525668979 0.6082382202 -0.7111560106
-0.1144973 0.16710933 1.3464288 -0.4764047563 0.6841568947 -0.5522389412
-0.15418386 0.2249926 1.1952858 0.9197285175 0.232073307 -0.316609323
-0.1413625 0.17862083 1.25 0.9286681414 0.05281809345 -0.3671317995
-0.31533051 -0.022883879 1.0561429 0.1078611538 -0.6406015754 -0.7602602243
-0.24428011 0.29598883 1.2334547 0.1001854539 0.8692644238 -0.4840891063
-0.24468789 -0.064088814 1.0935769 0.00971196685 -0.4862744212 -0.8737521768
-0.13668235 0.054161217 1.0731429 0.8851536512 0.04314505309 -0.463294208
-0.1583523 -0.081131116 1.115 0.5412940979 -0.5596683025 -0.6275125742
-0.23496298 0.24626483 1.162091 0.02001178823 0.8407666683 -0.5410276651
-0.16145045 0.25897083 1.2360001 0.6423928738 0.5453744531 -0.5384218097
-0.2148342 0.095179699 1.0340003 0.1934173852 0.1901509762 -0.962513566
-0.3244485 0.15251324 1.0552 -0.1782806665 0.6694435477 -0.7211527824
-0.20554334 0.25421572 1.1754616 0.242285952 0.8212008476 -0.5166494846
-0.16200624 0.19947235 1.155 0.825019598 0.4314666688 -0.364937216
-0.30506909 0.12492675 1.0326002 -0.1858628392 -0.06147229671 -0.9806509018
-0.41034573 0.24205205 1.1850001 -0.2565497756 0.7836537361 -0.5657464266
-0.20453526 0.015812811 1.0378096 0.0005646183272 -0.1927032471 -0.9812569022
-0.11247633 0.13159731 1.2830001 0.9224224687 0.1082291082 -0.3707063496
-0.15168963 -0.026519166 1.21 0.1496671587 0.7094287872 -0.6887021065
-0.20488489 -0.050041009 1.077 -0.1635469198 -0.2391799688 -0.9571025968
-0.37471664 0.16396156 1.0837824 -0.2751184106 0.7028090954 -0.6560252905
-0.33769751 0.081495427 1.028 -0.04430778325 0.3456566334 -0.9373143911
-0.15110928 0.13117126 1.197 0.7778509855 0.6206684709 -0.09858267754
-0.37036189 0.071888417 1.0380001 -0.5136258006 -0.1226806417 -0.8491984606
-0.26414669 0.27288327 1.1956667 0.03706843778 0.8442491889 -0.5346674323
-0.25598851 0.096309543 1.031 -0.04378891736 0.4046665132 -0.9134153128
-0.35728374 0.19838265 1.1120001 -0.2211087346 0.7551761866 -0.6171060801
-0.29716632 -0.091361813 1.097 0.07801385224 -0.4977149665 -0.8638250232
-0.17168289 -0.0079408465 1.132 -0.08643135428 0.6083382368 -0.7889576554
-0.14313337 -0.0071566678 1.126 -0.1121197343 0.4947372377 -0.8617796898
-0.25539875 -0.12358283 1.0441998 0.06156456843 -0.4459967017 -0.892914772
-0.26751134 0.23000051 1.126 0.01209225506 0.8130132556 -0.5821196437
-0.26537079 -0.075067781 1.0942813 0.05910935998 -0.3573791087 -0.9320870638
-0.37409601 0.10271184 1.0555001 -0.4290213883 0.3437644839 -0.8353242874
-0.1751848 0.074616261 1.0557142 0.4096575379 0.2455724329 -0.8785641193
-0.11570877 0.09592557 1.312 -0.4741095304 0.5425851345 -0.6934129596
-0.41949376 0.10415676 1.09 -0.7291433811 0.3298844695 -0.5996049643
-0.25595486 -0.034558117 1.075909 -0.0449231565 -0.5317760706 -0.8456926942
-0.29457417 0.085160397 1.0273333 -0.05870395526 0.1905705482 -0.9799166918
-0.3900632 0.063607424 1.067 -0.6926247478 -0.1518329531 -0.7051366568
-0.25393373 0.12206158 1.041 0.1194092482 -0.2991070449 -0.9467187524
-0.2938236 -0.046140723 1.08 0.1878707707 -0.4734327793 -0.8605614305
-0.38480312 0.034596372 1.0533848 -0.4310744703 0.290053606 -0.8544259667
-0.29441711 0.25313136 1.169 -0.04421580955 0.8281578422 -0.5587481856
-0.33966449 0.1095395 1.0500001 -0.2235532701 -0.09426975995 -0.9701222181
-0.33732378 0.27898163 1.21 -0.1243895739 0.8242824078 -0.5523456335
-0.23573919 0.27586681 1.2045001 0.06129358336 0.8526521921 -0.5188712478
-0.35447857 -0.0017372346 1.0380001 -0.14348647 -0.3340136707 -0.9315828085
-0.12902398 0.1120044 1.1650001 0.7950239182 0.5212254524 -0.3102594912
-0.275662 -0.012813866 1.055737 0.116896987 -0.6919682026 -0.7124009728
-0.31497213 0.0043196878 1.0410001 -0.03904985264 -0.3252286315 -0.9448288083
-0.11010057 0.16109452 1.322 -0.5256918669 0.5060793161 -0.6837629676
-0.16452086 -0.044327151 1.1120002 0.3120795488 0.3800687194 -0.8707204461
-0.15706763 0.12443457 1.0739167 0.8409465551 0.3200362325 -0.4363321066
-0.29442465 0.22657323 1.1321818 -0.1374942064 0.7652336359 -0.6288981438
-0.23406166 0.002842007 1.0425 0.1266966015 -0.5372108817 -0.8338779211
-0.21606041 0.03490733 1.041 0.07483461499 0.1191003919 -0.9900580049
-0.2355646 0.19624431 1.096077 0.1335810721 0.7889330387 -0.5997838974
-0.22509454 -0.025049148 1.0646666 -0.1094051749 -0.4979498982 -0.8602769375
-0.32122397 -0.092465892 1.0964 0.2794216275 -0.4776721597 -0.8329182863
-0.21438524 0.17653261 1.0719047 0.1151341423 0.7349751592 -0.6682482362
-0.39233023 0.0069221603 1.053 -0.6060885787 -0.2509859204 -0.7547600269
-0.24123323 -0.098257683 1.041 0.388428539 -0.2413426936 -0.8893126249
-0.15466873 0.085815467 1.0718799 0.6101834774 0.3503832221 -0.7105686069
-0.29456919 0.015489489 1.0346156 -0.07061861455 -0.1744634658 -0.9821280241
-0.22519112 0.20959346 1.1120001 0.09135815501 0.7373007536 -0.6693589091
-0.32431611 0.18074031 1.087 -0.2342653126 0.7395895123 -0.6309731603
-0.15259148 0.22635171 1.2270001 0.8967552781 0.1690444797 -0.4089669585
-0.17750396 0.15012303 1.077 0.6990282536 0.2838641405 -0.6563388109
-0.13995545 0.11485999 1.1010001 0.9425372481 0.2707263827 -0.1957823187
-0.088226855 0.12603837 1.307 0.991181314 -0.07354586571 0.1102298573
-0.29521048 0.18096592 1.077 -0.1110759676 0.7266863585 -0.6779299974
-0.17852572 0.11243907 1.0470001 0.411790967 0.3720131814 -0.8318860531
-0.36472043 0.034126885 1.0452002 -0.3109713793 0.2715750039 -0.9107929468
-0.19545557 -0.014239943 1.0542397 0.1233408079 -0.5650295019 -0.8157994151
-0.29802051 -0.095516644 1.0343333 -0.3811861277 -0.3649308085 -0.8494248986
-0.12873851 0.072681509 1.1153334 0.8836541772 0.3942468762 -0.2524374127
-0.28439495 0.066249974 1.0278695 0.03162492439 -0.3286075592 -0.943936944
-0.23541519 0.23430647 1.1443334 0.02470039017 0.8179002404 -0.5748295784
-0.14458776 0.26158243 1.2590001 0.8663650155 0.3805002272 -0.3234675229
-0.27444282 0.025405878 1.033839 -0.02656234615 0.01055246312 -0.9995914698
-0.35509068 0.12493025 1.0421741 -0.3602962494 0.00255913008 -0.9328344464
-0.26466238 0.25406957 1.1664544 0.0407339558 0.8338057995 -0.5505530238
-0.20374434 0.20894356 1.1120001 0.1289124489 0.7554163337 -0.6424388885
-0.27531388 0.15501338 1.0448892 -0.0727218017 0.6794064641 -0.7301495671
-0.16832724 0.26314616 1.21525 0.6110962033 0.6817283034 -0.4022535086
-0.35163364 -0.09052898 1.087 -0.5761188865 0.6626809835 -0.4784777462
-0.10791898 0.036347333 1.2561666 -0.2614279985 0.6477662921 -0.7155796885
-0.17537084 0.054893639 1.0465866 0.2255271673 0.306945622 -0.9246198535
-0.17082463 0.21833208 1.153 0.769620955 0.4922190905 -0.4066987932
-0.2648375 0.30916175 1.2640001 0.02466673404 0.9243740439 -0.3806890845
-0.11908815 0.077997029 1.302 -0.4421721995 0.5571056604 -0.7029345632
-0.17983852 -0.035583027 1.097 0.888694346 0.09003396332 -0.449573338
-0.096193127 0.14255126 1.322 -0.7712287307 0.07528906316 -0.6320900321
-0.1148675 0.065318741 1.2845626 -0.4254334271 0.5807275176 -0.694090724
-0.39841971 0.13481705 1.0928572 -0.7330572009 0.2283721119 -0.6406819224
-0.14640896 0.18535025 1.2241429 0.8950403929 0.04369859397 -0.4438390434
-0.38669544 0.12429623 1.0732223 -0.7314241529 0.1900704354 -0.6548984051
-0.21410875 0.071673639 1.0415 0.2990911305 -0.3588989079 -0.8841583729
-0.13779113 0.075071827 1.084 0.8918673396 0.2804672122 -0.3548391759
-0.1735567 0.19491379 1.1368573 0.7990527749 0.4517606199 -0.3967707157
-0.31504768 0.27898163 1.21 -0.04092970118 0.8257735968 -0.5625146627
-0.27553517 -0.12404903 1.0454117 -0.2299200296 -0.4654209614 -0.8547046781
-0.36369997 -0.068133034 1.1079999 -0.3844417632 0.1602860242 -0.9091275334
-0.31729636 0.24074231 1.149 -0.1176032722 0.7882562876 -0.6040045619
-0.1260746 -0.0018006731 1.2326669 -0.2869853973 0.5036489367 -0.8148478866
-0.34419388 0.18782988 1.1010001 -0.177874133 0.6852937341 -0.7062105536
-0.17493661 -0.074920937 1.1055498 0.6162442565 -0.4574220181 -0.6410991549
-0.33234522 0.25987118 1.1810001 -0.1245252416 0.7866879702 -0.6046615243
-0.19525982 0.26169366 1.1947143 0.3258126974 0.8220623136 -0.466968596
-0.30306014 0.21078223 1.108 -0.1519598812 0.7624863982 -0.628905952
-0.24379307 0.062172476 1.0415454 0.1136615276 -0.3797363937 -0.9180856943
-0.14563537 0.26556692 1.396 -0.610740304 0.07291939855 -0.7884662747
-0.14827397 0.27281603 1.2418001 0.7039840817 0.4941835403 -0.5100872517
-0.33465105 -0.055610351 1.0712142 0.3499131799 0.05881501734 -0.9349339604
-0.3335892 -0.03057901 1.057 0.07758381963 -0.6284809113 -0.7739460468
-0.25466436 0.025117235 1.0324063 -0.001896574511 0.008521642536 -0.9999619126
-0.15772855 0.1685738 1.1245 0.7009490132 0.5450555682 -0.4599836469
-0.38491914 -0.045167282 1.1255001 -0.4583277702 0.2576654851 -0.8506140113
-0.27508801 0.20204011 1.0964 -0.06980273128 0.721698463 -0.6886790991
-0.10756249 0.19507687 1.3920001 -0.614035964 0.6952596307 -0.3735958636
-0.30486348 0.16030814 1.057 -0.1806911975 0.711283803 -0.6792834401
-0.39183581 0.22059651 1.149 -0.2540310621 0.7320340872 -0.6321347356
-0.27579933 0.27898163 1.21 0.02086455002 0.8545113802 -0.5190134048
-0.1783566 0.17797437 1.095 0.8295027614 0.4308418036 -0.3553878665
-0.27607167 0.091022544 1.028 -0.02407936007 0.3357159793 -0.941655457
-0.16656278 0.025190266 1.0458573 0.5223212838 -0.2458962649 -0.8165264726
-0.087307058 0.18655661 1.335 -0.5225107074 0.4919418693 -0.6964020133
-0.087514125 0.20222859 1.3490001 0.2530834675 0.6056966186 -0.7543741465
-0.17166059 0.23579128 1.1756668 0.7102982998 0.5548440814 -0.4331563115
-0.13103624 0.09802711 1.141 0.8164521456 0.4516401291 -0.3597597182
-0.38615283 0.17643104 1.1049999 -0.3028092384 0.6718469262 -0.6759647131
-0.25369734 -0.093285225 1.097 0.130753085 -0.2279390991 -0.9648561478
-0.15660159 0.11212303 1.057 0.8359068036 -0.006187154911 -0.5488365293
-0.35444266 0.22413456 1.1434001 -0.2062586993 0.740837276 -0.6392319798
-0.31485042 0.13871673 1.0410001 -0.1602134705 0.4685662985 -0.8687791824
-0.20579083 -0.084831692 1.0550357 0.5820487142 -0.120367609 -0.8041958213
-0.15147047 0.0306658 1.0600001 0.7199659348 -0.3326701522 -0.6090809703
-0.22462839 0.25552896 1.1747779 0.03024852462 0.8230571747 -0.5671525002
-0.39407539 0.20541437 1.1346666 -0.3004582524 0.6851909161 -0.6635045409
-0.13869537 0.023397064 1.1436667 -0.2015905976 0.5701739788 -0.7964062095
-0.2790772 0.23706557 1.141 -0.0562231876 0.8288940787 -0.5565730929
-0.37135512 -0.025255891 1.067 -0.4070262611 -0.6168471575 -0.6736684442
-0.19564757 0.23187695 1.1478573 0.333088845 0.7743605375 -0.5379754901
-0.18641819 -0.044572964 1.0734999 0.6972357631 -0.1450628191 -0.7020107508
-0.14034469 0.20126952 1.2410001 0.9378849864 -0.005593565293 -0.346901238
-0.20458078 0.16298509 1.057 0.194157958 0.661688149 -0.7242040038
-0.30314904 0.060919039 1.031 -0.02269995958 -0.4498202503 -0.8928306103
-0.40367413 0.17786655 1.1160001 -0.3191218078 0.6494643092 -0.6901864409
-0.20503989 0.27605361 1.2134376 0.2423376143 0.813346684 -0.5289041996
-0.33396271 0.004871069 1.0380001 0.04224320874 -0.1489520967 -0.9879416823
-0.39592576 0.045403618 1.0634 -0.5590153933 0.2732669711 -0.7828326225
-0.19439851 0.13642247 1.0610001 0.6005747914 0.06740996987 -0.7967219353
-0.11487839 0.17530923 1.365 -0.1544088721 0.9626213312 -0.2225264758
-0.19535816 0.19310625 1.0945883 0.2697266638 0.7443693876 -0.6108697057
-0.28456843 -0.10611167 1.0410002 -0.2856874764 -0.4459713399 -0.8482288718
-0.16885506 0.18192089 1.1176667 0.8156592846 0.4186116159 -0.3993297815
-0.33523446 0.044882711 1.0448003 -0.02341785841 -0.06694145501 -0.9974820614
-0.34182021 0.24038988 1.1570001 -0.2645352185 0.775256753 -0.5735835433
-0.13642134 0.2463814 1.2651428 0.9286780357 0.2521566153 -0.2719819248
-0.14557314 0.14584205 1.2255001 0.8021438122 0.2490885109 -0.5426971316
-0.30646163 0.25987118 1.1810001 -0.06288674474 0.8116286993 -0.5807788968
-0.29437929 -0.022122877 1.0563333 0.1438248307 -0.6683046818 -0.7298515439
-0.18416429 0.27859414 1.2333335 0.403706789 0.7619928122 -0.506347537
-0.283777 0.30014876 1.245 -0.0469096601 0.8994235992 -0.4345534146
-0.2372786 0.14875543 1.041 0.08468606323 0.549146831 -0.8314241171
-0.18606248 0.1553891 1.0620527 0.7949905396 0.08745252341 -0.6002850533
-0.40110949 -0.053414132 1.1353334 -0.4627496004 0.2439064234 -0.8522748947
-0.33431315 0.16182478 1.067 -0.2127891481 0.6969308853 -0.6848416924
-0.13471736 -0.032353383 1.21 0.1548291445 0.7050068974 -0.6920933723
-0.3644039 0.25406042 1.1850001 -0.172991991 0.7870064974 -0.5921946764
-0.23540637 0.093583874 1.028 0.07713340968 0.2139263004 -0.9737997651
-0.23424686 0.043061186 1.0352225 0.09622966498 0.2014516592 -0.9747599959
-0.18926327 -0.088239707 1.067 0.8041790724 -0.1571256518 -0.573243022
-0.2256356 0.29540285 1.2434001 0.07542681694 0.8940314651 -0.4416089952
-0.084962152 0.20941375 1.365 -0.9009025693 0.4209314287 -0.1057891995
-0.1946789 0.10756804 1.0416 0.1663800627 0.4611624181 -0.8715772629
-0.14452901 -0.060050789 1.161 0.9828417897 0.01771396771 -0.1835979521
-0.37218183 0.28074986 1.2270001 -0.2892102897 0.8432996869 -0.4529933929
-0.15815257 0.10512095 1.0738333 0.8912973404 0.01916523278 -0.4530140162
-0.2218405 0.1242675 1.0500001 0.3412719369 -0.03961287066 -0.9391295314
-0.27267838 -0.038818799 1.08 0.09089867771 -0.491892159 -0.8658981323
-0.12540263 0.027110785 1.2522308 -0.3495467603 0.6068317294 -0.7138433456
-0.22540814 -0.056985285 1.0813333 -0.2067999393 -0.5366591811 -0.8180652261
-0.26472709 0.10747738 1.0410001 0.00451452611 0.2261601835 -0.9740796685
-0.17884088 -0.010193003 1.057 0.4969799519 -0.5014830828 -0.7081847191
-0.37815982 0.24083348 1.169 -0.1289809495 0.7758632302 -0.6175760031
-0.31450957 -0.061878018 1.0764287 0.3408720195 -0.4827601314 -0.8066900969
-0.14720285 -0.043380968 1.1120001 0.2032815963 0.3256826699 -0.9233674407
-0.3488695 0.1389955 1.0500001 -0.2485568821 0.5807573795 -0.7752034068
-0.39255759 0.28512853 1.2590001 -0.327116698 0.8625957966 -0.385905683
-0.30400604 -0.031491913 1.067 0.104338102 -0.6509650946 -0.7519028783
-0.26414797 0.218587 1.1136668 -0.01407527179 0.7691298723 -0.6389374733
-0.33589834 0.26856574 1.1955001 -0.1245951802 0.7943044305 -0.5946061611
-0.37557971 0.19420734 1.1139334 -0.227339536 0.682495296 -0.694634378
-0.098885082 0.21898842 1.3700002 -0.7624254227 0.6161891818 -0.1975305378
-0.15338731 0.12425041 1.0958334 0.8841902018 0.2497895807 -0.3947313428
-0.12820987 -0.051075477 1.189 0.1798271537 0.8001542091 -0.5722022653
-0.25522351 -0.0041838721 1.0441307 0.05955390632 -0.6986823678 -0.7129490376
-0.30120337 0.040949099 1.0380001 -0.1173095331 0.05569731817 -0.9915322661
-0.3248108 0.093393452 1.0373847 -0.1097762063 0.4214424193 -0.9001863599
-0.21527864 -0.037755843 1.0700001 -0.05229289457 -0.4683637917 -0.8819868565
-0.20472766 0.18558787 1.0826956 0.1838951856 0.774841547 -0.6048166156
-0.26484412 -0.023774447 1.0664287 0.06659597903 -0.6474716663 -0.7591741681
-0.31426153 -0.10308166 1.0552143 -0.5776714683 -0.419452101 -0.7002539635
-0.27522904 0.1784775 1.0715001 -0.09958463907 0.7355408072 -0.6701213717
-0.12426592 0.095885061 1.1562001 0.8309887052 0.4265609384 -0.3570763171
-0.22417535 0.31014013 1.268 0.1012101844 0.9227997661 -0.371748656
-0.40802693 0.11849026 1.09 -0.6513311267 0.4106376171 -0.6380787492
-0.14114334 0.041778427 1.2880001 -0.5536657572 0.644100368 -0.5278152823
-0.35807449 0.0506275 1.0500001 -0.2914763689 -0.2539410889 -0.9222556353
-0.21405305 -0.11026976 1.057 0.501311779 -0.2148809135 -0.838160336
-0.3563391 -0.027125102 1.0602728 -0.1837922335 -0.6115886569 -0.7695321441
-0.24851921 0.18876211 1.082 0.008650918491 0.7941414118 -0.6076714993
-0.38436818 0.075315043 1.0464002 -0.6085342169 -0.1080990285 -0.7861301899
-0.17232053 0.1589426 1.09 0.7768959403 0.4500499368 -0.4403268695
-0.14034469 -0.0010879433 1.2410001 -0.1744342595 0.6665087938 -0.7248025537
-0.16521274 0.24362847 1.1958001 0.7145116329 0.5653271675 -0.4121629596
-0.37342092 -0.0022287371 1.0465715 -0.4242141843 -0.4207272828 -0.8018920422
-0.15562357 0.19479115 1.2050771 0.890791595 -0.149308607 -0.4291821122
-0.33773935 0.30131647 1.2590001 -0.1722130775 0.9261888266 -0.3354353905
-0.25468493 0.23302177 1.138 0.1302316338 0.8324369788 -0.5385985374
-0.23231667 0.16819726 1.0600001 0.06047257781 0.7223864794 -0.6888402104
-0.30771089 0.29055625 1.223 -0.009049672633 0.8584887981 -0.5127524137
-0.20171224 0.042162407 1.0380001 0.06596238166 0.2237012535 -0.9724231362
-0.15443361 0.14960755 1.1010001 0.8027224541 0.4605126679 -0.3788993955
-0.35562113 0.075150639 1.0317501 -0.3155129552 0.1387927681 -0.9387162328
-0.2133541 0.145907 1.0413531 0.3635940552 0.1169083789 -0.9241924882
-0.18668178 0.018190395 1.0375001 0.1981805116 -0.1845710427 -0.9626307487
-0.13876143 0.21190698 1.2270001 0.9257735014 0.08537635952 -0.3683127165
-0.36365008 0.14250086 1.0555 -0.32560727 0.6359324455 -0.6996926665
-0.18835008 0.21091285 1.1190001 0.4715439379 0.7193862796 -0.5100290775
-0.24577348 0.1592465 1.0500001 -0.01140003838 0.7162356377 -0.6977654099
-0.1318647 0.21275648 1.2640001 0.9296819568 0.05806643143 -0.3637578487
-0.32642132 0.064239822 1.031 -0.02068164013 -0.3403886557 -0.9400573373
-0.40484905 0.22504874 1.1615715 -0.2938068807 0.7339681983 -0.6123464108
-0.34554926 0.25209492 1.1766001 -0.2127243876 0.7602811456 -0.6137759686
-0.35826051 -0.093517102 1.1035 -0.3185702264 0.6540357471 -0.6861124039
-0.24039866 -0.03086831 1.067 -0.1115613654 -0.5593517423 -0.8213888407
-0.152043 0.16560704 1.2115386 0.8104488254 0.05657863244 -0.5830708146
-0.18446922 0.24555506 1.1755456 0.4395312071 0.7593499422 -0.4797916412
-0.41479635 0.066515699 1.0905715 -0.7393839359 0.02181558125 -0.6729305387
-0.11944583 0.14245833 1.25 0.834900558 0.2687436938 -0.4803310335
-0.11241847 0.10778266 1.322 -0.549403429 0.4668754935 -0.6929525137
-0.36120421 0.1691353 1.09 -0.2387417853 0.7216539979 -0.6497829556
-0.14813505 -0.073244922 1.1240001 0.7706317306 -0.4956170321 -0.4006126225
-0.17754285 0.095399916 1.0447896 0.6569158435 -0.1612506509 -0.7365187407
-0.17877933 -0.07276684 1.0836 0.9168403745 -0.1842949241 -0.3541738391
-0.209085 -0.0195146 1.0600001 -0.07082455605 -0.5819969773 -0.8101008534
-0.12164363 0.13949959 1.273 0.8077871799 0.4152766764 -0.4183600843
-0.37147698 0.26129314 1.197 -0.2191400826 0.8078668118 -0.5471095443
-0.14872538 0.015753074 1.0747144 0.738515079 -0.4110776782 -0.5344254971
-0.17669055 -0.025015112 1.07265 0.5511780381 -0.5656132698 -0.613420248
-0.37794885 0.13797183 1.061 -0.6247309446 0.3084421754 -0.7173386216
-0.38325161 -0.011875438 1.0623751 -0.4890255034 -0.5116081834 -0.7064779997
-0.22578113 -0.075123355 1.0955218 -0.1534020305 -0.450719595 -0.8793859482
-0.30499953 0.095238432 1.0330771 -0.1481022537 0.4043510854 -0.9025330544
-0.31326106 0.23045638 1.138 -0.1180961058 0.7487263083 -0.6522746086
-0.38672748 0.25816956 1.202 -0.2006913424 0.8347994089 -0.5126723647
-0.38328317 -0.07448639 1.1168462 -0.4079431295 0.1508488357 -0.9004593492
-0.13903846 0.0080022132 1.141 -0.1701551378 0.5485173464 -0.8186427355
-0.32486284 0.11920738 1.0380001 -0.1289802045 -0.1254776418 -0.9836764932
-0.10128656 0.17230357 1.3280001 -0.5216003656 0.5691984892 -0.6355675459
-0.094853804 0.092579722 1.29575 -0.4410541356 0.5509493351 -0.7084674239
-0.26470461 0.28803197 1.2252858 -0.009542080574 0.8432577848 -0.5374246836
-0.17552282 0.29212171 1.2547144 0.3408691287 0.8103793263 -0.4765433967
-0.36415553 0.27398628 1.215 -0.2745950222 0.8099474907 -0.5182496309
-0.18532312 0.12473102 1.0544444 0.3019014597 0.501747489 -0.8106201291
-0.10208258 0.20297813 1.3540001 -0.3809686899 0.6067746282 -0.697629869
-0.39288223 0.1536002 1.086 -0.6253325939 0.3842072487 -0.6792230606
-0.28111631 0.19154027 1.087 -0.08485074341 0.7464764714 -0.6599797606
-0.23992263 0.21078223 1.108 0.1625292003 0.7352924943 -0.6579735279
-0.15012741 0.24949232 1.2320001 0.7976597548 0.3778486848 -0.4700737
-0.14699106 0.045858216 1.0567502 0.6928456426 -0.04479297996 -0.7196933627
-0.12284892 0.19597371 1.3835715 0.8774060011 0.2290671021 -0.4215292931
-0.2475051 -0.11256926 1.0372001 0.2590813339 -0.3119103611 -0.9141054749
-0.27582359 0.057252754 1.0366669 0.06012604386 -0.4106368721 -0.9098144174
-0.21449405 0.23078893 1.138 0.09526120126 0.7914361954 -0.6037831306
-0.11093033 0.15553337 1.3045001 0.7238968015 0.4813923836 -0.4942011535
-0.38936272 0.09943153 1.0600001 -0.4469375014 0.4477167726 -0.7744653225
-0.32762697 0.028290911 1.041 -0.001344454358 0.1155176908 -0.993304491
-0.37910485 0.21906058 1.141 -0.1447554231 0.735447824 -0.6619383693
-0.2239545 0.013932513 1.0410001 0.1402110457 -0.2862325311 -0.9478458762
-0.21187872 0.10776621 1.0417501 0.1440632343 0.4893295467 -0.8601176739
-0.14402728 0.13588303 1.2125 0.7435158491 0.5972840786 -0.3007256389
-0.18385427 0.26378974 1.2042857 0.3690344393 0.7781533599 -0.5082233548
-0.34014228 -0.081075013 1.0630001 -0.832378149 -0.09085970372 -0.5467093587
-0.27680075 -0.087619625 1.101 -0.04666310549 -0.3194741607 -0.9464453459
-0.24996133 0.26878688 1.1930001 0.06059216708 0.8307701945 -0.5533077717
-0.39433432 0.27250746 1.2190001 -0.2366410196 0.8455953002 -0.478507638
-0.33729923 0.19984493 1.1120001 -0.2174105942 0.7185883522 -0.6605781317
-0.11461432 0.045099903 1.2662499 -0.3584182262 0.6662157774 -0.6539823413
-0.35539132 0.10712114 1.0507059 -0.3790971935 0.08962744474 -0.9210060835
-0.1012173 0.12584813 1.317 -0.7105513215 0.1480576396 -0.6878921986
-0.27240488 0.26105466 1.177 0.02497646399 0.8246319294 -0.5651180148
-0.27500579 0.14268567 1.0366668 -0.07694614679 0.4796984196 -0.874053061
-0.39860278 0.068169594 1.08 -0.7590863109 -0.09289836884 -0.6443274617
-0.1589721 -0.00094066333 1.0730001 0.6994001269 -0.4260209799 -0.5738863945
-0.15555046 -0.021658927 1.123 0.01997889392 0.471637398 -0.8815662265
-0.13855717 0.088867702 1.09 0.8722028732 0.3581531346 -0.3331493139
-0.36655071 0.085891493 1.0412728 -0.3675900698 0.371055156 -0.8527576327
-0.11575507 0.012441654 1.2340001 -0.3588113189 0.5752463341 -0.7350823879
-0.28462738 0.2461687 1.1545999 -0.02870422415 0.833883822 -0.5511931181
-0.40263155 0.094192572 1.06375 -0.546228826 0.4284565151 -0.7197632194
-0.17739017 0.20343664 1.1253999 0.7392249703 0.5448994637 -0.3957663178
-0.18938719 0.079242773 1.0470001 0.4872668684 -0.3077963293 -0.8172101378
-0.27526268 -0.0037963411 1.0441431 0.0386903584 -0.6603870988 -0.749927938
-0.14200772 0.034110222 1.2755001 -0.5253651142 0.6654537916 -0.5302478671
-0.31505933 -0.011623942 1.0467499 0.01156455744 -0.5301429033 -0.8478294611
-0.2605015 0.1592465 1.0500001 0.01162581425 0.7050860524 -0.7090263963
