# .PCD v0.7 - Point Cloud Data file format
VERSION 0.7
FIELDS x y z normal_x normal_y normal_z
SIZE 4 4 4 4 4 4
TYPE F F F F F F
COUNT 1 1 1 1 1 1
WIDTH 512
HEIGHT 1
VIEWPOINT 0 0 0 1 0 0 0
POINTS 512
DATA ascii
-0.34007564 -0.078764118 1.057 -0.3903680146 0.3336756527 -0.8580637574
-0.17240965 -0.33989331 1.8730001 0.9903934002 -0.1246546879 0.05985129997
-0.059323158 0.076272629 1.381 -0.7588856816 0.6468894482 0.07501082867
-0.39569402 0.11721691 1.3045001 -0.4461392164 0.8112635612 -0.3779037893
-0.088898383 -0.17152157 1.1930001 -0.2277260423 0.727632761 -0.6470636725
-0.18479241 0.083724469 1.1646 0.472292006 0.7329164147 -0.4896670282
-0.22579601 -0.27168953 1.0470001 0.1859275401 -0.2935797274 -0.9376789927
-0.37096238 -0.23248324 1.153 -0.6194256544 0.09253593534 -0.7795825601
-0.1545586 -0.065172501 1.0620832 0.314457953 0.5195904374 -0.7944444418
-0.34910882 0.049872689 1.161 -0.3525947332 0.7188906074 -0.599060297
-0.088762499 -0.012054167 1.25 0.5034021735 0.635802269 -0.5850997567
-0.24568057 0.15664674 1.2855 -0.1354896277 0.9013767242 -0.4112938344
-0.25537872 0.016551215 1.0732915 -0.1408018619 0.7336018085 -0.6648331881
-0.13457434 0.10587545 1.2856669 0.8271506429 0.4655685723 -0.3147503436
-0.15595286 -0.18561345 1.0944546 0.628457129 0.4442237318 -0.6385192871
-0.29458103 -0.18626714 1.08 0.0372217223 -0.5030272007 -0.8634687066
-0.14200246 -0.019271763 1.1570001 0.7395928502 0.6333062649 -0.2278718203
-0.1170041 -0.10223576 1.2957501 -0.7859597206 0.4537903965 -0.4199304879
-0.32427636 0.1162013 1.233 -0.2352768928 0.8476237059 -0.4755825996
-0.40116617 -0.018455587 1.108 -0.6768683195 0.3352920711 -0.6553079486
-0.24484023 -0.10519386 1.0526001 -0.01671964303 0.1784780622 -0.9838018417
-0.42243236 0.064329803 1.223 -0.4572266042 0.7270635962 -0.5121741891
-0.40635341 -0.13319898 1.1010001 -0.5305908322 0.3334213793 -0.7792968154
-0.10007589 -0.024724631 1.3430001 -0.8307047486 0.4084607959 -0.3782716095
-0.27097765 -0.26572526 1.1240001 0.06823842973 -0.526917696 -0.8471724987
-0.14077339 -0.11764428 1.1470001 -0.05054853857 0.6518050432 -0.7567000985
-0.26495275 0.06793455 1.1414444 -0.09488768131 0.7945643663 -0.5997197628
-0.14736679 0.045536697 1.2270001 0.8690546751 0.04075984284 -0.4930341244
-0.24541171 0.11632866 1.2128999 -0.1546307504 0.8405898213 -0.5191320181
-0.1842166 0.023809139 1.1051428 0.7206696272 0.5087417364 -0.470974654
-0.33178765 0.010578737 1.097 -0.2899533808 0.7027102113 -0.6497117877
-0.12081694 0.048092179 1.3380001 -0.3621539474 0.9006874561 -0.2400138676
-0.22478551 -0.2131438 1.097 -0.1144199893 -0.4164692163 -0.9019209743
-0.17867869 -0.13431497 1.0470001 0.2851902544 -0.2478715926 -0.9258651137
-0.1853966 0.13414052 1.244 0.3181690872 0.8103888631 -0.4919739068
-0.22579603 -0.038856499 1.0470001 -0.03105774522 0.5351772904 -0.844168663
-0.085193157 -0.11764385 1.2340002 -0.5152154565 0.5687147975 -0.6411836743
-0.34489191 -0.14465044 1.0656666 -0.3513889015 0.05206275359 -0.9347808957
-0.32439998 0.13891777 1.2953334 -0.2384088486 0.9270787239 -0.2892856896
-0.28805679 -0.25751168 1.0604286 -0.6100943685 -0.2595126927 -0.7486240864
-0.28891426 -0.041273467 1.0700001 -0.1634173691 -0.1263712049 -0.9784299135
-0.18592837 -0.21554351 1.0458001 0.5115305185 0.07600801438 -0.855896771
-0.11571237 -0.20370895 1.1446924 0.09283118695 0.9542242289 -0.2843211889
-0.1178278 -0.065290332 1.1190001 0.7737890482 0.484475106 -0.4080862701
-0.068610564 -0.059612457 1.2830001 -0.495456934 0.5486620069 -0.6734184623
-0.06811963 0.025400538 1.317 -0.05684156716 0.4407508671 -0.895827949
-0.41030368 0.031878229 1.1730001 -0.3383064866 0.7456392646 -0.574082613
-0.30646163 0.088004179 1.1810001 -0.2357623577 0.8219348788 -0.5184970498
-0.39229226 -0.076870225 1.087 -0.4881491959 0.4097889066 -0.7705734372
-0.12436218 0.0280095 1.2780001 0.9132599831 0.3672439158 -0.1763181984
-0.1671444 0.15274192 1.2970001 0.5065558553 0.8516383171 -0.1345857084
-0.38478652 0.097293936 1.2516667 -0.3919921815 0.805275321 -0.4448300898
-0.2352336 -0.16552576 1.0679286 -0.01590286754 -0.641097486 -0.7672946453
-0.13015607 -0.15812349 1.2270001 -0.4533750117 0.694983542 -0.5580761433
-0.10493495 -0.037302461 1.1930001 0.8250671625 0.4980230331 -0.266903013
-0.11104912 0.06223632 1.3920001 0.7454850078 0.5435365438 -0.3857721984
-0.29482585 -0.12476847 1.0542402 -0.2128246576 0.1708513647 -0.9620371461
-0.15341641 -0.024363915 1.104923 0.8470886946 0.4089287221 -0.3394378424
-0.16363338 0.095515996 1.2120554 0.7094289064 0.5207785964 -0.4748687744
-0.2147059 0.063258313 1.1249287 -0.03561839461 0.8166418672 -0.5760445595
-0.36366832 0.082834482 1.2052001 -0.3579971492 0.7342787981 -0.5767778754
-0.31227216 -0.23662083 1.1016668 0.01866922155 -0.6708817482 -0.7413293123
-0.15823132 0.039557829 1.1570001 0.71168226 0.5870737433 -0.3858144879
-0.13774556 -0.11331354 1.0718 0.8138347268 -0.1823456734 -0.5517454743
-0.36488646 -0.035116639 1.0758235 -0.5110356212 0.123721607 -0.8506089449
-0.1583523 -0.23166355 1.115 0.602484107 -0.5297301412 -0.5969914794
-0.13456067 -0.0032230651 1.2255001 0.5916062593 0.7306464314 -0.3408193588
-0.20755729 0.0050096018 1.0635 0.5307270288 0.1030003056 -0.8412608504
-0.28407368 0.13535972 1.2552859 -0.1540049165 0.918669343 -0.3637707233
-0.12563212 -0.15545422 1.1190002 -0.08616539091 0.4984637797 -0.8626177311
-0.37342194 0.014453955 1.1368002 -0.3322818279 0.7062422633 -0.6251484752
-0.34344012 -0.19172768 1.0816 -0.2594918311 -0.4811063111 -0.8373773098
-0.30455676 0.045106422 1.1242857 -0.2301068902 0.7047660947 -0.6710853577
-0.19440486 -0.087748371 1.0470001 -0.1243100464 0.3511204123 -0.9280417562
-0.23081405 0.091922008 1.165 -0.153901577 0.8302482367 -0.535725832
-0.13543682 0.12534697 1.3280001 0.8326171041 0.5223730803 -0.1840519458
-0.07530532 0.065452285 1.3379999 0.545563519 0.5901395679 -0.5950593948
-0.22660869 -0.25211442 1.1190001 0.09375935048 -0.5541024804 -0.8271515369
-0.066410713 -0.022648098 1.3136667 -0.5261741877 0.2941071689 -0.7978982925
-0.17454046 -0.024849387 1.0620768 0.4527880847 0.4421673119 -0.7742551565
-0.10760207 0.066826545 1.2920001 0.9149385691 0.2021550983 -0.3493147194
-0.27579531 -0.075331427 1.045839 -0.03258912638 -0.01049448829 -0.9994137287
-0.33978724 -0.25459278 1.13 -0.5476418138 0.0762462467 -0.8332316279
-0.16028535 0.018858854 1.1950001 0.9169848561 0.2889901102 -0.2749973238
-0.20337439 0.10853659 1.202 0.134816438 0.8410202265 -0.5239365101
-0.26344082 0.042396624 1.1075 -0.1793025881 0.8171011209 -0.5479017496
-0.13463338 0.075710513 1.2540667 0.829867959 0.2671815455 -0.4898297787
-0.32419491 -0.017759912 1.0662727 -0.3600585759 0.5271129012 -0.7697466016
-0.18528301 -0.17347436 1.0665789 0.05851915106 -0.3595998585 -0.9312698245
-0.26448187 -0.014910236 1.0466253 -0.1469537169 0.05600452796 -0.9875566363
-0.26458153 -0.23414648 1.097 0.136355564 -0.3872397542 -0.9118402004
-0.35823494 0.12164363 1.273 -0.3760224581 0.8434314728 -0.3837062716
-0.36657712 -0.10866459 1.0816 -0.4310920835 -0.4305738509 -0.7929475307
-0.12521605 -0.14072955 1.2640001 -0.6826277971 0.6061131954 -0.4082230628
-0.20365195 0.15402806 1.275 0.09465309978 0.915109396 -0.3919381797
-0.12378831 -0.19179662 1.1826001 0.002495353576 0.8486979604 -0.5288718939
-0.088218965 0.010885862 1.2846667 0.7091890574 0.6591103673 -0.2502486408
-0.096928649 0.029916249 1.365 0.7575678229 0.5700739622 -0.3179727197
-0.28570041 0.11465507 1.21375 -0.1201860681 0.8380093575 -0.5322552323
-0.22573826 0.036996748 1.095 -0.1209176928 0.7830033898 -0.6101513505
-0.27335781 -0.16030814 1.057 -0.01413295697 -0.5396725535 -0.8417563438
-0.22527775 0.13660553 1.2426001 -0.06611588597 0.870365262 -0.4879477024
-0.41266656 -0.059046131 1.1163334 -0.7150091529 0.2774604261 -0.6416990161
-0.38231564 -0.15308386 1.0763845 -0.440323621 -0.001306467922 -0.8978381753
-0.29437849 0.013238407 1.0845383 -0.3283206224 0.7145005465 -0.6178143024
-0.15803115 0.06425567 1.1885556 0.8671711087 0.3453678787 -0.3587970436
-0.11589533 0.091557309 1.322 0.8248609304 0.4646538496 -0.3220266998
-0.15644704 -0.22186616 1.0704286 0.8599749207 0.02443097159 -0.5097511411
-0.092175886 -0.085954361 1.2667999 -0.6513264775 0.5019863844 -0.5690197349
-0.26616564 0.095919818 1.1860001 -0.08368673176 0.8392463923 -0.5372727513
-0.14952865 0.11023645 1.245 0.7554712892 0.5122202039 -0.4085261524
-0.25644341 -0.24914253 1.041 -0.2818033695 -0.3076898754 -0.9087979794
-0.39285272 0.061809383 1.1950001 -0.3952910602 0.7267740965 -0.5617334247
-0.1136759 -0.043516856 1.1543334 0.688072145 0.6102078557 -0.3926869929
-0.25470358 -0.19483128 1.0840999 0.1493067741 -0.3944018483 -0.9067274332
-0.34238085 0.032232549 1.1255 -0.4406575561 0.6480259895 -0.6211950183
-0.18937272 -0.21316457 1.0855 -0.4604847431 -0.4312953949 -0.7758466601
-0.31264719 -0.16067877 1.057 -0.04491078854 -0.3369159997 -0.9404630065
-0.32924971 -0.11162597 1.0700001 -0.2600363791 -0.250270009 -0.9326017499
-0.21524636 -0.12518993 1.0441155 -0.05441971868 -0.05095276237 -0.9972172976
-0.36414382 -0.0048384485 1.1047142 -0.4495955706 0.6510041952 -0.6116023064
-0.31529325 0.064004555 1.1547778 -0.3298434615 0.7441394925 -0.5809127688
-0.1291891 -0.21078223 1.108 0.676283896 -0.4324293733 -0.5963597298
-0.15496324 -0.14650831 1.07195 0.6619204283 -0.4154720008 -0.6238945127
-0.1905435 -0.25129649 1.0500001 0.4499671459 -0.208034277 -0.8684764504
-0.41003278 -0.00099764671 1.138 -0.3209230006 0.7003036141 -0.6376388073
-0.27976537 0.14837758 1.2920001 -0.2264373004 0.9072490335 -0.3544366956
-0.15756768 -0.096988261 1.0470001 0.4407505691 0.02642635442 -0.8972405195
-0.13091263 -0.084089868 1.09 0.8936167955 0.2042034417 -0.3996873796
-0.094440535 -0.1464549 1.2166922 -0.3061250448 0.5480328202 -0.7784262896
-0.30775383 -0.088061176 1.0500001 -0.06736445427 -0.293851167 -0.953474462
-0.093069017 -0.045961332 1.3026251 -0.5754123926 0.5548020601 -0.6009119749
-0.14119154 -0.011504496 1.1930001 0.4951198697 0.8176760674 -0.2937041521
-0.15552944 0.018822033 1.13 0.8819690347 0.3716732562 -0.2898095846
-0.18236361 0.047085766 1.1346668 0.7285539508 0.5310736895 -0.432631284
-0.18999909 -0.050482851 1.0470001 0.3982959986 -0.1887316555 -0.8976305723
-0.23487604 -0.07414259 1.0458624 0.1099525839 -0.2899518311 -0.9507041574
-0.15615219 0.13435219 1.2665454 0.6409765482 0.6316349506 -0.4361036122
-0.35493216 0.10403719 1.2336 -0.3958891332 0.7892796397 -0.4693713784
-0.3792758 0.03670603 1.1630001 -0.3659433126 0.7286427021 -0.5789346099
-0.12988254 0.02292045 1.245 0.8263235688 0.2098737657 -0.5226302743
-0.24521859 -0.14302853 1.0461431 0.03559455648 -0.3587659597 -0.9327486157
-0.10370563 -0.026408181 1.2246001 0.7007956505 0.643902719 -0.3070420027
-0.15385868 -0.14510621 1.1316363 -0.1042410433 0.5536900759 -0.8261725903
-0.39251393 0.081619419 1.2250001 -0.3999502659 0.775367558 -0.4887176752
-0.23487274 -0.0031615521 1.0470001 0.2325645387 0.0856250599 -0.9688044786
-0.30827603 -0.22940584 1.0710001 -0.5034482479 0.4983629286 -0.7058146
-0.38769269 -0.047295291 1.1010001 -0.7007391453 0.1142663285 -0.7042072415
-0.10736607 -0.11357497 1.2651999 -0.7020777464 0.5432817936 -0.4603604674
-0.33636618 0.078128532 1.1830001 -0.3590689898 0.7649587393 -0.5347033143
-0.21149409 -0.19261068 1.077 -0.2799306512 -0.485309422 -0.8283197284
-0.32246429 0.1004397 1.2060001 -0.2409879118 0.7934194207 -0.5589368343
-0.086546995 0.043271914 1.3944 0.6942447424 -0.07835011184 -0.715461731
-0.25573504 -0.043938443 1.0523157 -0.1726935804 0.3482305706 -0.9213644266
-0.1817856 -0.00094679999 1.08 0.4301803112 0.5294445157 -0.7311862707
-0.29478693 -0.010769474 1.0617143 -0.2224316597 0.4851291478 -0.8456795216
-0.36179888 -0.068209633 1.0756668 -0.4069674611 0.502502203 -0.7628033757
-0.25551388 0.13313098 1.2432858 -0.107169874 0.8911885619 -0.4407919347
-0.33471626 -0.045986958 1.0705216 -0.2317313105 -0.1169104353 -0.9657289982
-0.3222872 0.13134308 1.2590001 -0.2367818505 0.9124961495 -0.333594203
-0.14597875 -0.045920722 1.0853683 0.6788355708 0.5106894374 -0.5276159048
-0.14736679 0.075296901 1.2270001 0.9076718688 0.1865809858 -0.3759246767
-0.11328696 0.027844688 1.3053335 0.6260819435 0.7615519762 -0.1675109863
-0.20435515 -0.1537433 1.0561427 -0.07972002774 -0.506477654 -0.8585599065
-0.099517003 0.028101113 1.3355 0.1099214405 0.9025310278 -0.4163592756
-0.17846566 0.12075821 1.2190001 0.495506376 0.7580281496 -0.4241070449
-0.13506277 -0.035448115 1.1337779 0.7470760345 0.5651807189 -0.3499259055
-0.10988227 -0.13164115 1.2410001 -0.6118322611 0.6022871137 -0.5127490163
-0.19426933 0.051481374 1.108 0.4221949875 0.6850726008 -0.5936555266
-0.345999 -0.22662741 1.1346667 -0.6194256544 0.09253593534 -0.7795825601
-0.28804022 0.078371368 1.161 -0.1571377367 0.8208410144 -0.5491154194
-0.15742287 0.0046036509 1.1050624 0.8535710573 0.3922384381 -0.3428781331
-0.11872083 -0.17663343 1.1010001 0.06495258957 0.4627408683 -0.884110868
-0.16768382 -0.19597721 1.0649232 0.6177116632 0.3075399995 -0.7237758636
-0.11657118 0.054172624 1.2679999 0.8759554625 -0.04343705252 -0.4804323316
-0.11716124 -0.16887932 1.2040001 -0.1316066831 0.7466655374 -0.6520507932
-0.39530918 -0.10729882 1.1044544 -0.6732055545 -0.102384828 -0.7323330045
-0.24508707 0.056513503 1.1248462 -0.1134517789 0.7650921941 -0.6338475347
-0.20566593 -0.02494563 1.0610909 -0.06316953152 0.481875807 -0.8739595413
-0.11527728 0.05384925 1.3650001 0.7406699657 0.5610470772 -0.3696405888
-0.28565532 -0.21182114 1.08675 0.06589712948 -0.3818430007 -0.921875
-0.3630099 -0.096138552 1.057 -0.364492327 -0.1973289251 -0.9100586176
-0.20532873 0.12543847 1.2244285 0.0998057723 0.8431618214 -0.5283151865
-0.11493696 -0.013285006 1.2028 0.530855298 0.8029769659 -0.2709624767
-0.14611228 0.13025513 1.2920001 0.8188688159 0.5249070525 -0.2322207838
-0.34612516 -0.013518473 1.0824374 -0.391634196 0.6273862123 -0.6730595231
-0.3146674 -0.20449813 1.0841248 -0.01361392718 -0.3230786026 -0.9462742209
-0.27521387 -0.10561697 1.0540886 -0.1654050648 -0.08428298682 -0.9826176763
-0.36598203 -0.17869097 1.09 -0.3955464363 -0.4725397825 -0.7875589728
-0.1135108 0.00109145 1.245 0.4687566161 0.6288488507 -0.6203356385
-0.36961758 0.05901457 1.1810001 -0.3601080775 0.7074462175 -0.6081464291
-0.29320791 -0.2549091 1.1079999 -0.08532061428 -0.524297893 -0.8472497463
-0.12031461 -0.02159493 1.1730001 0.6000840068 0.6995036602 -0.3880641758
-0.091211028 -0.01270027 1.317 -0.9070257545 0.1860343516 -0.3777505159
-0.3096036 -0.25468919 1.08 -0.821934998 -0.5695550442 -0.005471497774
-0.0944397 -0.066487707 1.2855 -0.5833966732 0.5192635059 -0.6245107651
-0.21527888 -0.24518822 1.0425456 0.2631139755 -0.1769854277 -0.9483919144
-0.098647267 -0.1937926 1.1746 -0.1052392498 0.8593754768 -0.5003982782
-0.20578979 0.075932972 1.1463335 0.1711537987 0.8215654492 -0.5438166857
-0.080469236 0.08767543 1.3700001 -0.5625821352 0.8241993189 -0.06478286535
-0.15315926 -0.21448384 1.0956154 0.7360890508 -0.3118469119 -0.6007698178
-0.14905612 -0.0088841403 1.126 0.9264853001 0.3230755925 -0.1929953247
-0.16085079 -0.16669993 1.1120001 0.4484882057 0.6257054806 -0.6382405758
-0.27214843 -0.13561529 1.0470001 -0.1895287484 -0.09501905739 -0.9772667289
-0.20752014 -0.2323743 1.101 -0.1626403183 -0.468829304 -0.8681861758
-0.26722926 -0.27185059 1.05475 -0.4472765625 -0.4455620646 -0.7755115032
-0.40459481 0.021824619 1.149 -0.3230680227 0.7012751102 -0.6354842186
-0.38204959 0.11315838 1.2780001 -0.4473339021 0.8106380105 -0.3778338134
-0.23476033 0.1476948 1.2640001 -0.1227574944 0.8925700784 -0.4338770509
-0.3344067 -0.17258191 1.0670002 -0.1716209501 -0.5216392875 -0.83572644
-0.25297442 -0.25151217 1.1120001 0.1826519221 -0.6152341962 -0.7668931484
-0.13744153 -0.084329553 1.0629168 0.7797663808 0.1319235265 -0.6120135188
-0.20640239 0.0293508 1.08 0.195902735 0.7221590281 -0.6634066701
-0.30384812 -0.056899853 1.0563334 -0.1880982816 0.4482481778 -0.8738950491
-0.25486949 0.083374806 1.1644667 -0.0928376317 0.8393040299 -0.5356770754
-0.18163161 0.098659776 1.1930001 0.5514883995 0.6390992999 -0.5361087322
-0.30512688 0.026918927 1.1031666 -0.3012496233 0.6995760202 -0.647952199
-0.1572755 -0.12475899 1.057 0.5486941934 -0.2766134739 -0.7889357805
-0.22530538 0.10392698 1.1867777 -0.02934818901 0.8358421922 -0.5481848121
-0.2163175 -0.1003345 1.0500001 -0.1490637064 0.2004132271 -0.9683049917
-0.12560575 -0.13461384 1.1356844 0.03640915453 0.610874176 -0.7908900976
-0.23513699 0.075939395 1.1459414 -0.1456800103 0.807775557 -0.5712056756
-0.14879948 0.022938641 1.2167501 0.8268315196 0.2471160889 -0.5052556396
-0.20444617 0.095312454 1.1744287 0.1665299535 0.8270538449 -0.5368888974
-0.23499885 -0.23500314 1.1031199 0.0778015703 -0.4378825724 -0.8956593871
-0.15756145 -0.014241362 1.0827 0.8119655848 0.3718464077 -0.4499357343
-0.065310791 0.0011458034 1.307 0.6347932816 0.1528449059 -0.7574139833
-0.30244824 0.12728937 1.2410001 -0.207942307 0.8763052821 -0.4345676899
-0.066022113 -0.03743279 1.2939999 -0.3724311888 0.6194671392 -0.6910538673
-0.34518749 0.11944583 1.25 -0.3301887214 0.8504769802 -0.4094683826
-0.38422108 0.0016349833 1.1190001 -0.291608274 0.7207648754 -0.6288582087
-0.10349313 0.01470696 1.266 0.5685165524 0.6777889729 -0.4662521482
-0.27562752 0.027541686 1.092625 -0.2441778332 0.7663374543 -0.5942255855
-0.2743614 0.0033398909 1.0660477 -0.2521493733 0.6616851091 -0.7061115503
-0.17426315 0.14857331 1.27425 0.266363591 0.8759490252 -0.4021986425
-0.17485109 -0.07506223 1.0531539 0.09641502798 0.493678242 -0.8642835021
-0.12988254 0.046932351 1.245 0.8662477732 0.07817602158 -0.493460536
-0.15692212 0.044614647 1.2050771 0.9328206182 -0.1138641983 -0.3418781459
-0.29297557 0.060856447 1.138 -0.222023949 0.7532928586 -0.6190761328
-0.38700449 -0.12470144 1.09 -0.530548811 0.2613646388 -0.8063538074
-0.36539274 -0.13524482 1.0732962 -0.3866970241 0.2351566851 -0.8917212486
-0.14072955 0.09640529 1.2640001 0.8445785046 0.4191542864 -0.3331618905
-0.22567144 0.018188363 1.0713636 -0.05537793785 0.7396190166 -0.6707436442
-0.21217525 -0.068577245 1.0500001 0.2052204162 -0.2758202255 -0.9390462041
-0.34565213 0.096432023 1.2131667 -0.3344213963 0.7631100416 -0.5530148149
-0.30550146 -0.033299617 1.0550501 -0.08724697679 -0.2974891067 -0.9507303238
-0.32437161 -0.13680083 1.0569999 -0.2254142612 0.1604677737 -0.9609570503
-0.17585316 -0.054886855 1.0652691 0.5169799328 0.05510003865 -0.8542222977
-0.173489 0.057289641 1.1545999 0.7773334384 0.4684079289 -0.4199365675
-0.24347943 -0.025684303 1.0605627 0.1643469632 -0.08414831758 -0.9828067422
-0.1227307 -0.10650185 1.1570001 0.9597662687 -0.2780266404 0.03936884925
-0.26599887 -0.17569458 1.0730799 0.1241808981 -0.6086390615 -0.7836692929
-0.27521053 0.054218952 1.1244284 -0.1622304916 0.7383669615 -0.6545956731
-0.26544833 0.12300228 1.2247778 -0.1083205491 0.8537992835 -0.5092086196
-0.37599862 -0.021791013 1.0913334 -0.4961942732 0.5965543389 -0.6308044195
-0.13277875 -0.055698059 1.1040908 0.8560161591 0.421238929 -0.2996566892
-0.22276101 0.11986663 1.21 0.02440471575 0.8587557673 -0.5118035674
-0.35617897 -0.1659174 1.0708667 -0.3893947005 -0.3931496441 -0.8329496384
-0.079675846 -0.098230496 1.245 -0.5664321184 0.5531264544 -0.6109057665
-0.32615292 0.046470929 1.1331111 -0.3498019278 0.7447521091 -0.5683158636
-0.2957803 0.14004751 1.2780001 -0.2122762203 0.9342827201 -0.2864517272
-0.17606096 -0.23508772 1.0569999 0.5571630001 -0.0890969336 -0.8256095648
-0.26526764 0.14403205 1.2648889 -0.1556933075 0.8859366179 -0.4368934333
-0.3149516 0.0032593843 1.0834999 -0.3020852208 0.7162026167 -0.6291250587
-0.40220588 -0.038258608 1.1190001 -0.7301837802 0.1396506578 -0.6688268781
-0.29421839 0.10156212 1.1943334 -0.2009973377 0.8268203139 -0.5253267884
-0.19500178 -0.11535294 1.0443003 0.008134097792 0.01350698341 -0.9998756647
-0.12408449 0.081218563 1.2867501 0.8613187671 0.3809397817 -0.3361768723
-0.17551067 -0.15437052 1.0566471 0.3640945852 -0.4387391806 -0.8215491772
-0.41520774 0.040788669 1.1930001 -0.4476941228 0.7072273493 -0.5471740365
-0.25514564 -0.064927436 1.0431601 -0.05633773655 0.06560512632 -0.9962540269
-0.35709876 -0.24506778 1.141 -0.6194256544 0.09253593534 -0.7795825601
-0.23489083 -0.184902 1.0828147 -0.08321230859 -0.5418092012 -0.8363721967
-0.16147456 -0.16716762 1.0835 0.9443696737 -0.110181123 -0.3098806143
-0.23432028 -0.2544091 1.0360003 0.1078952253 -0.1841164231 -0.9769645929
-0.28563204 0.039189104 1.1120001 -0.1908647865 0.7667755485 -0.6128832102
-0.35651156 0.036641598 1.1450001 -0.3994520307 0.720287025 -0.567119658
-0.37575233 -0.08456172 1.0710588 -0.5047292113 0.2518179417 -0.8257337213
-0.36980429 -0.053511731 1.09 -0.5092747808 -0.05787334964 -0.85865587
-0.15357886 0.0010037833 1.1450001 0.9301525354 0.3118279576 -0.1938544959
-0.25378382 0.003601541 1.0556666 -0.1564732343 0.6336903572 -0.7575966716
-0.27526161 -0.053689491 1.052682 -0.2770573497 0.4355623424 -0.8564605713
-0.20462391 0.14360164 1.2558572 0.1172883511 0.8732671142 -0.4729143083
-0.36811233 0.12572452 1.2920001 -0.3513017297 0.8777118325 -0.3258973062
-0.32480982 0.026512217 1.1140716 -0.3346124291 0.672503829 -0.6601311564
-0.21140115 -0.1711788 1.067 -0.1623585969 -0.4958322644 -0.8531061411
-0.37325749 0.091431953 1.2270001 -0.4126851559 0.7904898524 -0.4525668919
-0.13756666 -0.066963933 1.0758573 0.790365696 0.3734085262 -0.4856831729
-0.29003727 -0.23629235 1.057 -0.6060964465 -0.2058102936 -0.7683027983
-0.25522038 -0.21483058 1.09496 0.1464727968 -0.3882775009 -0.9098276496
-0.36619243 0.10815655 1.2525001 -0.4116100669 0.797977984 -0.4402366579
-0.17080711 0.11858582 1.2410001 0.5300413966 0.6975522041 -0.4821586907
-0.24537638 0.098357618 1.1810001 -0.1793326139 0.8098139763 -0.5586064458
-0.24490473 0.031446911 1.087 -0.05316541716 0.7679781914 -0.6382655501
-0.22538809 -0.014577134 1.0637811 0.2999648452 -0.1298636049 -0.9450696111
-0.32557231 -0.064197697 1.0628999 -0.3143763542 0.4918821752 -0.8119232655
-0.07408385 0.043687057 1.3262857 -0.434169054 0.4024865925 -0.8059167266
-0.26518175 0.10681366 1.2043334 -0.05402390659 0.832413733 -0.5515150428
-0.33353662 -0.23739958 1.1190001 -0.6152876019 -0.1327830255 -0.7770391107
-0.30446848 -0.10521545 1.0620799 -0.1094616205 -0.2262643576 -0.9678959846
-0.16602348 0.08386039 1.1945386 0.7107663751 0.5171578526 -0.476821661
-0.084873021 0.013924534 1.3053334 0.7306572795 0.2843939066 -0.6206932068
-0.22508827 -0.14567807 1.0520529 0.01752862893 -0.473684907 -0.8805199265
-0.27613771 -0.03057901 1.057 -0.1593045741 -0.3142517209 -0.9358781576
-0.22462496 0.15703925 1.2850001 -0.06003808603 0.9125643373 -0.4045018256
-0.18576092 -0.19486442 1.0756085 -0.4194843471 -0.1626991779 -0.8930631876
-0.1850694 0.072563656 1.1459231 0.5392005444 0.6585012674 -0.5250132084
-0.16731972 -0.3362639 1.853 0.9890699983 -0.1384494454 0.05071824044
-0.13825502 -0.17905158 1.108 0.1183769181 0.5989374518 -0.7919980288
-0.3347742 0.064690657 1.1642499 -0.3663581908 0.6851899624 -0.6295207143
-0.22811568 0.048742667 1.1120001 -0.1550721824 0.7884868979 -0.5951814651
-0.13910332 -0.036605656 1.1135001 0.8271163702 0.4840105176 -0.2856787145
-0.285182 -0.23369391 1.097 -0.05621279031 -0.4579055309 -0.8872218728
-0.31458712 -0.18536526 1.0752727 0.002521325834 -0.5160366893 -0.8565627337
-0.39561611 0.045744576 1.1825001 -0.3567260802 0.7037388086 -0.6144087911
-0.12838461 0.11353008 1.3036667 0.8501993418 0.4772865474 -0.2221680135
-0.12336716 -0.19779353 1.163 0.04081388935 0.9147697687 -0.4019085765
-0.091195248 0.062012769 1.3870001 0.4269697964 -0.5424173474 -0.7235193253
-0.14605384 0.11610573 1.2653333 0.8522608876 0.4237665236 -0.3067137003
-0.17192398 0.068976425 1.1743335 0.7950355411 0.4573164284 -0.3984722793
-0.41127414 0.056034781 1.2060001 -0.4617129564 0.706930697 -0.5357892513
-0.20104772 -0.22911508 1.044 0.4068009555 -0.1162935048 -0.9060842991
-0.075640462 -0.074117102 1.2658947 -0.5279000401 0.5775682926 -0.6226848364
-0.14660898 0.0061739874 1.203143 0.7892782688 0.5066266656 -0.3469427526
-0.29471281 -0.14504732 1.0538403 -0.1221915707 -0.1776237786 -0.9764829874
-0.10722805 -0.084774546 1.2924545 -0.7877599597 0.4563078284 -0.4137842357
-0.15768982 0.047410715 1.1756667 0.9346883893 0.2633019686 -0.2388088554
-0.35419178 0.010733031 1.113 -0.446582973 0.6968539357 -0.5612114072
-0.31447566 -0.046198141 1.0700001 -0.03304004297 -0.1469346434 -0.988594234
-0.34530389 -0.12472846 1.0685 -0.3568704128 0.13037844 -0.9250108004
-0.17494896 -0.11449767 1.0448402 0.2430226654 -0.116218254 -0.9630333781
-0.23497473 -0.12483031 1.0470004 0.002353713848 0.002524910262 -0.9999940395
-0.30542159 0.11675652 1.2243334 -0.1970954537 0.8288915753 -0.523538053
-0.27458501 -0.19482411 1.0831665 0.09934207797 -0.4031389654 -0.909730792
-0.33904207 0.1256123 1.268 -0.25718835 0.9154776335 -0.3094428778
-0.11312309 -0.14805168 1.2260002 -0.4355010092 0.6532691121 -0.6193370223
-0.19131973 0.016378136 1.0811428 0.6495870352 0.4010663927 -0.6458966136
-0.2865648 -0.17156629 1.0664999 0.05132459104 -0.6054278016 -0.7942436337
-0.12451794 -0.14702548 1.2423334 -0.6341671348 0.6323398352 -0.4449476004
-0.17277285 -0.21495299 1.0604738 0.5975857377 0.20132716 -0.7761176825
-0.19142894 -0.066907197 1.0600001 0.2176424116 0.07196810842 -0.9733716249
-0.28698736 -0.091481037 1.0470001 -0.06541103125 -0.3494997919 -0.9346503615
-0.11527792 0.083053246 1.3042728 0.8835706115 0.4029939771 -0.2385348678
-0.12141658 -0.21025798 1.126 0.8889351487 -0.3261308074 -0.3216099143
-0.13752358 -0.19522579 1.097 0.4920993149 0.07214266807 -0.867544651
-0.25395152 -0.087903865 1.0522858 0.09607694298 -0.2299409211 -0.9684504867
-0.089644425 -0.031433761 1.3280001 -0.735614717 0.5150975585 -0.4399380386
-0.3414222 -0.0280621 1.067 -0.372584939 0.2917908728 -0.8809304833
-0.24513492 -0.27287093 1.0451999 -0.115687564 -0.4536565244 -0.8836357594
-0.087817453 0.0011116134 1.268 0.701579988 0.588145256 -0.4023316503
-0.19509374 0.06164578 1.1243848 0.4208070636 0.7682747841 -0.4823642373
-0.25588951 -0.12536924 1.0456157 -0.07891245186 0.08854226023 -0.992941618
-0.11124549 0.015120747 1.2320001 0.572594285 0.5133348703 -0.639236331
-0.17097425 0.027894072 1.123 0.6095328927 0.6227884293 -0.4905142486
-0.20580934 -0.2623859 1.0465 0.3182886243 -0.2329388857 -0.9189296961
-0.16104835 -0.034862112 1.0813334 0.7634100914 0.2191085517 -0.6076154113
-0.20737784 -0.041475102 1.0513334 0.01853023469 0.4525949955 -0.8915236592
-0.24085189 0.12852634 1.2320001 -0.09183989465 0.8773062229 -0.4710617959
-0.075968429 0.078342438 1.3540001 0.6094640493 0.5752499104 -0.5455649495
-0.097236358 0.056208357 1.4039999 0.7779928446 -0.2019005418 -0.594948113
-0.24479939 0.043571748 1.1043845 -0.07377192378 0.8252286911 -0.5599600673
-0.32951534 -0.090869129 1.0470001 -0.2349812984 -0.1744627208 -0.9562146664
-0.1161622 -0.0075181681 1.2252858 0.5285080075 0.796248138 -0.2943945527
-0.14548664 0.13243657 1.3136667 0.774797976 0.6071214676 -0.1763283163
-0.34506342 -0.10352343 1.0638126 -0.1391775459 -0.4469165504 -0.8836827278
-0.33434215 -0.20587152 1.09 -0.07090751082 -0.2648247778 -0.9616860151
-0.1045517 -0.097001195 1.2754999 -0.7599987388 0.4674738944 -0.4515196979
-0.27365845 -0.25465167 1.045909 -0.5569152236 -0.2363260239 -0.7962383032
-0.19458829 0.035297472 1.0946112 0.5366204381 0.591146946 -0.6021493077
-0.15046932 0.063274294 1.2130001 0.9330949783 0.06302069128 -0.3540651798
-0.094596282 -0.10490072 1.2546251 -0.6218334436 0.5382428169 -0.5688741803
-0.19393839 -0.011021892 1.0700001 0.2421818823 0.5086318851 -0.8262212276
-0.082562715 -0.0057071 1.302 0.765031755 0.003373604268 -0.6439836621
-0.35380688 0.072842814 1.187 -0.3882024288 0.7468927503 -0.5398612022
-0.28502655 0.12519734 1.2346667 -0.0900356397 0.872005403 -0.4811446369
-0.12872185 -0.097878955 1.077 0.8745069504 -0.03567945585 -0.4836988747
-0.39274025 0.012636858 1.138 -0.3144070506 0.6927249432 -0.6490611434
-0.12316339 -0.05286476 1.1317142 0.676199019 0.5385466814 -0.5027149916
-0.23516761 -0.05476743 1.0460002 0.00451277243 0.1277443469 -0.9917968512
-0.356628 0.0178314 1.13 -0.455993861 0.6585576534 -0.5986412764
-0.15505667 0.14348766 1.2830001 0.6198371649 0.7532269359 -0.2201160491
-0.12913562 0.035319146 1.2590001 0.9159522057 0.09826908261 -0.3890690207
-0.15084745 0.097564816 1.2320001 0.7625283599 0.4612923265 -0.4536077082
-0.4061943 -0.071166925 1.1045001 -0.5946595073 0.4273721874 -0.6809794903
-0.11557622 0.036591187 1.325 0.5192072988 0.8135046363 -0.2619808018
-0.36382025 -0.21684492 1.1473532 -0.7611972094 -0.1764205694 -0.6240629554
-0.11720332 0.0428221 1.2855 0.9264755845 -0.2377597541 -0.2917418182
-0.1247547 -0.074902944 1.1042498 0.8570349813 0.3068383634 -0.4139338434
-0.26350346 0.15374015 1.2863334 -0.201157257 0.8975684643 -0.3923093677
-0.34810683 -0.053336401 1.08 -0.4798632264 -0.1029665694 -0.8712801933
-0.29444522 -0.075335637 1.0445457 -0.09284035116 0.1084262207 -0.9897598028
-0.37357572 0.070307791 1.197 -0.3360801637 0.7376570106 -0.5855870843
-0.13977924 0.061762918 1.2360001 0.8836635351 0.1073316112 -0.4556518793
-0.33398631 -0.15593971 1.057 -0.2674301863 -0.1423443407 -0.9530053139
-0.25557351 -0.16484801 1.0633332 0.07539813221 -0.6759342551 -0.7330948114
-0.30516481 -0.21717444 1.0925 0.2033747584 -0.4112659097 -0.8885375857
-0.17531314 -0.094540596 1.0470004 0.1199510172 0.174831301 -0.9772644043
-0.31981063 0.07918141 1.1730001 -0.2796269357 0.7613632083 -0.5849229097
-0.39512682 -0.14166275 1.09 -0.4988681376 0.3227832019 -0.8043267727
-0.16000921 -0.2016684 1.08 0.8254867792 0.2468651086 -0.507571876
-0.08313439 -0.025080364 1.307 -0.5650716424 0.3948147297 -0.7244414091
-0.21388552 0.087967865 1.1610001 0.111723505 0.8350868821 -0.5386536717
-0.24030572 0.11018385 1.197 -0.1477062255 0.8383384943 -0.5247585177
-0.33240569 0.05137179 1.149 -0.3992909789 0.7692987323 -0.498744607
-0.19458844 -0.14211687 1.0470001 0.0095639918 -0.4194760621 -0.9077160358
-0.12579289 0.08386106 1.267 0.8546675444 0.3610666096 -0.3730607033
-0.18404371 0.11202339 1.2042222 0.3362615407 0.7790491581 -0.5291602612
-0.33709466 0.1075016 1.2238001 -0.2911677063 0.800552547 -0.5237718821
-0.14865899 -0.16047296 1.123 0.01961657032 0.5757377148 -0.8173990846
-0.1674372 -0.1674372 1.067 0.5876303315 -0.2885355651 -0.7559350729
-0.10754884 0.042717088 1.3481429 -0.4959786534 0.8495052457 -0.1798499078
-0.32360211 -0.032638207 1.057 -0.2498403639 -0.1587092131 -0.9551916718
-0.32126063 -0.2231783 1.081 0.493447721 0.352920413 -0.7949569225
-0.10191776 0.048532266 1.3840001 0.749391973 0.5279942751 -0.3995418251
-0.12780222 -0.029414797 1.1570001 0.5782707334 0.7099347711 -0.4019895196
-0.38582098 -0.095626801 1.08 -0.6734313369 -0.2564636469 -0.6933373213
-0.39720193 0.067722507 1.2108001 -0.4213402271 0.7390922904 -0.5255615711
-0.225097 -0.08510793 1.0552082 -0.01358324382 -0.1076867357 -0.9940921068
-0.28543022 0.087794662 1.1754 -0.1235208809 0.8249972463 -0.5514727235
-0.17358939 0.0069849049 1.0931429 0.5530611277 0.6027989984 -0.5751146078
-0.087637261 -0.13335878 1.2259091 -0.3862361014 0.5725958347 -0.7231567502
-0.10467466 -0.01526211 1.2437499 0.5015577078 0.6976996064 -0.5115222931
-0.23510447 0.0083633997 1.0600001 -0.01618245058 0.6643131375 -0.7472792268
-0.11040653 -0.041273467 1.177 0.7644004822 0.5518389344 -0.3334152699
-0.11809839 0.020970743 1.2590001 0.6102170944 0.5540655851 -0.5662565231
-0.20544223 -0.21608914 1.0912501 -0.2752933204 -0.4962416291 -0.8233819604
-0.10646942 0.019255107 1.2920001 0.6180148125 0.7674824595 -0.1703771949
-0.10588835 -0.20220685 1.1614001 0.008257417008 0.9219184518 -0.3872959316
-0.08016941 -0.045165867 1.2880001 -0.5143465996 0.5401188731 -0.6661224961
-0.22466984 0.12792127 1.2262001 -0.02829425968 0.8648865223 -0.5011693835
-0.18401913 0.1556239 1.2957501 0.1928397119 0.9307391644 -0.3107047379
-0.30507913 0.077173524 1.1624546 -0.2421373576 0.782027185 -0.5742847919
-0.095189214 -0.16233511 1.2102858 -0.2925084829 0.6386957169 -0.7116927505
-0.31136307 0.13503559 1.273 -0.2388887703 0.9242492318 -0.2978178859
-0.1761227 0.1411189 1.2589999 0.2959183753 0.7958099842 -0.5283169746
-0.15485045 0.0058413395 1.1854999 0.7711081505 0.5652083755 -0.293141067
-0.35152459 -0.04171899 1.067 -0.3662337363 -0.08417475224 -0.9267078638
-0.13912436 0.033023156 1.2350001 0.8515424728 0.1265980452 -0.5087714195
-0.13192402 0.0061813765 1.2436666 0.7126871943 0.3738747239 -0.5935441256
-0.10513217 -0.17635213 1.1947501 -0.1961419284 0.7448419929 -0.6377606988
-0.30119988 -0.24414027 1.067 -0.6695684195 -0.1766387075 -0.7214408517
-0.27641749 -0.2542153 1.1079999 0.02330087312 -0.5434045196 -0.8391475081
-0.1644862 0.10613964 1.2250001 0.6596278548 0.5976814628 -0.4557060003
-0.30552191 -0.17267182 1.0662 0.04949381202 -0.5682505369 -0.8213657737
-0.384873 -0.015826406 1.1054666 -0.3522531986 0.6439119577 -0.6791870594
-0.38117468 -0.040976275 1.087 -0.6489697099 -0.03545306996 -0.7599877715
-0.39592808 0.029516492 1.161 -0.3065150976 0.7581923008 -0.5754936337
-0.23998749 0.13917083 1.25 -0.1307417005 0.8831496835 -0.4505033195
-0.29540193 0.0030537585 1.071 -0.3164886534 0.6940908432 -0.6465855241
-0.40382203 -0.0062373374 1.1235 -0.3355394006 0.7050219178 -0.6247859001
-0.37169001 0.031225991 1.149 -0.3851446807 0.6927044392 -0.6097738147
-0.28255931 0.071393102 1.1470001 -0.1560750753 0.7959240079 -0.5849321485
-0.22560059 -0.19814979 1.09 -0.1820018739 -0.4786022604 -0.8589617014
-0.38428676 -0.10736246 1.0915 -0.6066527963 -0.2972520292 -0.7373015881
-0.14480107 -0.012725986 1.177 0.5829358697 0.7721155882 -0.2530281246
-0.11378869 -0.12581307 1.2563846 -0.6926520467 0.5808112621 -0.4276580811
-0.06521742 0.084363826 1.365 -0.6555503607 0.743588388 -0.1316436976
-0.18463758 -0.034836128 1.0539356 0.3260249794 0.296141088 -0.8977795839
-0.13876143 0.01505938 1.2270001 0.8596679568 0.2434536219 -0.4491117299
-0.15732604 0.033760194 1.1417272 0.7368870378 0.5394599438 -0.4074069858
-0.21523558 -0.055002339 1.0416179 0.06680051237 0.0414769426 -0.9969038963
-0.11941164 0.070307791 1.273 0.8447472453 0.3720315695 -0.3847006261
-0.31467646 0.013903749 1.0955789 -0.2904665768 0.6767461896 -0.6764937639
-0.15443628 -0.053181771 1.0727221 0.4810521901 0.4992342293 -0.7206621766
-0.23038536 -0.10922653 1.0470001 -0.08787694573 0.264551729 -0.9603593349
-0.14904122 -0.13303679 1.141 -0.0889819786 0.6121768355 -0.785698235
-0.14815892 -0.10512177 1.057 0.6693338752 -0.1494318694 -0.7277790308
-0.26879039 0.081144273 1.1570001 -0.06817310303 0.8385908604 -0.5404792428
-0.16483705 0.1263836 1.2535627 0.4981784225 0.6649599075 -0.55645895
-0.21408638 0.051341988 1.105 -0.07175026834 0.7769513726 -0.6254585981
-0.34400225 0.082155645 1.1963334 -0.3465825617 0.7588089705 -0.5514431
-0.36161625 -0.019031119 1.0855 -0.406137228 0.6284592748 -0.6633939147
-0.36340237 0.051036201 1.169 -0.3851574063 0.7125017047 -0.5865109563
-0.31042328 -0.018532734 1.057 -0.2433124036 0.4257726371 -0.8715025783
-0.31660056 -0.12365233 1.0605296 -0.2573606372 0.1616165042 -0.95270437
-0.38453558 0.022383712 1.1475 -0.3099047244 0.6963754892 -0.6473177671
-0.21199554 -0.0084423004 1.0700001 0.3586509824 -0.0456206724 -0.932356298
-0.093976691 0.03516683 1.3832502 0.750724256 0.5360068083 -0.3861473501
-0.38537776 -0.063553467 1.0911112 -0.4575493932 0.4146203101 -0.7865993381
-0.40527773 0.072907105 1.223 -0.4229319692 0.7535369396 -0.5032997131
-0.16368176 0.015947225 1.1135834 0.6389083266 0.5954499245 -0.4870683253
-0.22395326 -0.0306658 1.0600001 0.05895315111 0.4861669242 -0.8718751669
-0.30567944 0.10150338 1.2046667 -0.2443685234 0.8123767376 -0.5294601321
-0.35382611 0.06338945 1.1748184 -0.41025123 0.6841832995 -0.6029818654
-0.37576893 -0.072120443 1.080889 -0.4085770547 0.5280997157 -0.7444296479
-0.28796712 -0.06282369 1.0508001 -0.1721146256 0.4567653835 -0.8727782965
-0.33922616 -0.00095556665 1.09 -0.357986182 0.6671810746 -0.6532345414
-0.15504375 0.075110294 1.2042857 0.8336954117 0.3306642175 -0.442281723
-0.099002846 -0.12076171 1.2410001 -0.5349485278 0.6185720563 -0.5754986405
-0.30836749 -0.071798995 1.0500001 -0.218159467 0.3419988751 -0.9140258431
-0.31799245 0.036918625 1.123 -0.2760847807 0.6778118014 -0.6814311147
-0.40246129 -0.048891116 1.108 -0.7339524627 0.1816432774 -0.6544612646
-0.2755188 0.018936001 1.08 -0.2658720315 0.707151711 -0.6551706195
-0.11554168 -0.019778127 1.1874001 0.6184191704 0.7257740498 -0.3013466895
-0.24776734 -0.011313383 1.0463333 0.2323989123 -0.07966896147 -0.9693521857
-0.26015171 0.031446911 1.087 -0.1588310301 0.7617676258 -0.6280786395
-0.082285687 0.023179065 1.322 -0.3161802292 0.4407158196 -0.8401188254
-0.22376411 0.072080113 1.1366667 -0.02526827529 0.8015803695 -0.5973528028
-0.29457754 -0.1589046 1.0600001 -0.001564502716 -0.3925606608 -0.9197247624
-0.35406762 -0.11446937 1.0752608 -0.3742816448 -0.1139310896 -0.9202895761
-0.37464887 -0.12462154 1.081409 -0.4864067137 0.1461797059 -0.8614174128
-0.38736743 0.11666329 1.2920001 -0.4473339021 0.8106380105 -0.3778338134
-0.34322971 -0.067386262 1.0662729 -0.4100379348 0.4410066605 -0.7983620763
-0.37650862 0.078330174 1.2115 -0.3584328294 0.7533283234 -0.551382184
-0.14275202 -0.025596913 1.123 0.8408887386 0.4554709792 -0.2923221886
-0.33729923 0.018522214 1.1120001 -0.3629761338 0.7059646249 -0.6081629992
-0.12280504 -0.041869074 1.1426001 0.6414248943 0.6276810169 -0.4411242604
-0.22292405 -0.242351 1.108 0.001746261609 -0.5256335735 -0.8507093191
-0.20487513 0.13767436 1.2421429 0.1297100037 0.8664140701 -0.4821845889
-0.14254336 0.084478229 1.245 0.8861358166 0.2725728154 -0.3747897446
-0.16717127 0.044257231 1.1455334 0.6846345067 0.580568254 -0.4406995475
-0.31164449 0.14114334 1.2880001 -0.2321373969 0.9275375605 -0.2928929031
