# .PCD v0.7 - Point Cloud Data file format
VERSION 0.7
FIELDS x y z normal_x normal_y normal_z
SIZE 4 4 4 4 4 4
TYPE F F F F F F
COUNT 1 1 1 1 1 1
WIDTH 512
HEIGHT 1
VIEWPOINT 0 0 0 1 0 0 0
POINTS 512
DATA ascii
-0.11547507 -0.01506167 0.95450032 0.1745212674 -0.0380641371 0.9839174151
-0.057986241 -0.22748448 1.6960001 -0.9277387261 0.3649051189 0.07839041948
0.033090658 0.045346461 1.3980001 -0.9905977845 0.02681234851 0.1341533959
-0.15233894 0.23409979 1.1956667 0.5143288374 -0.6395711303 0.5713270903
0.052376449 0.071331732 1.138 0.1217040792 -0.5574728251 0.8212260008
-0.30251485 -0.031591557 1.092 0.889023304 0.01147832721 0.4577180743
-0.15249616 -0.18747516 1.0500001 0.2155058235 0.4772641361 0.8519250154
0.033048581 0.23134005 1.2360001 0.7253668904 -0.5291391015 0.4402892888
-0.17687276 0.13666983 1.0422857 0.5379902124 -0.7335626483 0.4152738452
0.022938311 -0.062218677 1.0361251 0.5178386569 -0.7736332417 0.3651503623
-0.045802325 0.081594877 1.0380001 -0.3815116286 -0.7002628446 0.6033911109
-0.059878085 -0.14084001 0.96200007 -0.3174093068 0.01797669195 0.9481182098
-0.046911202 0.16526657 1.1477501 -0.6780746579 -0.3364891708 0.6534445286
-0.21295178 -0.083964415 1.0070001 0.4654320478 0.08746375144 0.880751431
-0.26053655 0.1099603 1.13 0.6505020261 -0.6391834617 0.4102336466
-0.23010221 0.035871446 0.99800003 0.3137918711 0.2526873052 0.915250659
0.032692652 0.088265434 1.243 -0.9263241291 0.09054636955 0.3656841815
-0.1311318 0.19135529 1.108 -0.1323250979 -0.7904250026 0.5980956554
-0.12126141 0.079120919 0.98100007 -0.3197219074 -0.5630726814 0.762054503
-0.060913429 0.24044774 1.2190001 -0.4536288977 -0.7709344625 0.447080344
-0.2729677 -0.1210063 1.0700001 0.8359529376 -0.007999241352 0.5487428308
0.04312617 0.15512475 1.1828824 -0.0151092764 -0.4873548448 0.8730732799
-0.04744941 -0.0037377558 1.0136001 -0.878873229 -0.2690692544 0.3939334154
0.02320355 -0.0038654113 1.1029284 0.7251176834 -0.4497795999 0.5214428902
-0.12639844 -0.097432077 1.0012501 0.1411618143 0.5539448261 0.8204989433
-0.13139918 -0.18141565 0.96700007 0.2876648605 0.48660326 0.8249037266
-0.023434352 0.065422475 1.1137999 -0.9564484358 0.2384502292 0.1683684289
-0.084541976 0.12606391 1.0905715 -0.6194107533 -0.6105732918 0.4934882224
-0.27599218 0.034382865 1.0600001 0.8262974024 -0.3989580572 0.3975739479
-0.034663338 -0.075394258 0.98853338 -0.08576375246 -0.264324069 0.9606130123
-0.26045066 -0.029740039 1.028 0.7093230486 -0.229696542 0.6664085388
-0.20630947 0.1589274 1.126 0.6060854197 -0.6733407974 0.4234060645
-0.013892537 0.18060298 1.2190001 -0.7495204806 -0.5021957159 0.4312986434
-0.21255434 -0.14723492 1.0431429 0.2595588863 0.5932077169 0.7620589137
0.0083388528 0.048990764 1.189 -0.9383342266 0.2055520266 0.2779878676
-0.18525983 -0.015453904 0.98682874 0.2462019324 0.3277811706 0.9121097326
-0.087230086 0.22010382 1.1570001 -0.4188239872 -0.7050155997 0.5723106265
-0.1877446 0.087634526 0.99300003 0.4006590843 -0.4413255155 0.8029347062
-0.22673385 0.10544363 1.0731537 0.5969535708 -0.6055895686 0.5262202024
0.0029899005 0.12450362 1.1361333 -0.5931455493 -0.3696843684 0.7152005434
-0.099450819 -0.15320802 1.0220001 0.02686013654 0.3670797646 0.9298015833
-0.11117273 0.11840348 1.031 -0.5333753824 -0.6559967995 0.5340214372
-0.073568523 0.036710985 0.97117651 -0.4960086048 -0.425971359 0.7566530704
-0.024603747 0.02626045 1.0613333 -0.2101373672 -0.75503546 0.6210988164
-0.15451787 0.035277255 0.96464312 0.1643218249 -0.05504696071 0.9848695993
-0.084265031 -0.061376136 0.96700013 -0.06466794014 0.2972218692 0.9526159763
-0.16282253 -0.064897425 0.9778235 0.2550595403 0.3370458186 0.9062806964
0.017675646 0.10781217 1.1863333 -0.7212076783 0.6468749046 0.247815147
-0.17558581 0.20052698 1.138 0.2876514196 -0.8480303288 0.4450856149
-0.16517523 -0.12679531 1.0223532 0.016352145 0.3886642158 0.9212343693
-0.031533699 0.1118013 1.09 -0.3320068717 -0.8398674726 0.4294112921
-0.043320216 0.20624815 1.1831539 -0.5346190929 -0.6707732677 0.5140483379
-0.2844345 -0.070878498 1.0500001 0.7325677276 0.4881603718 0.474388063
0.066828303 0.1177451 1.21 -0.2319427431 0.9157186151 0.3281187713
-0.2411447 0.066428542 1.0380001 0.69426018 -0.5288262367 0.4882065356
-0.13382426 0.15560834 1.0628752 -0.4024238288 -0.7026712894 0.5867777467
-0.051111713 -0.13087785 1.011 0.08670929819 0.6462324262 0.7581986189
0.0066484646 -0.046556436 1.0838001 0.6681665182 -0.5959406495 0.445430398
-0.0020075666 0.029109716 1.1450001 -0.8297958374 -0.5512283444 0.08709891886
-0.16329947 -0.17543079 1.0040001 0.5187145472 -0.6586476564 0.5450857878
-0.24777831 -0.10533427 1.0323848 0.7075173855 0.005679970607 0.7066730857
-0.086645298 0.18452701 1.1240001 -0.5474362969 -0.4696004093 0.6926680207
-0.070616812 -0.01531668 0.97049999 -0.7101742029 0.01242586691 0.7039163113
-0.18393958 0.21836101 1.2270001 0.3861182332 -0.835898757 0.3901102841
-0.17491885 0.16263233 1.0839999 0.4711823463 -0.7272033095 0.4991618097
0.035150599 0.19514136 1.2054782 -0.09113717079 -0.5525003672 0.828515172
-0.08274734 0.07849621 1.0106 -0.40018484 -0.7316200733 0.5518914461
-0.14919376 0.11035042 1.0070001 -0.2557338178 -0.6717048883 0.6952789426
-0.22511044 -0.038542885 1.0012729 0.2393328696 0.3586680591 0.9022621512
0.043150771 0.036368296 1.1060833 0.5630934238 -0.5167858601 0.6448706388
-0.29147631 -0.0074012582 1.0555 0.8270349503 0.2547269762 0.5011261106
-0.084028393 -0.10308515 0.98812515 0.519562006 0.5802486539 0.6271896362
-0.016592257 -0.035285164 0.99605888 0.197044909 -0.3705387414 0.9076752067
-0.0013488978 0.075220048 1.1543332 -0.8954201937 0.07373636216 0.4390736222
0.055537708 0.10829926 1.1638572 -0.1949033439 -0.6742964387 0.7122759223
0.0026450285 -0.09174116 1.0048573 -0.7330613732 0.3251439035 0.5974131823
-0.04317094 0.045247033 1.0137501 -0.7760627866 -0.2883431017 0.5608785748
-0.01712849 0.15209273 1.177 -0.5123815536 -0.7118374705 0.4803671539
-0.05221317 0.12856294 1.12375 -0.5395681858 -0.4397450686 0.7179766297
0.0025724322 0.19211127 1.257 -0.6809257269 -0.1527610719 0.7162431479
-0.010193003 -0.078764118 1.057 0.6859751344 -0.6471488476 0.3326205909
-0.18813498 0.038554627 0.99200004 0.4732569456 -0.2242285758 0.8519092798
-0.26174372 0.011613203 1.0190001 0.5025814772 0.1761709899 0.8463897705
-0.2853322 -0.085809886 1.09 0.814617455 0.3309748769 0.4762919545
0.040222343 -0.0280621 1.067 0.4698379934 -0.5896085501 0.656973362
-0.091925509 -0.16951402 0.96200007 -0.06503695995 0.3354240358 0.939819634
-0.21421087 0.096711233 1.031 0.6211521029 -0.5456315279 0.5625444651
-0.12474462 -0.054534163 0.96496189 0.1373044848 0.5000858307 0.8550214171
-0.015487412 0.079319701 1.07075 -0.7422918677 -0.4326552451 0.5116758943
-0.082058251 0.094441295 1.0517143 -0.4987111986 -0.7898308039 0.3570076525
-0.11503737 0.025162034 0.9661181 0.2953082621 -0.3573814332 0.8860425949
-0.10505316 0.16444853 1.0944 -0.4822147787 -0.558190763 0.6751977801
-0.090990111 0.24159443 1.1930001 -0.3962199688 -0.7916793823 0.4650306404
-0.12280364 0.20854935 1.1426001 -0.07414777577 -0.800521493 0.594699502
-0.053064629 -0.045199484 1.0039999 -0.6780239344 -0.2085405886 0.7048364282
-0.20481895 0.13518102 1.0833334 0.5418832898 -0.7105174065 0.4489181638
-0.24457659 -0.067855164 1.0320001 0.4535735846 0.426966399 0.7822855711
-0.14881417 -0.022109533 0.97000003 0.5211572647 -0.07206933945 0.8504123092
-0.30017504 0.010482303 1.087 0.9118937254 -0.01604505628 0.4101127088
-0.13467266 -0.15998027 1.031 0.08647627383 0.4050689042 0.9101873636
-0.23349704 0.13208674 1.1184286 0.6328145862 -0.6760206223 0.3775470555
-0.17502968 -0.096530117 1.0044615 -0.01880204678 0.5879836082 0.8086543083
-0.054529894 -0.10534341 0.96600044 -0.4223964214 -0.2299889773 0.8767476082
-0.15509732 0.067054331 0.98257899 0.3800630569 -0.4031176865 0.832495153
-0.018431624 0.0015107888 1.034 0.1668496877 -0.6364530921 0.7530528903
-0.21811174 0.068178363 1.01 0.6400781274 -0.5199533105 0.5656399727
-0.21529093 -0.12149197 1.0190001 0.2102063149 0.5392711759 0.8154752851
-0.1175724 0.22863203 1.1730001 0.1900868863 -0.7876493931 0.5860677361
-0.1945232 -0.054953013 0.99500006 0.5209007859 -0.0697081089 0.8507661819
-0.22359371 0.0022554684 1.0063334 0.5843244791 -0.2244381905 0.7798669338
-0.10385834 0.13773993 1.0616 -0.656701088 -0.6407924891 0.3976540267
-0.17431295 -0.1628018 1.0340589 -0.3340001702 0.07539030164 0.9395532012
-0.14381774 0.13588278 1.0336668 -0.3527239263 -0.7103856802 0.6090468764
0.017360339 0.1363069 1.1646667 -0.7282477617 -0.2826304138 0.6243198514
0.011504496 0.15792537 1.1930001 0.2850541472 -0.6914177537 0.6638416052
-0.066218667 0.1946107 1.155 -0.4903867245 -0.6173304915 0.6151617169
-0.05187558 0.102198 1.0630001 -0.0868306756 -0.8700239658 0.4853027463
-0.018271837 0.18499331 1.1842 -0.9122807384 -0.05869816989 0.4053373039
-0.11504717 -0.12499965 1.01569 -0.004394399002 0.4313747585 0.9021621346
-0.024571214 -0.10969292 1.001 -0.3830904365 0.4532275498 0.8048766851
-0.077404112 0.15383248 1.1176668 -0.6017270684 -0.357719332 0.7141157985
-0.27997401 -0.037884273 1.054 0.8602436781 -0.1109991521 0.4976544976
-0.1811015 0.11433575 1.011 0.4134276211 -0.6745181084 0.6116395593
-0.095397368 0.058191784 0.98169231 -0.110662438 -0.6513788104 0.750639379
-0.24402061 -0.14074314 1.0425 0.3800232112 0.4765718579 0.792755723
-0.025322182 0.13496971 1.1469049 -0.2178705931 -0.6705620885 0.7091395259
-0.0072850999 0.10150573 1.108 -0.7360095978 -0.5391340852 0.4094195366
0.02203677 0.076604009 1.197 -0.9644678831 -0.09006103873 0.2483762503
-0.050193548 -0.01916481 1.041 0.5113863945 -0.5289035439 0.6773071289
0.011880587 0.16848832 1.2320001 -0.5165426731 -0.6979553103 0.4960261881
-0.16525465 0.0053404891 0.97481269 0.1479723454 0.2690042257 0.9517042041
-0.14452219 0.17514713 1.0846 0.07141123712 -0.805323422 0.5885190368
-0.06080823 0.10906873 1.1010001 -0.5802125931 -0.5699960589 0.5817713141
-0.082350306 -0.11567067 0.95714283 -0.148008585 -0.2657051384 0.952624917
-0.051806491 0.024971474 0.99200004 -0.9048652649 -0.04738013446 0.423053205
-0.10531864 -0.078149572 0.98200005 0.2035807073 0.5780056715 0.7902305722
0.03335629 0.089960903 1.153 -0.133616209 -0.5244382024 0.8408991098
-0.018069353 0.044158198 1.0848572 -0.9353515506 0.3444274068 0.0805432573
-0.06425482 0.055232171 0.9944706 -0.5718462467 -0.600291431 0.5591440201
-0.25940302 0.038865265 1.031 0.7358852625 -0.3949773908 0.5499688387
-0.19514599 0.11941077 1.0600001 0.6511769295 -0.656440258 0.3808606267
-0.10813469 0.092678085 1.0046667 -0.5454422235 -0.6052750945 0.5797713399
-0.17160721 0.1833341 1.1143335 0.2723139822 -0.8030585051 0.5300397873
-0.086017907 0.0053973896 0.95671862 -0.301147908 -0.05157327279 0.9521817565
-0.20097601 0.012658542 0.98900002 0.6516882181 -0.2489768863 0.7164586186
0.023631778 0.10282266 1.2142 -0.6468592286 0.7159851789 0.2625611722
-0.0290615 0.05812826 1.036 -0.6879808903 -0.4662585557 0.5561341643
-0.13010611 0.053913243 0.97000009 -0.2977381349 -0.1384097934 0.9445605874
-0.044288322 0.01898071 1.031 -0.8322115541 -0.2840979695 0.4761431515
-0.29565758 -0.056203801 1.0720001 0.9135375619 0.02706795372 0.4058527946
0.018725423 0.014782178 1.1242001 0.7466694713 -0.3237422407 0.5810986757
0.015996974 0.05651826 1.2165 -0.960626781 0.009387205355 0.2776834369
-0.13449593 0.0044614775 0.96444851 0.3645752072 -0.1940083951 0.9107390642
-0.06621106 0.22308071 1.1843846 -0.4177301228 -0.7148231268 0.5608292818
-0.095305197 -0.035006359 0.95608801 -0.1965787858 0.2149476111 0.9566369653
-0.061920717 -0.07310085 0.98100007 -0.5835129619 -0.3632722199 0.726323545
-0.26805875 -0.094483539 1.0613637 0.8360264897 0.04008248448 0.5472230911
-0.13478757 -0.07542076 0.9855715 0.06369152665 0.6520451307 0.7555001974
-0.007307718 -0.061434347 0.99260008 -0.4689797461 -0.2342372686 0.8515813947
-0.0027048925 0.09714745 1.1357143 -0.7915796638 0.3097062707 0.5267671943
0.041567151 0.011944584 1.09 0.6689894199 -0.3688322604 0.6453029513
0.017098505 0.21052536 1.2190001 0.3113051355 -0.6700029373 0.6739326119
0.043811198 0.13194601 1.169 0.08687997609 -0.2558574975 0.9628025889
-0.012933463 0.051242922 1.135 -0.9222227335 -0.139297381 0.3606958389
-0.26921993 -0.0082134902 1.041 0.613591969 0.3471640348 0.7092122436
-0.20401832 0.064441033 0.98782372 0.3698692024 -0.2319374382 0.8996676207
-0.035992235 0.18442397 1.1644787 -0.666940093 -0.4106458426 0.621740222
-0.085481569 -0.14524724 0.95379424 -0.2041199207 0.102155067 0.9736012816
0.035545386 0.053813133 1.1242002 0.2382088453 -0.6089823842 0.7565692067
-0.066136144 -0.044745225 0.97617877 -0.747286737 0.05951114371 0.6618315578
-0.11874801 -0.1803882 1.034 0.1297798306 0.356159091 0.9253690839
-0.089694396 -0.11988855 1.013 0.2378946394 0.5514765978 0.7995496988
-0.27782458 0.016296607 1.041 0.8290631175 -0.2134193629 0.5168234706
-0.27287629 -0.05512866 1.0328825 0.676794827 0.1484734416 0.721044004
-0.052874923 -0.022437055 0.99199998 -0.8928670287 0.063565135 0.4458115995
0.0032309552 0.045752507 1.1640002 -0.9277784228 -0.07338777184 0.3658434451
-0.059852663 0.07057254 1.0190001 -0.3773934841 -0.7242372036 0.57710886
-0.19475888 -0.13526602 1.0257499 0.1275867224 0.5359508991 0.8345527053
-0.19661762 0.15342544 1.103 0.618732214 -0.6586235166 0.4282353818
-0.24347085 -0.015138454 1.0158 0.6792134643 -0.2444621474 0.6920313239
0.013140356 0.10714445 1.153 -0.8243716955 0.3121783435 0.4721821845
-0.2476934 0.10976217 1.108 0.6729482412 -0.6112564206 0.4165407717
-0.024924072 -0.015127324 1.0153003 0.131074518 -0.6577299833 0.7417619228
-0.13887277 -0.12991323 1.0220001 0.08867397159 0.3776197731 0.9217050672
-0.026765335 0.20674641 1.202 -0.6853449345 -0.620568037 0.3810481131
-0.2452212 0.089946002 1.08 0.6586076021 -0.6112946272 0.4388107955
-0.022703914 0.12141658 1.126 -0.1348051429 -0.8631911874 0.4865476191
-0.24675745 -0.045846775 1.0114119 0.4497100115 0.2995522618 0.8414447904
-0.16463207 0.097066686 0.99199992 -0.1018894687 -0.395529747 0.9127840996
-0.20958646 -0.013914453 0.99200004 0.3928072751 -0.01252577081 0.9195355177
0.019459371 -0.049111743 1.057 0.5413723588 -0.6933893561 0.4755283296
0.062541395 0.13029458 1.189 -0.7806162238 -0.2257536352 0.5828152299
-0.040523916 0.041468088 1.075 -0.9849331975 0.1235930994 0.1209600195
-0.14923672 -0.18115178 0.98400009 0.0964692831 -0.9348343611 0.3417285085
-0.14548896 0.21978121 1.177 0.4318464398 -0.7073159218 0.5596541762
-0.2098477 0.0292193 1.01 0.2508428395 0.2927634418 0.922695756
-0.082563318 0.10683104 1.0727 -0.6795918345 -0.6211978793 0.3902155161
-0.15695576 0.15144855 1.0470001 0.1121207997 -0.8540207148 0.5080133677
-0.16449703 0.12830052 1.0220002 0.1452122927 -0.7450088859 0.6510569453
-0.26200935 -0.12458705 1.045 0.7699481845 0.1555365771 0.618860364
-0.096219428 0.11408386 1.0536667 -0.8137496114 -0.4476228058 0.3707362413
-0.17566079 -0.044990987 0.98316002 0.5454573035 -0.03407744318 0.8374455571
-0.10842174 -0.18835621 0.97000003 0.1020153463 0.4748051763 0.8741583824
-0.22458571 -0.065469109 1.0172502 0.492231518 0.08915568888 0.8658864498
-0.13439889 0.09479022 0.99609095 -0.01264864579 -0.6609429717 0.7503295541
-0.094332278 0.094078548 1.0247858 -0.5996797085 -0.6924750805 0.4010767341
-0.19685151 0.0964472 1.0143638 0.6100584865 -0.5648839474 0.5556390882
-0.15454628 -0.085831761 0.99421048 -0.001296248869 0.6655629277 0.7463406324
-0.23203564 -0.094970413 1.0176363 0.5878870487 0.05018202215 0.8073850274
-0.094776437 0.20207888 1.138 -0.2506940961 -0.7162973285 0.6512070298
0.0024029433 0.087505065 1.1743335 -0.9212465882 0.1741647422 0.3478093445
-0.14839399 -0.045819733 0.97042859 0.339438647 0.1885839403 0.9215300083
-0.18284012 -0.074521638 0.98844457 0.3638879657 0.2341292053 0.9015370607
0.033941735 0.17411777 1.1950002 0.06668572128 -0.4351206422 0.8978992701
0.028191261 -0.016467743 1.084 0.5623430014 -0.5289849639 0.6355668306
-0.16856197 0.04816056 0.98100007 0.5302098393 -0.3896556199 0.7530245781
-0.06491293 0.01537571 0.97433347 -0.7431967854 -0.05020854995 0.6671863198
-0.24173328 0.053063404 1.0190001 0.674862802 -0.4753850698 0.5644193888
-0.17290197 0.15052244 1.0638001 0.4823454022 -0.7968372107 0.3638590276
-0.066479549 0.17277426 1.1380001 -0.5222390294 -0.3966484964 0.7549412847
-0.14490232 -0.10723853 1.0109376 0.0921908915 0.4887254536 0.8675530553
-0.21408637 0.13852648 1.105 0.5525133014 -0.7199375629 0.4200225472
-0.28610134 -0.02538174 1.0723332 0.8585492373 0.1357788444 0.4944261909
-0.12381169 0.10760937 1.0122001 -0.2618217766 -0.753457129 0.6031183004
-0.1079089 0.19129305 1.1190001 -0.243856594 -0.7420083284 0.6244658232
-0.19485165 -0.11425303 1.0119288 0.03365891799 0.4919947982 0.8699472547
-0.13103272 -0.033508833 0.95900005 0.3100982904 0.1427228898 0.939930439
-0.042990234 -0.028446332 1.0185715 0.6329680681 -0.4878901541 0.6010944843
-0.25475964 -0.084500648 1.0435265 0.7062067986 0.1453086138 0.6929338574
-0.17687276 0.067627817 0.98899996 0.02984856255 -0.0367103368 0.9988800883
-0.017712047 -0.09178061 0.98899996 -0.3615964651 0.3357916474 0.8697654605
-0.15545739 -0.15185671 1.0273999 0.02653194591 0.4317799509 0.9015886784
-0.091835208 0.14500643 1.1027143 -0.7504407763 -0.3115739226 0.5828896165
-0.12516454 0.16363205 1.0840588 -0.4343183339 -0.6778944135 0.5931498408
-0.17486671 0.025592063 0.97299987 0.4268018901 -0.1995008737 0.8820655346
-0.23461908 0.11906039 1.0923333 0.6435518265 -0.6364613771 0.4251563847
-0.16276982 0.23390013 1.2155001 0.4749753773 -0.7011537552 0.5317723155
-0.013104119 0.073988341 1.1353334 -0.9109298587 0.1136591882 0.3965960145
-0.0309551 0.098493502 1.0700001 -0.5460384488 -0.6150086522 0.5688641071
-0.040965099 -0.10608391 0.9837501 -0.7233579159 0.1766028106 0.6675063968
-0.069488987 -0.16074473 0.95500004 -0.2135171741 0.1452302188 0.9660841823
-0.10536442 -0.10449108 1.00325 0.2249285281 0.616543591 0.754507184
-0.095794246 0.041539095 0.96700013 0.05562815815 -0.5586084723 0.8275639415
-0.073491842 0.082932845 1.0350001 -0.3476614356 -0.8349775672 0.4265488982
-0.017521435 0.16339551 1.1958572 -0.7900330424 -0.4300529659 0.4369235635
-0.011665629 0.087404013 1.0908 -0.8654720187 -0.3261969686 0.380202204
-0.033596672 -0.055819463 0.99799997 0.2424114496 -0.4756438434 0.8455765247
-0.0090296669 0.19323486 1.2360001 -0.6061987281 -0.6336131096 0.4806844592
-0.11840523 0.1312554 1.0470001 -0.3442713022 -0.7347453833 0.5844882131
-0.0846956 -0.084096499 0.97785008 0.3696389794 0.3384435773 0.8653455973
-0.032569923 0.14961807 1.161 -0.606549561 -0.6092993617 0.5107365847
-0.23923971 0.01853887 1.0070001 0.2763859332 0.3563331962 0.8925455213
-0.028021917 0.07483387 1.0538334 -0.6878733039 -0.4778956175 0.5463021994
-0.0052154493 0.14253381 1.147182 -0.1801000088 -0.7599128485 0.6245770454
0.013746808 -0.075978011 1.0141538 -0.8702250719 -0.0952848345 0.4833519757
0.0044289194 -0.062509619 1.06425 0.634139657 -0.6514490843 0.4165104926
-0.060923953 0.14809968 1.13 -0.5202027559 -0.4104890525 0.7489244342
-0.10416399 0.073675267 0.99592304 -0.4337812066 -0.6241702437 0.6498041153
-0.191606 -0.034121621 0.99799997 0.3434391916 0.1883795261 0.9200884104
0.0086763697 0.06396348 1.174143 -0.9188296199 0.04345069081 0.3922552764
-0.11256816 -0.16885322 0.95825005 0.06258901209 0.4547996521 0.8883917332
-0.1553541 -0.16704777 1.0420001 0.1497653872 0.5422996879 0.8267292976
0.055350281 0.09460409 1.1480001 -0.0132999206 -0.5680248141 0.8229039311
-0.19573221 -0.09555158 1.0018275 0.2184320092 0.391785264 0.893751502
-0.18313128 -0.17419805 1.0190001 0.5720958114 -0.495511055 0.6535864472
-0.19658987 -0.16062199 1.0430001 0.4104246497 0.3847890496 0.8267339468
-0.072521098 -0.094929911 0.96468747 0.2345531136 -0.4283560216 0.8726373315
-0.1347217 0.025579212 0.97263855 -0.04355981201 -0.007941734977 0.9990192652
-0.04711549 -0.087455854 0.97718179 -0.5424037576 -0.333429575 0.7711179256
-0.23450156 -0.12409328 1.0261052 0.4135531187 0.4570006132 0.7874796987
-0.095433056 0.23483555 1.174143 -0.2787177861 -0.7898859978 0.5462568402
0.027325572 0.023440938 1.1075714 0.7942587137 -0.3129990399 0.5207539797
-0.16757758 -0.02511725 0.98314297 0.4987136424 -0.01166788675 0.8666882515
0.0073385774 0.092941277 1.1956668 -0.9553169608 0.05494431034 0.2904318869
-0.086817198 -0.01624226 0.95837492 -0.3954474926 0.05700356513 0.9167180061
-0.048803158 0.22390857 1.1946 -0.5118886232 -0.6991474628 0.4991621673
-0.067638338 0.21008877 1.169 -0.4964546263 -0.657227695 0.5670842528
-0.23921953 0.0035838133 1.0220001 0.4586328864 0.2250741422 0.8596496582
-0.11498067 0.0048941276 0.95734465 0.2999358475 -0.2526829243 0.9198857546
0.027624935 0.12465468 1.1816669 -0.8116732836 0.3523245156 0.4658904076
-0.18841977 0.14655104 1.0855 0.5844566822 -0.6783827543 0.4452046454
-0.076412611 0.13177937 1.1079999 -0.5633127689 -0.4966361225 0.6603266597
-0.18511352 0.0049130581 0.97475022 0.3551655412 0.1748995632 0.9182960391
-0.085748382 0.025211763 0.95762843 -0.2051210254 -0.2943131328 0.9334372878
-0.10492314 -0.055003285 0.96520036 0.02394319512 0.4777754843 0.8781556487
0.025892191 0.14565252 1.1813636 -0.0519906953 -0.4382962584 0.897325635
-0.15474042 0.18244329 1.1046 0.256821245 -0.8046140075 0.5353868604
-0.13820973 -0.17775615 1.041 0.205706507 0.4149323702 0.8862934113
-0.13546896 0.11851969 1.0233334 -0.2996240854 -0.6982442737 0.6501386762
-0.17471942 -0.14465551 1.0270869 0.08795166761 0.2069252431 0.9743954539
-0.037311811 -0.0024868841 1.0317501 0.349925518 -0.5162211657 0.7817082405
0.0052012634 -0.071287908 1.0470001 0.6048901677 -0.730566442 0.3168288767
-0.12505341 -0.14447239 1.0245383 0.0221431721 0.3995834887 0.9164293408
-0.091666788 0.16578193 1.112375 -0.6942768693 -0.3540128469 0.6266214848
-0.041422501 0.021171499 1.0500001 -0.447981745 -0.6902713776 0.5681881309
0.0082266396 0.1511645 1.1730001 -0.1670729816 -0.8784788251 0.4476177096
-0.27843636 -0.079956383 1.0730001 0.7668009996 0.5028749704 0.3989147842
-0.01264504 0.19389062 1.202 -0.9381335974 -0.259019047 0.2298141271
-0.11424996 0.055467207 0.98200017 -0.362082541 -0.3389437199 0.8683394194
-0.2452165 0.03488997 1.0146667 0.6526176333 -0.19944489 0.7309665084
-0.21099 -0.057382215 1.0070001 0.5411520004 0.0831515044 0.8368036151
-0.22867236 0.078634366 1.031 0.6709437966 -0.5414328575 0.5066407919
-0.053286869 0.0013110549 0.99650002 -0.9292004704 -0.01952755079 0.3690598905
0.042950094 0.21582876 1.2325002 0.5718730092 -0.5381459594 0.6191608906
-0.094333619 0.12323479 1.0748889 -0.8185943365 -0.491848886 0.2966277003
-0.052850362 -0.062868029 0.99374992 -0.4591885209 -0.4600678682 0.7599233389
-0.25682485 -0.056862261 1.0223335 0.4368791878 0.4625697136 0.7714698911
-0.031868782 -0.037162676 1.0066667 0.3511827588 -0.4111465514 0.8412069678
-0.10565709 0.21332352 1.1478001 -0.03744712844 -0.7524267435 0.6576105952
-0.1227307 0.22010382 1.1570001 0.1961382627 -0.7985417843 0.5690876842
-0.2155498 -0.10476329 1.0112416 0.3078835905 0.2982436121 0.9034702182
0.01510672 -0.02738093 1.077 0.6362569928 -0.5466837287 0.5443472862
0.018360907 0.091804534 1.2320001 -0.9276325703 0.07353383303 0.366183877
0.019938029 0.18573849 1.197 0.2796244025 -0.3943129778 0.8754013181
-0.035476364 -0.12436881 1.0018179 -0.4453778565 0.6059596539 0.6591293216
-0.084836163 0.067548923 0.9932856 -0.307926476 -0.7283738256 0.6120889187
-0.24794179 0.071764521 1.054 0.7170739174 -0.5681895018 0.4036900997
-0.051272221 0.013798733 1.0108572 -0.9548731446 0.02168721333 0.2962211072
-0.22823347 -0.014777572 1.0023637 0.5638775826 -0.205661729 0.7998408079
-0.29091042 0.0065478231 1.067 0.908798635 -0.01776344702 0.4168567359
-0.15949197 0.1991173 1.13 0.1494252831 -0.8521510363 0.5015084147
-0.20101133 -0.073930182 0.99800009 0.5055247545 0.1070505083 0.8561453819
-0.042121202 0.14843106 1.1440001 -0.6236041784 -0.4577899873 0.6336767077
-0.2150674 0.044480562 0.99350023 0.301358819 0.2845791876 0.9100536108
-0.11514205 0.17587565 1.1037142 -0.3389306664 -0.654317081 0.676014185
-0.11518164 0.14745988 1.0713636 -0.3734888136 -0.7596437931 0.532397747
-0.10824203 -0.16206235 1.0346667 0.06159761548 0.3420558274 0.9376585484
-0.26191908 -0.06844575 1.041 0.435439378 0.5976011157 0.6732499003
-0.074370667 0.23487942 1.1948463 -0.4174923897 -0.781017065 0.4644485116
-0.21313111 0.083916575 1.0165 0.6265380383 -0.5401268601 0.5618835092
-0.099782199 0.15109876 1.0840001 -0.7178531885 -0.4864265323 0.4980722964
-0.145211 -0.06418433 0.97613817 0.1415254474 0.4997643232 0.8545210361
-0.0068993666 0.11361512 1.1245 -0.5978754759 -0.6188340783 0.5094990134
-0.17536511 -0.11472588 1.0144002 -0.02401398681 0.4901019931 0.8713342547
-0.031649418 0.050830886 1.0940001 -0.9476454854 0.2871715724 0.1396441013
-0.13513231 0.23293763 1.1826668 0.383784622 -0.7252451777 0.5716019273
-0.10130322 -0.15572405 0.95500004 -0.04771740362 0.2505182326 0.9669352174
-0.057458661 0.091236278 1.0470001 -0.1346132159 -0.8141357899 0.5648559332
-0.27211791 -0.02496166 1.045125 0.8019450307 -0.003314962145 0.5973886251
0.0130974 0.18008925 1.245 -0.5560607314 -0.6670098901 0.4958772361
-0.062269639 -0.0051653199 0.98200005 -0.8049307466 0.0502008982 0.5912413597
-0.0042453459 0.092386805 1.153 -0.8601774573 0.3920156062 0.3262185752
-0.15225613 0.16430469 1.0734001 0.1694088131 -0.8336207867 0.5257157683
-0.055825643 0.18157744 1.1485556 -0.5342050791 -0.4740108252 0.6999561787
0.032201063 0.11387833 1.1945 -0.5676873326 0.7810025215 0.260319382
0.039107226 0.11392429 1.1636667 0.06759590656 -0.5827140808 0.8098611832
-0.16214104 0.14130792 1.03325 0.1802695394 -0.7840645313 0.593923986
-0.0052214265 -0.078638464 0.99300003 -0.6269196868 0.103255488 0.7722111344
0.017631227 -0.020836905 1.097 0.6604419351 -0.4864045382 0.5720376968
-0.028428549 0.16501795 1.1750001 -0.8577808142 -0.165556863 0.4866240919
-0.18108042 0.12353952 1.0256001 0.3853132427 -0.7070275545 0.5929973125
-0.20918143 0.11913023 1.0700001 0.5749827027 -0.6414509416 0.5078736544
-0.003242498 0.17660041 1.2333335 -0.5538823605 -0.6537564397 0.5155742168
-0.025567889 0.013919482 1.0435263 -0.1886330992 -0.7250596285 0.6623489261
-0.1434814 0.082570739 0.98823082 0.2023779303 -0.6071944833 0.768347621
-0.13523555 -0.01498698 0.96235299 0.4384174347 -0.1188165396 0.8908831477
-0.11505584 -0.042272754 0.958 0.0712338686 0.3453723192 0.9357583523
-0.14678523 -0.0048013437 0.97190899 0.4295960069 -0.05314137787 0.9014561772
-0.15957963 0.1691353 1.09 0.2752032876 -0.7933652997 0.5429868102
-0.04463961 0.065041073 1.0244191 -0.5347357988 -0.5723930001 0.621630013
-0.24134493 -0.085254781 1.028 0.7287713885 -0.04032364488 0.6835687757
-0.2245739 -0.13482733 1.0345653 0.2158011645 0.6384445429 0.7387952209
-0.22506674 0.054004937 1.0040002 0.6229860187 -0.3634701371 0.6926599741
0.033043317 -0.048647109 1.0470001 0.4819743931 -0.7270374894 0.4889960885
-0.25324097 -0.0036048531 1.028 0.4720557928 0.2820370495 0.8352355361
-0.066673569 0.10287026 1.0864999 -0.2750382125 -0.8853649497 0.374810487
-0.10005835 0.13341114 1.087 -0.7955771685 -0.4934567213 0.3515073955
-0.10564104 -0.13756956 1.0220002 0.01842626929 0.3962814212 0.9179441929
-0.11472727 -0.088473946 0.99315381 0.2055077255 0.6114479899 0.7641321421
-0.035985164 0.12474239 1.1357143 -0.3716973662 -0.5891030431 0.7174947262
-0.064567983 -0.12473185 0.96207404 -0.3196620047 -0.05853686854 0.9457217455
-0.12306207 0.19722749 1.123 -0.186217621 -0.8013051748 0.5685358047
-0.2410053 -0.02913251 1.0070001 0.637144208 -0.1035066396 0.7637627721
0.0074253664 0.10148001 1.21 -0.8665437102 0.4750498831 0.1530673504
-0.048226893 0.11354986 1.1176667 -0.2885840833 -0.7498107553 0.5954015851
-0.038918741 0.091737032 1.057 -0.4551356137 -0.6603922248 0.5972718596
-0.14652751 0.056257457 0.97141176 0.2874056697 -0.4018777013 0.8694206476
-0.079736337 0.050585419 0.97800004 -0.3548427522 -0.628944695 0.6917479038
0.02746772 0.040220588 1.1190001 0.7050708532 -0.467531532 0.5331879258
0.040863186 -0.0057018399 1.0840001 0.6339606643 -0.4286562502 0.6436984539
-0.082110643 0.22503071 1.1756667 -0.4800199866 -0.7357314229 0.4777866602
0.036046077 0.073490269 1.1358668 0.1332133561 -0.5502158999 0.8243280053
-0.22502349 0.015346243 1.0163336 0.2484452128 0.140082702 0.9584632516
-0.052864753 0.058182612 1.0106667 -0.5831305981 -0.5566729903 0.5916704535
-0.014977632 0.10366737 1.0936251 -0.6627346277 -0.5899427533 0.4612487257
-0.24468642 0.12878233 1.13 0.6370369792 -0.6792782545 0.3643692136
-0.16474691 0.11360312 1.0033078 -0.02341386303 -0.6689237356 0.7429621816
0.021601066 0.21925083 1.2320001 0.6809346676 -0.5934982896 0.4290544987
-0.10501502 0.22596358 1.1630001 0.04591018334 -0.7707776427 0.6354479194
-0.023642639 0.11379991 1.1040714 -0.3317378163 -0.8918918371 0.3073742688
-0.067818932 -0.078839511 0.96700007 -0.1650300324 -0.2341502607 0.9580911994
-0.075690784 -0.035362728 0.96700042 -0.5918117166 0.1347905248 0.7947266102
0.025555709 0.1614373 1.1850001 0.08185008168 -0.5248404741 0.8472561836
-0.17225361 -0.17225361 1.0470001 -0.1132032871 0.4785918593 0.8707093596
0.048166696 0.14859939 1.169 -0.05540148169 -0.3502126932 0.9350303411
-0.18599227 0.13509038 1.0555 0.6427930593 -0.6813961864 0.3500232697
-0.01471485 0.051992469 1.1190001 -0.9295110703 -0.1945582181 0.3132990897
-0.078904383 0.2024653 1.149 -0.5517094135 -0.5926991701 0.586791575
-0.18486717 0.054936402 0.99470031 0.06944422424 0.1045791432 0.9920890331
-0.0017562555 0.15841424 1.202 -0.366700083 -0.8634919524 0.3462841511
0.033128355 0.21052536 1.2190001 -0.03066323511 -0.6807360649 0.7318866849
-0.11489289 -0.06491527 0.97280544 0.1177799776 0.5840433836 0.8031321168
-0.20629783 0.076173723 1.0029092 0.6385789514 -0.535710454 0.5524773598
0.0280621 -0.038351536 1.067 0.4942922592 -0.6403275728 0.5879250169
-0.0085136034 -0.045894865 1.0046668 0.02262013406 -0.3888911903 0.9210059643
-0.21272227 0.01453338 1.00475 0.6054751873 -0.1872612685 0.7735198736
0.016190629 0.12445668 1.1542 -0.8671818972 -0.1116881296 0.4853054285
-0.0061195716 0.16765943 1.2142501 -0.5597974658 -0.7021425366 0.4400257766
-0.071019642 0.18905228 1.141 -0.5767700076 -0.4948882759 0.6499400139
0.0099133467 -0.069393426 1.028 0.4877019823 -0.8292127252 0.2730439901
-0.015960885 0.14639486 1.1623334 -0.1741256416 -0.8487032056 0.4993827343
-0.017720064 0.20117484 1.189 -0.7069731355 -0.4534900486 0.5427114964
-0.13722157 0.14089304 1.0470001 -0.4001556933 -0.7013742924 0.5898724794
-0.0087754335 -0.10179503 1.001 -0.5586264729 0.4391306341 0.7036339641
-0.24209063 0.10477132 1.0840001 0.6614429951 -0.5994048119 0.4507849216
-0.298242 -0.040712401 1.08 0.8671825528 -0.07227471471 0.4927177131
-0.11986312 0.10061503 0.99800003 -0.2464415878 -0.7142925858 0.6550210714
-0.1020873 0.10607404 1.0342 -0.6451060772 -0.6150740981 0.4533453286
-0.025671676 0.036295004 1.0732856 -0.9405574203 0.3358393908 -0.05063251033
-0.1751674 0.17132057 1.097 0.4186055064 -0.7484096885 0.5144437551
0.021521291 0.11785468 1.169 -0.7286036611 0.06250940263 0.6820771694
-0.10135388 0.022886358 0.95900005 0.1628030241 -0.3375232518 0.9271317124
-0.050019968 0.039489448 1.001 -0.7489953041 -0.254252553 0.6118509769
-0.26855806 -0.078987665 1.0600001 0.6336307526 0.5028398633 0.5879321098
-0.1505149 0.021259166 0.97000003 0.03614634648 0.1226749942 0.9917884469
-0.12499081 0.12464967 1.0342382 -0.2903221548 -0.7539066672 0.5893537402
-0.21693717 0.1247555 1.0821667 0.5558513403 -0.6629266143 0.5015551448
-0.061415758 0.11990696 1.1120001 -0.5663755536 -0.5324323773 0.6290743351
-0.28654522 -0.044795427 1.067 0.8361003995 -0.2046047002 0.5089921951
-0.1882005 0.025657292 0.98362505 0.5938143134 -0.3328216076 0.7325396538
-0.1218457 -0.19204567 0.97650003 0.2653895617 0.5246230364 0.8089122772
-0.1009394 0.078803569 1.01 -0.4603593051 -0.6328706145 0.6225304008
-0.062315971 0.035031598 0.98142862 -0.6849951744 -0.3364749551 0.6461936235
-0.14086105 -0.093615726 0.99800003 0.0676060766 0.6191812754 0.7823323607
-0.10471641 0.12497661 1.0443751 -0.5987081528 -0.6101443172 0.5189146996
-0.15856679 0.078558683 0.99200004 0.1460608989 -0.3205707073 0.9358956218
-0.049757846 -0.12818971 0.96200007 -0.4777443111 -0.004952720832 0.8784849644
-0.25734666 -0.1049273 1.0441874 0.7712901235 -0.01941664517 0.6361874938
-0.040071558 0.028888797 1.0630001 -0.1801138967 -0.7564906478 0.628713727
-0.15093744 0.096529767 1.001 -0.1770283133 -0.4783107042 0.8601626754
-0.079299174 0.17143099 1.126 -0.6374738812 -0.3347527683 0.6939507127
-0.077900715 0.11325218 1.0855714 -0.6249511242 -0.6226008534 0.4709610045
0.013641695 0.07566388 1.1844668 -0.9226865768 -0.01315833163 0.3853262663
-0.12479627 -0.11131347 1.0070001 0.05481102318 0.4805110693 0.8752741814
-0.15492608 0.19254909 1.1157694 0.1602654159 -0.8530903459 0.4965398908
-0.27126521 -0.00090121332 1.028 0.5708702207 0.3088882267 0.760720253
-0.19855039 0.13226269 1.0700001 0.6225583553 -0.6568892002 0.4253441691
-0.021776401 0.089946002 1.08 -0.6874281764 -0.5264498591 0.5002929568
-0.2817331 -0.05665696 1.0448571 0.8034430146 0.09162283689 0.5882895589
-0.17466535 0.084739909 0.98633331 -0.003400827991 -0.154780969 0.987942934
-0.029923264 0.19088978 1.177 -0.6081606746 -0.5150279403 0.6040586233
-0.26701066 0.026068401 1.0318183 0.7496670485 -0.3748317659 0.5454360247
0.02916144 0.078843892 1.2320001 -0.9085834622 -0.1917584985 0.3710859418
-0.0025843158 0.05543115 1.1543334 -0.8930748105 -0.06411962211 0.445315659
0.041277852 0.025920404 1.095 0.7323564291 -0.3571514189 0.5797386169
-0.022109095 -0.058524072 0.98900002 0.08022630215 -0.3918693066 0.9165163636
-0.042281765 -0.015290684 1.0261538 0.3943659663 -0.6535825729 0.6459917426
-0.017067198 0.17414582 1.2060002 -0.8873975277 -0.313977927 0.3375551701
-0.19768132 0.049420331 0.98900002 0.08671518415 0.2092547715 0.9740086794
-0.11291707 0.10664496 1.0222502 -0.5093060136 -0.6618104577 0.5501039028
-0.28571853 0.0055311825 1.0513334 0.8588039279 -0.0565293543 0.5091760755
-0.13410671 0.073917747 0.97595662 0.06629885733 -0.5834055543 0.8094704747
-0.065750964 0.13435379 1.1178571 -0.5198456645 -0.4578515887 0.7212020755
-0.00088806334 -0.077261508 1.013 -0.7987168431 0.03510246426 0.6006823182
-0.1356184 0.18379115 1.0961876 -0.1116790995 -0.8281298876 0.549298346
-0.07099539 0.15883154 1.13 -0.5390774608 -0.3880349696 0.7475455403
-0.074096754 0.066184387 1.00325 -0.4553968608 -0.7143645883 0.5313162208
-0.16600588 -0.007029851 0.98273677 0.3063429296 0.2230261117 0.9254260659
-0.2346455 0.065167017 1.0233638 0.6572490335 -0.5174751878 0.5479444861
-0.073371738 -0.14843018 0.96200007 -0.2499311715 0.07749198377 0.9651576877
-0.1646906 -0.10536655 1.0100001 -0.02555906773 0.5333606601 0.8455017209
-0.041067451 0.0082134902 1.041 -0.05486907437 -0.5606065989 0.8262624145
-0.048361316 -0.013772726 1.0030001 -0.8924762011 -0.1009230465 0.4396598339
0.048541032 0.050522301 1.13 0.2084492147 -0.6190926433 0.757148087
-0.18681809 0.097921252 1.0040001 0.5278500319 -0.5899713635 0.6109894514
-0.2645075 0.042648084 1.044 0.7363788486 -0.498383522 0.4575587511
0.030030217 0.0087184496 1.105 0.7872272134 -0.3472520411 0.5095971823
0.04512354 0.085240938 1.1438804 0.1769226789 -0.5571988225 0.8113124371
0.0090971701 0.13847914 1.153 -0.5569435358 -0.555308938 0.6176130176
-0.19516096 -0.0053802831 0.98373514 0.396148473 0.2078468651 0.8943523169
-0.20488253 -0.036774613 1.0030454 0.2187232226 0.3682413101 0.9036362767
-0.17410494 -0.086619578 0.9939999 0.09799513221 0.5369924903 0.8378759027
-0.23487689 -0.053069435 1.0150528 0.2234032005 0.4670314193 0.8555539846
-0.012727445 0.1229638 1.1362222 -0.1194607988 -0.620892942 0.7747393847
-0.2638039 -0.11319081 1.054 0.8103399277 0.02197629027 0.5855478048
-0.10834285 0.24041794 1.177 -0.04226307198 -0.8385990858 0.5431072116
-0.14799391 0.12387416 1.0190001 -0.2494751215 -0.660621345 0.7080548406
-0.19920233 0.038611904 1.001 0.2967035472 0.3469741642 0.8897055387
-0.20241652 0.02424103 0.99718189 0.6108891964 -0.2077540457 0.7639716268
-0.24540703 0.12197064 1.1175001 0.64729774 -0.6578643918 0.3849936426
-0.095350131 -0.0050192806 0.95408356 -0.147325933 -0.03590963408 0.9884359241
-0.12453068 0.014754808 0.96419376 0.2970642447 -0.3050297201 0.9048258066
-0.15500291 -0.075284347 0.98353863 0.05683669075 0.5760501623 0.815435946
-0.1054346 -0.025105054 0.95450008 -0.008290821686 0.119258903 0.992828548
-0.075324267 -0.13563189 0.95613509 -0.2604801059 0.02792575583 0.9650752544
0.058390971 0.11850867 1.1823335 -0.6303488016 -0.5865727067 0.5085202456
-0.069028236 -0.10720307 0.95857149 -0.1684591174 -0.3150422275 0.9340074658
-0.14695914 0.24211253 1.2060001 0.4472381771 -0.7384808064 0.5046029091
0.01259244 0.059814088 1.197 -0.9485186338 0.0003203685628 0.3167211711
-0.18719201 0.14015883 1.0730001 0.6474643946 -0.6411898136 0.4119046628
-0.22671008 0.1418172 1.126 0.6121019125 -0.6689476967 0.4217111468
0.01457283 -0.043834873 1.0724999 0.6347772479 -0.6038174033 0.4821435511
-0.04224452 -0.11304324 0.99700004 -0.4501366913 0.5915120244 0.6689472795
-0.045969058 0.19418335 1.163 -0.4776136577 -0.6041812301 0.6378481388
-0.083720706 -0.046215452 0.9633106 -0.3459838629 0.225259304 0.9107982516
-0.25872412 -0.042491857 1.0226002 0.6453726292 -0.01745882817 0.7636683583
-0.18094225 0.15267324 1.075 0.555614233 -0.7251220942 0.4068055153
-0.16001709 0.22276889 1.1930001 0.5320469141 -0.6165071726 0.58038342
-0.061060708 -0.02494029 0.98100007 -0.7822689414 0.03377940878 0.6220242977
0.011755223 0.16350447 1.2190001 0.05378321186 -0.9415745735 0.3324826658
-0.1447434 0.045089055 0.96335495 0.1144508868 -0.1123051941 0.9870605469
-0.0014153783 -0.058014732 1.076 0.6633530855 -0.6364788413 0.3935191631
