# .PCD v0.7 - Point Cloud Data file format
VERSION 0.7
FIELDS x y z normal_x normal_y normal_z
SIZE 4 4 4 4 4 4
TYPE F F F F F F
COUNT 1 1 1 1 1 1
WIDTH 512
HEIGHT 1
VIEWPOINT 0 0 0 1 0 0 0
POINTS 512
DATA ascii
-0.17557909 0.043897625 1.1336666 -0.3826980591 -0.7980296016 0.4655006826
0.47854954 -0.19172174 1.7220001 -0.01003863569 0.871189177 0.4908448458
-0.47101983 -0.39903674 1.7850001 -0.8481075168 0.5298222303 0.001438269042
-0.43065462 0.13162097 1.317 0.5950542092 -0.7642794847 0.2485706657
-0.21587566 -0.21285641 1.7220001 -0.9222648144 0.3253083825 -0.2088109851
-0.30192399 -0.22150078 1.0250001 0.4869532883 0.4624375701 0.7409642339
-0.43644238 -0.013210686 1.1027777 0.851264596 -0.1016933769 0.5147883296
-0.13462707 0.12509595 1.3590001 -0.7276570797 0.6525174379 -0.2115093172
-0.13799173 -0.13736226 1.0756668 -0.8791040182 0.2350935936 0.4146168828
-0.26754227 0.18738925 1.2355556 0.02609604411 -0.8946694732 0.4459657967
-0.27346984 -0.046121981 1.0273683 0.3558133543 -0.2051618099 0.9117595553
-0.32539368 0.095752329 1.1137334 0.419693172 -0.6441252828 0.6395000219
-0.087666661 0.0295875 1.25 -0.3678483367 -0.5056279302 0.780402422
-0.40495259 -0.14323629 1.0754 0.5250443816 0.1817484796 0.8314420581
-0.4421176 0.073101722 1.2026668 0.5895139575 -0.6577649117 0.4688481688
-0.14048144 -0.079084098 1.187 0.528404057 -0.5160666108 0.6741397381
-0.16795179 0.11810804 1.2360001 -0.8315065503 -0.1214786842 0.5420699716
-0.2452824 0.054064523 1.0554285 -0.1960002929 -0.6457806826 0.7379371524
-0.35646796 0.014830193 1.0417144 0.331810832 0.06023418158 0.9414209723
-0.2208575 -0.15720876 1.0164286 -0.4781938791 -0.2291519195 0.8478325605
-0.23438859 0.12471934 1.1552856 -0.6154100895 -0.5909711719 0.521558702
-0.35827613 0.13277292 1.202 0.4039959013 -0.7630779743 0.5044792295
-0.18783753 -0.051344026 1.0913334 -0.968423903 0.05415496603 0.2433564514
-0.30456045 -0.13331525 1.0553638 -0.08648323268 0.5790382028 0.8107005954
-0.34326059 0.17614688 1.2880001 0.4337913692 -0.8557140827 0.282096535
-0.18498412 0.18612117 1.2945001 -0.7141717076 -0.6468183398 0.2675533593
-0.14255126 0.028973833 1.322 -0.6915332079 0.7042867541 0.1605055034
-0.3672795 -0.069037497 1.0500001 0.1108728945 0.5446386933 0.8313097358
-0.097854413 0.11135157 1.2830001 0.1422911137 -0.5189499259 0.8428785205
-0.39650124 0.055591889 1.1323999 0.6560066938 -0.5104370713 0.5559758544
-0.15381117 0.0095469002 1.21 -0.6438621283 0.178754583 0.7439679503
-0.2551626 -0.1884132 1.08 0.1034069434 0.3469988406 0.9321474433
-0.33088028 -0.20428261 1.0940001 -0.1502996534 0.4963683784 0.855001986
-0.20489331 -0.0053023556 1.0335143 -0.4251712859 -0.5312004685 0.7328406572
-0.21356359 -0.085593931 1.0324348 -0.6294160485 0.2840928435 0.7232749462
-0.29407346 0.15167999 1.177 0.3395102918 -0.8102830648 0.4776757061
-0.42742762 -0.075007595 1.08 0.7639068365 0.2601760328 0.5905546546
-0.15960155 -0.019071883 1.1450001 -0.1546273828 -0.8381294012 0.5230960846
-0.19540562 0.084100172 1.188 -0.7251961827 -0.351079762 0.5923119783
-0.26423296 0.10474042 1.0941429 -0.2718383074 -0.7373307347 0.6184232831
-0.31359488 0.061239731 1.0552 0.39664644 -0.7192153931 0.5704391599
-0.15330504 -0.11871996 1.138 0.2828228176 -0.8191202283 0.4990524054
-0.21109256 0.15805423 1.21 -0.6019017696 -0.6464719176 0.4688158333
-0.19397165 -0.17568657 1.0721818 -0.7466163039 0.5073705316 0.4302780926
-0.13126118 0.066473745 1.2258571 -0.7835143805 -0.2127981782 0.5837997198
-0.10496162 -0.025573917 1.1963847 0.4495353699 -0.5907367468 0.6700358391
-0.097211815 0.16240776 1.3280001 -0.2049999684 -0.6562253833 0.7261840105
-0.44980451 0.019205136 1.153 0.5411854982 -0.6375803947 0.5482786894
-0.15417114 0.12328931 1.2950001 -0.951956749 -0.2042202652 0.2281938046
-0.17369066 0.0050083566 1.0832272 -0.7903603911 -0.3825837076 0.4784977734
-0.28207979 0.011715773 1.028 0.3222970963 -0.5187975764 0.7918166518
-0.24500112 -0.21416247 1.0148892 -0.03488385305 0.3813593388 0.9237684608
-0.39513892 0.094358087 1.1750002 0.5138844252 -0.6669516563 0.539535284
-0.22229856 0.074425496 1.1245 -0.8742901683 -0.4073683023 0.2639465928
-0.36421677 0.051487684 1.0836 0.5323745608 -0.6495400667 0.5428398252
-0.18561515 -0.10604134 1.0760587 -0.1703186184 -0.5181984305 0.8381300569
-0.3958666 -0.015611163 1.0643181 0.474298507 0.2599602044 0.8411073685
-0.35171166 -0.16182478 1.067 0.1363960356 0.5853976607 0.7991906404
-0.31418344 -0.085111342 1.0328002 0.3107350469 -0.02862386778 0.9500654936
-0.11291466 0.058715627 1.2880001 -0.3297216296 0.8141869903 0.4778945744
-0.2310113 0.20422739 1.273 -0.1377355009 -0.9552787542 0.2616704106
-0.32504883 -0.026221192 1.0276842 0.2420114279 -0.1564854831 0.9575712681
-0.26486984 -0.10446762 1.0335188 0.07783093303 0.5662885308 0.8205240369
-0.14868915 0.052176572 1.1762002 -0.600700438 -0.7452381253 0.2894462645
-0.34638458 0.11258767 1.1570001 0.3788454533 -0.7827873826 0.4936800897
-0.29643431 0.19620958 1.276 0.2819289565 -0.9243117571 0.2572233081
-0.20821667 0.04240568 1.087 -0.636097908 -0.6608031392 0.3983950913
-0.10953978 -0.097478025 1.1463333 0.2567156553 -0.7381817102 0.6238468289
-0.2945258 0.12786007 1.135 0.3346940875 -0.8227971196 0.4593307972
-0.31285545 0.17244852 1.2320001 0.3495599031 -0.8495301008 0.3951031566
-0.35476741 -0.11471283 1.0461253 0.3034673333 0.1401610374 0.9424767494
-0.40460026 0.021143666 1.0962501 0.6576826572 -0.5368478894 0.5284391046
-0.24403675 -0.1432163 1.0550834 0.4047796428 0.5071110725 0.7609151006
-0.19152056 0.16698702 1.2531667 -0.7107332945 -0.5523551702 0.4356167614
-0.22483616 -0.045002203 1.0145003 -0.1720208824 -0.03805321455 0.9843580723
-0.2543124 0.16682212 1.1938001 -0.1430479139 -0.8545478582 0.4992847443
-0.28851098 -0.22023006 1.097 0.1665188223 0.4532722831 0.8756801486
-0.18632761 -0.054154329 1.0470001 -0.9018051624 0.1989823729 0.3836059272
-0.19408575 -0.13468528 1.0438639 -0.6757584214 -0.3058273196 0.6706863642
-0.30528101 -0.17463024 1.0747999 0.004994997289 0.3153088987 0.9489759207
-0.42487049 0.054129083 1.165 0.6065889001 -0.5818463564 0.5417608023
-0.1333936 0.092263907 1.268 -0.3125734925 -0.8900601864 0.3317992389
-0.3900632 -0.10476518 1.067 0.5934218168 -0.05719066039 0.8028572798
-0.11470384 0.0048315292 1.22425 0.02542985603 -0.5498467088 0.8348783851
-0.36346775 0.082633898 1.1248 0.4787998796 -0.6745971441 0.5618445873
-0.24534324 -0.01255338 1.031 0.1350943446 -0.2115016729 0.9679961801
-0.3607229 -0.026618229 1.0470001 0.5126114488 -0.3656337261 0.7768793106
-0.20789224 0.12427208 1.189 -0.8120579123 -0.2627156079 0.521097362
-0.15562499 0.1512101 1.2590001 -0.6868954897 -0.5490435362 0.4761573374
-0.298242 0.088052399 1.08 0.3734926879 -0.7746759057 0.5102749467
-0.16521513 0.084599517 1.2150528 -0.4444882274 -0.556288898 0.7021202445
-0.10456967 -0.064191282 1.1810001 0.418266356 -0.454080224 0.7866793275
-0.32328212 -0.21212317 1.0566251 -0.3487603664 -0.9028484225 0.251457572
-0.14942609 -0.093037128 1.072 0.2096761167 -0.4642113745 0.8605484962
-0.42380741 -0.11133754 1.0925001 0.6336174011 -0.2334878296 0.7375720143
-0.23072289 0.018741379 1.0513334 -0.6161941886 -0.4280436337 0.6611227989
-0.17025305 -0.0010318366 1.177 -0.9354723692 0.3490955532 -0.05498888344
-0.15781228 -0.044238351 1.1138462 -0.1213482618 -0.6908769608 0.7127156854
-0.19981776 0.062886804 1.1570001 -0.6967201829 -0.6309711933 0.3412570059
-0.31618834 0.026376517 1.035143 -0.04469330981 0.06463044137 0.9969079494
-0.22645265 0.1832172 1.233 -0.209057048 -0.8047568798 0.5555731654
-0.12030935 0.14207962 1.307 0.07797983289 -0.7323224545 0.6764783263
-0.33286405 0.072597496 1.0848333 0.4262562394 -0.758407414 0.4930759072
-0.44244838 -0.049053006 1.108 0.8180885911 -0.07397612184 0.570314467
-0.19851767 -0.1803882 1.034 -0.67556566 -0.006439397577 0.7372717261
-0.27523062 0.074588336 1.0541853 -0.2262044996 -0.5658663511 0.7928599119
-0.35454589 0.15132932 1.233 0.4237159491 -0.7985720038 0.4274898171
-0.25618091 0.12247068 1.1248 -0.3954671323 -0.7784559727 0.4874547124
-0.2450234 -0.075043596 1.0170649 0.08979987353 0.2134874314 0.9728099108
-0.23522153 0.074645258 1.0835263 -0.4987235665 -0.7020388842 0.5083465576
-0.32458904 0.14709911 1.1956667 0.3766717613 -0.779963553 0.4997752011
-0.26460373 0.14430588 1.1548822 -0.02276741341 -0.8601658344 0.5095059872
-0.12814839 -0.12563483 1.1134287 0.2573925257 -0.8958973289 0.3621008694
-0.39405966 0.11562907 1.2037143 0.4687213302 -0.7156939507 0.5177667737
-0.38070914 0.021514276 1.067 0.5848905444 -0.5184650421 0.6237764359
-0.12567893 0.10282753 1.3032501 0.4328193665 -0.7580100894 0.4879426658
-0.12872535 0.047309317 1.2550001 -0.6427035928 0.7565774918 0.1205099225
-0.42901874 0.016768003 1.125 0.6381946802 -0.631148994 0.4408610761
-0.39665249 -0.054956071 1.0626 0.6136816144 -0.2658012509 0.743467927
-0.30637622 -0.052018765 1.0410001 0.1037803218 0.0310021434 0.994116962
-0.27426025 -0.15471572 1.0669998 0.08853708953 0.2911026776 0.952586174
-0.17985606 -0.021433624 1.0630001 -0.9425652027 0.03827413172 0.3318221867
-0.16323972 0.018572183 1.115 -0.5672669411 -0.6379287243 0.5208216906
-0.34188247 0.042504307 1.054 0.4523555636 -0.6583798528 0.6015899181
-0.31472284 0.12935093 1.1618 0.4205827415 -0.7641174197 0.4891162217
-0.41300511 -0.035210002 1.0855 0.6630166173 0.0609906055 0.7461160421
-0.22510459 -0.12358811 1.0355654 0.2008494884 0.2605566084 0.9443355799
-0.21652049 0.094077975 1.1639333 -0.8980921507 -0.2162020504 0.382997632
-0.28514063 0.044781629 1.0425001 -0.2355498075 -0.1591175348 0.9587481022
-0.26461869 0.20151973 1.2672 0.1429012418 -0.9340153337 0.32740587
-0.096575789 0.061256643 1.2590001 -0.391379714 -0.6185317636 0.6813518405
-0.14685626 0.13213412 1.3260001 -0.8797955513 0.44567433 0.1653306037
-0.23170984 0.14639756 1.1810001 -0.4254640043 -0.6925555468 0.5825351477
-0.38301829 -0.16774754 1.077 0.2353891134 0.5513294339 0.8003922701
-0.16262473 -0.12602258 1.057 -0.1492180675 -0.1100675464 0.9826592207
-0.29427072 0.16739948 1.2060001 0.2741898596 -0.8351721168 0.476767689
-0.37718377 -0.13641886 1.060375 0.3934437037 0.3339537382 0.8565494418
-0.25479561 0.028478295 1.0312501 -0.007474269252 -0.5890792012 0.8080407381
-0.16505893 -0.15476815 1.0708275 -0.4788946509 0.5413147807 0.69111377
-0.19674478 0.013982356 1.0631818 -0.5753522515 -0.6265700459 0.5257183909
-0.28472754 -0.075327322 1.0249997 0.2310485393 -0.01526245475 0.9728224874
-0.2918897 0.11219054 1.108 0.2716002464 -0.786218524 0.5550619364
-0.29374096 -0.015836185 1.0190003 0.09824365377 0.18450436 0.9779091477
-0.1424934 -0.10076319 1.161 0.3366756439 -0.7789611816 0.5290264487
-0.37252459 0.095071577 1.1536666 0.5450314879 -0.6820382476 0.4876110256
-0.33430085 -0.064364739 1.0452858 0.1913119704 0.2333881408 0.9533780813
-0.15699872 -0.070839927 1.092 0.238966465 -0.6048464179 0.7596419454
-0.23401548 -0.18573445 1.0115558 -0.3429473341 0.1109277681 0.9327819347
-0.18506785 0.14452435 1.2333335 -0.6049880981 -0.6027151346 0.5203113556
-0.2750394 -0.20932508 1.0175 0.2809277475 0.3891922832 0.8772736192
-0.13644703 0.039468993 1.2863334 -0.7280092835 0.6723520756 0.1339594126
-0.2957435 -0.11010758 1.0380001 0.04240932316 0.6082127094 0.7926403284
-0.18778649 -0.074974395 1.0723751 -0.9254982471 0.01267551351 0.3785397112
-0.22799921 0.10198414 1.1357143 -0.8109984994 -0.404063344 0.4231007397
-0.41450116 0.087097712 1.197 0.688126862 -0.5931361914 0.4179364145
-0.34407711 -0.19090275 1.0706002 -0.3268151879 -0.6175736785 0.715398252
-0.14956371 0.034128632 1.1450001 -0.5811303258 -0.722977519 0.373618871
-0.33534104 -0.13569006 1.0540001 -0.1503437907 0.5237146616 0.838522315
-0.27516964 -0.12500437 1.0530667 0.07215749472 0.6659142971 0.7425304651
-0.41599277 -0.0045065051 1.0827501 0.6871314645 -0.3122048974 0.6560323834
-0.15881605 0.091220967 1.2436666 -0.5141493678 -0.7432410121 0.4280692339
-0.16975598 -0.022058686 1.0940001 -0.9384453893 0.2314253896 0.25644207
-0.13569501 0.047906328 1.2036 -0.7745914459 -0.5072761774 0.3777286708
-0.085277751 0.062537014 1.2970001 0.5020163655 0.4983171821 0.7068660259
-0.3286185 0.0046024998 1.0500001 0.2077416033 0.03329215944 0.9776170254
-0.28495008 -0.19471861 1.0834664 0.08623013645 0.3302088678 0.939960897
-0.10549638 0.085215129 1.2734165 -0.2039186209 -0.3278756142 0.9224504232
-0.19427434 0.039690457 1.1120001 -0.4428666532 -0.7981066108 0.4085277617
-0.18325576 0.05901457 1.1810001 -0.4101028442 -0.8302912712 0.3774016798
-0.16824286 0.16372627 1.2880001 -0.7157758474 -0.6536688209 0.2457275391
-0.39657682 0.0748647 1.1539999 0.5855380893 -0.657689333 0.4739091694
-0.43315399 0.091133885 1.223 0.65408957 -0.6192154884 0.4344410598
-0.32746282 -0.11244754 1.0380001 0.06172963604 0.3449163139 0.9366014004
-0.44835189 0.04010487 1.1730001 0.5725902915 -0.6181349158 0.5385625362
-0.2019186 -0.036696039 1.031 -0.7310828567 0.03203240782 0.6815363765
-0.23814212 0.090698615 1.1065 -0.6093979478 -0.6324656606 0.4781435728
-0.41609985 0.038263869 1.1426001 0.6377130747 -0.5681791306 0.520090878
-0.37320164 0.11609761 1.1850001 0.4363792241 -0.7605938911 0.4806975424
-0.1881295 0.10463402 1.2056003 -0.7736855745 -0.2300573587 0.5903255343
-0.23728065 -0.1718024 1.067 0.2718302906 0.4231275916 0.8643328547
-0.3251597 -0.15582642 1.0710434 -0.154478386 0.4165151715 0.8959082365
-0.19723114 -0.095018655 1.0523001 -0.8971484303 0.1145666763 0.4266135395
-0.18016289 -0.031503893 1.123 -0.2063876539 -0.6998314857 0.6838421226
-0.20820834 0.19286667 1.25 -0.559507966 -0.7093501091 0.4286877811
-0.40502962 -0.081380092 1.067 0.512686193 0.4123166203 0.7530921698
-0.23598912 -0.10054965 1.028 -0.07326167077 0.5385668874 0.8393917084
-0.15589729 0.12529671 1.2648 -0.9691564441 -0.04276197776 0.242708087
-0.089280613 0.011832369 1.2270001 -0.08030273765 -0.5964090824 0.7986536622
-0.37441918 -0.0044838772 1.0515171 0.2740693092 0.214169234 0.9375593662
-0.32210135 0.11233782 1.1340001 0.4133798778 -0.7992649078 0.4362255037
-0.20397718 0.053230844 1.1328001 -0.5900970697 -0.7547087669 0.2867055535
-0.29663041 0.18617624 1.2516667 0.2465998828 -0.9081838727 0.338216722
-0.22076438 0.057128422 1.1045001 -0.8418536186 -0.4962788522 0.2121080607
-0.12251417 0.076927498 1.25 -0.7430319786 -0.4641642869 0.4821358621
-0.34198943 0.13082057 1.1750001 0.4117002189 -0.7610788345 0.5012603998
-0.12231515 -0.044804391 1.1947778 0.5308024287 -0.525541842 0.6648718715
-0.098768249 0.12764248 1.307 -0.2776944339 -0.6275167465 0.7273984551
-0.12195398 -0.078911394 1.169 0.4217722714 -0.5498592257 0.7209458947
-0.38464996 0.036494639 1.0913334 0.5710173249 -0.6169565916 0.5415751934
-0.37715557 0.05919122 1.1160001 0.5223531127 -0.6863927841 0.5059763789
-0.27024916 -0.018076867 1.031 -0.1839901805 0.2296906561 0.9557142854
-0.16509859 0.051657934 1.1554 -0.3888971806 -0.8464510441 0.3637026846
-0.22459306 0.05485528 1.0719374 -0.7936070561 -0.4413115084 0.418846041
-0.15281323 -0.13065694 1.115 0.2303430289 -0.908143878 0.3495951295
-0.2578904 0.082908496 1.0764287 -0.4784035385 -0.6489232183 0.591632247
-0.19374353 0.13491873 1.2118125 -0.717567265 -0.4273734391 0.5499538183
-0.27928758 -0.23048005 1.031 0.303401053 0.5605342388 0.7705512047
-0.34511349 -0.044992447 1.0338217 0.3130995631 0.02671528049 0.9493444562
-0.18482111 0.025133375 1.09405 -0.5307171941 -0.7028375268 0.4736650884
-0.34508723 0.076247208 1.1060001 0.4330694377 -0.7410413027 0.5131360888
-0.1222424 0.15484037 1.3280001 0.4811573625 -0.6460143924 0.5925816298
-0.12083798 -0.015944229 1.2126667 0.2952137887 -0.5360862017 0.7908605337
-0.25191718 -0.038412903 1.0190001 0.2890302241 -0.3065581322 0.9069088697
-0.3520031 -0.087656587 1.0470001 0.4024942517 -0.151316151 0.9028298855
-0.31382543 -0.005761453 1.0337602 0.4193516374 -0.3823350668 0.8233857751
-0.21514274 0.030868309 1.067 -0.4996801913 -0.6280508637 0.5965499282
-0.18467131 -0.15454838 1.0536923 -0.6824635267 0.3896480203 0.6183995008
-0.34646529 0.097884737 1.1323999 0.4690590203 -0.7091097832 0.526447475
-0.26401848 0.1767972 1.2134001 -0.01982417144 -0.8838569522 0.4673370719
-0.25638381 0.0079348134 1.0190001 -0.2258175462 0.01016874332 0.9741165638
-0.30769247 -0.19971344 1.09 0.08980450779 0.4890660644 0.8676114082
-0.18553242 -0.075295456 1.0961429 -0.1606414318 -0.5476273894 0.8211568594
-0.13168935 -0.10874349 1.138 0.2292374969 -0.7751648426 0.5887016654
-0.20228013 -0.15473798 1.031 -0.5689792633 -0.2184063047 0.7928185463
-0.17629328 -0.17057566 1.087 -0.4735195935 0.5991564989 0.6455932856
-0.31176284 -0.22103308 1.1010001 0.1178491488 0.504991293 0.8550411463
-0.15516649 0.061221138 1.204 -0.3716751635 -0.7939700484 0.4811123908
-0.2260108 -0.018759791 1.0190001 0.003845974337 -0.4369903207 0.8994579911
-0.15395944 0.10503919 1.2765714 -0.814983964 -0.5222213268 0.2511692941
-0.23478737 0.17324786 1.2134286 -0.1850032657 -0.8109210134 0.5551404953
-0.24434307 0.19407314 1.2436668 0.01874846965 -0.8898915648 0.4557866454
-0.37733838 -0.042676132 1.0506667 0.539028585 -0.3980368972 0.7423037291
-0.21421541 -0.064534418 1.0223998 -0.5820811987 0.1792348772 0.7931307554
-0.12081869 0.12872273 1.2880001 -0.3271098435 -0.4396621883 0.8364785314
-0.42556995 0.067470014 1.1840001 0.6195884943 -0.6214733124 0.4794591069
-0.19157942 0.17893147 1.273 -0.7274891138 -0.6015049219 0.3300778866
-0.26830325 -0.21065132 1.0840001 0.08955332637 0.3867497146 0.9178261757
-0.3970238 0.0063774576 1.0728889 0.6496346593 -0.4494531453 0.6131612062
-0.1035096 0.044672299 1.2428668 -0.4003350735 -0.458481431 0.7934271097
-0.43127796 -0.096163325 1.1079999 0.6843528748 0.1172074229 0.7196691036
-0.37180397 -0.09587986 1.0549999 0.5004102588 -0.08538380265 0.8615678549
-0.42270762 -0.1340185 1.0904001 0.5562202334 -0.1562675238 0.8162104487
-0.38382205 0.074386127 1.1340001 0.5651966929 -0.6555565 0.5007977486
-0.4107157 -0.09052898 1.087 0.5612503886 0.4061570168 0.7211341262
-0.2860274 0.17873953 1.2238001 0.1980364621 -0.8780620694 0.4356472492
-0.32519206 -0.18550448 1.0817391 -0.0913624689 0.4405566156 0.8930636644
-0.33344507 0.15404962 1.2152001 0.4119179249 -0.7943044901 0.4465467036
-0.29313368 0.14149532 1.1570001 0.3306123316 -0.8314563036 0.4465153217
-0.2253495 0.0038562382 1.0340836 -0.2733775377 -0.5167437792 0.8113202453
-0.098977417 -0.011707007 1.2140001 0.09552516043 -0.579395473 0.8094293475
-0.29484633 0.024846196 1.043889 0.08310705423 -0.1171437129 0.9896315336
-0.4263663 -0.053586733 1.0933636 0.7155806422 -0.3222619593 0.619751215
-0.30754957 -0.20716245 1.041 0.694441855 0.3361163437 0.636220336
-0.21368487 -0.19128603 1.0220001 -0.5093859434 0.1124238223 0.8531628847
-0.19693278 -0.074455768 1.0440003 -0.8378741741 0.2174829245 0.500667572
-0.3614195 -0.17339906 1.0832001 0.236485973 0.4432979226 0.8646162748
-0.25516942 0.15590237 1.1746 -0.1867731363 -0.8540900946 0.4854336977
-0.19614333 -0.11664114 1.0567273 -0.7684835196 -0.3054742515 0.5622442365
-0.34565529 0.056234825 1.0725999 0.4792045355 -0.6806188226 0.5541850328
-0.17839816 -0.051667225 1.1120001 -0.0786844492 -0.6138879657 0.785461843
-0.21296681 0.077232093 1.1441112 -0.8241376281 -0.4795669019 0.3013514578
-0.31436533 0.074126855 1.0728571 0.4093124866 -0.7227792144 0.5568245053
-0.31365269 0.088064551 1.097 0.4544226527 -0.7531104088 0.475736022
-0.11248385 0.023364419 1.2354287 -0.2526819408 -0.4882678092 0.8353121281
-0.37526375 -0.024850529 1.0630555 0.4925115705 -0.07488607615 0.8670781255
-0.18132052 0.076166555 1.2025 -0.6622332335 -0.4497312903 0.5993237495
-0.43434259 0.034268461 1.1553332 0.550709486 -0.5986362696 0.5816817284
-0.16947719 -0.091839597 1.08 0.1538166702 -0.4865138531 0.8600260019
-0.22579601 -0.15144855 1.0470001 0.6285681725 0.3101721704 0.7132287621
-0.3043918 -0.1491473 1.0700001 -0.01638898253 0.4598556459 0.8878424168
-0.29453528 -0.035881527 1.0330386 0.05089731514 0.3669322729 0.9288542271
-0.19158499 -0.0027620841 1.0506667 -0.6667397618 -0.456867069 0.5888382792
-0.24515225 -0.11827279 1.0412143 0.2455536723 0.5218453407 0.8169338107
-0.20196997 0.15768778 1.2320001 -0.71438241 -0.5136845708 0.4751693606
-0.41324252 -0.056184437 1.0758573 0.6618055701 -0.3365555704 0.6698833704
-0.26548621 -0.085252494 1.0244229 0.1716428548 0.2965247333 0.939474225
-0.27575615 -0.17438848 1.0746499 0.102269724 0.367965579 0.9241981506
-0.20691125 -0.10540972 1.0353914 -0.6243719459 -0.008319013752 0.7810828686
-0.27518353 0.16431259 1.195182 0.08662221581 -0.8543204665 0.5124774575
-0.4419592 0.055244904 1.189 0.5720816851 -0.6447587609 0.5069602728
-0.20789333 0.14475667 1.1936667 -0.71182549 -0.4555937648 0.5345454216
-0.26593333 0.047784373 1.0504445 -0.1215233654 -0.4871682227 0.8648116589
-0.3976503 -0.12422954 1.0703 0.5576789379 -0.04630287364 0.8287642598
-0.21764493 0.11622978 1.1646668 -0.8430480957 -0.2962801456 0.4488741755
-0.29410797 0.063606083 1.044353 0.02288881503 -0.6021617651 0.7980459332
-0.44490424 0.0079636406 1.1353333 0.5532234907 -0.6651691198 0.5014916658
-0.1445076 0.11623085 1.3127145 -0.7262920141 -0.5819261074 0.3658714294
-0.14417112 0.08269158 1.2250001 -0.3803723454 -0.7094354033 0.5933113098
-0.27455762 0.13299417 1.1372 0.0477703996 -0.8568556905 0.513338387
-0.2635304 -0.065340228 1.0190001 0.2720761597 -0.006414069328 0.9622543454
-0.30446145 0.044333462 1.0352695 -0.07400598377 -0.08519138396 0.993612349
-0.2496361 0.11267621 1.108 -0.5380665064 -0.6457452774 0.5417540073
-0.088163733 0.073655784 1.273 -0.6596930623 -0.3313376904 0.6745520234
-0.23505887 0.1605536 1.197 -0.3079308271 -0.781547904 0.5425509214
-0.33640453 -0.012481105 1.0418 0.3774537146 -0.4042695165 0.8331235647
-0.29543903 0.075671181 1.0639375 0.3402287364 -0.7181432843 0.6070540547
-0.3158963 0.16314591 1.21 0.3584756255 -0.8105447292 0.4631548822
-0.32449931 0.043399088 1.0433334 0.3530366719 -0.5550147295 0.7532089949
-0.12947577 0.033228297 1.307 -0.6915332079 0.7042867541 0.1605055034
-0.27546301 0.093038239 1.0748667 -0.1175759509 -0.7465305924 0.6548801064
-0.20835648 0.01009657 1.0470001 -0.3709817231 -0.6578623652 0.655430913
-0.23608807 0.034521963 1.0362223 -0.5941169262 -0.3782405555 0.709900856
-0.42665014 0.0042956667 1.1057143 0.6664812565 -0.5389533639 0.5151038766
-0.39626014 -0.034194056 1.0723749 0.5567584038 -0.02640247904 0.8302547932
-0.10617882 -0.044089679 1.1826469 0.4424472153 -0.5071314573 0.7396337986
-0.17846566 0.12396418 1.2190001 -0.7629143596 -0.251734376 0.5954758525
-0.17728741 0.15306728 1.2561111 -0.6303896308 -0.6365157962 0.4443609118
-0.14204082 -0.13244221 1.09475 0.6067787409 -0.7922236919 0.06481613964
-0.20270909 0.10533752 1.1849999 -0.7731431723 -0.1946541071 0.6036219001
-0.35401642 -0.14273481 1.0553637 0.1066105515 0.5002300143 0.8593044281
-0.37428218 -0.11570374 1.0543915 0.4820315242 0.01688518748 0.8759911656
-0.32714045 -0.05136916 1.028 0.01000483427 0.3445434868 0.9387170672
-0.12591752 -0.065221928 1.1828947 0.4615503252 -0.4619358182 0.7573549747
-0.16244839 -0.10881859 1.067 0.1772962511 -0.4366129339 0.8820063472
-0.35467145 -0.005157283 1.0533335 0.2400684059 0.07472367585 0.9678757787
-0.24632843 0.18178825 1.2270001 -0.03459374234 -0.8709763288 0.490105629
-0.1766919 0.10445095 1.2247143 -0.8106684685 -0.2484339923 0.5301859975
-0.15800601 -0.031700268 1.13 -0.1982776225 -0.7439553738 0.6381350756
-0.30437309 0.11524659 1.1236 0.3596246541 -0.7908517122 0.4952006042
-0.14400603 0.10610297 1.2934285 -0.6025161743 -0.7021574378 0.3794063926
-0.13197866 0.048681296 1.2340001 -0.8885447383 -0.2188603729 0.4032225013
-0.18675299 -0.034786571 1.0442501 -0.8115519881 0.04886063933 0.5822336674
-0.11353324 0.066431001 1.2672 -0.9165178537 -0.3946540058 0.06514043361
-0.29379204 -0.23155572 1.044 0.5203208327 0.4815672636 0.705237031
-0.28482774 -0.094654597 1.0275555 0.07629784197 0.2825113833 0.9562248588
-0.17611401 0.17039813 1.3045001 -0.7181457877 -0.6448992491 0.261479646
-0.18117368 -0.032252565 1.082 -0.9440119267 0.2945663035 0.1485669613
-0.14178535 0.03709206 1.1863334 -0.960573554 0.1509286463 0.2334929407
-0.22271077 0.076448463 1.1038573 -0.8497017026 -0.4727690518 0.2334446758
-0.30523115 0.15553257 1.1952858 0.3769537807 -0.7877980471 0.4871140122
-0.26042697 -0.20216197 1.0070001 0.1190678999 0.3261778355 0.9377797246
-0.25516456 -0.16510697 1.0700831 0.1151562557 0.3437410593 0.931976974
-0.15689324 0.068261065 1.223 -0.2938280404 -0.5955734849 0.7476344705
-0.2743502 0.12066177 1.1190001 0.02086436376 -0.8266881108 0.5622734427
-0.17490005 0.033764869 1.1152942 -0.4685470164 -0.7319518328 0.4946819246
-0.33523801 0.024885204 1.0360801 0.1775807142 -0.1167570353 0.9771555066
-0.3638123 0.11170574 1.169 0.4424138665 -0.77345258 0.4539175034
-0.22732963 0.045551203 1.0555557 -0.7342072129 -0.3988198042 0.5494383574
-0.17200989 -0.01119591 1.161 -0.1681717783 -0.8404776454 0.5150879025
-0.38479161 -0.084565215 1.0629998 0.3549413681 0.3333042264 0.8734557629
-0.19139825 -0.057884548 1.0650001 -0.9651287198 0.1414247304 0.2202853858
-0.22590476 -0.084201284 1.0181429 -0.3150188327 0.3642931581 0.8763867021
-0.16210882 0.0094127702 1.1930001 -0.904745996 0.4257835448 0.01196000539
-0.33243006 -0.094206877 1.0380001 0.2996480167 -0.03675998375 0.9533413649
-0.11697538 0.096729651 1.2830001 0.193288669 -0.7495134473 0.6331421733
-0.44597697 -0.038395371 1.123 0.8048113585 -0.02709613182 0.5929118395
-0.24259154 0.014280723 1.031 -0.4900476933 -0.08054155856 0.8679667711
-0.20476495 0.17527634 1.2428666 -0.6489981413 -0.5503289104 0.5252994895
-0.21555246 -0.14185479 1.0335555 0.1900975555 -0.4722787142 0.8607065082
-0.13807499 0.09095417 1.25 -0.4195399284 -0.851128757 0.3155409098
-0.32859483 0.11786053 1.1556667 0.3544199467 -0.8058982491 0.4742515087
-0.38740778 -0.14852194 1.0700001 0.3561974764 0.4286773801 0.8302764893
-0.16324893 0.14759867 1.2755001 -0.7328281403 -0.5962908268 0.3277196288
-0.24489281 -0.055212472 1.0158002 0.1431351006 -0.08354387432 0.9861707687
-0.37462744 0.1332656 1.2105715 0.3956522346 -0.7854806185 0.4758985937
-0.41723722 0.022421626 1.1120001 0.6598387957 -0.5931231976 0.4613216519
-0.42789871 -0.037285861 1.1018 0.7705385685 0.02467256971 0.6369156837
-0.27535379 -0.0050971969 1.0190005 -0.1281855702 0.09688638151 0.9870063066
-0.22486863 -0.20439096 1.0155717 -0.39781636 0.2730407417 0.8758943081
-0.41166949 0.064506009 1.1556667 0.650439024 -0.5741519332 0.4972712398
-0.36365673 -0.055604566 1.0380001 0.181329608 0.2076598555 0.961247623
-0.21685383 0.13328631 1.1757693 -0.6464877725 -0.4404034615 0.622975409
-0.1589274 0.032575179 1.126 -0.4966079593 -0.7166156769 0.4897372127
-0.17080711 0.13599291 1.2410001 -0.7444930077 -0.4632816613 0.4807289243
-0.39398172 0.024638278 1.0811666 0.6127410531 -0.5792071223 0.5376499891
-0.11786292 -0.11746807 1.126 0.1958779395 -0.8363316059 0.5120363832
-0.24635048 0.13391006 1.1452501 -0.4918683171 -0.6998060346 0.5180126429
-0.14952514 0.1377515 1.3430001 -0.7682096362 0.6401275396 -0.009522344917
-0.23987179 0.11154531 1.126 -0.6576632261 -0.5995933414 0.4560338557
-0.12634958 -0.10006887 1.153 0.2698988616 -0.7853913903 0.5570592284
-0.40339202 0.10215095 1.189 0.5639412403 -0.6598494649 0.4965571165
-0.097067513 0.14364377 1.3150001 -0.1970874965 -0.6573736668 0.7273350954
-0.18281917 0.053857762 1.1467143 -0.2768643498 -0.8857192397 0.3726225495
-0.23094949 0.19905987 1.2545 -0.06371559948 -0.8774731755 0.475374788
-0.44111848 0.0016349833 1.1190001 0.6596450806 -0.5712609291 0.488394618
-0.27662078 0.1511645 1.1730001 0.1121141538 -0.870126307 0.4799069166
-0.35441795 0.12468722 1.1863334 0.4200170934 -0.7825405598 0.459582299
-0.28503701 0.10406404 1.0936154 0.1867014468 -0.8140746355 0.5499318838
-0.20133263 0.19008501 1.2830001 -0.6108611226 -0.7483371496 0.2585347295
-0.28520882 -0.13561648 1.0633199 -0.04502258077 0.5005275607 0.8645491004
-0.20358405 0.07625699 1.1742309 -0.7451990247 -0.4797775745 0.4631327391
-0.24975269 0.070155248 1.067 -0.3669456244 -0.6529638171 0.6625625491
-0.20215335 -0.055500627 1.0318824 -0.7495141625 0.1560670137 0.6433285475
-0.27117404 0.03002934 1.0380001 0.230719164 -0.5374259353 0.8111362457
-0.16406202 0.060878363 1.177 -0.2683646679 -0.9104023576 0.3148776591
-0.25177342 0.088552974 1.0920001 -0.5451501012 -0.6385535598 0.54319489
-0.2169373 0.17205374 1.2190001 -0.4998136163 -0.7064825892 0.5010675788
-0.24493617 0.14464737 1.1658 -0.4315317571 -0.7227856517 0.5397788882
-0.21715648 -0.17436485 1.0170001 -0.48730582 -0.004655580036 0.8732189536
-0.40761489 -0.1144562 1.0807999 0.5867757797 -0.2138960361 0.780988276
-0.31888574 0.13977134 1.1810001 0.3262521327 -0.8057361245 0.4943165779
-0.312451 0.12256765 1.146 0.4396029115 -0.8029741645 0.4024695754
-0.34364188 -0.17451064 1.076 0.06673662364 0.252949357 0.9651750326
-0.38398868 -0.065053068 1.0485001 0.4492659867 0.272589922 0.8507965803
-0.32737362 -0.19792503 1.0700001 -0.4757066667 -0.6997277737 0.532995522
-0.37395272 0.013743713 1.0532353 0.5566183329 -0.2708753347 0.7853677869
-0.20536228 -0.12553716 1.0347275 -0.3824580014 -0.1825004071 0.905770123
-0.30010405 -0.068492211 1.028 0.3219662905 -0.2094883025 0.9232834578
-0.14871904 0.13641679 1.2755001 -0.9739993811 -0.1058211029 0.2003176063
-0.255272 -0.12754343 1.0512002 0.2904300392 0.5733159184 0.7661326528
-0.086100504 0.057031989 1.2755001 0.9132520556 0.2893356085 0.2868022919
-0.31544134 -0.12024096 1.0470001 -0.06746717542 0.5870628953 0.8067250848
-0.14834194 -0.11668464 1.0620002 -0.3910336196 -0.1543102115 0.9073483944
-0.26406637 -0.22208019 1.0190001 0.2075762302 0.4167835414 0.8849878907
-0.11896805 0.056755401 1.245 -0.613818109 -0.4028759599 0.6789096594
-0.30315518 0.011820624 1.0372001 0.2590055168 -0.3070720136 0.915763557
-0.168384 0.06379766 1.1930001 -0.3079369962 -0.8636653423 0.3990702033
-0.35246205 0.03028971 1.0470001 0.4693696499 -0.520944953 0.712957561
-0.38729498 0.086890817 1.162143 0.536504209 -0.6666113734 0.5174867511
-0.15800408 0.10398951 1.2545556 -0.8668310046 -0.3549312949 0.3501824439
-0.10665768 -0.083946526 1.1642501 0.3371125162 -0.6308681965 0.6988279223
-0.12213194 0.058212418 1.302 -0.7082341909 0.6940328479 0.1293164492
-0.17641407 -0.13540813 1.0585001 -0.3371111155 -0.003376288339 0.9414588213
-0.12815727 0.11199329 1.317 0.129805252 -0.6690970659 0.7317511439
-0.12251855 -0.032353383 1.21 0.4023302794 -0.5575159788 0.7261585593
-0.15010023 0.13405898 1.307 -0.9080821872 0.266672343 0.3229126632
-0.13689677 0.122077 1.3346667 -0.9156637192 0.3735242486 -0.1484572142
-0.23600645 -0.15629619 1.0615882 0.3850947022 0.4379303455 0.8123540282
-0.23500247 -0.13442054 1.0430403 0.349946171 0.3956747353 0.8491049409
-0.19329798 -0.057309452 1.108 -0.0176236555 -0.5687259436 0.8223382235
-0.19835284 0.18182504 1.2570001 -0.7045540214 -0.6060418487 0.3692111671
-0.16685772 0.011398921 1.0965716 -0.6272116303 -0.5851083398 0.5140561461
-0.42904943 -0.0200669 1.09 0.7381917238 0.1001166999 0.6671203971
-0.35458592 0.10225598 1.1458001 0.4595757425 -0.749807775 0.4760026038
-0.10623721 0.12323686 1.292625 0.1045824513 -0.5731040239 0.8127818108
-0.1784956 -0.0052851308 1.0641669 -0.8354275227 -0.2356574684 0.4965143204
-0.26514256 -0.13564101 1.0612001 0.18451491 0.5138838291 0.8377814293
-0.35314062 0.042353522 1.0656667 0.5249215961 -0.6474010348 0.5525659919
-0.29199314 -0.2090815 1.028 0.4558599591 0.3883758783 0.8008469939
-0.32059699 -0.13846073 1.0600001 -0.1419155002 0.5766571164 0.8045660257
-0.25545102 0.19434518 1.256 0.01809389144 -0.9103974104 0.4133390486
-0.34040353 0.091232069 1.1190001 0.4381161928 -0.6585019231 0.6119064093
-0.20993099 -0.029479669 1.0190001 -0.4488674998 -0.1602868885 0.8791052699
-0.38592675 0.10631914 1.1866001 0.4613232315 -0.720777154 0.5173597932
-0.15627782 -0.14242779 1.0653335 -0.4488963783 0.3356078863 0.8281662464
-0.1723063 -0.066123076 1.0966668 0.07681437582 -0.5398666263 0.8382384181
-0.40173075 0.080961041 1.169 0.5504698753 -0.655205667 0.517386198
-0.43788362 -0.06273865 1.1010001 0.6872851849 -0.3604153097 0.6306661963
-0.1903068 0.0198828 1.08 -0.6107696891 -0.6608969569 0.4360912442
-0.20873432 0.055435389 1.1148572 -0.6887633204 -0.6686611772 0.2801737487
-0.24365371 -0.20039636 1.0070001 -0.1825697571 0.2771908343 0.9433099031
-0.20155706 -0.020788396 1.031 -0.6551678777 -0.1905183494 0.731066227
-0.218297 0.20056731 1.2640001 -0.4208443761 -0.8542250395 0.3052696884
-0.2908175 0.16156529 1.189 0.2478688806 -0.8318548799 0.4965666533
-0.30444515 -0.025274947 1.0259676 0.158901006 0.2195254564 0.9625793695
-0.22653879 0.091652878 1.1172856 -0.8032521605 -0.4946832061 0.3317747414
-0.13779622 -0.091521367 1.1730001 0.4831504822 -0.647213459 0.5896442533
-0.12314685 0.044904355 1.2934999 -0.6850935221 0.7114028931 0.1566932648
-0.21934287 0.10512285 1.153 -0.9130969048 -0.2043315023 0.3528493345
-0.38662985 0.0062021241 1.061 0.5852863789 -0.3421153724 0.7351169586
-0.21952084 0.063670546 1.0840001 -0.8097708821 -0.4767063558 0.3420849741
-0.3309294 -0.078561604 1.0380001 0.3318796456 -0.1419767886 0.9325762391
-0.1610875 0.124925 1.25 -0.8818194866 -0.1736894995 0.4384362996
-0.08717382 0.044144791 1.2558182 -0.6632210016 -0.4644192755 0.5869008899
-0.29865566 -0.086381607 1.031 0.2268744707 0.1079931557 0.967918098
-0.34358245 -0.025869433 1.0380001 0.4234463274 -0.3339962065 0.8421043754
-0.21090738 -0.047127146 1.0220001 -0.5711478591 0.0849359259 0.8164410591
-0.36602813 -0.15728444 1.0708182 0.2142919898 0.5988802314 0.7716355324
-0.17264839 -0.023686074 1.1339999 -0.1275728196 -0.8121835589 0.5692828894
-0.31180227 0.10004871 1.108 0.4158679545 -0.6613183618 0.6242690682
-0.1903068 -0.088052392 1.08 -0.8236709237 -0.08723191917 0.5603185296
-0.13585685 0.096205577 1.2850001 -0.265003711 -0.9085960984 0.3228408098
-0.34572402 0.14061558 1.2060001 0.4322629273 -0.7790801525 0.4540736377
-0.13424307 -0.1179202 1.1251819 0.2299280465 -0.8404393196 0.4907085299
-0.28577399 -0.054496426 1.031 0.3374179006 -0.2256575227 0.9139080048
-0.097106017 0.022021284 1.2353334 -0.1476650387 -0.558381319 0.8163365126
-0.24506836 -0.090225659 1.0190001 0.07273554057 0.4157190621 0.9065799713
-0.42639402 0.078011937 1.2190001 0.6397246718 -0.6237751842 0.4490621686
-0.16545843 -0.054385092 1.104318 -0.06536454707 -0.6157472134 0.7852278948
-0.31667566 -0.063301951 1.0410001 0.2370620668 -0.0514411591 0.9701316357
-0.18494704 -0.16421545 1.0655 -0.5468296409 0.6045663953 0.5792036653
-0.31488642 -0.10435932 1.0351113 0.1240988225 0.3686546683 0.9212454557
-0.27995035 0.058743678 1.0470001 -0.3473407626 -0.2970082164 0.8894608021
-0.11622584 -0.10824466 1.138 0.1917906702 -0.7861682773 0.5874996185
-0.24413151 0.15583101 1.1850001 -0.318446368 -0.7983757854 0.5110655427
-0.1941203 0.11986663 1.21 -0.7456297874 -0.2962899804 0.5968654752
-0.37518948 0.052365404 1.094 0.5395655632 -0.6839054227 0.4910624623
-0.17105214 -0.077664331 1.087 0.1368470788 -0.6177464128 0.7743785977
-0.25461528 -0.026035091 1.0272173 0.2198712826 -0.2400313467 0.945537746
-0.26377335 0.076112546 1.0638696 -0.4039286971 -0.5805425048 0.7069738507
-0.42204398 -0.11235623 1.077 0.5894278884 -0.2052329183 0.7813156843
-0.24546663 0.043218225 1.044158 -0.1677534431 -0.6256097555 0.7618865967
-0.36544561 0.068563975 1.115 0.4892255366 -0.6774021983 0.5493492484
-0.34545633 0.0049792714 1.0442225 0.1256150901 0.2638168931 0.9563584328
-0.34553862 -0.074590497 1.0504445 0.2675047219 0.06862275302 0.9611098766
-0.42026436 -0.096170336 1.097 0.711823225 0.2306112349 0.6634200215
-0.2514087 0.098630264 1.103 -0.5915051103 -0.5912160277 0.5482565761
-0.36817545 -0.082333021 1.0600001 0.3534866273 0.169915542 0.9198781848
-0.19188592 -0.083965376 1.06125 -0.9402199984 0.1538474113 0.3038377464
-0.10968415 0.15124866 1.317 -0.2049999684 -0.6562253833 0.7261840105
-0.3614921 0.092318252 1.1372001 0.5034719706 -0.7083166242 0.4947762489
-0.25726172 -0.0042287703 1.028 -0.2825455368 0.2684351206 0.9209291935
-0.40740585 0.086151786 1.184 0.6329333782 -0.5879171491 0.5037347674
-0.29548049 -0.1187445 1.0500001 -0.03835660964 0.6707621813 0.7406799793
-0.21999161 0.040599309 1.077 -0.7275400162 -0.5066205859 0.4626241624
-0.25143853 -0.10003468 1.028 0.1124535948 0.5411717892 0.8333590031
-0.18114433 0.16884643 1.2755001 -0.6920123696 -0.6252220869 0.3608548641
-0.34441385 -0.10505924 1.0420803 0.2833484411 0.08210191131 0.955496192
-0.2463087 0.12141045 1.1375 -0.5651057363 -0.6651037931 0.4881520569
-0.3349762 -0.12356067 1.044 -0.03474911302 0.4941764772 0.8686668277
-0.17692436 0.093458042 1.214875 -0.7161257267 -0.3829958737 0.5835049748
-0.33181557 0.10477643 1.126 0.414699465 -0.7337254286 0.5382112861
-0.23470446 0.066479348 1.0713887 -0.4584305286 -0.6891253591 0.5612020493
-0.1676348 0.14208628 1.2564001 -0.6764239669 -0.5551736355 0.4839761257
-0.40377995 0.01189045 1.085 0.6563164592 -0.5187754035 0.547832787
-0.2005147 0.029459506 1.0840001 -0.5873472691 -0.7008061409 0.4048382044
-0.20585011 0.04504532 1.1049999 -0.6219004393 -0.7224748731 0.3021091223
-0.19791295 0.11423378 1.1954615 -0.7832587957 -0.242366299 0.5725069642
-0.21393757 0.10491268 1.1732502 -0.8588647842 -0.1381923556 0.4932080507
-0.2210521 -0.098011911 1.0320001 -0.3215326965 0.33514148 0.8856053948
-0.41366464 -0.023768585 1.0766363 0.5955849886 0.1344837993 0.7919549346
-0.41064206 -0.067349039 1.067 0.5828409791 -0.02741279267 0.8121237159
