# .PCD v0.7 - Point Cloud Data file format
VERSION 0.7
FIELDS x y z normal_x normal_y normal_z
SIZE 4 4 4 4 4 4
TYPE F F F F F F
COUNT 1 1 1 1 1 1
WIDTH 512
HEIGHT 1
VIEWPOINT 0 0 0 1 0 0 0
POINTS 512
DATA ascii
-0.05686805 -0.044109922 1.2125002 0.4063089192 -0.6751691699 0.6156781912
-0.49705291 0.044074856 1.3965001 0.6966702342 -0.7074132562 0.1192351654
-0.36715588 -0.028586347 1.0190001 0.4484005868 -0.4144381583 0.7919456363
-0.28197896 0.21550483 1.223 0.1378224641 -0.9275982976 0.3472266495
-0.14804551 -0.16427858 1.0064 -0.7771403193 0.0596832484 0.626490891
-0.14632636 0.090582989 1.0190001 -0.4609391689 -0.5024576783 0.7314857244
-0.079858199 0.17433831 1.2830001 -0.897993505 -0.399407953 0.1846103221
-0.34454972 0.12363805 1.09325 0.256474942 -0.7899262309 0.5569893718
-0.31695881 -0.17090617 1.0500001 0.367919296 -0.3247573376 0.8713024855
-0.15481263 0.17478597 1.1447897 -0.1951763034 -0.8626439571 0.4666386247
-0.22437057 -0.040873706 0.99200004 0.02758369595 -0.1490113884 0.988450706
-0.088692799 -0.035160907 1.0350001 -0.8670236468 0.07623448968 0.4924005866
-0.090147629 -0.14364183 1.13 -0.318028003 -0.7666728497 0.5577373505
-0.3984108 0.17744347 1.273 0.4155943692 -0.8704718947 0.2637423277
-0.032846946 0.05776532 1.2920001 0.1586698294 -0.4670522213 0.8698770404
-0.10690757 0.059032451 1.1570001 -0.8764412999 -0.07778532058 0.4751843214
-0.27469724 0.072707362 1.0061429 0.2423289865 -0.5792847276 0.7782710791
-0.23391999 0.13862437 1.0822222 0.03286967427 -0.8165239096 0.5763751864
-0.17228603 0.21996267 1.2360001 -0.10936407 -0.916321218 0.3852206171
-0.24509265 -0.17451093 0.97542322 0.3600421548 0.4009369612 0.8423889875
-0.36024863 -0.10224564 1.09 0.7972615361 0.3330391347 0.5034471154
-0.30442324 -0.092993952 1.0062106 0.1492614746 0.5483865738 0.8227959275
-0.35091299 0.17392015 1.1670001 0.2823528647 -0.816634357 0.5033737421
-0.088211827 0.14422706 1.1958572 -0.9039536119 -0.2430422753 0.3518498838
-0.070033394 0.10564359 1.3540001 -0.7038846612 0.5905694962 0.394682169
-0.35345095 0.052880533 1.046 0.5128847361 -0.5544056892 0.6554262638
-0.097450703 0.042841386 1.074 -0.9523156881 -0.2336431295 0.1962286532
-0.13081503 -0.10533325 1.0633334 -0.2331229448 -0.5954957008 0.7687903643
-0.15538974 0.0061848075 0.99604338 -0.3264347911 0.3185299039 0.8899320364
-0.24570805 0.18360965 1.155 -0.0297938399 -0.8769618869 0.4796354473
-0.21240318 -0.11840347 1.031 0.04426632822 0.3953056335 0.9174823761
-0.11944583 0.1261348 1.09 -0.83237499 -0.4726582468 0.289389044
-0.29465109 -0.0051196739 0.99419999 0.234992668 0.2820731699 0.9301683307
-0.15528724 -0.074965626 0.99594277 -0.09464745224 0.4121009707 0.9062089324
-0.081004001 0.061563041 1.2320001 -0.9802414775 0.1703042984 0.1006134599
-0.10150617 -0.094254375 1.1815002 0.350712508 -0.6557192802 0.6686052084
-0.068075798 -0.0011159966 1.273 0.6724219918 -0.5320128798 0.5145978928
-0.20721857 0.062425684 0.98900002 -0.07483319938 0.1326562166 0.988333106
-0.066372432 0.0089157 1.13 -0.7917568684 -0.5153563619 0.3279159963
-0.098893553 -0.0583033 1.1023334 -0.02843506448 -0.5836482048 0.8115085959
-0.23251829 -0.17728829 1.0500001 -0.1547407955 0.2769217193 0.9483510256
-0.11124549 0.19872981 1.2320001 -0.4661458433 -0.7443575859 0.4781629741
-0.29539973 0.15792435 1.124125 0.2053905278 -0.7892640829 0.5786855817
-0.065315396 0.11685397 1.2575001 -0.9144095182 -0.2266185433 0.3354091048
-0.20467696 0.10546818 1.0337896 0.04603279382 -0.7860811949 0.6164067984
-0.29106209 0.10810878 1.054 0.2401082218 -0.8028179407 0.5457392931
-0.2237867 0.21039474 1.2060001 -0.08030863106 -0.9001832008 0.4280428886
-0.1226632 -0.16355093 1.0600001 -0.5609311461 0.3661159277 0.7425061464
-0.17556998 0.1432509 1.0943847 -0.03445173055 -0.8476425409 0.5294479728
-0.099374548 0.11945022 1.1450001 -0.9561392665 -0.1621087193 0.2439640611
-0.28422409 -0.1460965 1.01 0.9183375835 -0.2291618437 0.3227086663
-0.11821645 0.040795099 1.0190001 -0.6718316078 -0.3463653028 0.6547315717
-0.35572854 -0.081012323 1.0325 0.6086475253 0.4061403275 0.6816144586
-0.24450058 0.021675585 0.98900002 0.04617515951 -0.4265581667 0.9032806754
-0.025496975 0.10778266 1.322 0.2353015989 -0.7489235997 0.6194728613
-0.29550812 0.1915153 1.1745001 0.1679976434 -0.8441824317 0.5090509057
-0.18949413 -0.19122466 0.98700005 -0.4097633958 0.3475451767 0.8433897495
-0.10470951 -0.062822372 1.2250001 0.4509174526 -0.6389091611 0.623272419
-0.17571205 0.19729011 1.186 -0.07007846236 -0.8895155191 0.4514988363
-0.33634806 0.021187279 1.0070001 0.2677065134 -0.5281878114 0.8058230877
-0.07481166 0.082827903 1.3061668 0.255081594 -0.8659125566 0.4302659929
-0.076740414 -0.0067853993 1.0754001 -0.8607662916 -0.4352427423 0.2639036179
-0.27327183 -0.054119196 0.99199992 -0.01979805715 -0.014632212 0.9996969104
-0.32484004 -0.045649141 0.99685287 0.2977052033 -0.2522478104 0.9207293987
-0.12552275 -0.034866054 0.99433351 -0.4092412293 -0.1043555364 0.9064389467
-0.25488326 -0.095669322 1.0127503 -0.121034205 0.5044230223 0.8549316525
-0.12504978 0.18268031 1.1832223 -0.4719797671 -0.7750210166 0.4202112257
-0.090990111 0.095173568 1.1930001 -0.8977428675 0.0017567873 0.4405164123
-0.20476128 0.16936791 1.132 -0.08903302252 -0.8547961712 0.5112695694
-0.12190446 0.087475114 1.0615001 -0.852935493 -0.322916925 0.41015324
-0.36554369 0.1456231 1.13 0.3235717118 -0.7671741843 0.5538457632
-0.18826985 -0.16267997 1.0425 0.1867737174 0.3468499482 0.9191358685
-0.16576199 -0.12267592 1.018625 0.3477655351 0.2842141688 0.8934659958
-0.35077626 -0.1412459 1.067 0.2860850096 -0.3802804053 0.8795124888
-0.16684982 0.050319791 1.0070001 -0.2241716087 -0.2072383463 0.9522601366
-0.33468586 0.093811557 1.05425 0.2191288322 -0.7073602676 0.6720297337
-0.11844502 -0.075797655 1.0220001 -0.6857256889 0.3757528961 0.6233698726
-0.17509267 -0.035189502 0.98812515 0.002197296824 -0.2220446169 0.9750340581
-0.16424543 0.11595722 1.0514001 -0.01248458494 -0.8339390159 0.5517153144
-0.036422871 0.027593084 1.2590001 0.5764725804 -0.4121772051 0.7055418491
-0.20375048 -0.0015172908 0.98899996 -0.0723670423 0.2782693207 0.9577730298
-0.081727251 0.15691456 1.243 -0.9414116144 -0.2690949738 0.2033029944
-0.20496906 -0.07885354 1.001 0.004728688393 0.6215258241 0.7833793759
-0.24474244 0.16251163 1.1166999 0.02255117521 -0.8361050487 0.5481056571
-0.31985533 0.068988405 1.0220001 0.5069869161 -0.3298752606 0.7963331938
-0.2461233 0.11115519 1.045 0.02630376443 -0.8085144758 0.5878881216
-0.084041648 -0.029469149 1.245 0.3974229693 -0.7845830917 0.4759036899
-0.27902544 0.13855717 1.09 0.1478627771 -0.7902535796 0.5946729183
-0.12700006 0.15062799 1.123 -0.5719510913 -0.7352674603 0.3636670709
-0.044605676 -0.011967377 1.2410001 0.5419406891 -0.6443796754 0.5395138264
-0.096672818 0.013992556 1.0448184 -0.7561873794 -0.3951799273 0.5215491056
-0.27269855 -0.17192398 1.0450001 -0.1653440446 0.203652218 0.9649803638
-0.23711805 0.087986775 1.0108572 0.02471077442 -0.7942119241 0.6071382165
-0.35780099 0.0032007101 1.0425 0.657858789 -0.001309196581 0.7531401515
-0.29456329 0.033786442 1.0052856 0.2695287466 -0.4266619384 0.8633156419
-0.048271898 0.07417389 1.3430001 -0.5985596776 -0.7610142231 0.2501673102
-0.25748175 -0.017182667 1.0014286 0.1114200279 0.1205670014 0.9864325523
-0.087520704 0.044540145 1.1885 -0.921962738 -0.007642252836 0.3872032166
-0.076579906 -0.11816634 1.1570001 0.004955153912 -0.71246171 0.7016934752
-0.099150121 -0.12787586 1.057 -0.375115931 -0.1271757334 0.9182125926
-0.066789001 -0.076849334 1.1873335 0.3178598285 -0.5886510611 0.7432731986
-0.27559459 -0.18364248 1.0031819 0.5596407652 0.3661713898 0.7434518933
-0.25329334 -0.13514468 1.0311501 -0.1806016266 0.3484973013 0.9197459817
-0.098903187 -0.091950648 1.0813333 -0.01006541494 -0.5698608756 0.8216795325
-0.14442314 0.20701323 1.2123333 -0.2407499701 -0.8685429692 0.4332118928
-0.092286266 0.034684878 1.1175001 -0.7490308285 -0.5739183426 0.3310144544
-0.080412246 0.11615103 1.223 -0.8794643879 -0.1963781118 0.4335643649
-0.33088616 0.16128621 1.138 0.2499164939 -0.7994869351 0.5462256074
-0.26041996 0.21021853 1.1930001 0.07684580982 -0.9139736295 0.3984305859
-0.20514297 0.18738821 1.1641999 -0.06013507023 -0.8743259907 0.4815992713
-0.11531491 -0.00553896 1.0141474 -0.4315530956 -0.4154196978 0.8007423878
-0.10263575 0.098725818 1.115 -0.7461155057 -0.5725906491 0.339781642
-0.13543667 -0.13480565 1.0348002 -0.8947470188 -0.0229021199 0.4459857047
-0.24395868 0.058090556 0.98900014 0.008970581926 0.1920924038 0.9813358188
-0.11251578 0.15630177 1.1615001 -0.700153172 -0.5862291455 0.4075793624
-0.20538762 0.12346078 1.0652668 -0.02297369391 -0.7965602279 0.6041225195
-0.33513263 -0.015287281 1.0170002 0.4442762733 -0.2965069711 0.8454006314
-0.096138373 0.17586054 1.2112308 -0.5905091166 -0.6454820633 0.484408766
-0.17393339 -0.1557851 0.98587495 -0.5571039319 0.1416730881 0.8182688951
-0.13617966 -0.10413982 1.0153337 -0.4842619598 0.4054770768 0.775292635
-0.03058164 0.091744922 1.2920001 0.4069570899 -0.5171995163 0.7529214025
-0.18490127 0.081745163 1.0057142 -0.04092302173 -0.6759197116 0.7358382344
-0.056997359 0.01730277 1.161 -0.6770952344 -0.7178196311 0.1621020585
-0.20521012 0.22303101 1.2320001 -0.05935340375 -0.9024146199 0.4267610312
-0.21465178 0.15421651 1.104357 -0.042386733 -0.8484598994 0.5275595784
-0.31305826 0.20716803 1.2160001 0.1850143075 -0.9117010236 0.3668392003
-0.2183952 -0.15014669 1.0380001 -0.0743457675 0.3468201756 0.9349804521
-0.18581593 0.028408676 0.99200004 0.02257758193 -0.4746057689 0.8799088597
-0.35926676 0.074104629 1.0700001 0.7237785459 -0.3869726956 0.5713114738
-0.21336721 -0.16805877 0.97311115 -0.1593380719 0.3337762654 0.9290881157
-0.10922653 0.06149729 1.0470001 -0.7353312969 -0.5182411075 0.4367081523
-0.31918949 -0.13772476 1.0615001 0.3203884363 -0.3545131683 0.8784484267
-0.27455446 0.17655908 1.143 0.105918549 -0.8451878428 0.5238690972
-0.14890009 0.13099591 1.075 -0.146876961 -0.8301300406 0.5378766656
-0.31716803 0.13763896 1.1010001 0.2030260861 -0.797000587 0.5688325763
-0.23553497 -0.071744256 0.99707699 0.01205687132 0.5847688317 0.8111103773
-0.35240245 -0.059324034 1.01 0.6358025074 0.2701304257 0.7230384946
-0.098625213 0.082975402 1.08175 -0.6684514284 -0.5793380141 0.4664120078
-0.28532773 -0.1150256 1.0171003 -0.1048532724 0.3074754179 0.9457614422
-0.31515041 0.11501413 1.0723888 0.1921393126 -0.7425159216 0.6416795254
-0.17363523 0.16186334 1.1190001 -0.01420579758 -0.851621151 0.5239652395
-0.29736444 0.089480489 1.031 0.2752743363 -0.7192898393 0.6378449798
-0.10227757 0.09644147 1.1650001 -0.9465574622 0.1299134791 0.2952142358
-0.13736139 0.030621966 0.99799997 -0.4059020877 -0.28245309 0.8691741824
-0.26493573 0.1234048 1.0651053 0.1728971899 -0.75120157 0.6370264888
-0.17573661 0.10003468 1.028 -0.07742557675 -0.7843691707 0.6154431701
-0.21488291 0.034070071 0.99639982 -0.02420391887 -0.4693430662 0.8826841116
-0.26544702 0.093366377 1.0254285 0.1232456863 -0.7644956112 0.6327376366
-0.2650643 0.037600785 1.00325 0.1876045465 -0.124820143 0.9742814898
-0.32308236 0.19010955 1.1850001 0.1840304583 -0.8507087231 0.4923692048
-0.23446304 0.19751708 1.1816667 -0.1017208695 -0.8596743941 0.5006124377
-0.22477706 -0.095435008 1.0152224 -0.02597311884 0.5825659633 0.8123683333
-0.043562442 0.11773633 1.3430001 0.4332074523 -0.895904541 -0.09841934592
-0.19199876 0.20897104 1.21 -0.04202894494 -0.9068683982 0.4193128347
-0.1355429 0.064181902 1.0252999 -0.5368174911 -0.4085766971 0.7381680608
-0.17410843 -0.094263777 1.0070001 0.1403672099 0.4384225607 0.8877402544
-0.32849577 -0.0770327 1.01 0.478340894 0.3845319748 0.7895094156
-0.22523066 -0.19427727 0.98303562 0.06077395752 0.5919821262 0.8036564589
-0.30468109 0.17295171 1.1470001 0.1921347827 -0.8284196258 0.5261228085
-0.36085922 0.026999578 1.0265 0.7972550392 -0.166746527 0.5801551938
-0.29829109 -0.068702616 0.99200004 0.1917326599 0.2161654532 0.9573458433
-0.19556177 -0.055380143 0.98705548 -0.02903067134 0.1041402221 0.9941388369
-0.29450378 -0.034990013 0.99481285 0.1764548719 -0.2840102017 0.9424446225
-0.084449477 0.01513004 1.0922 -0.7670758367 -0.5567601323 0.3187677264
-0.13592952 0.11461747 1.0547894 -0.4285103679 -0.701325655 0.5696676373
-0.26637253 -0.15912683 0.98650002 0.621835947 0.2466558218 0.7432906628
-0.15219283 0.1881844 1.1730001 -0.2545344532 -0.8708483577 0.4205180109
-0.30161276 -0.16475986 1.027 0.5804997683 -0.7578279376 0.2978536487
-0.10558953 0.20492463 1.2590001 -0.6631823182 -0.7357845306 0.1371508986
-0.31985533 0.038525995 1.0220001 0.3621775508 -0.35745579 0.8608441949
-0.07421422 0.03209389 1.1440001 -0.6947942376 -0.6869055033 0.2131239325
-0.27469087 -0.083223447 0.99705255 -0.1085953712 0.5703013539 0.8142256141
-0.18769813 -0.1370829 1.031 0.2772550881 0.4605107903 0.8432434201
-0.33621722 -0.1181137 1.0731819 0.2877104878 -0.3871935904 0.8759588003
-0.088965885 -0.071382292 1.2033334 0.4861204326 -0.6470962763 0.5873273015
-0.075724341 0.088317029 1.2264287 -0.9365488887 0.0491191633 0.3470785022
-0.057362929 0.022495266 1.2830001 0.6890122294 -0.3820978701 0.6158435941
-0.27471137 0.013211695 0.98812515 0.1494116485 -0.2670584619 0.9520272613
-0.23547192 -0.0043850867 0.98653328 -0.06006501988 0.2544326484 0.9652234316
-0.12861226 -0.062118843 0.99799997 -0.5574153066 0.3521339595 0.7518575788
-0.10579106 -0.044713087 1.0156088 -0.7127189636 0.3686580658 0.5967603922
-0.10587679 -0.14861605 1.108 -0.8577318788 -0.4114412367 0.3082404137
-0.046968516 0.096031167 1.3649999 -0.2928650379 0.5047748685 0.8120544553
-0.14450191 0.14708459 1.1025833 -0.269498229 -0.8296610117 0.4889102876
-0.078702748 0.071357161 1.197 -0.8957010508 0.02962650731 0.4436686337
-0.10244611 -0.12554128 1.1456667 -0.2408566326 -0.7877167463 0.5670012236
-0.11629484 0.12301011 1.116143 -0.8938338161 -0.3408355415 0.2913628221
-0.20603833 0.20276837 1.1878573 -0.05228851363 -0.8983786702 0.4360982776
-0.31537557 -0.11109821 1.0220001 0.09067858011 0.3175643384 0.9438910484
-0.12198816 0.18987723 1.21 -0.510432303 -0.7422656417 0.4341665804
-0.18280235 0.17835066 1.1545999 -0.01940212399 -0.8656300306 0.5003080964
-0.097466044 0.073745199 1.1765001 -0.8862546682 -0.008397233672 0.4631222188
-0.32598236 0.17827016 1.1620001 0.1871148497 -0.8567683697 0.4805580378
-0.082065642 -0.046944622 1.2263335 0.4112884402 -0.6631426811 0.625366807
-0.10703486 0.164611 1.1854001 -0.7275727391 -0.5462842584 0.41498366
-0.25360924 -0.19340457 0.99524999 0.4991227388 0.4809930623 0.7207788825
-0.12733454 0.093456171 1.0375001 -0.8346639276 -0.310900569 0.4546174109
-0.3142873 0.01409384 0.99687505 0.2791138887 -0.2118271142 0.9366027713
-0.14176029 -0.15776646 1.0432501 -0.702737093 0.4006282985 0.5879264474
-0.089740857 -0.009971207 1.034 -0.8201029897 -0.3392412364 0.4608106017
-0.050022598 0.046687759 1.268 0.4017225802 -0.416283071 0.8156760335
-0.24439512 -0.15703405 1.0411431 -0.1610346586 0.3489623964 0.9231972098
-0.1911712 -0.11255874 1.0190001 0.3189337552 0.4063576758 0.8562445641
-0.14516154 -0.016614147 0.99750012 -0.1691405475 -0.3209186196 0.9318813086
-0.25510347 0.14562781 1.09355 0.07379776239 -0.8348425031 0.5455198288
-0.30296203 0.057221711 1.0070001 0.4355535209 0.06977643073 0.897454381
-0.17483979 0.12792525 1.0703334 -0.0269359909 -0.7994864583 0.6000798941
-0.15131968 -0.040873706 0.99200004 -0.05143344775 -0.05367156491 0.9972331524
-0.14457762 -0.13464125 1.0118157 -0.7811187506 -0.08219929039 0.618948102
-0.20798917 -0.17481142 1.0513334 0.008256402798 0.3325114548 0.9430630803
-0.1024129 -0.11572298 1.1682 0.02498126589 -0.728068769 0.685048759
-0.13630939 0.21527952 1.2340001 -0.305444181 -0.8239361048 0.4773186743
-0.27173424 0.16186334 1.1190001 0.1368861198 -0.8184444904 0.5580419302
-0.34581164 0.13777308 1.11325 0.2881939113 -0.7693161964 0.5701726675
-0.31431457 -0.025099812 1.0053333 0.3029854 -0.2427929789 0.9215483665
-0.1143524 -0.06956438 1.087 -0.01967364177 -0.582402885 0.8126621842
-0.18548161 -0.014873524 0.99799973 -0.07589965314 0.03104508296 0.9966320395
-0.1961121 0.13849054 1.082 -0.06113342196 -0.8185318708 0.5711989403
-0.26565892 0.19175918 1.1661428 0.03928538784 -0.863743186 0.5023986101
-0.1326423 0.1680833 1.155 -0.4795386791 -0.7586382031 0.441033721
-0.22461145 0.17739534 1.1432223 -0.0263880156 -0.8700578213 0.4922429323
-0.068898112 -0.10180467 1.1730001 0.09839653224 -0.5831606388 0.8063756824
-0.22859959 0.1198754 1.0600001 0.006602025125 -0.7860575318 0.6181180477
-0.09715727 0.13542901 1.1628463 -0.8661823869 -0.3495458961 0.3571354151
-0.21468364 0.080553137 1.0065715 0.01336158626 -0.7281934023 0.6852414012
-0.22731659 0.098067001 1.031 0.08030560613 -0.7771703601 0.6241452098
-0.23527366 -0.11494648 1.0243335 -0.1085036248 0.3975666463 0.9111354351
-0.071284398 0.094656326 1.3330001 -0.7932571173 -0.5271271467 0.3047623634
-0.20210743 -0.032872897 0.99199998 -0.01745760627 -0.2970331907 0.9547075629
-0.34425825 0.10862426 1.0700001 0.1830549389 -0.7414436936 0.6455634236
-0.11713815 0.10295875 1.0863334 -0.8590897322 -0.4231908917 0.287878871
-0.27474996 -0.14533055 1.0315557 -0.05946641043 0.4859234393 0.871976018
-0.13104412 0.011510633 1.01 -0.6377106905 0.2361899018 0.7331708074
-0.29385561 0.2027147 1.1950001 0.1446559131 -0.9066202044 0.3963766098
-0.063247345 -0.015398431 1.2545832 0.6072359085 -0.6175733805 0.4998676479
-0.34347662 0.042340118 1.0275714 0.3831144571 -0.5666890144 0.7294428349
-0.14747615 0.16128804 1.12525 -0.2664986253 -0.8372486234 0.4774863422
-0.19519013 0.044761326 1.0054444 -0.01073804963 -0.2835728526 0.9588905573
-0.16743106 0.20849413 1.2113334 -0.1029742509 -0.9035656452 0.4158911407
-0.064238623 -0.026601572 1.2336001 0.4998341501 -0.7161741853 0.4870938063
-0.32372668 0.15058196 1.1190001 0.1816872954 -0.7814301848 0.5969561338
-0.088064149 0.11721506 1.1874 -0.9385197163 0.05405879393 0.3409669101
-0.15658695 0.074727356 1.0060455 -0.5361971855 -0.1349193007 0.8332402706
-0.10511263 0.032862436 1.0548667 -0.8890172243 -0.2375284135 0.3914443254
-0.11477028 0.13380915 1.1362222 -0.8481673598 -0.3953398168 0.3525883257
-0.37197492 -0.013903183 1.0374286 0.4540686309 -0.4727372229 0.7552093863
-0.078208022 0.13623516 1.2333335 -0.9354401827 -0.2004523128 0.291153878
-0.30202562 -0.13355531 1.0162727 -0.5394083261 -0.26722157 0.7985181808
-0.09871842 -0.10576096 1.0634445 -0.1301344633 -0.5055588484 0.8529216051
-0.30331352 0.13064525 1.0846001 0.2201773673 -0.7563673258 0.6159792542
-0.34549806 -0.034499727 1.0113046 0.3637061417 -0.3874788582 0.8470997214
-0.13551769 -0.081909254 1.0063077 -0.4400651455 0.4820972681 0.7575783134
-0.12559927 -0.12526989 1.0542271 -0.4941825569 -0.3774612546 0.7831389308
-0.12403079 -0.091839597 1.08 -0.08021877706 -0.5813321471 0.8097023368
-0.083800562 0.049856033 1.21 -0.9618268609 0.1788075864 0.2071641088
-0.18525438 0.11249807 1.0444 -0.0587669462 -0.8525297046 0.5193645954
-0.04764859 0.0088648535 1.2640001 0.6036810279 -0.490978241 0.628099978
-0.21499811 -0.016673323 1.001 -0.01763768867 0.03025196679 0.9993866682
-0.35476753 0.16136786 1.149 0.3122808635 -0.7787582874 0.5440737009
-0.31758827 0.088523172 1.041 0.3359481394 -0.7069182992 0.6224189401
-0.35715798 -0.12456545 1.0802667 0.2924879193 -0.3882879615 0.8738897443
-0.29550716 0.14630762 1.1052001 0.2403531969 -0.811118722 0.5332136154
-0.24541615 -0.033220757 0.9920001 0.08900629729 -0.2173784673 0.9720208049
-0.15478776 0.19923697 1.1930001 -0.2172103077 -0.8762686253 0.4300847948
-0.16449949 -0.14099956 1.031 0.2512403131 0.5635037422 0.7869827747
-0.11529712 -0.14456917 1.0514582 -0.5444232225 0.1111704707 0.8314111233
-0.021614799 0.11751745 1.3450001 0.8033306003 -0.5243691206 0.2823064029
-0.28535491 0.12447834 1.0732 0.2107499242 -0.7457876205 0.6319693327
-0.2348299 0.044736341 1.0038749 -0.02544592693 0.2087119222 0.9776460528
-0.095839538 -0.025375117 1.0149201 -0.7884952426 -0.05395109951 0.6126700044
-0.072849236 -0.056859348 1.2042857 0.4181283712 -0.6750532985 0.6078419089
-0.15530507 0.10313202 1.0343639 -0.1365165114 -0.7821030021 0.608011663
-0.16432035 0.026662525 0.9923529 -0.1236866266 -0.3494671583 0.9287487864
-0.15818782 -0.14607753 0.99692863 -0.6730900407 -0.05857096612 0.7372375727
-0.17455943 -0.065883167 0.99278265 -0.0293656867 0.3691619039 0.9289010167
-0.19178224 -0.16676374 0.98100001 -0.4315550625 0.2767231464 0.8585945368
-0.33215714 -0.15424289 1.057 0.3632923961 -0.3134705126 0.8773567677
-0.17506345 0.0070366981 0.98752189 -0.0995676145 0.2158947736 0.9713267684
-0.25558144 -0.066093653 0.99199992 -0.03201020882 0.360817939 0.9320867658
-0.21488318 -0.064303115 0.98852015 0.03555034846 0.369777441 0.9284399748
-0.16528572 -0.17352448 0.99799985 -0.5633835196 0.2194295228 0.7965235114
-0.27464029 0.054925874 0.99452013 0.2798039317 0.09262891114 0.9555781484
-0.29494086 0.075445972 1.0143752 0.3048581183 -0.6116000414 0.7300732732
-0.11879622 0.11131299 1.067 -0.884758234 -0.3436456621 0.3148182631
-0.095601372 0.045238633 1.169 -0.8078849316 -0.5522536635 0.2057616562
-0.1448891 0.04628402 1.0100001 -0.2094573826 -0.543674171 0.8127398491
-0.11619296 0.014780402 1.024591 -0.7107843757 -0.1483851224 0.6875808835
-0.18467815 0.064459242 0.99366677 -0.2728322446 0.0910525918 0.9577431679
-0.079235762 -0.018971942 1.273 0.6254954338 -0.6176229715 0.4767570794
-0.26625291 -0.1240018 1.0190003 -0.178311795 0.3532723486 0.9183700681
-0.2545507 0.17297471 1.1317779 0.0236274153 -0.8531708717 0.5210961103
-0.32366407 -0.0037214016 1.0041666 0.3812578022 0.3189738095 0.8676970601
-0.061724346 0.086651489 1.3540001 -0.8883593082 -0.01208785828 0.4589897394
-0.33415905 0.075643323 1.0353335 0.5792611241 -0.4487479925 0.680501163
-0.19382712 0.15889445 1.1158571 -0.0862961784 -0.8555520773 0.5104738474
-0.22377837 0.16660346 1.1245002 -0.03192564845 -0.8654011488 0.5000615716
-0.083503164 0.13456886 1.2134167 -0.9640600681 -0.09462362528 0.2482631803
-0.2249946 0.015579293 0.98711109 -0.04839872941 -0.1677282602 0.9846444726
-0.31523451 0.10193608 1.0561819 0.2614304125 -0.7598726153 0.5951871872
-0.34278104 0.18505235 1.1836668 0.2176072299 -0.8364670277 0.5029612184
-0.29132509 -0.17126384 1.0070001 0.6558471918 0.1947463006 0.7293410301
-0.25536329 0.0051766434 0.98408318 0.05474722013 0.06761971861 0.9962079525
-0.10775789 0.073240235 1.06425 -0.6563452482 -0.5667971969 0.4979476035
-0.24523155 0.13158008 1.0670002 0.01540311612 -0.7600591779 0.6496713161
-0.25443673 -0.18030228 1.044 -0.1365830451 0.2870700359 0.948122263
-0.25503579 0.076281287 1.0041764 0.1519665271 -0.664352715 0.7318071127
-0.12484416 0.074736021 1.0443159 -0.7884661555 -0.3614663184 0.4976577461
-0.26548913 0.1065416 1.0426669 0.1522052437 -0.8041395545 0.5746243596
-0.073066488 0.0052331737 1.1054 -0.7722790837 -0.5455583334 0.3255012929
-0.087481692 0.010347296 1.0730001 -0.8880073428 -0.410990119 0.2062281668
-0.35201395 -0.0091923755 1.028 0.4516692758 -0.48059389 0.7516810298
-0.072457634 0.13502832 1.2523 -0.9193448424 -0.2368414998 0.3141833842
-0.28514323 -0.096230768 1.0107502 -0.04896985367 0.533100605 0.84463346
-0.051564366 0.062855832 1.2880001 -0.002187437611 -0.4799564779 0.8772895932
-0.14334403 -0.15436196 1.0228573 -0.9228794575 -9.494480037e-05 0.38508901
-0.2754316 -0.0088207703 0.99200004 0.0715354979 0.4562570751 0.886967957
-0.194922 -0.094759278 1.0114485 0.1300473362 0.5167751908 0.8461862206
-0.083202153 -0.013461918 1.0522001 -0.9019391537 -0.2691559196 0.337729007
-0.16463454 -0.014752849 0.99799973 -0.123621963 -0.1612285525 0.9791439772
-0.17259288 0.17059758 1.138 0.01884518191 -0.8789845109 0.4764778316
-0.19428606 0.092799783 1.0187273 0.0168574471 -0.7508026361 0.6603114605
-0.097483233 -0.03652614 1.2328001 0.3965119421 -0.7130711079 0.5781936646
-0.27481043 -0.03478612 0.99200028 0.004746722989 -0.2777724862 0.9606351852
-0.12236119 0.20785372 1.2190001 -0.4483192861 -0.7342067957 0.5098531246
-0.29526314 0.014952594 0.99419254 0.1914872527 -0.3177729547 0.9286296368
-0.08535438 -0.084368803 1.1847646 0.2713903785 -0.6561272144 0.7041621208
-0.033762187 0.12457082 1.3280001 0.5507414937 -0.7126624584 0.4345065951
-0.27708584 0.20118842 1.186 0.134837687 -0.8810845017 0.4533309042
-0.041406721 0.10466699 1.3120002 0.3998343349 -0.7012242079 0.5902686715
-0.23395038 0.072384067 0.99661547 -0.01803970709 -0.5293614864 0.8482045531
-0.21413642 0.14312616 1.0856153 -0.02145295776 -0.8138229847 0.5807166696
-0.18516164 -0.079271413 1.001 0.07964942604 0.5510625243 0.8306539655
-0.28633139 -0.15696891 1.041 -0.03667568415 0.5251548886 0.8502159715
-0.23446286 -0.13520752 1.0316252 -0.08317880332 0.3632371426 0.9279763103
-0.27383032 0.21250926 1.2060001 0.1287083328 -0.921148479 0.3673141003
-0.13746746 0.19308408 1.197 -0.3971800506 -0.8405501246 0.3684067726
-0.084238023 0.15332988 1.2125001 -0.9248797297 -0.250344038 0.2862259746
-0.34705186 0.14826478 1.13 0.3206654191 -0.7688035369 0.5532764792
-0.1528258 -0.097574756 1.01 -0.1666198075 0.415453583 0.8942237496
-0.2147579 0.051049177 1.0040001 -0.01158596948 0.3614845276 0.9323061109
-0.078563184 0.02214092 1.1173999 -0.753516078 -0.5635365844 0.3385853171
-0.28482375 0.10100778 1.0380001 0.1847692281 -0.7809352279 0.596657753
-0.32451639 -0.0949561 1.0112633 0.3850919604 0.4502763748 0.8055776358
-0.22446384 0.11227087 1.0437691 0.08588540554 -0.8024488688 0.590507865
-0.2234064 0.18866619 1.1658 -0.009064950049 -0.8806400299 0.4736992717
-0.068264283 0.11160668 1.2360001 -0.9150280356 -0.1630647182 0.3689628243
-0.1071045 0.048567712 1.0341429 -0.8285390735 -0.3282379806 0.4536329508
-0.1040165 0.1099603 1.13 -0.7883060575 -0.4675719142 0.3999375403
-0.23485398 -0.055463362 0.98853344 0.002447224222 0.08702096343 0.9962034822
-0.12727709 0.14195903 1.1058571 -0.6433304548 -0.6526383758 0.4002362788
-0.24199769 0.20742986 1.1950001 -0.08822315931 -0.8799480796 0.4668062627
-0.18803535 0.21740894 1.2256668 -0.05948260799 -0.9093375802 0.4117850959
-0.36321878 0.03832962 1.041 0.4262591302 -0.6035961509 0.673776567
-0.11990433 0.1711455 1.169 -0.574849844 -0.6834510565 0.4499359429
-0.33246708 -0.062118843 0.99800009 0.3963335454 0.3024140596 0.8668710589
-0.13644886 -0.11533967 1.0435385 -0.9313954115 -0.01368586253 0.3637516201
-0.083193325 0.1719377 1.2653333 -0.8946713209 -0.4007969797 0.1972943395
-0.09696459 -0.073056497 1.0908 -0.03885713965 -0.5838519931 0.8109297156
-0.048326246 -0.025772247 1.2250001 0.4715706408 -0.6921469569 0.5464006662
-0.15575223 0.21253292 1.2252858 -0.2026192397 -0.884888351 0.4194258749
-0.164606 0.15179633 1.1070999 -0.03746916726 -0.8438311219 0.5352990627
-0.24549973 0.094597638 1.025353 0.02557276376 -0.8003714085 0.5989588499
-0.20497498 -0.13526221 1.0354801 0.06388426572 0.380058676 0.9227535725
-0.079437397 -0.13272908 1.1470001 -0.2260278165 -0.75736022 0.6126311421
-0.12449314 0.15717442 1.1434 -0.6228288412 -0.6854329109 0.3771815598
-0.10799101 -0.15467702 1.0649999 -0.4491453171 0.1099870056 0.8866630197
-0.11452542 -0.024761127 1.0038284 -0.45876351 -0.2879539728 0.8406060934
-0.35241577 0.017949928 1.0136 0.7418376803 -0.06952267885 0.6669658422
-0.10841035 -0.060924828 1.0220001 -0.7119434476 0.3891155422 0.5845730305
-0.14871071 -0.058266774 0.99200004 -0.1234652326 0.213725552 0.9690602422
-0.06661965 0.0079040267 1.2880001 0.7052020431 -0.4969833791 0.5056654811
-0.082581654 0.084281676 1.2108001 -0.9053139091 -0.09397700429 0.4142161608
-0.29313368 0.18156029 1.1570001 0.1820400953 -0.8506160975 0.4932683408
-0.1643835 0.13589709 1.0830624 -0.04612683877 -0.8248198628 0.5635108948
-0.33760607 0.16880304 1.153 0.2473250031 -0.8045449257 0.5399423838
-0.11259506 0.10679527 1.1031429 -0.8253491521 -0.472302109 0.3094017804
-0.096810296 0.19039358 1.2270001 -0.4538978636 -0.7300286293 0.5109158158
-0.23527288 0.15466367 1.1044209 0.04091257975 -0.8355655074 0.5478653312
-0.35077292 0.08765018 1.0524 0.6748580933 -0.4030469954 0.6181582808
-0.1867826 0.1198754 1.0600001 -0.04848331586 -0.8389738798 0.5420075059
-0.08469139 -0.10654782 1.1668949 0.1614940017 -0.6106778979 0.775236845
-0.34347388 -0.07383696 1.018 0.5833299756 0.4094468057 0.7014837861
-0.19014637 0.14960755 1.1010001 -0.08976361156 -0.8428542018 0.5306027532
-0.034872308 0.075141102 1.2928823 0.2637666464 -0.4346412718 0.8611121178
-0.17712489 -0.15210623 1.034 0.2365732342 0.4097641408 0.8809803724
-0.36167058 0.13160519 1.1120001 0.3185603023 -0.7670120001 0.556966722
-0.086151205 0.11146934 1.2033334 -0.933193326 -0.02543714456 0.3584734201
-0.19541341 0.015566117 0.98630536 -0.01809787191 -0.07065282017 0.9973368049
-0.32475859 0.12300364 1.0838888 0.1989147514 -0.7558888793 0.6237506866
-0.16521852 0.18184048 1.1562001 -0.0620130524 -0.8826768398 0.4658712447
-0.10167551 -0.084901951 1.1956667 0.4448959529 -0.6841107011 0.5779793859
-0.2919414 -0.14461493 1.031 -0.2692116797 0.5551371574 0.7869865298
-0.13458137 0.13220398 1.0858749 -0.4679084718 -0.7544937134 0.4602183402
-0.31429759 0.16326354 1.136182 0.1751496643 -0.8161004186 0.5507292747
-0.30475783 0.044534024 1.0178185 0.3965496719 -0.05149826035 0.9165676832
-0.34716305 -0.10774715 1.0805 0.2877104878 -0.3871935904 0.8759588003
-0.31442183 -0.06445507 0.99350029 0.3045054972 0.2469064593 0.9199530482
-0.14093994 -0.11760133 1.024 -0.7309010625 0.3414791524 0.590910852
-0.33491546 -0.13431685 1.0657929 0.2610759437 -0.3845231235 0.885427177
-0.059091277 -0.063274726 1.1930001 0.3433437645 -0.6299574375 0.6966122985
-0.12186129 0.057507455 1.0318573 -0.5277493 -0.5705178976 0.6292773485
-0.3160654 -0.15455392 1.0530528 0.4978371263 -0.2850295603 0.8190948367
-0.28344649 -0.020183496 1.001 0.1344088912 0.07452823967 0.9881193042
-0.25428274 -0.046805799 0.98872739 0.03616455942 -0.07533910125 0.9965019822
-0.12861226 -0.01837318 0.99800003 -0.2918943465 -0.4458857477 0.8461581469
-0.2647166 0.15330116 1.1067499 0.07243725657 -0.8226520419 0.563911736
-0.33177522 0.053944059 1.028 0.499347955 -0.1545931101 0.8524978757
-0.24544276 -0.084382191 1.0054545 -0.09207016975 0.5706872344 0.8159896731
-0.25494972 0.049870059 0.99800003 0.004890185781 0.3117698729 0.9501450658
-0.28351337 0.045907464 1.0058 0.324355036 0.08219183981 0.9423578382
-0.12112926 0.0244007 1.0122501 -0.7699628472 0.05836430192 0.6354139447
-0.16586035 0.090523429 1.0190001 -0.1078386679 -0.7510925531 0.6513300538
-0.20579466 -0.19197585 0.98538482 -0.2148422003 0.4043747783 0.8890016079
-0.31166464 0.20117484 1.189 0.193878904 -0.8657029271 0.4614861608
-0.36138833 0.062084656 1.057 0.7286841273 -0.3961957097 0.5586129427
-0.19604743 -0.14749369 1.04175 0.17634359 0.3627765477 0.9150388837
-0.25642005 0.19982128 1.1810001 0.01241450105 -0.8519874811 0.5234149694
-0.28201374 -0.16127568 0.99799997 0.6126255989 0.1691247523 0.7720665336
-0.11776548 -0.050723717 1.00625 -0.6736577749 0.3616040349 0.6445367932
-0.17912434 -0.17363609 0.98866671 -0.5154597759 0.2631526291 0.8155071735
-0.091501035 0.13424134 1.1834 -0.9318063259 -0.1616324335 0.3249798119
-0.21314695 0.090940319 1.0190001 0.0490392074 -0.7606357932 0.647323966
-0.10243478 -0.0035884157 1.0238751 -0.6193450689 -0.4527282417 0.6414427757
-0.11460488 0.18308775 1.1956667 -0.5548028946 -0.7485066652 0.3632238209
-0.10148346 -0.073818311 1.2134001 0.4756354988 -0.6598193049 0.5817296505
-0.08988376 0.037992105 1.057 -0.9107484221 -0.321246177 0.2594960034
-0.1781413 0.039489448 1.001 -0.08797223121 -0.475124687 0.8755097985
-0.099321947 0.19973534 1.245 -0.6887308359 -0.6701529026 0.2766675055
-0.28616127 0.16880618 1.1317142 0.1711790115 -0.8006529212 0.5741539001
-0.036953364 0.045075022 1.277375 -0.01615498401 -0.5004456639 0.8656172156
-0.24493277 0.19164196 1.169 -0.04042392597 -0.8475136161 0.5292320251
-0.32849577 -0.030990167 1.01 0.3092466295 -0.3802711964 0.8716422915
-0.20564885 -0.10601304 1.0234212 0.1448042691 0.5171350241 0.8435657024
-0.21515708 0.13387054 1.0725908 -0.01944061555 -0.7760828733 0.6303312182
-0.090892799 0.028041936 1.103 -0.8324508071 -0.4780209959 0.2802170515
-0.27993631 0.02895893 1.001 0.2256286144 -0.4029148221 0.8869900703
-0.10979461 0.14202788 1.149 -0.7812132239 -0.4388976693 0.4439309537
-0.10820276 0.022005385 1.0372001 -0.821193397 -0.1693825722 0.5449320674
-0.26495704 0.024644284 0.99341202 0.1310505718 -0.4472945929 0.8847334385
-0.19483872 0.17580713 1.1426666 -0.1124929935 -0.8559356332 0.5046975017
-0.11458638 -0.10652788 1.0644736 -0.1387465149 -0.5342475772 0.8338638544
-0.26520669 0.13756527 1.0821819 0.1317230463 -0.8065880537 0.5762506127
-0.13561814 -0.0071017095 1.0067143 -0.322180748 -0.2884520888 0.9016623497
-0.33122921 0.14084527 1.108 0.2355422974 -0.7762356997 0.5847888589
-0.19464894 0.19259071 1.174778 -0.07932752371 -0.868362844 0.4895437658
-0.13614532 -0.045038562 0.98870391 -0.2383854836 0.03443368897 0.9705599546
-0.27390128 0.11329645 1.0541 0.1845511496 -0.8034465313 0.5660517216
-0.33452171 0.032132022 1.0181 0.2678317726 -0.5811986327 0.7684232593
-0.22521313 -0.083128057 1.0055882 0.02225209959 0.6060881615 0.7950861454
-0.10198088 -0.13233493 1.1316 -0.318028003 -0.7666728497 0.5577373505
-0.34603077 0.063932665 1.054091 0.7128026485 -0.3636076748 0.5997515321
-0.28316981 -0.070922509 0.98900002 -0.03427475691 0.292479068 0.9556574821
-0.089144066 0.0036997525 1.05375 -0.8756954074 -0.3347032964 0.34803918
-0.10590635 0.093575746 1.0916113 -0.6985019445 -0.6038036346 0.3840783834
-0.30846217 -0.16153197 1.041 0.5818526149 -0.3631569445 0.7277118564
-0.18239927 0.052240565 1.01 -0.1058723256 0.006261073053 0.9943600297
-0.11252472 0.085999966 1.0737273 -0.7050869465 -0.5405139327 0.459017545
-0.26695842 -0.1755242 0.99328566 0.5816043019 0.3698915243 0.7245113254
-0.31645179 0.028145052 1.0111251 0.2871747017 -0.6012433171 0.7456789613
-0.148839 0.01820749 0.98900002 -0.3287408948 -0.01597926021 0.9442849755
-0.063238353 0.0090340497 1.1450001 -0.7893375754 -0.5200058222 0.3264049292
-0.13527192 0.12494162 1.0715624 -0.3685567081 -0.7978551388 0.4770672023
-0.15498678 0.12392987 1.0628668 -0.03242307901 -0.8284273148 0.5591573119
-0.16769172 0.067951597 0.99800009 -0.3164466321 0.1220500395 0.9407259226
-0.2252584 -0.16479062 1.0451145 -0.07125999779 0.3535993099 0.9326786995
-0.29558948 -0.082796536 0.99714291 0.0982215181 0.5462120175 0.8318683505
-0.09733659 0.11109442 1.177 -0.933093369 0.1309955269 0.3349282444
-0.16560146 -0.054188956 0.98900014 -0.04805917293 0.1298977584 0.9903619885
-0.2640242 -0.16158645 1.0380001 -0.00313658407 0.329803288 0.9440444708
-0.350963 0.11572526 1.082 0.2176581472 -0.7777086496 0.5897407532
-0.33421689 0.0052494798 0.99800003 0.4085346758 0.1334679872 0.9029317498
-0.2118728 -0.090928741 1.0070001 0.02402243763 0.6246498227 0.7805353999
-0.21470658 -0.18390058 0.97625834 -0.1330883801 0.3787009716 0.9159001112
-0.31532475 0.055330679 1.0174447 0.4356302023 -0.01674005389 0.8999700546
-0.13693446 0.16233061 1.136 -0.4614153504 -0.7830124497 0.4171179533
-0.14961106 0.14008169 1.087 -0.1373775005 -0.8258215189 0.5469426513
-0.30518368 0.096897833 1.0427144 0.29874143 -0.7505314946 0.5894539952
-0.30652857 -0.0082344497 1.0029091 0.3167922199 0.3836093545 0.8674598336
-0.081302941 0.034702852 1.131 -0.7506973743 -0.5586916804 0.35258618
-0.027499281 0.1019765 1.307 0.4448564947 -0.6541959643 0.6116619706
-0.26063037 -0.07985644 1.001 -0.1206383854 0.5609864593 0.8189875484
-0.19891216 -0.18090717 0.97800004 -0.301861316 0.3513424397 0.8862495422
-0.04223254 0.084465079 1.302 0.3375839293 -0.4722878635 0.8142366409
-0.090990104 0.06379766 1.1930001 -0.907025516 -0.02270264179 0.4204632342
-0.096148416 -0.051219251 1.0250001 -0.7662533522 0.3646932244 0.5290129185
-0.18557982 0.20235921 1.1960001 -0.08480535448 -0.8957907557 0.4363105893
-0.20553765 0.21299772 1.2148 -0.06615652889 -0.9051876068 0.4198317826
-0.061379816 0.012275963 1.273 0.6518142223 -0.4881747365 0.5803650618
-0.28491315 -0.12901728 1.0220002 -0.2670215368 0.2178704441 0.9387395382
-0.097942658 0.1529748 1.1843333 -0.7892132998 -0.4660257101 0.3999529779
-0.21525526 0.11825693 1.0538334 0.01983678155 -0.8393483758 0.5432317853
-0.27483794 0.08342775 1.0163161 0.1807343513 -0.7162417769 0.6740421653
-0.30499333 -0.04530992 0.9940002 0.1839463115 -0.259817481 0.9479760528
-0.31633803 -0.076669894 1.0016925 0.3307652771 0.3710693419 0.8676992059
-0.25482774 -0.11560049 1.0227499 -0.2059343308 0.3818019629 0.9010096192
-0.14446722 0.10789619 1.0430001 -0.2303808331 -0.754609108 0.6144019365
-0.14147559 0.17811675 1.161 -0.3931715786 -0.8152799606 0.4251290262
-0.19045408 -0.04174336 0.99200004 -0.04281078652 -0.1232772171 0.9914484024
-0.11132351 0.070470847 1.1650001 -0.8714132309 -0.04884499311 0.488111794
-0.12769076 0.05191895 1.0185715 -0.4497787058 -0.5556718707 0.6992337704
-0.036827888 0.02343593 1.273 0.6141818166 -0.3913527429 0.6852909923
-0.24144977 0.20946284 1.177 -0.06813250482 -0.848222971 0.5252387524
-0.31272101 0.080207989 1.028 0.3428747058 -0.6710468531 0.6573683023
-0.073555216 -0.08859054 1.177 0.1557241976 -0.5758167505 0.802611351
-0.24496906 -0.10494062 1.0180327 -0.1378956437 0.4722620249 0.8706051707
-0.24819906 -0.0088704647 0.99199998 0.08134818822 0.3508043885 0.9329087734
-0.050963849 0.030875906 1.273 0.5874165893 -0.326918304 0.7403149605
-0.15485585 0.037836637 1.0036666 -0.1379524618 -0.5951513648 0.7916842699
-0.22538427 0.056146197 0.99557149 -0.04377239197 0.4482243955 0.8928487301
-0.077943049 0.0028580583 1.0861428 -0.8050085902 -0.5103065968 0.3025695384
-0.13192956 0.039844498 1.01 -0.4136459529 -0.5150300264 0.7507603765
-0.36086828 -0.041603096 1.0184 0.5635778308 -0.1015875638 0.8197926283
