# .PCD v0.7 - Point Cloud Data file format
VERSION 0.7
FIELDS x y z normal_x normal_y normal_z
SIZE 4 4 4 4 4 4
TYPE F F F F F F
COUNT 1 1 1 1 1 1
WIDTH 512
HEIGHT 1
VIEWPOINT 0 0 0 1 0 0 0
POINTS 512
DATA ascii
-0.22537945 -0.14444637 1.4104545 0.1344037205 0.3930246234 0.9096522927
-0.48794478 -0.46569324 1.8130001 0.9415261149 -0.1246059239 0.3130526543
-0.078260034 -0.3001619 1.13 -0.2875857651 0.187779963 0.9391661882
-0.32405061 -0.33419845 1.2563481 0.8095573187 0.02491059527 0.5865120888
-0.011326533 -0.13025513 1.2920001 -0.6724158525 -0.5327076316 0.5138866305
-0.11429806 0.034046233 1.3870003 0.06181043386 -0.4660053253 0.882620275
-0.18605056 -0.17316458 1.2247144 0.5929614305 -0.7046634555 0.3896744251
-0.35183966 -0.13110112 1.526 0.8974202871 -0.2110929042 0.3873972595
-0.19439821 -0.3772814 1.1943334 0.1224293038 0.6144316196 0.7794131637
-0.33790326 -0.21545748 1.3430001 0.6601442099 -0.5377532244 0.5244340301
-0.055923007 -0.17466828 1.1748002 -0.7212994695 -0.3719469011 0.5842795372
-0.23324259 -0.017748466 1.4258001 0.5336915255 -0.5062749982 0.6773912907
-0.11472571 -0.094180614 1.3567275 0.5039739609 0.008045029826 0.863681376
-0.25279999 -0.26724571 1.177 0.3955833018 -0.2392757386 0.8867135644
-0.45278344 -0.37960631 1.7390001 0.9435424209 -0.144879356 0.2978886664
-0.017084479 -0.059795681 1.3920001 -0.9069862366 -0.4211316705 0.004907302093
-0.33732378 -0.21257764 1.452 0.5407085419 -0.5596417189 0.6280409098
-0.15263994 -0.2244705 1.138 0.2299135923 -0.07501116395 0.9703159332
-0.2515924 -0.16581932 1.3045001 0.4138503671 -0.6909307241 0.5927416086
-0.10548466 -0.12120581 1.2552859 0.1509652436 -0.8532095551 0.4992423654
-0.30466139 -0.094375357 1.4450001 0.746927917 -0.1677452028 0.6433974504
-0.30321503 -0.23941416 1.2546667 0.6622914672 -0.6667230129 0.3418339491
-0.16510984 -0.3147684 1.1442003 0.3906461596 0.1611310244 0.9063290358
-0.16759224 -0.0340719 1.3809999 0.4235651493 -0.2522823513 0.8700265288
-0.27213663 -0.35643601 1.197 0.5383563638 -0.07867285609 0.8390369415
-0.17658783 -0.12034968 1.2830001 0.4538044631 -0.7921258807 0.4081642628
-0.045429509 -0.063346349 1.3225456 0.4188324213 -0.622548759 0.6610691547
-0.13517059 -0.14961632 1.177 0.003678689711 -0.8479116559 0.5301247835
-0.03883604 -0.24551547 1.1556667 -0.541947186 -0.3357221186 0.7704439759
-0.048581943 0.002005229 1.3740001 -0.3454830945 -0.5887615681 0.7307538986
-0.24541633 -0.2134231 1.2246001 0.4123136401 -0.7586274743 0.5044618845
-0.2956602 -0.16466956 1.4230002 0.5219359398 0.1094729528 0.8459305763
-0.018360907 -0.17388858 1.2320001 -0.4976396263 -0.6213864684 0.6051723957
-0.17443277 -0.10417605 1.3817501 0.4845771194 0.112412855 0.8674954772
-0.30301073 -0.29645568 1.2060002 0.6242075562 0.07395020127 0.7777507901
-0.20374534 -0.21650027 1.1760001 0.6046023369 -0.519628644 0.6036903858
-0.24496807 -0.084129319 1.41125 0.46628353 -0.08159743249 0.8808640838
-0.10620566 -0.031055292 1.37 0.06830202788 -0.1534927636 0.9857863784
-0.22199191 -0.32547942 1.1638572 0.4012589157 -0.04341625795 0.914935112
-0.095077358 -0.21630064 1.1561999 0.004605861846 -0.3945001364 0.9188843369
-0.32810301 -0.14356117 1.47 0.7141196728 -0.1386700869 0.6861513257
-0.17108676 0.020924279 1.404 0.470416218 -0.5077999234 0.7216978669
-0.0458409 -0.11824042 1.245 -0.07032664865 -0.8054136038 0.5885261893
-0.29733902 -0.20127346 1.3045001 0.6044267416 -0.5839847326 0.5418764353
-0.27792087 -0.042854976 1.452 0.6406131387 -0.3763332367 0.6693190932
-0.0082783634 -0.094609864 1.3490001 -0.6220549941 -0.6361655593 0.4564438164
-0.18742244 -0.26710242 1.1610001 0.389344871 0.1865085661 0.9020116925
-0.11320923 -0.33457369 1.153 -0.1315278262 0.5663208961 0.8136222363
-0.071357161 -0.10080615 1.2920001 -0.0181690827 -0.8559859395 0.5166797638
-0.085526966 -0.15084817 1.2130002 0.02687310986 -0.8762103915 0.4811789691
-0.12469068 -0.27315778 1.1279999 0.2748624384 -0.2083415836 0.9386396408
-0.21009491 -0.1589607 1.268 0.621886909 -0.6185104847 0.4803138971
-0.14542556 -0.1439808 1.2333335 0.3363101482 -0.7739492655 0.5365613103
-0.028285649 -0.21161681 1.1950001 -0.6205953956 -0.536603868 0.5717671514
-0.26197019 -0.1982377 1.268 0.4002098441 -0.7769744992 0.4859451652
-0.20403415 -0.065903775 1.3870003 0.4560889006 -0.1436452419 0.8782647252
-0.32805774 -0.075838976 1.4830002 0.8070887327 -0.1999405175 0.5555462241
-0.27216202 -0.12380024 1.4150001 0.3575891852 -0.02401892841 0.933570087
-0.16443637 -0.1857302 1.1670003 0.511859417 -0.5145837665 0.687897861
-0.47529536 -0.41027123 1.766 0.9435424209 -0.144879356 0.2978886664
-0.27829632 -0.25278783 1.2122859 0.6012037396 -0.4987846911 0.6243139505
-0.32355577 -0.23863515 1.2950001 0.5890315175 -0.6124961376 0.5271530747
-0.084226839 -0.2546638 1.1303198 -0.2373971045 -0.1455259919 0.9604502916
-0.079529449 -0.062911354 1.3540001 0.439720273 -0.4365284443 0.7849133611
-0.13471055 -0.1069065 1.2859167 0.1743828803 -0.8738147616 0.4539144933
-0.16997427 -0.3552157 1.161 0.1718143821 0.5517117977 0.8161457777
-0.2566199 -0.31527397 1.1947778 0.6085309982 0.1867292523 0.7712472081
-0.23498721 -0.36445558 1.177 0.3915062845 0.2775302529 0.877325356
-0.098719679 -0.17275944 1.1730001 0.02373488806 -0.8221949935 0.5687108636
-0.19754982 -0.01292382 1.404 0.5071511269 -0.3587086201 0.7836618423
-0.30448398 -0.35198656 1.2235715 0.6042509675 -0.3628540039 0.7093784213
-0.036448296 -0.033671308 1.3556668 -0.02309515327 -0.7758154273 0.6305370927
-0.1382765 -0.0043245964 1.3818572 0.229735285 -0.3428261876 0.9108742476
-0.14534694 -0.063974746 1.3649999 0.2315563411 -0.1386250257 0.9628939629
-0.06523452 0.023385962 1.4039999 -0.2974023521 -0.7587702274 0.5794994235
-0.027744638 -0.095821306 1.3051251 -0.7932685018 -0.4279415309 0.4331178665
-0.086539857 -0.096629709 1.3280001 0.4492555261 -0.7674536705 0.4573667943
-0.2226558 -0.18882085 1.245 0.5228321552 -0.7501969934 0.4047851861
-0.12442443 -0.18814348 1.1476668 0.09715083241 -0.6546744704 0.7496419549
-0.3323724 -0.26567557 1.268 0.6484332681 -0.6626423001 0.3747525215
-0.21420413 -0.10444665 1.398 0.4131694734 0.195966661 0.8893188834
-0.23741098 -0.23455863 1.193 0.5228367448 -0.6048251987 0.6006897688
-0.31750789 -0.17594624 1.4528571 0.7499489784 -0.3133065999 0.5825937986
-0.25658754 -0.16233149 1.4222 -0.0009848533664 0.2299749106 0.9731960893
-0.048089549 -0.1453373 1.2190001 -0.7933703065 -0.3906029463 0.4668971598
-0.0225315 -0.15254934 1.2640001 -0.6936684251 -0.5142825246 0.5043189526
-0.33967677 -0.10885394 1.4960001 0.8698000908 -0.1621825248 0.4659878016
-0.27568001 -0.074398704 1.4330001 0.5471235514 -0.3075079024 0.7785208821
-0.23016708 -0.046771921 1.404 0.4573540986 -0.2180989087 0.8621253371
-0.30925527 -0.27181342 1.2320001 0.7159020305 -0.4528922737 0.5313876867
-0.21543092 -0.28546718 1.1748335 0.2954768538 0.1924302131 0.9357692003
-0.094694026 0.0027141599 1.3760002 -0.01779921725 -0.3826819956 0.9237086773
-0.16161875 -0.27634811 1.138 0.4050022364 -0.2117979378 0.8894463778
-0.053830098 -0.21476518 1.1635188 -0.6149364114 -0.4160448611 0.6698954105
-0.21039474 -0.19982214 1.2060001 0.5859056711 -0.6990588903 0.4099161029
-0.28248155 -0.32522786 1.219 0.6505883336 0.02781282924 0.7589211464
-0.1164813 -0.24399929 1.1454003 0.12670286 -0.3768748641 0.917557478
-0.1760639 -0.14209305 1.25 0.4603186548 -0.6897473335 0.5588876009
-0.075923175 -0.13599426 1.2440768 -0.05062537268 -0.8500741124 0.5242242813
-0.055160645 -0.27380592 1.1440592 -0.4110411108 -0.01590215601 0.9114781022
-0.043845024 -0.18209828 1.21 -0.7073159218 -0.5620363951 0.4287415147
-0.15964626 -0.16176078 1.2060001 0.4691384137 -0.8485420346 0.2447153628
-0.11442516 -0.30518898 1.1333336 -0.1023660749 0.342440933 0.9339461327
-0.30732161 -0.13351896 1.4450001 0.8049329519 -0.1251471639 0.5800181627
-0.18287466 -0.23512331 1.1487647 0.3766538501 -0.02735772915 0.9259499907
-0.28249267 -0.18621714 1.4450001 0.4402569532 0.3528514802 0.8256328702
-0.19576581 -0.13010523 1.3870001 0.4455403686 0.08212757856 0.8914868832
-0.20528425 -0.35441855 1.1644548 0.2562735677 0.3662574589 0.8945274353
-0.20678784 -0.13798295 1.2936667 0.5725297332 -0.6210184693 0.5352997184
-0.27220762 -0.21841888 1.2436666 0.55691576 -0.7390622497 0.3789878786
-0.25444973 -0.045693956 1.4265385 0.6090771556 -0.3524762392 0.7104825974
-0.11479652 -0.13582353 1.2238001 0.1071232185 -0.8937308788 0.4356256425
-0.14599131 -0.1053052 1.3649999 0.2301436514 0.189571172 0.9545138478
-0.0741923 -0.025129655 1.3649999 0.1546498388 -0.308838129 0.938457489
-0.21405587 -0.24485965 1.1638001 0.4971036017 -0.3011112511 0.8137690425
-0.34379655 -0.18457048 1.4700001 0.4461466372 -0.5076325536 0.7370633483
-0.044416666 -0.1024485 1.273 0.1097940058 -0.9034175277 0.4144659936
-0.30311576 -0.064782158 1.4571429 0.5956454277 -0.4036658108 0.6944497228
-0.29241115 -0.21566775 1.2765714 0.7079787254 -0.5595085025 0.430948168
-0.32509604 -0.29917479 1.2320001 0.8688517809 0.2526338696 0.4257613122
-0.25576007 -0.3834016 1.1970001 0.4236526489 0.366902262 0.8281915188
-0.10250513 -0.096841864 1.2920001 0.0561224483 -0.9274640679 0.3696764112
-0.23420578 -0.17698866 1.2768888 0.5385249257 -0.6843984127 0.491517812
-0.17491251 -0.06513983 1.3759999 0.3773116171 -0.06188384444 0.9240164161
-0.19341986 -0.31591648 1.1569998 0.453173697 -0.01731478982 0.8912540674
-0.14471112 -0.12537958 1.2578236 0.1631334573 -0.7957170606 0.5832853317
-0.18619458 -0.18499732 1.1941429 0.6304951906 -0.6919540763 0.3516750336
-0.1730683 -0.0047286428 1.3870001 0.4705707729 -0.2255883515 0.8530375361
-0.27481508 -0.28521967 1.1873999 0.5161573887 0.05528719351 0.8547074795
-0.27342111 -0.18541141 1.296091 0.4699589312 -0.6830776334 0.559055984
-0.11552276 -0.063974746 1.3649999 0.1522154361 -0.2980903685 0.9423229694
-0.064790249 -0.23424056 1.1437695 -0.4567344487 -0.3553519845 0.8155480623
-0.14339109 0.024650114 1.3940001 0.2442857474 -0.378963232 0.8925868869
-0.075894319 -0.11587967 1.2669332 -0.2450574934 -0.8167130351 0.5224238634
-0.1431991 -0.029118484 1.3650001 0.1702458113 -0.2738295496 0.9465906024
-0.32209083 -0.21664932 1.3145001 0.6385396123 -0.5330831409 0.5550581217
-0.14706434 -0.34147131 1.149 0.07449728996 0.4303339124 0.899590373
-0.24474776 -0.1149573 1.41 0.2508730888 -0.01819867268 0.967848897
-0.24295785 -0.29486719 1.177 0.2827524245 0.1223896667 0.9513526559
-0.11415779 -0.1540166 1.1965004 -0.2469302118 -0.8253236413 0.5078054667
-0.074526802 -0.1949897 1.1645204 -0.2340326905 -0.3088051677 0.9218828678
-0.31957656 -0.11593741 1.4640001 0.7977759242 -0.06003235281 0.5999580622
-0.30571207 -0.3187674 1.2410001 0.6885575056 0.3364333212 0.6424182057
-0.021779031 -0.075867608 1.365 -0.8972666264 -0.4172683954 0.1442210227
-0.056433663 -0.090980172 1.3136667 0.4000650048 -0.7802163363 0.4808435142
-0.12658 -0.21464458 1.1355383 -0.2355309725 -0.04428623617 0.9708573222
-0.17811675 -0.21068667 1.161 0.5291442275 -0.5298763514 0.6627498865
-0.011975851 -0.1108732 1.322 -0.8354656696 -0.4345808029 0.336357981
-0.056468189 -0.1547436 1.1945384 -0.3837214112 -0.7698562741 0.5099796057
-0.23195547 -0.1489518 1.2970001 0.5753830075 -0.597397089 0.5586153865
-0.14495313 -0.25541848 1.1410002 0.2261214405 -0.173699826 0.9584870934
-0.055159189 -0.052534644 1.345 0.4581151605 -0.559296608 0.6908819079
-0.17891102 -0.29110944 1.153 0.6389616728 -0.1176052317 0.7601953745
-0.064807363 -0.075734712 1.3359169 0.6012464166 -0.5316111445 0.5965671539
-0.035948418 -0.1448788 1.2426001 -0.8430721164 -0.3100083172 0.4394590855
-0.028472381 -0.047190383 1.3346667 0.08223380893 -0.716360867 0.6928670406
-0.30455413 -0.19328509 1.433 0.4714332223 -0.1174355149 0.8740478158
-0.2582967 -0.23071674 1.21 0.4716189802 -0.6183392406 0.6286749244
-0.14415962 -0.29545563 1.1360872 0.3038652539 0.003982585389 0.9527066946
-0.032017447 -0.12605396 1.2770001 -0.8075425625 -0.4092839658 0.4246900976
-0.23916431 -0.33441591 1.1810001 0.5686764717 -0.0007525420515 0.8225609064
-0.082346179 -0.15948057 1.189 0.05695987493 -0.8989737034 0.4342831671
-0.2850782 -0.10502774 1.4262501 0.492467761 -0.2020542324 0.8465515971
-0.024632581 -0.078589663 1.3380001 -0.8881966472 -0.3348383904 0.3146267533
-0.19688377 -0.042427815 1.3927501 0.4584189951 -0.2871408463 0.8410720229
-0.28837425 -0.24085189 1.2320001 0.640422225 -0.6001306772 0.479272902
-0.15301983 -0.19798405 1.1483334 0.3314377666 -0.5542129278 0.7635424137
-0.099721707 -0.18836322 1.149 -0.3613057435 -0.3501791656 0.8641948104
-0.09772554 -0.28560865 1.126 -0.09445480257 0.1201271266 0.9882549047
-0.13804169 -0.15068673 1.202 0.3089794815 -0.9311416745 0.1936668009
-0.051875431 -0.1971277 1.1835001 -0.7850981951 -0.3663146496 0.4994341135
-0.13434632 -0.32427177 1.1372502 -0.0002107641048 0.4738484919 0.8806063533
-0.16620386 -0.25544277 1.153 0.3454682529 0.07082543522 0.9357539415
-0.15913692 -0.08347182 1.3700001 0.4325987697 0.02707773075 0.9011798501
-0.29357728 -0.13491902 1.4250001 0.611712873 -0.1053963155 0.7840273976
-0.1813122 -0.33744216 1.149 0.3698240817 0.1720165014 0.9130391479
-0.13536924 -0.17456926 1.1645201 -0.03970559314 -0.5783659816 0.8148105741
-0.22305557 -0.075985953 1.398 0.5415411592 -0.06240654364 0.8383547068
-0.085115559 0.021886857 1.3870001 -0.2177246809 -0.5886574984 0.7785103321
-0.22931759 -0.26530915 1.1730001 0.2840319872 0.02896435186 0.9583772421
-0.09453328 -0.085075565 1.3478752 0.4435510933 -0.4898726642 0.7505245805
-0.34415415 -0.15545441 1.4829999 0.5973852873 -0.2467111051 0.7630625367
-0.34229976 -0.13246083 1.4960001 0.8788913488 -0.2143522054 0.4261491597
-0.25703579 -0.25310332 1.1955001 0.5410192013 -0.5516935587 0.6347696185
-0.26534331 -0.093883753 1.4210004 0.4257589877 -0.2491777092 0.8698503971
-0.20803913 -0.0012457434 1.4210001 0.5476664901 -0.4635687172 0.6965382099
-0.20502864 -0.17394599 1.244 0.567429781 -0.6675566435 0.4820700288
-0.30810449 -0.2408817 1.2780001 0.6564086676 -0.694380939 0.2948944569
-0.035024587 -0.22146791 1.1750001 -0.617713511 -0.4803446531 0.6226548553
-0.28824937 -0.27419308 1.2024444 0.6688121557 -0.3523853421 0.654610455
-0.31786531 -0.083423592 1.4640001 0.7748534679 -0.1924326867 0.6021393538
-0.094487473 -0.2347215 1.1345335 0.1762652546 -0.5187648535 0.8365486264
-0.1538429 -0.16599122 1.1746001 0.5276344419 -0.6468684077 0.5506024957
-0.12576701 -0.13369334 1.2435454 0.2208947092 -0.8439462185 0.4888356328
-0.21714157 -0.022661833 1.41 0.4790521562 -0.4509137571 0.7531173825
-0.12490748 -0.043957822 1.37 -0.008202435449 -0.1365919262 0.9905934334
-0.26775828 -0.33315012 1.203143 0.6503801346 -0.1762575209 0.7388768196
-0.11580416 0.01085664 1.376 0.09328649193 -0.3461796045 0.9335187674
-0.12501003 -0.11650229 1.2656666 0.1255120635 -0.8560247421 0.5014661551
-0.19444662 -0.094793081 1.3862503 0.3444646299 0.2130099833 0.9143144488
-0.18829922 0.0078286333 1.4100002 0.586038053 -0.4202699661 0.6927716732
-0.15451013 -0.11648107 1.2758571 0.2740274072 -0.8701074123 0.4096609652
-0.097091712 -0.11048367 1.273 0.008885247633 -0.8745542169 0.4848463833
-0.20975564 -0.19146925 1.2270001 0.5190420151 -0.741006434 0.4260338247
-0.46432123 -0.4030247 1.748 0.9435424209 -0.144879356 0.2978886664
-0.096870258 -0.12807678 1.2360001 -0.1571780294 -0.8196389079 0.5508967042
-0.22279871 -0.21818566 1.1954 0.5635380745 -0.641574204 0.5203915238
-0.085859634 -0.044874381 1.3649999 0.2553528249 -0.2938134074 0.9211235642
-0.25434542 -0.026458928 1.4372858 0.6044014692 -0.4672068655 0.6453034878
-0.07453835 -0.27529988 1.1336802 -0.3785768449 0.02600104362 0.9252045751
-0.10624542 -0.26127952 1.13 0.1124258786 -0.2408557534 0.9640274644
-0.19512276 -0.14228672 1.2754999 0.5822835565 -0.6550215483 0.4815523326
-0.27444929 -0.17506653 1.423 -0.0732967034 0.5115895867 0.8560979366
-0.27533588 -0.30768603 1.2033335 0.4976617694 0.5133303404 0.6991600394
-0.24739709 -0.20173502 1.2520001 0.452850759 -0.7980435491 0.3975583613
-0.25428346 -0.13544126 1.41 0.2514089346 0.1521398723 0.9558488131
-0.2743127 -0.14475536 1.4210001 0.2023648024 -0.03428341448 0.9787099361
-0.045733608 -0.16565394 1.2263849 -0.7931241393 -0.3149486482 0.5213074684
-0.02596092 -0.19419013 1.2123572 -0.5407505631 -0.6228265762 0.5653988719
-0.2144123 -0.12529948 1.4039999 0.3657649457 0.1086848974 0.9243395329
-0.1356566 -0.086267583 1.3649999 0.2069780678 0.151623264 0.9665249586
-0.19088978 -0.19914448 1.177 0.5773382783 -0.5966553688 0.5573893785
-0.027029386 -0.075337224 1.312 -0.7625540495 -0.4648819864 0.4498844743
-0.16529971 -0.15231593 1.2340001 0.3495109975 -0.7489741445 0.5629208088
-0.32387426 -0.19494388 1.4449999 0.6048146486 -0.5515531898 0.5744461417
-0.25520244 -0.18522364 1.2846668 0.353807807 -0.7522333264 0.5558462739
-0.28817496 -0.36242858 1.21 0.5941942334 -0.2029855102 0.7782866359
-0.3188875 -0.26519167 1.25 0.6870505214 -0.5308363438 0.4961596131
-0.069503009 -0.2132097 1.149 -0.3194462955 -0.5280720592 0.7868252397
-0.31036192 -0.15454757 1.4450001 0.8219305873 -0.08359196037 0.5634203553
-0.044920899 -0.08870288 1.2948571 0.2199150324 -0.7999908328 0.5582580566
-0.30721301 -0.22558893 1.2931111 0.6904070973 -0.4814499319 0.5399481654
-0.044918645 -0.020897981 1.3700001 -0.2166498899 -0.5414711833 0.8123249412
-0.204914 -0.37276253 1.1746002 0.1245511696 0.5277802348 0.8401994109
-0.074464075 -0.0048041339 1.3700002 0.07213420421 -0.3428316712 0.9366232753
-0.23505801 -0.31450477 1.1762382 0.4614963233 -0.02939441614 0.8866550326
-0.23175062 -0.3811551 1.189 0.3004607856 0.4122942686 0.8600795269
-0.053812429 0.0085606501 1.3950001 -0.3640933037 -0.7119327188 0.600489676
-0.13484685 -0.23563658 1.1410002 -0.08767522126 0.01518545672 0.9960333705
-0.20669435 -0.30404291 1.1730002 0.3888128698 -0.2008860707 0.8991492391
-0.25526711 -0.3448686 1.188478 0.5186392665 -0.1074445173 0.8482151628
-0.18779106 -0.16272511 1.243 0.5729692578 -0.6301088333 0.5240888596
-0.31314883 -0.33807072 1.2360001 0.7246262431 -0.3178006113 0.611489594
-0.32775936 -0.16409446 1.4700001 0.6015596986 -0.1767876595 0.7790199518
-0.28639647 -0.18518005 1.312 0.571511209 -0.6023958921 0.5572200418
-0.24041794 -0.24867263 1.177 0.4953609407 -0.4814997911 0.7230321169
-0.29708654 -0.3109791 1.2190001 0.5029441118 0.5815851688 0.6393793225
-0.23126905 -0.19899894 1.2270001 0.4466717541 -0.7785135508 0.4409092665
-0.15521589 -0.045709923 1.3700002 0.3566851914 -0.1858430505 0.915553391
-0.05508272 -0.13068645 1.2320001 0.1510388255 -0.8331016898 0.5320985317
-0.028228667 -0.10952722 1.2880001 -0.7814154625 -0.4058531523 0.4739969671
-0.05767316 -0.11337414 1.2836251 0.2774289548 -0.7733225822 0.57009238
-0.16345663 0.013027892 1.3870001 0.3311187327 -0.4189265966 0.8454944491
-0.096073605 -0.3133969 1.1336666 -0.1558377445 0.4409724176 0.8838879466
-0.17267644 -0.12904416 1.2653333 0.4207365513 -0.7763050199 0.4693946242
-0.062570766 -0.25529411 1.1420001 -0.4258271158 -0.1231072471 0.8963904977
-0.23143561 -0.15387341 1.427 -0.01133129373 0.4663862288 0.8845086098
-0.2174221 -0.23088156 1.1810001 0.5632858872 -0.5339937806 0.630523324
-0.25537735 -0.064778656 1.4210004 0.5400502086 -0.183930248 0.8212888837
-0.25529248 -0.36470172 1.1885998 0.4183059931 0.2043325305 0.885024488
-0.15520875 -0.014608832 1.3810003 0.3168862164 -0.2815455198 0.9057125449
-0.20458859 -0.33461955 1.162091 0.3803044856 0.08043274283 0.9213572145
-0.30150408 -0.11563963 1.439 0.7811577916 -0.07580997795 0.6197139025
-0.075389169 -0.17161867 1.1740001 -0.1549273431 -0.7279605269 0.6678854823
-0.056053087 -0.034950752 1.3540001 0.2149201035 -0.5737529397 0.7903270721
-0.19502324 -0.28486598 1.1646801 0.5111076832 -0.0005525336019 0.8595165014
-0.12490749 -0.02402067 1.3700002 0.07129348069 -0.2395829856 0.968254745
-0.27343085 -0.22755899 1.2263335 0.579210043 -0.6504006386 0.4914211333
-0.022826061 -0.094017237 1.324 -0.8774018288 -0.3760076165 0.2979669869
-0.3180266 -0.25154021 1.2640001 0.6510849595 -0.6939345598 0.3074787855
-0.063124381 -0.29158723 1.1430001 -0.3646958172 0.03097046539 0.9306114912
-0.23750778 -0.063747443 1.41 0.5187992454 -0.100218825 0.8490014672
-0.19745514 -0.23206067 1.161 0.5655687451 -0.3226348758 0.758972168
-0.33261493 -0.094534181 1.4839998 0.852561295 -0.09456557035 0.5140005946
-0.063443966 -0.12560745 1.256 0.3068441153 -0.8429182768 0.4419677556
-0.11659754 -0.16701011 1.177 -0.2218140662 -0.7739861012 0.5930801034
-0.1108507 -0.22675538 1.153 -0.1972011179 -0.2432024032 0.9497179985
-0.2741088 -0.055480663 1.4357694 0.631819725 -0.3298068345 0.7014493942
-0.21502256 -0.15348777 1.2855 0.575930357 -0.6148704886 0.5387378931
-0.22537565 -0.34466195 1.1730002 0.4065084755 0.09928314388 0.9082366228
-0.081352033 -0.095101677 1.307 0.02079098672 -0.9454782009 0.3250211179
-0.33018336 -0.12430432 1.4770001 0.7878075838 -0.1863230318 0.5870629549
-0.17626962 -0.17257446 1.204 0.5731133223 -0.7637324929 0.2970754504
-0.069918551 -0.14091277 1.2270001 0.1835688204 -0.8897122741 0.417988658
-0.3068572 -0.17498355 1.4360002 0.652880609 -0.1516178846 0.7421312928
-0.18685721 -0.023647046 1.3930911 0.4818350375 -0.2468277812 0.8407800198
-0.066346131 0.01085664 1.376 -0.1435723752 -0.633896172 0.7599753737
-0.30654281 -0.25338104 1.2426001 0.7019177079 -0.5246297717 0.4817417562
-0.17608619 -0.085689001 1.381 0.3815953135 0.1073305234 0.9180768728
-0.29009339 -0.059538815 1.4450001 0.6050828099 -0.3760531843 0.7017540932
-0.016696731 -0.11481465 1.3045 -0.7840872407 -0.4581515193 0.4186936617
-0.28154647 -0.19884758 1.2863334 0.5830372572 -0.6452684402 0.49365592
-0.2139318 -0.054878753 1.398 0.4907117486 -0.2339529693 0.8393259048
-0.23300751 -0.096100204 1.404 0.3834032416 0.05267114565 0.9220779538
-0.11433399 -0.18049164 1.1610001 -0.02054691501 -0.7817185521 0.6232928038
-0.10283124 -0.098139323 1.3379999 0.5939077735 -0.4182329476 0.6872807145
-0.1639277 -0.29454893 1.1374003 0.4174446166 0.02423765138 0.9083790779
-0.34354725 -0.19557995 1.455 0.4861882925 -0.5642188787 0.667291522
-0.28683716 -0.344639 1.2142308 0.6327671409 -0.2998066545 0.7139479518
-0.31057933 -0.1997406 1.317 0.6463001966 -0.5691690445 0.5082741976
-0.33163717 -0.23195432 1.312 0.6153859496 -0.5428217649 0.5715283751
-0.094881646 -0.014412401 1.3700004 0.06278221309 -0.2626363933 0.9628502131
-0.19545889 -0.18499961 1.2147273 0.6037706137 -0.7115155458 0.3594532907
-0.24189425 -0.038454983 1.4150001 0.5598223805 -0.3348788619 0.757928133
-0.23867249 -0.22170024 1.21 0.4339112043 -0.7163358927 0.5464283824
-0.25798872 -0.28509593 1.181 0.3353804946 0.1476976424 0.9304328561
-0.3452743 -0.12038299 1.5090001 0.8921608329 -0.1957958639 0.4070786834
-0.28489995 -0.22457884 1.25475 0.6306078434 -0.6818106174 0.3707668185
-0.10436556 -0.14438803 1.2120554 -0.1668159664 -0.8130000234 0.5578560829
-0.19167995 -0.14826684 1.2590001 0.5673420429 -0.6521911621 0.5027620792
-0.037011452 -0.19602773 1.1957694 -0.6209699512 -0.5435734391 0.5647337437
-0.1442502 -0.2746923 1.13416 0.2740152776 -0.195273757 0.9416919947
-0.031550355 -0.16210355 1.2410001 -0.604254663 -0.536462307 0.5891387463
-0.16555651 -0.235791 1.1445203 0.279653728 0.05751909688 0.9583764076
-0.16440217 -0.34495461 1.1475265 0.1499845684 0.4215092659 0.8943347335
-0.23213641 -0.126038 1.4040002 0.1447814852 0.08509982377 0.985797286
-0.27375713 -0.26676664 1.1956667 0.5772899985 -0.4474991262 0.6829939485
-0.1849312 -0.36210856 1.1672858 0.2112472206 0.4887724221 0.8464491367
-0.099461339 -0.32551599 1.146 -0.1476056278 0.5055408478 0.8500829339
-0.21501499 -0.26484472 1.1627779 0.3561055362 0.1959715784 0.9136651158
-0.29141188 -0.079475969 1.439 0.5459617376 -0.4251379371 0.7219304442
-0.12437516 -0.25511292 1.1342965 0.2344905734 -0.3461104333 0.9084171653
-0.16569628 -0.17418896 1.1846365 0.6036989689 -0.6856268644 0.4067718387
-0.33625129 -0.22079274 1.3245715 0.6493142247 -0.5391919017 0.5363423824
-0.23288563 -0.18747529 1.2589999 0.500058949 -0.7406737804 0.448713094
-0.10566152 -0.20529175 1.1479093 -0.4501042962 0.04321349785 0.8919297457
-0.27261966 -0.2086037 1.2590001 0.5135555267 -0.7307813764 0.4496879876
-0.2935617 -0.26517695 1.2163076 0.6452938318 -0.4596508741 0.6101777554
-0.31169152 -0.28889349 1.2190001 0.6693094373 -0.2430885285 0.7020917535
-0.051874995 -0.10926861 1.2590001 0.2946719527 -0.8393136263 0.4568600655
-0.031092737 -0.1811956 1.223 -0.4420857728 -0.6635585427 0.6035314202
-0.16531615 -0.21568948 1.1456404 0.3927615583 -0.3632609844 0.8448548913
-0.16370086 -0.11434802 1.3730001 0.4164030552 0.1544512361 0.8959650397
-0.19600408 -0.11524975 1.3956001 0.4404525459 0.1234250292 0.8892512918
-0.17631082 -0.12037773 1.3870001 0.4694178402 0.04144449905 0.8820029497
-0.09474875 0.034552563 1.3932858 -0.1918529868 -0.5302875638 0.8258253336
-0.11345951 -0.10785908 1.2771667 0.1681910753 -0.8663004041 0.470356673
-0.078814089 -0.22646579 1.138 -0.1579170376 -0.488954097 0.857896328
-0.018122101 -0.13579848 1.276 -0.6450673342 -0.5080813766 0.5707376599
-0.1047305 -0.072955251 1.3540001 0.2573411763 -0.4070874453 0.8763876557
-0.083594702 -0.12311002 1.252 -0.2410436869 -0.7736076713 0.5860282779
-0.18231949 -0.25232613 1.149 0.3673729002 0.1529377401 0.9174132943
-0.12469738 -0.14458854 1.2132943 0.1497055441 -0.9175586104 0.3683401048
-0.027623767 -0.0324279 1.3700002 -0.8199529052 -0.4727616608 0.3227594793
-0.09058509 -0.19847295 1.161 -0.353231132 -0.09111535549 0.9310884476
-0.039284311 -0.2608881 1.149 -0.5110471249 -0.1241241992 0.8505433798
-0.042967621 -0.076577857 1.307 0.2057028413 -0.5770682096 0.7903661132
-0.078883342 -0.081238069 1.3430001 0.4689620435 -0.5860362053 0.660784483
-0.16693254 -0.11469313 1.2953334 0.354716748 -0.8483736515 0.3929861784
-0.21202534 -0.03799298 1.3980001 0.4220431149 -0.2913716137 0.8584766984
-0.073971957 -0.086104639 1.3253332 0.4330154061 -0.7850589156 0.4429222345
-0.12516864 -0.07507439 1.3573332 0.2069646865 -0.1342270821 0.9690968394
-0.29791236 -0.23121557 1.268 0.7042741776 -0.6401691437 0.3068898916
-0.19296367 -0.12876597 1.2846668 0.5155700445 -0.7305409908 0.4477693439
-0.15454933 -0.13686784 1.245 0.2701192498 -0.7509270906 0.6026143432
-0.19317867 -0.34550861 1.1569999 0.326182276 0.2768057883 0.9038714767
-0.12437796 -0.29449281 1.126 0.08794822544 0.1253504157 0.988206625
-0.26267385 -0.30124107 1.189 0.4574170113 0.3531736434 0.8161115646
-0.094409235 -0.14281082 1.2248464 -0.2252554893 -0.806230247 0.5470400453
-0.28496826 -0.29448521 1.1960771 0.4741140604 0.2365519702 0.8480913639
-0.12564825 -0.1029119 1.3649999 0.1971580833 0.2225495577 0.954777658
-0.28605548 -0.15431613 1.4150001 0.2931235135 -0.07340203971 0.9532527328
-0.2945382 -0.18471554 1.423625 0.2512450218 0.5242608786 0.8136501312
-0.065109588 -0.14326118 1.2117857 0.05048340559 -0.8758733869 0.4798929095
-0.05721515 -0.19506195 1.1684287 -0.6830413938 -0.3162831664 0.6583459377
-0.1177223 -0.32024458 1.138 -0.1258325577 0.5155664682 0.8475596905
-0.22618563 -0.21161771 1.2112857 0.5089168549 -0.6993082166 0.5019677281
-0.3416712 -0.1356326 1.4735001 0.7454835773 -0.2178852409 0.6299049258
-0.035981905 -0.11397218 1.2657144 -0.753767252 -0.4947479069 0.4325037301
-0.2461119 -0.15257944 1.4150001 -0.009073976427 0.3409458101 0.9400391579
-0.11558621 -0.004819585 1.3733751 0.1013733596 -0.26876688 0.9578558207
-0.18231949 -0.30607224 1.149 0.5810813308 -0.0160319116 0.8136875629
-0.065369658 -0.16393717 1.1835715 -0.2176315188 -0.7675977349 0.6028517485
-0.28585428 -0.088195734 1.427 0.4771025181 -0.3367860913 0.8117563128
-0.23557197 -0.16416477 1.2947272 0.5680533051 -0.6080685258 0.5545881987
-0.31289214 -0.10531572 1.4544001 0.8097419143 -0.0421115458 0.5852731466
-0.25867364 -0.21064985 1.245 0.4646417797 -0.8039640784 0.3711466193
-0.29099897 -0.048996899 1.4580001 0.6159105897 -0.3815208972 0.6892720461
-0.25839135 -0.22193781 1.223 0.4455303252 -0.7223696113 0.5288524628
-0.15551361 -0.32650208 1.1409999 0.2293828428 0.2949230373 0.9275795817
-0.17397995 -0.27454108 1.1471335 0.5739919543 -0.08723085374 0.8142014742
-0.13230741 -0.13876143 1.2270001 0.3319733143 -0.8611357212 0.3850181997
-0.29874277 -0.33416849 1.2320001 0.6728499532 -0.2560561597 0.694051981
-0.21791565 -0.17189065 1.265 0.6004456282 -0.6379978061 0.482103616
-0.22576956 -0.24449499 1.1738002 0.5243427157 -0.4691042304 0.7106376886
-0.0082783634 -0.079235762 1.3490001 -0.8459869027 -0.4297458231 0.3156338036
-0.1775583 -0.19264048 1.1730002 0.5545447469 -0.5578234196 0.6175055504
-0.19847295 -0.25648811 1.161 0.3100033998 0.1656829715 0.9361875057
-0.087854274 -0.27392763 1.126 -0.2016392201 0.02522234805 0.9791350365
-0.10530519 -0.045472704 1.3649999 0.1281643808 -0.2036394477 0.9706208706
-0.1854815 -0.0052460982 1.3958572 0.5645363331 -0.3139617741 0.7633653879
-0.049357209 -0.23671313 1.149 -0.4992128015 -0.4055915177 0.7656906247
-0.14417598 -0.18909512 1.1570002 0.2329445481 -0.5728651285 0.7858513594
-0.32984409 -0.18353193 1.4640001 0.5396605134 -0.4642489254 0.7023100853
-0.095385529 -0.15763834 1.2036 -0.03722452745 -0.8513647914 0.5232517123
-0.074611537 -0.15167911 1.2024444 0.1548800915 -0.8536456823 0.4972938597
-0.021590255 -0.16248141 1.2523333 -0.5966389775 -0.5685839057 0.5663340688
-0.24812327 -0.19157942 1.273 0.4260967374 -0.7643824816 0.4839018285
-0.13493712 0.014588611 1.386667 0.2454523891 -0.3729318678 0.8948044181
-0.25486401 -0.1039217 1.4112501 0.3464886844 -0.1292506009 0.9291070104
-0.093166694 -0.056471884 1.3590001 0.2597497404 -0.3545355201 0.8982397318
-0.17624117 -0.32426584 1.1538888 0.4306325018 0.07310970128 0.8995613456
-0.32469028 -0.10489327 1.4726251 0.8131477833 -0.05314157531 0.5796263218
-0.20222069 -0.025737181 1.3980001 0.4614730477 -0.3275876641 0.8244567513
-0.30118757 -0.25816077 1.2270001 0.6769249439 -0.4928282499 0.5467110276
-0.094286226 -0.18144779 1.1610001 -0.2308021337 -0.511787951 0.8275285363
-0.30847821 -0.21478969 1.3032501 0.6590590477 -0.4919045269 0.5689210296
-0.14504012 -0.21205866 1.1409999 0.1734388024 -0.2859686911 0.9424122572
-0.083063871 -0.10541157 1.2746667 -0.158545807 -0.8757174015 0.456050694
-0.042931069 -0.047153797 1.3380001 0.2932955921 -0.6838440299 0.6680831313
-0.066868044 -0.051832628 1.3540001 0.4671697915 -0.4342745841 0.77016747
-0.30388471 -0.14445762 1.4356668 0.7567487955 -0.09846618026 0.6462473869
-0.22226159 -0.007923021 1.427 0.5140094161 -0.505063355 0.6933291554
-0.30285504 -0.27724624 1.2168889 0.6754880548 -0.3947903216 0.6227812171
-0.032158762 -0.14139494 1.265 -0.8308734894 -0.3882264495 0.3986596465
-0.17105238 -0.047527958 1.376 0.3964169919 -0.2052789927 0.894826293
-0.14470084 -0.31443471 1.1336 0.2126782835 0.2537074685 0.9436103106
-0.1405209 -0.046840299 1.3700001 0.1445909441 -0.1907315105 0.9709351063
-0.1940278 -0.055779889 1.3832502 0.4120766521 -0.2254515141 0.8828161955
-0.22236082 -0.37197715 1.177 0.2379933745 0.4047700763 0.88290447
-0.015181939 -0.066497453 1.3742001 -0.9314148426 -0.3608003855 0.04784858227
-0.20416729 -0.16602515 1.2563126 0.5976480246 -0.6251652837 0.501981318
-0.10425791 0.024250027 1.3828751 -0.07811054587 -0.4360246658 0.896538496
-0.22645351 -0.03386914 1.41 0.4682400823 -0.3764277101 0.7994081378
-0.037276745 -0.12478872 1.2547779 -0.812722683 -0.4372392297 0.3851021826
-0.13864264 -0.15037157 1.2165 0.3944104314 -0.8686875701 0.2997036576
-0.31957656 -0.13347776 1.4640001 0.770352602 -0.1176762283 0.6266651154
-0.058915507 -0.11894263 1.268 0.3555825651 -0.8287535906 0.4321209788
-0.11558499 -0.21561468 1.1448337 -0.4093636274 0.03553881124 0.9116789103
-0.037004873 -0.23510242 1.1654446 -0.5692628026 -0.4648938477 0.6780955791
-0.10454264 -0.24494673 1.1332593 0.2376411557 -0.4315511286 0.870224297
-0.057084735 -0.10169128 1.2936667 0.3772933185 -0.7795277834 0.4999861419
-0.28655165 -0.17242718 1.4150001 0.2390144169 0.2844874859 0.9284067154
-0.30799931 -0.060568899 1.47 0.6704919338 -0.4040464759 0.6222435236
-0.095028207 -0.16329058 1.1834 0.02639998496 -0.8926970363 0.449883312
-0.016210517 -0.094139181 1.3367501 -0.8573052287 -0.3848480582 0.341935277
-0.15489401 -0.2454067 1.1448098 0.2205631733 0.0758882314 0.9724159837
-0.23635633 -0.1967202 1.2443334 0.4708369672 -0.794344604 0.3838348687
-0.22379132 -0.16716218 1.2772857 0.5837816 -0.6270110607 0.5158063173
-0.15192984 -0.15921232 1.187 0.5179464221 -0.8039184213 0.2923126817
-0.26837397 -0.24079403 1.21 0.5368851423 -0.5320741534 0.6547148228
-0.20413475 -0.20638324 1.1860001 0.6141258478 -0.636503458 0.4665970802
-0.19543394 -0.19581299 1.1944544 0.6253412366 -0.6748448014 0.3918326199
-0.074308291 -0.24501295 1.1335559 -0.3599003553 -0.2168709636 0.9074352384
-0.18480644 -0.045190547 1.3854215 0.4041433632 -0.2885030508 0.8680058122
-0.12441259 -0.33260819 1.1445001 -0.125191316 0.5485259295 0.8267081976
-0.1521455 -0.35196325 1.1570001 0.09330919385 0.482105732 0.8711299896
-0.17709155 -0.18242219 1.1832858 0.6203698516 -0.6467312574 0.4437115192
-0.31442311 -0.30233994 1.2157778 0.6500763297 0.4080709815 0.6409983635
-0.24399805 -0.026801355 1.4256667 0.5621858835 -0.44906196 0.6944712996
-0.29419094 -0.23596151 1.2437999 0.6523755789 -0.6531062722 0.3845235109
-0.065354548 -0.096030861 1.3040835 0.2205616385 -0.8894171119 0.4003620744
-0.15483323 -0.15559806 1.2252858 0.3519868553 -0.8245574236 0.4429562986
-0.25372234 -0.17700744 1.296375 0.3734592795 -0.7269610763 0.5762427449
-0.051866733 -0.18354784 1.1867144 -0.8402232528 -0.287130028 0.459979564
-0.081144273 -0.20793219 1.1570001 -0.02689314447 -0.4675636292 0.8835502267
-0.20512722 -0.31514189 1.1645386 0.378444016 -0.2039757669 0.9028698802
-0.24645889 -0.31518167 1.1842002 0.5635595322 0.09229367971 0.8209034801
-0.16631548 -0.20557395 1.1551538 0.4764302373 -0.5278003812 0.7031649351
-0.31830889 -0.070878498 1.47 0.7348390818 -0.2740312517 0.6204178929
-0.12443377 -0.22663218 1.1428666 -0.3197655082 0.07215113193 0.9447456002
-0.29597372 -0.095051363 1.4342 0.6335015893 -0.2463972718 0.7334603667
-0.19334237 -0.21547896 1.1668824 0.5635586977 -0.4907518625 0.6645029783
-0.26830474 -0.035723291 1.4450001 0.6231691837 -0.4165744483 0.6619107723
-0.27633587 -0.34396923 1.2023333 0.6261423826 -0.2442137003 0.7404764891
-0.19418657 -0.075246379 1.3843753 0.3511759341 0.02522713318 0.9359695911
-0.20427734 -0.085115559 1.3870003 0.4073339105 0.1248335689 0.9047074914
-0.067300074 -0.064437754 1.3434287 0.5681499243 -0.4860932529 0.6640173197
-0.10558033 -0.2743127 1.12555 -0.006551027764 -0.03931745142 0.9992052913
-0.042332977 -0.15450926 1.2337143 -0.7951212525 -0.2178487182 0.5659718513
-0.046028111 -0.20726976 1.1762729 -0.6662362814 -0.4968869686 0.5560867786
-0.12402555 0.024318732 1.3870003 0.1452304572 -0.4281962812 0.8919395208
-0.24420786 -0.17704467 1.2863334 0.4491652548 -0.7140317559 0.5370374322
-0.086138628 -0.13644002 1.2340001 -0.1929016709 -0.8166345954 0.543964088
-0.022275515 -0.12194901 1.2920001 -0.7615982294 -0.4324243069 0.4826773107
-0.08415591 -0.21792738 1.1473335 0.02965056337 -0.5919189453 0.8054519296
-0.13509972 -0.19649996 1.1455716 0.151574865 -0.5678519607 0.8090545535
-0.20465502 -0.27564591 1.1678891 0.3040744066 0.2475878596 0.9199125171
-0.22494042 -0.29510531 1.177 0.2102783024 -0.009415056556 0.9775962234
-0.17684959 -0.16304259 1.2247144 0.5080265999 -0.7459235191 0.4307053089
-0.31378791 -0.1250039 1.4549999 0.8088999391 -0.1099950075 0.5775656104
-0.072376944 -0.037230939 1.3590001 0.3719522953 -0.3628172874 0.8544092178
-0.08442755 -0.28507999 1.13304 -0.2509368956 0.1125095114 0.9614428282
-0.13338909 -0.16409206 1.1730002 -0.1758190989 -0.6451305151 0.7435685992
-0.049691219 -0.15753174 1.2060001 -0.9109190702 -0.2322795987 0.3409877121
-0.30733943 -0.083022669 1.4519999 0.6696515083 -0.2872913182 0.6848580837
-0.084949002 -0.10080615 1.2920001 -0.1135393754 -0.9013622403 0.4179173112
-0.25662312 -0.083464801 1.4210001 0.4794704914 -0.180094853 0.858879447
-0.13387968 -0.30398536 1.1279999 0.1507507861 0.217033878 0.9644534588
-0.16567473 -0.13461639 1.2544707 0.3534742594 -0.7502159476 0.5587772131
-0.13539305 -0.2840974 1.1301737 0.3100112677 -0.1006434262 0.9453908801
-0.24598952 -0.35456613 1.1868824 0.4389066994 0.05414521694 0.8968997598
-0.26769367 -0.19008501 1.2830001 0.4056416154 -0.7205564976 0.5623639226
-0.26426208 -0.055313822 1.4265385 0.6076738834 -0.2927245498 0.7382714748
-0.037091669 -0.20626885 1.1863334 -0.6285306811 -0.540769875 0.5590323806
-0.24710515 -0.23208918 1.202 0.4695351124 -0.6216501594 0.6269671917
-0.13475291 -0.26518542 1.1345716 0.2769353092 -0.292762816 0.9152031541
-0.28405052 -0.21374495 1.2662222 0.6206640005 -0.6436324716 0.447787255
-0.34262851 -0.10715409 1.5090001 0.8957179189 -0.1625134796 0.4138584137
-0.20604773 -0.13194485 1.3954287 0.4491780698 0.07093168795 0.890622139
-0.056248728 -0.22525908 1.1555262 -0.5452575684 -0.4114020169 0.7303715348
-0.13488656 -0.014448564 1.37375 0.1869900525 -0.3253215849 0.9269307256
-0.0529381 -0.075493947 1.3158889 0.542650044 -0.5692344904 0.6176593304
-0.15504289 -0.26507333 1.1410003 0.3112458587 -0.2184209079 0.9248882532
-0.29216516 -0.20699568 1.2867501 0.6331511736 -0.6089301705 0.4778322279
-0.037015498 -0.095668964 1.2866365 -0.4462666512 -0.717977345 0.534185946
-0.070860088 -0.11135157 1.2830001 -0.02675699815 -0.8235632777 0.5665929914
-0.31584787 -0.14518981 1.45275 0.8189974427 -0.0860170722 0.5673131943
-0.28402948 -0.12457431 1.4210001 0.4853008986 -0.04728592932 0.8730676174
-0.15610985 -0.30548444 1.1409999 0.3468237817 0.1295891553 0.9289348125
-0.094901077 -0.22609366 1.147182 0.1116348058 -0.535344243 0.8372241259
-0.29545507 -0.28522587 1.2043158 0.621917069 -0.1887888014 0.7599854469
