# .PCD v0.7 - Point Cloud Data file format
VERSION 0.7
FIELDS x y z normal_x normal_y normal_z
SIZE 4 4 4 4 4 4
TYPE F F F F F F
COUNT 1 1 1 1 1 1
WIDTH 512
HEIGHT 1
VIEWPOINT 0 0 0 1 0 0 0
POINTS 512
DATA ascii
-0.24465024 -0.062994167 0.94378263 0.3029215336 0.4105817974 0.8600355387
-0.05865952 -0.2217616 1.6320001 0.05016862974 0.8412992954 0.5382365584
0.01405681 0.23407599 1.1643846 -0.05405254662 -0.711506784 0.7005972266
-0.39341468 0.01023333 1.2970001 0.9490901828 -0.03531555831 0.3130185008
0.030437866 -0.0008696533 0.99200004 0.6112644672 -0.4825388491 0.6273053288
-0.21325092 0.17114988 1.044 0.1509605944 -0.8488968611 0.5065422654
-0.067223191 -0.14277114 0.87772745 -0.2403476685 0.05348739401 0.9692121148
-0.12313133 0.070820644 0.91800004 -0.1311918497 -0.7409534454 0.6586172581
0.0057409708 0.063684814 1.1431819 -0.9716290236 0.07375844568 0.2247146964
-0.07767573 0.1223601 1.0455 -0.4746595323 -0.5220680833 0.7086206675
-0.1277917 0.24072389 1.13 -0.1898304224 -0.8287525177 0.5264348984
-0.16310559 -0.18121502 0.96400011 0.3446286023 0.7919040918 -0.5041022301
-0.24483283 0.063084058 0.95100003 0.7139315009 -0.4953212142 0.4949329793
-0.13505898 -0.044697888 0.88762486 0.2043515742 0.3642558753 0.9086022973
-0.028656479 -0.048556812 0.90800005 -0.1093706638 -0.3193678856 0.9412981272
0.023831623 0.1537926 1.0951818 -0.08509441465 -0.4829217494 0.8715190887
-0.060006078 0.037395094 0.99200004 -0.3177371323 -0.7078678012 0.6308456659
-0.18410224 0.13166063 0.96477783 0.009174769744 -0.7461636066 0.6656994224
0.031869385 0.077301435 1.0440001 -0.2713029683 -0.5453756452 0.7930700183
-0.056417882 0.19252795 1.1057999 -0.6826503277 -0.4756635129 0.5547366738
-0.30337724 -0.082526185 1.0050001 0.6783211827 0.314868778 0.6638810635
-0.12651937 0.19255896 1.056 -0.3127363622 -0.6883056164 0.6545466781
-0.19470918 0.015038197 0.9028334 0.3176840246 0.1053351089 0.9423276186
-0.25050616 -0.14284363 0.96700007 0.606895864 0.3379387856 0.7193571925
-0.12437014 -0.11455236 0.93333364 0.1177558899 0.390257448 0.9131444097
-0.29254511 -0.0019868189 0.97100002 0.5641707778 0.06660103798 0.8229675889
-0.13475785 -0.18489379 0.8936668 0.4257511497 0.6386842132 0.6409512162
-0.022187995 0.036350545 1.077 -0.9474059343 0.09466065466 0.3057145774
-0.071298905 0.015638696 0.92136365 -0.8263280392 -0.06350298226 0.5595974326
-0.11635782 0.11213288 0.98644447 -0.6987816095 -0.6279947758 0.3425300121
0.058626205 0.13544674 1.153 -0.536891222 0.7860484123 0.3063912988
-0.19524196 -0.11485305 0.93575013 -0.02440831997 0.4562008679 0.8895419836
-0.0042518331 -0.060376033 0.97000003 0.5721734166 -0.7344664335 0.3649337292
-0.016935321 0.17645934 1.1558571 -0.5530993342 -0.6999862194 0.451774776
-0.027841473 -0.11163619 0.92500001 -0.2920779586 0.4783737659 0.8281599879
-0.017478149 0.10621111 1.0731578 -0.8687676787 0.3151896596 0.3819662631
-0.031780921 0.099756777 1.0070001 -0.4708839357 -0.6847125888 0.5562705994
-0.11842014 0.018900933 0.88000005 0.01819312759 -0.3358922303 0.9417247176
-0.18536624 0.074971803 0.92509377 0.1629863381 -0.4134202003 0.8958343267
-0.08091595 -0.076685667 0.88871425 0.2316004038 -0.4339881837 0.8706408739
-0.15458073 0.15547694 1.0134093 -0.2394862324 -0.7874277234 0.567982316
-0.19352046 -0.044966128 0.91594452 0.5358655453 0.01596161351 0.8441524506
-0.23921137 -0.0030233311 0.94200009 0.6310068369 -0.03630327806 0.7749273777
-0.077295087 0.082496524 0.95630008 -0.365157187 -0.7484872341 0.5535585284
-0.079652183 -0.19144471 1.5940001 0.05016862974 0.8412992954 0.5382365584
-0.079575911 0.23066941 1.149 -0.3887767494 -0.7841419578 0.4837085903
-0.0024618991 0.11181466 1.1237501 -0.7725484371 0.4952099025 0.3974116743
-0.15358104 0.21540773 1.09325 0.2297008038 -0.7890868187 0.5697188377
-0.1175531 -0.16275872 0.95100009 0.08876990527 0.382694602 0.9196003079
-0.084374078 0.16513833 1.0740384 -0.5323864818 -0.4006781876 0.7456685901
-0.085170582 -0.025180096 0.89535141 -0.7058454156 -0.05084231496 0.7065389752
0.040812925 0.1072549 1.0826668 -0.4646129012 -0.5062094331 0.7265582085
-0.032138601 -0.010712867 0.94000006 0.32796821 -0.5764439106 0.7484312057
-0.2645593 -0.091676541 0.97733337 0.5149852633 0.4835068882 0.7078214884
-0.2112416 0.13994756 1.0040001 0.2078509331 -0.7989071012 0.5643983483
-0.16482006 -0.083305046 0.91556513 -0.01531573851 0.6314272285 0.7752838731
0.01184552 0.20038672 1.126 -0.4674515426 -0.5985043645 0.6506009698
0.017070454 0.035942677 1.0250001 0.6729767323 -0.4281612337 0.6031419635
-0.14435081 0.1058749 0.94242877 -0.2169557363 -0.788492322 0.5755085349
-0.10134705 0.20752014 1.1010001 -0.3219437301 -0.7443928123 0.585005641
-0.20656519 -0.16078739 0.96700007 0.2257188708 0.6003123522 0.7672522664
-0.03871097 0.1482347 1.077 0.2011510432 -0.7348290086 0.6477380991
-0.15923855 0.045731876 0.898 -0.07161252201 -0.09821499139 0.9925852418
-0.17464706 0.22829278 1.1332 0.2793943286 -0.8584977388 0.4300238192
-0.028641224 0.036929231 1.0274 -0.8893402815 -0.3550219834 0.2881549001
0.0147419 0.10536883 1.1652858 -0.8555695415 0.3510480523 0.3804813325
-0.11645191 0.14390445 1.0360001 -0.6782931089 -0.4298990369 0.5959070921
-0.15569407 -0.0039652605 0.89177805 0.5529989004 -0.1290324032 0.8231298923
-0.27709633 -0.043451007 0.97188896 0.7027183175 -0.06540077925 0.7084558606
-0.042953156 0.075402103 1.0425 -0.8508056402 -0.2634816468 0.4546506107
-0.21970494 0.049091581 0.91800004 -0.1014766395 0.2981895804 0.9490972161
-0.025463659 0.15961558 1.1170001 -0.08125536889 -0.9182679057 0.3875327706
-0.12019801 -0.080397345 0.90800005 0.3152240813 0.5971152186 0.7376226783
-0.071092702 0.10765672 0.99300003 -0.1586721241 -0.82662642 0.5399184227
-0.026058916 0.20117484 1.189 -0.9434645772 0.3070951402 0.1247685254
-0.083678335 0.056828123 0.92161912 -0.4978186786 -0.5692484379 0.6543185711
-0.064167961 0.0064824824 0.96393335 0.2828763425 -0.6105528474 0.7397338748
-0.095084704 -0.17477612 0.88468564 -0.1265936047 0.5239116549 0.8423126936
-0.23423645 -0.10475059 0.94679987 0.6280781031 0.07785054296 0.7742462158
-0.15447073 -0.1445061 0.94733322 0.09112089127 0.3010501862 0.9492448568
-0.21192868 0.10513096 0.95175004 0.5244504213 -0.6433981657 0.5576652884
-0.0067754383 0.064883776 1.1046363 -0.9251859188 0.2014651597 0.3216251731
-0.270428 0.031366255 0.96700007 0.7957441807 -0.3255235255 0.5107108951
-0.063710801 -0.033669047 0.93320012 -0.5477374792 -0.3979778886 0.7359328866
-0.056310929 -0.22176774 1.5860001 0.05793654919 0.8455201983 0.5307908654
0.022958497 -0.033254422 0.96280003 0.5521819592 -0.6901921034 0.4676857591
-0.03596808 0.12311049 1.0437692 -0.2584839761 -0.8365163207 0.4831422865
-0.0045775445 -0.074585095 0.92140007 -0.6874108315 0.09841323644 0.7195701599
-0.05900668 0.04654048 0.94800007 -0.9210665822 -0.1534733474 0.3578858376
-0.092608333 -0.11544681 0.87575006 -0.1832534224 -0.0916300118 0.9787860513
-0.051938992 0.073173612 0.98200005 -0.9063665867 -0.09039583802 0.4127083421
-0.044836834 -0.085160658 0.90510839 -0.5380731821 0.07631210983 0.8394365311
-0.21109959 -0.075607248 0.92733341 0.6010938883 0.02701981179 0.7987214923
-0.21482678 -0.014517262 0.91161293 0.3774599731 0.243273288 0.8934999108
-0.16047382 0.18431741 1.046 0.02545220964 -0.8058767319 0.5915360451
-0.16026869 -0.18223445 0.92800003 -0.3428322971 0.8850033879 -0.3150159419
0.043329604 0.13430095 1.1182001 -0.17039527 0.9810602069 0.09212145209
-0.14625111 0.13388272 0.98623091 -0.2205400765 -0.7750398517 0.5921784639
0.0048307618 -0.022621397 1.002125 0.6414582729 -0.5376654863 0.5472176075
-0.097288832 0.11259168 1.0181428 -0.5549026728 -0.6803691983 0.4787283242
-0.11654522 -0.01547389 0.8780002 -0.1838777363 0.08554220945 0.9792198539
-0.18811776 0.16137417 1.0170001 0.2546851337 -0.7923688293 0.5543348789
-0.30093774 -0.035763618 0.99500006 0.5044170022 0.2324431688 0.8315850496
-0.11068399 0.088882163 0.95650005 -0.386174649 -0.7873549461 0.4805635214
-0.01105126 0.21499987 1.146 0.2830301523 -0.6554182768 0.7002291083
-0.24450731 0.026708586 0.92700016 0.368881017 0.2767536938 0.8873185515
-0.15423271 0.082977161 0.91535008 -0.01862058602 -0.6623968482 0.7489216924
-0.088958874 0.030702619 0.89800006 -0.6635727882 -0.3220337033 0.6752521396
-0.043569278 0.20115468 1.1348001 -0.7845826149 -0.414738059 0.4608931541
-0.008099962 0.14294049 1.087 -0.8263388872 -0.1079417467 0.5527319312
-0.27010104 0.0049864803 0.94800001 0.4230666757 0.2274255157 0.8770930767
-0.21850041 0.079084098 0.93000007 0.5759471655 -0.5079546571 0.6405208111
-0.23296013 -0.035614278 0.92786962 0.4323566258 0.2114143968 0.8765681386
-0.16451454 -0.035092767 0.89640015 0.5123716593 0.01085667685 0.858695209
-0.096101075 -0.10090564 0.91350001 0.2367855161 0.7036844492 0.6698961258
-0.022408575 0.074938439 1.0700001 -0.8576870561 -0.1494084895 0.4919857979
-0.10113138 -0.14589296 0.87283343 -0.1422792226 0.1469532996 0.9788571596
-0.12478185 0.045150995 0.89587897 0.2181229442 -0.5724186301 0.7904171348
-0.18212415 0.10702507 0.94236356 -0.1210120767 -0.6865274906 0.7169631124
-0.037361782 0.016828492 0.97600001 -0.2028837651 -0.8043926358 0.5583821535
-0.25783297 -0.023838241 0.95572722 0.7063171864 -0.03202477843 0.7071707249
-0.18730871 0.046926983 0.911125 0.58801651 -0.3925337791 0.7072155476
-0.15490602 -0.11270886 0.93766659 0.03557629511 0.4660266936 0.8840551376
-0.065165475 -0.10473119 0.88495225 -0.3523233831 -0.2052749693 0.9130883813
0.0179892 0.1275024 1.08 -0.01499401778 -0.6327110529 0.7742428184
-0.062272746 -0.061028857 0.912 -0.3314597011 -0.5919582844 0.7346562743
-0.10582047 -0.053302512 0.88734484 -0.1267149895 0.2999669611 0.9454962611
0.0093246652 0.0055503957 1.013 0.5360380411 -0.3877235949 0.7498890758
-0.077457644 0.21332669 1.1184286 -0.3734885454 -0.768127501 0.5200830698
-0.18001825 0.14697142 0.99200004 0.1397845745 -0.8690747619 0.474520117
0.02256277 0.17167325 1.1190001 -0.4779768884 -0.5475647449 0.6868121624
-0.28982335 -0.071380831 0.98100007 0.7102494836 0.1650934815 0.6843170524
-0.066576116 0.14218189 1.0646669 -0.4229256511 -0.5751985312 0.7002003789
-0.1248904 0.22523065 1.1043636 -0.3146981895 -0.7721508741 0.5520399213
-0.18523665 -0.014211835 0.91321886 0.2269638479 0.1641390175 0.9599717855
-0.21062385 0.12398404 0.97533339 0.4300385416 -0.7630251646 0.4825550914
-0.21838467 -0.13826348 0.95200008 0.1913539469 0.5697486401 0.7992309928
-0.18550529 -0.14539708 0.95316684 0.09483302385 0.4140718281 0.9052906632
-0.05669466 0.16157731 1.0961429 -0.6996065974 -0.3719428778 0.6100894213
0.018792227 0.097312808 1.0612001 -0.4489825964 -0.5685579181 0.6893159747
-0.21773891 0.015394266 0.92400008 0.6759645343 -0.2082369775 0.7069011927
-0.0549265 -0.12254204 0.92406684 -0.7574142814 0.4266396463 0.4942693412
-0.13407852 0.16654424 1.0318334 -0.4151812792 -0.5781880021 0.7023696303
-0.27301216 -0.1121223 0.99585718 0.6409319639 0.2947978675 0.7087315321
-0.10643264 0.16432928 1.0537223 -0.5208635926 -0.3978607357 0.7552535534
-0.043750979 0.0570364 1.013706 -0.8551900983 -0.3735181987 0.359352231
-0.15397146 0.19846106 1.0700001 0.06397949904 -0.8183335066 0.5711715221
-0.03155211 0.20050856 1.161 -0.906643033 0.08339500427 0.4135742784
-0.0048567331 0.18649855 1.108 -0.02603534609 -0.5167575479 0.8557358384
-0.10731564 -0.13538578 0.94163662 0.04893814772 0.399691999 0.9153422117
-0.12291852 0.20740378 1.0827501 -0.288690269 -0.7658557892 0.5745632052
-0.25281256 -0.11436199 0.96533328 0.756888628 0.04780266061 0.6517933011
-0.14553225 -0.066075742 0.90185726 0.06347968429 0.5902641416 0.8047102094
-0.13552131 -0.1827797 0.96400017 0.1427784711 0.4660843909 0.8731435537
0.010792643 -0.052301057 0.94700003 0.5851326585 -0.7779111266 0.229072243
-0.12913738 0.1432412 1.0055001 -0.6577291489 -0.640989244 0.3956325948
-0.096763425 0.0043896283 0.88818169 -0.6397806406 -0.05581618845 0.76652807
-0.10331333 0.18480054 1.0733 -0.4648254514 -0.5768939853 0.6716626287
-0.035979275 0.028081387 1.001 -0.6387004852 -0.6236625314 0.4506736398
-0.012569396 0.097123392 1.1031429 -0.9219679832 -0.1233812049 0.3670859933
-0.2717804 -0.065431625 0.95683342 0.593531251 0.2183151245 0.7746348381
0.012706844 0.13253088 1.1149 -0.6207187176 0.6295799613 0.4672658443
-0.15707795 0.12156375 0.96462506 -0.1265421659 -0.7927638292 0.5962487459
-0.10435665 0.22938772 1.123 -0.3246178627 -0.7587881684 0.5646802783
0.006241282 0.082444072 1.1240001 -0.9826714396 -0.05436452106 0.1772041023
-0.070168398 -0.011291467 0.92000002 -0.836631 -0.04578246549 0.5458502769
-0.012285023 0.23339321 1.1676668 -0.7393090725 0.4168900549 -0.5287956595
-0.1292119 0.11232146 0.96333337 -0.5186089873 -0.7017956972 0.4883928001
-0.02555907 0.054361954 1.054 -0.9251174927 -0.1545009911 0.346824199
-0.054006685 0.11385836 1.011737 -0.4438748658 -0.7113656402 0.5449165106
0.016355254 0.056545474 1.0418183 0.5406852365 -0.4612467587 0.7034990788
-0.18738312 0.17351119 1.0434999 0.2374422401 -0.8517688513 0.4670235813
-0.016788078 0.13526741 1.0641 -0.7291069627 -0.2574536204 0.6341298223
-0.011616271 0.039699413 1.1045001 -0.9357524514 0.2360491455 0.2620079219
-0.045180768 0.17438965 1.1238573 -0.7264587879 -0.5220910907 0.4468540549
-0.14470087 0.025177667 0.89467746 0.3033515513 -0.275721252 0.9121160507
-0.1051329 0.073754661 0.93546665 -0.303242445 -0.8094668388 0.5027996302
-0.041043781 -0.02897208 0.91800004 0.4373738766 -0.4464355707 0.7806403637
-0.21175468 0.15612601 1.0235001 0.1681717336 -0.7962035537 0.581186831
-0.13495542 -0.09432146 0.92303699 0.1373366416 0.5992432833 0.7886990309
-0.18141869 -0.065200731 0.90800005 0.4408316016 0.1823843718 0.8788648844
0.0043462212 0.098591976 1.1436667 -0.9432533979 0.1331244707 0.3042217791
-0.14915256 0.23104024 1.1120001 0.2352326959 -0.8589853048 0.4547634721
-0.18495281 -0.094718389 0.92441934 0.041396752 0.5146504045 0.8564001918
-0.0019387483 0.16199529 1.1065 -0.1288226843 -0.3882052898 0.9125247002
-0.068929084 0.18074031 1.087 -0.6014513373 -0.3239578009 0.7302791476
-0.090301052 0.098901153 0.98100007 -0.04681194201 -0.9119170904 0.4076958597
-0.17140323 0.02132667 0.90100002 0.03957453743 0.1559217572 0.9869763255
-0.1180344 -0.1689512 0.88000005 0.0482005775 0.5651525259 0.8235771656
-0.0070747002 0.11876905 1.0908 -0.8411821127 0.463919431 0.2778334916
-0.22760279 0.086288981 0.95100015 0.694729805 -0.5665891767 0.4430882335
-0.047898144 0.12565438 1.0643334 0.03323081508 -0.7375639081 0.674459219
-0.17511722 -0.12476716 0.94382161 -0.0170267839 0.4663645923 0.8844287395
-0.1825141 -0.17079133 0.95500004 0.4192331731 -0.1224396825 0.8995844126
0.028162915 0.036967278 1.0040001 0.6163612604 -0.4032996893 0.6763491631
-0.16770516 0.17270783 1.0266666 0.002506739926 -0.829742074 0.5581414104
0.01712393 0.21656735 1.149 -0.1259406358 -0.6931163073 0.709738493
-0.09826605 -0.11335661 0.93322223 0.202539742 0.5384482145 0.8179554939
0.00086000998 -0.040420469 0.98100007 0.6181061268 -0.6759924889 0.4012218714
-0.10554586 0.054468017 0.90525937 -0.3124085963 -0.6903442144 0.6525532007
-0.05582669 -0.014619908 0.94411111 0.3623507023 -0.608309269 0.7061598897
-0.25300598 -0.07843186 0.96200007 0.3888097703 0.51499331 0.7639429569
-0.28468814 -0.022940887 0.96468747 0.3987323344 0.4499405026 0.7991033196
-0.077399969 -0.045363072 0.90465003 -0.7656791806 -0.1717070937 0.6198806763
-0.065782875 0.093170382 0.97612512 -0.3800593019 -0.6583070159 0.6497589946
-0.14585358 0.064530857 0.90482378 -0.2749224007 -0.4322689772 0.8588138223
-0.095054738 0.14464714 1.0527273 -0.4237008691 -0.4809721112 0.7675567865
0.040071558 0.086666383 1.0630001 -0.4332812428 -0.6050866246 0.6679353118
-0.017819827 -0.09198793 0.9156 -0.3957014978 0.411919862 0.8208181262
-0.13586834 0.004688601 0.88092846 0.378467083 -0.1879152954 0.9063390493
-0.16479084 0.095819712 0.93334997 0.1250276268 -0.7027428746 0.7003716826
-0.084458649 0.19680844 1.0906668 -0.311932385 -0.6618564725 0.6816481352
-0.26059619 0.051444553 0.96200007 0.7580224872 -0.442266643 0.4793768525
-0.13183275 0.085265972 0.93284214 -0.4105704427 -0.667527914 0.6211588979
-0.14516187 -0.024839064 0.88546675 0.4079996645 0.09302434325 0.9082305431
-0.11594892 0.12440393 1.0145001 -0.6619410515 -0.6339271665 0.3999630213
-0.045090411 0.0079938844 0.95250016 0.2366019636 -0.6981138587 0.6757636666
-0.21569788 -0.054932896 0.93427587 0.4376075566 0.1640987247 0.8840652108
-0.21837766 -0.11948966 0.94000006 0.3098186851 0.3269555867 0.8928115368
-0.26142201 0.032365367 0.94666672 0.709384203 -0.2932147384 0.6409361959
-0.202647 0.092261396 0.92199999 0.1458504796 -0.5094095469 0.848074019
0.026959835 -0.017623924 0.9780001 0.6311693788 -0.5910877585 0.5022354126
-0.082796849 0.005156334 0.90525007 -0.7989398837 -0.0414169021 0.5999830961
-0.14447708 -0.16424388 0.95610541 0.1318156272 0.4470335245 0.8847517371
0.035044748 0.13490744 1.0943334 -0.5805642605 -0.5826450586 0.568744123
-0.051309545 0.098270826 0.99200004 -0.5111615658 -0.6401697397 0.5734950304
-0.1456752 -0.17681365 0.91085714 0.4361001551 0.8370925188 0.3302918971
-0.13484296 -0.13516381 0.94496149 0.1229478717 0.3712803721 0.9203448892
-0.035207324 0.11301032 1.0239999 -0.4578514695 -0.7371046543 0.4970400333
-0.23696564 -0.12557933 0.95253861 0.5705469847 0.2639074922 0.7777075171
-0.26012805 -0.04404724 0.94800007 0.6858940125 -0.0632384643 0.7249484658
-0.0043621683 0.055034757 1.1238573 -0.9277952313 0.2596831024 0.2678817809
-0.060805012 0.06671726 0.96333343 -0.7842303514 -0.3733896613 0.4955430627
-0.17278573 0.062485881 0.90733337 0.4251190126 -0.4767777324 0.7693873048
-0.025865667 -0.074324764 0.90612513 -0.3017935455 0.1144476309 0.9464789629
-0.20219439 0.052994501 0.93000013 0.2544282377 0.02540478297 0.9667578936
-0.036761392 0.18454196 1.1467144 -0.7271102667 -0.4476082623 0.5205357671
-0.079764396 0.071541257 0.93800002 -0.3628567457 -0.7381777167 0.5687078834
-0.033021558 0.092959262 1.0651819 -0.8559017181 -0.1127379313 0.5047003031
-0.045544054 -0.10377802 0.91573352 -0.3604228497 0.5429265499 0.758502543
-0.20898856 -0.096748941 0.93000013 0.3472143114 0.2863748074 0.8929902911
-0.23600173 0.052264675 0.93150008 0.7037229538 -0.3176913261 0.6354889274
-0.26574308 -0.12556146 0.98100007 0.7970792055 0.0719524473 0.5995728374
-0.19765669 0.13571784 0.98744446 0.3450753689 -0.8294593096 0.4392268658
-0.084283613 -0.094674736 0.87800002 0.2653431892 -0.4311046004 0.8624046445
-0.079461068 -0.16123654 0.88000005 -0.1866361648 0.3133883774 0.9311040044
-0.22799177 -0.085702926 0.94000006 0.6299386621 0.009425695986 0.7765877247
-0.10155482 -0.081086405 0.89800006 0.3066109717 0.4708459675 0.8272204995
-0.12440781 -0.063359708 0.8965162 0.1728585064 0.5540449023 0.8143427968
-0.20301832 0.033623669 0.91476929 0.6008532643 -0.3079586625 0.7376562953
-0.23192216 -0.15096025 0.96200007 0.3261110783 0.5666188002 0.7566999197
-0.069151469 0.035307925 0.92800009 -0.8273059726 -0.2041201591 0.5233543515
-0.22657225 -0.0043775472 0.92500013 0.7357842922 -0.1740381718 0.6544709206
-0.10576628 0.034087386 0.88678932 -0.3457063138 -0.4152518511 0.8414588571
-0.16450879 -0.16093571 0.95862502 -0.09925685823 0.3418868482 0.934484601
0.024629688 0.014958827 1.0034999 0.5864810348 -0.3510369956 0.7299404144
-0.10435797 0.12777154 1.0336667 -0.4923893809 -0.6533353925 0.5750700831
-0.061560582 0.024561921 0.9726001 -0.4187563956 -0.7211377621 0.5519088507
-0.22364073 0.033297114 0.93128586 0.1661110371 0.2120630294 0.9630349874
-0.011594356 0.065383293 1.0841 -0.9234775901 0.04386934638 0.3811358809
-0.11487537 -0.18683858 0.8954584 0.2192810029 0.6833106875 0.6964210868
-0.11524263 -0.097836047 0.9222942 0.2441312969 0.6688081622 0.7022076249
-0.049584266 -0.2139207 1.6160001 0.05016862974 0.8412992954 0.5382365584
-0.16656555 0.13273801 0.97800004 -0.261002481 -0.7354052663 0.6253453493
-0.084961019 -0.13471964 0.87314278 -0.2052507102 0.02337186225 0.9784303308
-0.16398531 -0.054642562 0.89730781 0.3079456687 0.244363144 0.9194868803
-0.11506272 -0.034751531 0.88085711 -0.1286815554 0.2253471017 0.9657431245
-0.2035387 -0.028892826 0.92060006 0.2231314927 0.3750933707 0.8997318149
-0.062650383 -0.082493074 0.89193743 -0.4900586903 -0.4150148928 0.7665540576
-0.30094036 -0.01800498 0.97800004 0.5345950723 0.3645297587 0.7624474764
-0.20602368 0.067601517 0.9180001 -0.03720185161 -0.06993976235 0.9968572855
-0.16389138 0.21928209 1.115 0.3296963274 -0.8057017922 0.4920822382
-0.16824375 -0.015007658 0.90100002 0.5947809219 -0.05640270561 0.8019067049
-0.019431755 0.11843986 1.0555 -0.8630960584 0.1393702328 0.4854287505
0.046889395 0.1346823 1.138 -0.430041194 0.8601014018 0.2743905485
-0.28294328 0.028380331 0.98100007 0.7886606455 -0.3187699914 0.5257376432
-0.0016306 -0.057886299 0.93000007 -0.8001079559 -0.2311097533 0.5535481572
-0.19531754 0.11689445 0.95166683 0.1374394447 -0.7661061287 0.6278469563
-0.043535646 -0.066425346 0.9072175 0.0175798256 -0.2635949552 0.9644732475
-0.057456732 0.21298617 1.13 -0.5263046026 -0.7213680744 0.4501461983
-0.016159598 0.09127064 1.0845 -0.8596416712 -0.2722259164 0.4323300719
-0.038818799 0.035368241 0.98400003 -0.3688961565 -0.7222777605 0.5850046873
-0.25506005 -0.0056633316 0.9525187 0.3870516419 0.1918831319 0.9018713236
-0.070717782 -0.12163458 0.88000005 -0.2502880096 -0.08830741793 0.9641357064
0.011738859 0.1150324 1.1476668 -0.8342790604 0.4554823041 0.3106675446
-0.12820534 0.12623812 0.98528576 -0.652720809 -0.6189939976 0.4368088543
-0.25568542 0.013259981 0.94000018 0.4178788364 0.2425471246 0.8755273819
-0.23326285 0.017085845 0.93800002 0.2877483964 0.3204579055 0.9025007486
0.02084012 0.18458566 1.132 -0.5316687822 -0.5375387669 0.6545077562
-0.039753325 0.15610628 1.1060001 -0.2916493714 -0.8202584386 0.492053628
-0.0059437999 0.1991173 1.13 -0.3337243795 -0.6790716052 0.6538270116
-0.13029458 0.14826626 1.0250001 -0.6181507111 -0.5726666451 0.5384631753
-0.19379991 0.14488797 1.0043334 0.3305336535 -0.7794075012 0.5322324634
-0.016933693 0.15104529 1.0735 -0.5483503938 -0.5453460217 0.6339634061
-0.15476149 -0.094685599 0.9252758 -0.01569261774 0.5867039561 0.8096494675
-0.16538492 0.11053364 0.94800007 -0.02512521669 -0.7731110454 0.63377285
-0.24849828 -0.02390524 0.94033337 0.7125449777 -0.1992191374 0.6727491021
-0.14514934 0.18814252 1.0545834 -0.03306761384 -0.7664000988 0.6415118575
-0.068153344 0.055422608 0.93535292 -0.7783592343 -0.3342725933 0.5314308405
-0.21126194 0.0027064453 0.90800011 0.4508389235 -0.04123864323 0.8916521668
-0.03457924 0.050048899 1.0380001 -0.8628428578 -0.3553600013 0.3594739437
-0.085738495 0.18280251 1.0764285 -0.404101938 -0.51075387 0.758836031
-0.12414764 0.17522475 1.0438572 -0.5223534107 -0.4709746242 0.7108655572
0.0054549384 -0.043875568 0.96418184 0.5830639601 -0.7196151614 0.3770814836
-0.25158253 -0.096567683 0.96625006 0.7022818327 0.1545921713 0.6949111819
0.02599903 0.054475911 1.0270624 0.6817376614 -0.4517693222 0.5754461288
-0.1937211 -0.07465665 0.9165653 0.4094956815 0.2327520549 0.8821222782
-0.17305399 -0.1804706 0.94000006 0.4150440991 0.8823331594 -0.2218707204
-0.018543255 0.19365743 1.1750001 -0.922709167 0.3776284754 0.07748916745
-0.24670027 0.046917293 0.94433337 0.6938140988 -0.4197789431 0.5851560235
-0.14529698 -0.081436828 0.91714293 0.0286202617 0.6579477787 0.7525195479
-0.17389946 0.11655143 0.96199995 -0.1856066883 -0.7408069372 0.6455658078
-0.10737764 0.11148686 1.0040001 -0.5763351917 -0.698246479 0.4246052802
-0.095373906 0.092287123 0.96576476 -0.2112413645 -0.8435021043 0.4938433766
-0.047177561 0.20229898 1.1178571 -0.7628808618 -0.4545097351 0.4598192275
-0.085204989 0.22532085 1.1335 -0.4008654952 -0.7660938501 0.5024012923
-0.095326103 -0.065311693 0.89468926 0.05304994434 0.206307292 0.977048099
-0.038369071 0.045204926 1.0023334 -0.6144417524 -0.6044395566 0.5070642829
-0.17830084 0.00119665 0.91000003 0.3028332293 0.2102083415 0.9295722246
-0.27347985 -0.081213169 0.96700013 0.4805020988 0.5152490139 0.7096732855
0.014011413 0.11898384 1.1253999 -0.6979784966 0.5996853113 0.3914122283
-0.18245326 0.033932846 0.89733326 0.3229735792 -0.1531189978 0.9339393377
0.0049882331 0.21050343 1.138 -0.1428128183 -0.7105510235 0.6890005469
0.025255892 0.11206132 1.067 -0.4669870734 -0.5181976557 0.7165153623
-0.18135838 -0.036164835 0.90777779 0.578787446 -0.0764913559 0.8118830919
-0.19547272 -0.13323508 0.94663626 -0.03626082093 0.5447518229 0.8378129601
-0.14469939 0.17795895 1.041 -0.144996509 -0.7254171371 0.6728640199
-0.04423406 -0.045352504 0.91510016 0.3637409806 -0.3957357705 0.8432589769
-0.10566989 0.098741598 0.98800004 -0.3085004389 -0.879098177 0.3633370697
-0.13435794 -0.1517552 0.94800001 0.08258320391 0.335963279 0.9382476807
-0.091921441 -0.045728203 0.89315015 -0.4315525591 0.05749827251 0.9002534747
-0.094829828 0.21725154 1.113091 -0.3125497103 -0.7654511333 0.562492013
-0.14574146 0.092848629 0.927154 -0.2357140929 -0.6842542887 0.6900977492
-0.26956624 -0.0280621 0.97000003 0.6262362599 0.2241145223 0.7467267513
-0.13515024 0.21779011 1.0933334 -0.03183308616 -0.7939943075 0.6070911884
-0.065677941 0.20135157 1.1182001 -0.5007814169 -0.6771999002 0.5390902758
0.011111458 0.18464498 1.1183333 -0.536365211 -0.5429264307 0.6461758614
-0.27914995 0.0067468267 0.96200007 0.7188813686 -0.09976132214 0.6879369617
0.0059741144 0.14510241 1.1061578 -0.2630616426 0.2945618927 0.9187120795
-0.071010001 0.15716881 1.08 -0.5698270202 -0.4910165071 0.6589384675
-0.12536731 0.096219666 0.95365244 -0.5623659492 -0.6884738207 0.4579828978
-0.0055019599 0.11746107 1.1073333 -0.792483151 0.4782749116 0.3784489036
-0.081828691 0.037777446 0.91128576 -0.7036922574 -0.3552488089 0.6153173447
-0.19565918 -0.002938739 0.90678275 0.05236005411 0.2557152808 0.9653331637
0.017421119 0.090782344 1.046 -0.2808923423 -0.5696119666 0.77242589
-0.095230773 -0.014545183 0.88761508 -0.5473300815 -0.046407938 0.8356291652
0.014338496 0.16744342 1.1052999 -0.2890003026 -0.5329615474 0.7952551842
-0.13501215 0.052295581 0.90725005 0.07679971308 -0.4950705767 0.8654518723
-0.030709634 0.16939829 1.13 -0.5510888696 -0.7044325471 0.4472984374
-0.070168398 -0.041133199 0.92000002 -0.7162644267 -0.3206745088 0.6197847128
-0.13015257 0.03039491 0.88900006 0.3639756739 -0.4385385513 0.8217089772
-0.083717845 0.20646472 1.1049284 -0.3443060517 -0.7553485632 0.5575857162
-0.17288518 0.15554221 1.0039999 0.02459748089 -0.8379747272 0.5451543927
-0.0020286066 0.24038988 1.1570001 0.2111256719 -0.6819865108 0.7002288103
-0.12080905 0.15924913 1.044 -0.648388207 -0.3809426725 0.659147501
-0.2854051 -0.035019908 0.9831109 0.5463924408 0.4853340983 0.6825731993
-0.04844043 -0.022993432 0.9312501 0.3985677958 -0.5121362209 0.7608286142
-0.036305044 0.13683362 1.0618 0.1893307269 -0.6777985692 0.7104526758
-0.13467757 0.20408258 1.0719999 -0.05604727566 -0.8309282064 0.5535494685
-0.17003125 -0.10006624 0.92800003 -0.03709869087 0.5624838471 0.8259755373
-0.11031973 0.00077146664 0.88000005 -0.341814965 0.008228629827 0.9397312403
-0.10754532 0.20306787 1.0856363 -0.4144673944 -0.6888639331 0.5947127342
0.015748056 0.024425652 1.0137202 0.6300213933 -0.3755036294 0.6797573566
-0.0036194648 0.095093198 1.126 -0.9089963436 -0.1319696158 0.3953602314
-0.063650921 0.12637681 1.0608335 -0.3202426732 -0.587851882 0.7428827286
-0.11169785 0.17823336 1.0600001 -0.5723184943 -0.459842205 0.6789673567
-0.14201123 0.11990169 0.97000003 -0.3257446885 -0.7753769159 0.5410000086
-0.11148285 0.096165732 0.97075003 -0.436948657 -0.8199109435 0.3698945045
-0.24398544 -0.043972369 0.93579996 0.4842139482 0.2052770555 0.8505281806
0.0051725283 0.22603141 1.1538888 -0.05679961666 -0.6997107267 0.7121647596
-0.23675682 -0.074358173 0.95160013 0.5402422547 0.2369040102 0.8074743748
-0.051650129 -0.093911245 0.89270002 -0.7104303241 -0.1051645204 0.6958657503
-0.098217346 0.1711788 1.067 -0.5101537704 -0.4993396699 0.7002878189
-0.046234589 -0.0025993844 0.9404617 0.3320159614 -0.5613597631 0.758050561
-0.15041584 -0.041305903 0.88900006 0.3308110237 0.2375110537 0.9133195281
-0.0092234099 0.18241856 1.169 -0.8108391762 0.584666729 -0.02654605545
0.0086421799 -0.027658835 0.98600006 0.6309410334 -0.6195644736 0.4669617712
-0.07863649 -0.015748659 0.90608335 -0.8147446513 -0.1193838343 0.5673963428
-0.13980816 0.038703956 0.90100002 0.1758056134 -0.3436612785 0.9224908352
-0.15286197 0.16823781 1.0317501 -0.2301921993 -0.7198019028 0.6549021006
-0.2095321 -0.0399497 0.93000007 0.2664773464 0.2970220447 0.9169338942
-0.054755922 0.14365293 1.0748887 -0.2136960477 -0.7110461593 0.6698860526
-0.20082241 0.10082105 0.93500006 0.1597020179 -0.6517218947 0.741453886
-0.22581631 -0.064265601 0.94174218 0.4852858186 0.2135654837 0.8478723168
-0.15490031 0.14324039 0.99531573 -0.2384670228 -0.7852814198 0.571372509
-0.19921373 -0.060490001 0.92000002 0.5890390873 -0.03766049072 0.8072264791
-0.0034757773 0.084944822 1.1062939 -0.9191045761 -0.1838514209 0.3484901786
-0.11015843 0.21934199 1.1120001 -0.3764888942 -0.7552406192 0.5365330577
-0.13829309 0.073657826 0.91655564 -0.361538738 -0.5876762867 0.7238275409
-0.22340688 0.066126615 0.92311776 0.4256810248 -0.3969801962 0.8131434917
0.017342471 -0.0078584393 0.9962858 0.6299725175 -0.4995984435 0.594588995
-0.031244399 0.1050948 1.08 -0.7733128071 0.01266819797 0.633898139
-0.097976267 -0.13037786 0.88000005 -0.1752329171 -0.009685695171 0.9844793677
0.02128225 0.14071698 1.087 -0.08732008934 -0.5907569528 0.8021106124
-0.12696359 0.13388684 1.0190001 -0.7599534988 -0.54060781 0.3608515561
-0.13059469 -0.021295404 0.87800002 0.1651750356 0.1328341961 0.9772779942
-0.27054679 0.021711964 0.95250005 0.780434072 -0.1457985193 0.6080011725
-0.082462989 0.13621274 1.0525 -0.4505452216 -0.4948608279 0.7430489659
-0.09763559 0.060962867 0.91740006 -0.418635875 -0.7052356005 0.5721771717
-0.14605519 0.20735669 1.0828573 0.06815649569 -0.8021755815 0.5931854844
-0.2640636 -0.10491604 0.98463637 0.7499352694 0.233787626 0.6188218594
-0.23625395 -0.014205156 0.93120003 0.7237550616 -0.1713273972 0.6684501171
-0.053540446 0.052222818 1.0032501 -0.8919157982 -0.07571882755 0.4458171427
-0.11404813 0.19540164 1.074 -0.4994932115 -0.6353829503 0.5888930559
-0.030721905 0.075268842 1.0513333 -0.8214944005 -0.2204769254 0.5258677006
-0.27522847 -0.013753687 0.95738441 0.4395322502 0.3660267591 0.8202657104
-0.18090717 0.14146771 0.97800004 0.05850123242 -0.8327746391 0.5505124927
-0.20515062 -0.14502013 0.95443761 0.08834407479 0.6021972299 0.7934442759
-0.29405722 -0.084017098 0.98800004 0.5585194826 0.5138221979 0.6511855721
-0.18503104 0.094981015 0.93395662 -0.06506185979 -0.5619488358 0.8246092796
-0.045118291 0.18559255 1.1337333 -0.8522281051 -0.2758398652 0.4445442557
-0.13119024 0.2347123 1.1140001 -0.1764016598 -0.828250587 0.5318678021
-0.018046182 0.05634293 1.0741667 -0.9245612621 0.06095715612 0.3761258721
-0.091890745 0.11780091 1.031 -0.5051093698 -0.6456443667 0.5727197528
-0.058183052 0.17839597 1.097 -0.7349721789 -0.2715845704 0.6213354468
-0.098492183 0.042071231 0.89700007 -0.4911079109 -0.527042985 0.693569541
-0.2222987 -0.10415968 0.93799996 0.5159869194 0.1788211316 0.8377233744
-0.069908909 -0.069908909 0.89600003 -0.3166410029 -0.4977869391 0.8074321151
-0.085444801 0.15378281 1.0645556 -0.4877465367 -0.5106192827 0.7080757618
-0.055086933 -0.04553226 0.92519987 0.07593310624 -0.5439926386 0.8356471658
0.03171517 0.066455424 1.0336667 0.3196445704 -0.5253058672 0.7885943651
0.011936957 -0.033593077 0.9727 0.5767844915 -0.6853065491 0.4446061254
-0.16598766 -0.13597411 0.95100009 0.09295181185 0.3379765451 0.9365531802
-0.12088006 -0.13074782 0.93800002 0.09464626014 0.4125469327 0.9060061574
-0.14495961 -0.12488057 0.9417423 0.1402336359 0.3798322678 0.9143642187
0.017526319 0.073772624 1.0444285 -0.1530885249 -0.5221564174 0.838997364
-0.16615431 0.0053341743 0.90269572 0.3596687317 0.0751741901 0.930046916
-0.04832099 0.021193417 0.96700007 -0.2378066033 -0.6967473626 0.6767504215
-0.068979636 0.070641801 0.94800007 -0.626762867 -0.5736111403 0.5273883939
0.00098099001 0.069650292 1.1190001 -0.9488338828 0.1395663619 0.2832586169
-0.024303099 0.18680497 1.1633333 -0.8675619364 -0.2176549584 0.4471717775
-0.065553479 0.0059825196 0.93083334 -0.8276904821 -0.07670525461 0.5559179187
-0.088635623 -0.087055385 0.90157145 0.5554615855 0.2767676711 0.7841314673
-0.14403906 0.15779513 1.0233334 -0.3529095948 -0.7028372884 0.617636323
-0.014667365 0.044959705 1.0911667 -0.9416120648 0.1769113839 0.2864769697
-0.062792614 -0.0050199879 0.95500016 0.4405774176 -0.5725117326 0.6914635897
-0.054845162 -0.074635997 0.9029761 -0.3276877701 -0.4441759586 0.8338635564
-0.04592124 0.10298905 1.0056363 -0.4615024626 -0.6794404387 0.5704175234
-0.1442292 0.14716768 1.0044 -0.269682169 -0.8052045107 0.5281261206
-0.0018415259 -0.052363127 0.95420009 0.5548971295 -0.786706686 0.2705211937
-0.15427344 0.01444555 0.89668757 0.3080976903 -0.2014211714 0.9297878146
-0.10921601 -0.15090151 0.95100003 0.07616953552 0.3587853909 0.9303070903
-0.11097285 -0.1584233 0.87300003 -0.002949690912 0.2936863303 0.9558972716
0.025542881 0.044856593 1.0158421 0.5997891426 -0.4625562429 0.6529124975
-0.10458006 -0.024792556 0.88371432 -0.394910872 0.06597872078 0.9163472056
-0.011966281 0.10623162 1.1142499 -0.9593471289 0.1686358303 0.2263074815
-0.034997091 0.033867788 1.014091 -0.8185353279 -0.4720083475 0.3274263442
0.034955218 0.097824492 1.0703751 -0.4668131173 -0.5412501693 0.6993809938
0.00096170331 0.12886825 1.097 -0.5790743232 0.6612603664 0.4768728018
-0.08745946 -0.0048059626 0.89460886 -0.7320044041 -0.09581570327 0.6745286584
-0.24380338 -0.095208935 0.95435011 0.696342051 0.04131699726 0.716519773
-0.13514605 -0.10480285 0.93272233 0.1295479387 0.4692669809 0.8735020757
-0.027465528 -0.031506084 0.92150003 0.04864170775 -0.5275653005 0.848120749
-0.21232744 0.042977959 0.93000019 -0.02279329486 0.1748913229 0.9843238592
-0.17395112 0.073597409 0.9161579 0.3923777342 -0.5506474972 0.7367680073
-0.010347296 0.11852358 1.0730001 -0.8816067576 0.3192151785 0.3476653695
-0.2529943 0.034490492 0.93535292 0.6765508652 -0.2130654901 0.7048985958
-0.096688315 0.10248734 1.0065715 -0.24194251 -0.9139536023 0.3258107007
-0.11416484 0.086707346 0.94294453 -0.4010522068 -0.7820904851 0.476960808
-0.10397486 0.13636418 1.0455002 -0.4634300768 -0.5398490429 0.7027058601
-0.12019801 0.061293025 0.90800005 0.02705428377 -0.6764665246 0.7359762788
-0.095652804 -0.16262397 0.87757158 -0.129501611 0.3939158022 0.9099778533
-0.038077723 0.060864627 1.026 -0.8636003733 -0.3747276664 0.3373033702
-0.16471246 -0.073754087 0.90524155 0.08413504064 0.5562129617 0.8267698884
-0.0076692984 0.074786015 1.0937501 -0.9212648869 -0.01276986301 0.3887260258
-0.12161295 0.1181133 0.99800003 -0.7270518541 -0.5930879116 0.345893532
-0.047203932 0.085536219 0.98657912 -0.6944670081 -0.4045762718 0.5950072408
-0.017258717 -0.050977945 0.91575003 -0.4924476147 -0.3115031719 0.8126875758
-0.16159071 0.070845187 0.90800005 0.1642156392 -0.5655896068 0.8081717491
-0.14484435 0.11305561 0.95441192 -0.1978970021 -0.8143868446 0.5455372334
-0.0787706 0.024666946 0.90760005 -0.7900685072 -0.1379652619 0.597291708
-0.20643659 0.16641887 1.0328001 0.1509605944 -0.8488968611 0.5065422654
0.049357209 0.14504977 1.149 -0.6111243963 0.2999047339 0.7325190306
-0.28060085 -0.061884776 0.96700007 0.7776368856 -0.04152437299 0.6273409128
-0.035258003 -0.094564088 0.91408324 -0.3532471061 0.48206532 0.8017665148
-0.19303499 -0.16231512 0.96433336 0.2612916827 0.5349380374 0.8034724593
-0.065212764 0.083608314 0.96610749 -0.5483457446 -0.593106389 0.5895267129
0.032139916 0.12403585 1.0862501 -0.4806803167 -0.4978970587 0.7218344212
-0.035211902 0.20088728 1.1476668 -0.795367837 0.03398628533 0.6051734686
-0.066702276 0.19194815 1.0947502 -0.5620257854 -0.556902349 0.6115446091
-0.11670606 0.21425347 1.0930001 -0.3855074644 -0.7505413294 0.5367231369
-0.071029291 -0.027669352 0.92280006 -0.8324813247 -0.1076797619 0.5434886217
-0.25480872 -0.068459861 0.9512729 0.3204175532 0.4908099174 0.8102087379
-0.17308274 0.043939583 0.89660007 0.2374395281 -0.2049623132 0.9495329857
-0.17986482 0.16811486 1.031 0.173174575 -0.8735936284 0.4548018575
-0.17257775 0.16399139 1.01475 0.03121476062 -0.8216556907 0.5691287518
-0.21790208 0.087489143 0.94150007 0.5556831956 -0.6198298931 0.554100275
-0.094884343 0.076325677 0.94404334 -0.2735760212 -0.8216246367 0.5000891089
-0.057148587 0.15208252 1.0865 -0.4810296297 -0.6596364975 0.5774860978
-0.011341312 0.15537563 1.0911429 -0.5157547593 -0.6844465733 0.5152959824
-0.19341424 0.03405026 0.90530002 0.540789485 -0.3060080707 0.7835214138
-0.15845487 0.19181378 1.057 0.00913377665 -0.8141905069 0.5805259943
-0.11392584 -0.071639441 0.89800012 0.2265267521 0.5212900639 0.8227649927
-0.18347599 0.063616201 0.91536373 0.4154244959 -0.4011534154 0.8163935542
-0.12437697 -0.0048881546 0.87547374 0.05357662216 -0.01914179139 0.9983802438
-0.12545499 -0.17261602 0.95546156 0.1168209985 0.3944131732 0.9114774466
-0.079011455 -0.056532227 0.89742863 -0.5781734586 -0.3092734516 0.7550267577
-0.066914216 -0.21497971 1.6240001 0.05016862974 0.8412992954 0.5382365584
-0.19915675 0.13077675 0.97500002 0.3079840541 -0.802542448 0.5109514594
-0.20584002 0.11834628 0.96425009 0.2914916277 -0.7720652223 0.5647547245
-0.23516993 -0.053956967 0.93604159 0.3059289157 0.3955548704 0.8659929633
-0.14483561 -0.054904796 0.89463925 0.1527462453 0.457954675 0.8757545948
0.0060709165 0.1775136 1.1079999 -0.3547838926 -0.4358973801 0.8271166086
-0.23444065 0.034372058 0.92297667 0.1998102814 0.3341964185 0.9210801125
-0.037124902 -0.1210987 0.92460001 -0.3252929151 0.5165710449 0.7920472622
-0.26158243 -0.057552293 0.94800001 0.5664566159 0.1932940185 0.801101923
-0.044782832 0.13490175 1.0732962 0.165113762 -0.7317834496 0.6612340212
-0.11673781 0.23184063 1.1190001 -0.3346609175 -0.7859867215 0.5198336244
-0.23099554 0.055841476 0.91650003 0.4148308933 -0.1027625278 0.9040769935
-0.17485188 -0.11383565 0.93639982 -0.0595401451 0.5055888891 0.8607176542
-0.16924313 -0.17424539 0.95100003 0.3025784791 0.8037946224 -0.5122113228
-0.06290061 0.057888053 0.95350003 -0.8132576346 -0.3331406713 0.4771051109
