# .PCD v0.7 - Point Cloud Data file format
VERSION 0.7
FIELDS x y z normal_x normal_y normal_z
SIZE 4 4 4 4 4 4
TYPE F F F F F F
COUNT 1 1 1 1 1 1
WIDTH 512
HEIGHT 1
VIEWPOINT 0 0 0 1 0 0 0
POINTS 512
DATA ascii
-0.072247557 0.22847831 1.2550001 -0.2739994228 -0.8489091396 0.4519707561
-0.43536755 -0.17385966 1.6390001 0.9553511143 -0.1113545001 0.2736866772
-0.1724114 -0.19027787 1.0190001 0.2569185197 0.4893448651 0.8333873749
-0.31258067 0.085794792 1.0941111 0.7651510835 -0.2990116775 0.5702068806
0.0010537533 -0.04847265 1.202 0.4324728549 -0.639835 0.6352782249
-0.10466769 0.035482939 1.0118334 -0.2979638875 0.006591452751 0.954554379
-0.29167226 0.20129494 1.2780001 0.3584595025 -0.8882343173 0.28730914
-0.29818064 -0.11194157 1.13 0.4083666801 -0.3431161344 0.8458770514
0.02034305 0.12804155 1.365 0.7131565213 -0.6602226496 -0.2356135994
-0.1559774 0.16186334 1.1190001 0.06228126585 -0.85728091 0.5110680461
-0.037586499 -0.11307013 1.0630001 -0.1287326664 -0.1096293107 0.9856010079
-0.03799101 0.096157394 1.1955 -0.8521809578 -0.03928638622 0.5217702389
-0.228393 -0.04704836 1.0190001 0.1369673759 -0.1550802141 0.9783608913
-0.20565549 0.090088017 1.0380001 0.2573561668 -0.7228181362 0.6413280964
-0.18783315 0.21502499 1.2243334 0.1650904417 -0.9168717861 0.3634436727
-0.022702226 0.025981635 1.1039231 -0.6768810749 -0.5982653499 0.4288480282
0.03013191 0.04687186 1.273 0.3478053808 -0.4332906902 0.8314388394
-0.27436042 0.16285859 1.1737275 0.3103006482 -0.7730214 0.5533095598
-0.32007363 -0.021715909 1.077 0.6457044482 -0.2435578555 0.7237024903
-0.12552969 -0.067349918 1.022231 0.03689329326 0.5357576013 0.843565464
-0.081109203 0.1082508 1.08 -0.7070082426 -0.4978947639 0.5022351742
-0.0077812932 0.15340264 1.268 -0.9128080606 -0.2911105156 0.2864193916
-0.077618308 0.18179612 1.1650001 -0.5422976613 -0.7101767063 0.4489569068
-0.24265169 -0.1633414 1.077 0.7098816037 -0.03748529404 0.7033227682
-0.047932692 -0.023372542 1.0346925 -0.7440452576 0.2295361757 0.6274630427
-0.024851171 -0.10512145 1.1458699 -0.003152328543 -0.7939582467 0.6079641581
-0.23261666 0.13317847 1.1055999 0.317902267 -0.6882229447 0.6521405578
-0.11801687 -0.14031927 1.0600001 0.2700861096 0.4208736718 0.865978539
-0.26376674 0.034245707 1.0453638 0.4863353074 -0.2288980037 0.8432577848
-0.17862053 0.014419121 1.0070001 0.1257107258 0.06995778531 0.989597261
-0.18546921 -0.1048279 1.0568962 -0.02357013896 0.4023416042 0.9151861668
-0.28454146 -0.084934965 1.0600001 0.5116671324 0.4751801193 0.7158216238
-0.061290834 -0.053569153 1.1010001 0.1615730375 -0.5553431511 0.81577456
-0.13067593 0.10003468 1.028 -0.1441844255 -0.6591700315 0.7380418181
-0.014600707 -0.0063769901 1.2553334 0.5885801911 -0.6135043502 0.5264843702
-0.20405908 0.18220639 1.165 0.2113037258 -0.8328580856 0.5115644336
-0.17268305 -0.17105469 1.0848572 0.03296507522 0.4226534069 0.9056916833
-0.12369942 0.21250926 1.2060001 0.01704022847 -0.9016001225 0.4322347641
-0.002910533 0.05064328 1.3280001 0.9470586181 -0.07561464608 0.3120295107
0.03058164 0.10873472 1.2920001 -0.4078481793 -0.361069411 0.8386231065
-0.0613316 0.049251132 1.0600001 -0.7995362878 -0.3771933615 0.4674044549
-0.039540295 0.17525969 1.2190001 -0.8626574874 -0.2889288962 0.4151411057
-0.31360659 0.12404295 1.1449999 0.4457895756 -0.7170060277 0.5358862281
-0.24766973 0.20371103 1.223 0.2511808574 -0.8022041321 0.5416426063
-0.022020113 0.12632591 1.322 0.4592426419 -0.8741195798 -0.1581491679
-0.015498883 0.058963139 1.153 -0.3488762379 -0.8425986171 0.4102595747
-0.16549681 0.12453455 1.0741251 0.1487852037 -0.850069344 0.5052178502
-0.059223216 0.12948805 1.1450001 -0.8772714734 -0.3748874366 0.2997567952
-0.0063646003 0.049148858 1.21 -0.5447951555 -0.6284914017 0.5551547408
-0.14379875 0.2351442 1.2553333 0.1122759134 -0.9183676839 0.3794665933
-0.11807068 -0.17199817 1.0126251 -0.313854903 0.02757133171 0.9490705729
-0.27249578 -0.025819836 1.0465715 0.4912472963 -0.08705732226 0.8666585684
-0.25570172 0.096274219 1.0706428 0.4117825925 -0.6953693628 0.5889792442
-0.074622422 -0.071967073 1.0415455 -0.6426447034 0.4353750348 0.6304414272
-0.31289792 0.032290615 1.077 0.5490416884 -0.5353868604 0.6418053508
-0.17457618 -0.044534955 1.0160002 0.1638334543 0.11894878 0.9792904258
-0.21743496 -0.14867447 1.0320001 0.6340974569 0.3357937038 0.6965364218
-0.12449978 -0.014886206 1.0118216 0.04599922895 -0.3114522398 0.9491478205
-0.10514221 0.15343924 1.1054167 -0.1766373366 -0.8239684701 0.53840065
-0.14565009 0.18788244 1.1654445 0.05377682298 -0.8479648829 0.5273173451
-0.23490965 -0.095963322 1.043348 -0.04314874485 0.5768938661 0.8156786561
-0.16476175 0.062895946 1.0237499 0.04489644617 0.2213798761 0.9741536379
-0.21531224 0.22271365 1.266 0.1850373149 -0.9301744699 0.3170751333
-0.071756914 -0.15012303 1.077 -0.620579958 0.3775862157 0.6872475147
-0.23455521 0.0053514359 1.0173004 0.1138020307 0.03997842222 0.992698729
-0.022913262 0.12363665 1.2328002 -0.8726016879 -0.1382936686 0.4684454799
0.040655419 0.14636213 1.325 0.9277651906 -0.345860064 0.1401163042
0.0065337969 0.082749441 1.2420001 -0.6686629057 -0.6019673944 0.4364919662
-0.074974835 0.20685247 1.213125 -0.3383422196 -0.7970349193 0.500259757
-0.27978289 -0.15110226 1.1120001 0.4461310506 -0.2885129154 0.8471879363
-0.032175828 -0.075760774 1.1839334 0.1523742527 -0.7161128521 0.6811493635
-0.21486214 0.045329861 1.0341336 0.07264210284 -0.008080890402 0.9973253608
-0.093826324 -0.11825921 1.028 -0.3250163794 -0.3733632863 0.8688867688
-0.27459505 0.11674181 1.1131876 0.3599748909 -0.7088208795 0.6066226363
-0.094839342 0.073552437 1.0372943 -0.2490195036 -0.5170556307 0.8189278245
-0.2358128 0.15832134 1.143 0.2873744369 -0.8142287135 0.5044279099
-0.032330152 0.0065304362 1.0638334 -0.829217732 -0.3393922746 0.4440843165
-0.038289949 -0.12553297 1.1057501 -0.9398688674 0.1179764122 0.3205122352
-0.085146025 -0.035480671 1.0117501 -0.2857840359 0.1847304106 0.9403202534
-0.038395371 -0.022643423 1.123 0.863383472 -0.3507402241 0.3626985848
-0.048990764 0.14488758 1.189 -0.9164354205 -0.1472525299 0.3721058965
-0.14331885 -0.10109682 1.0470001 0.2532503009 0.5234853625 0.8135277033
-0.28633058 0.067280948 1.061 0.6097438931 -0.4137082398 0.6760605574
-0.06318818 0.017781721 1.0313334 -0.3938268423 -0.5111275315 0.7639693022
-0.031423241 -0.040091719 1.2360001 0.6021160483 -0.6672849059 0.4383915365
-0.31427845 0.15279591 1.1831537 0.3937353492 -0.7407228351 0.5443364382
-0.12405293 0.1238272 1.062 0.0464438647 -0.8267368078 0.5606685877
-0.027702667 0.19332458 1.2549092 -0.9057264924 -0.2708490193 0.3260372281
-0.20605205 0.11666154 1.0723636 0.2554561794 -0.7952111959 0.5498920679
-0.28181031 0.18492699 1.21 0.2754632831 -0.8023437858 0.5294944644
-0.055984188 0.075343065 1.0911177 -0.8963763118 -0.2935929 0.3321335614
-0.19372655 0.14498889 1.1057143 0.2016965151 -0.7938480377 0.5736931562
-0.20599562 -0.14780992 1.0705 0.05137578025 0.4709416628 0.8806670904
-0.19510005 -0.075175516 1.032154 -0.06112086773 0.6071658134 0.7922208905
0.020737549 0.0087315999 1.245 0.4687286913 -0.6241043806 0.6251296997
-0.30014348 0.0027536098 1.0470001 0.7260630131 0.07371480763 0.6836655736
-0.072701089 -0.089696147 1.077 -0.2729335427 -0.5437855124 0.7936022878
-0.26531446 -0.065400302 1.0313334 0.4070949554 0.1642112583 0.8985034227
-0.11440187 0.17883562 1.1432858 -0.08145774901 -0.8525085449 0.5163272619
-0.043956943 0.057753574 1.1242001 -0.5020689964 -0.7577047944 0.4169054329
-0.17407356 0.20117484 1.189 0.1331663877 -0.8497363925 0.510112524
-0.24326797 0.071888417 1.0380001 0.3085761666 -0.5638675094 0.766051054
-0.10727244 0.23134007 1.2360001 -0.03597445041 -0.8713524342 0.4893371165
-0.14301413 0.030898117 1.0070001 0.04159565642 -0.3043110073 0.9516641498
-0.20331103 -0.015408344 1.0271666 0.2638579309 0.04994693771 0.9632675052
-0.24495383 0.18241242 1.189 0.2610304058 -0.8254301548 0.5005278587
-0.21197274 0.20042966 1.197 0.1644492298 -0.839169383 0.5184121728
-0.1548662 -0.13527788 1.0641664 -0.01199519634 0.4173799157 0.9086529016
-0.16010913 -0.16185896 0.99800003 -0.03845924884 0.1741085351 0.983975172
-0.30758727 -0.052038934 1.0600001 0.7026839852 -0.112435624 0.7025620341
-0.059252147 0.11753295 1.108 -0.5855841637 -0.6675855517 0.4598050416
-0.03705968 -0.075063892 1.0839332 0.125490576 -0.4996986687 0.8570608497
-0.24116574 -0.13028494 1.054 -0.700173974 -0.2903068364 0.6522870064
0.011755223 -0.018167162 1.2190001 0.4838033915 -0.6787926555 0.5524262786
-0.047483478 0.07344567 1.169 -0.6403490901 -0.7392119169 0.2086115927
-0.2790772 0.13903846 1.141 0.3192139864 -0.7765262723 0.5432397127
-0.20598657 -0.18229286 1.0337859 0.5717343688 0.4295303226 0.6990160942
-0.16532013 0.10676389 1.0436842 0.1911158115 -0.7428366542 0.6416139603
-0.17631389 0.1723005 1.146 0.123009108 -0.8542781472 0.5050520897
-0.10374141 0.19857885 1.1810001 -0.1733079404 -0.8641965389 0.4723649919
-0.1539474 0.22265843 1.2246001 0.01734160259 -0.8913008571 0.4530805647
0.0046853451 0.10888331 1.3355 -0.6897658706 -0.544811666 0.4768682122
-0.081231937 0.1575107 1.13 -0.5649202466 -0.6065508723 0.5594292879
-0.023411963 0.084564134 1.2251334 -0.725178659 -0.1268183142 0.6767813563
-0.12517792 0.061013147 1.0272501 -0.170767203 -0.2564571202 0.9513508081
0.01231103 0.084287994 1.2763333 -0.8756497502 0.1103901342 0.47016114
-0.060878363 0.11522176 1.177 -0.8464836478 0.01052085776 0.5323107243
-0.27126521 0.0027036399 1.028 0.4747982323 0.07593074441 0.8768130541
-0.091288179 -0.15184568 1.031 -0.5059229732 -0.09522791207 0.8573060036
-0.32207721 0.055713527 1.1062223 0.8291410804 -0.2238675356 0.5122581124
-0.095585592 0.00089332339 1.0190001 0.009334947914 -0.3470216691 0.9378106594
-0.17614444 0.22628292 1.2542 0.1929795444 -0.9254401922 0.3260665536
0.00682222 0.057988871 1.2970001 0.9326491952 -0.1843125075 0.3101522624
-0.13557224 0.14544751 1.0945715 0.05050523579 -0.7792241573 0.6247071028
-0.074429601 -0.12476537 1.0542308 -0.7878472805 -0.06956488639 0.6119292378
-0.10239193 0.10605753 1.0445294 -0.51245749 -0.4125458598 0.7531222701
-0.15483309 -0.0052734884 1.0190005 -0.03250059858 0.1292985529 0.9910729527
-0.069497749 0.080617391 1.057 -0.5487383008 -0.6460306048 0.5305947065
-0.0061445567 -0.087033711 1.168 0.07070536911 -0.7398005128 0.6691008806
-0.32193041 0.097465172 1.123 0.645049572 -0.5241491199 0.5560384393
-0.0018503511 0.021814972 1.2653333 0.4983398616 -0.5166734457 0.6962082386
-0.20508108 0.1632711 1.1356001 0.202151224 -0.818896234 0.5371627212
-0.077627666 0.045517117 1.0257143 -0.6653305888 0.02281849086 0.7462000251
-0.13827752 -0.16085343 1.0730001 0.06233005226 0.4084880352 0.9106330276
-0.046693895 0.041929211 1.087 -0.8491919637 -0.4448651671 0.2845487595
-0.16424613 -0.071871758 1.028 0.0936274156 0.6302292347 0.7707431316
-0.19499178 0.065592676 1.0188698 0.04219942167 0.2500779927 0.9673056602
-0.057395656 0.18290295 1.1952223 -0.6595774293 -0.5898169279 0.4659115672
-0.14456376 -0.045303024 1.0102309 0.1175892428 0.2556470633 0.9595922828
-0.28398174 0.092123397 1.0853635 0.3948909938 -0.6688541174 0.6298374534
0.019478656 0.13291317 1.307 0.5984239578 -0.5583850741 0.5745388865
-0.095371276 0.13653038 1.0820769 -0.4830287993 -0.7168065906 0.5028632879
-0.24517013 -0.025358301 1.0333216 0.3080347478 -0.03417316079 0.9507611394
-0.20544684 -0.17104644 1.09 0.04819946364 0.500236392 0.8645463586
-0.22622852 0.097774774 1.0605 0.2369414717 -0.7204163671 0.6518120766
-0.11550774 -0.095058538 1.0374484 0.04995931312 0.428858012 0.9019894004
-0.062496148 0.155972 1.1628463 -0.797439456 -0.3718498945 0.4752030373
-0.047610309 0.20476186 1.2250001 -0.5793749094 -0.6556532383 0.4841937125
-0.21511877 -0.11568288 1.05496 -0.115369603 0.3557887375 0.9274180532
-0.12284704 0.01268186 1.0228573 -0.2103724182 0.3560582399 0.9104756713
-0.18825139 -0.16647473 1.0108572 0.4141810834 0.4047795832 0.8152346611
-0.25395226 0.14147875 1.1253999 0.3200636804 -0.7685272694 0.5540081263
-0.095387071 -0.06223486 1.0190001 -0.2041719258 0.491741091 0.8464658856
-0.2577365 -0.13848528 1.097 0.5086824894 -0.2534577549 0.8228008747
-0.29003727 0.03057901 1.057 0.5167310238 -0.4646862149 0.7190659046
-0.0317178 -0.057092041 1.2060001 0.3621187806 -0.6897539496 0.6269844174
-0.14444239 -0.18343021 1.0108001 -0.06530480832 0.1385157853 0.9882047772
-0.026152719 0.16672534 1.243 -0.9047737718 -0.261739403 0.3359715641
-0.24709377 -0.17856385 1.1010001 0.4149181247 -0.05805785954 0.9080045223
-0.20495169 0.023464229 1.0184003 0.2107925713 -0.3871167898 0.8976118565
-0.16474418 0.14337315 1.09575 0.1538799703 -0.7431650162 0.6511733532
-0.26302633 -0.10252227 1.0535556 0.3443706632 0.44732216 0.8254160881
-0.23402293 0.11241817 1.0836667 0.2848610282 -0.8188462853 0.498342216
-0.22568607 -0.074431635 1.0259999 -0.0670870468 0.4735551476 0.8782054782
-0.29668194 -0.023977237 1.0613847 0.6666188836 -0.2277713716 0.7097460628
-0.29909235 0.054467298 1.09 0.8428809047 -0.1854971349 0.5051164031
-0.029921509 -0.03764319 1.1010001 0.109634012 -0.5972520113 0.7945252657
-0.17829472 0.038525995 1.0220001 0.1835906953 -0.4045749605 0.8958870173
-0.23771079 0.029826829 1.031 0.2817393839 -0.449947089 0.8474494219
-0.23288649 -0.16292849 1.0500001 0.8780050278 0.4594113231 0.1343443841
-0.034435906 0.14434782 1.2125 -0.8486802578 -0.1903790236 0.493454814
-0.06494087 -0.015123481 1.0148001 -0.4623419344 0.03692603856 0.8859325051
-0.017768279 0.041459318 1.126 -0.5915548801 -0.6660504937 0.4543561935
-0.081160046 -0.096840106 1.052 -0.7642266154 0.2099005133 0.6098355651
-0.23398103 0.17395589 1.1655 0.2635242045 -0.805247426 0.5311605334
-0.11527481 -0.14513475 1.0161036 -0.4639075994 -0.02926144563 0.885400176
-0.11518515 -0.045190491 1.0107002 -0.0437224023 0.2798677385 0.9590424299
-0.081969544 0.13661852 1.1131251 -0.752337575 -0.5009013414 0.427885592
-0.063031174 -0.044954315 1.031 -0.6716105342 0.4337739646 0.600649178
-0.14875981 0.20533462 1.1950001 -0.01915190928 -0.891595006 0.4524285197
-0.18104044 -0.13976696 1.0700001 -0.04592351615 0.3653736413 0.9297274351
-0.27542228 -0.12538926 1.1139258 0.4320530891 -0.3438304663 0.8337330222
-0.17986482 0.089480489 1.031 0.2393692434 -0.6984561086 0.6744341254
-0.01031223 0.10885131 1.307 0.2099052966 -0.8515843153 0.480358094
-0.14514123 0.17560479 1.1428666 0.0790753141 -0.8601010442 0.5039576292
-0.29414269 0.14910874 1.165 0.4043339193 -0.7680501938 0.4966014028
-0.0097204801 -0.021601066 1.2320001 0.4922064245 -0.6939291358 0.5255427957
-0.048914492 -0.14015883 1.0730001 -0.4901336133 0.4199297428 0.7638246417
-0.091288179 0.022596084 1.031 -0.3179450333 0.03701960668 0.9473861456
-0.032913823 0.11573378 1.2111429 -0.899543643 -0.1100204885 0.4227489829
-0.12566249 0.16705959 1.1242501 0.00863893237 -0.8486248255 0.5289245844
-0.0098822247 0.13176519 1.2525001 -0.8955137134 -0.239182055 0.3752960265
-0.0506275 0.0285355 1.0500001 -0.6391384006 -0.4885699749 0.5939708948
-0.20191824 0.22156435 1.245 0.1859306991 -0.9281595945 0.3224120438
-0.15425871 0.092196397 1.026 0.1369408369 -0.6198772788 0.7726573348
-0.18588331 0.11064042 1.057 0.2767093778 -0.7446393967 0.6074076295
-0.28439724 -0.054865744 1.0431002 0.4969621599 -0.04277409613 0.8667173386
-0.12499362 -0.11723112 1.0505716 0.2821969986 0.5407770276 0.7924172282
-0.25525844 0.11241846 1.0960001 0.3217405379 -0.7695489526 0.5516134501
-0.29393631 0.103153 1.1065555 0.3885861635 -0.7194319963 0.5756894946
-0.20460121 -0.093629256 1.0465716 -0.1127227023 0.5652196407 0.8172027469
-0.060972165 -0.11162597 1.0700001 -0.2580361962 -0.2005003095 0.9451015592
-0.18311638 0.15850396 1.123 0.1948350221 -0.8098201752 0.5533810854
-0.22544974 0.14865899 1.123 0.2558217645 -0.7941731811 0.5512206554
-0.17769742 -0.021204228 1.0220001 0.1153556034 -0.1068584993 0.9875597954
-0.26502785 0.075135902 1.0528667 0.4492690861 -0.6335029006 0.6299455166
-0.18514998 0.13257033 1.087 0.1489653736 -0.7755192518 0.6134974957
-0.20568769 -0.054827727 1.0190005 0.00323026604 0.1891490668 0.9819430709
-0.076676555 0.19338915 1.1860001 -0.470418483 -0.7596539855 0.4490348399
-0.1453093 0.11697519 1.0539334 0.05743216351 -0.8125203252 0.5800967813
-0.12734722 0.19982128 1.1810001 0.02540187351 -0.8633796573 0.5039150119
-0.072800733 0.21876808 1.2333335 -0.2907482982 -0.8073344827 0.5134943724
-0.30377355 0.11345058 1.1253078 0.4140602052 -0.6794992685 0.605668962
-0.13477464 -0.15640332 1.0070001 -0.2183729112 -0.003461216111 0.9758592844
-0.059648398 0.095626801 1.08 -0.8118987679 -0.4205610752 0.4049059451
-0.26230744 -0.16082801 1.092 0.618036449 -0.007841132581 0.7861103415
-0.23526692 0.19726051 1.2043334 0.2474289238 -0.8081358671 0.5345047116
-0.14629638 0.048765454 1.0220002 0.09290824085 -0.4386569858 0.8938389421
-0.028626673 -0.11944233 1.126 -0.01102602482 -0.8368601203 0.5473057032
-0.17531529 -0.085898049 1.0428573 0.02936488762 0.6094706059 0.7922646403
-0.0062488797 -0.065621838 1.1881998 0.2416749448 -0.6202724576 0.7462273836
-0.093378149 0.11882106 1.0616667 -0.5844414234 -0.583848834 0.5635146499
0.0042886534 0.069690615 1.223 -0.4221753776 -0.6263830066 0.6552955508
-0.2558704 0.15687305 1.1544545 0.3384798765 -0.7769988179 0.5307581425
-0.10010657 0.2075894 1.202 -0.1771202683 -0.8859728575 0.4285795987
-0.095104709 -0.084876396 1.0338931 -0.1392591 0.3806244731 0.9141837358
-0.16482888 -0.1159464 1.0568963 0.04407319799 0.3496650457 0.9358375669
0.017659573 0.032007977 1.2590001 0.2770870626 -0.546153307 0.7905310392
-0.17513095 0.18636279 1.164 0.1100303307 -0.8399951458 0.5313205123
-0.22530863 0.064441226 1.0259641 0.2300998569 -0.1438726038 0.9624732137
-0.085829102 0.17344223 1.1456156 -0.4191168845 -0.7433940768 0.5212544799
-0.2247557 -0.0096409954 1.031 0.02028338425 0.4028302133 0.9150499105
-0.067579381 0.063502446 1.0347501 -0.7001297474 -0.3036509156 0.6462309361
-0.27416775 0.054162368 1.0451666 0.5750781894 0.08632800728 0.8135309219
-0.13501267 -0.084215604 1.0347501 0.1521594226 0.5328505039 0.8324168324
-0.32145292 0.13698472 1.169 0.4077245593 -0.7518321276 0.5181786418
-0.054986894 0.1352213 1.1665384 -0.9578068852 0.004701464437 0.2873740792
-0.2246695 0.18739714 1.1810001 0.2495494783 -0.8347265124 0.4908733964
-0.21510759 0.12644194 1.09345 0.3075867593 -0.7265107632 0.6144692898
0.028505987 0.16128008 1.3363333 0.7647640705 -0.6379401088 0.0903788358
-0.042347778 0.004742607 1.044 -0.8098129034 -0.2819726765 0.5144846439
-0.11740319 0.1391796 1.08 0.04411772266 -0.8311347365 0.5543181896
-0.065065406 -0.073404901 1.09 0.1547347754 -0.5265312195 0.835955739
-0.1045346 -0.024803093 1.0105 -0.005018324126 -0.1765217185 0.9842839241
-0.1947609 0.19447009 1.1844288 0.1715780944 -0.8543020487 0.4906413555
-0.014316907 -0.036399137 1.2162143 0.4751344621 -0.6810617447 0.5571374297
-0.044848766 -0.095274366 1.0737857 0.07109399885 -0.4477263987 0.8913398385
-0.095422536 0.21807805 1.223 -0.1691217124 -0.8223844171 0.5432142615
0.031366609 0.0873302 1.2870001 -0.5089706779 -0.1947249025 0.8384694457
-0.027117755 0.018395973 1.0816 -0.7673563957 -0.5234783292 0.3703169227
-0.089266002 0.093590297 1.057 -0.6741785407 -0.3497713804 0.6504946351
-0.19478737 -0.1258087 1.060111 -0.07280669361 0.3346931338 0.9395103455
-0.051397085 0.16574898 1.1827143 -0.8390099406 -0.3507478535 0.4159786999
-0.032286935 0.076604888 1.2036002 -0.8751490116 -0.1730210334 0.4518605471
-0.1135565 0.08424779 1.0333573 -0.5587732792 -0.04369419813 0.828168571
-0.25363535 -0.083406739 1.0353334 0.2808379829 0.5161237717 0.809163928
0.027021714 0.065302022 1.2842501 0.6570762992 -0.2133418024 0.723004818
-0.23169424 -0.14164303 1.0700001 -0.09936211258 0.7157276869 0.6912750006
-0.25649065 -0.043786194 1.031 0.367097795 -0.2502444386 0.8958889246
-0.29366219 0.16338153 1.1836668 0.3736344874 -0.750012815 0.5457820296
-0.046782263 0.094183624 1.1754 -0.7888340354 -0.2651005387 0.5544930696
-0.13443041 0.22633664 1.2333335 0.06029161066 -0.8883419037 0.4552071691
-0.194126 -0.035045769 1.0190004 0.1505779177 -0.1849190146 0.9711494446
-0.0066366587 0.13159965 1.3363333 -0.6892911792 -0.5526609421 0.4684480429
-0.28985229 0.047839701 1.0700001 0.7716195583 -0.04785414785 0.6342816353
-0.052476037 -0.035309155 1.1126001 0.1903509796 -0.606135428 0.7722476125
-0.25527415 0.054702863 1.0328752 0.4151987731 0.08140831441 0.9060809612
-0.30307856 -0.0084975297 1.077 0.7230074406 0.1494189054 0.6744880676
-0.1049855 0.054739524 1.0235599 -0.07060993463 -0.5196029544 0.8514851928
0.0025414566 -0.0025414566 1.243 0.5614976883 -0.6431799531 0.5206148624
-0.13523449 0.077522352 1.018 -0.222504586 0.07913246006 0.9717148542
-0.077897966 0.12085405 1.097 -0.6831863523 -0.5548351407 0.4747782946
-0.034566592 0.064835511 1.1452858 -0.294860065 -0.8812589049 0.3693782687
-0.27701002 0.01787686 1.0418571 0.4653990269 -0.4907107949 0.7366183996
-0.03259797 -0.093716547 1.1620001 0.03758659214 -0.7801605463 0.6244491935
-0.041273467 0.029079033 1.0700001 -0.8219909668 -0.465148747 0.3285840452
-0.16466436 -0.15525684 1.07332 0.004030789714 0.3922900856 0.9198327065
-0.094409332 0.23548034 1.25225 -0.179606989 -0.8941921592 0.4100753069
-0.26200935 0.19199876 1.21 0.2643449903 -0.8018730283 0.5358370543
-0.25439703 0.015043226 1.0264285 0.3466656506 -0.4198742807 0.838766098
-0.22495984 0.084678613 1.0441874 0.2731728852 -0.7060072422 0.6533990502
-0.040091719 0.18745588 1.2360001 -0.8491677642 -0.3376350105 0.4060993791
-0.1845209 -0.0016873885 1.0190001 0.09033089131 0.3848022223 0.9185681939
-0.15445614 0.013596016 1.0101767 -0.01734830253 0.2973470688 0.9546118379
-0.30580458 0.017680174 1.0613335 0.5096747875 -0.5085141063 0.6940065026
-0.2450503 0.086067513 1.0529413 0.3091415465 -0.7012209892 0.6424333453
-0.036101695 0.044542868 1.1044999 -0.7015420794 -0.5931642652 0.3949618638
-0.32215396 -0.040863186 1.0840001 0.6556324959 -0.255847007 0.7104142308
-0.10545144 -0.11461056 1.0452002 0.4590452909 0.1449277103 0.8765120506
-0.085102066 -0.015067269 1.0112002 -0.167198211 -0.1901745945 0.967408061
-0.15502267 -0.024631921 1.0126253 0.1580954939 -0.2067981511 0.9655259252
-0.20607266 -0.16501787 1.0230001 0.6284402609 0.3242752254 0.7070420384
-0.146754 0.1297116 1.08 0.0923820883 -0.8264175653 0.5554273725
-0.07532914 0.0019917865 1.0183077 -0.1457223445 -0.3959076703 0.9066543579
-0.10556416 0.1647623 1.1254001 -0.2261359543 -0.8281732202 0.512827158
0.01035168 0.044857278 1.312 0.9038364887 -0.272141695 0.3301795125
-0.24569899 -0.064800568 1.0265998 0.2940401733 0.1918746978 0.9363356829
-0.16479316 0.21233305 1.205 0.05339829624 -0.8917928338 0.4492818117
-0.23750478 -0.14195688 1.0380001 0.9411894679 0.3141435087 0.124403514
-0.041464455 0.12469518 1.1952858 -0.8468312025 -0.1160849929 0.5190386772
-0.067418799 0.12681647 1.1238573 -0.6930450797 -0.586953938 0.4185374379
-0.25663862 0.17212152 1.1756667 0.3130505085 -0.7938858867 0.521291256
-0.11450362 0.18829484 1.161 -0.06157490239 -0.8518898487 0.520088613
-0.058538541 0.061371051 1.077 -0.8856387138 -0.3125438988 0.3434536159
0.012140957 0.073949464 1.2590001 -0.906373024 -0.1425492764 0.3977030218
-0.12481406 0.1118099 1.0461818 -0.02338462137 -0.7930463552 0.608712256
-0.14543022 -0.11824919 1.0600002 0.09452242404 0.4758201241 0.8744488358
-0.21486947 0.0053473171 1.0170003 0.1319061518 0.2479629219 0.9597474337
-0.2146676 0.14084527 1.108 0.2398123145 -0.7677835822 0.5941367149
-0.036401883 -0.055079795 1.0946667 0.1203145012 -0.5442746878 0.8302345872
-0.048617303 -0.0054037734 1.027 -0.760869205 -0.07502158731 0.6445539594
-0.1450417 -0.066227719 1.022652 0.08032953739 0.5630406737 0.8225158453
-0.27592322 -0.076528907 1.0433335 0.5083307028 0.419926405 0.7518389225
-0.26227763 -0.012273334 1.0370001 0.392509371 0.4566020966 0.79840523
-0.12454196 0.045252036 1.0159035 -0.02915635705 -0.4714601934 0.8814052343
-0.071615554 0.043244433 1.044 -0.8169277906 -0.1032383442 0.5674247146
-0.13695288 -0.13976696 1.0700001 0.1018327698 0.369365871 0.9236876965
-0.18514635 0.054846589 1.0315218 0.08969574422 0.2144122422 0.9726160765
-0.012600623 0.067323327 1.2320001 -0.4026428163 -0.5485634208 0.7327734828
-0.29591358 0.07771036 1.0810001 0.5658686757 -0.465141952 0.6807610393
-0.2833527 -0.010086927 1.046 0.5106378794 0.4156582057 0.7526468039
-0.20311427 0.102778 1.0561818 0.2673799694 -0.7243059874 0.6355224252
-0.078740068 -0.053216543 1.0190001 -0.470089823 0.372499615 0.8001622558
-0.11472148 0.21979348 1.223 -0.01305340696 -0.8516098857 0.5240135193
-0.19374368 -0.16390792 1.0769999 0.03075163066 0.4802770615 0.8765776157
-0.13648358 -0.0020905575 1.0220002 -0.05501183122 0.02732525207 0.9981117249
-0.085125431 -0.13483691 1.0360609 -0.6111392379 -0.2041048855 0.7647548914
-0.046647932 0.16440079 1.2054288 -0.8788275123 -0.2331334502 0.4163063169
-0.25411177 0.1283557 1.1120001 0.3229256868 -0.6988354921 0.638238132
-0.18548839 0.20537619 1.203143 0.1879757792 -0.8771992326 0.4417992234
-0.12531029 0.23706251 1.2538334 0.04325249791 -0.9125555158 0.4066590965
-0.16044314 0.23029594 1.245 0.1601209044 -0.9181313515 0.362485975
0.0043567414 0.12598051 1.3556668 -0.8145011067 -0.0878515467 0.5734719038
-0.067844227 0.14294502 1.1357143 -0.7952612638 -0.4257033169 0.4316667616
-0.023490282 0.070470847 1.1650001 -0.4544026554 -0.8576471806 0.2407479882
-0.15497082 -0.087500334 1.0426364 0.1466842741 0.6026349664 0.784420073
-0.27804577 0.079844609 1.0715001 0.4409268498 -0.6802526116 0.5855253339
-0.30014348 -0.063333027 1.0470001 0.5918534398 0.1636165231 0.7892649174
-0.21509613 -0.034952041 1.0223213 0.1476530135 -0.2801321447 0.9485381246
-0.26486889 0.18342006 1.1942 0.2589345276 -0.8062499762 0.531896472
-0.19431129 0.17302431 1.1484287 0.1437396705 -0.8450695872 0.5149720907
-0.02396982 -0.023424095 1.243 0.6201913953 -0.642105639 0.4506251514
-0.020521013 0.14148699 1.2320001 -0.8728708029 -0.1523702443 0.4635513723
-0.12589915 0.025259564 1.0070001 -0.2547516227 0.1978013068 0.946560204
-0.021098444 0.1654539 1.2666668 -0.9084091187 -0.2876729369 0.3033761978
-0.17581375 0.15055872 1.108 0.161034137 -0.7853478789 0.5977430344
-0.0080583207 -0.099721707 1.149 0.02886699885 -0.7789945006 0.6263659
0.012372397 0.048364822 1.2830001 0.6484982967 -0.4612400234 0.605563879
-0.24600776 0.04267494 1.0420716 0.3430008292 0.1465386003 0.9278345108
-0.1147881 -0.078634366 1.031 0.01365911961 0.4668562412 0.8842277527
-0.27462798 0.10349144 1.0950667 0.3747287095 -0.7233822346 0.5799108148
-0.21505482 -0.13493808 1.0627083 -0.01470446028 0.4912144244 0.8709145784
0.0010607666 -0.030762233 1.21 0.4502848387 -0.6811842322 0.5772621632
-0.21842808 -0.17364573 1.0425 0.6426960826 0.3042841256 0.7031023502
-0.064750701 -0.13481107 1.0679545 -0.4459054768 0.3202886283 0.8358131051
-0.31479132 0.047162719 1.092889 0.5353524685 -0.5914339423 0.6029955745
-0.085799113 0.060845923 1.0271428 -0.244323045 -0.4986089766 0.8316822648
-0.10809212 -0.12953188 1.0190001 -0.4852386713 -0.2702454925 0.831571281
-0.12529479 0.15298311 1.1063634 -0.01215188671 -0.8273532391 0.561550498
-0.16403309 0.16999795 1.1340001 0.08669745177 -0.8674408197 0.4899285436
-0.20502691 0.15009147 1.1190001 0.1956783533 -0.8021016717 0.5642188191
-0.065157466 0.17349416 1.1756668 -0.6740369797 -0.5780072212 0.4599802196
-0.24534383 -0.0068518673 1.0230908 0.257216841 0.3422857225 0.9037034512
-0.28475976 0.17574976 1.1956669 0.3226320744 -0.778791368 0.5379521251
-0.032353383 0.15532535 1.2256668 -0.8394669294 -0.282848686 0.4639955759
-0.19466208 0.081109203 1.028 0.2377423644 -0.5156347752 0.8231642246
-0.28705394 -0.03418041 1.0504706 0.5120108128 -0.2472614348 0.822621882
-0.03884393 -0.014988076 1.0466666 -0.8487547636 0.01881450042 0.52845186
-0.2152378 0.077175193 1.0319232 0.2815573812 -0.5918892622 0.755243361
-0.29443866 0.12638693 1.1316 0.3768135905 -0.7079321742 0.5973638296
-0.24692895 -0.10780282 1.0510001 0.1003761962 0.3356586993 0.9366204739
-0.21398614 0.17247218 1.155 0.2390735894 -0.8213636279 0.5178857446
-0.21514581 -0.083626144 1.0358751 -0.1644344181 0.6061871052 0.7781378627
-0.015320803 -0.048480891 1.197 0.4001560211 -0.654654026 0.6413292885
-0.10303464 -0.16037564 1.0220001 -0.5253183246 -0.04045448825 0.8499435782
-0.29161587 -0.13065694 1.115 0.4083666801 -0.3431161344 0.8458770514
-0.17475875 0.074846767 1.0170591 0.1186320707 -0.1171053126 0.9860085249
-0.053038333 0.18987723 1.21 -0.6547964811 -0.5359467268 0.5329190493
-0.094026253 0.18573228 1.1646364 -0.2597260773 -0.8360735774 0.4832424819
-0.27676308 0.14817096 1.1550001 0.2765339613 -0.8032808304 0.5275120139
-0.15510803 0.074879304 1.0168335 -0.02070457488 0.1286928505 0.99146837
-0.063993782 0.10557775 1.0928 -0.5406908393 -0.6451311111 0.5398696065
-0.089438409 0.14137039 1.097 -0.6769070625 -0.6059878469 0.417822361
-0.03871097 -0.12746294 1.077 -0.6536342502 0.3179676533 0.6867742538
-0.20578873 0.20897104 1.21 0.1361360103 -0.8910918236 0.4329230189
-0.2687676 0.12896906 1.123 0.3583459854 -0.7092934847 0.6070345044
-0.22779745 0.020546436 1.0190001 0.190054819 -0.4067668915 0.8935434222
-0.14512618 0.064970076 1.0258436 -0.0727821961 0.1797381192 0.9810183048
-0.072379723 0.1657099 1.1535714 -0.7167310715 -0.5356906056 0.4464662969
-0.081339322 -0.11514885 1.0425 -0.7295014858 -0.1551805735 0.6661430597
0.0055799833 0.034595896 1.273 0.3378403187 -0.5328438282 0.7758488059
-0.10944219 0.13002107 1.067 -0.05659548566 -0.8169829249 0.5738779306
-0.29818502 0.13847914 1.153 0.4282531142 -0.75414747 0.4978562891
-0.055441011 -0.083712362 1.0813912 0.1101850346 -0.4929727614 0.8630394936
-0.20421161 0.21388388 1.2260001 0.161403209 -0.9219379425 0.3521071374
-0.18472931 -0.064747818 1.0246783 0.002542693634 0.5322888494 0.8465589881
-0.16543069 0.19386378 1.1750002 0.08932176977 -0.8383181095 0.5378143787
-0.27164879 -0.045760248 1.0371112 0.4643227458 -0.24413912 0.8513521552
-0.10470993 0.015404756 1.0247777 -0.291821897 0.1594875008 0.9430820346
-0.1660988 -0.096625254 1.0512308 0.0862845704 0.4796428382 0.8732111454
-0.097649269 -0.09947449 1.041 -0.09265984595 0.1009103879 0.9905712008
-0.23409542 0.05151907 1.031 0.1864326596 0.1003886387 0.9773254395
-0.1546703 -0.16439648 1.0823749 -0.001042799209 0.3997561038 0.9166209698
-0.18428634 0.12283072 1.074 0.1677653193 -0.8196094632 0.547809422
-0.015854627 -0.076950185 1.1762501 0.1067700759 -0.6798027754 0.7255813479
-0.13492362 0.182071 1.1547143 0.07620327175 -0.862421155 0.5004226565
-0.2650477 0.14684674 1.1426001 0.32417804 -0.8006651998 0.5038291812
-0.19531991 0.035384677 1.0234346 0.2037164569 -0.4371366799 0.8760200739
-0.038567197 0.074007325 1.189 -0.8389415741 -0.389613539 0.3799714744
-0.047033168 0.049855158 1.0730001 -0.8111448288 -0.4813952744 0.3321184516
-0.21149409 -0.16145307 1.077 0.0936813429 0.4867163599 0.8685222864
-0.17366004 -0.17189442 1.0070001 0.1983608603 0.4209132493 0.8851469159
-0.14497587 0.21549569 1.2134285 0.007014096715 -0.8823643327 0.4705145657
-0.30777466 0.098039165 1.1127501 0.4014192522 -0.7045419812 0.5852206349
-0.032618575 0.092551902 1.21 -0.8525351882 -0.002247877419 0.5226649642
-0.13123962 0.13123962 1.077 0.1263408065 -0.8430565 0.522775054
-0.065185897 0.20694134 1.2260588 -0.3754276633 -0.7405058742 0.5574092865
-0.22047991 0.16062111 1.138 0.2588864565 -0.8210395575 0.5087944269
0.033355415 0.13859749 1.312 -0.3208335638 -0.6252687573 0.7114104629
-0.20507558 0.05576323 1.0259998 0.01851603761 0.2923411429 0.9561348557
-0.073362969 0.095531374 1.0722106 -0.5598506927 -0.6220945716 0.5473257899
0.025496975 0.14950497 1.322 0.4818982482 -0.7121606469 0.5104912519
-0.11524433 0.14627555 1.0938824 -0.004777837545 -0.8342012763 0.5514394045
-0.088690087 0.037654061 1.0178 -0.4496135712 0.1109656841 0.8863037229
-0.26729462 0.096303239 1.0812 0.4208107293 -0.6902187467 0.5886564255
-0.07916826 -0.090088017 1.0380001 -0.6648517251 0.2832438052 0.6911910772
-0.025358021 0.05221558 1.1345 -0.4852128029 -0.745415926 0.4570816457
-0.0071235425 0.0071235434 1.2640001 0.569236517 -0.5464835763 0.6142682433
-0.14449975 0.10295705 1.0347002 0.1117061079 -0.7592688203 0.6411182284
-0.20998271 -0.071195856 1.028 -0.1488230228 0.5277567506 0.8362562656
-0.18519881 0.097266331 1.0433999 0.2714678347 -0.7245463133 0.6335123181
-0.14491954 0.15385818 1.1037692 0.0460880734 -0.8193106055 0.5714945197
-0.075938329 0.074043959 1.0445558 -0.4656182826 -0.6019266844 0.64875561
-0.27970928 0.041816998 1.0600001 0.6281283498 -0.02111127786 0.777823329
-0.046455 0.11510731 1.18425 -0.7525643706 -0.03572208062 0.6575490832
-0.11444229 0.10337736 1.0352501 -0.407731384 -0.5525404215 0.7269485593
0.03066054 0.12378065 1.2953334 -0.40369609 -0.451812923 0.7955467105
-0.094013847 0.15649059 1.1156251 -0.4198834896 -0.7539575696 0.5052185655
-0.16491118 0.034589902 1.0155388 0.1664935201 -0.432454735 0.8861505389
-0.070736036 -0.058949258 1.0345001 -0.6520976424 0.4465771914 0.612647891
-0.23505361 -0.035121016 1.0272799 0.2033960968 -0.2961471975 0.933234632
-0.083319977 0.20168892 1.197 -0.3700729609 -0.8113675117 0.4524696469
-0.30791688 0.061194841 1.108 0.8051576614 -0.176368475 0.5662289858
-0.2494029 -0.15289067 1.09 0.6127159595 -0.02057680674 0.7900352478
-0.24062397 -0.080207989 1.028 0.1695564836 0.5459039211 0.8205117583
-0.0023179066 0.10778266 1.322 -0.1093621552 -0.9907565713 0.08025775105
-0.25157529 -0.17057566 1.087 0.5922420621 0.002730846871 0.8057554364
-0.15559556 -0.174245 1.0059999 0.01926622726 0.2150701284 0.9764085412
-0.0086053601 0.081750922 1.2270001 -0.5368885398 -0.4695863724 0.7008846998
-0.1589046 0.1198754 1.0600001 0.1340268254 -0.855781734 0.49967435
-0.060671471 0.099748008 1.1730001 -0.8054216504 -0.2168225348 0.5516193509
-0.15485649 -0.055183399 1.0151669 0.1234152168 0.4127497971 0.9024446011
-0.24034254 0.14028157 1.1190001 0.3053611219 -0.7369174361 0.6030815244
-0.2336939 0.12085405 1.097 0.3180156052 -0.7290278673 0.6061224341
-0.14805409 0.19982126 1.1810001 0.05242053419 -0.8695216179 0.4911050797
-0.26354492 0.02230766 1.0362222 0.3823564649 -0.5102343559 0.7703664303
-0.24973954 0.18862185 1.202 0.2546566129 -0.8117651939 0.5255351663
-0.11647394 -0.00089595333 1.0220001 -0.03148427978 -0.1437413245 0.9891143441
-0.24189529 0.10083648 1.067 0.2854614258 -0.7287980914 0.6223866343
-0.032875001 -0.035066664 1.25 0.6161058545 -0.6570416689 0.4344073832
-0.29326141 -0.073761135 1.0552728 0.5498803258 0.3124875128 0.7745857835
-0.063013092 -0.026662285 1.02395 -0.5770131946 0.2449318916 0.7791432142
-0.050505642 -0.06956438 1.087 0.1625258476 -0.5129490495 0.8428930044
-0.04550552 -0.045500603 1.1043998 0.1709659994 -0.607231617 0.7759125829
-0.02593443 -0.063378811 1.1938889 0.3054222763 -0.6651470065 0.6813931465
-0.088821463 0.12534317 1.075 -0.7250921726 -0.5185173154 0.4531899393
-0.26522037 0.083582059 1.06525 0.4525109231 -0.6877340674 0.5676757693
-0.031767946 -0.046263106 1.216 0.5605410337 -0.6789426208 0.4741630852
-0.29798195 0.067851074 1.0700001 0.8007976413 -0.2651493549 0.5370464921
-0.18663795 0.22156435 1.245 0.215498656 -0.9158110619 0.3388958871
-0.19494952 0.0054415697 1.0114572 0.1791983992 0.2447905391 0.9528722763
-0.0076340134 -0.013086004 1.244 0.535074532 -0.6847171783 0.4948309064
-0.30561951 0.14550754 1.1738001 0.3967194259 -0.7445401549 0.5369112492
-0.20810401 0.18946783 1.1810001 0.1889009476 -0.8540040851 0.4847612083
-0.2255107 0.20523101 1.2118182 0.2058467865 -0.8491060138 0.4864628315
-0.055095803 -0.12420539 1.0652399 -0.332434833 0.1556705236 0.9301902056
-0.28509682 -0.11551424 1.1246248 0.4244318902 -0.3420870304 0.838351965
0.0043055047 -0.035975382 1.1952223 0.4105892479 -0.6597528458 0.629398644
-0.28704271 0.0048851469 1.0410001 0.5364708304 -0.06188007444 0.8416471481
-0.05828825 0.22435872 1.2545 -0.4728460312 -0.7957280278 0.378462106
-0.18384752 -0.19015601 1.028 0.4197740853 0.5307741165 0.7362530231
-0.17491896 -0.12566666 1.060724 0.02413251996 0.3795369267 0.9248617887
-0.12800649 -0.18097468 1.0070001 -0.1585556418 0.02840197273 0.9869414568
-0.082950197 0.23029594 1.245 -0.2444769442 -0.8646563292 0.4388626814
-0.015452127 0.14348403 1.2589999 -0.9158590436 -0.2690306902 0.2980347276
-0.234589 -0.11541173 1.0516362 -0.07184244692 0.2495803237 0.9656854272
-0.31430334 -0.034819711 1.0733999 0.649843514 -0.2514168918 0.7172816396
0.0010800533 -0.011880587 1.2320001 0.5289765 -0.6572432518 0.5368567705
-0.29470673 0.093464859 1.095 0.3814747632 -0.7003484964 0.6033149958
-0.30207625 0.041806772 1.0756668 0.5879300833 -0.5149997473 0.6237896085
-0.028853729 0.12717015 1.2190001 -0.8757371902 -0.138749063 0.462420851
-0.058626205 0.14151153 1.153 -0.8620299101 -0.3253249824 0.3886748254
0.012699394 0.063503228 1.2837143 0.9239866734 -0.05171505734 0.3789118826
-0.15497801 0.18333502 1.1554 0.06986618042 -0.8494696617 0.5229913592
-0.14491279 0.16695493 1.1313334 0.06993239373 -0.8602299094 0.5050880909
-0.077693798 0.14454119 1.1250001 -0.7373384237 -0.4815810919 0.4737211466
-0.19633113 -0.17670821 1.0247693 0.5176071525 0.4847172499 0.70507586
0.03015558 0.074827008 1.2739999 -0.6590197682 -0.2087789625 0.7225678563
-0.22260182 -0.15257768 1.0752857 -0.0006687220302 0.5232980251 0.8521494865
-0.13493468 -0.054946277 1.0145885 0.05185332894 0.429967165 0.9013542533
0.011432026 0.11550289 1.3490001 -0.6918722987 -0.5042803884 0.5167339444
-0.13446742 0.014675207 1.0113336 -0.1778371334 0.3932637274 0.9020629525
