# .PCD v0.7 - Point Cloud Data file format
VERSION 0.7
FIELDS x y z normal_x normal_y normal_z
SIZE 4 4 4 4 4 4
TYPE F F F F F F
COUNT 1 1 1 1 1 1
WIDTH 512
HEIGHT 1
VIEWPOINT 0 0 0 1 0 0 0
POINTS 512
DATA ascii
-0.03119443 -0.02904309 1.2270001 0.2609926462 -0.7327085137 0.6285070181
-0.089779429 -0.45256162 2.0900002 -0.1632792056 0.7748799324 0.6106562018
-0.20504899 -0.024472151 1.6042 0.9296722412 0.1220850796 0.3475698531
0.12873587 0.10658776 1.5790001 -0.6672413349 -0.7198407054 0.1913593262
0.069226861 -0.26846513 1.9260001 -0.1567645073 0.7861407399 0.5978357792
-0.16560321 -0.25138327 1.3590001 0.7013578415 0.5142040253 0.4936510921
-0.082792111 0.15434445 1.4236668 0.6773633957 -0.142361775 0.721742332
-0.2291256 -0.36829817 1.9360001 -0.1635525674 0.7734015584 0.6124545336
-0.024445435 -0.22531454 1.2248824 0.2612224519 0.5839636922 0.7686021328
0.062087726 0.072731331 1.3490001 -0.5463597178 -0.6580239534 0.5181655288
-0.13570011 -0.073713645 1.3649999 0.7533431649 -0.4209953547 0.5052098632
-0.14604419 0.03510261 1.4829999 0.5691307187 0.1425631493 0.8097937703
0.047487281 0.15272936 1.4640001 -0.610163331 -0.7100116014 0.3515454829
0.053281501 -0.12484029 1.1830001 -0.1430552304 -0.1374984831 0.980117023
-0.13005877 -0.16229555 1.268 0.6487394571 0.03936727718 0.7599916458
-0.045139126 0.036456622 1.4145 0.3974131644 0.3633852303 0.8426232338
-0.15416709 -0.070438415 1.516 0.7708756328 0.3370398581 0.5405135155
0.062250346 0.0011116134 1.268 -0.2417350113 -0.7158545256 0.655069828
-0.070295081 0.011521592 1.3145001 0.6666597128 -0.4599154592 0.5865514278
-0.096824989 -0.272459 1.2842501 0.612870276 0.398175925 0.6825290918
0.11358824 0.076429263 1.4450001 -0.4729274511 -0.3661191165 0.8014339805
-0.056220628 -0.12584549 1.21 0.4194852412 0.277009815 0.8644638062
-0.18284199 -0.43990695 2.0650001 -0.1635525674 0.7734015584 0.6124545336
-0.17870849 -0.16083765 1.3590001 0.8818215132 -0.3226240873 0.3439542949
-0.005404274 0.11471008 1.3920001 0.4059000015 -0.1102662235 0.9072411656
-0.092991538 -0.063861661 1.2780001 0.888869226 -0.4116510153 0.2011341006
-0.13354154 0.113536 1.47175 0.8013584018 -0.1933579296 0.5660719275
-0.19523923 0.02389764 1.5430001 0.9212311506 0.005231993739 0.3889804482
0.044782978 -0.054373275 1.2162501 -0.23641406 -0.5736745 0.7842231393
0.0043449933 0.034545109 1.3046666 0.3001310527 -0.7551065087 0.5828683376
-0.014734487 0.18508729 1.4246 -0.1635425091 -0.7011411786 0.6940135956
-0.11165928 -0.02181848 1.4640001 0.484945178 0.1341892332 0.8641883135
0.0010423567 -0.17198884 1.189 0.0194570832 0.416005373 0.9091539979
0.063096985 0.11320506 1.4112501 -0.6232577562 -0.66847682 0.4058184028
-0.15334187 -0.21323104 1.3053335 0.5209963322 0.6131288409 0.5938314795
-0.085950829 -0.21474434 1.2533336 0.6169598699 -0.004642828833 0.786980927
-0.1420121 -0.11892071 1.317 0.7414911985 -0.5382435918 0.4006053805
-0.10218339 0.065599211 1.439 0.6059956551 0.1400952041 0.7830342054
-0.0038591379 -0.095559813 1.1871176 0.3935008049 -0.3256795108 0.8597034216
-0.19058383 -0.067184225 1.5640001 0.7828467488 0.01411125809 0.6220545769
0.0011870067 0.067659378 1.3540001 0.7629395127 -0.5275004506 0.3737199306
-0.057272639 0.093531571 1.41 0.3765312135 -0.05797218159 0.924588263
-0.11060026 -0.036090612 1.3280001 0.8254734278 -0.3109111488 0.4710921943
-0.10150485 -0.1156937 1.245 0.841940105 -0.1217516363 0.52565521
-0.17065281 -0.01587468 1.5090001 0.8402322531 0.1382360011 0.5243096352
0.01516984 0.0021671199 1.2360001 -0.1709955782 -0.815600574 0.5527714491
-0.16435629 0.075754523 1.5160002 0.8758115172 -0.3134004474 0.3670617342
-0.073683396 -0.066153713 1.2270001 0.691711843 -0.2233841866 0.6867563128
-0.032823566 0.0055945944 1.2763333 0.5511728525 -0.7045238614 0.4470510483
0.02605015 0.15257944 1.4150001 -0.6704881191 -0.6620761752 0.3348144889
-0.076375201 0.016547959 1.452 0.5024084449 0.4125672579 0.7598513365
0.056359146 0.036805972 1.3120002 -0.5647037029 -0.5445551276 0.6201366186
-0.058213077 -0.17571226 1.2240001 0.7222211957 0.1828473061 0.6670557261
-0.0547502 -0.25525388 1.2534119 0.3234304488 0.5066785216 0.7991680503
-0.13598284 -0.26158988 1.3145001 0.7451896071 -0.08021900058 0.6620101333
0.033573527 0.11262397 1.358 -0.02638104372 -0.7146792412 0.6989547014
-0.16346239 -0.11463908 1.365 0.8097952604 -0.4222643077 0.4073382914
-0.15680879 -0.16486008 1.3120002 0.8056561947 -0.1111943945 0.5818538666
-0.06661965 -0.025970373 1.2880001 0.633310318 -0.5162423849 0.5765516162
-0.1032647 0.11551949 1.439 0.6197572947 -0.09828703851 0.778614521
-0.034563638 -0.064929783 1.1946002 0.2435086221 -0.288865298 0.9258835912
-0.11404382 -0.22272418 1.2880001 0.6806188226 0.2992853522 0.6687198877
-0.11314347 -0.10637444 1.2863334 0.774410069 -0.5395647287 0.3303920329
-0.034463517 0.14523911 1.4039999 0.3525164723 -0.2315390259 0.9067093134
-0.18249483 -0.025879201 1.5535001 0.8902574778 0.290163368 0.3510653079
-0.18217878 -0.19621181 1.3342501 0.7908965349 -0.09143465757 0.6050804853
-0.093137063 -0.16117077 1.245 0.4255801439 0.4467958212 0.7869275808
-0.026847038 0.06955824 1.3920001 0.4835747182 -0.02184740454 0.8750303984
0.070716314 -0.031550355 1.2410001 -0.2250024676 -0.688729167 0.6892212629
-0.12254836 -0.077823453 1.325 0.8277529478 -0.3765166998 0.4160051048
0.013835553 -0.2032762 1.2140001 -0.08951154351 0.4669867158 0.879722178
0.0052689416 -0.05480377 1.2021998 0.003813815303 -0.2767738998 0.9609274864
0.063486889 -0.086835362 1.197 -0.2543037832 -0.4409295321 0.8607617021
-0.14228387 -0.041771412 1.4890001 0.4370858371 0.3188661337 0.8409996033
0.094614245 0.11227558 1.439 -0.3609929383 -0.5721058249 0.7364639044
-0.015809681 -0.13501923 1.1869047 0.4638845623 -0.01626528054 0.8857463002
0.03261565 0.032989111 1.2754999 -0.4355580509 -0.6214638352 0.6512080431
-0.053961024 0.1829713 1.4150001 0.2496386617 -0.2954345345 0.9221708179
-0.20071721 0.0069212834 1.5790001 0.921839416 0.2410711199 0.3034744859
0.028329192 0.081106864 1.3280001 0.08986190706 -0.6593395472 0.746455729
-0.13347776 0.074439526 1.4640001 0.6974086165 -0.007134062704 0.7166382074
-0.17571469 0.025101595 1.507 0.8349664211 0.03362058848 0.5492728949
-0.11247984 0.0255636 1.4580001 0.3710638583 0.2907615304 0.881912291
-0.034115776 0.032086585 1.302 0.4672606289 -0.5998767614 0.6494731307
-0.03066054 -0.19136406 1.2060001 0.3850723207 0.2956174314 0.8742594719
-0.14460616 -0.0052126595 1.4860001 0.4669678509 0.1198344082 0.8761168718
-0.11004972 -0.1923091 1.268 0.435305208 0.2942412198 0.8508416414
0.037016373 0.12732005 1.3920001 -0.6348842382 -0.6484556794 0.4200324118
0.0022319932 0.0078119766 1.273 0.449960649 -0.6842957735 0.5738246441
0.034028549 -0.15426834 1.1823332 -0.001604744815 0.2192149013 0.9756752849
-0.0030639498 0.16116378 1.3980001 -0.02954257838 -0.5144360065 0.8570197225
-0.080149248 -0.099385068 1.2190001 0.697332263 -0.1325683296 0.7043815255
-0.14606178 -0.23570955 1.3350002 0.6180447936 0.3786272407 0.6889572144
-0.056201 -0.21507016 1.2328002 0.5451059937 0.2340471894 0.8050349951
-0.038637623 -0.15560424 1.202 0.5073111057 0.05147479475 0.860224247
0.071171306 0.091678292 1.376 -0.5099456906 -0.7297314405 0.4554639459
0.034278054 -0.027780592 1.2346668 -0.5574697852 -0.5826256871 0.591417551
0.061814643 0.13245995 1.439 -0.5861481428 -0.6834804416 0.4350687563
-0.15011601 0.090069607 1.4890001 0.8013499975 -0.205533579 0.5617776513
0.01553015 -0.12527655 1.1809999 -0.008818407543 0.07412989438 0.9972096086
0.025100721 -0.080531478 1.1930001 -0.1806119978 -0.4933063388 0.8508984447
-0.053517874 -0.095492676 1.1970003 0.3336135447 0.003779966617 0.942702353
-0.17023376 -0.04423397 1.529 0.9104438424 0.2022752762 0.3608000576
-0.10622395 0.14446415 1.454 0.7207050323 -0.2141934484 0.6593219638
0.086267725 0.086267725 1.4210002 -0.4362276793 -0.3851713538 0.8132333159
0.0053212615 -0.024484839 1.2144402 0.1519127488 -0.4776796401 0.8653003573
-0.093354717 -0.24450055 1.2677141 0.6603613496 0.2168132216 0.7189679146
-0.070707552 0.12280785 1.4150001 0.5066938996 0.02221545018 0.8618397713
-0.074147999 0.045295682 1.4260769 0.5994557738 0.267113179 0.7545219064
-0.13480334 -0.13630448 1.2867501 0.7664918303 -0.3682578206 0.5261904597
-0.043385692 -0.015980015 1.2539999 0.5336036682 -0.7418942451 0.4060296118
-0.093137063 -0.0069852797 1.3280001 0.6921183467 -0.5207437873 0.4997980893
-0.17652011 -0.093611464 1.554 0.7914538383 0.09334016591 0.6040599346
-0.18095715 0.052276511 1.529 0.8637798429 -0.2748300135 0.422318399
-0.083889119 -0.13443647 1.2267998 0.5558305383 0.2849473357 0.7809336782
-0.094129167 -0.085404575 1.2436666 0.7953045964 -0.2348665893 0.5588633418
-0.064621456 -0.03635348 1.2253156 0.4137031138 -0.5265446305 0.742698133
0.025757929 0.16425957 1.4450001 -0.6505015492 -0.6943733096 0.3077229857
-0.14303343 -0.18470079 1.2846667 0.6627953053 0.06360744685 0.7460941672
-0.005114648 0.054181326 1.3262 0.1611809433 -0.8536713123 0.4952434301
-0.14237188 -0.097037002 1.3466001 0.7009794712 -0.5650244951 0.435172528
0.0066727097 0.094011664 1.3732728 0.800114572 -0.2324392051 0.5529816747
-0.092099972 -0.039796282 1.2970001 0.7101327777 -0.3634491265 0.6030059457
-0.0076708333 -0.012054167 1.25 0.2592840195 -0.8538086414 0.4514228702
-0.084818028 0.094826065 1.427 0.5934829712 -0.001781259431 0.8048445582
-0.16128008 -0.13159965 1.3363333 0.7817540765 -0.5020734668 0.3698415756
-0.03528408 0.11528867 1.4040002 0.4712563455 -0.02072737925 0.8817527294
0.024400702 0.056802303 1.3045001 0.2165768743 -0.825152874 0.5217444301
-0.16721539 0.053771228 1.4960001 0.8385957479 -0.1234529689 0.5305813551
-0.056118943 0.063782766 1.41 0.4867147207 0.1062721312 0.8670726418
-0.077317119 -0.18543933 1.25 0.7227296233 0.1413077563 0.676530838
-0.17256278 -0.22398102 1.3330001 0.6361376643 0.5920981765 0.4947207272
-0.10382115 -0.066221796 1.3061668 0.8065721393 -0.2947989702 0.5123816133
-0.12997109 -0.22888714 1.312 0.6883756518 0.4256348312 0.5873448253
-0.12259168 -0.054803066 1.3464288 0.8589826226 -0.2814529538 0.4277067184
0.035043735 -0.0057308623 1.2552106 -0.5883629918 -0.5281960964 0.6122400761
-0.11566433 0.093590744 1.4524999 0.6406078935 0.005462954286 0.7678487301
0.025382128 -0.184396 1.1964667 -0.04430878907 0.4708398879 0.8811053038
-0.19882624 -0.044956055 1.5860001 0.9028611183 -0.0354735218 0.4284663796
0.062350485 0.01700636 1.2931111 -0.4701535404 -0.6184187531 0.6296935081
-0.16908708 -0.068987526 1.5430001 0.8185314536 0.1356337219 0.5582202077
-0.18203127 0.0053518307 1.5267502 0.8448938131 0.1860638857 0.5015322566
-0.072254866 -0.27123368 1.268 0.4198854566 0.3882789314 0.8203265667
-0.11542775 -0.25467426 1.2942727 0.7233195901 0.1462440491 0.6748492122
0.034261987 -0.10485077 1.1841998 -0.2562185526 -0.200299561 0.9456384778
-0.11689312 -0.13430776 1.2661538 0.8042743802 -0.2154783458 0.5538156629
-0.026343834 -0.10010657 1.202 0.1768875867 -0.1015972123 0.9789733291
0.071284398 0.05258685 1.3330001 -0.5413492322 -0.5948858857 0.5941815972
-0.052303687 0.0011370367 1.2970001 0.5714192986 -0.5171318054 0.6372241974
0.016359853 0.12382766 1.3751429 0.2899838388 -0.6630226374 0.6901524067
0.048163772 0.10158783 1.3850001 -0.6431242824 -0.6392930746 0.4215394855
0.0172663 0.093900301 1.3490001 0.6240467429 -0.4936339855 0.605715394
-0.059044376 0.023869004 1.4330001 0.5240672827 0.494823575 0.6931833029
-0.092475183 0.036736716 1.4450001 0.5498120785 0.4103999436 0.7275153399
-0.015455696 0.023829864 1.2854999 -0.006353109144 -0.7594492435 0.6505355239
-0.011591286 -0.07481648 1.202 -0.02953560837 -0.08511413634 0.9959333539
-0.1185604 0.0025774001 1.47 0.4535388052 0.1518882513 0.8781984448
-0.128344 0.0449204 1.4640001 0.6105622649 0.119535245 0.7828953266
0.043757062 0.091061994 1.3490001 -0.6143190861 -0.5844037533 0.5301738977
-0.17329985 -0.16523686 1.3346667 0.8601095676 -0.145920217 0.4887931943
-0.083643638 -0.018169168 1.307 0.5808362961 -0.5360955 0.6125608683
0.014646797 0.14403754 1.3923751 -0.1947920918 -0.5136245489 0.8356110454
-0.01374438 -0.21250926 1.2060001 0.03001962416 0.505224824 0.8624655008
-0.14667453 0.06465026 1.4829999 0.6686236262 -0.131094709 0.7319539785
-0.1948982 -0.0040928642 1.5546666 0.9169458151 0.2697914541 0.2939778268
-0.024436645 0.095287539 1.3935001 0.4007652104 -0.1215302423 0.908084631
-0.16055886 0.015664279 1.4890001 0.6136069894 0.08398713917 0.7851322293
-0.035296611 -0.24438225 1.2421765 0.1883624196 0.5647287965 0.8034929633
-0.057016205 -0.07345809 1.21 0.6166985631 -0.3302347064 0.714582324
-0.014850733 -0.042430669 1.21 0.09656248987 -0.5731651187 0.8137305379
-0.095863499 0.0025563601 1.4580001 0.3669663668 0.1485921592 0.918289721
0.018763296 0.020970743 1.2590001 0.1200528443 -0.7612784505 0.637214601
-0.066028044 -0.2354936 1.244077 0.4509446919 0.4384975433 0.7774115801
0.1121733 0.09299124 1.427 -0.4776774645 -0.3684656024 0.797532022
0.043416917 0.13190474 1.4150001 -0.6894131899 -0.6209315658 0.3730328381
-0.13365309 -0.20954086 1.2920001 0.3985078037 0.5381189585 0.742710948
-0.08171761 0.011338807 1.3379999 0.6705357432 -0.5269393325 0.5222229362
-0.15074897 -0.26059705 1.3330001 0.7988485098 -0.02920392901 0.6008229256
-0.087666661 -0.063558333 1.25 0.8623303771 -0.3445611596 0.3710309565
0.050061174 0.061703306 1.3280001 -0.5379899144 -0.6054754257 0.5864864588
-0.04503727 -0.053268399 1.2123125 0.4748017788 -0.5358760953 0.6981404424
-0.024629574 0.046281237 1.3945714 0.4940805435 0.3538278937 0.794160068
-0.02496922 0.16588463 1.41 0.2778922319 -0.3669617176 0.8877584338
-0.073324673 -0.15405191 1.234154 0.5991950035 0.3408306837 0.7244306803
0.012457433 0.17066683 1.4210001 -0.5385335088 -0.7619971037 0.359641552
-0.054454882 0.15469587 1.4116668 0.2670776546 -0.1831839681 0.9461042285
-0.12550932 -0.026701985 1.4829999 0.4950651824 0.1957069486 0.8465277553
-0.16482687 -0.1953043 1.3147779 0.8075448871 -0.02161630429 0.5894098282
0.043214232 0.010971835 1.2770001 -0.5261878371 -0.6200723052 0.5819250345
0.037100535 0.14713666 1.4345001 -0.6314709783 -0.6949794292 0.3438721001
-0.12864383 -0.10082894 1.322 0.7371292114 -0.5059868097 0.4479038417
-0.19489177 -0.015204323 1.5766667 0.9125950336 0.2147079706 0.3479523063
-0.14816992 -0.14588378 1.3026251 0.7948537469 -0.2547417581 0.550739646
-0.01085664 0.066346131 1.376 0.7362235188 -0.307108134 0.6030418873
-0.034537315 -0.12499163 1.2036363 0.437299937 0.08834929019 0.8949654698
0.014218907 0.064410582 1.3358573 0.6656206846 -0.5856531858 0.462557435
-0.1531712 -0.089748748 1.365 0.7084925175 -0.48152861 0.5159152746
-0.16006969 -0.044978257 1.5090001 0.7708061934 0.287861377 0.5683252811
-0.076511964 -0.43903291 2.0780001 -0.1632792056 0.7748799324 0.6106562018
-0.10301552 -0.086642191 1.2970001 0.77432096 -0.4109148085 0.4812235534
-0.18647049 -0.045246515 1.5640001 0.8462644815 0.006359471474 0.5327250957
-0.08340022 0.06672018 1.427 0.583317101 0.164147079 0.7954853177
0.046783116 -0.073051281 1.2023076 -0.19815135 -0.5526501536 0.8095145822
0.005176716 -0.1449481 1.181 0.07613357902 0.1662809551 0.9831349254
0.010885862 0.027405769 1.2846668 0.5467918515 -0.6815469265 0.4863254428
-0.11935992 0.12962744 1.4640001 0.7507380247 -0.2338170707 0.617836535
0.055028364 -0.015403363 1.2553751 -0.1911122203 -0.6775266528 0.7102349997
-0.046966102 -0.011184075 1.2755001 0.6994007826 -0.6170281172 0.360714376
-0.064689338 -0.1949513 1.2334119 0.7053573132 0.1630533785 0.6898439527
0.025366453 -0.044644866 1.2142942 -0.4304962456 -0.4169350863 0.8005236387
-0.10843489 -0.27736506 1.302 0.6705911756 0.249027878 0.6987794042
-0.087519683 0.13525768 1.4330001 0.6581455469 -0.06099812314 0.7504156828
0.063942604 -0.046731878 1.2270001 -0.2321848273 -0.635796845 0.7361063361
-0.10263897 -0.21268868 1.268 0.6876832247 0.1409130394 0.7122045159
-0.10833847 -0.10463776 1.2653333 0.8885020614 -0.2673255503 0.3729626834
-0.01464384 0.1342352 1.3920001 0.3015880585 -0.2021389753 0.9317641854
-0.0045662648 -0.18827058 1.202 -0.009174918756 0.457742542 0.8890374303
-0.043775957 -0.20369186 1.2178888 0.5425764322 0.3155576885 0.7784819603
-0.10739166 -0.14465001 1.25 0.6968502402 0.07929007709 0.7128203511
-0.017082432 -0.15548502 1.193 0.393178761 0.1574667841 0.9058778286
0.042070355 0.042070355 1.2970001 -0.5830705166 -0.5607352257 0.5878815651
-0.12754111 -0.1123105 1.3028334 0.6848530173 -0.5727192163 0.4505208433
-0.072141193 0.17222147 1.427 0.530010879 -0.3025782704 0.7921709418
0.063531823 -0.064154565 1.2114116 -0.2361270338 -0.575401783 0.7830433249
-0.06185716 -0.14503925 1.2165 0.5785086155 0.1872259378 0.7938981652
-0.051561151 0.021770263 1.307 0.5302402973 -0.4299383461 0.7307518125
-0.012603836 0.051561151 1.307 -0.07377110422 -0.7791301608 0.6225062609
-0.1664959 0.0047125844 1.5055714 0.7953416109 0.1423121989 0.5892189145
-0.18313216 -0.01481216 1.536 0.8701072335 0.3171465099 0.3772684336
0.061457671 -0.10520579 1.1882 -0.2108780593 -0.2587160468 0.942653954
-0.11578216 0.064783119 1.4541818 0.6017019153 0.09798432142 0.7926877737
-0.1035919 -0.17224307 1.2585555 0.3834902942 0.4041436315 0.8304234743
0.055045895 0.085560478 1.365 -0.5826051235 -0.675432682 0.4520640969
-0.089017898 -0.19428803 1.2640001 0.5366716385 0.08462104201 0.8395372629
0.015539127 -0.094265044 1.18164 0.01021174341 -0.3600305915 0.9328846335
-0.16667427 -0.14764579 1.31575 0.8081282377 -0.248346135 0.5340907574
-0.13377509 0.014818161 1.4748461 0.5610997677 0.1512153596 0.8138187528
-0.037335481 0.084107399 1.4039999 0.4764486849 -0.1460612714 0.8669848442
-0.0097204801 -0.020521013 1.2320001 0.4040125012 -0.7328065038 0.5475111604
-0.0051939683 -0.1151875 1.1837199 0.3740410209 -0.1346718073 0.9175820351
-0.15272672 -0.024801776 1.4890002 0.539650321 0.1634877771 0.8258627653
-0.1552057 -0.1150957 1.3455715 0.7875773311 -0.4659475088 0.4032553136
-0.024281913 0.0011037233 1.2590001 0.1357859969 -0.7751827836 0.6169714928
-0.023194557 -0.17401531 1.1965556 0.3699197471 0.2866400182 0.8837403059
-0.14752986 -0.16454814 1.2945 0.8315619826 -0.153384462 0.5338332057
-0.1327077 0.094204493 1.4640001 0.7928550839 -0.08175590634 0.6039013267
-0.12803058 -0.073748261 1.3460001 0.8365350962 -0.3576143384 0.4151156247
0.075335652 0.11564619 1.437 -0.5024055243 -0.6487875581 0.5715447664
0.023090962 -0.015034834 1.2250001 -0.5981406569 -0.5226736665 0.6074866056
0.034282051 -0.13505051 1.1849999 -0.05185281858 0.02301072143 0.9983896017
-0.11090505 -0.05544946 1.327 0.8362008333 -0.2857368886 0.4681052864
-0.042819034 -0.17409547 1.2060002 0.5393621325 0.1970978826 0.8186824322
-0.034723673 0.18477833 1.4145833 0.07575005293 -0.4618244767 0.8837307692
0.02495202 -0.063806064 1.2025713 -0.2343666703 -0.4792273343 0.8458211422
-0.1037603 0.086729728 1.439 0.615087986 0.02233669162 0.7881420255
-0.090040676 -0.26345235 1.268 0.5028098226 0.3544814885 0.7883686423
-0.040444139 0.056376681 1.3980001 0.5721263289 0.3667452633 0.7336002588
-0.054204077 0.11471899 1.4102631 0.3595812619 -0.04741691425 0.9319082499
-0.11697539 -0.20470694 1.2830001 0.5132325292 0.4131976068 0.7522367239
-0.02535101 -0.014444837 1.2437502 0.2368333489 -0.7946830392 0.5589175224
-0.074966393 -0.24528609 1.2575002 0.4579877257 0.39817518 0.7947979569
-0.016673319 -0.055966403 1.1970003 -0.08349067718 -0.3680015206 0.9260692
-0.0058835293 0.17367315 1.4125 -0.1481444985 -0.6852759123 0.713056922
-0.0543884 0.13597099 1.41 0.3596675694 0.007048520725 0.9330539107
-0.0056948266 0.095998503 1.3920001 0.4796592295 -0.1744260937 0.8599433303
-0.16736794 -0.13175774 1.3540001 0.8605272174 -0.3825665712 0.3363565505
0.045880347 -0.093402438 1.1932857 -0.245576784 -0.3872947693 0.8886477351
-0.097245999 -0.033822093 1.3153334 0.7697995305 -0.3745734394 0.5168204904
0.0082522826 0.0049450574 1.2557501 0.493077755 -0.7247819304 0.4812125564
-0.1868469 0.023189293 1.526 0.887185812 -0.02244554833 0.4608660638
0.065897278 0.098845921 1.3920001 -0.6026322246 -0.696628809 0.3892848194
-0.071948037 0.074428998 1.4150001 0.5596154332 0.09669389576 0.8230922818
0.077236086 0.10215095 1.4210001 -0.6204532981 -0.5531166196 0.5559673905
-0.092595816 0.15314893 1.439 0.71431458 -0.1666056663 0.6797037721
-0.083701514 0.1149345 1.4250001 0.5950556993 -0.02818571217 0.8031900525
0.0054298341 -0.074519224 1.1957276 0.2180630565 -0.3894086182 0.8948795795
-0.078238294 -0.04351493 1.286 0.6374599934 -0.5318308473 0.557494998
-0.13834588 -0.15409258 1.2830001 0.787031889 -0.2009174228 0.5832778215
-0.034620799 -0.084977366 1.1966804 0.06054302305 0.04238922149 0.9972651005
0.070161387 0.025304105 1.312 -0.5113637447 -0.5714005232 0.6418789625
-0.14747123 -0.056691904 1.5038574 0.6074777246 0.3898698986 0.6920782328
-0.08625865 -0.1152468 1.2247777 0.7148429751 0.03917694464 0.6981867552
-0.070707552 0.1042006 1.4150001 0.5120286942 -0.02349930815 0.8586468101
-0.036480296 0.016050577 1.2945 0.606970489 -0.4898109734 0.6258370876
-0.1256749 -0.18636991 1.2742499 0.4298102558 0.3570308387 0.8293323517
-0.11596816 0.11550529 1.4536363 0.7241424918 -0.1680425704 0.6688641906
0.01353924 0.15877835 1.4039999 -0.4172098339 -0.6761958599 0.6072027087
0.046965487 0.025413513 1.2939999 -0.5874508023 -0.5072080493 0.6305882931
-0.1769498 -0.054447684 1.5526251 0.8068663478 0.08753488958 0.5842126012
-0.15214428 -0.19528593 1.295125 0.7139917612 0.1741868854 0.6781406403
-0.18802483 0.044638991 1.5430001 0.8890404701 -0.2344305068 0.3932548165
0.016460352 -0.16385409 1.1884667 -0.0416476801 0.4129963815 0.9097799063
-0.22359997 -0.38063201 1.9470001 -0.1635525674 0.7734015584 0.6124545336
-0.16498587 0.03331193 1.4960001 0.7449327111 -0.01361369062 0.6670006514
0.012201622 0.047655426 1.3130001 0.460983932 -0.7426892519 0.4857020676
-0.070792586 -0.17481433 1.2360001 0.7380955219 0.184802413 0.648893714
0.044771656 -0.038322315 1.2256668 -0.316587925 -0.6189567447 0.718793869
0.0031237388 0.077174723 1.3712 0.7783696651 -0.3797068298 0.4999633729
-0.16442761 -0.2339683 1.3445001 0.5536043048 0.6279985309 0.5469370484
-0.039961971 -0.22789125 1.2320001 0.2663541436 0.5513396263 0.7906200886
0.025121681 0.043787189 1.2866365 0.08193927258 -0.7299777269 0.6785414815
-0.073410384 -0.20529316 1.244077 0.6553834081 0.05675490573 0.7531610131
0.052087151 0.11214057 1.3980001 -0.6265443563 -0.6510028839 0.4285294414
0.10258228 0.07881321 1.427 -0.4843116999 -0.2684683502 0.8326865435
-0.13929795 0.10458312 1.485 0.841386497 -0.1667195857 0.5140752792
-0.10526443 0.044990972 1.4524999 0.4939148426 0.3199327588 0.8085116744
-0.076425306 -0.084023722 1.225154 0.7095265985 -0.2593778968 0.6552061439
-0.15633684 0.087634228 1.507 0.8443735838 -0.3060047925 0.4397661984
-0.0684852 -0.012555619 1.302 0.5950781703 -0.4901152849 0.636921525
0.05133716 -0.14156106 1.1830001 -0.04918976501 -0.005731123965 0.9987729788
-0.0284303 0.040791299 1.4100001 0.4719039202 0.3806669414 0.7952353954
-0.046982318 -0.031861573 1.2320001 0.2903079689 -0.7231254578 0.6267462373
-0.11846922 -0.092014939 1.312 0.7348622084 -0.4316441715 0.5231260061
0.029374469 -0.01305532 1.2410001 -0.6752928495 -0.5151754618 0.527800858
0.054484833 -0.026694939 1.243 -0.208793804 -0.7075514197 0.6751119494
0.0072454307 -0.0069765132 1.2245002 0.2190697789 -0.6907526255 0.6891075969
-0.1361402 -0.24462631 1.3250002 0.7900835872 -0.07999129593 0.6077575684
-0.061776072 0.036470212 1.4150001 0.4723753929 0.3408580124 0.8128206134
-0.11147606 -0.12030584 1.2590001 0.8428291678 -0.2226571143 0.4899620116
-0.075199462 0.025722278 1.4364288 0.5949377418 0.4815528989 0.6435494423
-0.12482529 -0.24575342 1.3046668 0.7837215066 0.03387063369 0.6201881766
-0.19881046 0.013711067 1.5640001 0.9468839765 0.1379385591 0.2904887795
-0.073958106 -0.12366811 1.2175714 0.5349212289 0.2499326169 0.8070892096
-0.10754333 -0.24444871 1.2839092 0.7794062495 0.1030280814 0.6179895997
-0.16804823 -0.20977055 1.322 0.6897240877 0.3203059435 0.6493726373
-0.17171112 0.044713683 1.5090001 0.8754581809 -0.1946959198 0.4423420429
-0.019871403 -0.12027428 1.1930001 0.4763209522 -0.09119208902 0.874529779
-0.14547582 -0.22167744 1.317 0.4327140749 0.6984955072 0.5699670911
-0.05685221 -0.051640548 1.2235715 0.4555268884 -0.4359932244 0.7761476636
0.055414226 0.1238348 1.4227144 -0.6021903157 -0.6722832322 0.4305833876
0.097234771 0.095978521 1.4330002 -0.4060751796 -0.4248400629 0.8090820909
0.057281401 0.14129412 1.452 -0.5796225071 -0.7079185843 0.4035951495
-0.075603738 -0.046442293 1.2320001 0.6334551573 -0.3984031975 0.6633320451
-0.041450113 -0.1117579 1.197 0.2054625005 0.1261778027 0.9704969525
-0.17230357 -0.18481886 1.3280001 0.7971463203 -0.1642303318 0.5810216069
-0.068154253 -0.10581148 1.21 0.5661796927 0.08868989348 0.8194966316
-0.070707552 0.16126284 1.4150001 0.4800181687 -0.2226278037 0.8485395908
-0.20351379 -0.040702756 1.6010001 0.9178483486 0.01310190186 0.3967149258
-0.10283592 -0.096615396 1.2523333 0.8707000613 -0.2083878219 0.4454838634
-0.077750564 -0.0041421251 1.3237144 0.6488661766 -0.5302451253 0.5457223058
0.030639499 0.14094169 1.3980001 -0.5509627461 -0.6513571143 0.5217029452
0.01434853 -0.036248915 1.2060002 -0.2307613492 -0.3938930333 0.8897176385
-0.099323705 -0.22766331 1.273 0.7472634912 0.1977632195 0.6344186664
0.059106618 0.049834993 1.322 -0.5286836028 -0.586928308 0.6131955981
-0.073897362 0.14425051 1.4150002 0.5424624681 -0.0357565172 0.8393187523
-0.17464796 -0.023269715 1.5254 0.8703197837 0.2861561179 0.4008218944
-0.15247545 -0.1369074 1.3151251 0.7724425197 -0.4327981174 0.4647777677
-0.13043486 -0.05863585 1.365 0.8050441742 -0.3385654986 0.487111181
0.044348653 0.075185008 1.3343638 -0.5306569934 -0.6174138784 0.5806920528
-0.1576415 -0.0044590775 1.4960001 0.6504030824 0.1077990755 0.7519010901
-0.13098277 -0.087191515 1.3379999 0.7978087664 -0.4547370672 0.3958729506
-0.18880244 -0.031696759 1.572 0.9011446834 0.0638603121 0.4287891686
-0.054956093 -0.16450368 1.2132223 0.6633737683 0.1423386484 0.7346257567
-0.095256746 -0.12515952 1.2338825 0.7209772468 0.03612966835 0.6920162439
-0.020834859 0.15074635 1.3980001 0.2969620228 -0.2922194302 0.9090771675
-0.047235314 -0.14495064 1.21 0.5404556394 0.06473098695 0.8388787508
-0.10218338 0.13498299 1.439 0.7025129795 -0.1611863524 0.693177104
-0.092946194 -0.14460041 1.2348573 0.5296482444 0.3059015572 0.7911365032
-0.1154861 -0.1159325 1.2739999 0.8607088327 -0.3702172041 0.3494560122
0.044679206 0.055255014 1.3146471 -0.4869738519 -0.6315575838 0.6033170819
-0.013892537 -0.028319402 1.2190001 0.2895874083 -0.6211006641 0.7282671928
0.0053848624 0.13253711 1.3870001 0.2414311469 -0.419840157 0.8748973012
-0.016038993 0.01095733 1.268 0.01621577516 -0.741548419 0.6707033515
-0.041677609 -0.039540295 1.2190001 0.3058165312 -0.6098266244 0.7311550379
-0.08947961 -0.05436736 1.2920001 0.8247628808 -0.3572917879 0.4383021295
-0.19073023 0.0054107867 1.5430001 0.9010425806 0.1959958822 0.3869209886
-0.0055449754 -0.0033259557 1.2653333 0.1171301827 -0.7877843976 0.6047117114
-0.16410528 -0.063766398 1.526 0.841316402 0.291798234 0.4550170302
-0.088924386 -0.094324656 1.2320002 0.781383276 -0.2141718268 0.5861489177
0.036425848 0.067513153 1.3232 -0.30329445 -0.6573567986 0.6898511052
-0.15754752 -0.076753922 1.536 0.8375501037 0.1505315751 0.5252143145
-0.054853786 -0.23238076 1.2337145 0.3454533517 0.4797784686 0.8065200448
-0.091609038 -0.2317819 1.2590001 0.6434445977 0.2186726928 0.7335947752
-0.16800703 0.062175829 1.5090001 0.8847377896 -0.2596449256 0.3870704472
-0.12791792 -0.1438833 1.2751428 0.7490013838 -0.2153059542 0.6266101003
-0.015807176 0.056706868 1.3870001 0.6159623861 0.03490252793 0.787002027
-0.17449787 -0.033817418 1.5430001 0.8879640102 0.2737910748 0.3695380986
-0.13838337 0.085356429 1.4752501 0.8112210035 -0.083297804 0.5787762403
0.02683433 0.0070597343 1.2527858 -0.5241698623 -0.5763378739 0.62696141
0.023044353 -0.1124702 1.177 -0.1223549917 -0.02713190392 0.9921154976
-0.14086981 -0.10827184 1.3280001 0.7280440927 -0.5416370034 0.4202155769
-0.084661283 -0.07486666 1.2342858 0.75936234 -0.2354189157 0.6065861583
0.017949751 0.1124851 1.365 0.4558545053 -0.6373292208 0.6212955117
-0.1817216 -0.17109904 1.3460001 0.8606334925 -0.174695462 0.4783215225
-0.1081982 0.12856492 1.452 0.7150832415 -0.2199991494 0.6635181308
0.030330036 -0.168384 1.1930001 0.01669077389 0.4333786964 0.9010573626
0.037779778 0.11526098 1.3724 -0.6061356068 -0.6726926565 0.4243632555
-0.15869069 0.077378109 1.4960001 0.822232604 -0.2878784537 0.4909781516
-0.10524207 0.0128344 1.464 0.3244113624 0.1959109604 0.9254059792
-0.15459506 -0.10464727 1.3565001 0.7828527093 -0.4383733273 0.4415545762
-0.13616431 -0.086215779 1.3565001 0.7266954184 -0.476372093 0.4949579835
-0.12278243 0.016256906 1.4640001 0.5415084362 0.2239424437 0.8103199005
0.11227558 0.10218339 1.439 -0.4095145464 -0.4061970711 0.8168854117
0.045629986 -0.0050227838 1.2658823 -0.3729579449 -0.6506144404 0.6615158916
-0.094608463 0.025241682 1.4543999 0.4325571954 0.3672738671 0.8234100938
-0.13077851 -0.0025896733 1.4770001 0.5325646996 0.194924742 0.8236377835
-0.0079592569 0.030699991 1.2970001 -0.08211423457 -0.7275685668 0.6811029315
0.024172522 0.13409466 1.3863333 -0.2611227036 -0.6779173017 0.6871994138
-0.15464006 -0.24513425 1.3465 0.7075656652 0.3469749987 0.6155965924
-0.20262396 -0.013974067 1.5940001 0.9169687629 0.1715563387 0.3601897657
-0.1281897 -0.042299163 1.4844999 0.4443855882 0.2985056937 0.8446394801
-0.11114293 -0.079060428 1.307 0.7520503998 -0.3209821582 0.5756654143
-0.11447618 -0.23565525 1.2951818 0.7669422626 0.1659648716 0.6198832393
-0.12454087 -0.26320016 1.3053335 0.705213964 0.1234281212 0.6981680989
-0.030431731 -0.13746747 1.197 0.5539057255 -0.01840273105 0.8323760033
-0.18154101 -0.076438323 1.557 0.750885725 0.02511762455 0.6599543095
0.034016415 0.091492444 1.3380001 -0.1919066012 -0.6610756516 0.7253625989
-0.056250717 -0.014378813 1.2864376 0.6982944012 -0.5331261754 0.4776623845
-0.13537027 0.035507265 1.4729167 0.6555680037 0.1755933911 0.7344369292
-0.021770263 0.040103115 1.307 0.05835142359 -0.7096657753 0.7021179199
-0.020670922 0.082683697 1.3870001 0.4353892505 -0.2385816574 0.868052423
-0.076951683 -0.16461867 1.2445295 0.6145043969 0.3604318798 0.7017643452
-0.066295773 -0.084490009 1.2123127 0.6511884928 -0.239842549 0.720020175
-0.044804104 0.16558558 1.4126472 0.2068035752 -0.2347888201 0.9497928619
-0.11652169 -0.16596028 1.2640001 0.5302800536 0.2361288518 0.8142765164
0.0031530194 0.10487598 1.3846002 0.6456119418 -0.1652292609 0.7455766201
0.036438126 0.15873733 1.4532001 -0.6376995444 -0.6972013712 0.3274897635
-0.1357269 0.054548834 1.4719093 0.6581187248 0.04222095013 0.7517294288
-0.13409705 -0.17490639 1.2765294 0.6526393294 0.1149962842 0.7488910556
0.015326764 0.075463466 1.3450001 0.740606904 -0.4849506021 0.4651067555
-0.12650698 -0.12466088 1.2852727 0.7386466265 -0.4824416041 0.4707985818
-0.0010835599 -0.0097520398 1.2360001 0.4251563847 -0.809959352 0.4039899707
-0.0048964028 0.14431007 1.3950001 0.1304122359 -0.3392899632 0.9315980673
-0.13599992 -0.21752934 1.3036667 0.4659404159 0.696826756 0.545281589
-0.13521005 -0.015601159 1.4829999 0.4265149236 0.1532824785 0.8913974762
-0.16213951 -0.099685766 1.3700001 0.7551156282 -0.4590643346 0.4680387676
0.028519545 -0.033665929 1.223 -0.5772732496 -0.468434453 0.668823421
-0.0351841 -0.21492219 1.21605 0.3725710511 0.4762493074 0.7964781523
-0.048002761 0.073850401 1.404 0.5288344622 -0.008947341703 0.848677814
-0.032775059 -0.049691219 1.2060001 0.320874691 -0.6205672622 0.7154968381
-0.14233837 -0.1263209 1.3048573 0.745865047 -0.4877662659 0.4536181092
-0.19674066 -0.025722276 1.5860001 0.928948164 0.1198289096 0.3502804339
-0.0051990189 -0.15483186 1.1853198 0.1636230797 0.2208603173 0.9614822865
0.005176716 -0.10456967 1.1809999 0.3012475371 -0.1995209008 0.9324383736
-0.01693983 -0.19293416 1.1969999 0.1499316096 0.3918965161 0.9077100754
-0.088648528 -0.062053971 1.2640001 0.8790616989 -0.4328773618 0.1996690333
-0.17853256 0.014619294 1.5160002 0.8263880014 0.1454559565 0.5439902544
0.01962769 0.061192211 1.317 0.5142277479 -0.7047200203 0.4888143539
-0.024464257 0.1149573 1.3950002 0.3896293342 -0.03645012155 0.9202501774
0.006029889 -0.084852576 1.1861999 0.2718327343 -0.4628495872 0.8437281847
-0.085849322 0.04506154 1.4358 0.5923062563 0.2965291739 0.7491620183
-0.16048522 -0.22052287 1.317 0.4270633161 0.6170733571 0.6609367728
0.0022730716 -0.043491431 1.21 -0.0001983799739 -0.4072649181 0.913310051
-0.19431491 -0.053746682 1.572 0.8439688087 -0.0386207439 0.5350001454
-0.036237892 -0.0025879201 1.2653333 0.5917013288 -0.6889072657 0.4186839461
-0.15408556 0.05438314 1.4770001 0.6044722795 -0.01685797609 0.7964478135
0.04636427 0.14669351 1.4450001 -0.5905272961 -0.7089038491 0.3856589794
0.034611385 0.014805146 1.2666665 -0.5962682366 -0.4935262203 0.6331635118
-0.15657766 -0.18514675 1.3036667 0.840621233 -0.1158575937 0.5290869474
-0.15233967 -0.1273354 1.3265001 0.7486352324 -0.5282794237 0.4005821943
0.047319252 0.13777021 1.4330001 -0.5793117881 -0.6975011826 0.4217700362
-0.18045306 -0.21188682 1.3280001 0.7412539124 0.2391752154 0.6271665096
-0.16612834 -0.03455469 1.516 0.8550447226 0.2876588702 0.4314520657
0.048487555 0.078053139 1.3490001 -0.614700675 -0.6174115539 0.4908625782
-0.054500908 -0.24306925 1.2433333 0.3111196458 0.5096951723 0.802131772
-0.13665761 -0.053246628 1.4960001 0.4675697088 0.3930659294 0.7917560935
-0.045655049 -0.063942082 1.2035999 0.4899846911 -0.3941594064 0.7775303125
-0.12526163 0.084359884 1.4580001 0.6786004901 0.01660169847 0.7343199253
-0.04532367 0.12567018 1.41 0.4080290496 -0.01998806186 0.9127501249
-0.11199329 -0.06811963 1.317 0.7911782265 -0.3506167829 0.5011036396
-0.023953458 -0.20341037 1.2053335 0.2742717266 0.3940538168 0.8772095442
-0.10609771 -0.0042781332 1.4640001 0.3842310309 0.1656832844 0.9082486033
-0.062484127 0.0036915457 1.3064445 0.6197531223 -0.4471016228 0.6449853778
0.055113405 0.0078733433 1.2830001 -0.368598491 -0.697501123 0.6145139337
-0.11413562 -0.15427653 1.257 0.6580793858 0.1123097017 0.744525373
-0.0043800771 -0.20254083 1.2060002 -0.04865721986 0.4513642788 0.8910121918
-0.095527962 0.10558004 1.4337503 0.5736524463 -0.02722259425 0.8186463118
0.032876931 0.10241518 1.3490001 -0.138956815 -0.6497647166 0.7473264933
-0.16917475 -0.082888834 1.5500001 0.8042919636 0.1111453846 0.5837474465
-0.1238169 0.10466699 1.456 0.7152338624 -0.1364554912 0.6854345202
0.065123439 -0.023777394 1.2519447 -0.1429203749 -0.6868011951 0.7126555443
-0.0049138083 -0.085173562 1.1963687 0.2994991541 -0.316601932 0.9000352621
-0.17386968 0.063695222 1.5272858 0.878415823 -0.2737260759 0.391739279
-0.097116031 -0.054839659 1.3032501 0.8151203394 -0.2692744434 0.5129035711
-0.10873472 -0.26617354 1.2920001 0.6824330091 0.2707065642 0.6789721251
0.046971798 0.1199017 1.4100001 -0.6542227864 -0.6404523253 0.4022603929
-0.043836839 0.095910855 1.404 0.4311223626 -0.1007043645 0.896656096
-0.10516782 -0.055461563 1.3141428 0.8174053431 -0.2640272081 0.5119943023
-0.016695932 -0.10506337 1.1940528 0.3980792761 -0.2213221788 0.8902524114
-0.0042509572 0.084963463 1.3845001 0.5769754052 -0.2976703942 0.7605864406
-0.091609038 -0.18211435 1.2590001 0.4674465656 0.2880178988 0.8357867002
0.063340917 0.062167939 1.3380001 -0.540124774 -0.6303722262 0.5575805902
0.01572652 -0.17510647 1.1960404 -0.04962220043 0.4613597393 0.8858243823
-0.17875406 0.034554694 1.516 0.8532639742 -0.148456648 0.4999012053
-0.1118992 0.10401699 1.4449999 0.6514120102 -0.047740262 0.7572207451
-0.0042452249 0.016553357 1.2849231 0.03599599749 -0.7644554973 0.6436707377
-0.085504174 0.16434182 1.4372858 0.6981955171 -0.2394920886 0.6746603251
-0.14431073 0.015601159 1.4829999 0.506286025 0.116556786 0.8544524312
-0.025124565 -0.074333787 1.1942003 -0.06606691331 0.04906990752 0.9966078997
-0.082505353 -0.057119094 1.2360001 0.7635857463 -0.2752028406 0.5841234326
-0.042769279 -0.023426726 1.243 0.3490915 -0.7906993628 0.5029211044
-0.16121155 0.063309796 1.4890001 0.7829204202 -0.1988327354 0.5894922614
-0.13486414 -0.19511741 1.2838826 0.4380404651 0.3680438399 0.8201611042
-0.077804171 -0.22464582 1.25 0.6092669368 0.1937783509 0.7689237595
0.024932399 -0.14440013 1.1849999 0.007157273591 0.1310591251 0.9913487434
-0.16279437 -0.17549464 1.317 0.8142790794 -0.1194235533 0.5680559874
-0.15344471 -0.041967787 1.4960001 0.6131560206 0.3521391153 0.707133472
-0.045323666 0.053976368 1.41 0.4409516454 0.3210366368 0.8381510377
-0.068878472 -0.13668407 1.2238001 0.5249812603 0.2687186599 0.8075796962
-0.17410249 -0.0053161066 1.516 0.8368390203 0.135577932 0.5303952098
0.0084440531 0.11339157 1.376 0.6070227623 -0.4039060473 0.6843852997
-0.051854305 -0.18478628 1.217 0.6455795765 0.2367491722 0.7260694504
-0.12129056 -0.067381695 1.33675 0.8513823748 -0.3270262182 0.4101243019
-0.17088163 -0.15461068 1.3260001 0.8349164724 -0.2269302756 0.5014151335
-0.15012917 -0.078067169 1.3700001 0.696646452 -0.4545436502 0.5550439954
-0.077236086 0.084710553 1.4210002 0.587890923 0.01791637763 0.8087417483
0.043485738 0.10424662 1.3590001 -0.69899863 -0.5671718121 0.4355652332
-0.08618708 -0.27254623 1.2767501 0.5138372183 0.3877336383 0.7652672529
-0.01586416 0.10494751 1.3920001 0.3424708843 -0.08031243831 0.9360895157
0.044670552 -0.11531237 1.1849998 -0.2136177719 -0.101278387 0.9716532826
0.062703848 -0.075229853 1.2027059 -0.2081005424 -0.5230355263 0.8265155554
-0.098922193 -0.073907383 1.2970001 0.8083889484 -0.293821454 0.5100747943
