# .PCD v0.7 - Point Cloud Data file format
VERSION 0.7
FIELDS x y z normal_x normal_y normal_z
SIZE 4 4 4 4 4 4
TYPE F F F F F F
COUNT 1 1 1 1 1 1
WIDTH 512
HEIGHT 1
VIEWPOINT 0 0 0 1 0 0 0
POINTS 512
DATA ascii
-0.047595989 -0.14473066 1.108 -0.2729691267 -0.2277566344 0.9346736073
-0.16209215 -0.38328043 1.9260001 0.0160271991 0.8309360147 0.556137085
-0.31459096 0.0013053566 1.4890001 0.8864498138 0.08912385255 0.4541625381
0.0045839152 0.06489858 1.376 -0.4825237691 -0.585539341 0.6513943076
-0.42077196 -0.20220843 1.6960001 0.8955945969 0.00400489103 0.4448530972
-0.3014141 -0.23312585 1.2563335 0.8193867803 0.450160414 0.3549097478
-0.19209521 -0.01855465 1.245 0.6454504132 -0.6448304057 0.4093745649
-0.19180064 0.13148597 1.376 0.6740606427 -0.4143441617 0.6115236878
-0.17456186 -0.25247207 1.1443334 0.2751763761 0.464833945 0.8415505886
-0.023664739 -0.021513401 1.2270001 -0.3875435293 -0.664963603 0.6384617686
-0.32548136 -0.11824962 1.3355 0.7777854204 -0.3765326738 0.503262341
-0.18504715 -0.10533711 1.1336 0.6229959726 -0.3420237601 0.7034882903
-0.22549391 -0.0048528975 1.3828752 0.2796770334 0.131532222 0.9510415196
-0.10274037 0.052325021 1.307 0.4383020103 -0.5331423283 0.7236370444
-0.10825168 -0.30213529 1.8430001 0.01240777411 0.8313542604 0.555604279
-0.26362577 -0.11666486 1.2254002 0.6902201176 -0.6186616421 0.375305146
-0.084959522 0.15635176 1.3460002 -0.1308398843 -0.5939838886 0.7937657833
-0.095216639 -0.043669645 1.1432858 0.1635819376 -0.8013415933 0.5754064918
-0.27146772 0.07130719 1.427 0.6936702132 -0.2531072795 0.6743577123
-0.24693464 -0.20543587 1.1835002 0.5719807148 0.3159669638 0.7569695711
-0.28397775 -0.061299164 1.427 0.8327313662 0.1409164667 0.5354447365
-0.13441439 -0.17537859 1.1057825 0.3908161819 0.0556095168 0.9187874198
-0.10479235 0.011723079 1.2156668 0.080566369 -0.795550704 0.6005066037
-0.01803128 0.042826481 1.2855 -0.6747896671 -0.6282166839 0.387301892
-0.25597966 -0.065693893 1.2920001 0.6587846875 -0.5726123452 0.4879732132
-0.17448524 0.044504333 1.3430003 0.552767992 0.1748401076 0.8147873878
-0.028704697 -0.080711484 1.1556667 -0.3982356191 -0.6167448759 0.6789949536
-0.045335937 0.096487693 1.3260001 -0.8398452997 -0.3811088204 0.3865435719
-0.19362426 -0.17450912 1.1473335 0.6556625366 0.1444379836 0.741110146
-0.19348471 -0.066935256 1.1930001 0.6989820004 -0.6473690867 0.3038707674
-0.10439347 -0.22585125 1.1450001 -0.3302220106 0.6866620779 0.6476485133
-0.11474281 -0.10673198 1.1186668 0.1904648989 -0.3360587656 0.9223815203
-0.14475052 0.1113764 1.3280001 0.1972901225 -0.09916007519 0.9753172994
-0.23364247 -0.27264044 1.1810001 0.3620800078 0.3676142693 0.8565966487
-0.3060652 -0.16644655 1.2442 0.7682799101 -0.3888987005 0.5084326863
-0.28505048 0.0049952469 1.4240001 0.7014381886 -0.07646456361 0.7086167336
-0.22584674 0.065764531 1.3818573 0.600063026 -0.1726802737 0.7810927629
-0.034348093 0.1172004 1.383 -0.7525371909 -0.5573968291 0.3507086337
-0.22751801 -0.12365668 1.1730002 0.6568083167 -0.4411769509 0.6115273833
-0.14663185 -0.031295244 1.2033334 0.4454766214 -0.7062126398 0.5502856374
-0.32190499 -0.055585925 1.4746667 0.5681487322 -0.1999806315 0.7982572913
-0.29094347 -0.11404381 1.2880001 0.792971909 -0.4598506093 0.3996660411
-0.15263994 -0.054870564 1.138 0.2530035079 -0.5708496571 0.7811017036
-0.060029749 0.03601785 1.245 0.3859658539 -0.7218167186 0.5744658113
-0.062610023 -0.014592435 1.1813636 -0.5724154711 -0.4719854295 0.6705000401
0.030398417 0.015807176 1.3870001 -0.8498253226 -0.161779955 0.5016215444
-0.2270216 -0.0720357 1.245 0.7074052095 -0.571721673 0.4155865312
-0.27372819 -0.26341686 1.2165002 0.7812760472 -0.05078784004 0.6221159697
-0.29447046 -0.20517157 1.2126154 0.5980885625 0.3520260155 0.7199776173
-0.26401779 -0.15832618 1.1866 0.7174659967 -0.362159133 0.595048964
-0.085997693 -0.1862042 1.1133335 -0.238538444 0.4306365848 0.8704317808
-0.095194593 0.10448331 1.3242501 0.3040903509 -0.1834140867 0.9348199368
-0.064844213 -0.097032182 1.1252105 -0.4046362638 -0.4453297257 0.7987182736
-0.14904824 0.0065276604 1.2410001 0.4081167281 -0.7025164962 0.5830191374
-0.13322002 0.019866142 1.3330001 0.3629795015 0.3510386348 0.8631440997
-0.30230534 0.045922428 1.455 0.8382316828 -0.1266420186 0.530404985
-0.062103067 0.071136236 1.2880001 0.646714747 -0.5676515698 0.5094425678
-0.14812949 -0.22072275 1.1190001 0.2911505103 0.2937566042 0.9104605317
-0.13433415 0.15554446 1.3441253 0.178664729 -0.2356670797 0.9552695751
-0.21052361 -0.21858193 1.149 0.548181951 -0.07366287708 0.8331088424
-0.1830916 0.094717376 1.3490001 0.5893296003 -0.09606919438 0.8021603823
-0.24903996 -0.041438278 1.4039999 0.46476385 0.05689145252 0.883605063
-0.15498544 -0.13447119 1.1162412 0.2475222647 0.0280224625 0.9684768915
-0.028143629 -0.044821337 1.189 -0.4037730396 -0.5959999561 0.6940831542
-0.25921491 0.035202026 1.404 0.6719056368 -0.09655927867 0.7343153954
-0.18428409 0.0071798996 1.3649999 0.5640934706 0.307616502 0.7662706375
-0.29659036 -0.02673132 1.452 0.9007170796 0.1686059386 0.4003508389
-0.017898612 0.017898612 1.25 -0.4976658225 -0.5363349915 0.6816696525
-0.09555579 -0.14574674 1.101 -0.06652323157 -0.08955381066 0.9937579036
-0.22456913 -0.095317557 1.2047499 0.5579859614 -0.657965064 0.5057011247
-0.10404152 -0.024440074 1.1819412 -0.1251703203 -0.772111237 0.6230382323
-0.21985134 -0.033479899 1.273 0.6940407157 -0.4918926358 0.5256891847
-0.061139412 -0.054559153 1.1645555 -0.7339766622 -0.4545231164 0.5046651959
-0.14298609 0.065097757 1.3260001 0.2955770493 -0.1998697519 0.9341768026
-0.22636937 0.10494751 1.3920001 0.6770231724 -0.2542258501 0.6906582713
-0.051529586 0.0090305433 1.2120001 -0.7845167518 -0.402374655 0.4718348384
-0.018929573 0.067605615 1.322 -0.4977766275 -0.734074831 0.4619009793
-0.11585195 -0.067483902 1.1183335 -0.2060530186 -0.4463104308 0.8708324432
-0.085673712 0.037621561 1.2746667 0.506719172 -0.7568975091 0.4127249122
-0.26515177 -0.094854012 1.2654999 0.6297839284 -0.6173946261 0.4713768065
-0.017870849 0.091737032 1.3590001 -0.7477380633 -0.4714184403 0.4676029086
-0.183965 -0.071766563 1.153 0.7210578918 -0.5091779232 0.4699077904
-0.15155235 -0.087636687 1.1182001 0.459271729 -0.4519582689 0.7647242546
-0.23472786 -0.16517025 1.1630001 0.3874431252 0.2418103665 0.8896154165
-0.057046454 0.13272032 1.3280001 -0.3769441843 -0.56198138 0.7362676263
-0.20645761 -0.13529703 1.1432002 0.637389183 -0.1290441304 0.7596595287
-0.28212535 -0.14854327 1.2190001 0.7248058915 -0.374797672 0.5780857205
-0.17282233 -0.19402486 1.1248751 0.6217876673 0.06868474185 0.7801682353
-0.12780221 -0.036768496 1.1570001 -0.1160183251 -0.7413827777 0.6609775424
-0.20574303 -0.25866911 1.1610001 0.3869643807 0.4429741204 0.8087227345
-0.20531094 0.036241401 1.3649999 0.4778859019 0.2007973045 0.8551639915
-0.012220441 0.045333892 1.3490001 -0.7735692859 -0.5117149949 0.3738158345
-0.20115028 -0.047329478 1.2270001 0.7087037563 -0.5055861473 0.4920585752
-0.29039583 -0.1347875 1.25 0.7129508257 -0.5752452612 0.4009912312
-0.25909182 -0.0067696199 1.404 0.5768862963 0.09758769721 0.8109740019
-0.16566469 0.1448822 1.3546251 0.5640385151 -0.4084500074 0.7176553011
-0.11480366 -0.20521076 1.1132631 -0.2327208072 0.5147830248 0.8251299858
-0.25404307 -0.2457138 1.1871819 0.7025613785 -0.06946334988 0.7082247734
-0.30804136 -0.081803516 1.4580001 0.761562109 -0.1893628389 0.6198103428
-0.11253828 0.02220655 1.2880001 0.6982207298 -0.5013406873 0.5110238194
-0.31390879 -0.13303794 1.3034286 0.8180506825 -0.2481199354 0.5188733935
-0.077077411 0.00784529 1.2340001 0.1989506036 -0.8700093627 0.4511123598
-0.11452247 0.12971424 1.3330001 0.1857871562 -0.2198953629 0.9576686025
-0.26792395 -0.22470427 1.2122223 0.7367709279 0.1158702299 0.6661401391
-0.30804136 0.0089472597 1.4580001 0.91685009 0.05987313762 0.394716531
-0.25385499 -0.12565224 1.1958572 0.6486375928 -0.5169692039 0.5585804582
-0.078829117 -0.065573417 1.126 -0.3601255119 -0.3133149147 0.878716886
-0.038906466 0.061138734 1.268 -0.5321220756 -0.510869205 0.6751731634
0.014658963 0.036497824 1.3649999 -0.5741301775 -0.1144353598 0.8107275367
-0.084986471 -0.11622284 1.1066498 -0.2088765651 -0.4040665627 0.8905620575
-0.24986053 0.073850393 1.404 0.7045212388 -0.2626731694 0.6592819095
-0.23058526 -0.2326349 1.169 0.5889615417 0.02873461694 0.8076500297
-0.17410281 -0.027235951 1.218375 0.4338549078 -0.6132850647 0.6600388885
-0.31642056 -0.19447036 1.2346667 0.8323341012 -0.1117756367 0.5428868532
-0.27882713 -0.18637285 1.1930001 0.671449244 0.0413934961 0.7398935556
-0.16655292 -0.16382256 1.124154 0.5342777371 -0.05306562036 0.8436416984
-0.23545025 0.024272379 1.3843751 0.4456571341 0.04368389398 0.8941372633
-0.20777877 0.094881631 1.3700001 0.7098557353 -0.1679468453 0.6840311885
-0.1963412 0.064256169 1.3573335 0.5953657627 -0.02412783913 0.8030924201
-0.1239466 -0.13683027 1.1060587 0.3752325475 -0.3728270531 0.8486462831
-0.079294503 -0.0031717799 1.2060001 0.4192416966 -0.7843931317 0.457125634
-0.27745798 -0.088194422 1.2953334 0.6940895319 -0.6033905149 0.3926316798
-0.069503009 -0.029211409 1.149 -0.3607356846 -0.6494446993 0.6693962216
-0.28318524 -0.024949932 1.4230002 0.7776323557 0.07916488498 0.6237154007
-0.28478232 0.034972865 1.42475 0.7495293617 -0.1163774282 0.6516609788
-0.18313941 -0.22390041 1.138 0.4946191609 0.1594716161 0.8543539643
-0.22238663 -0.19621423 1.1689999 0.4071643353 -0.06713981926 0.9108839035
-0.075624771 0.085688904 1.3120002 0.5405803323 -0.2451048344 0.8047959805
-0.046006061 -0.025320938 1.2036002 -0.5725442767 -0.6239054203 0.5319164395
-0.31528682 -0.026122971 1.4751333 0.8025305271 -0.04414273053 0.5949757695
-0.11459299 0.074497789 1.3228575 0.2570936382 -0.2000796944 0.9454475045
-0.16492489 0.014137567 1.3437502 0.581558764 0.2113265246 0.7855765224
-0.1346103 -0.0074583036 1.2158571 0.4355463386 -0.6883589029 0.5800529122
-0.2454706 -0.095159106 1.2335001 0.6078991294 -0.703240931 0.3686608672
-0.20470767 -0.10406339 1.15525 0.7392371893 -0.3077167869 0.599031508
-0.28765422 -0.24157192 1.2320001 0.825276196 -0.09395007044 0.5568596125
-0.29781595 -0.054961741 1.4580001 0.8021125793 -0.154214859 0.5769169331
-0.054817967 -0.075089477 1.1452001 -0.460814625 -0.5697956085 0.6804283857
-0.043401767 -0.11403755 1.1325715 -0.3908058703 -0.4446191788 0.8059681058
-0.18412817 -0.13430728 1.1260002 0.4730592966 0.1591297388 0.8665406108
-0.049062651 0.13282815 1.365 -0.7797803879 -0.5846820474 0.2238066196
-0.084850602 0.13470633 1.3279998 0.08681396395 -0.4248031676 0.9011135101
-0.24490428 -0.075161457 1.2655001 0.61823982 -0.5946503282 0.513975203
-0.066210538 -0.16439207 1.1051999 -0.2953962386 0.1411448121 0.9448910952
-0.038197119 0.0032486762 1.2348573 -0.6176186204 -0.4338850975 0.6559656858
-0.1665315 0.11629733 1.3430002 0.4618792236 -0.2166914493 0.860065341
-0.096554257 -0.085247129 1.1246001 0.05332027376 -0.2761106789 0.9596456885
-0.048892576 0.092099972 1.2970001 -0.09728229046 -0.7284315825 0.6781766415
-0.16421719 0.075070709 1.3379999 0.3843030035 -0.01555268187 0.9230760336
-0.2322439 -0.030398417 1.3870001 0.4114153981 0.2354001254 0.8805249333
-0.12578052 0.045608215 1.3220003 0.3882263899 -0.1073427647 0.9152910709
-0.20810401 -0.27850735 1.1810001 0.2670493424 0.5357402563 0.8010411859
-0.25832823 -0.27087861 1.1930001 0.6942823529 0.1386344731 0.7062241435
-0.06811963 0.11199329 1.317 0.01195883099 -0.4151490927 0.9096747637
-0.15158056 0.037021983 1.3280001 0.4708366096 0.1810875088 0.8634351492
-0.036153149 0.034687802 1.2561667 -0.6066526771 -0.5267828107 0.5953758359
-0.23957458 -0.048364822 1.2830001 0.6959376931 -0.4957860112 0.5194872022
-0.12527619 0.014252979 1.2360001 0.3197481632 -0.7575675845 0.5690804124
-0.033634897 0.055603642 1.3050001 -0.572927475 -0.6819798946 0.454595983
-0.21316782 -0.076173216 1.2170001 0.6460081935 -0.5965025425 0.4762962461
-0.11224451 -0.16664945 1.097 0.05580788851 0.07023078203 0.995968461
-0.1526715 -0.039694589 1.161 0.3978832662 -0.8471347094 0.352209717
-0.063502774 0.055127759 1.2673846 0.561389029 -0.5789244771 0.5913449526
-0.27561569 -0.11457825 1.2534546 0.6664325595 -0.6099726558 0.428720206
-0.2446256 -0.14549616 1.1754 0.6415581703 -0.3586193621 0.6780820489
-0.076254115 0.056461718 1.3025556 0.5314873457 -0.5238576531 0.665653348
-0.18305618 -0.047522929 1.2046667 0.5856420398 -0.630256176 0.5097063184
-0.11802826 0.096993521 1.3330001 0.1820825636 -0.1143634915 0.9766099453
-0.29325727 -0.17956588 1.2120001 0.7665633559 -0.3360214233 0.5472387671
-0.20930417 -0.04383333 1.25 0.7241790295 -0.5050184131 0.4695967734
-0.27459911 -0.044529468 1.4109375 0.6107251048 0.04940968752 0.790299654
-0.26105466 -0.18160325 1.177 0.5202717781 0.1498541385 0.840750277
-0.19791029 -0.0043621184 1.3816001 0.3133843541 0.2331576198 0.920558393
-0.14634559 -0.19558224 1.1121501 0.3547117412 0.1519280374 0.9225494266
-0.12193995 -0.012227454 1.1956667 0.2808251679 -0.8235988021 0.4927699864
-0.14544952 0.13489272 1.3379998 0.202976495 -0.2740152776 0.9400618076
-0.03902657 0.10052298 1.3490001 -0.7692891955 -0.4684372246 0.4344660044
-0.020834859 0.1041743 1.3980001 -0.7816266418 -0.5495720506 0.2950090766
-0.31288847 -0.10968415 1.317 0.7777854204 -0.3765326738 0.503262341
-0.16027483 -0.0096810302 1.2270001 0.4004272223 -0.685351193 0.6082366705
-0.13768502 -0.10357692 1.1071428 -0.1625773162 0.2225949168 0.9612596631
-0.21351391 0.014475521 1.3760003 0.3308572173 0.2783857584 0.901684463
-0.13290705 -0.12109309 1.123 -0.04608764872 -0.09914856404 0.994004786
-0.20218445 -0.19508433 1.1570001 0.5844019055 -0.1519246846 0.797115624
-0.17332603 -0.085011974 1.1367692 0.509719491 -0.3377666175 0.7912646532
-0.033976533 -0.062292431 1.1745001 -0.33767277 -0.6576883793 0.6733669639
-0.22448581 -0.14546339 1.155588 0.5968535542 -0.09175225347 0.7970867753
-0.11723751 -0.052103806 1.143 0.1083990037 -0.7854773998 0.6093233228
-0.18223679 -0.15397014 1.138 0.5344439149 0.2140113562 0.8176605701
-0.22882402 -0.055405334 1.2640001 0.7063903809 -0.4663339853 0.5324896574
-0.2540873 0.014338759 1.3962858 0.6242634058 -0.01770695671 0.7810131907
-0.29100686 0.054173619 1.4370002 0.7424702048 -0.2103230953 0.6360048652
-0.090299293 0.025022697 1.2410001 0.006246611942 -0.8630520105 0.5050764084
-0.29364479 -0.21996267 1.2360001 0.6501857638 0.5761624575 0.4952729344
-0.18394056 0.12279182 1.356143 0.6279508471 -0.3971853554 0.669269383
-0.06339556 0.023996413 1.2256669 0.3753650486 -0.7893298268 0.4858595431
-0.065308899 -0.12424972 1.1145999 -0.3136755824 -0.3149192333 0.8957865238
-0.1458185 -0.15506597 1.1139473 0.4261911511 -0.07001632452 0.9019195437
-0.24590403 0.094980985 1.4111111 0.6947193146 -0.3047958314 0.6515094638
-0.24450368 -0.10603909 1.2136668 0.5874511003 -0.6705874801 0.4530051053
-0.10523959 -0.12454744 1.1013199 0.2245843858 -0.3023461103 0.9263631701
-0.10590333 0.15433064 1.3380001 0.09581849724 -0.3266596794 0.9402724504
-0.094610281 -0.035936546 1.1643686 0.2647324502 -0.8343797326 0.4834534526
-0.30527198 0.008793843 1.4330001 0.8416687846 -0.05961924419 0.5366928577
-0.2147806 -0.17548667 1.1650001 0.3832111359 0.3186883926 0.866941154
-0.20884171 0.11440895 1.381 0.6853787899 -0.2952824831 0.6656306386
-0.16997427 -0.053943928 1.161 0.6198409796 -0.7092656493 0.3357668519
-0.091211028 0.070428766 1.317 0.3976918459 -0.3437416852 0.8506954908
-0.1649906 -0.11455087 1.1146153 0.4233167768 -0.007976637222 0.9059466124
-0.1384787 0.088229045 1.3330001 0.1502871066 -0.05210017785 0.9872686267
-0.039642867 0.072489813 1.2920001 -0.8105334044 -0.5478678346 0.2070662975
-0.27632609 -0.16507007 1.2037143 0.7388001084 -0.4003506899 0.5421196818
-0.058126796 -0.035770338 1.177 -0.7437401414 -0.3377188742 0.5768852234
-0.062911354 0.14600182 1.3540001 -0.4956433773 -0.7573724389 0.4251172245
-0.3157315 0.025773998 1.47 0.9030587673 0.01110111922 0.4293735325
-0.24305221 0.044719443 1.3870001 0.6021097898 -0.1015935317 0.7919233441
-0.13828132 -0.071274169 1.1240001 0.3178394735 -0.6547292471 0.6857898235
-0.17533334 -0.0054791667 1.25 0.478194654 -0.7084408998 0.5190774202
-0.066355079 -0.054729424 1.1434 -0.7422219515 -0.3044017851 0.5970310569
-0.11737259 -0.22330637 1.1251001 -0.2484844178 0.6935076118 0.6762415767
-0.12763496 -0.084312893 1.1079999 -0.1828198284 -0.2719298303 0.9447915554
-0.23625502 -0.11296363 1.1947144 0.530082047 -0.6861745119 0.4981742203
-0.19474022 -0.24486066 1.1467144 0.3960353136 0.368483603 0.8410564065
-0.042211674 -0.094226055 1.1409999 -0.4677228928 -0.455540061 0.7574421167
-0.2750296 -0.20716791 1.202 0.4625349343 0.5350792408 0.7069311142
-0.16499689 -0.23458216 1.1338003 0.3280596733 0.4401823878 0.835832715
-0.074614435 -0.14438474 1.1053597 -0.2664981782 -0.132530123 0.9546803236
-0.15948057 -0.04065191 1.189 0.5456376672 -0.796338141 0.2610079348
-0.21052361 -0.16015911 1.149 0.3916586637 0.3983138502 0.8294272423
-0.26777244 -0.144391 1.2038182 0.7631157041 -0.3526097536 0.5415909886
-0.018156352 0.030754635 1.268 -0.5747050047 -0.6304880977 0.5217268467
-0.25403911 -0.22603117 1.195182 0.7576344013 -0.02500539087 0.6521999836
-0.23621504 0.085986272 1.3932002 0.659153223 -0.2583948374 0.7062216997
-0.26433346 0.054103792 1.4117857 0.6887360215 -0.218354553 0.6913493872
-0.30022764 0.025335668 1.4450001 0.8451424241 -0.1595897526 0.5101621151
-0.084221371 -0.018715957 1.186 0.3868348897 -0.7637864351 0.5167098641
-0.045388252 -0.012508572 1.223 -0.6686466932 -0.4461337924 0.5948749185
-0.10555869 -0.18497242 1.1046797 -0.1927704662 0.3488353491 0.9171441793
-0.039968986 -0.12575608 1.1120001 -0.3651391864 -0.3489229381 0.8630910516
-0.27213871 -0.24549577 1.2060001 0.7704870701 -0.158420831 0.6174564362
-0.025485283 -0.035045043 1.2113334 -0.3627091646 -0.7088076472 0.6050072312
-0.19126938 -0.071983099 1.1730001 0.7368605137 -0.6281784773 0.2498567551
-0.27865374 -0.13284656 1.2320001 0.7328796387 -0.538726747 0.4155248404
-0.11765546 0.027682284 1.3157501 0.7138918638 -0.0708065033 0.6966669559
-0.26717415 -0.025251757 1.41 0.480792433 0.03951918334 0.8759434223
-0.0084440531 0.080821656 1.376 -0.763151288 -0.489078939 0.4223764539
-0.1888293 -0.20450734 1.1416668 0.6533945203 -0.08752933145 0.75194031
-0.29141188 -0.041630268 1.439 0.9159014821 0.06938771158 0.3953604102
-0.069037497 0.017533334 1.25 0.4716775417 -0.7600572109 0.4470272064
-0.22236006 0.046643343 1.376 0.5665646195 0.03610069305 0.8232261539
-0.10382609 -0.0044289199 1.2035999 -0.04644027725 -0.7650904655 0.6422459483
-0.097465172 -0.20182182 1.123 -0.3442540467 0.6030471325 0.7195993662
-0.27370951 0.015126546 1.4107692 0.6304162741 -0.06348448247 0.7736569047
-0.024757944 0.079000823 1.3450001 -0.6288071275 -0.6512105465 0.4248839915
-0.067963868 0.03582878 1.2640001 0.5345721245 -0.6257095337 0.5680847168
-0.22863203 -0.25502583 1.1730002 0.4174356759 0.2468970418 0.8745223284
-0.16421719 0.095011391 1.3379998 0.3876940012 -0.05547899008 0.9201170802
-0.29262406 -0.165115 1.2256668 0.7817980051 -0.3529316485 0.5140342116
-0.17647518 0.024270156 1.3563528 0.5971878171 0.2370404452 0.7662757635
-0.097332448 0.038345046 1.294 0.517156601 -0.6576710939 0.5477387309
-0.26145503 -0.078696318 1.2763335 0.6239008307 -0.6287180185 0.4641781151
-0.050739713 0.12744191 1.3460001 -0.7859625816 -0.5325098038 0.3141594231
-0.17077291 -0.2142065 1.126 0.4889346361 0.1999525875 0.8490947485
-0.19429976 -0.086913347 1.1456156 0.6588888168 -0.3590734601 0.6610081792
-0.19787478 -0.061237503 1.2113334 0.6772035956 -0.5449308157 0.4944144785
-0.064951487 0.0041932217 1.1949999 -0.1364602894 -0.7710236311 0.6220138073
-0.29337427 -0.14707211 1.2348573 0.7672272325 -0.4026601315 0.4992266297
-0.21753256 -0.10721897 1.1760001 0.6421784759 -0.6017164588 0.474914819
-0.045975909 0.02353061 1.2340001 -0.5875052214 -0.5924220085 0.5512474775
-0.12100016 -0.022280484 1.1730001 -0.2785865366 -0.7349416614 0.6182639003
-0.18348478 0.075518027 1.3476156 0.5325962901 -0.04242897779 0.845305264
-0.30632055 -0.044289008 1.4715557 0.6596816182 -0.1106703579 0.7433519959
-0.084948875 -0.16507138 1.1011332 -0.201634109 0.2085884064 0.9569924474
-0.2441822 -0.0045321272 1.3870001 0.4917263687 0.1132465228 0.8633541465
0.020506987 0.054283198 1.376 -0.5223187804 -0.4289862812 0.7369897366
-0.22465619 -0.21494667 1.1648002 0.573992908 -0.1102954224 0.8113982081
-0.1255022 0.11386006 1.3280001 0.110284403 -0.1004333943 0.988812685
-0.033337377 0.043867148 1.2737142 -0.7370129824 -0.5739885569 0.3568598926
-0.15526959 -0.074208744 1.1318946 0.3937414587 -0.4639212787 0.793564558
-0.30674216 -0.0089840796 1.4640001 0.8840376735 0.1321890205 0.4483340681
-0.23158729 -0.087917387 1.223 0.6028363705 -0.6586794257 0.4502552152
-0.18727703 -0.26157716 1.161 0.3187743425 0.5208548307 0.7918921113
-0.17214948 -0.066398926 1.138 0.4655946493 -0.4848916829 0.7403388619
0.00238278 0.051229771 1.3590001 -0.4255231023 -0.5213686228 0.7396653891
-0.015057222 0.055215426 1.3058461 -0.459441781 -0.7280986905 0.5087096691
-0.23998749 -0.084379166 1.25 0.6275912523 -0.6494395137 0.4293687344
-0.13368465 -0.058861151 1.138 0.0828762427 -0.6632476449 0.7437971234
-0.043765828 -0.07022889 1.161 -0.3586053252 -0.655543983 0.664578259
-0.074374646 0.047334302 1.2855 0.6052066088 -0.6804279685 0.4132103026
-0.24083348 -0.18139373 1.169 0.2942436337 0.2267959118 0.9284310937
-0.15538725 -0.17493124 1.1147599 0.4423055649 -0.03978509083 0.8959815502
-0.03422419 0.10793784 1.365 -0.7482683063 -0.5389115214 0.386870712
-0.047177985 0.11458664 1.3255999 -0.7010710239 -0.421615243 0.5751000047
-0.048661135 -0.050731823 1.1810001 -0.4223322868 -0.56580019 0.7081705928
-0.21671112 -0.020581502 1.381 0.2159932703 0.1749048531 0.960601449
-0.2186482 0.085473768 1.381 0.6524841189 -0.1736495495 0.7376382947
-0.17667946 -0.05368137 1.189 0.6089293361 -0.7401196957 0.2853556573
-0.1256918 -0.15539879 1.101 0.2873335481 -0.1585795283 0.9446120858
-0.30597332 -0.18536489 1.2233075 0.7931684256 -0.3003063798 0.5298112035
-0.21198939 -0.24241848 1.1570001 0.5177794099 0.258363694 0.815568924
-0.24947286 -0.16432713 1.1730001 0.5210185647 -0.0991454199 0.8477675915
-0.2930004 -0.01701084 1.4375 0.8612504005 0.2293445021 0.4534852207
-0.035791669 0.070428766 1.317 -0.577731967 -0.6818580031 0.4486596286
-0.10383639 -0.061509322 1.13 -0.1327332854 -0.4825605154 0.8657466173
-0.12530372 -0.21855299 1.108 -0.1069803908 0.5519435406 0.826990664
-0.19397996 0.10451739 1.3590001 0.6532547474 -0.2045638114 0.7289800048
0.030069666 0.025255011 1.3720001 -0.6943705678 0.09168057144 0.713753581
-0.18344566 -0.1852344 1.1359999 0.7346818447 0.002542657079 0.678407073
-0.20840558 -0.12139992 1.1539999 0.724744916 -0.3375964463 0.6006442308
-0.27462488 -0.0052006789 1.4123334 0.601226151 0.05006493255 0.7975090146
-0.17750306 0.13681698 1.3650001 0.6242938042 -0.4241446257 0.6560171843
-0.079460189 -0.089270093 1.1190001 -0.2650393844 -0.4230640829 0.8664703965
-0.21220681 -0.05846402 1.2350001 0.7307481766 -0.5259029269 0.4352392554
-0.26329929 -0.20200872 1.189 0.4667305648 0.4903733432 0.7360003591
-0.094180562 -0.1023983 1.1124288 0.1352937818 -0.5294219255 0.837501049
-0.21180704 0.061029151 1.365 0.618070364 -0.09529351443 0.7803257108
-0.26303944 -0.10587064 1.245 0.6414338946 -0.6622275114 0.3873206079
-0.28123817 -0.10671487 1.268 0.679510951 -0.6029103994 0.4180477262
-0.17505147 -0.015149238 1.2345002 0.4594365358 -0.6933196187 0.5551810265
-0.051633913 -0.0052687665 1.202 -0.8184707761 -0.3177261949 0.4787020683
-0.066420063 -0.02520592 1.1656666 -0.6175907254 -0.6599935293 0.4277735949
-0.30305663 -0.11504906 1.3036667 0.7777854204 -0.3765326738 0.503262341
-0.18794273 0.044314917 1.3540001 0.5444911122 0.2343812734 0.8053538799
-0.20200574 -0.027091455 1.2564001 0.6870031953 -0.5707205534 0.4497828484
-0.26823369 -0.060568899 1.4100001 0.5404493213 0.08838177472 0.8367217183
-0.16778634 -0.14387715 1.123 0.4567398727 0.1167627797 0.8819042444
-0.1647702 -0.036544375 1.2048001 0.4123364389 -0.7290912271 0.5462642312
-0.095116019 0.085837826 1.3231251 0.3366753161 -0.1592696756 0.9280532598
-0.17183605 -0.097687587 1.1255715 0.574798286 -0.4423705041 0.6884150505
-0.19300517 0.02621058 1.3590001 0.4686179161 0.2997204661 0.8310023546
-0.20777877 0.078067169 1.3700001 0.6806351542 -0.1425679773 0.7186168432
-0.19503292 0.085622288 1.3565 0.6384078264 -0.09663155675 0.7636083961
-0.15510601 0.057088617 1.3339092 0.4231490195 -0.08059793711 0.9024682045
-0.049667548 0.051874995 1.2590001 -0.1546781212 -0.6198003888 0.7693647742
-0.27497858 0.055034366 1.4242308 0.6869948506 -0.2296727747 0.6894116998
-0.24413641 -0.02382173 1.3961539 0.5002722144 0.2271107584 0.835552752
-0.31059775 -0.065187179 1.4580001 0.6677385569 -0.189419359 0.7198927402
-0.1226937 0.14286897 1.3380001 0.1475354284 -0.2621594071 0.9536800981
-0.19805479 -0.14904122 1.141 0.4538701773 0.2877444327 0.8433297276
-0.11268586 -0.086879946 1.1236001 -0.3456711173 -0.0832843855 0.9346524477
-0.28074986 -0.22373936 1.2270001 0.7532289028 0.3382298648 0.5641336441
-0.12511373 -0.19494779 1.1063198 0.1018467993 0.2870614529 0.9524825215
-0.083760627 0.028003462 1.2553334 0.2534945309 -0.841547966 0.4770089984
-0.2439601 -0.24395721 1.1750002 0.6124970317 0.04755216464 0.7890412807
-0.19445926 -0.12497884 1.1336191 0.6264904141 -0.1150171012 0.7708961368
-0.27231771 0.034151178 1.4128572 0.6618784666 -0.1367384046 0.7370342612
-0.17148039 0.13127118 1.3490001 0.589215219 -0.3365907073 0.734528482
-0.025431043 0.0043076174 1.244158 -0.5172197819 -0.5124024749 0.6855124831
-0.28484625 -0.044489369 1.423 0.7935880423 0.0780652687 0.6034266949
-0.25988784 -0.12198816 1.21 0.6692464948 -0.5931750536 0.4474957585
-0.21767852 -0.26810879 1.174 0.3054229617 0.4446657002 0.8420149684
-0.17008209 0.059821978 1.3380001 0.425537616 -0.02562283725 0.9045779109
-0.21806251 -0.10354047 1.1930001 0.5637697577 -0.6908615828 0.4526299834
-0.052554846 0.071566246 1.2754999 0.2377556413 -0.6986567974 0.6747969389
-0.067853823 0.075393334 1.3030001 0.6237194538 -0.3418312669 0.7029405236
-0.22195797 0.027744746 1.376 0.4917801619 0.1694537103 0.8540712595
-0.075475983 0.14467366 1.3357275 -0.0962594524 -0.5979707241 0.7957167029
-0.30619723 -0.20415251 1.2229998 0.6483350396 0.3788982034 0.6603770256
-0.3180865 -0.014320348 1.485 0.8241975307 0.02980947681 0.5655173063
-0.27037013 -0.12930745 1.2190001 0.7428966165 -0.5157411695 0.4267501831
-0.075375102 -0.1047402 1.1166399 -0.3530423045 -0.4170015156 0.8375386
-0.23812896 -0.13252395 1.1810001 0.6251329184 -0.4380109608 0.6460303664
-0.25359902 -0.086815514 1.2571111 0.5972341895 -0.6587031484 0.4576259553
-0.23609532 -0.21563558 1.1752859 0.6721023321 0.007358340546 0.7404217124
-0.26226071 0.073517263 1.4133334 0.711818397 -0.2522362471 0.6555085182
-0.25441289 -0.14407167 1.1873529 0.67905581 -0.3792354167 0.6285409331
-0.11228873 0.040103115 1.307 0.6541778445 -0.3838727474 0.6516848207
-0.096257687 -0.016600417 1.1955266 -0.0172063075 -0.8061207533 0.5915008783
-0.064768851 0.095278114 1.3065451 0.3004771471 -0.5066677332 0.8080849648
-0.16187124 0.02815152 1.3380001 0.5258615017 0.2283765674 0.8193374276
-0.15277232 -0.37773374 1.9150001 0.01240777411 0.8313542604 0.555604279
-0.1356218 -0.045777056 1.1459526 -0.03990446031 -0.7030375004 0.7100322843
-0.081590489 -0.039284311 1.149 0.1615964025 -0.6981700659 0.697456181
-0.19858223 -0.032309547 1.2423334 0.7165010571 -0.5299122334 0.4536730647
-0.042719088 0.084283613 1.317 -0.816283524 -0.4900198877 0.3058785498
-0.074173011 0.12516697 1.3220003 0.02890808508 -0.402331382 0.9150375724
-0.20388198 -0.073945954 1.205 0.6646550894 -0.5764157772 0.4753719568
-0.1981705 0.1189023 1.3700001 0.6733109355 -0.371458292 0.6392739415
-0.15472828 0.15270244 1.3472859 0.4047536254 -0.4054713249 0.8196142316
-0.092750713 0.0075131585 1.2241429 -0.2179258466 -0.7524416447 0.6215624213
-0.10408874 -0.21829244 1.1308 -0.3755394518 0.6682232618 0.6422210336
-0.03701324 0.08390864 1.3372859 -0.7618246078 -0.540489912 0.3570628464
-0.12569855 0.065178521 1.327625 0.2393018454 -0.1935267746 0.9514631033
-0.06460914 -0.084484361 1.13384 -0.495940119 -0.4336087406 0.7523475885
-0.12450983 0.002917672 1.2258574 0.3881095052 -0.708838284 0.5889985561
-0.28176913 -0.24685968 1.2190001 0.80750072 -0.1170646995 0.5781335831
-0.11697433 -0.0019100811 1.2108001 0.2866660953 -0.7791402936 0.5574611425
-0.17671052 -0.11545713 1.124154 0.5396876335 -0.1307356358 0.8316522837
-0.26292589 -0.25453678 1.1956668 0.748473227 -0.003835596377 0.6631538868
-0.044505082 -0.037736773 1.1875001 -0.445764035 -0.559619844 0.6986559033
-0.081974469 0.10506587 1.317 0.3368789852 -0.2669888437 0.9029006362
-0.074382149 -0.0055302074 1.1838889 0.2238201797 -0.7269007564 0.6492455602
-0.19826099 -0.11489856 1.1441113 0.7055022717 -0.3047272563 0.6398499012
-0.28892449 -0.23222752 1.2436666 0.8533909321 0.2742245197 0.4433111548
-0.2858029 -0.19580592 1.2023076 0.6377727389 0.2418309003 0.7312754393
-0.11415965 -0.042682018 1.1552857 -0.08610250801 -0.8341522217 0.5447719097
-0.11855977 -0.12440964 1.1124287 0.4174701273 -0.3587951362 0.8348561525
-0.24612038 -0.26494709 1.1838573 0.5419873595 0.1854876727 0.819660902
-0.03058164 0.047571439 1.2920001 -0.7168982625 -0.6090884209 0.3392169774
-0.10477921 0.11525713 1.3279997 0.1671350151 -0.1439720541 0.9753655195
-0.13970298 0.04387366 1.317 0.3695946634 0.05499118194 0.9275644422
-0.15483946 -0.024172051 1.2134999 0.3746363223 -0.6648837328 0.646202147
-0.14550415 -0.11425775 1.1139199 -0.09778375924 0.2191067338 0.9707886577
-0.18625015 -0.034139007 1.2233334 0.561072588 -0.5732760429 0.5971198082
-0.104681 0.064271063 1.3169999 0.3289039731 -0.3962720931 0.8571993113
-0.25124389 0.050248779 1.3980001 0.6785507202 -0.1550198495 0.7180095911
-0.035576966 0.01496478 1.2435454 -0.596075654 -0.4665549695 0.6534678936
-0.23882329 -0.061379816 1.273 0.6853260994 -0.5121340156 0.5177324414
-0.051512931 -0.10203523 1.13 -0.4214340746 -0.4634532034 0.7794898748
-0.16834892 -0.18016289 1.123 0.5424463749 0.008875261992 0.8400435448
-0.096526079 0.12737703 1.3330001 0.1947826892 -0.2361318171 0.951998651
-0.0588594 -0.10888989 1.1190001 -0.3461457491 -0.4694296122 0.812292397
-0.12532456 0.085217565 1.3272941 0.1625044197 -0.1481623352 0.9755204916
-0.084938481 -0.13512941 1.1010003 -0.2219850719 -0.1605575979 0.9617400169
-0.13538906 -0.20505801 1.1125715 0.1430760622 0.3240535259 0.935157001
-0.094864346 -0.17521335 1.1041998 -0.2078651041 0.3055028319 0.929225564
0.004095397 0.036827404 1.3551112 -0.5033037066 -0.2837695479 0.8161863685
-0.11314785 0.051955651 1.317 0.4505407512 -0.3628071547 0.8157107234
-0.16015911 -0.049357209 1.149 0.4119710028 -0.6949900389 0.5892950892
-0.095870405 0.14497335 1.3336251 0.04525097832 -0.4270203114 0.9031090736
-0.033579841 -0.02833299 1.197 -0.5145792961 -0.6431772709 0.5670371056
-0.035244897 -0.021993071 1.2125384 -0.4892214239 -0.6575980783 0.5729111433
-0.051758401 0.097765863 1.312 -0.4846914411 -0.6692123413 0.5632308722
-0.055504248 -0.13468088 1.1145806 -0.3251001835 -0.2852649987 0.9016283751
-0.135205 -0.13498984 1.1146785 0.2609880865 -0.345811516 0.901276648
-0.27205509 -0.16990414 1.189 0.7195712328 -0.2514460683 0.6472960114
-0.26129314 -0.23820698 1.197 0.7311276197 -0.1877001822 0.6559123397
-0.21351393 -0.0012062934 1.376 0.2221925408 0.1614433974 0.9615437984
-0.085720792 0.046553299 1.295125 0.4513917863 -0.7180152535 0.5298108459
-0.29442915 0.035229944 1.43525 0.7810839415 -0.1473117024 0.606800735
-0.31871217 -0.1216901 1.322 0.7777854204 -0.3765326738 0.503262341
-0.13569155 0.12451632 1.3377059 0.156186536 -0.2425929755 0.9574729204
-0.2004507 -0.20850903 1.149 0.5608133674 -0.2163435072 0.799176991
-0.083311826 -0.027426662 1.166 0.4218506515 -0.7789726257 0.4639436305
-0.2439262 -0.19315985 1.177 0.3622681797 0.2249479294 0.9045220613
-0.22194043 -0.28105319 1.1830001 0.3201546967 0.4804178178 0.8165168166
-0.15420175 0.12370426 1.3380001 0.3143566549 -0.2533287406 0.9148794413
-0.11105964 -0.032906562 1.1730001 -0.2447877079 -0.7321385741 0.6356508732
-0.1547257 0.10549342 1.3370625 0.3231482208 -0.07967866212 0.9429880977
-0.093614846 -0.072481342 1.13 -0.07469019294 -0.2043371648 0.9760469794
-0.044994477 -0.05726606 1.1665 -0.37106058 -0.6544980407 0.6587460041
-0.15543374 -0.10428479 1.1126521 0.3573429585 -0.1481236815 0.9221525788
-0.039059885 0.074771777 1.273 -0.5713271499 -0.5687796474 0.591671288
-0.021618601 0.099685766 1.3700001 -0.744769752 -0.5438995361 0.3866410255
-0.052618235 0.081976049 1.2880001 0.455129683 -0.6271348 0.6321067214
-0.15904398 -0.24506778 1.141 0.2719366848 0.4696354568 0.839936316
-0.23288563 -0.067878984 1.2590001 0.7051404119 -0.4968458414 0.5058866143
-0.1618984 0.0025467167 1.245 0.4400799274 -0.687048316 0.5781818628
-0.29262695 -0.055738464 1.4450001 0.8522922993 -0.0970024839 0.5139926076
-0.21925083 -0.070203468 1.2320001 0.6975303888 -0.5804480314 0.4201564491
-0.04606903 0.034994166 1.2443846 -0.4534803331 -0.6390890479 0.6212252378
-0.118876 -0.060428634 1.13 0.009138402529 -0.6994298697 0.7146428227
-0.075544424 -0.17456116 1.107294 -0.2599841654 0.2813998163 0.9237003922
-0.0108093 0.0684589 1.3700001 -0.7168824673 -0.4373909831 0.5429260135
-0.084394313 -0.054604627 1.1325598 -0.09844841063 -0.4794590771 0.8720245957
-0.21462378 -0.085638061 1.2060001 0.6302257776 -0.5943642855 0.4995463192
-0.30366188 -0.026438862 1.4640001 0.8261691928 0.116188474 0.5513118505
-0.19506857 -0.22556444 1.1450002 0.4772396386 0.02151536569 0.8785097599
-0.17440811 0.10487685 1.3442003 0.5220022798 -0.1268869936 0.8434532285
-0.13427202 -0.017268579 1.2060001 0.499751538 -0.6747152805 0.5431460738
-0.12198992 0.15717933 1.3380001 0.1118340194 -0.2517368495 0.9613124728
-0.053339027 -0.015687952 1.1930001 -0.7457851768 -0.3872649372 0.5420612097
-0.14484516 -0.0055014119 1.225 0.4027653635 -0.6475783587 0.6468557119
-0.30108503 -0.00377931 1.4369999 0.8905571699 0.1408588141 0.4325120449
-0.24389434 0.065812677 1.3944999 0.6599000692 -0.1983439475 0.7247010469
-0.20368023 -0.17557706 1.1567142 0.4850972295 0.279519856 0.8285827041
-0.15446006 0.084705435 1.3365294 0.3317588568 -0.04946201667 0.9420666695
-0.27406177 -0.095303841 1.2759999 0.6813524365 -0.590194881 0.4329305589
-0.29709068 -0.12445273 1.2955714 0.8034445643 -0.3070334494 0.5101051927
-0.29781595 -0.070299901 1.4580001 0.7884498835 -0.1835164875 0.5870847702
-0.13439563 -0.22137673 1.1190001 -0.05285986513 0.5371574163 0.8418240547
-0.21444046 -0.11538521 1.1647779 0.7016697526 -0.4551630616 0.5481662154
-0.22271204 -0.16243342 1.1570002 0.4100994468 0.3340770006 0.848652482
-0.062439412 -0.064127587 1.155 -0.6739966869 -0.4834357798 0.5585859418
-0.099055439 -0.16348957 1.097 -0.1157519743 0.1064400002 0.9875586033
-0.21778387 -0.13383748 1.1536666 0.6638548374 -0.3033075035 0.6835944057
-0.23557714 0.055858463 1.3851254 0.5921147466 -0.1255357116 0.7960156202
-0.14607458 0.025709128 1.3330001 0.3851167262 0.3496216834 0.8540782928
-0.24666204 -0.23382702 1.1835455 0.7001868486 -0.1061287075 0.706027627
-0.11531235 -0.017240236 1.1850001 -0.1642922908 -0.8120166659 0.5600330234
-0.2236511 -0.24394566 1.1665384 0.5208419561 0.1628378928 0.8379781842
-0.20134491 0.047655597 1.3590001 0.524230957 0.1492410302 0.8383966684
-0.2439169 0.014104864 1.3870001 0.4977253973 -0.01720716618 0.8671639562
-0.02543064 -0.008237063 1.2256668 -0.4841597974 -0.5753496289 0.6592132449
-0.30930904 0.035936318 1.4640001 0.9007613659 -0.09421554208 0.4239721894
-0.23447511 -0.1454197 1.1645558 0.6467902064 -0.2347796261 0.7256314158
-0.22863495 -0.1131049 1.1836667 0.5882163048 -0.6474118829 0.4846229553
-0.26414362 -0.21479385 1.2040001 0.5907799006 0.4562785625 0.6654239297
0.015038342 0.025054842 1.3720001 -0.6943705678 0.09168057144 0.713753581
-0.18456464 -0.077816442 1.138 0.5462056398 -0.3539023995 0.7592183352
-0.063041881 0.015496544 1.2142223 0.1487956047 -0.7753126621 0.6137997508
-0.092682406 -0.0038364283 1.2109231 -0.1895672381 -0.744251132 0.640433073
-0.062101003 0.044903979 1.2547272 0.4603920281 -0.651840508 0.6026135683
-0.057029136 -0.15409642 1.1072499 -0.279232949 -0.004974567331 0.9602105021
-0.19162771 -0.046437256 1.2177501 0.6304633617 -0.5231807828 0.5734089017
-0.27732691 -0.12258825 1.243 0.7050740719 -0.5928196907 0.3891470134
-0.29129881 -0.10531572 1.2780001 0.7454242706 -0.555385828 0.3686316311
-0.10559984 -0.075029291 1.1249614 -0.2066139132 -0.1477007121 0.9672099948
-0.16221781 -0.088512361 1.126 0.5088524222 -0.4823893607 0.713000536
-0.18666127 -0.022493163 1.2336001 0.5584224463 -0.6378206611 0.5304235816
-0.075461052 -0.015574396 1.1753531 0.1209297776 -0.7480857372 0.652490437
-0.13574012 0.0063249203 1.2345265 0.3704123199 -0.7013462782 0.6090222597
-0.20598949 -0.27157819 1.169 0.2831234038 0.5202589035 0.8057119846
-0.17589808 0.085241102 1.3430002 0.4901068807 -0.06896514446 0.868929863
-0.043319169 0.10536657 1.3355 -0.8697155118 -0.3241248131 0.3722069263
-0.31059775 0.024285421 1.4580001 0.8826444745 -0.08488693088 0.4623126388
-0.15526092 -0.23056458 1.126 0.2902293801 0.4212118983 0.8592714667
-0.017870849 0.078631744 1.3590001 -0.7866662145 -0.3981556296 0.4718350768
-0.14457446 -0.064289786 1.1330911 0.2768580616 -0.5416306257 0.7937164903
-0.10433635 0.095061444 1.3223753 0.2651781738 -0.1364767402 0.9544917941
-0.25509247 -0.10398219 1.2337143 0.6290835142 -0.6834676266 0.3703051209
-0.23413536 0.074442349 1.3870001 0.6126114726 -0.2302112281 0.7561150789
