# .PCD v0.7 - Point Cloud Data file format
VERSION 0.7
FIELDS x y z normal_x normal_y normal_z
SIZE 4 4 4 4 4 4
TYPE F F F F F F
COUNT 1 1 1 1 1 1
WIDTH 512
HEIGHT 1
VIEWPOINT 0 0 0 1 0 0 0
POINTS 512
DATA ascii
-0.050680101 0.087763101 1.4100001 -0.8672809601 -0.4937082231 0.06384279579
-0.48248929 -0.38351712 2.016 -0.08972359449 0.8297669291 0.550850749
0.48827615 -0.13092579 1.7570001 -0.06042025611 0.829118073 0.555799067
-0.043387111 -0.19604546 1.8330001 0.05004108697 0.8813155293 0.4698710442
-0.2611064 -0.27198583 1.2410001 0.5021656752 0.1169892251 0.856821537
-0.40155894 -0.11925998 1.7220001 0.9657524824 -0.1307160407 0.2241327018
-0.34069809 0.053519621 1.4890001 0.7929631472 -0.09189902246 0.6022989154
-0.035673413 -0.10413592 1.2024208 -0.5650586486 -0.4400212765 0.6979182959
-0.23298001 -0.047741804 1.307 0.6104664207 -0.5025674701 0.6121737361
-0.12261937 -0.33331743 1.9700001 -0.08708357066 0.8434284329 0.5301366448
-0.21454322 0.13445193 1.4127778 0.5418328047 -0.3397621214 0.768751502
-0.19224036 -0.14250505 1.189 0.383826375 0.2333981544 0.8934218884
-0.094944306 0.014230821 1.2855002 -0.3313811123 -0.786331892 0.5214102864
-0.33241096 -0.093691118 1.4640001 0.6807059646 -0.2899131775 0.67274791
-0.31723323 -0.15122588 1.2970001 0.8007429242 -0.4060812294 0.4403508008
-0.44742787 -0.23068081 1.766 0.9721359611 -0.05122404173 0.2287526876
-0.24519664 -0.005004013 1.427 0.2547665238 0.2898652554 0.9225357175
-0.088515282 -0.21812694 1.202 -0.3980176151 0.6935426593 0.6004835963
-0.15504457 0.046123777 1.3724003 0.3308272064 -0.06800968945 0.9412375093
-0.13613594 -0.048673663 1.1958572 -0.0475788936 -0.698500514 0.7140260935
-0.1152662 0.164846 1.3947272 -0.1483322084 -0.3646558225 0.9192516804
-0.36844662 -0.01499626 1.5546666 0.8822472692 -0.1075667888 0.4583329856
-0.17612495 -0.25522134 1.2029999 0.1717875898 0.4820839465 0.8591182232
-0.2721445 -0.18501525 1.2270001 0.4846950471 0.1737626344 0.857249856
-0.031074326 -0.041064821 1.266 -0.5208117366 -0.6084969044 0.5987375379
-0.27398449 0.075197957 1.4364287 0.5629789829 -0.2461075932 0.788977623
-0.10550129 -0.13519388 1.1667935 0.3192326725 -0.3372021914 0.8856552243
-0.047732748 0.09197285 1.3280001 0.5602919459 -0.4189350009 0.7145392895
-0.30716544 -0.23453389 1.2945 0.7157238722 0.4023915231 0.5708068013
-0.24782418 -0.11294461 1.2508334 0.5195003748 -0.6294561028 0.5778445601
-0.17317908 0.0038149611 1.3053335 0.4805903137 -0.717549026 0.5041392446
-0.31700969 -0.01540128 1.4640001 0.7777521014 0.09328573942 0.6216103435
-0.30262882 -0.087973498 1.3380001 0.6112675071 -0.5157760978 0.6002724767
-0.028973833 0.018543255 1.322 -0.7319772243 -0.4607308209 0.5019326806
-0.19318664 -0.062212646 1.245 0.6920345426 -0.6228170395 0.3649480939
-0.067664638 -0.039118621 1.2060001 -0.2962650061 -0.6654673815 0.6851132512
-0.21501827 0.063719645 1.404 0.4116643667 0.0549685061 0.9096762538
-0.15658085 0.11420718 1.3810002 0.185810715 -0.008214846253 0.9825512171
-0.14548898 -0.19501714 1.177 0.2872078121 0.107050024 0.95186764
-0.094678067 0.045334887 1.3466002 0.5304329991 -0.6268308163 0.5707223415
-0.21533562 -0.20472795 1.2099997 0.4223901927 -0.1470879763 0.8944001794
-0.14608642 -0.023063434 1.2529 0.4320863187 -0.7672627568 0.4739296436
-0.35312486 -0.044799417 1.5030001 0.6298125386 -0.2067930847 0.7487140894
-0.093207195 0.11247213 1.3736 0.2167730331 -0.3901695609 0.8948615193
-0.058126796 -0.17266066 1.177 -0.4163037837 0.2567800283 0.8722128272
-0.19324188 0.0086158803 1.4039999 0.3101415038 0.09054908901 0.9463683963
-0.28535655 -0.056011636 1.439 0.1551314145 0.206638664 0.9660407305
-0.02800161 0.054806568 1.365 -0.8710719347 -0.4395878017 0.2190803587
-0.094796523 -0.084562168 1.1883041 -0.2112075984 -0.2290050387 0.9502357841
-0.16534066 -0.094355643 1.1853999 0.4899500906 -0.3546315134 0.7963575721
-0.33237642 -0.13280675 1.3454001 0.7674697638 -0.3936023712 0.5060309768
-0.29141188 0.025230467 1.439 0.4790359437 -0.159143731 0.8632484078
-0.27419603 -0.095934801 1.2942222 0.5753207207 -0.645026207 0.5029385686
-0.17035562 0.16055098 1.3980001 0.4178535938 -0.4093489051 0.811068356
-0.27365446 -0.22557935 1.2576667 0.6536338925 0.09533248842 0.7507825494
-0.059538815 0.12287799 1.4450001 -0.8137630224 -0.5614218116 0.1503173709
-0.349534 0.01196124 1.516 0.8977776766 -0.01133970451 0.4403029084
-0.23542945 -0.15486667 1.2108887 0.4611074328 -0.07617925853 0.8840682507
-0.063905872 -0.0032887529 1.2507144 -0.1366593391 -0.7246451378 0.6754358411
-0.21165949 -0.10707139 1.2173334 0.6842876673 -0.4227305353 0.5941795111
-0.31172162 -0.19440959 1.2672001 0.7782981992 -0.00278862915 0.6278886199
-0.28257644 -0.14576152 1.2585555 0.6994760036 -0.2643784285 0.6639558673
-0.21385056 -0.2754136 1.2320001 0.3271965683 0.4317720532 0.840544641
-0.19158497 -0.0280095 1.2780001 0.5763272643 -0.6179304719 0.5347979069
-0.10440516 -0.031681567 1.2320002 -0.16085051 -0.7855805159 0.5974866748
-0.064037681 0.042140096 1.307 0.3008385301 -0.7091844678 0.6376155019
-0.26527146 -0.061935622 1.3330001 0.5918257236 -0.6965494752 0.4056613743
-0.30533686 0.07673727 1.467 0.6470229626 -0.2641350329 0.7152579427
-0.080631413 0.14761752 1.4150001 -0.6049340367 -0.7600419521 0.2374680489
-0.10514947 -0.18478242 1.1645204 -0.05502291396 0.2685904801 0.961681664
-0.03696565 -0.066870637 1.2247144 -0.5755135417 -0.5674481988 0.588885963
-0.11536168 0.074506156 1.3707502 0.1740687191 -0.2570910752 0.9505810142
-0.064520717 -0.1243408 1.1747392 -0.5133771896 -0.2210694849 0.8291997313
-0.23793697 0.095922239 1.4210001 0.5927805901 -0.231325686 0.7714269757
-0.232252 -0.077788606 1.2767501 0.6091303229 -0.5969347358 0.5221390128
-0.14542936 -0.14543103 1.1765201 0.2233525068 0.04903455824 0.9735035896
-0.13909982 -0.23741098 1.1930001 -0.03057134524 0.5941261053 0.8037907481
-0.13354613 0.016740827 1.302 0.2021128982 -0.7480446696 0.6321230531
-0.24790291 0.044846758 1.4210001 0.5152585506 0.02097489685 0.8567780852
-0.24525277 -0.2366474 1.227 0.6199690104 -0.05372794345 0.7827846408
-0.28540748 -0.013761036 1.427 0.3102542162 0.1592629254 0.9372180104
-0.04742416 0.0045165867 1.2880001 -0.8304032683 -0.3330235183 0.4466830492
-0.1952512 0.10494751 1.3920001 0.4779567719 -0.08414523304 0.8743436933
-0.32462204 -0.054319214 1.4752501 0.779945612 -0.1627856642 0.604305923
-0.18247378 -0.1852721 1.197 0.6564810872 -0.05151003972 0.7525817156
-0.12751628 -0.095424436 1.1683333 -0.2943241894 -0.03050935268 0.9552185535
-0.075960413 0.078678571 1.3568572 0.5944311619 -0.4721811414 0.6509197354
-0.17233337 -0.058149301 1.2060001 0.5602021813 -0.695186913 0.4504316449
-0.20553984 -0.014279349 1.3154616 0.5678684115 -0.6467013955 0.5092177391
-0.31810978 0.035386276 1.464 0.7155059576 -0.1031340733 0.6909519434
-0.12325495 0.029916249 1.365 0.5120722651 -0.3187870681 0.7975944281
-0.038601387 0.091678292 1.376 -0.8946726322 -0.3868047297 0.2234792262
-0.29752693 -0.12260095 1.307 0.7492575645 -0.5086748004 0.4241026342
-0.17443408 0.07510139 1.3817503 0.2888809443 -0.0262886025 0.9570040107
-0.26606658 -0.057988871 1.2970001 0.4155828655 -0.6322125196 0.6539099813
-0.21429619 -0.24502583 1.2110528 0.4024508297 0.2630517483 0.8768335581
-0.47584939 -0.38554221 1.9810001 -0.08976026624 0.8307023644 0.5494331121
-0.18866149 0.043199327 1.3920001 0.5284693837 0.2814401984 0.8009441495
-0.11425471 -0.0037590216 1.2514286 0.03889847919 -0.8208675981 0.5697923303
-0.33617947 -0.015737919 1.4960002 0.8147950172 0.001132021658 0.5797480941
-0.045575269 0.054924045 1.3330001 -0.6549239755 -0.5940706134 0.4670704007
-0.12478036 0.12465626 1.3847897 -0.1602101624 -0.2257615477 0.9609185457
-0.25720084 -0.14414942 1.2340001 0.627178371 -0.425029546 0.6526845694
-0.16464639 0.016828367 1.3852857 0.4347870052 0.4421215951 0.7845309377
-0.10133039 -0.049608812 1.204 0.03938122466 -0.7889787555 0.6131570935
-0.055603165 -0.044703867 1.2436666 -0.7692065835 -0.3685217202 0.5220277309
-0.061354898 -0.07522326 1.2037144 -0.7034766674 -0.3288527131 0.6300606728
-0.21807083 -0.09095417 1.25 0.6321888566 -0.6322734356 0.4478476942
-0.18519397 -0.22495189 1.1934803 0.431017369 0.06086716428 0.900288403
-0.066346131 0.13148597 1.376 0.1870855391 -0.5143551826 0.8369215727
-0.11480229 -0.21496207 1.1825652 -0.3499794006 0.6392602324 0.6847340465
-0.093520164 0.031173388 1.317 0.3922702968 -0.7692877054 0.5043019056
-0.3116287 -0.077273786 1.4450001 0.6539996266 -0.2648420334 0.7086206079
-0.33542493 0.015601159 1.4829999 0.8275972605 0.0562675707 0.5584950447
-0.16459452 -0.043039426 1.2336 0.4956143796 -0.8129016757 0.3058712482
-0.24525274 -0.2018674 1.2270001 0.4186119139 0.3356465995 0.8438634276
-0.21532862 0.032880258 1.41 0.255066663 0.2084959 0.9441771507
-0.16282856 -0.0070957397 1.278 0.3256852031 -0.7039964795 0.6311244965
-0.088244386 -0.15924563 1.1570001 -0.09131733328 0.08219424635 0.9924239516
-0.26475772 0.10324284 1.4450001 0.6062064171 -0.4135332704 0.6793408394
-0.30363718 -0.16537419 1.2733572 0.7045015097 -0.2522286773 0.6633688807
-0.25594896 -0.032464195 1.4354001 0.04125795141 0.4660149515 0.8838143945
-0.20472796 -0.16866189 1.21 0.2732357085 0.4249985516 0.8629707098
-0.18930127 -0.11190738 1.1930001 0.6324414015 -0.3053391576 0.7118889093
-0.18577756 0.13444297 1.394143 0.431892693 -0.3899126053 0.8132876754
-0.14551395 0.084883474 1.3832502 0.05602590367 -0.04662919044 0.9973398447
-0.15172419 -0.11527833 1.1677999 0.1913260818 0.01827974804 0.9813563228
-0.13746309 -0.031143583 1.2250001 0.332362771 -0.8182457089 0.4690510929
-0.34498763 -0.074202813 1.485 0.6240662336 -0.3433546722 0.7018895149
-0.28144979 -0.11780839 1.275 0.6618855596 -0.5541744828 0.5047753453
-0.23361489 -0.12580936 1.2253529 0.59419626 -0.4633601308 0.6574406028
-0.19288281 -0.077179603 1.2155715 0.7297454476 -0.5239621997 0.4392439425
-0.28418729 -0.25315338 1.2578572 0.6425557137 -0.2341620475 0.7295822501
-0.20722763 -0.052766569 1.2746665 0.6677776575 -0.478105396 0.5705157518
-0.14543507 0.14543898 1.3825002 -0.03403338045 -0.300942868 0.953034699
-0.08420793 -0.19706035 1.1810001 -0.32817325 0.6519228816 0.6835926175
-0.16816933 -0.16550703 1.1810001 0.5453842282 -0.03668182343 0.8373830914
-0.095451027 0.14489913 1.3870001 -0.07240971923 -0.3898810744 0.9180139303
-0.089464709 -0.11003131 1.1730001 0.1532459706 -0.3792878091 0.9125000834
-0.06147771 0.10352673 1.3573335 0.4900244176 -0.5390268564 0.6850737929
-0.35627761 -0.014694686 1.524 0.8764168024 -0.1131424829 0.4680730104
-0.046115298 -0.02362003 1.2830001 -0.6497240067 -0.5336765647 0.541339159
-0.29285729 0.055623304 1.4449998 0.5927402377 -0.16545403 0.7882156968
-0.21494287 -0.13506994 1.2045455 0.5828816891 -0.267098695 0.7674028873
-0.12286834 0.0018673 1.2780001 0.3493539095 -0.7253460288 0.5931483507
-0.11548666 -0.06526681 1.1849998 0.004452569876 -0.615685463 0.787979424
-0.037829921 0.068337917 1.3920001 -0.977438271 -0.2109891176 0.009900419973
-0.12492062 -0.16485544 1.1680002 0.271914959 -0.06335819513 0.9602333307
-0.077763841 -0.022681119 1.2320002 0.1257194877 -0.7392570972 0.6615841389
-0.038307704 -0.13148861 1.1810001 -0.5201501846 -0.2709916234 0.8099427819
-0.31591067 -0.11413295 1.3330001 0.7270804644 -0.3425278366 0.5950030684
-0.29213411 -0.19511987 1.2434001 0.6780357361 0.2166658789 0.7023698688
-0.14494561 -0.075535052 1.184818 0.2076810896 -0.4679606259 0.8590002656
-0.066723682 -0.095130615 1.1852221 -0.4874198437 -0.3976781964 0.7773506045
-0.086432323 -0.012189173 1.2640001 0.1925267875 -0.803897202 0.5627456903
-0.22318892 0.0049613854 1.4143751 0.3324599862 0.1859246492 0.9246093035
-0.31601027 -0.18084697 1.2920001 0.8748673201 -0.1455177814 0.4619867802
-0.22622646 -0.17905128 1.223 0.2365544438 0.2673488557 0.9341127276
-0.30022764 -0.034203146 1.4450001 0.5608525872 0.1695732325 0.8103637099
-0.26695597 0.015703291 1.4330001 0.3171335459 -0.0006031639059 0.9483807087
-0.17487414 -0.035853762 1.2573532 0.4216972888 -0.6481662393 0.6340756416
-0.29329127 -0.2173439 1.2739999 0.7051907778 0.3699402213 0.6048555374
-0.071017012 0.061703306 1.3280001 0.5169647932 -0.5792417526 0.6302589774
-0.064913042 0.024570247 1.2855 0.4443693459 -0.7708995342 0.4563439488
-0.11493924 -0.11493897 1.1811599 -0.0862069726 -0.06561052799 0.9941144586
-0.31729022 -0.21115042 1.2880001 0.7290502191 0.4215729833 0.5392234921
-0.25556323 -0.1015557 1.273 0.4761578441 -0.693582654 0.5405708551
-0.028491665 -0.061366666 1.25 -0.4089399874 -0.6725076437 0.6168481112
-0.26452649 -0.24490844 1.2429999 0.5950146914 -0.1545817405 0.7887091041
-0.23557173 -0.26234394 1.2270001 0.3938984573 0.2911458015 0.8718246222
-0.24832678 -0.04265378 1.3330001 0.6357924342 -0.5560832024 0.5352938175
-0.17466159 -0.12467147 1.1762382 0.3841147125 0.06572722644 0.9209429026
-0.30167538 -0.0056100404 1.4449999 0.6838983893 0.03624819964 0.7286762595
-0.29210621 -0.098138452 1.317 0.6261569858 -0.5631420612 0.539257288
-0.24548236 0.11605225 1.4346366 0.6162313223 -0.2751957178 0.7379202843
-0.25128511 -0.07845553 1.2970001 0.4863606691 -0.6729238033 0.5573390722
-0.21386771 -0.036210623 1.2953334 0.6624211669 -0.544280231 0.5147399306
-0.26540184 -0.20769262 1.2420001 0.4110774398 0.5913879871 0.6937402487
-0.28823924 -0.1725017 1.2533334 0.7399519682 -0.4089391232 0.5340785384
-0.22032036 0.092312999 1.404 0.5029246807 -0.1371507943 0.8533794284
-0.047826674 0.023994867 1.3034286 -0.7126226425 -0.4996388555 0.4924733341
-0.27440381 0.045225479 1.4330003 0.4446318448 -0.06768190861 0.8931526542
-0.11128845 0.051455949 1.365 0.4562288225 -0.4771535695 0.751118958
-0.11459786 0.10173073 1.376 0.1319654733 -0.1637170315 0.9776409864
-0.34757423 0.034357004 1.5075002 0.8853261471 0.03839943558 0.4633822143
-0.049162939 -0.026236355 1.2574002 -0.7948905826 -0.361065954 0.4876272082
-0.19590828 0.076316938 1.3920001 0.4548693895 -0.0223756507 0.8902770281
-0.27132395 -0.078510761 1.317 0.6231175661 -0.5264309645 0.5784417987
-0.25696182 -0.16523227 1.223 0.4076373577 -0.1574587524 0.8994656801
-0.15703279 -0.21507864 1.1823334 0.3317753375 0.2604672015 0.9066873789
-0.31518212 -0.13644879 1.3153332 0.7044025064 -0.5744100213 0.4169775248
-0.24790291 0.074744597 1.4210001 0.5241447687 -0.1399033368 0.8400591016
-0.24396171 0.015712788 1.4150001 0.3074708879 0.2056734413 0.929064095
-0.1448461 0.025074126 1.3730001 0.3181586266 0.2431316823 0.9163307548
-0.094346747 0.084546611 1.372143 0.3792084157 -0.2202789783 0.898709178
-0.1636029 -0.23830743 1.193 0.08864846081 0.3730336726 0.9235731363
-0.29710916 -0.24430525 1.2759999 0.7469898462 -0.2179949731 0.6280798912
-0.19517067 -0.264505 1.2124616 0.3307039142 0.4018854201 0.8538870215
-0.30461952 -0.056302227 1.4519998 0.5515806675 -0.1698877066 0.8166375756
-0.29600492 -0.13355738 1.2838334 0.7025776505 -0.5299423933 0.4749165773
-0.284989 0.08458475 1.4545001 0.6137375832 -0.390040189 0.6864363551
-0.32448611 0.064741835 1.4770001 0.6999363899 -0.1592875868 0.696215868
-0.18436119 -0.085918956 1.1960591 0.5732727647 -0.3207267821 0.7539845705
-0.22574459 -0.22491029 1.2133334 0.4891461134 0.04024486616 0.871272862
-0.26858613 -0.042006359 1.452 0.08110484481 0.2808957994 0.9563051462
-0.30804661 0.015275041 1.4519999 0.7034925222 -0.0494834967 0.7089779377
-0.14345539 0.16544572 1.3933334 0.003502406878 -0.3183793128 0.9479569197
-0.18574321 -0.012760431 1.293875 0.5464262962 -0.6741985679 0.4968647361
-0.058026213 0.011783101 1.268 -0.5674058795 -0.5124789476 0.6445276141
-0.084714934 -0.064843521 1.1930002 -0.09623066336 -0.3032990694 0.9480239153
-0.075352959 0.015663506 1.3034706 0.4426594377 -0.7100049257 0.5476729274
-0.12490116 -0.19554242 1.1678002 0.1089284569 0.2593088448 0.9596319795
-0.047464486 -0.15167999 1.177 -0.4369538128 -0.02218251117 0.8992103934
-0.1345907 0.055279758 1.3707503 0.1941171587 -0.2686047554 0.9434882402
-0.14509489 0.004444751 1.2853533 0.1896812767 -0.7064489126 0.6818730831
-0.22411487 -0.026555112 1.317 0.6045547128 -0.5952174067 0.5293673873
-0.2049745 -0.22504768 1.2052 0.456274718 0.02500129119 0.8894876838
-0.22498795 0.11480388 1.4113158 0.5644996762 -0.1891617477 0.8034662008
-0.20943215 -0.072026931 1.2640001 0.6290646791 -0.5507151484 0.548625946
-0.028320715 0.043661505 1.3460001 -0.7918255925 -0.5165983438 0.3257888556
-0.31444278 -0.037219759 1.4640001 0.7848808765 -0.00538160326 0.619623363
-0.25054169 -0.058883071 1.317 0.5612003803 -0.6413792372 0.5231508017
-0.13499747 -0.21493544 1.1740001 0.07820113748 0.3864805102 0.9189763069
-0.19539888 0.14614505 1.41 0.4805707335 -0.4251933694 0.766982615
-0.091737032 0.063143671 1.3590001 0.6168122292 -0.4077619612 0.673255384
-0.23016708 0.048002761 1.404 0.376658082 0.09841290116 0.9211099744
-0.16539776 0.13522074 1.3866473 0.3381767273 -0.2508582473 0.9070317745
-0.1355958 0.10411821 1.3810003 0.008924691007 0.002746362472 0.999956429
-0.1825676 -0.059065416 1.2250001 0.6436775923 -0.6962279081 0.3177197278
-0.057010509 -0.059161849 1.2270001 -0.7476075292 -0.4911414683 0.447060436
-0.18330854 -0.16359369 1.1962001 0.5075537562 0.2741457224 0.8168435097
-0.084548652 -0.13547844 1.1619599 -0.07354263216 -0.2604022622 0.962695241
-0.22456649 -0.10605869 1.2345001 0.6197367907 -0.5942308307 0.5126558542
-0.24696313 -0.21867661 1.2410001 0.6331840754 0.1909491718 0.7500775456
-0.17386511 -0.20367649 1.189 0.5138539672 0.04967353866 0.8564383388
-0.16483283 0.094538644 1.3825002 0.2051518261 -0.03844708949 0.9779747128
-0.15558513 -0.045317587 1.2143573 0.4112254083 -0.8244572878 0.3887979686
-0.26532164 -0.12454452 1.2545002 0.6028572917 -0.5167227983 0.6079149842
-0.12472907 -0.13520712 1.1758335 0.05166186765 -0.2408334315 0.9691905379
-0.27533928 -0.16502865 1.2336003 0.6859640479 -0.4099494517 0.6011611819
-0.12204602 -0.018360907 1.2320001 0.0280122105 -0.8394187689 0.5427627563
-0.32892445 -0.03510261 1.4830002 0.7940061688 -0.07686943561 0.6030300856
-0.027706524 0.0048097437 1.306 -0.663829267 -0.4875790179 0.5670955777
-0.15496661 0.065376535 1.3810003 0.1298091114 -0.1636225283 0.977945447
-0.065553457 -0.14442489 1.1684 -0.4340057969 -0.05885541067 0.8989855647
-0.16417117 -0.067579448 1.189 0.413099438 -0.4455310106 0.7942612767
-0.0385166 -0.085703559 1.2155714 -0.5381482244 -0.5388451815 0.6481067538
-0.32368356 -0.074696206 1.4640001 0.7017987967 -0.2873850763 0.6518345475
-0.23464759 -0.065525278 1.2961667 0.6018338203 -0.5564448237 0.5728570223
-0.18543254 0.0057947668 1.322 0.5429545641 -0.6678654552 0.5090736747
-0.059084702 -0.035452224 1.2254002 -0.8134087324 -0.4260129035 0.3960797787
-0.075614609 0.14217044 1.3956001 -0.1363940835 -0.5619646311 0.8158384562
-0.26507157 -0.0050250534 1.4330002 0.07583296299 0.09462506324 0.9926205277
-0.077106342 0.095842458 1.3700001 0.3496126533 -0.3670623004 0.8619955182
-0.13540292 -0.011096846 1.266 0.3303723633 -0.8079813719 0.4878731072
-0.075495325 -0.18276016 1.169 -0.3182420731 0.4316181242 0.8440544009
-0.055087909 0.084676489 1.3457693 0.6391054392 -0.4570650756 0.6185756326
-0.084523745 -0.037553057 1.2176363 0.1705427766 -0.8107967377 0.5599319935
-0.10761872 0.029565584 1.3490001 0.5753328204 -0.6069427133 0.54828161
-0.28630617 -0.076626554 1.3330001 0.6034532785 -0.5799671412 0.5472497344
-0.12284555 0.14603162 1.3920001 -0.06506981701 -0.239346236 0.9687514305
-0.14501485 -0.16558315 1.1731602 0.2490802109 -0.05675993487 0.9668181539
-0.10449165 0.010004519 1.268 -0.1509782672 -0.7925187349 0.5908634663
-0.03048696 -0.00677488 1.2880001 -0.7045779228 -0.4536291957 0.5457018614
-0.43980262 -0.22526476 1.748 0.9721359611 -0.05122404173 0.2287526876
-0.19589488 -0.20468901 1.2042221 0.4662570357 -0.1567738801 0.8706470728
-0.048271019 -0.089196451 1.197 -0.5599510074 -0.49621436 0.6634954214
-0.12407005 -0.043370858 1.2112308 -0.1049848944 -0.7201240659 0.6858567595
-0.16473506 -0.14488626 1.1825237 0.3209889233 0.1868069321 0.9284768701
-0.080912828 0.042493787 1.3280001 0.5996487737 -0.6311070323 0.4920622408
-0.11078174 -0.095251583 1.1810001 -0.2508525252 -0.01536678616 0.967903316
-0.16277224 -0.18495673 1.177 0.4494556487 0.08101951331 0.8896209598
-0.35444248 -0.019764449 1.503 0.8098836541 -0.09623906761 0.5786419511
-0.19540128 -0.24504197 1.2047999 0.3785695136 0.3267612755 0.8659747243
-0.20222069 0.122558 1.3980001 0.5166715384 -0.2141805738 0.8289614916
-0.041887887 0.033609644 1.3219999 -0.7613325119 -0.4478043616 0.468875289
-0.20712407 -0.085487626 1.2344002 0.7548310757 -0.5629459023 0.3366331458
-0.096798621 -0.021551391 1.25 -0.1364270449 -0.8059546947 0.5760422945
-0.10434175 0.12497322 1.3840002 0.1209223643 -0.2907976806 0.9491124749
-0.19094414 -0.048563823 1.2590001 0.6170474887 -0.5424435139 0.5700942278
-0.31059775 0.06007446 1.4580001 0.6600367427 -0.1861988753 0.7277921438
-0.2836256 0.0053149606 1.4330003 0.348767221 -0.08662261069 0.9331976771
-0.33542493 0.03510261 1.4829999 0.7848749757 -0.04162237048 0.6182546616
-0.079858199 0.0022495266 1.2830001 0.1840151846 -0.8714470267 0.4546630681
-0.17467374 0.055797968 1.3836253 0.3464198112 0.008224800229 0.9380435348
-0.13224323 -0.11743529 1.1730001 -0.3368582428 0.1393029392 0.9311934114
-0.1784718 0.020924279 1.404 0.4450826645 0.3346681893 0.8306013942
-0.027982105 -0.024620965 1.2767501 -0.559589982 -0.5939639211 0.577984333
-0.24792835 -0.18167163 1.2190001 0.1414245963 0.2332682163 0.9620732665
-0.10502514 -0.15443331 1.1648465 0.2403171957 -0.09560291469 0.9659749866
-0.32494646 0.0051555671 1.4708751 0.8029408455 0.07827737182 0.5908964872
-0.20486031 -0.15437399 1.1970003 0.3047506213 0.3075831532 0.9013987184
-0.23449762 -0.097101152 1.2571111 0.5233472586 -0.67224437 0.5236365199
-0.074123286 0.11441999 1.3738183 0.2433556914 -0.4793263376 0.8432225585
-0.066110313 -0.055616613 1.1970003 -0.6175501347 -0.3210972846 0.7180030346
-0.33967677 0.0026229867 1.4960001 0.8620317578 0.08721752465 0.4992938042
-0.22714053 -0.012042184 1.4210001 0.3663989007 0.2621505857 0.8927647471
-0.068446808 -0.075729273 1.1866001 -0.5029432178 -0.3312566876 0.7983214259
-0.1747684 0.11408272 1.3843753 0.3400059938 -0.09395888448 0.9357177019
-0.14535747 -0.094303906 1.1730002 0.2724452317 -0.3543823957 0.894531548
-0.36116999 -0.0027053934 1.5430001 0.9034426808 -0.0504989326 0.425724268
-0.044438232 0.061252698 1.3700001 -0.766271174 -0.5483245254 0.3349159658
-0.27444074 -0.035252303 1.436 0.02774478123 0.4068824351 0.9130591154
-0.33967677 -0.05508272 1.4960001 0.6554825902 -0.2786147892 0.7019375563
-0.050219849 -0.0055799833 1.273 -0.8328331113 -0.3408860564 0.4361028671
-0.078971453 0.054215256 1.3445001 0.6880892515 -0.4484609067 0.5704524517
-0.21435729 -0.26235259 1.2165 0.3286882043 0.4058572948 0.8527860045
-0.28768212 -0.11404644 1.2945001 0.7306163311 -0.5146597028 0.448692739
-0.20206581 -0.12550272 1.1963334 0.6192502975 -0.278693229 0.7340703011
-0.234859 0.064277202 1.41 0.4980045855 -0.04527454078 0.8659917116
-0.14407054 0.12760532 1.381 -0.04355113581 -0.1633664072 0.9856037498
-0.13412848 0.072640382 1.3752501 0.2007298768 -0.2408525646 0.94957757
-0.17454602 0.035439808 1.3841583 0.498262912 0.2875131965 0.8179671168
-0.047600955 -0.11848121 1.189 -0.5455856919 -0.336538285 0.767514348
-0.074697226 -0.16475067 1.1672403 -0.3900936842 0.2123506814 0.8959543109
-0.0358469 0.077874303 1.4100002 -0.9650972486 -0.259967953 -0.03168582171
-0.25030234 -0.12786007 1.2360001 0.5721669197 -0.4948709905 0.654008925
-0.2333329 0.12478892 1.4250001 0.6131759286 -0.2262723148 0.7568461299
-0.20801196 -0.00123084 1.404 0.3151020706 0.0831797719 0.9454056025
-0.18008925 -0.049115248 1.245 0.5752948523 -0.6997038722 0.4236158133
-0.1048467 -0.22123209 1.1960001 -0.3945550323 0.6807476282 0.6171782017
-0.30515361 0.035757478 1.4519998 0.6680088043 -0.1172517464 0.734858036
-0.30171546 -0.20444679 1.2567145 0.6424948573 0.4138965309 0.6448953748
-0.1969087 -0.095021032 1.2043334 0.7010945678 -0.3211317658 0.6366638541
-0.12511408 -0.076839477 1.1760589 0.01760924049 -0.4290152788 0.9031255841
-0.12392484 -0.02620269 1.2151334 -0.1368878931 -0.7191678286 0.6812189817
-0.085024767 0.12485223 1.3827146 0.1051116288 -0.4544022381 0.8845734596
-0.11832691 0.016256614 1.2936667 0.1863632798 -0.839017868 0.5111925006
-0.2624605 0.066303179 1.427 0.484002322 -0.06256882846 0.8728269339
-0.24999641 0.099244803 1.4330001 0.5904718041 -0.3163436949 0.7424753904
-0.26828191 -0.15267938 1.244 0.7043352723 -0.4153113365 0.5756980777
-0.22131275 -0.058715627 1.2880001 0.6649239063 -0.5233657956 0.5328831077
-0.19662669 0.034155808 1.4040002 0.3933320343 0.2978176177 0.8698244691
-0.037078619 -0.04798435 1.244 -0.5158684254 -0.6073368788 0.6041702032
-0.24425839 -0.023456313 1.427 0.2434945256 0.2388950735 0.9400210381
-0.20499112 -0.18562216 1.2104998 0.3753321767 0.005330279935 0.9268750548
-0.15417702 -0.035270929 1.2443334 0.4781131744 -0.7866027355 0.3907222748
-0.19364077 -0.0057290168 1.307 0.5570374131 -0.6697328687 0.4910877645
-0.054924048 0.068947203 1.3330001 0.4598176181 -0.4499189258 0.7655982971
-0.055188447 0.052417479 1.317 -0.02000916749 -0.6625859737 0.7487185597
-0.03799298 0.089467339 1.3980001 -0.9435616732 -0.3250237107 0.06364729255
-0.10431491 -0.2036844 1.1758001 -0.3334692121 0.6147631407 0.7147479057
-0.23909242 -0.14152557 1.223 0.5475723147 -0.4087719321 0.7301164865
-0.235331 0.03467847 1.4128127 0.4141046703 0.1047306433 0.9041840434
-0.23758543 -0.035927553 1.3219999 0.6431033015 -0.5398309827 0.5431396365
-0.31084496 -0.098958135 1.3280001 0.6808438301 -0.4210636616 0.5992971063
-0.15465829 -0.016177507 1.2665713 0.2757631242 -0.7081529498 0.6499800682
-0.17094094 -0.10765496 1.177 0.500898242 -0.2771587968 0.8199292421
-0.12833172 0.087168716 1.381 0.1281125844 -0.09721704572 0.9869832993
-0.16032217 0.01023333 1.2970001 0.355932653 -0.7697806954 0.5298581123
-0.24744794 -0.091105826 1.2830001 0.4707702994 -0.6972383857 0.5405866504
-0.25460598 0.024961881 1.423625 0.4791208804 0.02689511329 0.8773368001
-0.08373972 -0.048900642 1.197 -0.003237380181 -0.616292119 0.7875109911
-0.077804163 -0.012054167 1.25 0.3335661292 -0.7729323506 0.5397306681
-0.15738797 0.03208293 1.381 0.3738285303 0.3283948004 0.8674151897
-0.15478379 -0.055004105 1.1938889 0.2604032755 -0.6439923048 0.7193497419
-0.19211799 0.058364958 1.3870001 0.4838652313 0.111799553 0.8679719567
-0.20555027 0.05046444 1.4039999 0.3763448596 0.2050291598 0.9035084844
-0.26271069 0.082566217 1.427 0.5400743484 -0.2593743503 0.8006526232
-0.30173317 -0.18596262 1.2576667 0.7287426591 -0.2423720509 0.6404607296
-0.060563639 -0.053124245 1.2120001 -0.8595426083 -0.3193478286 0.3990031183
-0.21202534 0.07843712 1.3980001 0.4813704491 -0.07262346894 0.8735034466
-0.2318985 -0.19770147 1.2190001 0.3343060613 0.06149689853 0.9404560328
-0.075723253 0.03401817 1.3153336 0.4889846742 -0.6461313367 0.5860105157
-0.3093099 -0.15184306 1.2830001 0.6858005524 -0.4289453924 0.5879485011
-0.33836529 -0.034098826 1.4960002 0.7255522609 -0.103423655 0.6803509593
-0.23673607 -0.21526067 1.2246667 0.6276638508 0.1087781265 0.7708472013
-0.28444976 -0.23443604 1.2655385 0.7347464561 -0.1588856131 0.6594717503
-0.14521161 -0.22579147 1.1839093 0.128017813 0.444555819 0.8865560293
-0.25425968 -0.25491926 1.2360001 0.5567142367 0.06809673458 0.8279082775
-0.11506513 -0.32458672 1.9590001 -0.08708357066 0.8434284329 0.5301366448
-0.26448682 -0.11372375 1.2661818 0.5514997244 -0.6308207512 0.5458142757
-0.25971249 -0.22464582 1.25 0.6133339405 0.1032203138 0.7830498219
-0.30789527 -0.124008 1.322 0.7173387408 -0.4398764074 0.5403090715
-0.31778762 -0.22640391 1.3030001 0.6566217542 0.4381555915 0.6138953567
-0.48397347 -0.37914169 1.9930001 -0.08972359449 0.8297669291 0.550850749
-0.12602083 -0.014245833 1.25 0.293880254 -0.8492975831 0.4385522306
-0.28100234 -0.21157998 1.2570001 0.4888760448 0.5878702402 0.6445221305
-0.34229979 0.024918372 1.4959999 0.8814024329 0.05334590748 0.4693442285
-0.058850631 0.1152992 1.3700001 0.2023461312 -0.557633996 0.8050467968
-0.1042155 -0.072744481 1.177 -0.3148993254 -0.2358432561 0.9193564653
-0.35521218 0.0053616934 1.529 0.901337862 -0.01176159177 0.432956934
-0.32769945 -0.11812878 1.3430001 0.7503618598 -0.3454057276 0.5636062026
-0.20191824 -0.075310051 1.245 0.7255912423 -0.5866851211 0.3596079648
-0.18452692 0.095059238 1.3866003 0.3922145367 -0.0542271398 0.9182739854
-0.055924758 0.10125325 1.3430001 0.7056541443 -0.4500214756 0.5472959876
-0.071599998 -0.028853729 1.2190001 -0.07582419366 -0.7839192748 0.6162152886
-0.21331403 0.10613628 1.404 0.5188736916 -0.1470823139 0.8421026468
-0.30259755 -0.21689056 1.2863334 0.5930688381 0.5375069976 0.599462688
-0.072026931 0.0066486401 1.2640001 0.4274794757 -0.714104116 0.554361403
-0.082669489 -0.096478567 1.1758001 0.08646315336 -0.4906488657 0.8670569658
-0.057520144 -0.015137207 1.2432222 -0.6297385097 -0.5340857506 0.564076066
-0.27949536 -0.090864748 1.312 0.6159025431 -0.6256886721 0.4787251353
-0.24284568 -0.27376145 1.234286 0.3630479276 0.2882228196 0.8860720992
-0.34054205 -0.09452308 1.4770001 0.6731315255 -0.3444545269 0.6544043422
-0.33018336 0.050498631 1.4770001 0.7350642085 -0.09032774717 0.6719534993
-0.22559437 -0.16659613 1.2104001 0.3132320344 0.3485448658 0.8834037185
-0.26196203 -0.089202583 1.2880001 0.4521181583 -0.69982934 0.553017199
-0.055290353 -0.10521037 1.1863331 -0.5391747952 -0.3676927984 0.7576889396
-0.23438963 0.083906449 1.4123077 0.5083135366 -0.1823750138 0.8416392803
-0.10472835 -0.039540295 1.2190001 -0.09713952243 -0.7680504918 0.6329789758
-0.16293551 0.15320802 1.3870001 0.3525450826 -0.3295543492 0.8758457899
-0.16193198 -0.028223783 1.2589999 0.3771812022 -0.6998668909 0.6065647006
-0.25775009 -0.071830116 1.3145 0.5015390515 -0.6203461885 0.6030167341
-0.27618375 -0.064533919 1.3145 0.6802808046 -0.582841754 0.4444249272
-0.1452516 -0.12776999 1.1730002 -0.02163615264 0.3017071784 0.9531551003
-0.2260105 -0.083628938 1.2644445 0.5838800669 -0.6059601903 0.540274322
-0.34394354 -0.0055508777 1.5077999 0.8478676081 -0.05905539915 0.5269089341
-0.14479463 0.038121849 1.3649999 0.2968576849 0.1954828054 0.9346988797
-0.20628479 -0.024008019 1.304143 0.5951381922 -0.6328250766 0.4953210652
-0.20642871 0.012361 1.41 0.2985966504 0.08154787868 0.950889051
-0.32892445 -0.016901257 1.4830002 0.8464622498 0.07015965134 0.5278060436
-0.049269542 0.040103115 1.307 -0.5806344151 -0.5344299078 0.6142054796
-0.18339515 0.15262415 1.4040002 0.4833164215 -0.4066345394 0.7752764821
-0.27057177 -0.10699628 1.2780001 0.553453207 -0.6168608665 0.5596179366
-0.17893147 -0.021947935 1.273 0.4389938414 -0.649908483 0.6204057932
-0.28736898 -0.16215295 1.2640001 0.663660109 -0.311499089 0.6800908446
-0.067343779 0.0285355 1.302 0.426112026 -0.7093147635 0.5615167618
-0.3216823 -0.19120976 1.2830001 0.8454898596 0.09067498147 0.5262365937
-0.18752252 0.1175575 1.3920001 0.4413268566 -0.189890638 0.877024591
-0.30134276 -0.10968415 1.317 0.7084997892 -0.4017183781 0.5802158117
-0.29141188 -0.023968942 1.439 0.4865492284 0.2435560375 0.8390174508
-0.13449934 -0.065734513 1.1884283 0.02263481729 -0.5908282995 0.8064797521
-0.17807905 -0.13873601 1.1810001 0.3680877388 0.2930878699 0.882389307
-0.2979711 -0.15177554 1.273 0.6598818302 -0.283764571 0.6957252622
-0.077347107 -0.11662672 1.1679091 -0.2025994211 -0.2955538034 0.9335959554
-0.27834165 -0.16218333 1.25 0.725288868 -0.4425197542 0.5273825526
-0.15578672 -0.15578558 1.1768401 0.3193777204 -0.0403672345 0.9467673302
-0.089825898 0.021603696 1.2970001 -0.04537700489 -0.7823222876 0.6212188005
-0.2641702 0.035445094 1.427 0.4173694849 -0.04029297084 0.9078431726
-0.09906245 -0.12100016 1.1730001 0.3197723627 -0.3420596421 0.883595407
-0.25502145 -0.015577665 1.4330002 0.1774185151 0.2180317044 0.959679544
-0.22753444 -0.14267311 1.21 0.5833320022 -0.265733093 0.767534852
-0.052284837 -0.13545741 1.181 -0.4771902561 -0.2123841792 0.8527498841
-0.21678488 -0.063646249 1.2737142 0.6406325698 -0.5281623006 0.5573459864
-0.11422055 0.11436547 1.3834709 0.03168731555 -0.2471897453 0.9684488177
-0.29502928 0.074289314 1.4526666 0.6217842698 -0.3593578935 0.6958780289
-0.26300108 -0.13507241 1.2436668 0.6479099393 -0.4028581083 0.646465838
-0.11410607 0.13522497 1.3870004 -0.0268927943 -0.2302223742 0.9727663994
-0.11065023 0.15199208 1.3870001 -0.04800225422 -0.2535162866 0.9661393762
-0.091471404 0.15574861 1.4100001 -0.2387855798 -0.5442515612 0.8042211533
-0.17382421 -0.15442735 1.1883848 0.4417202473 0.194952637 0.8757149577
-0.19670713 -0.02210756 1.2932501 0.5864257216 -0.6642363071 0.4635677338
-0.126111 -0.22382112 1.1823334 -0.2426776886 0.6427606344 0.7266129255
-0.2038548 0.09518671 1.398 0.4852031469 -0.1090653315 0.867572844
-0.28321201 0.064337693 1.439 0.5513420701 -0.239569366 0.7991423011
-0.33369473 -0.0754724 1.4742001 0.6908590794 -0.3372553587 0.6395096183
-0.22174625 -0.11701791 1.2190001 0.5953484774 -0.451403141 0.6646769047
-0.39698535 -0.11560077 1.7350001 0.9660120606 -0.1294400543 0.2237543613
-0.27320293 0.086563528 1.4450001 0.6003283858 -0.3695866466 0.7092330456
-0.18450502 -0.24321084 1.1957999 0.2887086272 0.3945198357 0.872353971
-0.28705135 -0.24775915 1.245 0.6185973883 -0.2452060729 0.7464658618
-0.066840082 -0.10673777 1.177 -0.4745067358 -0.3489382267 0.8081370592
-0.17501073 0.14441155 1.396 0.4692873657 -0.3695415854 0.802002728
-0.10290752 0.077483311 1.381 0.205742389 -0.1987782568 0.9582052231
-0.063287541 -0.022936715 1.2328891 -0.3631528318 -0.6676652431 0.6498793364
-0.17540626 -0.074723728 1.1938002 0.5378394127 -0.3555255532 0.7644150257
-0.31830889 0.054125402 1.47 0.6895084381 -0.1506821662 0.7084299922
-0.11508845 -0.052791465 1.2044001 -0.06426036358 -0.7659595609 0.6396691203
-0.1153479 -0.17454697 1.1643603 0.1353590488 0.07114069164 0.9882392883
-0.19858149 -0.11247878 1.2036 0.685634315 -0.2984936237 0.6639330983
-0.16465904 -0.24699032 1.204 0.05433633924 0.4866344333 0.8719142675
-0.25502843 0.0047432929 1.4246 0.3888100386 0.2029596269 0.8986846805
-0.22789125 -0.2754136 1.2320001 0.3691958189 0.3468028903 0.8622193336
-0.094854318 -0.14541872 1.1613332 0.1208758503 -0.1806448996 0.9760924578
-0.066452354 0.076475717 1.3455001 0.5503867865 -0.5192914605 0.6537665725
-0.091521367 -0.1881844 1.1730001 -0.215502128 0.4677358568 0.8571942449
-0.051226046 0.01745246 1.2842501 -0.7400965095 -0.5029348731 0.4464455843
-0.28280917 -0.18606271 1.2360001 0.6784077287 0.08649345487 0.7295764685
-0.18803389 -0.17465907 1.2042223 0.547540009 0.1572081 0.8218792677
-0.096205927 0.037684921 1.335 0.5258275867 -0.7025617957 0.4794916809
-0.30762231 -0.016123654 1.452 0.7362397313 0.0777194798 0.6722430587
-0.22248018 -0.04813455 1.2970001 0.6628570557 -0.4871206582 0.5686246753
-0.041238051 0.017740929 1.3140001 -0.7419899702 -0.4308327138 0.5136477947
-0.043415401 -0.056802575 1.2352729 -0.4610696733 -0.6892105341 0.5589307547
-0.16573472 -0.22514908 1.1889998 0.2475165874 0.2918667197 0.9238773584
-0.24467175 -0.16488886 1.2134502 0.3800393939 0.01742435619 0.9248061776
-0.16650003 -0.0011326533 1.2920001 0.4295377731 -0.7151302099 0.5514400005
-0.31847647 0.01521793 1.464 0.7499674559 -0.01569443382 0.6612884998
-0.29769409 0.0076007 1.4450001 0.6641237736 -0.0314183794 0.7469621897
-0.09491758 -0.17554797 1.1642001 -0.1072563604 0.3109491765 0.9443551898
-0.12371082 -0.14713536 1.169 0.2307896763 -0.2196920067 0.9478774071
-0.31639552 -0.20352116 1.2765714 0.7574696541 0.3892378807 0.5241503119
-0.15558641 -0.083972588 1.1825385 0.399061203 -0.3791882992 0.8348451257
-0.28064671 -0.12756436 1.2653333 0.662226975 -0.4748526514 0.5796295404
-0.23504627 -0.11557414 1.2344002 0.5893721581 -0.5618777275 0.5804600716
-0.096417993 -0.058893152 1.189 -0.1629195511 -0.5875365138 0.7926273346
-0.09263517 -0.20777832 1.194 -0.3870804012 0.6938261986 0.6072676182
-0.32313618 -0.02585301 1.4743751 0.8274052143 0.04580420628 0.5597343445
-0.29217985 -0.10770551 1.307 0.7352522612 -0.4699856937 0.4883826375
-0.30649012 -0.13266113 1.3045001 0.7072519064 -0.5920497775 0.386357069
-0.13582356 -0.021147478 1.2434 0.4347372055 -0.8162722588 0.3803986907
-0.04169865 0.053612549 1.3590001 -0.7521366477 -0.6037390828 0.2641771436
-0.13680734 -0.18515289 1.1733335 0.2734180689 0.06116188318 0.9599488378
-0.32494646 0.025791643 1.4708751 0.7541585565 -0.04632288963 0.6550565362
-0.21254547 -0.045526788 1.2855 0.6861433387 -0.4877510965 0.5397278666
-0.041167825 0.0080052819 1.3045001 -0.7179327607 -0.4539314806 0.527748704
-0.1250146 -0.056453738 1.1950002 -0.08469065279 -0.6902080774 0.7186378241
-0.28439286 -0.037370108 1.4450001 0.1720280945 0.3159289658 0.933056891
-0.33545011 -0.064558104 1.4855715 0.6617015004 -0.3249001801 0.6757151484
-0.11157863 0.041545235 1.3540001 0.5614558458 -0.5476994514 0.620316565
-0.18373576 -0.074972093 1.2045001 0.6653959155 -0.4734221995 0.5771651864
-0.13651082 -0.15502076 1.1730002 0.2429408878 -0.1487377584 0.9585701823
-0.068378247 0.049834993 1.322 0.4783584774 -0.6077801585 0.6338583827
-0.027744746 0.06272725 1.376 -0.9811825156 -0.1895134896 -0.03695257753
-0.13401985 0.15584205 1.3920001 -0.09919183701 -0.2689109743 0.9580437541
-0.13631114 0.1166658 1.3760002 -0.1130027473 -0.05326600373 0.9921658635
-0.13487983 0.13609891 1.3861004 -0.1826689541 -0.2635886073 0.9471816421
-0.20472562 -0.25495663 1.2105713 0.3461108804 0.3777092993 0.8588032126
-0.35148019 -0.061640188 1.4960001 0.6335181594 -0.3099554479 0.7089304328
-0.30921435 -0.14158167 1.2920001 0.6757614613 -0.5904686451 0.4412405789
-0.20156188 -0.087447941 1.2165 0.7619720697 -0.4589850307 0.4568711817
