# .PCD v0.7 - Point Cloud Data file format
VERSION 0.7
FIELDS x y z normal_x normal_y normal_z
SIZE 4 4 4 4 4 4
TYPE F F F F F F
COUNT 1 1 1 1 1 1
WIDTH 512
HEIGHT 1
VIEWPOINT 0 0 0 1 0 0 0
POINTS 512
DATA ascii
-0.038250234 0.083172962 1.0527778 -0.7947130799 -0.2782894969 0.5394312739
-0.11752155 -0.24519928 1.6550001 -0.8909209371 0.4438666999 0.09613663703
-0.30134919 -0.083297066 1.018 0.5714374185 0.4960791171 0.6537314057
-0.078869425 -0.13441969 0.89666677 -0.3035802841 0.1802188307 0.9356068373
-0.19033048 0.23714973 1.161 0.3204743862 -0.8875391483 0.3310142457
-0.21701907 0.096545331 0.94125015 0.2433481514 -0.3728071153 0.8954309225
0.016945967 0.24551547 1.1833335 -0.09186430275 -0.726312995 0.6811977625
-0.083132118 0.014261524 0.92430007 -0.7912212014 -0.09952969849 0.6033762097
-0.14462654 0.17711069 1.0426154 -0.3161504865 -0.6887778044 0.6524063349
-0.19514787 -0.065630034 0.9328438 0.2797571719 0.3572862446 0.8911130428
0.012368013 0.11578108 1.1756667 -0.9570327997 -0.07152158767 0.2810212076
-0.16219035 -0.17523515 0.99200004 -0.1095892638 0.6391649842 0.7612215877
0.022700204 -0.015240311 0.98715401 0.5932847857 -0.6318882108 0.4987288713
-0.057874907 0.18471909 1.1158334 -0.735976696 -0.3197575212 0.5967356563
-0.28810334 0.023220271 0.98100007 0.4519811869 0.336360544 0.8261806965
-0.11335634 0.10415308 0.97220004 -0.3857556581 -0.8135452271 0.435128361
-0.025100181 -0.064380974 0.92544097 -0.3583035767 0.145366922 0.9222185016
0.042120326 0.12732123 1.0920001 -0.3063319921 -0.5637060404 0.7670698762
-0.083294727 0.24782753 1.1730001 -0.3525483608 -0.7813519239 0.5149745345
-0.23757777 -0.1290015 0.98100001 0.3874122202 0.5320181251 0.7529067397
-0.1681622 0.025204167 0.92000002 0.3482751846 -0.1026500389 0.9317550063
-0.0148069 0.048369206 1.126 -0.9395192862 0.1914820522 0.2839684784
-0.11461852 -0.063232943 0.91580015 0.2038626075 0.5108558536 0.8351445198
-0.12527741 0.22734027 1.1035001 -0.2734431922 -0.7695466876 0.5770846605
-0.1453041 -0.17228213 0.91481823 0.3475876153 0.7260863781 0.5932801962
-0.20471165 0.14848261 1.0022 0.3062247336 -0.820859015 0.482096374
-0.040997315 0.02878535 0.99500006 -0.2214782983 -0.7084139585 0.6701470017
0.015850134 0.18921097 1.13 -0.05980366841 -0.5772955418 0.81434232
0.021762373 0.042622071 1.0343333 0.6919688582 -0.3984309435 0.6020231843
-0.26387674 -0.044583753 0.96445459 0.4474164546 0.3002133965 0.8424312472
-0.087026432 0.13584827 1.0552309 -0.4806104004 -0.5523219705 0.6811417341
-0.14464702 -0.1140433 0.95650005 0.1699441224 0.4022544622 0.8996167779
-0.23104024 0.02327024 0.94800007 0.6442703009 -0.1004958823 0.7581664324
-0.033979777 0.20450547 1.1746001 -0.7245313525 -0.5237429142 0.4480487406
-0.077918135 -0.2110873 1.6160001 -0.8934732676 0.4391976595 0.09386643022
-0.016863778 0.11219361 1.1152501 -0.9318452477 0.1416442543 0.3340678513
-0.12152178 0.070015863 0.91800004 -0.01855461113 -0.6791369915 0.7337769866
-0.018953534 -0.0024722 0.94000006 0.1485696137 -0.6305413842 0.7618035674
-0.18977816 0.2011082 1.077 0.2137148082 -0.7864326239 0.5795254111
-0.053918507 0.088704638 0.99200004 -0.5546645522 -0.5161450505 0.652641952
-0.31085196 -0.01870456 1.016 0.8150959015 0.06335852295 0.5758510232
-0.058882192 -0.11112978 0.94600004 -0.476143688 0.6593722701 0.5818207264
-0.0280621 0.1412459 1.067 -0.5651539564 -0.5644387007 0.6016726494
-0.16951402 0.11891282 0.96200007 -0.1159838364 -0.7121707797 0.6923586726
-0.13494126 -0.014909219 0.89490497 0.1540898681 0.1657530069 0.9740545154
-0.020062517 -0.049720149 0.99500006 0.7371179461 -0.5922256112 0.3254627287
-0.075750805 0.064351544 0.94543999 -0.7267032862 -0.3530278206 0.5892993212
-0.26530915 0.07022889 0.98900002 0.7572225332 -0.4779863954 0.4451326132
-0.064179666 -0.033709239 0.94289309 -0.05318475887 -0.55671978 0.8289960623
-0.12500167 0.13436365 1.0132002 -0.7275732756 -0.5840245485 0.3599340022
0.03075259 0.085734501 1.0630001 0.004883874673 -0.5791780949 0.8151863813
-0.1050308 0.18428506 1.0749999 -0.5283449292 -0.4771258831 0.7022837996
-0.19588853 -0.11013476 0.95899999 -0.0384600386 0.5024337173 0.8637599349
-0.19541214 -0.014509963 0.93464506 0.3645246029 0.151491493 0.9187884331
-0.17548244 0.075570971 0.92307699 0.4240959585 -0.4684831202 0.7750265598
-0.21346733 0.17370926 1.0444286 0.3060031533 -0.8158233166 0.4907080233
-0.065424427 -0.084973 0.90589756 -0.5048689842 -0.287021786 0.8140797019
-0.26057822 -0.086569518 0.98750001 0.7989367843 0.08409650624 0.5955063105
-0.046293497 0.12238833 1.0244545 -0.5864834785 -0.6333410144 0.5048923492
-0.00090384332 0.0027115301 1.031 0.692089498 -0.4807285368 0.5384349227
-0.074511021 0.22463492 1.1315556 -0.3541185558 -0.7293868065 0.585316062
-0.12188209 0.25484437 1.149 -0.3366183937 -0.7641543746 0.5502327681
-0.08455801 -0.21431081 1.6630001 -0.8934732676 0.4391976595 0.09386643022
0.00339894 -0.043867934 0.95488232 0.4591555297 -0.8521800041 0.2509290874
-0.033534605 0.038667314 1.0452001 -0.7928546071 -0.4030679166 0.457075268
-0.12715113 -0.15288794 0.97210008 0.1522988975 0.4061281383 0.9010354877
-0.070847236 0.0025595746 0.97366667 0.4661582112 -0.4773256779 0.744887054
-0.005443777 0.15463203 1.1035261 -0.7008615732 -0.3247470856 0.6350845098
-0.11530495 0.025100464 0.89476222 -0.2275013924 -0.09139478207 0.9694793224
0.0037093712 0.077889785 1.1538888 -0.9177287817 0.02949507535 0.3961109519
-0.16167444 0.24152386 1.1245 0.291713655 -0.8682339191 0.4013389647
-0.15646747 -0.049198534 0.92000002 0.1392331421 0.541623354 0.829010427
-0.020096356 0.07559637 1.0916001 -0.9316704273 -0.002591098193 0.3632953465
-0.10738889 -0.096090704 0.94349998 0.3175832331 0.5758846402 0.7533245087
-0.20038232 -0.15050174 0.98100007 0.2411943227 0.1914289147 0.9514096379
-0.23391247 -0.07545469 0.9563334 0.6499141455 0.002700419631 0.7600028515
-0.16684982 0.16684982 1.0070001 -0.2564793229 -0.781222105 0.5691312551
-0.091781698 -0.025497608 0.9121666 -0.6177049279 0.05609320849 0.7844069004
-0.0018131221 0.22220817 1.149 -0.4284214675 -0.5815258622 0.6915798783
-0.063727878 0.058339536 1.0238001 -0.8002077341 -0.4421954751 0.4051305354
-0.23525752 -0.024918796 0.94222593 0.2352745384 0.3967703283 0.8872537613
-0.24338785 0.062241796 0.94350004 0.6053217053 -0.2541009486 0.7543330789
-0.065527789 0.15483633 1.0846955 -0.4408584535 -0.5331599712 0.7220694423
-0.27717096 -0.014535635 0.99200004 0.7006841302 0.09911581129 0.7065534592
-0.11509842 -0.1551301 0.89344758 -0.04669461399 0.4697751403 0.881550312
0.011942653 0.13633499 1.1352 -0.4900735021 0.7115030289 0.5035786033
-0.24170239 0.10765079 0.97128576 0.6887323856 -0.5950294733 0.4142314196
-0.14479159 0.2041498 1.0725 -0.08707892895 -0.7588473558 0.6454207301
-0.20254339 0.043819547 0.92718196 0.6086657047 -0.3601143956 0.7069962621
-0.029008023 0.17804924 1.141 -0.3390379846 -0.8477935195 0.4077982605
-0.29226527 -0.05582751 0.98842853 0.756577909 0.1506607383 0.6363105774
-0.14482971 -0.079522438 0.94000006 0.1043354496 0.6162839532 0.7805819511
-0.14637178 0.10114454 0.93800002 -0.2859905064 -0.7059207559 0.6479855776
-0.082334347 0.11313097 0.99650007 -0.03172859177 -0.8868451118 0.4609762132
-0.0083949603 0.18993597 1.197 -0.5649584532 -0.5281262398 0.6339594722
-0.16500232 -0.14484717 0.97331238 -0.01461541094 0.4063181877 0.9136147499
-0.25839001 0.0066814525 0.97000015 0.5068514347 0.202098161 0.8380083442
-0.13880205 0.13139306 0.97533339 -0.4137642682 -0.6601463556 0.626901865
-0.095280014 0.20655496 1.101 -0.3830522001 -0.6519156694 0.6544287205
-0.16425243 0.22335573 1.0944 0.08721011132 -0.824200809 0.5595421195
-0.26668975 0.044551451 0.96400005 0.6264715791 -0.1561249793 0.7636480927
-0.12080905 0.14918412 1.044 -0.675324142 -0.5244393945 0.5185562968
0.032609973 0.15411642 1.1144376 0.1301840842 -0.4669215679 0.8746635914
-0.034865033 -0.0059525664 0.97000003 0.2436692268 -0.6504355073 0.7194157243
-0.095941596 0.044794563 0.91460001 -0.6744652987 -0.2610794306 0.6906042099
-0.066763423 0.034649372 0.96400005 -0.9132241011 -0.2533966601 0.3190797567
0.025729466 0.013041819 1.0052 0.6897255778 -0.4399131536 0.5751130581
-0.10032662 0.11659578 1.031 -0.5809261799 -0.6514796615 0.4879538715
-0.1060039 0.081748135 0.94536364 -0.3716814518 -0.7862221003 0.4936676025
-0.032698702 0.10570803 1.0843 -0.9058759212 0.1387558579 0.4001695514
-0.094467908 -0.10519937 0.8939749 -0.2164933085 -0.09928847849 0.9712221622
-0.20308666 0.12848829 0.97580004 0.1299194992 -0.821727097 0.554874301
-0.042544629 0.21553659 1.1446002 -0.8390253186 -0.2185070515 0.4982882738
-0.14089435 0.040596679 0.90800005 0.389446944 -0.3973897099 0.8309106231
-0.16446812 -0.014965246 0.90892303 0.5350272655 0.02866079472 0.8443484902
-0.11816765 -0.23491161 1.6240001 -0.8909209371 0.4438666999 0.09613663703
-0.17537622 0.14362825 0.98600006 -0.116772458 -0.7876269817 0.6049858928
-0.2760511 -0.10230104 1.0112 0.6739224195 0.01937672682 0.7385479808
-0.0035312134 -0.01853887 1.0070001 0.6320883036 -0.6066775322 0.4820857942
-0.031475466 -0.033456232 0.93085718 -0.00429384131 -0.2994413376 0.9541050196
-0.025670553 0.21555655 1.2033334 -0.7199361324 -0.01208928879 0.6939350367
-0.1742454 -0.088790119 0.95100009 0.008909299038 0.5647190213 0.825235188
-0.013550636 0.24078439 1.189 0.6664716601 -0.453774035 0.5915273428
-0.076401584 -0.056928322 0.91466677 -0.3856288791 -0.4713023305 0.7931988835
0.015698047 0.11466659 1.0816295 -0.1208404079 -0.5648043156 0.8163294196
-0.1155602 -0.12429135 0.95579171 0.1430993676 0.3728655279 0.9167845249
-0.0030139801 0.10649483 1.146 -0.8602961898 -0.2521810234 0.4430521131
-0.036333885 -0.092563286 0.93770009 -0.3323162496 0.5856682062 0.7392960191
-0.17348906 0.18152486 1.0345714 -0.005622792523 -0.8626909256 0.5057002902
-0.085481718 0.091127068 0.96544445 -0.2650861442 -0.7541399598 0.6008346081
-0.02845397 0.11106227 1.0470001 -0.9164390564 0.1926732063 0.3507370949
0.00092049997 0.027615 1.0500001 0.4611871839 -0.3789141774 0.8023281097
-0.20477512 0.014410979 0.92224145 0.2658574879 0.2593519986 0.9284698963
-0.23672852 -0.1050415 0.9634546 0.4700931013 0.3095246553 0.8265633583
-0.26420069 -0.12227325 0.99199998 0.7469226718 0.2804844975 0.6028556824
0.0083160596 0.060060434 1.054 0.3993704021 -0.4415574372 0.8034490347
-0.10512761 0.23679392 1.1328571 -0.3594141901 -0.7521853447 0.5523030162
-0.19497094 0.11515845 0.94696414 -0.1724711061 -0.5295950174 0.8305316567
-0.0074871718 0.085916221 1.1239002 -0.9031890631 -0.04832084477 0.4265144765
-0.028270453 0.16231687 1.087 -0.07859634608 -0.7947734594 0.601795435
-0.14169036 0.013232884 0.89745462 0.3591086566 -0.1623524427 0.9190661907
-0.21566822 0.066956468 0.93777764 0.05812327564 0.01310687512 0.9982233644
-0.025004286 0.048085168 1.097 -0.9415166378 0.1705418378 0.2906233668
-0.19532034 0.16506034 1.0245385 0.3521236777 -0.7869921327 0.5066085458
-0.051265277 -0.0064325416 0.94700003 0.2465937585 -0.6170037985 0.7473271489
-0.078620598 0.18505408 1.0937001 -0.5627309084 -0.386603713 0.7306650877
-0.3037203 -0.048843481 1.013 0.8807436228 -0.009092548862 0.4735060334
-0.10852758 -0.0066353646 0.89800012 -0.4634902477 0.01687380299 0.8859413266
-0.21543904 -0.044260547 0.94449997 0.5195673108 0.03733516484 0.8536134362
-0.23664114 -0.0481002 0.96257144 0.4035771489 0.3508038819 0.8450219631
-0.093240514 0.15815242 1.0700001 -0.4708257318 -0.4599525034 0.752839148
-0.11846601 -0.17597008 0.91100001 0.07359983027 0.6813738346 0.7282257676
-0.14449857 0.1538858 1.0154002 -0.3893894255 -0.7319405079 0.5591412783
-0.13493347 0.24583763 1.1245002 -0.1014113426 -0.8290506601 0.549900651
-0.21441863 -0.092249885 0.94800001 0.2658805251 0.3695489764 0.890360117
-0.26146495 -0.01765519 0.95900005 0.7100321651 -0.1290371269 0.6922454834
-0.1768145 0.096408844 0.94099998 0.2141668797 -0.6234650016 0.7519467473
-0.1147088 -0.034836676 0.90210021 -0.1277543902 0.3280317187 0.9359882474
-0.30206224 -0.0052302806 0.99409997 0.3988362253 0.5661292672 0.7214065194
-0.17353091 0.053730901 0.90800005 0.01123134233 -0.007761585526 0.9999067783
-0.16147761 -0.16639571 0.93500006 -0.3779139817 0.824451685 -0.4212605357
-0.10809958 0.1120564 1.0025001 -0.3994764686 -0.8692031503 0.2913837135
-0.18387106 -0.16213976 0.96400011 0.01468295511 0.3324507475 0.9430063367
-0.039844498 0.0504697 1.01 -0.6637858748 -0.6920903921 0.2835475206
0.016348956 0.14137039 1.097 0.01874937676 -0.6253139973 0.7801479697
-0.090533368 -0.079511911 0.89800006 0.1967652738 -0.3968880773 0.8965284824
-0.23618153 0.084669963 0.95485723 0.7240775228 -0.484413445 0.4909738302
-0.098321676 -0.082877822 0.92272735 0.5749220848 0.5010886788 0.6468189359
-0.063160643 0.042506695 0.99690914 -0.1793652624 -0.6903574467 0.700881362
-0.18996051 0.18440069 1.057 0.2512225509 -0.8401431441 0.4806732237
-0.068664916 0.11824042 0.97500008 -0.4124551117 -0.6229759455 0.6646666527
0.0022405847 -0.030874271 0.98380005 0.5570582747 -0.7255599499 0.4040406346
-0.011512497 0.12664141 1.094375 -0.8416064978 0.3746684492 0.3890013099
-0.043641012 0.018522542 0.97137505 -0.1658771038 -0.7070071101 0.6874778271
-0.028163617 0.055768799 1.0638001 -0.9115770459 -0.1196247488 0.3933410943
-0.18547598 -0.035434194 0.92335492 0.5314388871 0.02036207542 0.8468518853
-0.047039129 0.16356741 1.1040001 -0.04465272278 -0.818056941 0.5734012723
-0.0037973442 0.17509976 1.123 -0.2222204953 -0.4544932842 0.8625856042
-0.11479388 0.20513317 1.0853529 -0.4495259821 -0.6254011393 0.6378085613
-0.21461485 -0.12696728 0.97123539 0.1268088967 0.5793353319 0.8051646352
-0.25341839 -0.063651964 0.97680002 0.4815398157 0.3619690239 0.7981840968
-0.046945147 0.13817458 1.0840001 0.2735120952 -0.6732664108 0.6869522929
-0.068724968 0.015736166 0.94450003 -0.8231447935 -0.20161663 0.5308327079
-0.10529845 -0.1329644 0.88817644 -0.262691766 0.1785097569 0.9482232332
-0.14503586 0.074551955 0.92430943 -0.2952359021 -0.3513503373 0.8884754777
-0.074673712 -0.014124686 0.93219066 -0.8491867781 -0.03168518469 0.5271412134
-0.086067326 0.24298072 1.149 -0.3592915535 -0.7740695477 0.521273315
-0.073917799 0.20712201 1.1131251 -0.4442868233 -0.6259161234 0.6409666538
-0.17533046 -0.12479907 0.96363664 0.08755163103 0.361163497 0.9283833504
-0.22493759 0.0049081054 0.93300003 0.5393170714 -0.03160347044 0.841509521
-0.27545226 -0.075710326 1.0034705 0.4517662823 0.5986474752 0.6614593267
-0.068292864 -0.11256523 0.89539993 -0.3486760259 -0.03169686347 0.9367071986
-0.1310266 0.18864113 1.0600001 -0.3401930332 -0.6568928957 0.6728747487
-0.053205948 -0.049300928 0.92800009 0.1094912514 -0.4382292628 0.892169714
0.014244148 0.22481221 1.1668462 -0.4497344792 -0.5634294748 0.6930267811
-0.13871935 0.11013476 0.95900005 -0.465282917 -0.6960178614 0.5468737483
-0.057030093 0.11141703 1.006 -0.5248289108 -0.6464014053 0.5538229346
-0.0024868529 0.24235488 1.1678572 -0.05055772513 -0.7366062403 0.6744294763
-0.14472227 -0.034755457 0.90521061 0.219652459 0.4299153984 0.8757428527
-0.1137986 0.16505627 1.0602858 -0.570853889 -0.3492108881 0.7430865169
-0.041422501 0.13163149 1.0500001 -0.6524181366 -0.5128653646 0.5579602718
-0.1653344 0.19281922 1.0536251 0.1132136583 -0.8216889501 0.5585785508
-0.0024941165 0.20102581 1.138 -0.2132976949 -0.591835022 0.7773257494
-0.098914824 0.014155185 0.90699995 -0.6480456591 -0.01895909943 0.7613654733
-0.0068994099 -0.05576998 0.93694991 -0.700966835 -0.03495417535 0.7123367786
-0.1449171 -0.13559516 0.96670043 0.1101725847 0.3512758911 0.9297673106
-0.044953495 0.067491934 1.0333751 -0.8505904675 -0.2701647878 0.4511173069
-0.18424349 0.0056910529 0.92760873 0.2599623799 0.260055244 0.9299412966
-0.14878173 -0.15910184 0.98100007 0.1163316071 0.5245027542 0.8434238434
-0.017297901 0.18685068 1.1761112 -0.6968232989 -0.5180508494 0.4960449636
-0.078765355 0.034458622 0.93591666 -0.8507679105 -0.09546156228 0.5167988539
-0.28236994 -0.035697341 0.98380005 0.7738178372 -0.1701276749 0.6101332307
-0.14499044 0.14499396 0.99433327 -0.3284282684 -0.8392161727 0.4334178567
-0.067652687 0.073575452 0.96462506 -0.6682283282 -0.4816037118 0.567035079
-0.021342013 0.1716956 1.1065 -0.03427279741 -0.8616102934 0.5064120293
-0.25557521 0.064319856 0.9653334 0.7616174221 -0.4481764734 0.4680563807
-0.095708765 0.2233239 1.1163 -0.3463248909 -0.7334344983 0.5849213004
-0.25245655 0.037015028 0.94800001 0.3194811344 0.3253277838 0.8899964094
-0.045354314 -0.074520797 0.92391658 -0.4357570708 0.1844627857 0.8809592724
-0.16343059 -0.068262845 0.93000025 0.02067117579 0.6110149622 0.791349113
-0.22517322 0.044947192 0.94532341 0.2909153998 0.1672697514 0.9420133233
-0.0023462228 0.13523908 1.1147001 -0.7732819319 0.5522478223 0.3115403354
-0.055871367 0.21144255 1.126 -0.5729623437 -0.4498348832 0.6851004958
-0.13461523 -0.053007513 0.91491669 0.2345644832 0.5808944106 0.7794492841
-0.093207195 0.067381695 0.93162495 -0.485697031 -0.6112042069 0.6249222755
-0.094136111 -0.15484983 0.9014706 -0.3279697597 0.4180984199 0.8471301794
-0.11531224 0.046451677 0.90164733 -0.09602794796 -0.4658580124 0.8796334267
-0.15476078 0.052877259 0.92040002 -0.06866817176 -0.08508232981 0.9940048456
-0.041442662 0.19508375 1.153 -0.8538457155 -0.2336673737 0.4651311636
-0.24142875 0.0037398599 0.94800007 0.6758466959 -0.2328360379 0.6992986202
-0.12344787 -0.083046161 0.93666679 0.2844351828 0.6203302741 0.7309493423
-0.012186104 0.122885 1.135 -0.8501916528 0.410030216 0.3302262127
-0.19527191 0.085081153 0.94281268 0.06642281264 -0.1968193352 0.9781872034
-0.12454005 0.093049072 0.9454211 -0.3944757581 -0.7319651842 0.5555319786
-0.14619556 -0.18163393 0.93580008 0.0211593695 0.9989327788 -0.04105529934
-0.012685257 0.06538257 1.1131251 -0.9378030896 0.16314511 0.3064458668
-0.27476314 -0.062252708 0.97684604 0.392254889 0.5499361753 0.737364471
0.035878457 0.10102619 1.077 -0.2158066779 -0.5977201462 0.7721127272
-0.13484323 -0.15808818 0.90100002 0.2143627703 0.585480392 0.7818320394
-0.086746544 -0.0046372623 0.91513056 -0.7352101803 -0.0840555802 0.6726073623
-0.027859678 0.084143251 1.0737 -0.86089921 -0.2283485234 0.4546531737
-0.072835781 0.13628541 1.0710714 -0.5349699259 -0.4788359404 0.6960771084
0.014211349 0.16604149 1.1162857 0.148705557 -0.251680851 0.9563176036
-0.12506783 -0.10505701 0.95108348 0.139441669 0.4150122404 0.8990666866
-0.28700879 0.0021109337 0.98100001 0.3953655064 0.4562717378 0.7971839309
-0.078914024 -0.036202826 0.92800003 -0.7015624046 -0.2567701936 0.6647399664
-0.022908496 0.09751904 1.1013637 -0.8963032961 -0.1070427671 0.4303280711
-0.25189152 -0.11417159 0.97675008 0.596973598 0.3169143796 0.7370127439
-0.18591592 0.13220593 0.96430773 -0.1798039973 -0.7770724297 0.6031823754
-0.19498654 -0.0854204 0.94421887 -0.009982500225 0.5203388333 0.8539015651
-0.14429057 0.21882476 1.09 -0.009678418748 -0.7875250578 0.616206646
-0.12549172 0.11687617 0.98354548 -0.6647847891 -0.607657671 0.4345265329
-0.16700566 0.0053504347 0.91284209 0.5739096403 -0.105710946 0.8120670319
0.014151154 0.20923491 1.153 -0.4275662303 -0.5972082615 0.6786231399
0.01485653 -0.0049822428 1.0035 0.622500062 -0.5528926253 0.5538983345
-0.12195894 -0.25395748 1.6366668 -0.8909209371 0.4438666999 0.09613663703
-0.19526808 0.065405361 0.93434614 0.4886741936 -0.3416599631 0.8027864099
-0.073788859 0.098213144 0.98100007 -0.4022130966 -0.5581099987 0.725767076
-0.18491419 0.035219751 0.9131428 0.1525034606 0.1382097304 0.9785912037
-0.27379304 0.02516696 0.96332008 0.4651838839 0.2253941596 0.8560382128
0.01226179 0.016749447 1.0235001 0.7280083299 -0.3843422532 0.5677014589
-0.14500819 0.23131926 1.1079999 0.0637177825 -0.8069800735 0.5871313214
-0.048884686 0.18256934 1.138 -0.7511945963 -0.4495143294 0.483366847
-0.094127133 0.10539055 0.98172736 -0.09538175911 -0.8163247705 0.5696632266
-0.070954762 -0.01585732 0.95220006 -0.9223653674 -0.1383394897 0.3606998026
-0.019827571 0.11990959 1.077 -0.9155003428 0.2818478942 0.2870903611
-0.21568228 -0.01317283 0.93639123 0.1922916621 0.3711032271 0.9084637165
-0.015749227 0.14650038 1.0822999 -0.7439121604 -0.3701874316 0.5563775301
-0.24832754 -0.084681295 0.9715001 0.714992404 -0.003784090281 0.6991220117
-0.065222174 0.025496233 0.9819231 -0.2017761767 -0.6499115229 0.7327355146
-0.1555378 -0.096035585 0.95314312 0.1135027483 0.4786734581 0.8706255555
-0.1647432 0.20924281 1.08 0.1015971974 -0.7736185193 0.6254537702
-0.24752419 0.023403054 0.96200001 0.3482556045 0.2957420051 0.8895249963
-0.21512997 -0.06432233 0.94308007 0.5287127495 0.06165057421 0.8465589285
0.013151754 0.095604442 1.1539999 -0.8902975917 -0.1353478432 0.4348001182
-0.0372569 0.10473201 1.0274545 -0.8998917937 -0.1327575594 0.4154157341
-0.31001827 -0.031634517 1.031 0.8382646441 -0.01066928543 0.5451592207
-0.29362041 -0.022070084 1.0070001 0.7679123282 0.1171410978 0.6297528148
-0.18416063 0.15805936 1.0035001 0.1946948767 -0.7846153378 0.5886192918
-0.29652345 -0.067551158 1.0036668 0.6625085473 0.450425595 0.5984974504
-0.094544336 -0.044812355 0.91008323 -0.37180233 -0.02461778373 0.9279854298
-0.19503467 -0.1276114 0.9715001 0.1121749431 0.4469334483 0.8875062466
-0.020601667 -0.076638199 0.94000006 -0.5268918872 0.4554276168 0.7176145315
-0.16376863 0.090864651 0.92633343 0.1378542632 -0.665982306 0.7331192493
-0.17188978 -0.16156089 0.98200005 -0.215077281 0.4542010725 0.8645479679
0.017464252 0.098228745 1.0712001 -0.2668200731 -0.5767848492 0.7720921636
-0.21554047 -0.1118162 0.95899987 0.104741551 0.5193524361 0.8481168747
-0.10415372 0.1358712 1.0459414 -0.4756054878 -0.6009259224 0.6424075365
-0.21601856 0.15998027 1.031 0.3455688357 -0.7995693088 0.4911935627
-0.038258608 0.17167325 1.1190001 -0.1070884094 -0.8992063403 0.4242169559
-0.15951476 0.17032932 1.028 -0.3314462602 -0.7734657526 0.5402722359
-0.17985693 -0.0169372 0.92000002 0.6109746099 -0.07872719318 0.7877258658
-0.17449701 -0.054936767 0.92150009 0.2190377414 0.4289533794 0.8763683438
-0.1253271 0.0047006868 0.89350045 -0.05856522918 0.003930394072 0.998275876
0.0053487942 0.12127043 1.154143 -0.8622547984 0.2311191261 0.4506668746
-0.1947585 0.14222164 0.98559999 0.1582047939 -0.8246532083 0.5430638194
0.0059069796 0.15062799 1.123 -0.9212334752 0.2549831569 0.2937898636
-0.040554598 0.040554598 1.028 -0.7642846107 -0.6110078692 0.2062484622
-0.17848188 0.23378989 1.1470001 0.3535143137 -0.8608102798 0.3661055267
-0.16365965 0.13195606 0.9774 -0.08744004369 -0.7639654279 0.6393051744
-0.15292868 0.024262736 0.90737504 0.4994921386 -0.2995064557 0.8128982186
-0.054559126 -0.095012508 0.934919 -0.3310740292 0.640494585 0.6929333806
-0.16554518 -0.035550773 0.9112857 0.3737384081 0.2940355539 0.8796946406
-0.096236892 -0.064335138 0.91350025 0.3930408657 0.07612348348 0.9163646102
-0.13050322 0.16518241 1.041 -0.6539802551 -0.5015042424 0.5663950443
-0.22435346 -0.14151636 0.98430014 0.2447698265 0.5443235636 0.8023712039
-0.21698774 0.024808656 0.93130779 0.6457535625 -0.1947065592 0.7383032441
-0.14928669 -0.0031595067 0.90100002 0.4149022698 -0.01137409545 0.909794867
-0.036020145 -0.01672636 0.93650013 0.2696531713 -0.4302490652 0.8614946008
-0.041422501 0.054309499 1.0500001 -0.8460101485 -0.2692969143 0.4601587057
-0.14466003 -0.062993772 0.9262858 0.1359363347 0.6112720966 0.7796587348
-0.11516467 0.23218431 1.1185555 -0.354947418 -0.7401661277 0.5711098313
-0.077107705 -0.095636159 0.89718527 -0.2660452724 -0.2177065909 0.9390547276
-0.057371873 0.0065820129 0.96240008 0.4341775179 -0.5002794862 0.7491397262
-0.21238764 0.11296771 0.95100009 0.3689058423 -0.6817176938 0.6317985654
-0.083666436 0.16686517 1.0825 -0.5181711316 -0.4748024046 0.7113798857
-0.24542852 -0.035610665 0.95246452 0.3477344513 0.4051210582 0.8455517292
-0.18479632 -0.14537084 0.97384852 0.1524479091 0.2040471137 0.9670183063
-0.042519208 -0.10588117 0.95100003 -0.3094711304 0.5941388607 0.7424464226
-0.041331764 0.096754633 1.0715001 -0.8485357761 -0.102149643 0.5191844106
-0.016932037 0.20350343 1.1823334 -0.7073162198 -0.563161552 0.427262038
-0.038864888 0.0034726018 0.95485723 0.2448633015 -0.6679493189 0.7027699947
-0.08877828 0.11989644 1.044 -0.5035842657 -0.5881664753 0.6328215003
-0.16280051 0.22909053 1.1120001 0.2022721916 -0.8380485177 0.5067155957
-0.08297386 0.078968905 0.95220006 -0.4757526219 -0.6952233315 0.5388171673
-0.1063398 0.061259963 0.91600007 -0.3591317832 -0.6132834554 0.7034968138
-0.22733369 0.10056769 0.96400005 0.6749001741 -0.5692453384 0.4695418477
-0.26640049 -0.10499212 0.99387503 0.8183078766 0.004858082626 0.5747596622
-0.22093315 -0.029179851 0.95100003 0.2502454817 0.3116906881 0.9166384935
-0.11183093 0.12726973 1.0238001 -0.6738829613 -0.6272780299 0.3903895915
-0.065974422 0.12125353 1.0170001 -0.4655327201 -0.7046041489 0.5355486274
-0.19634527 -0.046434999 0.93094748 0.5152804852 0.04326797649 0.8559286594
0.022919398 0.063995257 1.0458 0.3535812795 -0.5193573236 0.7779769897
-0.063657746 0.16795793 1.1035999 -0.5660251975 -0.5517258048 0.6125472784
-0.16276719 -0.10879258 0.96200007 0.06196857244 0.4050780535 0.9121796489
-0.26918313 -0.00430005 0.98100007 0.6362636089 0.09226181358 0.7659349442
-0.0091879051 -0.043356866 0.98250002 0.6839413643 -0.656691134 0.3177750111
-0.13147019 0.030702619 0.89800006 0.2748731077 -0.3240281641 0.9052350521
-0.18758886 0.058403239 0.921 0.5577020645 -0.3765375912 0.739721477
-0.11437659 0.078645937 0.93060017 -0.2331420034 -0.7334478498 0.6385132074
-0.023573369 0.12552911 1.0615556 -0.8462882042 -0.2554596961 0.4674789608
-0.072500445 0.04481706 0.95188254 -0.8928328156 -0.08246124536 0.4427750409
-0.15536226 0.11405221 0.95438474 -0.0939617008 -0.796348989 0.5974943042
-0.046630286 0.15369818 1.0904446 0.2646256983 -0.5938129425 0.7598417401
-0.12509263 -0.13523565 0.96411145 0.1677353531 0.3575461209 0.9187086821
-0.048798773 0.19917691 1.136 -0.8408763409 -0.1761876345 0.5117468834
-0.14702635 0.19243155 1.057 -0.161149025 -0.7449503541 0.6473638415
-0.0065698861 0.10285214 1.1245 -0.8899393678 -0.1627991647 0.4260332286
-0.20653039 -0.0024402023 0.92750007 0.1238479242 0.371180892 0.9202643037
-0.28370583 -0.084634818 1.0148749 0.5130031705 0.3949105442 0.762150526
-0.051848609 0.077317014 1.0449001 -0.8090032935 -0.2111411095 0.5485737324
-0.17963426 -0.10879258 0.96200007 0.004997151438 0.3867070973 0.9221890569
-0.12931593 0.15380532 1.0220002 -0.6745612621 -0.5940489769 0.4382612705
-0.062183015 -0.062183022 0.92119998 -0.3865848482 -0.4126095474 0.8248063326
-0.22837056 0.077144787 0.94042861 0.4698528349 -0.1871891022 0.8626694679
-0.13546786 0.084620833 0.93318921 -0.3126215637 -0.6018539667 0.7348738313
0.016783001 0.084695041 1.0543159 0.1832991838 -0.5741699934 0.7979537845
-0.27331537 -0.025685456 0.97446668 0.7897780538 -0.1555687934 0.5933371186
-0.22661768 -0.055431757 0.95185733 0.5949943662 0.0551311262 0.8018367887
-0.0049715764 0.074130349 1.1350001 -0.8944166303 0.213146925 0.3931759298
-0.028738596 0.18561752 1.1570001 -0.7185410857 -0.5087949634 0.4741586745
-0.27892026 0.011054766 0.97000003 0.4054191411 0.3790480793 0.8318400383
-0.13471806 0.054691624 0.91341197 0.2531946898 -0.4797356427 0.8400869966
-0.1012024 0.088552102 0.96200007 -0.3136294186 -0.789239943 0.5279553533
-0.051395021 -0.025942232 0.93650007 0.3894778788 -0.4414521456 0.8083482981
-0.061060708 0.079120919 0.98100007 -0.5873038173 -0.5122106671 0.6266693473
-0.15703467 0.15245461 1.0052001 -0.2854550481 -0.7964779735 0.533046186
-0.12019801 -0.050148841 0.90800005 0.1094274819 0.480979234 0.8698762059
-0.1041835 0.035043437 0.90462506 -0.5496788025 -0.1804595143 0.8156516552
0.025946457 0.1267343 1.0915 -0.2694419324 -0.5372520685 0.79922539
-0.091576166 -0.12523489 0.89283329 -0.2861197293 0.1071308106 0.9521861672
0.013271856 -0.032262709 0.97214288 0.5700768828 -0.7331905961 0.370734334
-0.10190958 0.14899242 1.0600001 -0.4302668571 -0.528427422 0.7318708301
-0.080755897 0.19915499 1.1010001 -0.4524937868 -0.4943630695 0.7421957254
-0.19594945 0.17642348 1.0445 0.3018725216 -0.8426316381 0.4459203184
-0.12401482 0.17547473 1.0539231 -0.5891906619 -0.4062863886 0.6984165907
0.038222667 0.10989016 1.09 -0.2383550107 -0.5613231063 0.7925296426
0.021502879 0.029566459 1.0220001 0.71682477 -0.3912089765 0.5771635771
0.0019952934 0.093778789 1.138 -0.8711775541 -0.1846121252 0.4549373686
-0.13098101 -0.070778556 0.92800003 0.254006803 0.623790741 0.7391654849
-0.066185892 0.19457604 1.1066666 -0.6422034502 -0.3218457997 0.6956939101
-0.03476334 0.15319887 1.075857 0.2131089419 -0.6571186781 0.7230349779
-0.09129782 0.22924131 1.132 -0.3309466839 -0.7436197996 0.5809508562
-0.088133544 0.053495858 0.9261111 -0.6866924167 -0.3399624527 0.6425566673
0.0074469456 -0.01617261 0.99523073 0.5898777246 -0.6277160048 0.5079536438
-0.11927985 0.12219623 0.99799997 -0.6692715883 -0.6608570814 0.3396224678
-0.1124889 0.21821256 1.103 -0.4181186855 -0.7088193297 0.5681126118
-0.26137614 -0.070759565 0.9883334 0.5829097629 0.4650748968 0.6662743688
-0.16199572 0.10278916 0.93800002 0.0909371376 -0.7583757639 0.6454429626
-0.23994279 0.095461108 0.98100007 0.7503209114 -0.4978993237 0.4348732829
-0.18519245 0.021155991 0.92000002 0.1263485551 0.2661507428 0.9556149244
-0.07543885 0.004920803 0.93541652 -0.8303256035 -0.06242182478 0.5537714958
-0.21026061 0.13671267 0.98700005 0.1601152271 -0.8385052681 0.5208377838
0.0085852649 0.034274023 1.0352309 0.7237113714 -0.3836505413 0.5736324191
-0.071001232 -0.071001232 0.91000003 -0.4012118578 -0.4276055992 0.8100509048
-0.014793374 0.084474348 1.104 -0.9208835959 -0.05491830036 0.3859500587
-0.028020898 -0.047479972 0.92500007 -0.2738204002 -0.1539877355 0.9493735433
0.035614401 0.13455223 1.1041577 -0.3650521338 -0.5468868613 0.7534266114
-0.1674372 0.20111172 1.067 0.1369021535 -0.8051634431 0.5770352483
-0.12547216 0.20336369 1.0742352 -0.3103052378 -0.6564702392 0.6875736117
-0.1053955 0.24643172 1.1450001 -0.3378594816 -0.7574415207 0.558688879
-0.12405436 0.21781757 1.0913334 -0.3045848906 -0.7411748767 0.5982373357
-0.13490514 -0.093713656 0.94731992 0.1562355906 0.4822739661 0.8619757891
-0.12892523 0.13325158 0.98700005 -0.6642323732 -0.6251455545 0.4098638594
-0.13492163 0.14486367 1.0059091 -0.5814948678 -0.7140705585 0.389829427
-0.025729289 0.091481917 1.087 -0.8534334302 -0.2690300047 0.4464014173
-0.21133453 0.050161112 0.93800002 0.375546664 -0.2317616791 0.8973579407
-0.046224687 0.043023393 0.99700016 -0.3284952641 -0.7353341579 0.5927684903
-0.10129007 0.19780231 1.09 -0.4404980838 -0.5957239866 0.6716207266
0.0054795649 0.10776377 1.1646365 -0.9307604432 -0.1356604546 0.3395309448
-0.24217011 -0.06668862 0.96700007 0.6698114276 0.06892713904 0.7393251657
0.022643421 0.17678748 1.123 -0.1258715689 -0.4821603894 0.8669934869
-0.072089978 0.086709432 0.97125 -0.5683867335 -0.5743442774 0.589122355
-0.20605251 -0.024327882 0.94000036 0.4222129583 0.1691107303 0.8905827999
-0.18322046 0.10739722 0.95260018 -0.1580299884 -0.5741726756 0.8033382297
-0.12874989 -0.029225437 0.90100002 0.04221234471 0.3536935449 0.9344083667
-0.107304 -0.24179168 1.6320001 -0.8909209371 0.4438666999 0.09613663703
0.0054062014 -0.0051982286 1.0153079 0.6299185157 -0.5567696095 0.5414888859
-0.17447019 -0.077216163 0.94128573 0.03061964177 0.6485947967 0.760517776
-0.25266382 -0.005745172 0.9561429 0.707508266 -0.2147165984 0.673296988
0.01649992 0.15433399 1.1071999 0.2264124453 -0.4961951971 0.8381692767
-0.20039022 0.032191202 0.91800004 0.461363554 -0.07687930763 0.8838739991
-0.046695527 0.10726567 1.016 -0.547857523 -0.632895112 0.5470794439
-0.16479166 0.065112486 0.9118498 -0.0465002805 -0.1742804497 0.983597517
-0.27511176 -0.044595119 0.97417408 0.6157205105 0.08766617626 0.78307271
-0.015839504 0.16249049 1.0951251 -0.6287474036 -0.513903141 0.5835925937
-0.032612 -0.079084098 0.93000007 -0.3542531431 0.4519350827 0.8186936975
-0.18637249 0.17516483 1.031 0.2512115836 -0.8338593245 0.4914990366
-0.024635877 0.11437911 1.0931766 -0.8503314853 0.3170690835 0.4200042486
-0.11611567 0.18274234 1.0653335 -0.5282475352 -0.4712481499 0.7063142061
-0.22771479 0.056657549 0.9366923 0.1246216074 0.1667300612 0.9780953526
-0.236572 -0.11922141 0.97000009 0.3717058897 0.495120585 0.7852963209
-0.23107004 -0.011512387 0.93800002 0.3673148155 0.264513284 0.8916908503
-0.10942729 -0.021255659 0.89800006 -0.360567838 0.1198247746 0.9250042439
-0.14512388 0.12337681 0.96485728 -0.3035031855 -0.7134315372 0.6315863132
-0.046860814 0.09775833 1.001 -0.601547718 -0.5356496572 0.5926379561
-0.036023989 0.21308638 1.163 -0.8573491573 -0.3321094215 0.3932629228
-0.085053444 -0.064836442 0.90419996 0.01744410209 -0.4172150791 0.9086403251
-0.20435789 0.10524257 0.94165546 -0.03192415088 -0.3850160837 0.9223575592
-0.20491505 0.15453652 1.0154002 0.3402245939 -0.7996316552 0.4948095083
-0.15495683 -0.12519109 0.965895 0.09126978368 0.3371986449 0.9369989038
-0.10521574 -0.16411257 0.90240747 -0.1656945348 0.5506467223 0.8181280494
-0.23768888 0.038229682 0.94800007 0.3052341938 0.3093582094 0.900627315
-0.13247396 -0.12142445 0.95900005 0.1821768135 0.3927577138 0.9014171958
-0.063464999 0.10617699 0.99418187 -0.5650894046 -0.5940464735 0.5725231767
-0.025042713 0.055792376 1.0848334 -0.9621543288 0.03383076563 0.2703969181
0.01485349 0.0055907541 1.0140716 0.6814681888 -0.4575091898 0.5712149143
-0.076085471 0.15353204 1.0749998 -0.4928612113 -0.4903861284 0.7187553644
-0.0056060329 0.067707099 1.1478573 -0.895314455 0.244860813 0.3720956743
-0.14887904 0.091117226 0.92800003 -0.3168672621 -0.5915856957 0.7413645983
-0.15652971 0.081685171 0.91800004 -0.1575367302 -0.4336024821 0.8872265816
-0.1114559 -0.080541119 0.92800003 0.3288378119 0.5984916687 0.7305295467
-0.12507655 0.10515767 0.96400005 -0.4613500834 -0.7361773849 0.4951756895
-0.12323459 0.2470289 1.1326667 -0.3297103643 -0.7662920356 0.5514413714
-0.2545802 0.055380967 0.95420015 0.6752393246 -0.2771939933 0.6835315824
-0.054205466 0.22047991 1.138 -0.5993186831 -0.5715115666 0.5605279803
-0.26940581 -0.093019597 1.001 0.7906751037 0.1270688325 0.5989043117
-0.11150455 0.10718302 0.986 -0.3527981341 -0.8349626064 0.422339797
-0.15530574 -0.025356118 0.90383327 0.3585092425 0.2372723967 0.9028692842
-0.21091548 -0.14146771 0.97800004 0.1809666008 0.4798580408 0.8584796786
-0.07722605 0.053970762 0.93586957 -0.7925286889 -0.2301824689 0.5647249818
-0.16924313 0.10921601 0.95100003 0.01620357856 -0.7110921144 0.7029120922
-0.056397922 -0.074538797 0.91507685 -0.5579351187 -0.126568079 0.8201761246
-0.1310529 -0.17076589 0.90600002 0.2575485706 0.6891356111 0.677318871
0.0056751017 0.25125223 1.177 -0.09186430275 -0.726312995 0.6811977625
-0.0009923866 0.13099328 1.132 -0.7360238433 0.5635000467 0.3751487434
-0.053799283 0.05085836 1.006 -0.4780532718 -0.7454622984 0.4644900858
0.016512893 0.19739093 1.1415 -0.3066906631 -0.6257802844 0.7171749473
-0.085034601 0.035711743 0.92335284 -0.801189959 -0.1091073602 0.5883793235
0.0092549697 0.23651589 1.1730001 -0.09186430275 -0.726312995 0.6811977625
-0.039129138 0.12466726 1.0380001 -0.6446254253 -0.5499665141 0.5310319066
-0.18649468 0.076054685 0.93180007 0.4614911973 -0.3962124586 0.7937515974
-0.081459865 -0.020163333 0.92000002 -0.782828629 -0.0207361877 0.621891737
-0.14476617 0.16790316 1.0320716 -0.3184125423 -0.727895081 0.6072744131
-0.15888706 0.039520133 0.92000002 0.1234770417 -0.06264467537 0.9903681278
-0.11460838 0.13532664 1.0348334 -0.612403512 -0.6478337646 0.4530710578
-0.026363034 0.064972311 1.0741 -0.936686933 -0.06432798505 0.3442085385
-0.184626 0.14103375 0.97500002 -0.01076600235 -0.8223414421 0.5688924789
-0.16885827 0.15136001 0.99800003 -0.2070994377 -0.7438010573 0.635507524
-0.24390015 -0.014746488 0.94586962 0.5701352954 0.07049908489 0.8185203671
-0.22248013 -0.074880295 0.94800007 0.524797678 0.0966308713 0.8457244635
-0.032673758 0.074792914 1.064889 -0.8629860878 -0.2098332047 0.459592253
-0.20682707 0.085818402 0.9355455 0.03747508675 -0.1069949195 0.9935530424
-0.055097401 0.033483624 0.98639292 -0.2934948802 -0.702706933 0.6481232047
-0.057236884 0.017881759 0.97122234 0.2927361429 -0.5427306294 0.7872413993
-0.10287508 -0.118722 0.889 -0.2345975488 0.03288911283 0.9715360403
0.0029613799 0.19051544 1.126 -0.0352239199 -0.5922015905 0.8050196171
-0.096119575 0.17413369 1.0759999 -0.5256511569 -0.4217386246 0.7388013005
-0.017888384 0.13590662 1.0741112 -0.8440708518 -0.2208850235 0.4886247516
-0.096923627 -0.0047653406 0.90625018 -0.6134795547 -0.05308830738 0.7879241705
-0.027034257 0.045337107 1.0553334 -0.7380930185 -0.4691711366 0.4848681986
-0.065188713 -0.044031352 0.93429422 -0.08623817563 -0.5434360504 0.8350090981
-0.0061506932 -0.0307447 1.002 0.6972420812 -0.5879381895 0.4101001918
-0.060035009 0.13817582 1.087 -0.3940747976 -0.4746590257 0.7870221734
-0.065019406 -0.0049284375 0.96420842 0.5180433393 -0.5876057148 0.621571064
-0.034284554 0.19522038 1.1649998 -0.7760586143 -0.4094014764 0.4797118306
-0.011812987 0.094182447 1.1126667 -0.9078452587 -0.1218860224 0.4011991322
-0.10751111 -0.10594527 0.95250016 0.2340453416 0.4720521271 0.8499350548
-0.017685436 0.055723563 1.1055 -0.9389963746 0.1618908793 0.30344221
-0.13583227 -0.17787062 0.92225003 0.3475876153 0.7260863781 0.5932801962
-0.093958162 0.024815684 0.91313523 -0.733956635 -0.05962782726 0.6765738726
-0.20498383 -0.073054165 0.93762493 0.3096564114 0.3022962511 0.901515305
-0.037772872 0.074214153 1.043077 -0.8351675272 -0.245614022 0.4921066165
-0.093951657 0.076797038 0.94318748 -0.3675435185 -0.7595959306 0.5365871191
-0.15658441 0.14167163 0.98900002 -0.09628473222 -0.7837576866 0.6135577559
-0.20526668 -0.054409184 0.93645442 0.5176118016 0.06543834507 0.8531095386
-0.10481976 -0.054412015 0.91273791 0.06301471591 0.2817870975 0.957405448
-0.13575388 0.065379761 0.92278135 0.04537667707 -0.4923293889 0.8692253828
-0.083869062 0.21560939 1.1142858 -0.3544999659 -0.7114938498 0.6067176461
-0.18394643 -0.062316503 0.92684639 0.2734829485 0.4350551367 0.8578659892
-0.05418852 -0.084182166 0.92457157 -0.5050328374 0.5047059059 0.7001526952
-0.11605496 0.19426146 1.0747272 -0.4763959646 -0.552177906 0.684212327
