# .PCD v0.7 - Point Cloud Data file format
VERSION 0.7
FIELDS x y z normal_x normal_y normal_z
SIZE 4 4 4 4 4 4
TYPE F F F F F F
COUNT 1 1 1 1 1 1
WIDTH 512
HEIGHT 1
VIEWPOINT 0 0 0 1 0 0 0
POINTS 512
DATA ascii
-0.080729604 0.16032217 1.2970001 0.23122181 -0.51949507 0.822594285
-0.12234585 -0.29057556 1.1630001 0.2944047153 0.6251875162 0.7228183746
-0.017791366 -0.037523672 1.107 -0.5246266723 -0.4806612134 0.7026604414
-0.20803913 -0.051075477 1.4210001 0.7793853879 0.1324521452 0.6123845577
0.013477678 -0.0036506345 1.2931111 0.5900242329 -0.6496651173 0.4793815315
-0.17371471 -0.11669896 1.1409999 0.8300799131 0.03054784611 0.5568071008
-0.13068645 0.0097204801 1.2320001 0.6342287064 -0.5568476915 0.5363530517
-0.046974517 -0.18391126 1.0847 -0.3830629885 0.4901734591 0.78293854
-0.18711953 0.097399712 1.383 0.8607726693 -0.09396135062 0.5002416372
-0.21081115 -0.26820478 1.2590001 0.7957035899 0.5479216576 0.2581426799
-0.035613649 0.084384017 1.2163334 -0.2967721522 -0.6918963194 0.6581836939
0.032895338 0.11248825 1.312 -0.08926023543 -0.6484724283 0.7559868693
0.0026519168 -0.082209416 1.21 0.7595024705 -0.5586902499 0.3331983984
-0.12249764 -0.026824247 1.1334287 0.176505968 -0.6980663538 0.6939373612
-0.15295263 0.0063073244 1.3490001 0.5821241736 0.3442956507 0.736608386
-0.19088978 -0.21255836 1.177 0.5582303405 0.3215516508 0.764842093
-0.09527196 -0.10490544 1.0909232 0.2963152528 -0.05130191892 0.9537113905
-0.11428256 0.075424947 1.3035625 0.542891562 -0.0540339388 0.8380627036
-0.2224486 0.034902144 1.439 0.8789010048 -0.05922302231 0.4733134508
-0.12253609 -0.21468462 1.1182001 0.6352809072 0.1597586274 0.7555761933
0.0022651313 0.017919594 1.1746 -0.0986565724 -0.7229987979 0.6837686896
-0.016884599 -0.11162597 1.0700001 -0.1656240076 -0.1885774434 0.9679913521
-0.15171944 0.14430518 1.3346667 0.6691165566 -0.2246667296 0.7083839774
-0.075346135 0.016307315 1.1746668 0.377264291 -0.7527008057 0.5395490527
-0.017699901 0.15340176 1.3460001 -0.6356570125 -0.7225724459 0.2717153728
-0.16044052 -0.050999209 1.2120001 0.6664994359 -0.3815313578 0.6404781938
-0.03021081 0.1174894 1.2763335 -0.6454039812 -0.6306931376 0.4309058487
-0.17785376 -0.27284759 1.204 0.8728398085 -0.09792876244 0.4780801237
-0.13214047 -0.15238419 1.1071428 0.5961811543 0.2900645435 0.7486191392
-0.1975175 0.0036609599 1.3920001 0.7566574812 0.1406642795 0.6385005713
-0.076818794 -0.25040931 1.138 -0.4386507273 0.7321647406 0.5210761428
-0.071356282 0.00097748335 1.115 -0.21735847 -0.6337801814 0.7423462272
0.063951775 0.068165742 1.3360001 0.4278253615 0.7945827246 0.4308175743
-0.16069826 0.063340917 1.3380001 0.6681805849 0.1018553227 0.7369940281
0.021793934 -0.032689147 1.243 0.6209945083 -0.6774989367 0.3941586614
-0.20897104 -0.16866189 1.21 0.8625323176 -0.1890243888 0.4693695307
-0.065585189 0.072995938 1.268 0.7877845764 -0.1928970516 0.5849668384
-0.14474979 -0.075305484 1.1156 0.6123258471 -0.2592964768 0.7468750477
-0.069119327 -0.051282078 1.09 0.05575076491 -0.3676499128 0.9282916784
-0.16486619 -0.17518587 1.1432002 0.5337572098 0.366081953 0.7622907758
-0.065048672 -0.13474366 1.0599998 0.1938067824 0.04666324705 0.979929328
-0.22151086 -0.23426212 1.2122859 0.5111998916 0.5486370921 0.6615678668
-0.1530951 -0.24494486 1.1642001 0.7984566689 0.2815977633 0.5321369171
-0.11419839 0.12514716 1.3069998 0.403745085 -0.01838086918 0.9146868587
0.0015975058 0.051673144 1.2152501 -0.3878259659 -0.7276440859 0.5657960176
-0.12399602 0.028024403 1.3136667 0.7256368399 0.125347808 0.676564157
0.0011010933 0.085886158 1.256 -0.4318602681 -0.6958579421 0.5738278627
-0.076251596 -0.21910267 1.1010001 0.1203396916 0.5097495914 0.8518648148
-0.094270341 -0.17463338 1.0861599 0.5224177837 0.2264172584 0.8220795989
-0.034108471 -0.005011729 1.1444002 -0.3523017764 -0.6307707429 0.6913839579
-0.18682708 0.045418825 1.3732728 0.7554571629 0.1212607995 0.643879056
-0.065502346 0.048795268 1.21 0.6871907711 -0.6034214497 0.4045385718
-0.12697376 -0.02203677 1.197 0.563554883 -0.5110728741 0.6490072012
-0.18731649 -0.14820664 1.174 0.8684989214 -0.08646152169 0.4880922735
-0.036067382 0.043283224 1.1755 -0.3545472026 -0.6980178952 0.6221473813
-0.074383415 0.11494941 1.2855002 0.6108933687 0.01004761737 0.7916491032
-0.055188797 -0.088863313 1.067 -0.03774036095 -0.3536442816 0.9346182942
-0.20890088 0.065513298 1.4100002 0.8999100924 -0.04765152186 0.4334641397
0.01227684 -0.085936129 1.1670001 -0.9901186824 -0.04048296437 0.1342612803
-0.0034374099 0.1363506 1.307 -0.6465910673 -0.5842206478 0.490516305
-0.11059588 -0.056740496 1.097 0.5334441066 -0.5380374193 0.6526508331
-0.16633761 0.10454927 1.3442858 0.7912637591 -0.04495972395 0.6098198891
-0.12424646 -0.25505883 1.1356001 0.4102298319 0.4880889058 0.7703769803
-0.22235863 -0.013818897 1.4330001 0.8400622606 0.1063946262 0.5319545269
-0.096207321 0.038526516 1.2850001 0.6353123784 -0.1560485363 0.7563247085
-0.0061912537 -0.073226802 1.0924001 -0.4251535237 -0.5584082603 0.7123374939
-0.13495122 -0.11438178 1.0946667 0.5809776187 0.1352361888 0.8026058674
-0.11314785 0.17203093 1.317 0.397354722 -0.314125061 0.8622266054
-0.10634098 0.022959463 1.2040001 0.6858910918 -0.5464754105 0.4805393815
-0.023416175 -0.147052 1.0859333 -0.6487063766 0.4368445575 0.6231748462
-0.18360645 -0.03283029 1.3870001 0.5779873133 0.2456619292 0.778190732
-0.10807371 -0.0020373734 1.1630001 -0.04890865088 -0.6945725083 0.7177582979
-0.039642867 0.15177554 1.2920001 -0.5428228378 -0.66321069 0.5152620077
-0.049115248 0.10587065 1.245 0.5906767845 -0.6548132896 0.4715087414
0.012249751 0.086410321 1.2934999 -0.4347922504 -0.7982137799 0.4169057906
-0.15676114 -0.2836366 1.1752859 0.7171106339 0.03643107042 0.6960065365
0.0019900333 -0.0069747604 1.136 -0.3625437319 -0.5794771314 0.7299097776
-0.031851929 -0.21138099 1.1010001 -0.3194242418 0.5369485617 0.7808036804
-0.13675649 0.095034175 1.322 0.506310463 0.06383996457 0.8599849939
0.020896226 -0.05241473 1.2120001 0.7062282562 -0.5586779714 0.4348800182
0.054362006 0.085171379 1.307 -0.05090568215 0.5941274166 0.8027585149
-0.054195661 0.023434427 1.1478573 -0.0973604694 -0.7594493032 0.6432400346
-0.14454642 -0.20576024 1.1437371 0.689116478 0.08679977804 0.7194333076
-0.092048243 -0.027416874 1.117 0.5395812392 -0.7078306675 0.4558813274
-0.1767509 -0.2395027 1.1930001 0.4985605478 0.5825814605 0.6419004798
0.0028386465 0.1160857 1.3337144 -0.5175533295 -0.6569854617 0.5481867194
-0.036021005 -0.05774796 1.087 -0.2159150392 -0.5728731155 0.7906940579
-0.12213039 -0.1838966 1.1046666 0.702096343 0.3109460771 0.6406038404
-0.16090165 -0.14313336 1.126 0.6655739546 0.2705057561 0.6955845952
-0.054437056 -0.024557954 1.104 -0.5191289186 -0.5000593662 0.6931419373
-0.12169591 -0.085496798 1.086625 0.3587329984 -0.1972164959 0.9123684764
-0.20604262 0.033725016 1.404 0.8806195259 0.01755514741 0.4734987617
-0.092292622 -0.14374988 1.077 0.6974829435 0.01190125477 0.7165025473
-0.19727805 -0.25195837 1.223 0.5280575752 0.6959702969 0.4866010249
-0.14642644 0.034397528 1.336182 0.5280877948 0.2917557359 0.7974972725
-0.17562804 0.0047117467 1.3700001 0.6319957972 0.247286275 0.734459579
-0.065027699 -0.16502468 1.0659999 0.01938481443 0.3842744827 0.9230153561
-0.09622363 -0.23870687 1.1132001 0.1561977565 0.7216490507 0.6744071245
-0.078101359 -0.0081144264 1.1570001 0.2729714215 -0.7437449694 0.6101885438
-0.19164197 -0.18344338 1.169 0.7672477365 0.05655083805 0.6388528347
-0.037086505 0.14950497 1.322 -0.6200845242 -0.7169594765 0.3185346425
-0.0034382867 -0.036317065 1.1336923 -0.648789227 -0.385742873 0.6559535265
0.0055580665 -0.031125173 1.268 0.5819431543 -0.6647071838 0.4685152471
-0.15210867 -0.10477483 1.1170001 0.7596101165 -0.03658746555 0.6493487358
-0.088630125 0.084949002 1.2919999 0.5118803382 -0.1769509315 0.8406348228
-0.045289174 0.064394206 1.1948825 0.04126774147 -0.7163377404 0.6965322495
-0.18308744 0.074192308 1.3649999 0.8514856696 -0.01747068018 0.5240867734
-0.20789449 -0.19498615 1.1936666 0.8289495707 -0.09953843057 0.5503950119
-0.01255036 0.038696945 1.1930001 -0.3538171947 -0.7012369633 0.618934691
-0.026081813 0.013916051 1.1680589 -0.3875798881 -0.6721354127 0.6308849454
-0.15006255 -0.0159641 1.2140001 0.6110371351 -0.5205081105 0.5964100361
-0.00108093 -0.064856678 1.233 0.7577485442 -0.5230407119 0.390186578
-0.085057646 -0.075500578 1.09016 0.1627066582 -0.08833340555 0.9827124476
-0.16690744 -0.20548049 1.1625386 0.5457388163 0.323259145 0.7730929255
-0.034453355 -0.13501908 1.0621598 -0.3142091036 0.2416766584 0.9180768132
-0.13928305 -0.1753421 1.13 0.6411176324 0.3190922439 0.6979600787
-0.13173622 -0.046213884 1.1143848 0.3869796097 -0.533154428 0.7523251772
-0.13580619 0.06499958 1.3240002 0.6000417471 0.1088064983 0.7925345898
-0.025436984 -0.084783122 1.0746332 -0.2143271565 -0.487747699 0.8462659717
-0.014272834 0.076784082 1.2336003 -0.4794538617 -0.700090766 0.5291473269
-0.074973799 -0.19507235 1.0825454 0.1135427877 0.4211600721 0.8998512626
-0.053635344 0.13089247 1.268 0.2765680254 -0.6112375259 0.7415516376
-0.16879234 0.035372801 1.3540001 0.7456077337 0.2413732409 0.6211345196
-0.1420121 0.12469356 1.317 0.5392028093 -0.07536046207 0.8387974501
-0.064083166 0.065883249 1.2320002 0.8309295177 -0.4850701094 0.2725126743
-0.20758198 -0.025172997 1.4122223 0.78853333 0.1490628123 0.5966535211
-0.14141685 -0.23403667 1.136 0.7285927534 0.221619904 0.6481028199
-0.11504275 -0.13467292 1.0966251 0.336718291 0.2415546626 0.9100945592
-0.023455776 0.095733911 1.2525455 -0.5029201508 -0.6753844023 0.5393767357
-0.21422666 0.0049509746 1.4125 0.8319512606 0.07859566808 0.5492538214
-0.12748486 0.14602812 1.322 0.5022248626 -0.2037085444 0.840400517
-0.083586581 0.033265278 1.1959091 0.283774972 -0.7557250857 0.5902130008
-0.027604042 -0.020702045 1.1245 -0.1769221723 -0.7118282914 0.6797050834
-0.10803427 -0.27138954 1.1474001 -0.08528640866 0.6738575697 0.7339224815
-0.13797374 -0.26836652 1.153 0.524297893 0.3902100623 0.7568671107
-0.20580235 -0.22506259 1.1940666 0.5276979804 0.3310299814 0.7822749019
-0.079260685 -0.10393485 1.0708573 0.6319454908 -0.2725790441 0.725496769
-0.1215849 0.00105726 1.2060001 0.6747991443 -0.4942207932 0.5480802059
-0.041624714 -0.15742506 1.071 -0.3851202428 0.4453934729 0.8082741499
-0.099416628 -0.20945057 1.1010001 0.509747684 0.2990835011 0.806663692
-0.092857994 0.1334123 1.2970001 0.4745602906 -0.1482782215 0.867644012
-0.0078119766 0.10713568 1.273 -0.5150911808 -0.7940213084 0.3228176832
-0.17328084 -0.14385442 1.1475002 0.861559093 0.04978182912 0.5052105784
-0.065307029 0.14459935 1.2856474 0.2797210813 -0.4626220763 0.8412710428
-0.02728888 0.13075921 1.2970001 -0.6941940784 -0.5850350857 0.419319123
-0.1771042 0.1124851 1.365 0.8682304621 -0.116300106 0.4823382497
-0.065177247 0.17214459 1.3120002 0.1670410335 -0.5993824601 0.7828396559
-0.1950708 0.065271944 1.3846924 0.8199811578 -0.0380888097 0.5711218715
-0.16864613 -0.22828926 1.1730001 0.6444402933 0.4234128892 0.6367246509
-0.079858199 0.056238167 1.2830001 0.5549262762 -0.1859068722 0.8108609319
-0.053554595 0.0058415225 1.1313334 -0.4573257864 -0.600263238 0.6561533213
-0.05901457 0.038307704 1.1810001 0.660564661 -0.6307398081 0.4072119892
-0.096107572 0.10523891 1.302 0.4925788343 -0.07831805199 0.8667365909
-0.18156029 -0.16533144 1.1570001 0.8224692345 -0.04102217779 0.5673283935
-0.19292496 -0.27514446 1.2260001 0.8667761087 0.3184880614 0.3837505877
-0.021003181 0.056644939 1.21 -0.5039201975 -0.6214023232 0.5999363065
-0.058729652 0.09566655 1.2640001 0.8836103678 -0.1417215019 0.4462597668
-0.14850266 -0.1290056 1.1120001 0.6959862113 0.1150826588 0.7087730169
-0.0059476355 0.0041791797 1.1549999 -0.08019269258 -0.7436779737 0.6637108922
-0.18684776 0.023406416 1.381 0.7125547528 0.1166158691 0.6918572187
-0.092240244 -0.037471361 1.0960001 0.4390627444 -0.5615574121 0.7013395429
-0.19318666 -0.25758219 1.245 0.7406053543 0.579800427 0.3396103382
-0.11417946 -0.16485232 1.0944545 0.5587168932 0.04508757219 0.8281319737
-0.16621949 -0.26507813 1.1850001 0.827996552 -0.03911005333 0.5593676567
-0.057279646 -0.068294972 1.077 0.001292611472 -0.4788849652 0.877876699
-0.11762817 -0.23608957 1.1246156 0.4474142194 0.3386514485 0.8277292252
-0.044717271 -0.11459183 1.0626998 -0.0719044432 -0.1383580416 0.9877685905
-0.055663951 0.084041648 1.245 0.8694293499 -0.4188085198 0.2620917261
0.0066833561 0.10621202 1.314 -0.260442704 -0.7478313446 0.6106700301
-0.19515651 -0.044447001 1.4040002 0.7135663033 0.1786874086 0.6774171591
0.011501867 0.0080513069 1.312 0.9756947756 -0.2179378271 -0.02286523581
-0.10745654 0.054298978 1.302 0.659499526 0.01910216548 0.7514622211
-0.15540373 -0.22391842 1.1557498 0.7718165517 0.1987372786 0.6039890051
-0.15517488 0.084608726 1.335143 0.6168523431 0.05017030239 0.7854782939
-0.044841673 -0.044646531 1.1023998 -0.271402359 -0.5934429169 0.757737577
-0.0081494935 0.14086981 1.3280001 -0.6590437293 -0.6515949965 0.3756132722
-0.10515929 0.15417421 1.3069998 0.345770061 -0.2538874149 0.9033184648
0.021203937 -0.01673995 1.273 0.5787177682 -0.662045598 0.4762156606
-0.0070735728 -0.057841588 1.1075714 -0.6669748425 -0.4940629601 0.5577152371
-0.10575194 -0.013517424 1.1450001 0.1159903929 -0.7316348553 0.6717563868
0.0035746421 0.065118261 1.2332308 -0.4561217427 -0.652489841 0.6051528454
-0.10760294 -0.041594498 1.1137999 0.46852687 -0.6710786819 0.5745746493
-0.17517559 -0.014248733 1.3810003 0.5474495292 0.2957009971 0.7828537226
-0.094822116 0.018780829 1.1827779 0.4006825387 -0.772221446 0.4930796027
-0.12763543 -0.1949839 1.1242501 0.7653777599 0.2007456124 0.6114720702
-0.11662892 0.10466699 1.312 0.4264487028 -0.03226607293 0.9039360881
-0.13808075 -0.094519563 1.1014445 0.7340595126 -0.2411228567 0.6348357201
-0.19478069 -0.1660448 1.1827145 0.8736752868 -0.1504403353 0.4626653492
0.0057267766 -0.044499788 1.2515556 0.7258474231 -0.5771554112 0.3742154241
-0.16741703 -0.0980727 1.13 0.7431396246 0.001917098765 0.6691336036
-0.032658286 0.097115025 1.2336 -0.4578176141 -0.6566041708 0.5993946791
-0.073627017 -0.027873093 1.0964 0.07789133489 -0.4382067323 0.8954930305
-0.057811782 -0.20401348 1.09 -0.2960906029 0.5339466929 0.7919793129
-0.01027278 0.11756626 1.302 -0.6685345769 -0.5898780227 0.4528856575
-0.081380092 -0.12440865 1.067 0.595172286 -0.09935647994 0.7974323034
-0.1275243 -0.073179528 1.102 0.6127896309 -0.3996387422 0.6817461252
-0.16069826 0.1231629 1.3379999 0.7552956939 -0.1190322116 0.6444841027
-0.10512187 -0.25244573 1.1253333 -0.07597450912 0.6892847419 0.7204959393
-0.14609534 -0.033620458 1.2046667 0.658500433 -0.367383182 0.6568155885
-0.068610564 0.095604889 1.2830001 0.6442800164 -0.07942250371 0.7606545687
-0.085235998 0.17450476 1.3138751 0.2004013509 -0.4973744154 0.8440722823
-0.17228167 0.084959522 1.3460001 0.7717503309 -0.01565825194 0.6357328892
-0.11256663 0.028425917 1.2970001 0.7194103003 -0.0752729103 0.690494597
-0.053492945 0.075011358 1.21 0.6192899942 -0.6068095565 0.4982590079
-0.15341139 0.10520826 1.327143 0.6552326083 0.05483864993 0.7534341216
-0.13401332 0.16476355 1.3256924 0.5355764627 -0.2789393067 0.7970888615
-0.18139111 -0.24928017 1.21 0.5647909641 0.5667268038 0.5998598933
-0.1457691 -0.15628386 1.1243334 0.5609146953 0.4191188812 0.713942647
0.025334984 0.094592437 1.3069998 -0.1993454248 -0.6077288389 0.7687177658
-0.094297253 -0.12503299 1.0838823 0.6769438982 -0.1168158352 0.7267056108
-0.041054301 0.16069826 1.3380001 -0.5418490171 -0.7944908142 0.274196893
-0.13456324 0.045237567 1.3232002 0.6175020337 0.1904571205 0.7631627321
-0.21769087 0.025686508 1.4222 0.8745680451 -0.067314744 0.4802077115
-0.1155939 -0.10424703 1.0866086 0.06732983887 0.05441003665 0.9962460995
-0.10509256 -0.075309463 1.0843332 0.07362847775 -0.06960316002 0.9948538542
-0.20475602 -0.24211253 1.2060001 0.4437034428 0.6519919634 0.614844501
-0.065017127 -0.11526985 1.0616286 0.2029625624 -0.09953863174 0.9741140604
-0.17365663 0.054149944 1.3554287 0.8046057224 0.1150621772 0.582554996
-0.22487111 0.0054438077 1.4330001 0.8720189333 0.01738941297 0.4891631007
-0.073706895 -0.085560642 1.0736998 0.5304794312 -0.3869067729 0.7542511225
-0.038630318 0.12251329 1.2590001 -0.2513979375 -0.7630604506 0.5954307914
0.0083108004 -0.079991452 1.1850001 0.7609944344 -0.5718501806 0.3063898981
-0.17340773 -0.28276226 1.1880001 0.8297092319 -0.1161856204 0.5459702611
-0.045862477 -0.014934084 1.124154 -0.5315772891 -0.5559604168 0.6390098333
-0.17460196 -0.18526964 1.1561577 0.5739563704 0.2963267565 0.7633901834
-0.19757086 0.085946649 1.3940001 0.839802742 -0.1116017029 0.5312968493
-0.094487339 -0.056516472 1.087 0.1477835774 -0.2999678552 0.942432642
-0.059147824 0.11345967 1.273 0.7313046455 -0.1182402894 0.6717237234
-0.13657415 0.020015176 1.3430001 0.5192258954 0.3592054844 0.7754843235
-0.2016023 0.047907904 1.3870001 0.8335327506 0.04747705162 0.5504263043
-0.19567463 -0.014675398 1.395 0.6781733632 0.1888338327 0.7102271914
-0.05457776 0.16145921 1.2970001 -0.07381636649 -0.6937727928 0.7164010406
-0.096449777 0.065258257 1.2919999 0.5127335191 -0.09231901169 0.8535698652
-0.023599647 0.13873009 1.3132501 -0.5124930739 -0.7156312466 0.4745764434
-0.050556488 0.084977932 1.2270001 0.4865465164 -0.6042630672 0.6309822798
-0.15249041 -0.2630212 1.1674 0.7430756092 0.08084524423 0.6643061638
0.0036394817 0.032231525 1.1860001 -0.2789684236 -0.7299066782 0.6240295768
-0.13428397 -0.13466868 1.1019598 0.4703552127 0.3165484667 0.8237493634
-0.035649989 -0.03234563 1.1129233 -0.1017381325 -0.6783248186 0.7276845574
-0.14754888 -0.18561064 1.1425384 0.5371741652 0.3330591321 0.7749294043
-0.18069415 0.092142053 1.365 0.8715572953 -0.07586444169 0.4843887985
0.008307294 -0.065833285 1.2152001 0.7548877001 -0.5105531216 0.4116795659
-0.017940983 -0.0079732835 1.1370001 -0.1461558938 -0.7360118628 0.6610029936
-0.037138086 -0.19432122 1.0955001 -0.3863113523 0.4626921713 0.7979219556
0.0044990531 -0.021370504 1.2830001 0.581328392 -0.6613770127 0.4739597142
-0.14211731 -0.0035258282 1.2241429 0.5263736248 -0.6248753071 0.5765948892
-0.10793923 0.007338577 1.1954 0.7242968678 -0.4741145074 0.5006090999
0.018627413 0.1222424 1.3280001 -0.3909134269 -0.7945100665 0.4646939635
-0.033322588 -0.098093063 1.0656667 -0.125662595 -0.3102034032 0.9423283935
-0.085392922 -0.20805292 1.09 0.2578398287 0.4099766612 0.8748930097
-0.076343305 0.075640343 1.2830002 0.585650146 -0.1660197228 0.793379724
-0.038161006 0.023641363 1.1556667 -0.6012013555 -0.5268429518 0.6008272767
-0.16872765 0.02034305 1.365 0.7316883206 0.2375129759 0.6389208436
-0.10101129 -0.15532868 1.087 0.6492772102 -0.01894235425 0.7603159547
-0.1210866 0.014310355 1.2180001 0.6937530637 -0.4896256328 0.5281793475
-0.15949197 -0.11392283 1.13 0.7703142166 0.007737828419 0.6376175284
-0.12592772 0.084485948 1.3130001 0.5589146614 -0.004317569081 0.8292139769
-0.085161231 -0.1645273 1.0753332 0.4932686985 0.2182066292 0.842064023
-0.060257684 0.031660818 1.1650001 0.5950462222 -0.68999511 0.4121003747
-0.00295349 -0.051193826 1.123 -0.7151793242 -0.4172366261 0.5607424974
-0.07058394 0.0069589801 1.1340001 0.3790542185 -0.7939472198 0.4753585458
0.0021075066 0.038988873 1.202 -0.3479556441 -0.745234549 0.5688166022
-0.038255632 0.13267018 1.276 -0.5555755496 -0.608268261 0.5668734908
-0.20219001 -0.17547141 1.1950001 0.8628924489 -0.1785151213 0.4728096724
-0.1296555 -0.16864963 1.1120001 0.7574040294 0.2413113117 0.6067190766
0.05850932 0.08098238 1.3260001 0.4278253615 0.7945827246 0.4308175743
-0.21720351 -0.21790837 1.2046667 0.653547287 0.1598611772 0.7398110628
-0.12457994 0.055035029 1.3133335 0.6176347136 0.1171995401 0.7776834965
-0.012627944 -0.095411137 1.067 -0.2453497201 -0.3893292844 0.8878210783
-0.059252147 -0.0087421201 1.108 -0.5164284706 -0.5481187105 0.6579266787
-0.084342122 -0.23724551 1.12525 -0.3494435847 0.77379632 0.5283260942
-0.21596858 0.042447321 1.424 0.8879556656 -0.06864737719 0.4547771811
-0.015234338 0.027066831 1.1810001 -0.2537639737 -0.6659353971 0.7015225291
-0.016460117 0.11364353 1.286 -0.5318832994 -0.7354396582 0.41979599
-0.09426339 -0.0039316546 1.1534444 -0.06116797775 -0.7048714757 0.7066928148
-0.10514171 -0.024646608 1.132333 0.2549857795 -0.7276364565 0.6368103623
0.0088788802 -0.046994943 1.2352002 0.7474424839 -0.5446097851 0.3804338872
0.022589071 -0.037648451 1.2270001 0.6731060147 -0.6188012958 0.4049854875
-0.026921337 -0.047112286 1.09675 -0.249965176 -0.5709648132 0.7819952965
-0.14051695 -0.25232613 1.149 0.6999673843 0.3179702163 0.6394846439
-0.067981116 0.02823831 1.1930001 0.3632119894 -0.7373295426 0.5695807338
-0.1972329 -0.19671524 1.1810001 0.7659019828 0.08298383653 0.6375796199
-0.024772448 0.0030409971 1.1555454 -0.3356022239 -0.7109751701 0.6179687977
-0.09052898 -0.19154027 1.087 0.4543012679 0.3076010644 0.8360573649
-0.05271747 -0.053305514 1.0903077 -0.1762189567 -0.577064693 0.7974604964
-0.13202178 0.026311222 1.3280001 0.6581861377 0.2373832464 0.7144509554
-0.12261213 -0.27707881 1.1535001 0.252992928 0.5944926739 0.7632647157
-0.024916142 0.10542219 1.2658181 -0.5149463415 -0.7310631871 0.447634846
-0.091684863 -0.25551942 1.1430001 -0.4216449559 0.7197387218 0.5515357852
-0.14350384 -0.058927249 1.1166 0.5440303087 -0.3457375467 0.7645237446
-0.095246151 0.011265342 1.1682 0.002460274845 -0.742331028 0.6700288057
-0.19891216 0.02318608 1.3920001 0.7802515626 0.07864798605 0.6205014586
-0.13605917 -0.2143321 1.1328236 0.7365993261 -0.01410086267 0.6761823297
-0.10693149 -0.22654477 1.1129 0.4648720324 0.4057447016 0.7869340777
-0.15537372 -0.087006256 1.1190002 0.7099217176 -0.1056430787 0.6963121891
-0.044786688 0.036516625 1.162647 -0.3142259121 -0.7312976718 0.6053641438
-0.03527566 0.072034642 1.2048 -0.2359926105 -0.6592016816 0.7139751911
-0.085425153 -0.094445795 1.0838499 0.570071876 -0.2074908912 0.7949626446
-0.0028696808 0.1013218 1.2590001 -0.3192519248 -0.7746434808 0.5458989739
-0.076799795 -0.2377784 1.1476668 -0.4073672891 0.7203884125 0.5613309145
-0.010896967 -0.022784567 1.13 -0.4920114279 -0.4740888774 0.7301811576
-0.066226795 -0.18303408 1.0769999 -0.06262112409 0.455357343 0.8881037831
-0.03486494 -0.073771574 1.0810525 -0.1769208908 -0.492900461 0.851908505
-0.16167004 -0.19088146 1.149 0.5129905343 0.3648428023 0.7770009637
-0.10525476 -0.19481882 1.1022305 0.5717040896 0.319986701 0.7554885745
-0.073444709 -0.065496437 1.0846471 0.2833707333 -0.3078536689 0.908254981
-0.051874995 0.1136835 1.2590001 0.6328390837 -0.4068346322 0.6587869525
-0.09483242 -0.22353551 1.0956001 0.3852211535 0.4190552831 0.8221905828
-0.017098505 0.071599998 1.2190001 -0.5811768174 -0.5902015567 0.5602638721
-0.19879615 -0.27220762 1.2436666 0.7899808288 0.5417376757 0.2871420383
-0.20390916 -0.0041028 1.4040002 0.7788382173 0.1515291482 0.6086460352
-0.17895396 0.031226866 1.3700001 0.7350918055 0.189642936 0.6509036422
-0.073422804 -0.01526178 1.1056248 0.03604859114 -0.5693833828 0.8212813735
-0.21145201 -0.18607776 1.2060002 0.8435863256 -0.1600402296 0.5125907063
-0.08016941 0.13211016 1.2880001 0.5744812489 -0.1735562831 0.7999059558
-0.019643471 -0.13563348 1.067 -0.6459169388 0.3247672915 0.6908816695
-0.17123844 -0.25465745 1.1954 0.8190518022 0.2360055596 0.5229297876
-0.17211597 0.12226169 1.3540001 0.8393781185 -0.1293079704 0.5279430151
-0.18327381 -0.26501417 1.2162223 0.8119448423 0.1089373827 0.5734790564
-0.087318629 0.14724317 1.302 0.459333837 -0.2341337353 0.8568511009
-0.0293508 -0.16000921 1.08 -0.6000722647 0.5007998347 0.623789072
-0.15018351 0.068688586 1.3280001 0.5753023028 0.07648137212 0.8143573403
-0.086556867 0.11493018 1.2948126 0.5462161303 -0.01632466353 0.8374851942
-0.11736038 -0.053315211 1.1125001 0.4719064236 -0.5654227734 0.6764624119
-0.14635792 -0.2818934 1.1642001 0.5320239663 0.3765948117 0.7583711743
-0.15563524 0.02448147 1.3433161 0.5587948561 0.324537456 0.7631669641
-0.16069826 0.048092179 1.3380001 0.6614060998 0.1797622293 0.7281672359
-0.036045745 0.053080812 1.1871819 -0.3689701855 -0.6914246082 0.6211223602
-0.0010879433 0.078331918 1.2410001 -0.4079001546 -0.6948676109 0.5922638178
-0.14502835 -0.14522307 1.1139998 0.5735083222 0.3948061168 0.7177857161
-0.11893211 -0.19692037 1.1120001 0.6976662874 0.2699353993 0.6636238694
0.016535977 -0.029768968 1.2576667 0.6095309258 -0.6624917388 0.4354040623
-0.1648244 -0.24483332 1.1853998 0.7536274195 0.3097624183 0.5797352791
-0.17811675 -0.14860027 1.161 0.875215292 0.01000317 0.4836301804
0.014309453 -0.071538255 1.2025715 0.7627115846 -0.5583274364 0.3264070153
-0.088166364 -0.020803301 1.13 0.4732498229 -0.7671562433 0.4330195487
-0.076323241 0.0056442716 1.1628667 0.4369874895 -0.7100608349 0.5521371961
-0.19273429 -0.2410053 1.197 0.3485921025 0.6891959906 0.6352105141
-0.056478899 -0.036010955 1.0944667 -0.3847789168 -0.4367281199 0.8131505251
-0.051553696 0.052596055 1.188 0.5193198919 -0.6322877407 0.5749078393
-0.10278811 0.085277751 1.2970001 0.4548929036 -0.1963543147 0.8686296344
-0.17603827 -0.21523759 1.1736002 0.5310804844 0.4257221222 0.7326077819
-0.081198625 -0.18222481 1.077 0.3273837566 0.345200181 0.8795775771
-0.18502443 -0.22511519 1.1826 0.4280511439 0.4707658589 0.7714607716
-0.041511483 0.0075020748 1.141 -0.4938533604 -0.5073544383 0.7061871886
-0.012323064 -0.083170488 1.0814545 -0.2850887775 -0.5373884439 0.7936863899
-0.18550257 0.0036320302 1.381 0.623208642 0.2185764462 0.7508897185
-0.056220632 0.0604637 1.21 0.6625032425 -0.5983884931 0.4505781233
-0.13128784 -0.23000051 1.126 0.5945668221 0.2493485063 0.7644053698
-0.040712401 -0.16947719 1.08 -0.4240480661 0.487454772 0.763263464
-0.19756648 -0.25937498 1.2590001 0.7283793688 0.6095585823 0.3128927648
-0.16334273 -0.001794975 1.365 0.6365951896 0.3129873276 0.7048301101
-0.095032409 0.16486943 1.3059999 0.274027735 -0.4178412259 0.8662087321
-0.07558205 -0.15488984 1.0643332 0.4064185917 0.2164947391 0.8876677155
-0.14355153 0.10891443 1.317 0.5426549315 0.06210806221 0.8376563787
-0.17059758 -0.15463524 1.138 0.781029582 0.1590827405 0.6038919687
-0.1290056 -0.062065661 1.1120001 0.5163990855 -0.4316853881 0.7395807505
-0.11846922 0.041406721 1.312 0.7123451233 0.05234548077 0.6998745799
-0.2132041 -0.034159668 1.4222 0.7849045992 0.1548342407 0.5999592543
-0.10488314 -0.2625559 1.1362857 -0.1318117976 0.683349967 0.7180936337
-0.15429953 -0.16547713 1.1316844 0.4792739749 0.4086147845 0.7767434716
-0.18340671 -0.20422138 1.1676667 0.5630181432 0.343934238 0.7514784336
0.0024823693 0.094023548 1.286 -0.6533881426 -0.7287794948 0.2048521787
-0.10494877 -0.11561906 1.0918572 0.179315865 0.0500872694 0.9825156927
-0.11737347 -0.072648011 1.0917274 0.4586897194 -0.3268145323 0.8263146877
-0.055064604 -0.15490846 1.0633446 -0.1363569945 0.3693465889 0.9192333221
-0.017616324 -0.057969291 1.0960001 -0.4610258639 -0.5419176817 0.7026950717
-0.031878229 0.029821569 1.1730001 -0.5498595834 -0.5484921932 0.6299291849
-0.034306157 0.14237855 1.3045001 -0.7047694921 -0.6176112294 0.3490792513
-0.054919481 -0.17456381 1.0749199 -0.2112640142 0.4999169111 0.8399110436
-0.13117519 0.0021307382 1.2165 0.587136209 -0.5974853039 0.5461523533
-0.1368389 -0.012729201 1.21 0.492328018 -0.6089761257 0.6219012737
-0.21052536 -0.248997 1.2190001 0.4140915275 0.7013852596 0.5801610947
-0.023232894 0.0479335 1.1938 -0.4482126236 -0.6521646976 0.6113809347
-0.20751962 0.014031576 1.404 0.8206746578 0.03133421391 0.5705358982
-0.0444053 -0.004711512 1.1345218 -0.5092307925 -0.5177348852 0.6874842644
-0.054797452 -0.12494028 1.0607499 0.04932513461 -0.05650565773 0.9971830845
-0.13700809 -0.031027278 1.1930001 0.6220641136 -0.4652929306 0.6297131777
-0.0051018246 0.12482242 1.3148572 -0.7106270194 -0.5521993637 0.4359874725
-0.15111488 0.1255022 1.3280001 0.6853923202 -0.1321677119 0.7160789967
-0.12453762 0.13550337 1.3131766 0.4416770339 -0.09268549085 0.8923736811
-0.12575257 -0.12575217 1.09496 0.2891792059 0.3396997452 0.8949745893
-0.16141684 -0.12689634 1.125 0.7856453657 -0.007463962771 0.6186320782
-0.044816613 -0.14442797 1.0615485 -0.2200340331 0.2977025211 0.9289554358
-0.11441702 -0.036888294 1.1251 0.262848556 -0.6935437918 0.6707515717
-0.10337286 -0.18379135 1.0938001 0.506472826 0.3003087044 0.8082697392
-0.027032891 0.082536414 1.2333335 -0.5476495028 -0.6775010228 0.490991205
-0.1016086 -0.087593615 1.09 -0.01577699929 -0.004553644918 0.9998651743
-0.027405653 0.15436907 1.3360001 -0.4747801125 -0.7767863274 0.4137472808
-0.063005157 0.042071056 1.1938 0.6373205185 -0.6227286458 0.4539070427
-0.054981902 -0.10530433 1.0629998 0.01286990196 -0.2065156549 0.9783586264
-0.20890088 0.045735698 1.4100002 0.8953749537 -0.02603949979 0.4445510805
-0.14514861 -0.11514686 1.10375 0.746448338 0.03446500003 0.6645502448
-0.14841178 0.056092642 1.3330001 0.5682405233 0.1501982063 0.8090384603
-0.077246949 0.14656533 1.2920001 0.4217631519 -0.3186099827 0.8488836884
-0.065621801 0.084711961 1.2753075 0.7502385378 -0.1346891969 0.6473028064
0.045070384 0.095169678 1.306565 -0.4093202055 -0.3332431316 0.8493562341
-0.10623225 -0.14535357 1.0946923 0.5762456059 -0.01730215922 0.8170933723
-0.1466905 -0.22537352 1.1453638 0.7557861805 0.1019663662 0.6468307972
-0.12541813 0.11506295 1.3125002 0.3965905607 0.01331531908 0.9178990126
0.012865961 -0.051463839 1.223 0.7476664186 -0.5177991986 0.4157871604
-0.034990694 -0.014752838 1.1350001 -0.2602425814 -0.6851716042 0.6803041101
-0.13151775 -0.036449391 1.1237501 0.2062096745 -0.604916811 0.7691249251
-0.10521665 0.13494618 1.3045001 0.4009662271 -0.07674788684 0.9128723145
-0.025087597 -0.065670088 1.0867 -0.3293525279 -0.5592522621 0.7607653141
-0.07058394 0.12548256 1.2780001 0.6382642984 -0.07814399898 0.765840888
-0.15894406 0.13657415 1.3430001 0.7310523987 -0.1689604074 0.6610709429
-0.19408074 0.034417059 1.3836253 0.7597804666 0.1262953281 0.6377955079
0.0011159966 0.097091712 1.273 -0.6053519249 -0.7451042533 0.2799441218
-0.10496227 0.11499456 1.3045 0.411614418 0.006754178088 0.9113330841
-0.13459142 -0.28301343 1.1543332 0.3506340086 0.5303811431 0.7718494534
-0.010829464 -0.040364362 1.123 -0.7027825117 -0.4128785133 0.5793341994
-0.21698947 -0.0074836649 1.4225001 0.8302327991 0.1019573361 0.5480129719
-0.16199836 -0.25486365 1.177 0.7909252644 0.1185060143 0.6003278494
-0.031906284 0.10892145 1.2550001 -0.5096424222 -0.7290549874 0.4568844736
-0.18777411 0.08425381 1.3730001 0.8558125496 -0.06945877522 0.5126015544
-0.12584753 -0.26638451 1.1423334 0.2753036022 0.5411019325 0.7946172953
0.0034693212 0.0073482194 1.1638 -0.0875132978 -0.7286339998 0.6792892814
-0.15693584 -0.20563455 1.1538571 0.590097785 0.2358523756 0.7721128464
-0.017731361 -0.024907367 1.1167779 -0.435706228 -0.6169638634 0.6553744674
-0.013286409 0.048716366 1.2028 -0.4222224057 -0.6833093762 0.5956647992
-0.14458373 0.1450431 1.3236003 0.610198915 -0.2375035733 0.75581038
-0.0047312872 -0.014565898 1.1444288 -0.3625437319 -0.5794771314 0.7299097776
-0.17285299 -0.1636555 1.1472857 0.773342967 0.1515178829 0.6156159043
-0.0688008 -0.21118023 1.09 -0.04756775126 0.4746101499 0.8789098263
-0.019240787 -0.12351241 1.0620002 -0.2581452727 0.06906593591 0.9636342525
-0.18665251 0.065026216 1.3736001 0.7944123149 -0.01646117121 0.6071557403
-0.10097885 -0.047123462 1.097 0.5209879279 -0.5359297991 0.6643424034
-0.051832538 0.094846316 1.2354287 0.4678881466 -0.6514598727 0.5972275138
-0.064898759 0.024716739 1.1750001 0.6328950524 -0.6849532723 0.3609471321
-0.13055231 -0.10482303 1.087 0.4641734064 0.01870210655 0.8855468631
-0.17366925 0.10381891 1.3550001 0.8397678733 -0.07299690694 0.5380160809
-0.054807045 0.15208739 1.2880001 -0.02023060434 -0.6129565239 0.789857626
-0.033760142 0.10709447 1.2423334 -0.4645747244 -0.7139607072 0.5238610506
-0.097105414 0.025773603 1.1933637 0.5051248074 -0.7533308864 0.4211192727
0.049646508 0.078510761 1.317 -0.05090568215 0.5941274166 0.8027585149
-0.17148039 0.065044284 1.3490001 0.7704832554 0.1019022912 0.6292626858
-0.091683559 -0.24791257 1.1326667 -0.3752316535 0.717312336 0.5870810747
-0.13307936 -0.24366362 1.1375556 0.6263088584 0.3545367718 0.6942916512
-0.19050492 -0.27883962 1.2140001 0.8093498945 0.1328926235 0.5720946193
0.01731855 0.11257058 1.317 -0.1107197776 -0.77480793 0.622425735
-0.17504841 -0.10402878 1.141 0.783000946 0.01797491498 0.621760726
-0.01471748 0.084759861 1.2435 -0.4224180579 -0.6943994164 0.5825567842
-0.032869112 -0.14825371 1.0712858 -0.5576011539 0.4026739299 0.725902617
-0.088408455 -0.013654334 1.1478573 -0.04063797742 -0.7534280419 0.656273365
-0.031157902 0.1268899 1.2846667 -0.6939898133 -0.5713960528 0.4380464554
-0.11658709 0.15590258 1.3120002 0.4230932593 -0.2398559004 0.8737626672
-0.088607326 -0.11419197 1.0810001 0.6947982907 -0.1542458236 0.7024695873
-0.058729652 0.083108 1.2640001 0.900716722 -0.1795869321 0.3955476582
-0.045496508 -0.025274739 1.1161665 -0.4314357638 -0.5938647985 0.6791080832
-0.19422579 -0.23070829 1.189 0.4072752595 0.5402537584 0.7363781333
-0.083774723 -0.025096502 1.1031903 0.4811230004 -0.6496321559 0.5886414647
-0.2013528 0.073219195 1.3920001 0.8577460647 -0.08373615146 0.5072079897
-0.20062692 -0.033232681 1.4039999 0.7329851389 0.1651396304 0.6598952413
-0.1157182 -0.15464431 1.101421 0.5497615933 0.01187200658 0.8352372646
-0.043844961 -0.09288232 1.0702 -0.1102468595 -0.3641902506 0.9247762561
-0.081674933 0.094471931 1.2880001 0.5533875227 -0.1335381418 0.8221495152
-0.014856343 0.098240666 1.2648001 -0.3239143193 -0.7632616162 0.5590270162
-0.12132785 0.065820038 1.307 0.6257419586 0.06085146219 0.7776529193
-0.20210138 -0.204881 1.189 0.7564694881 0.04658849165 0.6523675919
-0.008125823 0.064852417 1.2241429 -0.4850125909 -0.6359769702 0.6002467275
0.0011642133 0.12689926 1.3280001 -0.6551162004 -0.6111683846 0.4441801608
-0.1053085 0.095632777 1.3031765 0.427611649 -0.1463347822 0.8920394778
-0.10069364 -0.13499935 1.087 0.6504487395 -0.05192812905 0.7577729821
-0.1321158 0.074717164 1.317 0.5876382589 0.0365678072 0.8082970381
-0.059840389 0.00098099001 1.1190001 -0.4819173515 -0.6188183427 0.6203382611
-0.073752403 0.042331893 1.2037778 0.4327521026 -0.7406535745 0.5139629841
-0.065008909 -0.095343173 1.0638233 0.2286596894 -0.3002739847 0.926040113
-0.22195125 0.014160504 1.4250001 0.8667801619 -0.02078966983 0.498256892
-0.023179067 0.14718707 1.322 -0.4091238081 -0.7915383577 0.4539656043
-0.22694989 0.016874958 1.4366 0.8774238825 -0.01088581979 0.4795923829
-0.12684329 -0.18488185 1.1158334 0.7662634254 0.2942154109 0.5712071657
-0.087421201 -0.23215185 1.1079999 0.08288072795 0.6845281124 0.7242596745
-0.1441112 0.08553461 1.3237648 0.5651579499 0.07595026493 0.8214792013
-0.11297621 0.14391291 1.307 0.4001278579 -0.1508058161 0.9039664268
-0.094374046 0.094374046 1.2970001 0.4856325984 -0.1425606012 0.8624601364
-0.19205461 -0.26590902 1.2337143 0.7880380154 0.5483677387 0.2798015475
-0.12330999 -0.11441593 1.087 0.2188166529 0.22627832 0.9491666555
-0.1662223 0.075030155 1.3430003 0.7247528434 0.06336170435 0.6860893369
-0.024701005 0.034410875 1.1818421 -0.4510215819 -0.5801958442 0.6781978607
-0.075458288 0.023330729 1.1850002 0.2061450481 -0.7917995453 0.5749414563
-0.045320161 -0.068924412 1.077 -0.1454890221 -0.4959979653 0.8560484648
0.0027669789 -0.0037681325 1.1475002 -0.1734407693 -0.6912339926 0.7015082836
-0.16143467 0.0075352429 1.3573335 0.6475281119 0.3353438973 0.6842892766
-0.13692205 0.13427302 1.3219999 0.5018753409 -0.1773037165 0.8465722203
-0.17830084 0.044276047 1.3650001 0.7926295996 0.1466190964 0.5918117762
-0.06488771 0.15632336 1.2939999 0.1453994513 -0.5598819852 0.8157151341
-0.074021831 0.06505958 1.2775455 0.5906288028 -0.1822419763 0.7860950828
0.012664546 -0.011538686 1.28425 0.5900242329 -0.6496651173 0.4793815315
-0.044492822 0.10406127 1.2338668 0.1766564697 -0.7149907947 0.6764470935
-0.10303977 0.04569833 1.295125 0.651661098 -0.06582868099 0.755648315
-0.085683681 -0.13525547 1.0720416 0.6465031505 -0.04041625932 0.7618399858
-0.079732835 -0.14539517 1.0700001 0.4886747003 0.1227646172 0.8637858033
-0.014751377 0.014187876 1.1647776 -0.149509117 -0.7401692867 0.6555886269
-0.016426688 0.002571848 1.1472224 -0.1493579745 -0.7275615931 0.6695867181
-0.16170369 0.094005965 1.3380002 0.7034238577 0.01507786475 0.7106106877
-0.17830084 0.063422449 1.3650001 0.8194779754 0.0760994032 0.568035841
-0.12276927 0.16459036 1.317 0.4393486381 -0.2880776525 0.8508725166
-0.19090205 -0.0048637465 1.3870001 0.6541518569 0.2178053558 0.7243246436
-0.087902486 0.046765342 1.2855 0.5859450102 -0.1744791269 0.7913441062
-0.15993468 -0.23835427 1.177 0.7629675269 0.3487880528 0.5442678332
-0.19982128 -0.18532646 1.1810001 0.8447466493 -0.08109520376 0.528986454
-0.04705596 0.14004751 1.2780001 -0.2059964836 -0.6365579367 0.7432088852
-0.15008621 -0.21455279 1.149 0.6970208287 0.06846072525 0.7137752175
0.0068638618 0.099494211 1.3045001 -0.2308824807 -0.7121053338 0.6630228758
0.0010739167 -0.073024578 1.2250001 0.754080832 -0.5129570961 0.4101672173
-0.13814494 -0.1650925 1.1246667 0.6575245857 0.3828727007 0.6488990188
-0.14673808 -0.094892018 1.114154 0.7179560065 -0.1604431421 0.6773456931
-0.063680187 0.019205136 1.153 0.4692787528 -0.7891781926 0.3962009549
-0.14607459 0.15425476 1.3330001 0.638199687 -0.2390484512 0.7318176031
-0.14133328 -0.19420855 1.138 0.6391189694 0.214520365 0.7385851145
-0.18295449 0.013671324 1.376 0.6561639905 0.1526525915 0.7390168905
