# .PCD v0.7 - Point Cloud Data file format
VERSION 0.7
FIELDS x y z normal_x normal_y normal_z
SIZE 4 4 4 4 4 4
TYPE F F F F F F
COUNT 1 1 1 1 1 1
WIDTH 512
HEIGHT 1
VIEWPOINT 0 0 0 1 0 0 0
POINTS 512
DATA ascii
-0.24477936 -0.15153007 1.1079999 0.06772637367 0.4533900321 0.8887354136
-0.49538681 -0.46319559 2.0400002 0.6332944632 0.6880524755 0.3542907238
-0.037147652 0.1950362 1.3242501 0.7290670276 -0.5475161076 0.4107156992
-0.38437364 0.1429072 1.2520001 0.5971224308 -0.6443949938 0.4777027071
-0.18436119 0.096083529 1.101923 -0.6482884884 -0.5546386242 0.521630168
-0.067946926 -0.062797092 1.1743335 0.4697343111 -0.4843430221 0.7380796075
-0.41043186 -0.026537403 1.138 0.7017333508 -0.2745011449 0.6574339271
-0.21761936 0.23993929 1.273 0.2186904401 -0.8696538806 0.4425794482
-0.089202583 0.053069893 1.2880001 0.7721301317 -0.635383606 0.01013432909
-0.28537896 -0.014791474 1.0544002 0.2091971934 0.3563769758 0.9106217623
-0.32674545 0.096332394 1.1328572 0.5479941368 -0.6548438072 0.5204632878
-0.15258077 -0.034461036 1.0721668 -0.8736650348 0.2685072422 0.4057256281
-0.13762319 0.15425994 1.2135454 -0.8014924526 -0.2101122439 0.559877336
-0.36069134 -0.13196024 1.115 0.4599692523 0.6303206682 0.6253991723
-0.24311258 0.17206573 1.1672858 0.2023047656 -0.8277482986 0.5233598948
-0.12982994 -0.14137039 1.097 -0.4886842668 0.5303940773 0.6927263737
-0.10744668 0.056404516 1.1645001 -0.642544508 -0.5931218863 0.4851216376
-0.30124021 0.19536954 1.245 0.3889092505 -0.7875079513 0.4781012237
-0.12372397 0.21932885 1.2830001 -0.7322245836 -0.5971927047 0.327426374
-0.40272754 0.075775564 1.1840001 0.5618528724 -0.6035261154 0.5657539368
-0.26581189 0.077939078 1.0609001 0.3701639175 -0.5260884762 0.765643239
-0.2258371 -0.082586966 1.0565001 0.08149626106 0.6459638476 0.7590053082
-0.044480439 0.12546991 1.2729999 0.04803151637 -0.405038178 0.9130372405
-0.35770047 0.028985521 1.09 0.5733793378 -0.2861395478 0.7676980495
-0.052364178 0.020304477 1.2190001 0.4137902856 -0.5684303641 0.7111009359
-0.19920497 -0.19182694 1.052 -0.3176935613 0.359022826 0.8775952458
-0.20523857 0.024763091 1.0526251 -0.2929868996 -0.05239021406 0.9546800256
-0.34434023 -0.055685073 1.0932 0.3458169699 0.4271553755 0.8354333639
-0.26630065 -0.20858705 1.155 0.1439371407 0.6525942683 0.7439104915
-0.12505236 -0.014602714 1.1453639 -0.3148953915 -0.6548070312 0.6870725155
-0.3343738 0.14360589 1.1956667 0.5399683714 -0.6797864437 0.4963109791
-0.28086513 -0.20383596 1.0715001 0.6228855848 0.1361461878 0.770375073
-0.14544487 0.034149881 1.0944706 -0.6139068007 -0.5679425597 0.5482332706
-0.19433552 0.20709892 1.2130001 -0.09553964436 -0.8450722098 0.5260467529
-0.094886445 0.096896753 1.2229998 -0.4385303855 -0.4943372309 0.7505476475
-0.25597668 0.12652421 1.1136 0.3926378787 -0.6830831766 0.6158188581
-0.17953169 0.14098816 1.1570001 -0.6803804636 -0.4127773941 0.6055553555
-0.29482663 -0.10502282 1.0845453 0.01371582504 0.5989683867 0.8006551862
-0.12308172 -0.10511496 1.1642001 0.3203191459 -0.7965239882 0.5127817988
-0.091900088 0.15568961 1.3127145 -0.7321133614 -0.4394541383 0.5204709768
-0.18069415 -0.12880249 1.057 -0.1596112847 -0.4370302856 0.8851715922
-0.3077319 -0.16710205 1.1184286 -0.2559508085 -0.3280533254 0.9093240499
-0.11872083 -0.076251589 1.1010001 -0.2393350154 -0.2792713642 0.9299066067
-0.39409041 -0.084604457 1.13375 0.7307922244 -0.1523783505 0.6653747559
-0.1121939 0.024155527 1.2246667 -0.6706448793 -0.5783426762 0.4644945562
-0.39339435 0.033299658 1.1372001 0.6411400437 -0.5694295168 0.514479816
-0.14961632 0.093897134 1.177 -0.6226460338 -0.5266165137 0.5787805915
-0.29327893 0.14164867 1.1552857 0.3771452308 -0.7665557265 0.5197631717
-0.037792474 0.064455666 1.2521429 -0.367154181 -0.3323353231 0.8687641025
-0.090463236 -0.028735381 1.2140001 0.7230500579 -0.4896954298 0.4872339964
-0.30424571 0.037374344 1.057 0.1979882717 0.2982836664 0.9337170124
-0.24539952 0.21204212 1.233143 0.1988917887 -0.8404730558 0.5040308833
-0.10736783 0.16531569 1.2579091 -0.8313317299 -0.1553109586 0.5336347222
-0.20609699 -0.034006227 1.0413753 0.08104975522 -0.04180148244 0.9958330989
-0.27001157 0.22743714 1.2780001 0.3266932368 -0.8639296293 0.3832716346
-0.16545174 0.23407994 1.2535555 -0.3561413586 -0.8087208271 0.4681175053
-0.15461449 0.066550978 1.133 -0.5328333378 -0.7269895077 0.4330992103
-0.36176264 0.10145751 1.169 0.5383112431 -0.6000550389 0.5917389989
-0.27924463 0.17808431 1.202 0.4140556157 -0.7719458342 0.4823459387
-0.27451599 -0.065140069 1.0614641 0.4145519733 0.1045958176 0.9039946795
-0.16421556 -0.084483102 1.0827777 -0.8625226021 0.06454274803 0.5018854737
-0.25437424 0.023084166 1.04625 0.3239266276 -0.3658788502 0.8724702001
-0.17254904 -0.16085079 1.1120001 0.07725597173 0.8598116636 0.504733026
-0.37380755 -0.015155003 1.1070768 0.6648395061 -0.2055845559 0.7181388736
-0.34380674 0.17135765 1.245 0.4613591731 -0.7528096437 0.4694947898
-0.32396677 0.066220768 1.0947143 0.5410813093 -0.5927576423 0.5965479016
-0.21514277 0.070155255 1.067 -0.1902235001 -0.5641659498 0.8034499288
-0.38445014 0.11453123 1.2128571 0.5201196671 -0.694201827 0.4975534081
-0.15358147 -0.046271343 1.123 -0.266047895 -0.3382734656 0.9026569724
-0.055328187 0.17163029 1.2880001 0.08721972257 -0.4783672392 0.8738178015
-0.14559682 0.19488111 1.2344615 -0.712769568 -0.4529001713 0.5355753303
-0.15845487 0.010193003 1.057 -0.6492246985 -0.3442645669 0.6782250404
-0.3362523 -0.011891887 1.0804445 0.4680583179 -0.3805393279 0.7975658178
-0.21096238 0.12618783 1.1245 -0.4990672171 -0.6504982114 0.5725242496
-0.29052821 0.099416628 1.1010001 0.4256031215 -0.7639594078 0.4850030839
-0.099699795 -0.11351956 1.126 -0.1631704122 -0.9323533177 0.3226340711
-0.24871647 -0.11149359 1.087 0.1095040664 0.6186099052 0.7780299783
-0.3401984 -0.10005835 1.087 0.3282133341 0.2286568433 0.9165108204
-0.12267284 0.017610354 1.1815716 -0.3641529381 -0.7584050298 0.5405686498
-0.19759673 0.18108733 1.177 -0.281753391 -0.7193036675 0.6349939108
-0.20553346 -0.13588752 1.092643 0.4723062515 0.6078703403 0.6382949948
-0.22943331 0.11046789 1.077 -0.3549672067 -0.6185863614 0.7009630799
-0.23882154 -0.209085 1.0600001 0.235207662 0.5073142648 0.8290413618
-0.10558135 -0.073042445 1.1942308 0.4705156386 -0.6331211925 0.6146320701
-0.098231375 0.12251329 1.2590001 -0.4043869674 -0.7949120402 0.4523119032
-0.36002332 0.06278336 1.1190001 0.6043058038 -0.5844606757 0.5414981246
-0.23921371 -0.19117354 1.126 0.06908299774 0.5372865796 0.8405656815
-0.059844773 0.084685996 1.2880001 -0.4542359412 -0.6631093621 -0.5949417353
-0.12250832 0.037974279 1.13 -0.6258025169 -0.5140326619 0.586635828
-0.24475814 -0.024841411 1.0528752 0.3382306695 -0.04514493421 0.9399797916
-0.17844813 0.051929351 1.077 -0.6348315477 -0.527487874 0.5645754337
-0.30466321 -0.044421017 1.0801818 0.2610355914 0.3100517094 0.9141817689
-0.38477203 -0.054068249 1.1038123 0.6350620389 0.5857538581 0.5035758018
-0.18333638 -0.065834805 1.0514736 -0.484323293 0.3023824692 0.8209725022
-0.07851202 0.06390775 1.3254286 0.7892587781 -0.6125120521 0.0435837321
-0.13125338 0.11498009 1.2106668 -0.7347194552 -0.2761388123 0.6196246147
-0.1726709 0.10458916 1.1458889 -0.9221972227 -0.3098757565 0.2313640714
-0.28530705 -0.1368044 1.1120001 0.004996382166 0.4232205749 0.9060128927
-0.08198937 0.0032506799 1.2360001 0.5090197921 -0.353622973 0.7847608924
-0.16279949 0.17520784 1.1945385 -0.588663578 -0.4966670573 0.6378064156
-0.37405419 0.066958919 1.1537999 0.6235537529 -0.5553330183 0.5502598882
-0.13537194 -0.0015926111 1.09 -0.9260394573 0.09130869061 0.3662152886
-0.096081503 0.04603295 1.2521335 0.0663702935 -0.8808605671 0.4686999321
-0.23583151 0.15246226 1.1366667 0.0592222847 -0.8221416473 0.5661941767
-0.062753178 -0.0067379349 1.1958572 0.6491913199 -0.4935153723 0.5787859559
-0.071838453 0.085020006 1.253 -0.7527704239 -0.3828659654 0.5354907513
-0.32602853 0.12471567 1.1650001 0.4776656628 -0.6871917844 0.547360003
-0.085596547 -0.095723078 1.1551175 0.3458717763 -0.7222476006 0.5989416838
-0.15533252 0.13513818 1.1875999 -0.7432703376 -0.1061232686 0.6605203152
-0.37008306 -0.097134665 1.108 0.6394481063 -0.09353688359 0.7631231546
-0.32475355 -0.13145559 1.1079999 0.1071511507 0.6833765507 0.7221600413
-0.3109791 0.17205372 1.2190001 0.4108810425 -0.7733623385 0.4827912748
-0.076781973 0.13211016 1.2880001 0.03520173952 -0.9113622308 0.4100971818
-0.20509529 0.22655232 1.2415714 0.1452203542 -0.8301715255 0.5382623076
-0.20224568 -0.15569863 1.04625 -0.3937792182 0.1887451559 0.8996183872
-0.098917365 0.075890839 1.194 -0.4872247577 -0.73295331 0.4747541845
-0.41095415 0.044067401 1.169 0.5491214395 -0.5552507639 0.6246296763
-0.22618988 0.19295897 1.1952857 0.1502335817 -0.8383768201 0.523979187
-0.13410763 -0.10512055 1.0865713 -0.209831655 -0.2148236483 0.9538456202
-0.17691082 -0.013756758 1.0380001 -0.3109199703 -0.04704016075 0.9492713213
-0.160956 -0.14580721 1.08 -0.8191793561 0.3479691446 0.4559196234
-0.27336192 -0.16834892 1.123 0.03887481987 0.4797834456 0.8765252829
-0.20542374 -0.1062093 1.0704089 0.2564350665 0.4775401056 0.840354979
-0.20476766 0.16246149 1.149 -0.3058468699 -0.6990140676 0.6464031339
-0.30729523 0.0068089599 1.071125 0.5078554749 -0.2552885115 0.8227457404
-0.3558574 0.14733632 1.2245002 0.572173059 -0.6141795516 0.5435084701
-0.10685252 0.18783547 1.2830001 -0.8682543039 -0.4766567945 0.1375962943
-0.29408133 -0.18805201 1.141 0.07997518778 0.6329041719 0.7700884938
-0.29718283 0.067257725 1.0705 0.4856351912 -0.6114674211 0.6247127652
-0.29619935 0.11986663 1.13 0.4387508035 -0.6379237771 0.6328909993
-0.31786656 -0.074969344 1.08 0.381134361 -0.06641091406 0.9221313
-0.033731855 0.096784875 1.2574002 -0.1053290516 -0.2646658123 0.9585707188
-0.30534464 0.15483034 1.1864287 0.4040880203 -0.7433794737 0.5330101252
-0.28792831 -0.17903344 1.0960001 0.07944184542 -0.8459622264 0.5272920132
-0.23526211 -0.054925807 1.0442003 0.261197418 0.148932904 0.9537268281
-0.16810593 0.06488245 1.1046 -0.7355154753 -0.5027857423 0.4541183114
-0.2741406 0.16324767 1.1751819 0.3779536188 -0.7357352376 0.5620006323
-0.27394342 0.042252585 1.0616667 0.007966995239 0.1902299076 0.9817072153
-0.21884885 -0.0029916251 1.0500001 0.01135539915 -0.05462507531 0.9984423518
-0.24511078 0.054986313 1.06308 0.01485624909 -0.1095315665 0.9938722849
-0.061939783 0.046659485 1.245 -0.05101325363 -0.4349083006 0.8990285993
-0.38359335 0.013945849 1.1066873 0.7037652135 0.07258240879 0.7067151666
-0.12492622 0.13562156 1.2341179 -0.8123499751 -0.1675750464 0.5585750937
-0.15408418 -0.074375585 1.1120002 -0.1117085144 -0.3821554482 0.9173213243
-0.08093562 0.16773614 1.3380001 -0.638106823 -0.4394814968 0.6321991086
-0.13460492 0.07314676 1.1544545 -0.2962575853 -0.8410958648 0.4525363743
-0.25753191 0.098274328 1.0813334 0.3621863127 -0.6861940622 0.6308397055
-0.26453942 0.14679652 1.1430001 0.4246274829 -0.7566930652 0.4970987141
-0.38931888 -0.0049531665 1.13 0.663465023 0.1741670668 0.7276538014
-0.12536508 -0.054291967 1.126 0.07663150877 -0.5776453018 0.8126829267
-0.25573927 -0.091108285 1.067 0.1228379905 0.6898322701 0.7134719491
-0.074424267 -0.038150258 1.189 0.5526631474 -0.4262673557 0.716142118
-0.13831782 0.21332613 1.2582 -0.6271750927 -0.5651878119 0.5359236598
-0.27455708 0.19781019 1.233 0.4380081892 -0.7233678699 0.5337487459
-0.21811768 -0.16264895 1.1128572 0.01258199848 0.4668980837 0.8842216134
-0.35329893 0.12304244 1.1874 0.5729111433 -0.6707789898 0.4709865451
-0.1415444 -0.017572345 1.1135001 -0.9725607634 0.000998225878 0.2326467931
-0.066272318 0.14293577 1.317 -0.3925867975 -0.7979618311 0.4573100805
-0.17408264 -0.16200216 1.0600001 -0.5099740028 0.1281689554 0.8505876064
-0.1018886 0.15480071 1.28425 -0.9624906778 -0.1126158908 0.2468387485
-0.20868962 0.11828951 1.097 -0.5266648531 -0.5906360745 0.6113699079
-0.068121731 0.11309894 1.2574002 -0.5572454333 -0.4206311107 0.7159239054
-0.22340359 -0.17951767 1.0430001 -0.140010491 0.3190817237 0.9373281002
-0.33266169 -0.1520175 1.126 0.2553946674 0.3748184443 0.8912265301
-0.25416234 0.19141665 1.2030001 0.3057799339 -0.8211448789 0.4818918705
-0.16577271 0.21334121 1.2270001 -0.3308162689 -0.6589558721 0.6755277514
-0.1512513 0.23415942 1.2780001 -0.5249831676 -0.7591591477 0.3847987056
-0.22628732 0.043328378 1.0455999 0.04641968012 -0.4262393415 0.9034186602
-0.16234079 -0.11252087 1.0804 -0.6159088612 -0.2940209508 0.7308952808
-0.34751505 0.08677084 1.149 0.5617678165 -0.6141741276 0.5542625785
-0.3343004 0.034001105 1.0755882 0.5031536818 -0.2425940037 0.8294483423
-0.12438614 0.08700186 1.1956668 -0.3624381423 -0.8307875991 0.4224103987
-0.36116299 -0.029541036 1.087 0.5573518276 -0.2085330337 0.8036621809
-0.2392576 0.083211973 1.057 -0.4480221272 -0.3007447124 0.8419197202
-0.17497288 0.086171813 1.1255001 -0.8684648871 -0.367667675 0.3325496316
-0.24440034 0.22381854 1.2576667 0.2609228194 -0.8642552495 0.430095464
-0.182623 0.11643115 1.1236001 -0.5939645767 -0.5543603301 0.5830014944
-0.23230453 -0.12685153 1.1021429 0.09424059093 0.5341356993 0.8401296139
-0.11343453 0.19822399 1.307 -0.8726521134 -0.4494199753 0.1910497844
-0.10218041 -0.052893508 1.2116001 0.6851112843 -0.4778531194 0.5497990251
-0.12448196 0.18568125 1.2546363 -0.7278664708 -0.4836602807 0.486089617
-0.28262416 0.011737398 1.057 0.4930452108 -0.3501757979 0.7964190841
-0.40532947 -0.069744967 1.153 0.6575254202 0.2202240378 0.7205287218
-0.38139382 -0.058447365 1.13 0.6406416893 0.5079210997 0.5758423209
-0.16757703 0.15623324 1.1763334 -0.7159891725 -0.2849804461 0.6372956038
-0.1344292 0.0049324641 1.1610001 -0.2790349126 -0.7287552953 0.6253440976
-0.11793774 -0.11890909 1.10725 -0.8586059809 0.02416987717 0.5120659471
-0.17214105 -0.036456313 1.0508573 -0.6180793047 0.2779273987 0.7353463769
-0.15291083 -0.050970275 1.097 -0.9193844199 0.2207044363 0.3256099522
-0.19848557 0.052447636 1.057 -0.4644561112 -0.3466977477 0.8149117827
-0.2056144 0.092288248 1.087 -0.3590895832 -0.5919350386 0.7215729952
-0.16511285 0.11480082 1.1747144 -0.7582386732 -0.3024966717 0.57755512
-0.31502688 -0.025652228 1.0657272 0.342957139 0.2353412807 0.9093925953
-0.3694694 0.039968986 1.1120001 0.6404113173 -0.5355030298 0.5505541563
-0.03137064 0.081787743 1.2780001 0.534891665 -0.2492845953 0.8073091507
-0.31374496 0.091306582 1.108 0.4852123559 -0.6964761615 0.528668046
-0.33656576 0.01147323 1.0906668 0.2950428128 0.2915822566 0.9099063277
-0.21764916 0.20907183 1.223 0.1391539425 -0.8293232918 0.5411645174
-0.12826948 0.017125683 1.1056668 -0.738478601 -0.3473581076 0.5779201984
-0.056097563 0.14593804 1.2830002 0.4483613074 -0.3244544864 0.8328874111
-0.054210838 0.19344114 1.3056365 0.4236707091 -0.6854313016 0.5921883583
-0.18540974 0.01009657 1.0470001 0.006376974285 -0.4598834217 0.8879563808
-0.18963718 0.074535422 1.0762001 -0.6225786209 -0.4802196026 0.6178874969
-0.2754882 -0.03444903 1.06668 0.2624174654 0.1865645498 0.9467474818
-0.12527588 0.16392943 1.2332501 -0.728932023 -0.3016110361 0.6145640016
-0.3919296 -0.034294907 1.1176667 0.7309189439 -0.1831372231 0.657433033
-0.23606206 0.0081690717 1.0356667 -0.1203546599 0.2411882132 0.9629865289
-0.33342087 0.16136716 1.2190001 0.4796552658 -0.7375097871 0.4754052758
-0.167955 0.032096226 1.0663333 -0.4731182456 -0.5893771052 0.654823482
-0.26564768 -0.12509499 1.1023333 0.1034685746 0.5350443721 0.8384639621
-0.18520302 -0.094932124 1.0616 -0.1890913099 0.3410652578 0.9208251834
-0.26522881 -0.0043841149 1.044536 0.1430352479 0.2802949548 0.9491973519
-0.29462022 -0.075417757 1.0714999 0.2985019982 0.1542711258 0.941858232
-0.15763706 -0.014460684 1.0563077 -0.7480701208 0.1178067401 0.6530793905
-0.35723883 -0.074410401 1.1023333 0.6600759625 -0.02811685391 0.7506725192
-0.096032985 -0.082312569 1.1736668 0.3971454501 -0.658208847 0.6395596862
-0.32146052 0.18088789 1.243 0.4449688196 -0.7756813169 0.4475726187
-0.15779662 0.082738176 1.1570002 -0.6742343903 -0.6193913221 0.4021969736
-0.17492555 0.19334207 1.205143 -0.3638788164 -0.6627192497 0.6545192599
-0.3370395 0.075603962 1.1127502 0.5129995346 -0.6132736802 0.6006054282
-0.12113517 -0.088004179 1.1810001 0.3675906658 -0.7215327024 0.5867432952
-0.3580929 0.0019304199 1.1010001 0.515955627 0.318642199 0.7951458693
-0.28562599 0.084685393 1.0827894 0.4272427261 -0.6373336911 0.6413029432
-0.3645443 0.15607736 1.245 0.5863568187 -0.6682941318 0.4577866495
-0.15175216 0.049067616 1.1120001 -0.5093106031 -0.6676954627 0.5429414511
-0.2346458 0.12622671 1.1030588 0.1359425187 -0.7312571406 0.6684179902
-0.40233618 0.014405211 1.1253999 0.7905759811 -0.0399392806 0.6110601425
-0.3150163 -0.11490278 1.0922 0.0595802702 0.569229126 0.8200173378
-0.34340107 0.052623987 1.095 0.5230855942 -0.6132441759 0.5918725133
-0.116117 0.031777661 1.2025715 -0.9201392531 0.3553423882 0.1645463556
-0.33611399 -0.037872002 1.08 0.1870254725 0.4223764241 0.886915803
-0.09051846 0.072185613 1.307 0.7892587781 -0.6125120521 0.0435837321
-0.33833459 0.10760645 1.1543334 0.5712047219 -0.5885400176 0.5721414089
-0.11381122 0.076536573 1.176077 -0.4992020428 -0.7320938706 0.463503927
-0.37744007 0.12749888 1.2360001 0.5588658452 -0.6648771763 0.4955878258
-0.26462579 -0.1927952 1.138 0.1112701818 0.6298927069 0.7686703801
-0.38656726 -0.10413452 1.123643 0.6256404519 -0.1364144087 0.7680918574
-0.26284835 -0.18988687 1.067 0.4650440812 0.315379858 0.8272058368
-0.070864819 0.023621608 1.2360001 0.516644001 -0.4844343066 0.7059761882
-0.20457515 -0.073837593 1.0468639 -0.04728789628 0.4965924323 0.8666947484
-0.16079134 -0.05599694 1.0705001 -0.8174752593 0.3126992583 0.4836873114
-0.081004001 0.081004001 1.2320001 -0.770399332 -0.316485852 0.5534632802
-0.12243789 0.057717104 1.1416665 -0.5501433015 -0.6381072402 0.5386663675
-0.34428978 -0.12021291 1.097 0.2493164241 0.4951625764 0.8322591782
-0.22447409 -0.11360098 1.0852666 0.313575536 0.628351748 0.7119300961
-0.25501832 -0.045239996 1.0532002 0.426412493 -0.1358385831 0.8942707777
-0.3401984 -0.077187866 1.087 0.438143909 -0.1251693666 0.8901475072
-0.055596828 0.0947963 1.2655555 -0.0140329944 -0.1377964914 0.9903611541
-0.37340042 -0.0766064 1.1190002 0.6823471785 -0.1093479469 0.7228037715
-0.15346839 -0.14960755 1.1010001 -0.2988556623 0.7632761598 0.5727955699
-0.11768146 -0.11206447 1.1434 0.2081433237 -0.9117769599 0.3540326655
-0.11275208 0.14445634 1.2509091 -0.885299921 -0.0331007801 0.463840872
-0.15304628 0.18493885 1.2123749 -0.6474906802 -0.4630999267 0.6052224636
-0.27027196 0.11140241 1.105 0.4094459414 -0.7403259873 0.5331711173
-0.18855523 0.132687 1.138 -0.5041544437 -0.6624293327 0.5540899634
-0.37882257 0.099690147 1.197 0.6057979465 -0.6231171489 0.4947058856
-0.14286639 -0.087301292 1.097 0.05563698336 -0.5062606931 0.8605839014
-0.38143358 0.052210171 1.138 0.6756290197 -0.578713119 0.4567455649
-0.39402536 0.063186631 1.1678571 0.5549021363 -0.5278446674 0.6430113912
-0.38020945 0.081985861 1.169 0.561407268 -0.497515589 0.6612867117
-0.21383941 0.14641473 1.1332501 -0.3577147424 -0.6496675611 0.6707996726
-0.10343615 0.11461072 1.2333335 -0.3187348843 -0.7386592031 0.5939618349
-0.19482578 0.19566478 1.1935333 -0.1983183771 -0.749907434 0.6311169863
-0.1156159 0.094577752 1.2154999 -0.3829185069 -0.6007171869 0.7017921805
-0.31433555 0.054141115 1.0753571 0.5437140465 -0.507332325 0.6685723662
-0.14460282 -0.12462744 1.0851998 -0.4058541656 0.1291676611 0.9047641158
-0.091804534 -0.016200799 1.2320001 0.7338574529 -0.4972567558 0.4628055096
-0.21755368 -0.20272753 1.057 -0.07341373712 0.4677468538 0.8808083534
-0.073934004 -0.0059303371 1.2146428 0.7127283812 -0.5078195333 0.483877629
-0.26524058 0.21606556 1.2410001 0.3304443359 -0.8271211386 0.4546175599
-0.22507128 0.16520119 1.1560769 0.02377665788 -0.8279380798 0.560315311
-0.31624839 0.1171035 1.1472857 0.5017223954 -0.6863947511 0.5264378786
-0.27617013 0.1254645 1.124154 0.3989194632 -0.666310966 0.629994452
-0.30506951 -0.14546522 1.1123749 0.07744397223 0.378580749 0.9223226309
-0.23627919 -0.16834892 1.123 0.02501484752 0.4460210204 0.8946728706
-0.149057 0.11361688 1.189 -0.6911878586 -0.282597959 0.6651298404
-0.32267207 -0.054942552 1.0861176 0.3222620785 0.1627582014 0.932553947
-0.27653691 -0.086966068 1.0704999 0.2531431317 0.4579502344 0.8521737456
-0.23547944 -0.096425772 1.0717499 0.1236626804 0.721673131 0.6810986996
-0.081595749 0.10988227 1.2410001 -0.6027249694 -0.5587771535 0.5696408153
-0.2253826 0.18175066 1.177 0.08491230011 -0.7977343798 0.5970006585
-0.47392598 -0.46319559 2.0400002 0.7850748897 -0.619291842 -0.01162179094
-0.19422697 -0.12384955 1.0751334 0.6315573454 0.03748791292 0.7744223475
-0.13419855 -0.055756416 1.1065712 -0.156883046 -0.4553582966 0.8763769269
-0.31472316 -0.095996007 1.0820951 0.1957468241 0.3603941798 0.9120302796
-0.14433055 -0.023574267 1.0932001 -0.940681994 0.2979143262 0.1623713523
-0.043155085 0.037352722 1.2410001 -0.202756986 -0.506855011 0.8378469944
-0.26471034 -0.14618623 1.1134286 0.1092708632 0.3852591515 0.9163161516
-0.31928727 0.15911674 1.202 0.4370914102 -0.7402341962 0.5108859539
-0.25610352 0.17693593 1.1834617 0.3200995624 -0.7780905962 0.5404731631
-0.11820097 0.20255208 1.266 -0.7219902873 -0.4091627598 0.5579568744
-0.22504064 -0.024697894 1.0435003 0.2225723118 -0.1926322877 0.9556957483
-0.29536995 0.02555717 1.0721904 0.300639987 0.3139054179 0.9005992413
-0.12709562 -0.031443696 1.1326667 -0.5703083873 -0.4639083147 0.6778918505
-0.26153508 -0.21054991 1.077 0.4679451287 0.3567711115 0.8085429668
-0.24324782 -0.18898509 1.0549999 0.2661468685 0.4246715307 0.8653438091
-0.18497556 0.23292395 1.243 -0.01995248534 -0.8019533157 0.5970534086
-0.27472541 -0.10845682 1.09 0.02064204589 0.6507002711 0.7590540648
-0.14718987 0.013308512 1.0745624 -0.7768911123 -0.3373821378 0.5316140652
-0.22455621 0.22846225 1.2522223 0.212394923 -0.8493705392 0.4831750393
-0.39619184 0.046110537 1.1541427 0.6134570837 -0.5633494258 0.5534508824
-0.10601529 0.042190462 1.2340001 -0.3345886469 -0.821539402 0.4616529047
-0.2828863 0.061810263 1.0562501 0.2805307806 -0.3058586419 0.9098092914
-0.09655264 0.13359036 1.2766362 -0.5993728638 -0.6395823359 0.4813383222
-0.29516521 0.1846143 1.2243334 0.3490947783 -0.8019929528 0.4847062826
-0.13299784 0.038297806 1.1120001 -0.6144407392 -0.5312310457 0.5833147764
-0.15404128 0.15503542 1.1936318 -0.7366940379 -0.2164092511 0.6406629086
-0.24230453 0.14126256 1.1190001 0.2388098985 -0.7579736114 0.6069974303
-0.29508266 -0.12165547 1.097 -0.03215321153 0.6315357089 0.7746798396
-0.24499004 -0.074993908 1.053875 0.2239160091 0.4523898661 0.8632525802
-0.084258266 -0.05624821 1.1865386 0.5502554178 -0.456617862 0.6990844607
-0.18574773 0.16210085 1.1682726 -0.470660001 -0.5613113642 0.6807413101
-0.24612646 0.23495245 1.275 0.268060714 -0.857822001 0.4385029674
-0.096145079 0.18185082 1.2664 -0.7942444682 -0.4228001535 0.4363665581
-0.2262622 0.085602239 1.0746551 -0.4717281461 -0.3673097491 0.8015959859
-0.14427476 0.13487853 1.2047999 -0.7773432136 -0.153198868 0.610137403
-0.1531612 0.21721642 1.2426001 -0.5727500916 -0.632404983 0.5215566158
-0.36306885 -0.050505642 1.087 0.4906378388 0.4392156899 0.7525716424
-0.1817295 0.24045914 1.2640001 -0.09228163958 -0.9225873947 0.3745885491
-0.30727652 0.077377133 1.0926667 0.5021794438 -0.5833323598 0.6383879185
-0.19678603 -0.013693094 1.0414094 0.1539191753 -0.2283277959 0.9613403678
-0.35523939 0.1305716 1.2060001 0.6046466231 -0.6460629106 0.4658381641
-0.091557309 0.173843 1.322 -0.7616680264 -0.414211899 0.4982873797
-0.28931627 -0.054539938 1.0700001 0.4224315584 -0.04482997581 0.9052855372
-0.2343896 0.20342241 1.2134445 0.1743142009 -0.8425217867 0.509677887
-0.29518655 -0.031402823 1.067 0.1162674427 0.5065479875 0.8543366194
-0.41139424 0.032345496 1.153 0.5920439959 -0.5995934606 0.5384901166
-0.10431428 -0.10228644 1.1552222 0.2981081903 -0.8083623052 0.5076237917
-0.30214494 0.10300395 1.1190001 0.4418980479 -0.7153425217 0.5413050652
-0.29715845 0.16965428 1.202 0.377918303 -0.7725601792 0.5102239847
-0.18649456 -0.033010505 1.0377144 -0.2182925493 0.1545722783 0.9635640979
-0.104347 0.058590848 1.1863333 -0.8779925108 -0.2681310177 0.396528542
-0.31535652 0.024683354 1.0727499 0.1730427742 0.3300410509 0.9279704094
-0.16930801 -0.073896863 1.067 -0.7646961808 0.2365907729 0.5993868113
-0.13561839 0.05323514 1.1245002 -0.5025821328 -0.6402493715 0.5809406042
-0.25366679 0.11447601 1.095 0.3679762483 -0.7520757318 0.5467866063
-0.14153609 -0.01539602 1.133 -0.7061899304 -0.4113461077 0.5762726665
-0.16193332 0.044653542 1.0930001 -0.6087307334 -0.6535507441 0.4497981071
-0.27741238 -0.18651959 1.08 0.6137356162 -0.1346020848 0.7779530287
-0.14693314 -0.014702418 1.0725454 -0.868494153 0.1466856003 0.4734988809
-0.2518225 0.16015911 1.149 0.2863869965 -0.7989823222 0.5287813544
-0.26174343 -0.01889509 1.0600001 0.1146418378 0.4960713983 0.8606802225
-0.21615797 -0.056175072 1.0415219 0.07079068571 0.2153012007 0.9739784598
-0.37771884 -0.036356244 1.101 0.6530341506 -0.2012570798 0.7300972342
-0.13489498 0.081761613 1.1746 -0.3263967931 -0.8266159892 0.4584442973
-0.25509408 -0.17433207 1.1234797 0.0654277429 0.4470625222 0.8921066523
-0.20536792 -0.087749317 1.0600001 0.05118349195 0.5838074684 0.810277164
-0.086924858 0.077349029 1.2141668 -0.5598673224 -0.6306757331 0.5373980403
-0.21250927 0.20193666 1.2060001 0.1293295026 -0.8469122052 0.5157650709
-0.22471423 0.024664139 1.0420002 -0.2266269028 -0.06551292539 0.9717758298
-0.3670406 -0.059546269 1.1135001 0.6634046435 0.5116683841 0.5459759235
-0.1582471 -0.070012353 1.0940001 -0.8918082118 0.162357524 0.4222773015
-0.26378986 0.22184838 1.2590001 0.3078147769 -0.8657079935 0.3947148025
-0.117298 -0.088950984 1.115 -0.8107591867 0.05128342286 0.583129108
-0.36868656 0.12289552 1.2190001 0.5526433587 -0.6710404754 0.4942570031
-0.089825898 0.14212959 1.2970001 -0.6123413444 -0.6707058549 0.4185591042
-0.05355357 0.074301884 1.2513636 -0.3229005337 -0.4639206529 0.8249320388
-0.38356709 0.03041069 1.1190001 0.6718372107 -0.5118702054 0.5353724957
-0.28522611 -0.15511481 1.1133913 -0.03010814264 0.3385767043 0.9404569864
-0.25596133 0.039132454 1.0600001 0.1804017872 -0.2523326874 0.9506752491
-0.22510388 0.13783629 1.1134999 -0.284484297 -0.7473345995 0.6004662514
-0.18201332 0.065860458 1.0927501 -0.7757771611 -0.4155509174 0.4748549759
-0.22482938 -0.14248909 1.1079999 -0.002013141289 0.4769177139 0.8789456487
-0.065186016 0.12739164 1.2746667 0.1973667443 -0.7456929684 0.6363869309
-0.31708565 0.13761126 1.1743335 0.4652148783 -0.7009751797 0.5405635238
-0.20513515 -0.17461473 1.0524584 -0.3577308357 0.2679857314 0.8945458531
-0.18864113 -0.17934847 1.0600001 -0.3344756067 0.2367531359 0.9121809006
-0.18585838 0.034005579 1.0639089 -0.3943546116 -0.4105842113 0.8221344352
-0.19518296 -0.054658137 1.0434376 -0.2545666397 0.2527353764 0.9334455729
-0.12674057 -0.1219759 1.087 -0.4863785207 0.155504629 0.8597989678
-0.18376337 0.21863365 1.2320002 -0.06861886382 -0.754499197 0.6527038813
-0.14180997 0.17707326 1.2241429 -0.7373225093 -0.3864429295 0.5540915132
-0.24478571 -0.0068823728 1.0518463 0.007043979596 0.3530682623 0.9355710149
-0.36458153 -0.11407981 1.1055292 0.5185289383 0.3121317327 0.7960537076
-0.065608457 -0.024612553 1.1966926 0.6297091246 -0.448082149 0.6345776916
-0.22656266 0.060694702 1.057 -0.05075539649 -0.4566240013 0.8882107735
-0.27786213 0.14860027 1.161 0.3583306372 -0.7862200141 0.5034453869
-0.16808161 0.13416594 1.175154 -0.8270251751 -0.08804621547 0.5552271605
-0.36403212 0.084930338 1.1552856 0.5858723521 -0.545985043 0.5988772511
-0.07613904 -0.083757386 1.1641999 0.3798523843 -0.6124199629 0.693292141
-0.11816677 -0.0020364965 1.1620001 -0.2921975851 -0.7114720941 0.6390837431
-0.28207803 -0.20105562 1.141 0.1018993258 0.6181876063 0.7793976068
-0.094355099 -0.11158651 1.1426001 0.2692890167 -0.878749907 0.3940583766
-0.28712735 0.20336621 1.2516667 0.4101582766 -0.7808771133 0.4711699188
-0.41103041 0.022945873 1.138 0.775698781 -0.3453626633 0.5282196999
-0.30421662 -0.18312667 1.101 -0.2371588498 -0.8448615074 0.4795463383
-0.25057852 0.074347466 1.0470001 -0.08819715679 -0.07178293914 0.9935131669
-0.039366715 0.16646498 1.2830001 0.08716924489 -0.465128839 0.8809407949
-0.069211513 0.0080491146 1.2240001 0.6473364234 -0.5231535435 0.5543157458
-0.08638487 0.053777695 1.3051251 0.7571545839 -0.6530255079 0.01657091081
-0.088515282 -0.041096378 1.202 0.6480613947 -0.4638742507 0.6040174365
-0.20861861 -0.14817771 1.1120001 0.2267798781 0.5080242753 0.8309525847
-0.33855727 0.12941791 1.1810001 0.4979687631 -0.6961253285 0.5171427727
-0.26518455 0.055442024 1.0547585 -0.08254956454 0.06457256526 0.9944928288
-0.25162348 0.090734124 1.067 0.183959648 -0.636567831 0.7489594221
-0.36733299 0.10770332 1.187 0.6126681566 -0.6414616704 0.4616975486
-0.075848907 0.15518314 1.3243337 -0.598423779 -0.5644360185 0.5685955882
-0.17824298 0.1803277 1.189 -0.4067843854 -0.6461949944 0.6457232237
-0.18514802 -0.14497149 1.05328 -0.3839359879 -0.1315516084 0.9139405489
-0.35534942 -0.014081687 1.0917143 0.5345491767 -0.3381559253 0.7745371461
-0.34894314 0.078537062 1.1340001 0.5679354668 -0.6896176338 0.4493070543
-0.34403858 -0.13488516 1.1122502 0.2016459256 0.697676599 0.6874490976
-0.13153507 0.097590536 1.21 -0.6524937749 -0.4465785623 0.6122249961
-0.092535086 0.054040071 1.2666668 0.7743214369 -0.6208190322 0.1225154623
-0.37153804 0.022119174 1.097 0.6673653126 -0.2239330858 0.7102658153
-0.16818552 -0.13432392 1.0670002 -0.584841311 -0.1997690797 0.7861634493
-0.1537534 -0.10255711 1.0909413 -0.2105157524 -0.4386885464 0.8736335039
-0.075294018 0.13670728 1.304143 -0.266336143 -0.876645565 0.4006964564
-0.19165616 0.10742883 1.1120001 -0.4746210575 -0.6451735497 0.5987369418
-0.13793853 0.095549367 1.189 -0.6508719325 -0.5198064446 0.5533235669
-0.34235603 0.019072235 1.077 0.3421916366 0.3190412521 0.8838085532
-0.29812366 0.12948805 1.1450001 0.4525289536 -0.7131685615 0.5353580117
-0.2076222 0.04277274 1.0470001 -0.3330194056 -0.2873611748 0.8980655074
-0.12258167 -0.10424268 1.1010001 -0.862005949 -0.1289660037 0.4902178049
-0.265266 0.19325134 1.2152001 0.3706085086 -0.8047094941 0.4637801051
-0.22470048 0.11598156 1.0933571 -0.3523459435 -0.663597405 0.6599172354
-0.28361645 0.1320513 1.1374286 0.394675076 -0.7304619551 0.5573660135
-0.14907366 0.17021886 1.2060001 -0.7422628403 -0.3636491001 0.5628545284
-0.4071503 -0.040615965 1.13 0.8444410563 0.1981297284 0.4976583719
-0.18115644 -0.11567821 1.067 -0.09725604206 -0.2299228162 0.9683371186
-0.17185104 -0.096351102 1.0712 -0.6148192883 0.07998476923 0.7846015692
-0.12109309 -0.11518611 1.123 -0.9597927332 -0.1802519411 0.2151908875
-0.37115815 0.052273002 1.125 0.6720989347 -0.540748477 0.5058400035
-0.21442477 0.17399773 1.1675001 -0.01834603772 -0.8067685366 0.5905827284
-0.3474499 0.1591115 1.2346667 0.4937084615 -0.7136185169 0.4969915152
-0.16957451 -0.052818287 1.057 -0.6699725389 0.2664950788 0.69290483
-0.24906889 -0.19705451 1.141 0.07451155782 0.6352729201 0.7686848044
-0.097616121 0.16685876 1.2739999 -0.9786990881 -0.05393113196 0.1980897039
-0.14001331 -0.0090656104 1.149 -0.3070995212 -0.6688739061 0.6769768
-0.29409099 0.15344609 1.1747143 0.3808913827 -0.7654961944 0.5185916424
-0.13815771 -0.041020695 1.123 -0.2654118836 -0.4662543535 0.8438977599
-0.098353676 0.1643018 1.2970001 -0.9465485215 -0.1486212611 0.2862823606
-0.27624929 0.025883699 1.0619334 0.399959892 -0.1137383208 0.9094480276
-0.28296322 0.11260057 1.1168572 0.4260198772 -0.6921377778 0.5826254487
-0.2982946 -0.00092926668 1.0600001 0.4679810405 -0.2493001819 0.84784621
-0.16592163 -0.0045827227 1.0456803 -0.5375850201 -0.1480078697 0.8301180601
-0.30115691 -0.017606096 1.057 0.3208967447 0.1809766442 0.9296627045
-0.22460499 0.21842226 1.2342857 0.1780192256 -0.8399239182 0.5126762986
-0.18034786 0.078963116 1.1120001 -0.8706387281 -0.326510787 0.3679386973
-0.11508131 0.12573142 1.2423334 -0.6449783444 -0.5607282519 0.5192174315
-0.13699546 -0.072776832 1.101 0.2047102749 -0.3484571278 0.9146974087
-0.12286177 0.11857136 1.2240001 -0.6707367897 -0.4475917518 0.5914167762
-0.26154321 -0.073667616 1.057 0.3386982977 0.3412531912 0.8768293858
-0.17633128 0.12480372 1.1450001 -0.850061655 -0.3888571858 0.3552256525
-0.20569041 0.0060893255 1.0521333 0.02665252052 -0.1494472027 0.9884104133
-0.35670197 0.046488464 1.1046666 0.5954363346 -0.5360811353 0.5983916521
-0.046308663 0.052857362 1.245 -0.2817161977 -0.4170051217 0.8641427755
-0.15305677 0.02670959 1.0824999 -0.6774411798 -0.5057078004 0.53416574
-0.04793964 0.17920294 1.302 -0.2874628007 -0.6332815886 0.7185537815
-0.27902544 0.098423369 1.09 0.3743097782 -0.6973525882 0.6112213731
-0.054118011 0.1137941 1.2679999 -0.1913306713 -0.3247636557 0.926240325
-0.067343779 0.083323658 1.302 0.531208396 -0.8205733895 -0.2108957767
-0.21721157 0.10317747 1.0863999 -0.5432563424 -0.454503417 0.7059031129
-0.28590661 -0.17817093 1.1316 0.08506427705 0.5837023258 0.8074996471
-0.34399548 0.061749894 1.1079999 0.5024369359 -0.5809425116 0.6403615475
-0.26469722 0.13769804 1.13 0.3986723721 -0.7214961052 0.5661304593
-0.35277435 -0.09470135 1.0950588 0.5703443289 0.04450849444 0.8201989532
-0.054362684 0.02916144 1.2320001 0.3619507849 -0.5643160343 0.7419831753
-0.11896805 0.1724491 1.245 -0.7458865047 -0.4049895108 0.5288069844
-0.20405556 0.24064939 1.265 0.1235124096 -0.8851212859 0.4486702383
-0.10717776 0.14534432 1.2656001 -0.9049794078 -0.08354285359 0.4171724021
-0.244165 0.10333667 1.0747999 0.1870367229 -0.6778085828 0.7110504508
-0.14698018 -0.037715077 1.103 -0.9528693557 0.1399375498 0.269179225
-0.34765941 -0.02476358 1.0805714 0.4514334202 -0.2105973363 0.8670966625
-0.15002397 -0.13855717 1.09 -0.5006713271 0.5695109963 0.6519091129
-0.17624629 0.02260993 1.057 -0.2308225781 -0.5634501576 0.7932495475
-0.1624402 0.096301712 1.1632856 -0.7798091769 -0.4945619106 0.3838049173
-0.34637362 0.11792728 1.1738001 0.5232945681 -0.6637496948 0.5344147086
-0.14445573 0.22567363 1.2656 -0.6063213348 -0.6622101665 0.4402863979
-0.33838457 0.1495681 1.21 0.5600318313 -0.6547738314 0.5075781345
-0.19042076 0.059096098 1.0700001 -0.6727428436 -0.385696888 0.6313912868
-0.27077165 0.01009657 1.0470001 0.3507066667 -0.2184014171 0.9106622338
-0.32747999 0.047054205 1.0806667 0.5184755325 -0.4530552626 0.7252061963
-0.29478368 -0.093972206 1.0735788 0.1454051733 0.4814423621 0.8643324375
-0.21762373 -0.096617438 1.0700001 0.192034319 0.615917325 0.7640475631
-0.27398726 0.17293477 1.1883334 0.401570797 -0.738471806 0.541664362
-0.20396592 0.11694653 1.1141819 -0.5233585238 -0.6429349184 0.559223175
-0.1953835 0.1449309 1.1446193 -0.5674034953 -0.5071007609 0.6487696767
-0.37506294 0.0025707849 1.1128182 0.5779003501 0.3209694624 0.7503398061
-0.31148931 -0.0074832262 1.067 0.5354511142 -0.2727925479 0.7992973924
-0.046553891 0.20351176 1.3145001 0.4873801172 -0.6817209125 0.5456347466
-0.34238917 -0.13522933 1.0940001 0.1437198073 0.6544641852 0.7423080206
-0.15892038 0.061802369 1.1190001 -0.6549133658 -0.6082851887 0.4484167993
-0.10117873 0.029374469 1.2410001 -0.4206250608 -0.6649357677 0.6171992421
-0.24495269 -0.1355961 1.1019598 0.05316787213 0.4391758144 0.8968265057
-0.35659614 -0.058949113 1.1023334 0.4758420885 0.5390381813 0.6949907541
-0.10172986 0.087554745 1.2130001 -0.3730591536 -0.6972840428 0.6120635867
-0.24139981 -0.038550541 1.0470001 0.3709850609 -0.1522087902 0.916079998
-0.2124141 -0.12299283 1.0851429 0.4028030038 0.6114561558 0.6810808182
-0.2969228 0.055293217 1.061 0.424682796 -0.3353292644 0.8409511447
-0.27740642 0.079071827 1.0712001 0.4153896868 -0.6635487676 0.6222173572
-0.035934318 0.077725768 1.2640001 0.05604709312 -0.3792299032 0.9236034751
-0.32528034 0.0046601929 1.0829523 0.3905591071 -0.05309983715 0.9190451503
-0.15868105 -0.089438409 1.097 -0.5997914672 -0.4052897096 0.6899206042
-0.19111334 0.088867702 1.09 -0.491543293 -0.545850575 0.6785516143
-0.39740023 -0.024553875 1.1304445 0.6924346089 -0.2702172101 0.6689670682
-0.20645849 0.08088389 1.077 -0.2676108778 -0.5969907641 0.7562978268
-0.25468922 -0.099413998 1.08 0.09062952548 0.7268921733 0.680745244
-0.038906466 0.11227295 1.268 -0.09495702386 -0.2780169249 0.9558712244
-0.17644407 0.17025305 1.177 -0.4522953629 -0.6204186082 0.6407102942
-0.084593512 0.12342459 1.2654999 -0.2646119297 -0.8568301797 0.4425184429
-0.21264076 0.19075127 1.189 0.01737849973 -0.7934730649 0.6083571911
-0.37166107 0.1462806 1.2360001 0.606641531 -0.5852940083 0.537974894
-0.29704338 -0.17607872 1.1127501 -0.1924455017 -0.8200306296 0.5389940143
-0.35486361 0.0152466 1.0845199 0.3753885627 0.277487278 0.884355247
-0.22917381 0.098217346 1.067 -0.426845789 -0.4594132304 0.7789365649
-0.18532734 -0.080617391 1.057 -0.3814367354 0.406989634 0.8299791813
-0.19507919 0.12472867 1.1250001 -0.3651445508 -0.6451193094 0.6711859107
-0.10793433 0.037402984 1.2190001 -0.8916669488 -0.08397461474 0.4448352158
-0.17321509 0.12551193 1.164 -0.8665497303 -0.1847457737 0.4636383653
-0.079099879 0.095353283 1.2360001 -0.8043177128 -0.2738880515 0.5273123384
-0.15234397 -0.044638816 1.0834 -0.9179055691 0.2933844328 0.2671608329
