# .PCD v0.7 - Point Cloud Data file format
VERSION 0.7
FIELDS x y z normal_x normal_y normal_z
SIZE 4 4 4 4 4 4
TYPE F F F F F F
COUNT 1 1 1 1 1 1
WIDTH 512
HEIGHT 1
VIEWPOINT 0 0 0 1 0 0 0
POINTS 512
DATA ascii
-0.30165046 -0.092028961 1.4580001 -0.7424736619 0.1950377524 -0.640853405
-0.47634122 -0.49040294 2.0050001 -0.2044117451 0.7917751074 0.5755935907
-0.065849937 -0.29885742 1.9260001 -0.1978888214 0.7995380759 0.567079246
-0.029407345 -0.15322775 1.177 0.5553585291 0.07254102081 -0.8284410834
-0.0054560811 0.062482078 1.4350001 0.8221791387 0.5660952926 0.05964589119
-0.4192439 -0.22105588 1.7390001 -0.9309269786 -0.03007775731 -0.3639647067
-0.26176417 -0.27203989 1.2563335 -0.6188191772 0.1154865772 -0.7769978642
-0.01962506 -0.15549086 1.7220001 0.8541502357 0.3697377443 0.3656793237
-0.16687758 -0.012836738 1.2919999 -0.4523123205 0.5906057954 -0.6682801843
-0.2352491 0.10609625 1.4350001 -0.6008287668 0.29559654 -0.7427163124
-0.19203471 -0.13746747 1.197 -0.641762197 0.1899710149 -0.7430022359
-0.017785814 -0.027790334 1.268 0.6109330058 0.5201407671 -0.5968370438
-0.29258451 -0.13487604 1.3149999 -0.7536815405 0.5181521773 -0.4043296278
-0.10821836 0.15199208 1.3870001 0.1116724014 0.2982693017 -0.9479265213
-0.13358647 -0.39197081 2.0050001 -0.2071487606 0.7963110209 0.5683116317
-0.32918483 0.034098826 1.4960001 -0.8271400928 0.02656209469 -0.5613676906
-0.13804169 -0.25606206 1.202 -0.03210491687 -0.5738831758 -0.8183076382
-0.20563327 -0.015274028 1.4242308 -0.323464483 -0.3837147653 -0.8649471998
-0.077705979 0.047094531 1.3430001 -0.5628421307 0.6634494662 -0.4929944873
-0.10528723 -0.060954195 1.2040001 0.008632623591 0.7489250898 -0.6625984311
-0.1652362 0.065608315 1.3858752 -0.2900745869 0.09025408328 -0.9527386427
-0.21783303 -0.092158481 1.27425 -0.6097566485 0.6285140514 -0.4828736186
-0.34728491 -0.032682572 1.5535001 -0.9039615393 0.04181693494 -0.4255642295
-0.11532276 -0.17524479 1.169 -0.2888352573 0.07950342447 -0.9540719986
-0.26085654 -0.17790635 1.245 -0.7130385637 0.336813122 -0.6149251461
-0.39412129 -0.4930934 2.016 -0.2044117451 0.7917751074 0.5755935907
-0.092263907 0.012227747 1.268 0.1733409315 0.7695974708 -0.6145507693
-0.28502622 -0.013934616 1.4450001 -0.6084094644 -0.1310627162 -0.7827263474
-0.24371421 -0.062400255 1.3430001 -0.6351699829 0.5057412982 -0.5837677717
-0.026683854 -0.087373234 1.2175715 0.5414141417 0.5421474576 -0.6426094174
-0.048139818 0.10423791 1.3843334 0.4101526141 0.5347265005 -0.7388114929
-0.20408456 -0.21504648 1.2127894 -0.4772961736 0.1187097281 -0.8706873059
-0.17671347 0.13697492 1.4040002 -0.5035300851 0.3952395618 -0.7682728767
-0.30438802 -0.10333914 1.376 -0.7151232958 0.4574722052 -0.5285053253
-0.017663432 0.016971216 1.3256 0.6880229115 0.5466877222 -0.4772389829
0.0064634443 0.0084056994 1.4752501 0.7949693799 0.5283085108 0.298184067
-0.16956837 -0.070203468 1.2320001 -0.6797076464 0.6660732031 -0.3071547747
-0.19980986 -0.28405401 1.2320001 -0.2883377075 -0.3535747528 -0.8898574114
-0.077982567 -0.22714259 1.194 0.2263966948 -0.6429944634 -0.731643796
-0.27707228 0.056432784 1.4519999 -0.609484911 0.2532874048 -0.7512480617
-0.33092764 -0.10765116 1.516 -0.8077175617 0.07339888066 -0.584982872
-0.083834007 -0.115656 1.1764287 -0.2531777024 0.3114470243 -0.9159158468
-0.22517239 0.044540688 1.41125 -0.4660131931 -0.02044501714 -0.8845415115
-0.32244 -0.045152839 1.4960002 -0.8008773327 -0.02788899094 -0.5981786251
-0.11985699 0.018160149 1.381 -0.3933306932 -0.3125684857 -0.8646339774
-0.042819031 0.10672802 1.4580001 0.8197698593 0.5650847554 -0.09304080158
-0.292449 -0.22921677 1.2880001 -0.6035681367 -0.5252737403 -0.5998274684
-0.14391916 -0.10544588 1.1754001 -0.4356410205 0.4056167006 -0.8035496473
-0.062030304 -0.028325975 1.2270001 0.02308764309 0.7650794983 -0.6435218453
-0.01721481 0.054847192 1.3700002 0.5852931142 0.6902720332 -0.4253898263
-0.10290752 0.084747367 1.3810002 -0.1088840514 0.15287669 -0.9822285771
-0.42816401 -0.26312622 1.7760001 -0.9044091702 -0.181863144 -0.3859661818
-0.12333384 -0.028377701 1.245 -0.4795405865 0.7557432055 -0.4459742606
-0.21344554 -0.0399497 1.302 -0.7316396236 0.383576721 -0.5635355711
-0.25779521 -0.1305716 1.273 -0.5986905098 0.6265074015 -0.4990572631
-0.015664279 0.071794614 1.4890001 0.8726109862 0.4784897268 0.09796775132
-0.25840276 -0.059827238 1.452 -0.2994313836 -0.07864578813 -0.9508709908
-0.16556013 -0.18550134 1.1940528 -0.6340524554 -0.05889895558 -0.7710437179
-0.17427607 0.015099123 1.3966668 -0.5245676041 -0.3402987719 -0.7804009318
-0.22212979 -0.12894364 1.2360001 -0.6345624924 0.5516813397 -0.5412745476
-0.044498667 0.015835991 1.2840002 0.5230566859 0.6744930744 -0.5210286379
-0.25879201 -0.10006624 1.312 -0.5388039947 0.6671701074 -0.514367938
-0.1127183 0.014952427 1.312 -0.2523038685 0.9461544156 -0.202816695
-0.0645684 -0.18484883 1.1660004 0.2895925045 -0.3486601114 -0.8913878798
-0.24438554 -0.2235488 1.245 -0.4985351264 -0.3679088354 -0.7849240899
-0.14354891 0.11580416 1.376 -0.019173434 0.05979538709 -0.9980264902
-0.057519138 -0.066426545 1.189 0.2781029046 0.2846124768 -0.9174172878
-0.19718057 0.094774678 1.404 -0.5296005607 0.1077563539 -0.8413749933
-0.32405281 -0.13887978 1.3540001 -0.7002990246 0.4567326903 -0.5486132503
-0.13104326 -0.21771753 1.177 -0.1994304061 -0.1839763522 -0.9624865055
-0.29092535 -0.16693662 1.2780001 -0.7027343512 0.47297135 -0.5314720273
-0.22468251 -0.17508644 1.2158421 -0.4158656895 -0.1685707271 -0.8936663866
-0.038419038 0.061703306 1.3280001 0.2264263332 0.5419948101 -0.8093038797
-0.24513319 0.0050017121 1.426625 -0.3546083272 -0.1448734552 -0.9237232208
-0.31316549 -0.0057342765 1.4770001 -0.781929791 -0.05052540451 -0.6213155389
-0.1815844 -0.25453535 1.2060002 -0.3471619189 -0.3651941419 -0.8637776375
-0.33746141 0.0033392236 1.5245001 -0.9163496494 -0.03462605178 -0.3988788724
-0.173457 -0.046200607 1.2664615 -0.4879778922 0.6065203547 -0.627702713
-0.14521445 -0.064305 1.1941431 -0.3313333988 0.6003641486 -0.7278606296
-0.15461233 -0.14528804 1.1818888 -0.2981260419 -0.2052308321 -0.9322023392
0.016629171 0.024886416 1.439 0.4672530293 0.7001216412 0.5399113894
-0.29647464 -0.0513376 1.4640001 -0.6863492131 -0.0442446135 -0.7259250879
-0.075402096 0.1446237 1.4100001 0.30430305 0.5812373757 -0.7546938062
-0.043553304 -0.11430909 1.1814209 0.4417091012 0.482915014 -0.7560993433
-0.18290597 -0.098325171 1.2060001 -0.6171071529 0.4520400763 -0.6440796256
-0.034859478 -0.053924199 1.2426667 0.6140912771 0.5740250349 -0.5416522622
-0.095308572 -0.078911394 1.169 0.1273434013 0.3344050646 -0.9337863326
-0.22560063 -0.25515699 1.226 -0.5644584298 -0.0434984602 -0.8243145943
-0.3003723 0.025989659 1.4580001 -0.711548686 0.053862039 -0.7005693316
-0.12934779 -0.01012287 1.2830001 -0.3416976929 0.693980217 -0.6337461472
-0.29144111 -0.20581327 1.2576667 -0.6736795306 -0.1998435557 -0.7114903331
-0.070161387 0.019553173 1.312 -0.3759571314 0.7319226265 -0.5682829618
-0.14652038 0.15260005 1.3870001 -0.1452576071 0.3133507967 -0.938462317
-0.084020957 0.11767779 1.3810002 -0.1021315008 0.4318751991 -0.8961322308
-0.25270265 0.07130719 1.427 -0.5023350716 0.2003578246 -0.841139853
-0.064499766 -0.1454514 1.1630869 0.2879007459 0.08938679844 -0.9534795284
-0.2367159 -0.035175372 1.4330003 -0.1852803975 -0.2381122708 -0.9534011483
-0.19502641 -0.095547207 1.2442 -0.7035758495 0.5872634649 -0.400128305
-0.11562001 -0.13527921 1.177 0.1674678326 -0.080078125 -0.9826200008
-0.0684589 0.075665101 1.3700002 -0.4926439226 0.2529090941 -0.8326697946
-0.055190276 -0.0052617071 1.2551055 -0.07144729048 0.8084926009 -0.584153235
-0.28471503 -0.10601268 1.3372859 -0.6998062134 0.4492997527 -0.5553386807
-0.12651572 0.056700021 1.3810002 -0.2536316514 0.2050388604 -0.9453200698
-0.16442104 -0.22509895 1.1933336 -0.3759616017 -0.1278590113 -0.917771697
-0.0346108 0.082818702 1.4100001 0.8324679136 0.5250963569 -0.176835984
-0.23107034 -0.078296565 1.307 -0.635305047 0.5584824681 -0.5333712697
-0.10376786 0.023335047 1.3462309 -0.5476532578 0.6975561976 -0.462051183
-0.095755942 -0.20357138 1.1686922 0.04619062319 -0.4108888209 -0.9105145931
-0.084658585 -0.024027823 1.2523891 0.1207836792 0.778639853 -0.6157363653
-0.19509006 0.053368434 1.3979999 -0.4868721962 -0.07410173863 -0.8703243136
-0.31786793 -0.10030995 1.4860001 -0.827078104 0.1295580417 -0.5469520688
-0.01815971 -0.0079439152 1.2945001 0.6062400937 0.5521818399 -0.5723356605
-0.15199296 0.0361888 1.376 -0.1686381251 -0.093914859 -0.9811937809
-0.25627771 0.035175376 1.4330001 -0.4924772382 0.06103089079 -0.868182838
-0.20547785 0.013977437 1.41 -0.2489155382 -0.2188968956 -0.943464458
-0.34046665 -0.041390061 1.5230001 -0.8807579875 0.08521626145 -0.4658364654
-0.3042239 0.053836979 1.473889 -0.7092992663 0.2344663739 -0.6647706628
-0.13251343 -0.048089549 1.2190001 -0.3134693801 0.8680789471 -0.3849361837
-0.333031 -0.074775502 1.5030001 -0.7174291015 0.09266928583 -0.6904403567
-0.16962448 0.10616784 1.3920001 -0.3172768354 0.1076234579 -0.9422062635
-0.26839721 -0.24384527 1.273 -0.7274479866 0.1279014051 -0.6741369963
-0.20513649 0.12412111 1.413 -0.56043154 0.3284939826 -0.7602685094
-0.096164897 -0.038939256 1.2270001 0.1598343551 0.7424911261 -0.6505074501
-0.23717165 -0.28395319 1.2410001 -0.5229853392 -0.1128595173 -0.8448367119
-0.19502848 -0.18522878 1.2127219 -0.2612536252 -0.3327219486 -0.9061140418
-0.20578887 -0.065043889 1.2852727 -0.6990855336 0.481890887 -0.5282618403
-0.094681472 0.056848917 1.37 -0.2371540964 0.4397598505 -0.8662385345
-0.11429805 0.11429805 1.3870003 -0.08384529501 0.1585461497 -0.9837850928
-0.04564926 0.082547106 1.3490001 -0.08516959846 0.7393057942 -0.6679618955
-0.11277352 -0.10523244 1.1730001 0.2281282991 0.105006367 -0.967952013
-0.1362731 0.085097037 1.3854002 -0.123161681 0.06334525347 -0.990362823
-0.24529979 -0.19504857 1.2254444 -0.317186594 -0.2490196079 -0.9150857329
-0.10611904 -0.23290628 1.1854445 0.236479491 -0.6576011777 -0.7152888775
-0.24422355 -0.1077272 1.2867501 -0.5736825466 0.6297208071 -0.5237748027
-0.18628815 -0.012255799 1.3980001 -0.4129205644 -0.1595914513 -0.8966756463
-0.24396165 -0.15546699 1.2347502 -0.609000802 0.3904145658 -0.6904306412
-0.22318892 0.084317252 1.4143751 -0.5889787078 0.1295584142 -0.7976958752
-0.075065456 -0.049691219 1.2060001 -0.2066161335 0.738607049 -0.6416925788
-0.046582561 0.037381068 1.312 -0.01636315323 0.7158482671 -0.6980641484
-0.094819315 -0.15470205 1.1639234 -0.327406019 0.2040495127 -0.9225882888
-0.14691268 0.0084992824 1.3850001 -0.1159433872 -0.4753911495 -0.8721011281
-0.14793223 -0.032689147 1.2640001 -0.4266444445 0.6745484471 -0.6024606824
-0.1452748 -0.17454849 1.1765386 -0.3693350255 0.06315045059 -0.9271481633
-0.065042712 -0.093314946 1.1813999 0.2586174607 0.3910139203 -0.8833035231
-0.17198884 -0.11882865 1.189 -0.5658800006 0.3220138848 -0.7590038776
-0.21349323 -0.14615768 1.2151999 -0.6215527654 0.3291731775 -0.7108566165
-0.3081229 -0.074105509 1.4830002 -0.7964718938 0.1792153269 -0.577507019
-0.20204236 -0.11646817 1.2157143 -0.7298962474 0.4191063941 -0.5400012136
-0.32939962 -0.01852046 1.5090001 -0.901206255 0.007769641001 -0.4333208203
-0.18551758 -0.16455568 1.1955603 -0.353948772 -0.3225045204 -0.8779015541
-0.31084496 -0.15134773 1.3280001 -0.6687412262 0.5593357086 -0.4898251891
-0.0677488 0.0011291467 1.2880001 -0.2690924108 0.8440287709 -0.4639016688
-0.024113467 0.041988704 1.3464288 0.8256018758 0.4363303781 -0.3577671945
-0.27391613 -0.1268792 1.295125 -0.6414824724 0.5568749309 -0.5276272893
-0.22715485 -0.05562976 1.322 -0.7142620087 0.4043934941 -0.5712229609
-0.26630437 -0.20755541 1.2410001 -0.4813490808 -0.4097876847 -0.7748400569
-0.10970256 -0.012189173 1.2640001 -0.2866155505 0.8043779731 -0.520410955
-0.27911457 0.014779139 1.4450001 -0.5475546718 0.01523703244 -0.8366311789
-0.18579099 -0.032370821 1.2931111 -0.4777162969 0.6202250719 -0.6221800447
-0.26332524 -0.084725134 1.3339092 -0.4929982126 0.6039514542 -0.626255095
-0.14039466 0.0057071 1.302 -0.2738939524 0.7541752458 -0.5968264341
-0.048972793 -0.068145491 1.2145001 0.8289115429 0.3403921127 -0.4438906014
-0.23067817 -0.11809839 1.2590001 -0.612333715 0.585141778 -0.5316544771
-0.001873875 0.036828328 1.424 0.7121451497 0.5707742572 0.408737123
-0.026146583 -0.13073291 1.1930001 0.5680372715 0.2920300961 -0.769449234
-0.06223632 0.12813359 1.3920001 0.3926642239 0.6141363382 -0.6845811605
-0.16124794 -0.085337557 1.1952223 -0.6390872598 0.3067376018 -0.7053223252
-0.26602453 -0.035469938 1.4449998 -0.3890392482 -0.2634166479 -0.8827571273
-0.30019346 -0.16094021 1.302 -0.7342265248 0.5011847019 -0.4579577446
-0.27041221 -0.15783243 1.2590001 -0.6663233042 0.3549332917 -0.6557710171
-0.12490916 -0.084086955 1.1826843 -0.1852576584 0.4964410961 -0.8480718136
-0.30160838 -0.025668802 1.4640001 -0.7335959077 -0.07798658311 -0.6750963926
-0.20452927 -0.24444409 1.2132353 -0.4941156209 -0.1484506428 -0.8566283584
-0.25969058 0.088674828 1.4450001 -0.6005991101 0.3144069016 -0.7351387739
-0.01668472 0.065455437 1.4640001 0.8350058794 0.5500497222 0.01450888626
-0.32656184 0.0052459734 1.4960001 -0.8770869374 -0.07316161692 -0.474727124
-0.025534669 0.071740262 1.3870001 0.7761207819 0.5634777546 -0.2830712795
-0.22527418 -0.21467564 1.226143 -0.4316399992 -0.1626009941 -0.8872698545
-0.18432651 -0.066523284 1.2566923 -0.6504388452 0.5676037669 -0.5047328472
-0.24362803 -0.25530013 1.243 -0.6362496614 0.08906447887 -0.7663249373
-0.063422449 0.10171525 1.365 0.05044630542 0.5652924776 -0.8233465552
-0.11346417 0.036225855 1.3649999 -0.5775947571 0.3403323889 -0.7419961095
-0.28542864 -0.073908269 1.4534999 -0.4662818611 0.07231239229 -0.8816757798
-0.069133058 -0.21152651 1.177 0.2850949764 -0.5790220499 -0.7638418078
-0.18117456 0.085115574 1.3870001 -0.4024282992 0.03963787854 -0.9145929813
-0.14332184 -0.046027631 1.2442 -0.4948204756 0.7616024613 -0.4184666574
-0.13482559 -0.12484794 1.1641114 -0.08694746345 -0.1514779776 -0.9846291542
-0.17542163 -0.20498417 1.2045 -0.5752370954 0.1172471121 -0.8095402718
-0.15554354 -0.20482509 1.1835999 -0.496583879 -0.1036662608 -0.8617759347
-0.34067968 -0.017505281 1.536 -0.9220389724 0.03153274208 -0.3858106732
-0.49445665 -0.48047909 1.9930001 -0.2044117451 0.7917751074 0.5755935907
-0.27261966 -0.22184838 1.2590001 -0.4162341058 -0.6685445905 -0.6162769794
-0.26381528 -0.015075161 1.4330003 -0.3667550385 -0.2212580144 -0.9036236405
-0.16171958 0.13010523 1.3870001 -0.4737282693 0.2574939132 -0.8421866894
-0.041513324 -0.033605438 1.2528 0.8114334345 0.3213722706 -0.4881553054
-0.042178623 -0.17283176 1.1735002 0.4782061875 -0.1637411565 -0.8628485799
-0.045244042 -0.09556032 1.1956669 0.5382395387 0.4654046893 -0.7026355267
-0.036376186 -0.016231265 1.2767501 0.7548553348 0.4968803525 -0.4281393588
-0.1185604 0.01016232 1.2880001 -0.3668061495 0.7817922831 -0.5042361617
-0.1687218 -0.0020645501 1.4116669 -0.4643960595 -0.1157393232 -0.8780322671
-0.07526131 -0.16506097 1.1569998 0.08075236529 -0.01103509963 -0.9966731071
-0.24535544 -0.13501747 1.2535335 -0.5861347318 0.6114250422 -0.5316064954
-0.084178858 -0.067290522 1.1854999 0.1451461315 0.6452200413 -0.7500824928
-0.22204651 -0.0012404834 1.4150001 -0.2720260918 -0.3832016587 -0.88269943
-0.033685982 0.01504306 1.3043078 0.7520500422 0.4515642226 -0.4801150262
-0.15595345 -0.061456382 1.2156668 -0.6297571659 0.7143768668 -0.3050764203
-0.16815519 -0.27138969 1.2140001 -0.1472176462 -0.5385844111 -0.8296106458
-0.017291665 -0.048931733 1.2590001 0.4924706221 0.586368382 -0.6431522369
-0.07447809 -0.0077812932 1.268 -0.04250223935 0.7812500596 -0.6227695942
-0.17498361 0.044958882 1.3861004 -0.4717383385 -0.1050731912 -0.8754556179
-0.084109627 0.094735935 1.3715792 -0.3530224264 0.05102964118 -0.9342222214
-0.13499804 -0.1946941 1.1740001 -0.2677693367 -0.1967941821 -0.9431710243
-0.12656471 -0.15513271 1.1766924 -0.2242851704 0.05299881473 -0.9730813503
-0.28239551 -0.17706874 1.2589999 -0.5895587206 0.3779439032 -0.7138479352
-0.052526187 -0.043386936 1.2130001 0.7327417731 0.4594427049 -0.5019978285
-0.27541843 -0.11523565 1.3145 -0.6803463697 0.5714488626 -0.4588844776
-0.14510673 -0.23468947 1.1865 -0.3306369185 -0.3001297712 -0.8947632909
-0.20456558 0.073604226 1.4039999 -0.4416336119 -0.005043144803 -0.8971813321
-0.24480933 -0.075664081 1.3245001 -0.6302596331 0.5333858132 -0.5641562939
-0.30149969 -0.10564359 1.3540001 -0.7533416748 0.4260767996 -0.5009340048
-0.20510846 -0.16493256 1.2060001 -0.3972696364 -0.1342347413 -0.9078314304
-0.31427455 0.025867583 1.4752501 -0.7765538096 0.01043971442 -0.6299644709
-0.20120201 -0.078924544 1.268 -0.6613131166 0.5113928318 -0.5487644076
-0.12409708 0.13411067 1.3870003 0.08135651052 0.1817841381 -0.9799671769
-0.30602908 -0.12784518 1.3478 -0.6941152811 0.4443475008 -0.5663561225
-0.15547237 -0.12458068 1.1744401 -0.4582544863 -0.002700658049 -0.8888168931
-0.064832315 0.0644572 1.3471056 -0.6545141935 0.5451773405 -0.5238252282
-0.31759018 -0.025487578 1.4855715 -0.8251960278 -0.09666467458 -0.5565136671
-0.23519635 0.023669124 1.4210002 -0.458299309 -0.07514306903 -0.885615766
-0.16335218 -0.16394782 1.189 -0.4753765464 -0.1796761602 -0.8612396121
-0.043508667 -0.13514841 1.1750954 0.4773600101 0.2101552635 -0.8532069921
-0.10435683 -0.018082302 1.2426001 0.1089292765 0.8190922141 -0.5632249117
-0.084763683 -0.13545242 1.1637695 -0.3434560895 0.315248847 -0.8846785426
-0.28173655 -0.14875586 1.2855 -0.699211359 0.5023543239 -0.5086684823
-0.12500513 -0.056791801 1.1961582 0.08707545698 0.6276598573 -0.7736026049
-0.064683035 0.034444232 1.3266156 -0.4324034452 0.6347127557 -0.6404427886
-0.21506749 -0.10390867 1.2546843 -0.5907708406 0.5968915224 -0.5428722501
-0.18708768 0.030771 1.404 -0.4299847782 -0.2351614982 -0.8716720343
-0.20197611 -0.26502687 1.2190001 -0.3606618941 -0.3455118537 -0.8663397431
-0.27945238 0.036230005 1.4450001 -0.531303525 0.1605592519 -0.8318277001
0.0048486679 0.018118596 1.4556 0.5718595982 0.6610099673 0.4858419895
-0.12284905 -0.24291147 1.1943334 0.105943501 -0.6132885814 -0.7827215791
-0.22634806 -0.23516275 1.2335385 -0.6639751196 -0.01428842265 -0.7476181388
-0.17186932 -0.079023324 1.2126667 -0.7121115923 0.56304878 -0.4193722904
-0.084843583 0.026732855 1.3257501 -0.4546917379 0.7050353289 -0.5442247391
-0.0080513069 -0.0011501866 1.312 0.5779920816 0.584911108 -0.5690379143
-0.025788024 -0.067691237 1.2256669 0.5185931921 0.5608152151 -0.6454048157
-0.027227078 -0.10680912 1.1945001 0.5097182393 0.4835051298 -0.71162498
-0.094843045 0.13496898 1.3870004 0.1448072791 0.4047615826 -0.9028836489
-0.092835784 -0.096977159 1.1810001 0.2882735729 -0.08345371485 -0.9539045095
-0.21399851 -0.1931597 1.219 -0.3550525606 -0.2340192646 -0.9050815701
-0.21498999 0.10368963 1.4128572 -0.6101805568 0.2211650759 -0.7607665658
-0.18515742 -0.22357278 1.2032632 -0.4266335666 0.07920856029 -0.9009494185
-0.21661857 -0.063497968 1.3034286 -0.7347897887 0.3991479874 -0.54842031
-0.28456512 -0.25262183 1.2830001 -0.6463856101 0.1179367974 -0.7538412213
-0.17503317 -0.14490509 1.1873157 -0.4091848731 -0.1629980803 -0.8977746964
-0.063235104 -0.11262032 1.1736156 0.1580003202 0.4733399749 -0.8665940166
-0.19241606 0.11397893 1.3980001 -0.5129693747 0.2538627684 -0.8200098276
-0.14528118 0.065376528 1.3810003 -0.0999962166 0.1121997014 -0.9886415005
-0.30160838 0.0051337597 1.4640001 -0.7465484142 -0.05676798522 -0.6629049182
-0.084489316 -0.18424959 1.1611598 0.02780347504 -0.3220561445 -0.9463121891
-0.2639111 0.055048905 1.4364284 -0.6215239763 0.1099763587 -0.775637269
-0.28513408 -0.03564176 1.4519998 -0.5129709244 -0.1446484774 -0.8461310267
-0.23477162 -0.012510034 1.427 -0.1788033098 -0.267531842 -0.946813643
-0.16245508 -0.026889121 1.278 -0.4558283687 0.6298266649 -0.628918767
-0.12787552 -0.022826998 1.2640001 -0.4319797754 0.7618373036 -0.4826980829
-0.092312999 0.153855 1.404 0.2183242589 0.5163993835 -0.8280496001
-0.22992863 -0.091744922 1.2920001 -0.614171207 0.6274981499 -0.4785810709
-0.29436824 0.04556451 1.4547272 -0.6219177842 0.2282833904 -0.7490693927
-0.23944378 0.085174643 1.4330001 -0.5470932126 0.2992576957 -0.7817505002
-0.20784138 0.034434214 1.41 -0.2846946716 -0.1267062575 -0.9502075911
-0.11470249 -0.038827859 1.219 -0.02849688195 0.7689540982 -0.6386685371
-0.25497741 -0.24506164 1.2558002 -0.6369575262 0.1413667351 -0.7578262091
-0.22537346 0.064391166 1.4125 -0.5360185504 0.08687064052 -0.8397247195
-0.24525276 -0.1753342 1.2269999 -0.560564518 0.1851994842 -0.8071359992
-0.11611933 -0.2049408 1.1747501 -0.1890760064 -0.2283723354 -0.9550373554
-0.26381528 0.0050250529 1.4330003 -0.4322934151 -0.05481820554 -0.9000651836
-0.047483478 -0.15440671 1.169 0.4608406425 0.02142888494 -0.8872241378
-0.16453777 -0.2447053 1.1948465 -0.2707472742 -0.2977936566 -0.9154314995
-0.16371749 -0.056755401 1.245 -0.5566347837 0.7367516756 -0.3838680685
-0.22158802 -0.27429584 1.2270001 -0.3736389577 -0.2395664155 -0.8961037397
-0.090074867 -0.2174221 1.1810001 0.204784587 -0.6455829144 -0.7357214093
-0.33389688 -0.056043196 1.5077999 -0.7594876885 0.09971458465 -0.6428338885
-0.27724913 -0.19442713 1.25125 -0.6404915452 0.1486299634 -0.7534452081
-0.083113112 0.01171212 1.2928333 0.1750112474 0.8820563555 -0.4374330044
-0.31666163 0.044070154 1.4847143 -0.765393734 0.1022226736 -0.6353919506
-0.3331193 -0.094427519 1.4960002 -0.8070479035 0.09538859129 -0.5827303529
-0.2066042 -0.034473862 1.2850001 -0.6240813732 0.4915142357 -0.6074011922
-0.15534499 0.084958099 1.3843753 -0.1455571204 0.04754695296 -0.9882066846
-0.28877398 0.065455437 1.4640001 -0.6325810552 0.2592212558 -0.7298256755
-0.18716657 -0.093583286 1.2270001 -0.7604589462 0.571962595 -0.3075076938
-0.032167532 0.058378108 1.3590001 0.8200013041 0.4817667305 -0.3090286553
-0.20795585 -0.11352833 1.2333335 -0.6856143475 0.5941002369 -0.4206873477
-0.076585606 0.057439201 1.365 -0.5840142965 0.5276057124 -0.61689502
-0.093439735 0.042851686 1.3577502 -0.4884036183 0.6407867074 -0.5923295617
-0.31869289 -0.065574668 1.4960001 -0.7377662063 0.0878129676 -0.6693205237
-0.10436608 -0.068968028 1.1875 -0.1794696897 0.7368249297 -0.6518279314
-0.19569749 -0.0049545369 1.4128126 -0.4088289738 -0.2755075693 -0.8700312972
-0.24852009 -0.051722456 1.439 -0.2969736755 -0.2497612983 -0.9216430783
-0.068033718 -0.02292045 1.245 -0.3600484431 0.7734284997 -0.5217024684
-0.054721009 0.026111517 1.2950001 -0.3093647957 0.7464315295 -0.5891802907
-0.18776523 -0.053366099 1.2748749 -0.6033775806 0.5384437442 -0.5882293582
-0.033672012 0.035997432 1.3245715 0.6749646068 0.5174898505 -0.5259534717
-0.24500629 0.055001728 1.4258749 -0.5146870017 0.07680277526 -0.8539312482
-0.096181542 0.10425272 1.381 -0.2542518675 0.2312134951 -0.9390933514
-0.038630318 -0.014348404 1.2590001 0.7544260025 0.453958869 -0.4740914702
-0.16055098 0.15074635 1.3980001 -0.4082037807 0.3812278211 -0.8294787407
-0.14479233 -0.084372394 1.1881996 -0.3016564846 0.3232015669 -0.8969638348
-0.13408414 0.036281589 1.3760002 -0.2458666861 -0.08638679236 -0.9654464722
-0.27535936 0.073919177 1.4556923 -0.634421885 0.2652995586 -0.7260337472
-0.049062651 0.089748748 1.365 -0.2567434907 0.6653903723 -0.7009553909
-0.057715345 -0.049320389 1.197 0.22114788 0.5787228346 -0.7849671841
-0.046442289 -0.045722257 1.2320001 0.815516293 0.333216995 -0.4731803238
-0.14524856 0.13541143 1.3827649 -0.09456583112 0.2523326576 -0.9630085826
-0.14412938 -0.018075487 1.2772857 -0.312669456 0.718356967 -0.6214507818
-0.09197285 -0.012189173 1.2640001 0.06974486262 0.7282140255 -0.6817917824
-0.054359801 0.054001585 1.3279999 -0.3662255108 0.5724090934 -0.7336393595
-0.22652383 -0.15351853 1.2246001 -0.5779341459 0.3844529688 -0.7198528051
0.012562633 0.041456688 1.4330001 0.6592128873 0.5858374238 0.4714158177
-0.22192797 0.1143417 1.427 -0.6383584142 0.2953349352 -0.7108275294
-0.12457488 0.1538869 1.3931251 0.03860852122 0.2241493613 -0.9737897515
-0.12280066 0.073101379 1.376 -0.1537497342 0.0662561208 -0.9858859777
-0.27235842 -0.051938117 1.4450001 -0.279433459 -0.1010732874 -0.9548304081
-0.10432476 0.0025181153 1.276125 -0.3630863726 0.7224915028 -0.5883658528
-0.15513821 0.10422931 1.3825002 -0.2017038912 -0.02223103307 -0.9791942239
-0.072164573 -0.082623206 1.1930001 0.2740941346 0.3411464095 -0.8991615772
-0.15168963 -0.26307011 1.21 -0.112800546 -0.567181468 -0.8158316016
-0.21129419 0.053336401 1.4040002 -0.3881312013 -0.01333975606 -0.921507597
-0.29904151 -0.073156081 1.4640001 -0.7514812946 0.14009583 -0.6447085142
-0.18501359 -0.27343553 1.2167778 -0.3186500371 -0.4286431372 -0.8454154134
-0.093393929 -0.2340095 1.197 0.2346977741 -0.6955126524 -0.6791017056
-0.013761037 0.048789129 1.427 0.8104481101 0.5458517671 0.2126494348
-0.20166138 -0.028645083 1.307 -0.5878279805 0.557344079 -0.5863666534
-0.2603814 -0.10801848 1.2970001 -0.5642763972 0.6309773326 -0.5324093699
-0.081217907 -0.039540295 1.2190001 -0.2101060748 0.8151602745 -0.53978616
-0.048134632 -0.015732033 1.2438571 0.5627528429 0.6062976122 -0.5618829727
-0.33204538 0.014551789 1.5090002 -0.8989108205 -0.03774309903 -0.4365029633
-0.2816318 -0.089981943 1.3330001 -0.6201781631 0.5565553308 -0.5528337955
-0.28640699 0.0012729199 1.452 -0.6661940813 -0.04950684309 -0.7441333532
-0.10827184 0.0174632 1.3280001 -0.4000807106 0.8641652465 -0.305211097
-0.19692375 -0.044893973 1.2941428 -0.65715909 0.4458629191 -0.6077402234
-0.09769135 -0.14088121 1.1730001 -0.3191434741 0.3059906065 -0.8969488144
-0.1753304 -0.17532949 1.2033333 -0.4491651058 -0.2968440652 -0.8426946402
-0.030266916 0.056901801 1.381 0.8167263269 0.5365512371 -0.2122991532
-0.31852368 0.01170087 1.483 -0.7831553221 -0.0408359468 -0.6204838753
-0.13467231 0.10434488 1.3840004 0.008161891252 0.07806708664 -0.9969146848
-0.21697463 -0.023510071 1.433 -0.127080828 -0.3612340391 -0.9237750769
-0.18528078 -0.11462177 1.2045453 -0.6043087244 0.3364122212 -0.722244978
-0.27222487 -0.26188254 1.2640001 -0.6576256156 0.203718245 -0.7252774835
-0.24513581 -0.095254287 1.3043078 -0.5464423299 0.6737963557 -0.497392416
-0.032135092 -0.040999945 1.2640001 0.5334230065 0.5576784611 -0.6359674931
-0.019120976 -0.021370504 1.2830001 0.5090712905 0.6286535859 -0.5879124403
-0.053567842 0.0078119766 1.273 -0.1308733374 0.8254106045 -0.5491534472
-0.05523397 -0.12619047 1.1680589 0.3640838563 0.3095580935 -0.8784171939
-0.16537394 -0.10456484 1.1934708 -0.5706781149 0.3626962006 -0.7367346883
-0.14720665 -0.051933438 1.2256669 -0.4890459776 0.8315927386 -0.2632252574
-0.14381224 -0.15645224 1.177 -0.1996048093 -0.05446387455 -0.9783616662
-0.05043814 0.071551777 1.3380001 -0.2787608206 0.5718372464 -0.7715533376
-0.27778849 -0.23605828 1.2863334 -0.6605469584 -0.04280961305 -0.7495632172
-0.11776701 -0.38845539 2.0050001 -0.2071487606 0.7963110209 0.5683116317
-0.27235842 -0.069673084 1.4450001 -0.3067184985 -0.02200701833 -0.9515458345
-0.16293551 0.0085115563 1.3870001 -0.3382982612 -0.4360723495 -0.8339036107
-0.32808462 -0.034788765 1.507 -0.8629743457 0.03257742897 -0.5041964054
-0.18663795 -0.081858747 1.245 -0.73804456 0.5435352921 -0.3998245001
-0.29621211 -0.12457321 1.3355001 -0.7298556566 0.4509851933 -0.5137344599
-0.11549907 -0.22361092 1.1763334 0.005394394975 -0.3854997456 -0.9226921797
-0.020737549 -0.061121199 1.245 0.5226409435 0.6157841682 -0.5896238685
-0.10586643 -0.1225822 1.177 0.1495200247 -0.02665582113 -0.9883993268
-0.29143205 -0.22051322 1.2640001 -0.4681549966 -0.6842684746 -0.5591131449
-0.26462439 -0.14432779 1.2653334 -0.6664797068 0.5210438371 -0.5332148671
-0.16536738 0.02431873 1.3870003 -0.4704301059 -0.2436558008 -0.8481317163
-0.065845557 0.1159348 1.3823335 0.2676867545 0.5601145625 -0.7839741707
-0.22328699 0.014885801 1.4150001 -0.3826707006 -0.2080889493 -0.9001455903
-0.21562845 -0.28605986 1.2360001 -0.3397749364 -0.331598103 -0.8801111579
-0.084206462 0.074584395 1.3722502 -0.3438241482 0.1528638303 -0.9265083075
-0.19078019 0.0073850402 1.404 -0.3247396648 -0.109188132 -0.9394797087
-0.075728215 -0.032453615 1.2340001 -0.2992998064 0.8409618139 -0.4507802427
-0.11273056 -0.15679796 1.169 -0.3006905019 0.1761106849 -0.9373207688
-0.31385496 -0.05469742 1.4855 -0.7772003412 -0.07222025841 -0.625095129
-0.086263999 0.01897808 1.312 -0.1544975191 0.8691843152 -0.4697330892
-0.11577096 0.093978778 1.3810003 -0.08965272456 0.2224443108 -0.9708145857
-0.12445704 -0.073159888 1.1941113 -0.00599869946 0.5407272577 -0.8411765695
-0.25203604 -0.21216106 1.2360001 -0.358784169 -0.5125853419 -0.7800834775
-0.25094584 -0.28162917 1.25 -0.5904521942 -0.00214386615 -0.8070697784
-0.24431367 -0.12492851 1.2656 -0.5748894215 0.6405646205 -0.509096384
-0.21052536 -0.12930745 1.2190001 -0.6802434325 0.3960581422 -0.6167712808
-0.15319926 0.051870614 1.376 -0.1306860596 0.08391466737 -0.9878661036
-0.18605146 -0.019404139 1.302 -0.5075002313 0.5944274664 -0.6237784028
-0.043232314 -0.08236973 1.2112857 0.5732961893 0.5646129251 -0.5937539339
-0.024587434 0.026931638 1.3355001 0.7603804469 0.4933334291 -0.4224260151
-0.25763527 -0.15457924 1.2505555 -0.7035535574 0.3500117958 -0.6184691787
-0.15429732 -0.045183185 1.2571503 -0.4857622981 0.6824692488 -0.5461416841
-0.13514829 -0.1361236 1.1748948 -0.106761083 -0.3491562605 -0.9309629202
-0.074898012 0.13718168 1.3930001 0.2565311193 0.5791913867 -0.7737758756
-0.024397634 -0.10077284 1.21 0.5776000619 0.5211800933 -0.6282908916
-0.022620337 0.007284516 1.312 0.6670158505 0.5159657598 -0.5374655128
-0.067343779 0.0079899402 1.302 -0.3728925288 0.7639958262 -0.5265562534
-0.24099216 -0.05937488 1.3280001 -0.6538617015 0.4860458374 -0.5798485279
-0.1976562 -0.13118148 1.21 -0.6807805896 0.2671803832 -0.682020843
-0.23339342 -0.26486835 1.2352002 -0.5930151939 -0.01103361975 -0.8051156998
-0.18607573 0.06532599 1.3943334 -0.4901675582 -0.00670076767 -0.8716024756
-0.2114583 0.087389641 1.404 -0.5151393414 0.09605058283 -0.8517075181
-0.23825958 -0.14034469 1.2410001 -0.5683167577 0.5399591327 -0.6208543777
-0.23823489 -0.11353198 1.2738333 -0.6237959266 0.595435977 -0.5062949657
-0.17580849 -0.23765129 1.2024444 -0.3921113312 -0.108616814 -0.913482964
-0.14449848 -0.21519077 1.1857998 -0.3443438709 -0.1447982937 -0.9276102185
-0.16543928 -0.25816956 1.202 -0.199228853 -0.4517122805 -0.8696343303
-0.078064881 -0.10125657 1.1810001 0.03322162852 0.358207643 -0.9330506921
-0.095507436 -0.052040953 1.2115384 -0.08978465199 0.7665754557 -0.6358464956
-0.036498263 0.060045529 1.3430001 0.7735906839 0.4924194515 -0.3988490403
-0.23742315 -0.20572054 1.2328891 -0.3151192069 -0.3561505973 -0.8796912432
-0.12744629 -0.042122081 1.2320001 -0.4489990771 0.7780152559 -0.4394224286
-0.055029627 -0.10487368 1.184478 0.4485786855 0.4526369274 -0.7706471086
-0.18038118 -0.0392133 1.2780001 -0.5230060816 0.6194096208 -0.5854881406
-0.14805409 -0.19153851 1.1810001 -0.4710654318 -0.1356325746 -0.8716083765
-0.1353818 -0.034209359 1.2520834 -0.5094676018 0.7135906816 -0.4808649719
-0.19414817 -0.23549138 1.2057778 -0.4443926513 -0.08158405125 -0.8921093941
-0.28513408 -0.056008473 1.4519998 -0.4215961397 0.003727557836 -0.9067760706
-0.25752082 -0.21807083 1.25 -0.4420987964 -0.5760402083 -0.687550962
-0.2689552 -0.22877932 1.273 -0.5765377283 -0.5508317947 -0.6034803987
-0.14544396 0.023984022 1.3818003 -0.09716882557 -0.2972384989 -0.9498460293
-0.032492951 -0.0040889485 1.296 0.6881839633 0.472432971 -0.5506449938
-0.016468184 0.062072381 1.4450001 0.786722064 0.6161720753 -0.03742078692
-0.31765315 -0.085486978 1.485 -0.7793272138 0.1864960045 -0.598221004
-0.31261101 -0.094299085 1.4735001 -0.7786123753 0.225438863 -0.5856109262
-0.27424341 -0.10426337 1.3244001 -0.6274049878 0.5263582468 -0.5738553405
-0.11867454 -0.12318376 1.169 0.3453380764 -0.1978587061 -0.917384088
-0.14453077 -0.0079040267 1.2880001 -0.2704315782 0.7009088993 -0.659995079
-0.090299293 -0.031550355 1.2410001 0.1971021146 0.7685931921 -0.6086174846
-0.27387774 -0.0047505223 1.4376155 -0.4956499934 -0.08717601001 -0.864136219
-0.29268169 -0.14560206 1.3048573 -0.7382979393 0.4969136119 -0.4560624957
-0.07095477 -0.19743936 1.1730001 0.1958916634 -0.4557235837 -0.8682985902
-0.090319462 0.032843441 1.3380001 -0.5576682687 0.6640839577 -0.4979945719
-0.22575359 -0.10466979 1.2648 -0.6226503253 0.5885650516 -0.5156527758
-0.30964655 -0.1412836 1.3430001 -0.6940073371 0.5104132891 -0.5077716708
-0.28403825 -0.11599747 1.3265002 -0.7208186388 0.4756845832 -0.5041276813
-0.26244003 0.074668989 1.4375001 -0.6286345124 0.2433730662 -0.7386394143
-0.30457625 -0.1540156 1.3150001 -0.7554860115 0.5033449531 -0.4193861187
-0.18350898 -0.12553793 1.1950001 -0.616163969 0.2980186045 -0.7290589213
-0.060760889 0.083397299 1.3590001 -0.5041599274 0.4980553091 -0.7055236697
-0.054136656 -0.17466968 1.1651604 0.4089038372 -0.226491347 -0.8840245008
-0.10512487 -0.18562236 1.1681306 -0.2502335012 -0.07376809418 -0.9653711319
-0.30550882 -0.044996087 1.4735001 -0.7944746614 -0.08510780334 -0.6013041735
-0.10929403 0.049242366 1.3700001 -0.3679176569 0.3256076872 -0.8709857464
-0.18708767 0.12677652 1.4040002 -0.4728414118 0.3590314984 -0.804684639
-0.084035367 -0.085415818 1.181 0.3996894062 0.1420949399 -0.905570209
-0.107567 -0.02904309 1.2270001 0.05461534858 0.7226486802 -0.6890544295
-0.25565392 -0.12225662 1.2846667 -0.5738633275 0.6173484921 -0.5381094217
-0.26806858 -0.13234715 1.2830001 -0.6343361735 0.5764571428 -0.5150871277
-0.23602243 -0.23547406 1.2442502 -0.6299269199 -0.1193959042 -0.7674221396
-0.074434102 -0.12541074 1.1630799 -0.08951780945 0.3700007498 -0.9247086048
-0.10352314 -0.21560282 1.1760589 0.0563654229 -0.4628159702 -0.884660542
-0.23480372 -0.18548426 1.2229997 -0.3631909788 -0.1670395583 -0.916618824
-0.15711649 -0.11222474 1.1816669 -0.5170704722 0.2913453281 -0.8048329353
-0.22717826 0.095327608 1.4227144 -0.6225242615 0.2602084577 -0.738075316
-0.32656184 -0.013114933 1.4960001 -0.8797092438 -0.07273112983 -0.4699168503
-0.090395726 -0.0011159966 1.273 0.1876689047 0.7043149471 -0.6846319437
-0.13469878 0.12443087 1.3870004 0.07836273313 0.1692667305 -0.9824500084
-0.21669616 -0.23432726 1.223 -0.6116186976 -0.04615635797 -0.7898051739
-0.28706056 -0.096274659 1.3475001 -0.6841721535 0.5304303765 -0.5005517602
-0.23206857 -0.06811963 1.317 -0.6505630612 0.4884518385 -0.5815346241
-0.12548563 -0.10605256 1.1666001 -0.03028820083 0.2591406405 -0.9653645754
-0.1947808 -0.085236482 1.2562002 -0.683454752 0.5287016034 -0.5033529997
-0.30294678 -0.06378042 1.4746667 -0.8288590312 0.06399273127 -0.5557855964
-0.33668292 -0.024047844 1.524 -0.9143233895 0.03643409535 -0.4033426046
-0.095071793 -0.17484601 1.1626364 -0.2723247111 -0.06019842625 -0.9603204727
-0.03365143 0.02571916 1.3136668 0.6673642397 0.560002327 -0.490940243
-0.10533053 0.065317318 1.374 -0.1889599562 0.2731906474 -0.94321841
-0.19255939 -0.15163396 1.197 -0.5129058957 -0.07602419704 -0.8550718427
-0.21698493 -0.082586385 1.2846667 -0.668907702 0.5536893606 -0.4959743917
-0.08473663 -0.059027065 1.197 -0.08932142705 0.7172495723 -0.6910678148
-0.27714407 -0.026320942 1.4449999 -0.4747112989 -0.2372113764 -0.8475729823
-0.050446615 -0.056886602 1.2243334 0.8139150739 0.3201647997 -0.484805882
-0.1752785 0.12519565 1.3963636 -0.4684460163 0.328381598 -0.820197463
-0.25212494 -0.26849669 1.245 -0.5691668987 0.05194054544 -0.8205798268
-0.052144136 0.11365632 1.3940001 0.4365609884 0.5749300718 -0.6920042634
-0.0062287166 0.063532911 1.4210001 0.68778193 0.7259171009 0.0006727813161
-0.12561503 -0.18579844 1.1685001 -0.20658575 -0.05920793861 -0.9766353965
-0.19516316 -0.25545463 1.2113334 -0.4173556566 -0.2871182263 -0.862193346
-0.16656066 -0.20405555 1.1936667 -0.5975961089 -0.0006707549328 -0.8017969728
-0.032370623 0.045626413 1.3346667 0.7529551387 0.4523499906 -0.4779519141
-0.25732669 -0.19588992 1.2325716 -0.5441532135 -0.06786931306 -0.8362362385
-0.18565674 -0.19547321 1.211 -0.4478528798 -0.07512440532 -0.8909456134
-0.17827192 -0.080543749 1.2250001 -0.7320227027 0.5941204429 -0.3334121704
-0.17790635 -0.07094425 1.245 -0.6907724142 0.6116195321 -0.3856877387
-0.16503374 -0.1360441 1.181 -0.3954777122 -0.09931303561 -0.9130905271
-0.23627599 0.045262005 1.4210002 -0.5048609972 0.02856237628 -0.8627279997
-0.30748382 0.036856819 1.47 -0.7255956531 0.1068672612 -0.6797722578
-0.23646052 -0.16475479 1.2247777 -0.5296850801 0.279815644 -0.8007102609
-0.048295218 -0.02663664 1.2352002 0.5848015547 0.5752626061 -0.5719091296
-0.20341359 -0.14576083 1.2056365 -0.6250484586 0.232679382 -0.7451004982
0.0027753513 0.025987381 1.439 0.4580599368 0.6852157712 0.5662688613
-0.1769464 0.032541867 1.3920001 -0.4963504076 -0.25568524 -0.8296151757
-0.25705937 -0.092650697 1.3244001 -0.4896103442 0.6582527757 -0.5718260407
-0.058060169 -0.19307999 1.1756667 0.3494813144 -0.3788174689 -0.8569481373
-0.064699367 -0.03700383 1.2148125 -0.0038024846 0.8194386959 -0.573154211
-0.13402411 -0.23124605 1.177 -0.2380453646 -0.3050389588 -0.9221093059
-0.072995648 0.089748748 1.365 -0.3386986256 0.1952027231 -0.9204233289
-0.24999641 -0.0062813167 1.4330001 -0.2524888217 -0.1594908983 -0.954364717
-0.24622764 -0.025125265 1.4330003 -0.2116649896 -0.2467478067 -0.9456814528
-0.29335722 -0.24238782 1.2919999 -0.7249391675 -0.2303429842 -0.6491573453
-0.28513366 -0.22475585 1.2755001 -0.3736458123 -0.7141628265 -0.5919123888
-0.10457054 0.12402555 1.3870003 -0.08837495744 0.1902388036 -0.9777520299
-0.2061657 -0.18079145 1.2060001 -0.2932605743 -0.3551880717 -0.8876033425
-0.042868417 -0.0025861666 1.2646667 0.667111218 0.5577246547 -0.4938681722
-0.22172216 -0.07731849 1.2970001 -0.6735242009 0.5377416015 -0.5071479678
-0.26982486 0.065872729 1.4450001 -0.6550713181 0.1782567948 -0.7342384458
-0.2045413 -0.095244192 1.2560625 -0.5819422603 0.6122412682 -0.5352604985
-0.097854413 0.012372397 1.2830001 -0.08349774778 0.9172189832 -0.3895348907
-0.20566037 -0.10587066 1.245 -0.630890429 0.6185526252 -0.4683694541
-0.01828639 -0.092507616 1.2270001 0.5381280184 0.5442363024 -0.6436032057
-0.16965428 -0.0948378 1.202 -0.6249360442 0.3397477269 -0.7028701305
