# .PCD v0.7 - Point Cloud Data file format
VERSION 0.7
FIELDS x y z normal_x normal_y normal_z
SIZE 4 4 4 4 4 4
TYPE F F F F F F
COUNT 1 1 1 1 1 1
WIDTH 512
HEIGHT 1
VIEWPOINT 0 0 0 1 0 0 0
POINTS 512
DATA ascii
-0.10200236 -0.037335042 1.2345002 -0.3340533674 0.6599189639 -0.6729898453
-0.47321063 -0.49324074 2.0400002 0.05112822726 0.840402782 0.5395452976
-0.13927165 -0.16587409 1.7850001 -0.7065396905 0.6472254395 0.2861832976
-0.49725935 0.10954476 1.404 -0.765971005 0.6350462437 -0.1000236347
-0.36054263 0.12165678 1.0813333 -0.6338929534 0.4223472178 -0.647921741
-0.16293551 0.26672322 1.273 0.1862918288 0.9177689552 -0.3507071733
-0.27026406 -0.15560658 1.0380001 -0.5718278885 -0.3735302389 -0.7304026484
-0.14489035 0.063634463 1.0356668 0.3707079589 0.1357583106 -0.9187738299
-0.06345664 0.14765872 1.3920001 -0.5442638993 0.8060853481 0.2323858738
-0.35570225 0.24710779 1.2640001 -0.2623152435 0.9002957344 -0.3473590314
-0.37739712 -0.068898112 1.1730001 0.1144307852 0.8966662884 -0.427662462
-0.21534792 0.1885552 1.1320001 0.0622930117 0.8302839994 -0.5538484454
-0.097980477 0.12523569 1.2336 0.8830794096 -0.0303943269 -0.4682380855
-0.1249947 -0.12209907 1.101 0.4012619257 -0.3318187296 -0.8537477255
-0.29455194 -0.0056535685 1.0326251 -0.1268442124 0.3183490932 -0.9394490123
-0.082450271 0.046866819 1.1435 0.8303177357 0.3954145312 -0.3927082717
-0.25517425 0.10389443 1.0330477 -0.1144371182 0.4551199377 -0.8830458522
-0.32605201 0.19711715 1.1639091 -0.1696485877 0.777653873 -0.60537076
-0.18594146 -0.046070948 1.0424118 -0.08392577618 -0.5383829474 -0.8385107517
-0.078808829 0.059106618 1.322 -0.7561536431 0.4832204282 -0.4412818551
-0.25481749 0.24766974 1.223 -0.0003407651384 0.8829657435 -0.469437331
-0.38022172 0.020011669 1.087 -0.6177967787 0.3621903658 -0.6979579329
-0.12770167 0.13358216 1.1171 0.8177291751 0.4323090017 -0.3800366819
-0.13541462 0.20696376 1.1943334 0.674033761 0.6036323905 -0.4258008897
-0.3344498 -0.12319797 1.1036664 -0.5379399061 0.2039711326 -0.8179342747
-0.085788161 0.18415777 1.3047779 0.9357503057 0.3293741643 -0.1260318905
-0.12198038 -0.034390077 1.1353333 -0.14404127 0.6079553366 -0.780796051
-0.21195374 -0.14324178 1.104 0.08998453617 -0.5156977773 -0.8520320058
-0.28505182 0.15326905 1.09525 -0.1931304932 0.7383794188 -0.6461396217
-0.10841649 -0.01111964 1.057 0.7440566421 -0.2870756388 -0.6032969952
-0.2645824 -0.076095618 1.0631598 0.1271794438 -0.4879414439 -0.8635615706
-0.21809363 0.029740039 1.028 0.1481184512 -0.5464667082 -0.8242785335
-0.1945481 0.13976696 1.0700001 0.05751813948 0.7847910523 -0.6170856357
-0.096567243 -0.098114125 1.1750001 0.4334147274 0.7192169428 -0.5430272818
-0.18271251 -0.1277017 1.0343335 0.4405244589 -0.1200783551 -0.8896737695
-0.32800484 0.059218835 1.0500001 -0.3419609666 0.4786302149 -0.8086876869
-0.33918232 -0.058543801 1.0600001 -0.3199289739 -0.5101388097 -0.7983757854
-0.046884716 0.12516287 1.326 -0.1280961186 0.5536326766 -0.8228501081
-0.06451188 0.015809674 1.2670767 -0.5267831683 0.584118247 -0.6174992919
-0.10300833 0.2202625 1.25 0.8982360959 0.3556496799 -0.2582347691
-0.20504746 0.22331609 1.1855716 0.04667816684 0.8394172788 -0.5414792299
-0.11357524 0.06766858 1.0910001 0.8436058164 0.3718567491 -0.387365222
-0.37109825 0.21250926 1.2060001 -0.5051916838 0.7220419049 -0.4726910889
-0.46300712 -0.45252395 1.9930001 0.05112822726 0.840402782 0.5395452976
-0.26538959 0.21371739 1.1646923 -0.01965877414 0.814565897 -0.5797377825
-0.3143405 0.23655097 1.21 -0.1802842617 0.8298603892 -0.5280429125
-0.3701269 0.1626164 1.138 -0.3775317669 0.722450316 -0.5792540908
-0.063558333 0.077804163 1.25 0.7945426106 0.4629238844 -0.3929421902
-0.19466209 0.097331047 1.028 0.1808156818 -0.2041142136 -0.9621034861
-0.15517367 0.1835563 1.1340001 0.3299671113 0.7922306657 -0.5133149624
-0.08590281 0.080666482 1.1950001 0.5540624261 0.8042317629 -0.2150025517
-0.13808969 -0.074755773 1.0625001 0.5668401718 -0.3071304262 -0.7644364238
-0.24062397 -0.031542465 1.028 -0.001559988246 -0.342415154 -0.9395474792
-0.2024695 -0.09227179 1.0762 -0.2121502906 -0.5125880837 -0.8320130706
-0.16509351 0.0056506637 1.0311875 0.01588757895 0.2438925207 -0.9696721435
-0.36590928 -0.079460189 1.1190001 0.2145695835 0.5112990141 -0.8321858048
-0.35264552 -0.0066440376 1.0455 -0.3416123688 0.3259035945 -0.8815258741
-0.28111631 -0.1324582 1.087 0.157322064 -0.2948345542 -0.9425085187
-0.27463377 0.052502535 1.0277272 -0.1368570924 0.5016843081 -0.8541563153
-0.30390897 0.11449461 1.0551113 -0.2583047748 0.6983020902 -0.6675723195
-0.14264639 0.10886228 1.0705 0.7251521945 0.3420388103 -0.5976317525
-0.19440959 0.24949232 1.2320001 0.05311511829 0.8644374013 -0.4999267161
-0.11908669 0.16276339 1.1676668 0.8152271509 0.4488339424 -0.3659955859
-0.085517615 0.015636401 1.101 0.8867915869 0.3062266409 -0.3461588621
-0.10702741 -0.075012714 1.1064999 0.111875698 0.3366186023 -0.9349715114
-0.3103216 -0.099712946 1.0630001 -0.6711580157 -0.3924839199 -0.6288905144
-0.23571007 0.1566954 1.0912001 -0.01933845133 0.7595079541 -0.6502104998
-0.3777951 0.076518096 1.0910001 -0.4666729867 0.5529583693 -0.6902559996
-0.10825168 -0.0055799833 1.273 -0.4490045011 0.7192290425 -0.5301929712
-0.23713483 0.26705369 1.2640001 -0.02757757716 0.9124014974 -0.4083662629
-0.11294535 0.17103153 1.2270001 0.9197754264 0.05066660419 -0.3891607523
-0.16529724 -0.19549578 1.8130001 -0.5639698505 0.7390320301 0.3684692681
-0.21463276 -0.16397095 1.0340002 0.1637600064 -0.3598613143 -0.9185218811
-0.3331719 0.15055872 1.108 -0.2289516628 0.713101387 -0.6626216769
-0.14364709 0.23725171 1.2320001 0.4794580638 0.726329267 -0.4925096631
-0.10778266 0.22251904 1.322 0.9012531042 0.4107626379 -0.1379018128
-0.084673144 0.15788765 1.2653333 0.953915298 0.1656178087 -0.2502326071
-0.26518336 0.18336231 1.1245 -0.0742206201 0.7750691175 -0.6275023818
-0.081679031 -0.071071364 1.21 -0.1176744625 0.6430470943 -0.7567319274
-0.061785214 0.095188968 1.2948571 0.9523486495 0.1119575873 -0.2837208211
-0.061102208 0.16280781 1.3490001 -0.2771034539 0.6712870598 -0.6874498725
-0.11634832 0.033055842 1.0557144 0.4829384685 0.4299766719 -0.7628174424
-0.16361953 0.16121593 1.0962501 0.03840757161 0.8085202575 -0.587213695
-0.38375354 0.1817403 1.1756667 -0.4178420901 0.7155539393 -0.5598129034
-0.29538146 -0.048064128 1.041 0.0202277042 -0.499736011 -0.8659415245
-0.14367506 -0.036993049 1.0419002 0.3967450857 -0.4273544252 -0.8123801351
-0.12067755 0.10598638 1.197 0.8188937306 0.3960848153 -0.4153671563
-0.14645433 -0.1242203 1.0567273 0.6976616383 -0.03016909398 -0.7157918811
-0.49743381 0.068226583 1.4150001 -0.7758257389 0.620046258 -0.1167776361
-0.22504593 -0.062050473 1.0564001 0.02301686443 -0.642539382 -0.7659068704
-0.12387563 0.24886726 1.273 0.4380987287 0.7991903424 -0.4115389884
-0.23511887 0.12791564 1.0608182 -0.06738008559 0.7354846597 -0.6741826534
-0.30565685 0.17862959 1.132 -0.2381514013 0.7798544765 -0.578887701
-0.18509413 0.05456911 1.0268461 0.06455606222 0.2088986337 -0.9758042097
-0.10874349 -0.11173642 1.138 0.9485439062 -0.2395104766 -0.2071212828
-0.31576833 0.25674129 1.2656 -0.1996389478 0.9261435866 -0.3200036287
-0.17476283 0.20806582 1.1627779 0.1025929824 0.8338561654 -0.5423638821
-0.23521926 -0.11523125 1.0862799 0.09903819859 -0.4048899114 -0.908986032
-0.22436063 0.072090633 1.0380001 0.02057334222 0.2089698464 -0.9777056575
-0.092164554 0.10327134 1.2666668 0.6410087943 0.6605129838 -0.3909351826
-0.055046953 0.04779797 1.2920001 -0.6193210483 0.518560946 -0.5895218849
-0.25447193 0.015233438 1.0323752 -0.006304198876 -0.3330626488 -0.9428836107
-0.092142053 0.14479464 1.365 -0.2475161701 0.9280614257 -0.2782762945
-0.3109186 0.029740039 1.028 -0.2543535233 -0.2165107429 -0.942564249
-0.091922447 0.022694707 1.2945001 -0.6192618012 0.5732301474 -0.536583662
-0.068264283 -0.018420519 1.2360001 -0.3302389085 0.6068821549 -0.722935915
-0.25089762 -0.14821365 1.105 0.1498223096 -0.5126442909 -0.8454283476
-0.29491279 0.084654026 1.0322415 -0.2130447179 -0.2244964838 -0.9509012699
-0.34073773 0.094781034 1.0547501 -0.6914644837 0.1628702432 -0.7038111687
-0.20517249 -0.015365335 1.031 0.04317860305 -0.08611281216 -0.995349288
-0.35318884 0.03075259 1.0630001 -0.7504813671 -0.2924110591 -0.5926832557
-0.17398152 0.23433927 1.2048572 0.1255308837 0.8568234444 -0.5000955462
-0.10076319 0.078371368 1.161 0.712993443 0.6320286989 -0.3036117852
-0.11337442 0.092072912 1.1190001 0.9573047161 0.2310000807 -0.173800528
-0.24473202 0.22904406 1.1930001 0.07309742272 0.8518217206 -0.5187065601
-0.095605902 0.21374871 1.2855 0.9478372335 0.3057117462 -0.09024930745
-0.039807681 0.17491253 1.376 -0.7913014293 0.5881480575 -0.1671045721
-0.18566985 -0.12282757 1.0861 -0.2417156547 -0.435392797 -0.8671831489
-0.20120201 0.2678988 1.268 0.0440948531 0.9115038514 -0.4089210331
-0.29714355 0.21845745 1.1810001 -0.2279852778 0.7906581759 -0.5682273507
-0.34712791 0.22636847 1.1834002 -0.220212236 0.7915977836 -0.5699820518
-0.33275986 -0.091558188 1.123 -0.2219127417 0.4208272994 -0.879578948
-0.1647695 0.089288503 1.0500001 0.4595018029 0.05083592981 -0.8867208362
-0.27514222 0.13135736 1.067 -0.156633839 0.7223237157 -0.6735831499
-0.28995749 -0.12887001 1.0500001 -0.6693937182 -0.2745010257 -0.6903341413
-0.32460883 -0.025545815 1.035524 -0.3348196745 -0.03978829831 -0.941441834
-0.080784395 0.12644733 1.3355 -0.3853490949 0.6026582718 -0.6987911463
-0.17513435 -0.081146903 1.057 -0.05020585284 -0.4387149811 -0.8972226977
-0.32590201 0.12789689 1.0806667 -0.2902207375 0.7081879377 -0.6436161399
-0.36751971 0.13940403 1.1120001 -0.2616131306 0.7123780847 -0.6512112021
-0.2244271 0.20814215 1.161 0.07498398423 0.8529267311 -0.5166172385
-0.14084527 -0.068965614 1.108 0.3679905236 0.5555738807 -0.7456008792
-0.19811088 0.16060446 1.097 0.0737021938 0.784417212 -0.6158389449
-0.17609991 0.12076546 1.0470001 0.1387322545 0.6664507389 -0.7325276732
-0.13232845 0.0082134902 1.041 0.4029013813 0.2395683527 -0.8833331466
-0.11562297 0.10069364 1.087 0.889953196 0.3320398629 -0.3126225471
-0.12833917 0.082007349 1.057 0.6938651204 0.4130493104 -0.5898656249
-0.13893545 0.14274324 1.0855 0.7215019464 0.4894796014 -0.4897393584
-0.10086138 0.052880533 1.1170001 0.852722466 0.460896939 -0.2458423227
-0.10204545 0.1883679 1.2516667 0.9299044013 0.2611008883 -0.2590446174
-0.15506561 0.034381267 1.0429093 0.3606051505 -0.1071396321 -0.9265446663
-0.30231324 0.25030234 1.2360001 -0.1642729044 0.9141545892 -0.3705884218
-0.36444965 0.063325897 1.0654 -0.4029016495 0.5575011969 -0.7258530855
-0.14481042 0.19789585 1.1644287 0.5273419619 0.7467110157 -0.405380249
-0.32493651 0.011966499 1.0500001 -0.4327825308 -0.1570588648 -0.887711525
-0.12118711 0.13610117 1.2152501 0.8518072367 -0.04985169694 -0.5214779377
-0.35625121 0.19778037 1.1738001 -0.3213802576 0.7635398507 -0.5601085424
-0.2253871 0.24287857 1.2133335 0.02231937274 0.867023468 -0.49776721
-0.29588038 0.19845793 1.1541427 -0.2162679732 0.7663226724 -0.6049609184
-0.27492929 -0.10430169 1.0717999 0.1299212873 -0.4972907603 -0.8578009009
-0.23315738 -0.14382505 1.0190001 -0.004446198232 -0.2598809898 -0.9656304121
-0.33595008 0.17847793 1.1409999 -0.1833602637 0.7578232288 -0.6261653304
-0.26436341 -0.046954617 1.0419999 0.0723130554 -0.578772068 -0.8122768402
-0.11428655 0.20564482 1.2251177 0.6716448665 0.5574752688 -0.4879697859
-0.13213453 -0.09365274 1.0913334 0.8008267879 0.1939874887 -0.5666086078
-0.28432831 0.23671778 1.2031429 -0.09300208092 0.8646004796 -0.4937778711
-0.22447556 0.10553948 1.0322859 -0.07373290509 0.5106977224 -0.856592834
-0.18443137 0.18311433 1.125 0.03208873421 0.814643383 -0.5790738463
-0.13864161 0.16213161 1.1163334 0.6860131025 0.5820564032 -0.436573416
-0.099413998 0.040712401 1.08 0.8597897887 0.3673357964 -0.3547195196
-0.3742753 -0.0046901666 1.0700001 -0.5704031587 0.3726960719 -0.7319411635
-0.24535021 0.044885769 1.0238998 -0.072630018 0.2787161171 -0.9576231837
-0.26495671 -0.013518199 1.028 -0.0181725733 0.06935120374 -0.9974267483
-0.10815524 -0.014151153 1.153 -0.6877618432 0.469268471 -0.5538688898
-0.11007164 -0.061982084 1.2190001 -0.1264196485 0.6663084626 -0.7348816991
-0.23477624 -0.086400554 1.0712272 0.1526212841 -0.4659968913 -0.8715237379
-0.31118029 -0.13322571 1.0855 -0.5170378089 -0.5869124532 -0.6230614781
-0.18615761 0.026366744 1.0372001 0.1794567853 -0.2530953884 -0.9506513476
-0.29518288 -0.074701957 1.0567272 0.08915130049 -0.4255255461 -0.9005443454
-0.25391614 0.07420221 1.0410001 -0.0225949157 0.04743245989 -0.9986188412
-0.16385886 0.25546789 1.2440001 0.1503501236 0.8787048459 -0.4530702233
-0.35649124 0.23729964 1.2360001 -0.3043824732 0.8858665228 -0.3501311839
-0.24445286 0.19868286 1.1421429 -0.0005325569655 0.8054220676 -0.5927014947
-0.23472939 0.17593838 1.1143638 -0.01114215236 0.7953463793 -0.6060528159
-0.12342642 -0.04262932 1.0618 0.6433296204 -0.4085686505 -0.6474555135
-0.11758222 0.18423519 1.1954 0.8189281225 0.4124418199 -0.3990594447
-0.10072915 0.013449966 1.0705001 0.8755893707 0.0738665089 -0.4773751199
-0.21548326 -0.041677088 1.0380001 0.06439375132 -0.5650481582 -0.8225412369
-0.20491448 0.12115885 1.0470001 -0.02782714739 0.7308349609 -0.6819867492
-0.15523957 0.13332775 1.0626472 0.3868089914 0.684687376 -0.6177232265
-0.081866637 0.15691106 1.2970001 0.9661996961 0.2055442184 -0.1555947214
-0.35135484 -0.041067451 1.041 -0.3551888764 -0.3333958387 -0.8733201623
-0.076736264 -0.043652363 1.2230002 -0.2509629428 0.5872737765 -0.7694979906
-0.10218865 0.097885966 1.2270001 0.8360729218 0.3343535364 -0.4349595606
-0.36967543 0.10327747 1.1010001 -0.7373126149 0.2816530764 -0.6140372157
-0.083994247 -0.0061292141 1.2559286 -0.4686778784 0.6496576667 -0.5985699296
-0.15070584 -0.13290809 1.1034 0.234618485 -0.7608525157 -0.6050269008
-0.12372456 0.14813825 1.1443334 0.8094027638 0.4866933525 -0.3286285698
-0.28471065 0.020788396 1.031 -0.1243068725 -0.4748131335 -0.8712636232
-0.35505 0.088052392 1.08 -0.6412788033 0.3034020662 -0.7047756314
-0.1868569 -0.15400293 1.041 0.3871651888 -0.2093264014 -0.8979340792
-0.23391983 -0.0051228516 1.0311112 0.06735461205 0.1298015565 -0.9892496467
-0.22374971 0.25643286 1.2426001 -0.002924286295 0.8973534107 -0.4413029253
-0.15347648 -0.09755294 1.0553334 0.2831947803 0.3820561469 -0.8796782494
-0.3436884 0.23018636 1.21 -0.2342966795 0.8712107539 -0.431389451
-0.30459112 0.055050515 1.0352612 -0.2034290731 0.471503377 -0.8580799103
-0.4841041 0.08701618 1.3980001 -0.7763251662 0.6190468073 -0.1187445372
-0.065585189 0.10560326 1.268 0.721853137 0.6311088204 -0.2839536369
-0.19328678 0.19619593 1.1476667 0.00648581842 0.8335954547 -0.5523373485
-0.33807832 0.034384623 1.0413334 -0.4141873717 -0.1200620979 -0.9022382498
-0.24484231 -0.16298398 1.0354546 -0.2253940701 -0.508256197 -0.8311877847
-0.16489364 -0.1427862 1.0508001 0.5572193265 -0.1759681702 -0.8115059137
-0.11787923 0.15775529 1.197 0.9755392075 0.009335932322 -0.2196272761
-0.1027918 -0.07585609 1.1947143 0.1958069801 0.7484304905 -0.6336492896
-0.092244618 0.18859731 1.2780001 0.9351007938 0.3186755478 -0.1550238431
-0.16516805 -0.025552226 1.0316563 0.07928856462 -0.2435145527 -0.9666509032
-0.31732792 -0.10768184 1.087 -0.7627997398 -0.03547399491 -0.645661056
-0.35462722 -0.10438284 1.1174445 0.07302428782 0.4396336079 -0.8952037692
-0.060313791 0.13481906 1.3490001 -0.6337372661 0.5497829318 -0.5441652536
-0.077530064 0.062227845 1.1636667 0.7908188701 0.509884119 -0.3385612965
-0.10688622 -0.046740659 1.1185555 -0.06869633496 0.5441374183 -0.836179018
-0.32466593 0.21436781 1.1870002 -0.125159204 0.7979802489 -0.5895444751
-0.13396958 0.17224659 1.149 0.8413125873 0.4514020979 -0.297370553
-0.15406814 -0.058812056 1.0505716 0.2390775234 -0.4906350374 -0.8379255533
-0.16383624 0.21779954 1.1836667 0.2850405276 0.8087517619 -0.5144633055
-0.081091665 0.084694184 1.2333335 0.6697865129 0.637999773 -0.3799241185
-0.12813692 0.055094995 1.0546001 0.7883981466 -0.135872528 -0.5999725461
-0.061873384 0.073331416 1.307 -0.8183443546 0.2680488527 -0.5083918571
-0.095673271 0.15560834 1.243 0.8424704075 0.01870533079 -0.5384178162
-0.21392772 -0.13869041 1.034 0.2229517549 -0.2945005 -0.9292803407
-0.25492311 0.14335898 1.0751818 -0.06040850654 0.7678557038 -0.6377683282
-0.35883281 0.17891102 1.153 -0.3654021919 0.7126072049 -0.5988924503
-0.19648828 -0.06886898 1.0600001 -0.1643092036 -0.5443609357 -0.8226017356
-0.30493975 0.14103463 1.087 -0.2531090975 0.7391654849 -0.6241555214
-0.18525983 0.078484468 1.0410001 0.1458382159 0.2148987204 -0.9656861424
-0.28460699 0.10598663 1.0422001 -0.1828153729 0.6379600763 -0.7480544448
-0.17495473 -0.10431957 1.0736957 -0.2990446091 -0.4661515653 -0.8326314092
-0.31491145 0.094888672 1.0424485 -0.3453279734 0.2593489587 -0.9019349813
-0.25559977 0.16715463 1.1046666 -0.04795634001 0.7758066654 -0.6291456223
-0.30424732 0.16178317 1.1079999 -0.2444165498 0.7081031799 -0.6624578834
-0.25637165 -0.13329957 1.0865999 0.2150421888 -0.4652843773 -0.8586426973
-0.13154967 0.11880878 1.09 0.7711573839 0.4399124086 -0.4602101445
-0.13452549 -0.015311373 1.0356554 0.498457253 -0.1838632077 -0.8471922278
-0.081853636 0.044927265 1.3028334 -0.6405085325 0.537643373 -0.5483506322
-0.12424009 0.23701467 1.2521819 0.4848727882 0.693765223 -0.5325299501
-0.34490171 0.16333175 1.1248752 -0.2601564527 0.7096009254 -0.6548168659
-0.2746937 0.19549653 1.1435716 -0.1435571015 0.7829489112 -0.6052952409
-0.25472555 -0.13685389 1.0259472 -0.3779826462 -0.3091437519 -0.8726736307
-0.28471801 0.17289659 1.1153638 -0.1658408344 0.7618330717 -0.6261846423
-0.087175928 0.033630297 1.1173334 0.8214771152 0.4788647592 -0.3096190095
-0.055366397 0.10400766 1.3157501 0.7257960439 0.2814168334 -0.6277138591
-0.2751691 0.22647597 1.1837691 -0.04639549181 0.8388624787 -0.5423626304
-0.16492237 -0.11544333 1.0451474 0.5318623185 0.102255024 -0.8406345248
-0.28534865 -0.027168468 1.031 -0.02242795005 -0.1604075134 -0.9867960215
-0.13903648 -0.11217366 1.07525 0.9170938134 -0.04057314619 -0.3966014385
-0.21245432 -0.11817174 1.09 0.07918801159 -0.3673457503 -0.9267072678
-0.086514905 0.0069314525 1.275 -0.5332559943 0.6433329582 -0.5493276119
-0.1320992 -0.052246261 1.1245002 -0.09487018734 0.5730930567 -0.813980341
-0.19493887 0.0052918708 1.0333227 0.02629162371 0.1591659933 -0.9869017005
-0.26504216 0.033327833 1.0190001 -0.03646599874 -0.1812521964 -0.9827603102
-0.20476516 0.17669444 1.1152856 0.05172504857 0.7849091291 -0.6174481511
-0.10926685 -0.10540602 1.103 0.4344370663 0.04363653436 -0.8996445537
-0.31849301 -0.059832498 1.0500001 -0.2303613275 -0.5000469685 -0.8347973824
-0.22527587 0.14459002 1.0746469 -0.07868578285 0.7811697125 -0.6193403602
-0.077705979 0.068287075 1.3430001 -0.7640028 0.4731576145 -0.4386588931
-0.16530637 0.1747589 1.1146666 0.1476911902 0.7682076693 -0.6229320168
-0.072971985 0.032965075 1.2855 -0.6162208319 0.5221457481 -0.5896064043
-0.34505025 0.13545756 1.0958261 -0.2361289859 0.7063414454 -0.6673266888
-0.15172382 0.11442692 1.0505 0.7558609843 0.1282657832 -0.6420451999
-0.11685134 0.11362288 1.1061667 0.8323919773 0.4564769566 -0.3142488897
-0.15340614 -0.17871025 1.8040001 -0.5639698505 0.7390320301 0.3684692681
-0.26786548 0.1187445 1.0500001 -0.1605231762 0.7100764513 -0.685582757
-0.25403315 0.25621605 1.2436666 -0.009627744555 0.9124523997 -0.4090695381
-0.21504666 0.054544874 1.028 0.01679749787 0.3770752251 -0.9260302782
-0.18584675 0.25954372 1.2545 0.07876094431 0.8968784213 -0.4352077246
-0.28494495 0.067041732 1.0410001 -0.115778856 0.1770090014 -0.9773756266
-0.33281651 0.11206132 1.067 -0.356960535 0.6798219085 -0.6406413317
-0.25502598 -0.094976924 1.0719354 0.168534711 -0.4392285645 -0.8824252486
-0.30481172 0.011863929 1.0410001 -0.197363317 -0.27268821 -0.9416415691
-0.23601116 0.087674402 1.0271817 0.08103244752 -0.3692853749 -0.9257764816
-0.14457637 0.25772247 1.2653333 0.3696648479 0.8524317145 -0.3697405159
-0.27246681 0.091623358 1.028 -0.06664749235 -0.05480390787 -0.9962703586
-0.14504521 0.22671878 1.2130001 0.4896600544 0.7453606129 -0.4524053633
-0.23502077 -0.13519029 1.0949583 0.1120785102 -0.4680579007 -0.8765615821
-0.34370869 0.075160883 1.0636499 -0.5456115603 0.2837550044 -0.7885373235
-0.29489574 -0.11109734 1.077 0.3451431692 -0.4922510386 -0.799102664
-0.28621414 -0.1477534 1.0600001 -0.7211070061 -0.6479123831 -0.2453858256
-0.29641855 0.12851056 1.0700001 -0.2271974236 0.7199870348 -0.6557438374
-0.096848436 0.062494498 1.1360002 0.7605441809 0.5130349398 -0.3979544342
-0.09917292 -0.022464585 1.25 -0.3697920144 0.6808098555 -0.6322592497
-0.10906627 0.11545227 1.2126 0.8378298879 0.1507431567 -0.5247071981
-0.19554943 0.2333746 1.2045455 0.04687023535 0.8547595739 -0.51690346
-0.16538318 0.24539083 1.2250001 0.2160667032 0.8451691866 -0.4888805747
-0.08278171 0.15367249 1.3846 -0.6766937971 0.7338762283 0.05925511196
-0.12829168 0.18125932 1.177 0.8256286979 0.4418697655 -0.3508394659
-0.17474219 0.14815429 1.0833 0.009036187083 0.815818727 -0.5782371163
-0.3596262 0.0074341334 1.0600001 -0.5164413452 0.3450343311 -0.7837343812
-0.24536234 0.21779586 1.1748463 0.07228603959 0.8448321819 -0.5301257968
-0.32642949 -0.10358378 1.1059229 -0.5267794728 0.3878405392 -0.7563617826
-0.24490403 -0.068850212 1.0600002 0.1278569251 -0.5697281361 -0.8118265867
-0.088407449 0.11023645 1.245 0.8052957654 0.3109600246 -0.5047797561
-0.35786995 0.046740942 1.0500001 -0.659943223 0.02517420053 -0.7508935928
-0.16458167 0.057435133 1.031 0.2369917035 0.2395145297 -0.941524148
-0.1953464 0.21088305 1.1666 -0.01129351649 0.8253495693 -0.5645090938
-0.12800473 0.22158802 1.2270001 0.5837751031 0.6538549066 -0.4813318849
-0.045917168 0.14952514 1.3430001 0.1707253307 0.5725328922 -0.8019095659
-0.2789115 -0.059832498 1.0500001 0.07823099196 -0.5749214888 -0.8144600391
-0.30213529 -0.12815025 1.067 -0.9819057584 0.06975394487 -0.1760553569
-0.23523892 -0.045337137 1.0437274 0.01833861135 -0.6389317513 -0.7690448165
-0.10527679 0.14502469 1.2254002 0.8456692696 0.02407959662 -0.5331638455
-0.12120986 0.064835288 1.0718001 0.9120824337 0.05923703313 -0.4057051241
-0.1110123 0.0898671 1.2060001 0.6832795143 0.7107763886 -0.1671109349
-0.22585301 0.22300144 1.1845 0.04030334949 0.8414843082 -0.5387761593
-0.20530029 0.083878726 1.0417897 0.0919334814 -0.2592731714 -0.9614185691
-0.31576484 -0.07768669 1.0600002 -0.09967606515 -0.3866528273 -0.9168229103
-0.064737737 0.13470276 1.376 -0.2633768916 0.9493918419 -0.1711366475
-0.18352783 0.22370255 1.1850001 0.0365662165 0.8576333523 -0.5129600167
-0.3731637 0.20117484 1.189 -0.4311470389 0.7457256317 -0.5079424977
-0.17526519 0.10478506 1.0341614 0.4586893618 0.06268308312 -0.8863830566
-0.22543164 0.012483255 1.0372729 0.1858851314 -0.1507684886 -0.9709354043
-0.18537882 -0.025321724 1.0315001 -0.01678011008 -0.2637858391 -0.964435339
-0.13561529 0.03097811 1.0470001 0.4018407464 0.3029787838 -0.8641341925
-0.29480591 -0.10904754 1.0541667 -0.4370165765 0.4155242145 -0.7977193594
-0.33776653 0.24534832 1.2550001 -0.2498369962 0.9065961838 -0.3400953114
-0.2643393 0.23656347 1.2054287 0.04522756115 0.8758260012 -0.4805031419
-0.14633846 0.094010226 1.0565001 0.4731036723 0.3796693087 -0.7949994206
-0.1030285 -0.031008577 1.141 -0.08542654663 0.5965002179 -0.7980537415
-0.086515605 -0.087905407 1.189 0.3424969018 0.682207644 -0.6459787488
-0.31444293 -0.0049963742 1.0368574 -0.2828561366 0.2806190252 -0.9171943069
-0.075140499 0.096456483 1.2531999 0.6694461107 0.5519297719 -0.4972076714
-0.11689503 0.086440437 1.0724666 0.8784946799 0.1653483361 -0.4482265413
-0.17532313 0.13337235 1.0621177 0.06548568606 0.772598505 -0.6315086484
-0.10879024 0.18746231 1.2126667 0.8745208383 0.2391391546 -0.4219309986
-0.32695532 0.08144208 1.0505716 -0.5413315296 -0.1170217395 -0.8326259851
-0.12087042 0.081226677 1.103 0.9628307223 0.1727950722 -0.2076025307
-0.49002248 0.10335462 1.3870001 -0.7763251662 0.6190468073 -0.1187445372
-0.21462107 -0.073186353 1.0684999 -0.04828479141 -0.5870941281 -0.808077395
-0.36675087 0.032695282 1.0810001 -0.7408002615 -0.1231433973 -0.6603413224
-0.27234116 -0.13631934 1.0366668 -0.599593401 -0.2448549718 -0.7619276643
-0.30468839 -0.025466438 1.0311035 -0.195030123 -0.1047886536 -0.9751833677
-0.12513214 -0.024947677 1.054 0.6710362434 -0.3488347828 -0.6542359591
-0.32595795 0.16741654 1.1242858 -0.2178652436 0.7476680279 -0.6273174882
-0.1632178 -0.089113168 1.0700001 -0.009193070233 -0.3644718826 -0.9311690331
-0.27447268 0.0045327172 1.0332801 -0.2041187584 0.09995498508 -0.9738298059
-0.079529449 0.13175774 1.3540001 -0.2811035514 0.8749442101 -0.3942758739
-0.10431115 -0.10431193 1.1552222 0.6623433828 0.6396308541 -0.3900943696
-0.31363976 -0.04276906 1.0380001 -0.1974429041 -0.3728116155 -0.9066574574
-0.28841195 0.24766973 1.223 -0.08227807283 0.8880289793 -0.4523658752
-0.32439649 0.044801388 1.0328002 -0.3317353129 0.3345609903 -0.8820547462
-0.087584078 0.073572144 1.1754001 0.7143729925 0.6439186335 -0.2739342749
-0.10396785 0.22336347 1.3032501 0.8996484876 0.4133235216 -0.1406993866
-0.34649268 -0.078532681 1.1254001 0.0485509783 0.5742123723 -0.8172655106
-0.174895 -0.059525669 1.0500001 -0.05291963369 -0.5260506868 -0.8488051295
-0.13667856 0.14635579 1.104 0.8132148981 0.4660691619 -0.3485126197
-0.26533952 0.15614076 1.0926666 -0.1037200913 0.7582769394 -0.6436289549
-0.34283453 0.19170333 1.1570001 -0.24444516 0.7517541647 -0.6124640107
-0.047258466 0.17116304 1.3590001 -0.8175459504 0.5277062654 -0.2305313349
-0.084856957 -0.027442297 1.2356668 -0.3446366787 0.6070678234 -0.7160267234
-0.22259969 -0.026135186 1.028 0.06765091419 -0.1512359828 -0.9861800075
-0.10726297 0.014773938 1.053 0.7259804606 0.1228686199 -0.6766503453
-0.055580664 0.032236785 1.268 -0.5547122359 0.5501710773 -0.62418437
-0.16487464 0.19565074 1.1444668 0.1951411068 0.831956923 -0.5193915367
-0.203825 0.26190415 1.25 0.04459169507 0.8958896399 -0.4420331717
-0.16433324 -0.045540974 1.0423753 0.1120558828 -0.5073000789 -0.8544530869
-0.22297786 -0.097021103 1.0809231 0.0949370563 -0.4403636456 -0.8927859664
-0.30458513 0.22647719 1.1960001 -0.2254988253 0.7948371768 -0.5633685589
-0.25501496 -0.11511475 1.083185 0.208580628 -0.3848639429 -0.8990961313
-0.2361179 0.060381293 1.028 0.009512817487 0.4232269824 -0.9059737325
-0.33356464 -0.044470962 1.0446668 -0.2947504818 -0.4385117888 -0.8490168452
-0.28367287 0.2134092 1.1672224 -0.1634137779 0.7898773551 -0.5910919905
-0.30471051 0.074783891 1.0443753 -0.3027329445 -0.1230789348 -0.9450948834
-0.31626713 0.1483206 1.101 -0.2596315145 0.7029016018 -0.662209034
-0.063935302 0.1181846 1.3260001 -0.1100647673 0.6172958016 -0.7789939642
-0.23504908 0.11483385 1.0441669 -0.03159729764 0.7341399789 -0.6782625318
-0.33429992 -0.0050159106 1.0452858 -0.2765363753 0.2904986143 -0.9160448909
-0.10627918 -0.079451419 1.177 0.3253422678 0.7317897677 -0.5988624096
-0.10115682 0.20120201 1.268 0.9491400719 0.2504868209 -0.1907602847
-0.35610181 0.2131557 1.1954 -0.4524388909 0.7333182096 -0.5074874163
-0.25718805 0.12852824 1.0612857 -0.07935273647 0.7456062436 -0.6616452932
-0.24291557 0.23867249 1.21 0.009858791716 0.8491533995 -0.5280542374
-0.29393819 0.042209275 1.0277692 -0.2167847604 0.2240079343 -0.9501709342
-0.2153523 0.1672983 1.1037775 0.05049972981 0.7680740356 -0.6383666992
-0.19526085 0.036299348 1.0249999 0.081172131 -0.2833873034 -0.9555640817
-0.12426198 -0.065305352 1.1146249 0.03381184116 0.5132662058 -0.8575631976
-0.23569173 0.026782166 1.0247273 0.1808606535 -0.5204855204 -0.8344963789
-0.31125259 0.1903778 1.149 -0.2051118314 0.7616493702 -0.6146701574
-0.2356292 0.18864489 1.13 0.01561989542 0.7794371843 -0.6262856722
-0.093145832 0.13917083 1.25 0.8726555109 0.0107301753 -0.4882183969
-0.049458027 0.08741419 1.312 0.938926518 -0.03306018189 -0.342525959
-0.25496691 0.26517275 1.2656 -0.02593570948 0.9137867093 -0.4053655565
-0.37265703 0.014268548 1.0717273 -0.6125829816 0.3537764549 -0.7068127394
-0.11776575 0.1354261 1.1331112 0.7962217927 0.4831355512 -0.3641577363
-0.18541193 0.24098207 1.2190001 0.025419496 0.8794693351 -0.4752762616
-0.066441812 0.055663578 1.3034285 -0.6543303728 0.5000339746 -0.5672898293
-0.22545674 0.19840369 1.1429999 0.07246876508 0.8218226433 -0.5651157498
-0.17082639 0.04067295 1.031 0.2861712277 -0.3558063209 -0.8896672726
-0.09485212 0.17408077 1.2436666 0.8544627428 0.2589194775 -0.4503932595
-0.113548 0.047782719 1.0717143 0.6746844649 0.4454779029 -0.5885152817
-0.10111531 0.0037623609 1.2863334 -0.4929886758 0.6730394959 -0.5513437986
-0.12507762 -0.084477097 1.104692 0.192964077 0.379332304 -0.9049153924
-0.30952734 0.20875099 1.1730001 -0.2154021561 0.7784523368 -0.5895878673
-0.37022072 -0.066944018 1.1570001 0.1144307852 0.8966662884 -0.427662462
-0.20434466 -0.055716153 1.0512729 -0.01834544167 -0.5838307142 -0.8116681576
-0.14098378 -0.11988416 1.0940001 0.6432156563 -0.4914365709 -0.5871658921
-0.3454234 -0.024621425 1.0428623 -0.3074071109 -0.0398491323 -0.9507433772
-0.14204536 -0.095011957 1.0730666 0.7357637882 -0.01940966398 -0.6769600511
-0.255494 0.087079749 1.028 -0.02221655659 -0.3066141903 -0.951574564
-0.13738491 -0.051867545 1.0565001 0.5000252128 -0.4289652109 -0.7523055077
-0.094645403 -0.054508831 1.2152917 -0.1780446321 0.6006245613 -0.7794551253
-0.21512084 0.23191075 1.197 0.05214440823 0.8326723576 -0.5513054729
-0.14807163 0.1903778 1.149 0.5377677679 0.7192336321 -0.4398963153
-0.15490939 0.074935146 1.0443875 0.1650089771 0.4940084517 -0.8536554575
-0.37066388 0.15181631 1.1245 -0.311816901 0.7223829031 -0.6171978116
-0.37202576 -0.09130659 1.1079999 0.2423720658 0.5232135057 -0.8170087934
-0.13633841 0.17532234 1.1321819 0.7041290402 0.5985763073 -0.3819799721
-0.19431029 0.11288964 1.0361819 0.04893526435 0.5756208897 -0.8162510991
-0.13306221 0.15533464 1.1317778 0.8366227746 0.4562808573 -0.3031007946
-0.068160832 -0.0028491667 1.25 -0.4155508578 0.6421391368 -0.6441853642
-0.21494268 0.13712524 1.0631251 -0.06327199191 0.7536529303 -0.6542201042
-0.35028708 0.10857955 1.077 -0.6707946658 0.320181936 -0.6689679027
-0.34337878 0.011777392 1.0565716 -0.4582026601 0.2032336742 -0.865301311
-0.32494253 0.10362823 1.0543334 -0.3678797483 0.5677290559 -0.7364429235
-0.09280137 0.0064925202 1.0839167 0.8993006349 0.05843080208 -0.4334099889
-0.11472937 -0.018955287 1.138 -0.08542654663 0.5965002179 -0.7980537415
-0.25320524 0.058233339 1.031 -0.03741297871 0.4708718061 -0.8814079762
-0.35177022 0.17299192 1.138 -0.3151368499 0.7315038443 -0.6046411395
-0.10189431 -0.0045406218 1.07125 0.8420518637 -0.1447639763 -0.5196076035
-0.27560821 0.081222288 1.041 -0.09698747844 -0.2995945513 -0.9491240978
-0.19516905 -0.10592814 1.0829523 -0.2457253337 -0.4422436059 -0.8625773191
-0.1966878 -0.13254212 1.0944287 0.005706235766 -0.5094897151 -0.8604578376
-0.24834564 0.20865105 1.161 0.0285108611 0.8474615216 -0.5300906301
-0.36492628 -0.013317006 1.0548999 -0.51811409 0.1983620673 -0.8319917321
-0.095861457 0.034729 1.0953335 0.8883287311 0.3727120161 -0.2682495415
-0.11274569 -0.013752052 1.25475 -0.3779770434 0.7142998576 -0.5889898539
-0.12440738 0.19710916 1.2037778 0.6924086809 0.5552985072 -0.4606666863
-0.21277051 0.24949233 1.2320001 0.05067503825 0.8769121766 -0.4779717922
-0.2055757 0.24178906 1.2150002 0.08252058923 0.8716012836 -0.4832199812
-0.3870492 0.026060671 1.1010001 -0.7538986206 0.08791141212 -0.6510825157
-0.21453333 0.15210444 1.0849999 -0.02102530561 0.8119528294 -0.5833442807
-0.14365777 0.12532108 1.0728124 0.7991577983 0.2950755954 -0.5237148404
-0.13209234 0.21614422 1.2118888 0.6246160865 0.6318507791 -0.4589327872
-0.25428811 -0.057301126 1.0500001 0.1187612116 -0.6094885468 -0.7838491797
-0.28318349 0.033276293 1.0190001 -0.1824136376 -0.1351633966 -0.9738871455
-0.37298396 0.16880304 1.153 -0.3820719719 0.7141976357 -0.586466372
-0.35857943 0.22336124 1.2113334 -0.4158338904 0.8070803881 -0.419169873
-0.22184838 0.26378986 1.2590001 -0.00321569806 0.905736208 -0.4238297343
-0.2838597 0.12169828 1.057 -0.1900941432 0.7167534232 -0.6709163785
-0.2395404 -0.099413998 1.08 0.1348495334 -0.4384765029 -0.8885685205
-0.31336012 0.12066703 1.067 -0.2830788493 0.7021936774 -0.6532919407
-0.21511471 0.091288179 1.031 0.1021251753 -0.3473259807 -0.9321668744
-0.11744429 -0.002294346 1.046625 0.6603212357 -0.0882069245 -0.7457851171
-0.20646591 0.20212689 1.1552857 0.06224099919 0.8321666718 -0.5510215163
-0.33466449 0.20594792 1.1746001 -0.1547564715 0.7776958346 -0.6092943549
-0.075310051 0.067669898 1.245 0.6962749958 0.5794119835 -0.4236541986
-0.15438376 0.14751959 1.0834615 0.3111319244 0.7326081395 -0.6053777337
-0.45693618 -0.49270418 2.0400002 0.08179868013 0.8277163506 0.5551527739
-0.28531641 0.18683486 1.1348002 -0.188914448 0.7832224965 -0.5923460722
-0.31537119 0.24270691 1.2250001 -0.1945709586 0.8862484694 -0.4203638434
-0.28325099 0.14115341 1.077 -0.1982167363 0.7481775284 -0.6331986189
-0.36312932 -0.073136792 1.1336 0.1444506496 0.8535900712 -0.5005176663
-0.22911771 0.25063109 1.2270001 0.02323005907 0.8841511011 -0.4666232169
-0.34301209 0.052035678 1.0465715 -0.2973851264 0.5018163919 -0.8122453094
-0.10265739 0.055792525 1.0910001 0.8660754561 0.3746428788 -0.3309924304
-0.19657542 0.15242143 1.08325 0.08691898733 0.8357563615 -0.5421774387
-0.29520953 -0.094461076 1.0643461 0.2184951454 -0.2983682156 -0.929105103
-0.18481117 0.16509441 1.1047726 0.02662067488 0.7495093346 -0.6614582539
-0.22534081 0.040869541 1.0190001 0.1516246945 0.03813962638 -0.9877020121
-0.15471712 0.20787223 1.1750002 0.3730801642 0.8007798791 -0.4685752392
-0.32593346 0.22783899 1.2032001 -0.1173892543 0.8034123182 -0.5837365985
-0.12307846 0.017342221 1.0503334 0.4122804701 0.3134536147 -0.8554365039
-0.098423369 0.072623067 1.09 0.8853452206 0.3246990144 -0.3327678442
-0.37122712 0.19229771 1.1730001 -0.3937998712 0.7275693417 -0.5617513061
-0.078101359 0.039557829 1.1570001 0.8353535533 0.4084250629 -0.3679312766
-0.11023645 0.23357029 1.245 0.4837786257 0.6628656387 -0.5714607239
-0.066117033 0.089017898 1.2640001 0.7478122115 0.5401829481 -0.3859783113
-0.13559946 0.073841147 1.045435 0.4762650132 0.3642905951 -0.8002899289
-0.19552033 0.13065577 1.057 0.03986024112 0.7541701198 -0.6554682255
-0.066060342 0.076490916 1.322 -0.8216418624 0.4062821567 -0.3997992873
-0.16076313 -0.069694996 1.0600001 0.1468342245 -0.4439612329 -0.8839333057
-0.32193017 -0.13487887 1.097 -0.529410243 0.09476792067 -0.8430562615
-0.3542155 0.15221107 1.1185555 -0.2674437165 0.7120710015 -0.6491754651
-0.19530787 -0.14467491 1.0314165 0.3025077879 -0.1631093472 -0.9390869737
-0.27524617 0.16614336 1.1046665 -0.1423119754 0.7424458265 -0.6546155214
-0.12887087 0.10159164 1.0730001 0.59708184 0.5662324429 -0.5682201385
-0.11079401 -0.048405148 1.2270001 -0.3160610795 0.6501566768 -0.6909425855
-0.25533581 -0.025646547 1.031 -0.003817825345 -0.1844162047 -0.982840836
-0.3452532 0.12285394 1.0849166 -0.2872637808 0.6628789306 -0.6914268136
-0.18193594 -0.091201827 1.067 -0.2512054741 -0.4794401228 -0.840852499
-0.09051846 0.032082494 1.307 -0.6286953688 0.553288877 -0.5464554429
-0.090147629 0.048541032 1.13 0.8092011809 0.4679359794 -0.3552877903
-0.056432236 0.063240215 1.293875 -0.6919146776 0.3885459304 -0.6085113883
-0.15399848 0.22209531 1.1950001 0.4037759006 0.7788262367 -0.4799945056
-0.27529922 0.2440009 1.2153846 -0.02232997678 0.8943302631 -0.4468497634
-0.11306426 0.15516418 1.2115455 0.934574008 -0.07188592106 -0.3484305739
-0.14406203 0.018382574 1.041 0.2808210552 0.3533520699 -0.8923462629
-0.13879299 -0.08025445 1.077 0.8933780789 -0.05824450776 -0.4455145001
-0.20494942 0.065413356 1.0323637 -0.03149530292 0.4068185389 -0.9129658937
-0.21593596 0.21687402 1.1744547 0.06397134811 0.8372113109 -0.543125093
-0.33422509 0.2527068 1.268 -0.2309391201 0.9147551656 -0.331496805
-0.34742737 0.20742109 1.1830001 -0.2699189186 0.7247603536 -0.633929193
-0.31877702 0.1589011 1.1120001 -0.275883317 0.7018080354 -0.6567753553
-0.27608687 -0.11721385 1.08 0.04293863848 -0.46913293 -0.8820830584
-0.14540461 0.15415876 1.0938751 0.472322464 0.7083627582 -0.5245319009
-0.24710867 0.1781939 1.123 -0.02604029514 0.7862067819 -0.6174146533
-0.34094271 -0.10781948 1.108 -0.2986347377 0.4232432544 -0.8553844094
-0.16412485 0.10368745 1.0445296 0.5729882717 -0.08443842828 -0.8152021766
-0.14485712 0.0054333615 1.0327501 0.2281642258 0.2220198959 -0.9479705691
-0.35216227 0.039129138 1.0380001 -0.598213017 -0.1476206779 -0.787622571
-0.078733429 0.019120976 1.2830001 -0.5612387657 0.5958227515 -0.5744617581
-0.28710708 0.0078484463 1.041 -0.1574047208 -0.04552555457 -0.9864842296
-0.20502365 0.025249602 1.0341715 0.06933438778 -0.3919401169 -0.9173743725
-0.17534564 -0.0054230611 1.0309998 0.007769274525 0.1086765826 -0.9940468073
-0.15924563 0.20184636 1.1570001 0.2911089361 0.8233846426 -0.4871276319
-0.27509105 0.20551786 1.1548181 -0.1271402687 0.7951274514 -0.5929651856
-0.12913562 0.2505452 1.2590001 0.4516122043 0.7822446227 -0.4291150868
-0.32448545 0.026708484 1.033762 -0.3858180642 -0.3649137616 -0.8473383784
-0.096971951 -0.0122032 1.2656 -0.3993935883 0.7390657067 -0.5424634814
-0.23414829 0.16696097 1.1023529 -0.016493598 0.7707756162 -0.6368932128
-0.25333214 0.12069991 1.0470001 -0.05585037172 0.7278299928 -0.6834794879
-0.24923721 0.029479669 1.0190001 -0.01339868549 -0.3845717311 -0.9229978919
-0.35395417 0.24217917 1.25 -0.2625605166 0.8986400962 -0.3514369726
-0.14794451 0.049011514 1.0353333 0.4936371744 -0.2815082669 -0.8228459358
