# .PCD v0.7 - Point Cloud Data file format
VERSION 0.7
FIELDS x y z normal_x normal_y normal_z
SIZE 4 4 4 4 4 4
TYPE F F F F F F
COUNT 1 1 1 1 1 1
WIDTH 512
HEIGHT 1
VIEWPOINT 0 0 0 1 0 0 0
POINTS 512
DATA ascii
-0.40557417 0.13504937 1.1128573 0.5761694312 -0.5109123588 0.6379634738
-0.44337243 -0.44149372 2.1430001 0.3004591763 0.902593255 0.3083013296
-0.049864799 0.24156725 1.2640001 -0.01958936639 -0.5061209798 0.8622399569
-0.11828951 -0.06347242 1.097 0.1001471952 -0.8182211518 0.5661137104
-0.35878459 -0.095361166 1.077 0.1145576835 0.4228988588 0.8989065886
-0.27385223 0.29103142 1.2250001 0.2839737535 -0.8468533158 0.4496647418
-0.19292219 0.1447698 1.0700001 -0.8608291149 -0.3923301399 0.3241146505
-0.072334468 0.076976597 1.2028 -0.3095803559 -0.444678843 0.8404883742
-0.24135111 -0.003374666 0.99800009 0.2371576428 0.1888941824 0.9529297948
-0.23570612 -0.14344141 1.0241427 -0.311722815 0.4293613136 0.8476306796
-0.15636417 0.23474026 1.1746843 -0.703649044 -0.3476045132 0.6197170019
-0.31409585 0.11413663 1.0171249 0.3935089409 -0.5976749063 0.6985237598
-0.29454833 0.2114296 1.1172857 0.3274800479 -0.7469757795 0.5786052346
-0.40084291 0.022653285 1.05475 0.6549924016 -0.01107972767 0.7555541992
-0.37744182 0.22942542 1.2060001 0.5089524984 -0.7219377756 0.4687997401
-0.15513882 0.045109134 1.115 -0.2041922361 -0.6541678309 0.7282650471
-0.14442743 0.13790016 1.1556666 -0.4391642809 -0.722637713 0.5337878466
-0.29567716 -0.15128432 1.123 0.1310204268 0.7131535411 0.6886550188
-0.22460274 0.090616032 0.99800009 -0.3943394721 -0.2301144302 0.8896874189
-0.083068557 0.1664343 1.2248181 -0.05796205625 -0.448348999 0.8919773102
-0.3278614 -0.025594458 1.028 0.2152379155 0.1810966134 0.959623158
-0.19558831 -0.064805359 1.0443218 -0.675213933 -0.2053598762 0.7084585428
-0.13333836 0.2622706 1.2570001 -0.8402069211 -0.5265671611 0.129535377
-0.16852689 0.031542465 1.028 -0.8235644102 0.05111883953 0.5649145842
-0.13104326 -0.0092865303 1.177 0.6742870212 -0.5081665516 0.535820663
-0.23430407 0.26148739 1.1570001 0.01619371958 -0.8175128698 0.5756826401
-0.27546051 -0.086387627 1.0704737 0.1533738524 0.5107822418 0.845918417
-0.26478857 0.17535363 1.0537059 0.3029547632 -0.7293732762 0.6133784056
-0.33684227 0.15578501 1.08 0.4271414876 -0.6450836062 0.6335750222
-0.19455044 0.29873237 1.2126669 -0.1153324246 -0.9075864553 0.4037142992
-0.19516256 0.2043604 1.1167392 -0.661862433 -0.3422327936 0.6669444442
-0.4214049 -0.041089367 1.09 0.6636689305 -0.09295509011 0.7422283292
-0.4224385 0.17535876 1.1743335 0.627014339 -0.5824632645 0.5172905922
-0.37819222 0.0980049 1.0513334 0.5744261146 -0.5159419179 0.6354829669
-0.31367832 0.2507363 1.177 0.3285187781 -0.7829518914 0.5282629132
-0.29535311 0.044961423 1.00568 0.2328830212 0.1463563442 0.9614288211
-0.3073931 -0.14425945 1.0415 0.6024131179 0.1219938621 0.7888066173
-0.36203423 0.1930732 1.1364 0.5277583003 -0.6697701812 0.5223782659
-0.17847179 -0.0123084 1.08 0.257589072 -0.4130105972 0.8735388517
-0.14508377 0.10422168 1.0941305 -0.5868291259 -0.5711815357 0.5739191771
-0.1015557 0.20757538 1.273 -0.6489163637 -0.5215805173 0.5539506674
-0.1813385 0.089288503 1.0500001 -0.7073188424 -0.487167716 0.5122183561
-0.35057199 0.05136916 1.028 0.4971250892 -0.2375629693 0.8345240951
-0.094199762 0.035149075 1.1654 0.6169643998 -0.5122166872 0.5974855423
-0.11664989 0.21729247 1.2175715 -0.9523952603 0.04762409627 0.301123172
-0.42284089 0.075554639 1.08 0.8516726494 -0.00285706087 0.5240663886
-0.25504416 -0.046620537 1.0325626 0.2384802103 0.6346867085 0.7350510359
-0.3754445 -0.04506563 1.0526669 0.4706581533 0.2513009906 0.8457710743
-0.25434437 0.13512717 1.0136667 -0.2972950637 -0.343501091 0.8908550143
-0.32529506 0.27742556 1.2410001 0.3502327502 -0.841612041 0.4111279249
-0.19189532 -0.11193894 1.0730001 -0.5123411417 0.7355982065 0.4431724548
-0.098690748 0.12985624 1.1850001 -0.706804812 -0.330176264 0.6256281137
-0.24528177 0.21481518 1.0938889 -0.04859605432 -0.7785063386 0.6257525682
-0.19425905 -0.015847905 1.0231248 -0.6732759476 0.3758414686 0.6367438436
-0.15185508 -0.046312422 1.1450001 0.5023775697 -0.7330170274 0.4585878849
-0.14272611 0.18460962 1.1845555 -0.8559238911 -0.07180658728 0.5120918751
-0.18265817 0.15430215 1.1243848 -0.7949683666 -0.3389284611 0.5031428933
-0.14779855 -0.048648424 1.057 -0.0356676504 -0.1919748485 0.9807515144
-0.43637836 0.027813127 1.0940001 0.8608722687 -0.04941887036 0.5064155459
-0.10211632 0.1273687 1.2525001 0.9300819039 -0.1327335835 0.3425338864
-0.10490883 -0.025594024 1.1358824 0.3014848828 -0.5990734696 0.7417666912
-0.21148795 0.039489448 1.001 -0.08012557775 -0.3222957253 0.9432419538
-0.31499925 -0.11483773 1.0936112 0.1107131392 0.5993043184 0.7928284407
-0.057860125 0.12350618 1.219 -0.303573668 -0.2935960293 0.9064460397
-0.15181325 0.26806536 1.2110001 -0.645665288 -0.5719194412 0.5059886575
-0.31481057 -0.061379656 1.0564547 -0.04189130291 0.6995234489 0.7133806944
-0.27557129 0.087680459 1.0116001 0.1652383357 -0.163930133 0.9725344181
-0.22395906 -0.098327458 1.0178001 -0.404147774 -0.01101518609 0.9146273732
-0.35991549 0.00092049997 1.0500001 0.4108375907 0.3376292288 0.8468878269
-0.2855272 -0.0057691247 1.0122502 0.3470160961 0.01041138917 0.9378013611
-0.26733249 -0.12620194 1.0922 0.1341924965 0.5143088102 0.8470412493
-0.14821804 0.057614535 1.0600001 -0.7294866443 -0.2608348131 0.6323088408
-0.059595805 0.20695996 1.2360001 -0.3724604845 -0.315559715 0.872751534
-0.23820698 0.29067549 1.197 0.1431636959 -0.8434542418 0.517773211
-0.12736301 0.097510755 1.135 -0.9222881198 -0.01354502887 0.3862656653
-0.21904744 0.18033648 1.077 -0.6627739668 -0.4953744411 0.5615468621
-0.27431867 0.24342841 1.149 0.3080775142 -0.7780106068 0.5475288033
-0.18580996 0.27343673 1.177 -0.2565607727 -0.6795381904 0.6873168349
-0.29730624 0.14746568 1.0422 0.3881003261 -0.7048297524 0.5937955379
-0.20856917 0.12423348 1.0344001 -0.6469545364 -0.4775546789 0.5944672823
-0.35520378 0.22279659 1.169 0.3985675573 -0.7085964084 0.5822671056
-0.30400509 0.18331791 1.0857 0.3431256711 -0.7050889134 0.6205758452
-0.19477823 0.24416846 1.1467502 -0.3858965933 -0.5996523499 0.7010712624
-0.27543879 0.26765358 1.1845001 0.2664438486 -0.81837672 0.5091828704
-0.3726733 0.16091976 1.1079999 0.5192298293 -0.5942795277 0.614192307
-0.3464272 0.12564522 1.0517274 0.4908955991 -0.5505173802 0.6752423048
-0.25386268 0.05105954 1.0026364 -0.1340835243 0.5248227119 0.8405847549
-0.32642034 0.018402461 1.0190001 0.06907384098 0.4656510353 0.8822686076
-0.16589093 0.19547218 1.1444786 -0.7660357952 -0.04892386496 0.6409333944
-0.23552839 -0.092949659 1.0637779 0.3840990961 0.6037713885 0.6985183954
-0.15747271 -0.091186486 1.0650001 -0.4761878848 0.5828986168 0.658387661
-0.3910661 0.20120814 1.177 0.5491741896 -0.5800648332 0.6016082764
-0.38146544 0.057760347 1.057 0.5745349526 0.2824978232 0.7681826353
-0.39592516 -0.014666633 1.0741904 0.6489565969 0.008993240073 0.7607722878
-0.32479754 0.21828935 1.1435001 0.3546897173 -0.7701174617 0.5302020907
-0.39292198 -0.068169594 1.08 0.4952492714 0.5653464794 0.6596298218
-0.14794342 0.012149942 1.087 -0.143089205 -0.5916426182 0.7934005857
-0.046390276 0.14501528 1.25 0.1641861498 0.5007863045 0.8498564363
-0.26883334 -0.16075611 1.036 0.2029394209 0.438896656 0.8753201365
-0.31533903 0.07579264 1.024586 0.2508520484 0.2681877911 0.9301336408
-0.23328021 0.15673931 1.0419 -0.5895634294 -0.4997051358 0.634594202
-0.43107015 0.10654569 1.115 0.6191603541 -0.5103101134 0.5968450904
-0.19552614 0.072247535 1.0190001 -0.3405311406 -0.4700785875 0.8142878413
-0.2345767 0.23408677 1.1248751 -0.02554894052 -0.7872581482 0.6160940528
-0.39523441 0.11414199 1.0811429 0.6213353872 -0.595066309 0.5097434521
-0.11430489 0.18833552 1.2418001 -0.6059925556 -0.6744383574 0.4217889607
-0.17791511 0.12213632 1.097 -0.5966186523 -0.6837134957 0.4202167094
-0.10323451 0.055285446 1.1955 0.5919641852 -0.4984698594 0.6333294511
-0.39819425 0.16792463 1.1470001 0.5655266047 -0.6535242796 0.5030761957
-0.34094268 0.18164183 1.108 0.4011972845 -0.7064695358 0.5830450654
-0.2242298 -0.035153396 1.0145559 -0.1227299422 0.5346545577 0.8361111879
-0.34590498 0.09590245 1.0237144 0.4916207194 -0.3447619379 0.7996550798
-0.11545612 0.17252624 1.2055002 -0.3613625467 -0.7615517378 0.5380112529
-0.42372718 -0.0067564701 1.1010001 0.6708846092 0.1902763844 0.716734767
-0.14195894 -0.012735921 1.0630001 0.05557719991 -0.3580969572 0.9320288301
-0.29555678 -0.038865265 1.031 0.1459422857 0.7206550241 0.6777589321
-0.3308233 -0.12953363 1.0630001 0.09817695618 0.8175148964 -0.5674774647
-0.18893744 0.16975598 1.0940001 -0.8829221725 -0.2244230807 0.4124108255
-0.15570475 0.12667982 1.1251429 -0.3266844451 -0.8209087849 0.4683866203
-0.1511873 -0.066868626 1.1055 0.2786433697 -0.8219329119 0.4967737198
-0.096425749 0.004912789 1.1478237 0.5328601003 -0.4084757268 0.7410854697
-0.31690097 0.26434916 1.2110001 0.3336761892 -0.8451815844 0.4175263643
-0.2334125 -0.071842246 1.0373334 0.4735741317 0.4716330469 0.7438345551
-0.19115523 0.014658842 1.0100001 -0.6599851847 0.3374310732 0.6712375283
-0.34618077 0.24368615 1.1930001 0.4121692777 -0.7740644813 0.4805628657
-0.18810724 -0.035212196 1.057 -0.8119236231 0.1416157335 0.5663259029
-0.34456059 -0.053615179 1.0445457 0.1177376583 0.5777042508 0.8077101111
-0.13123174 0.24525276 1.2270001 -0.8116561174 -0.4771983922 0.3368917704
-0.37039867 0.022530334 1.028 0.4449830055 0.1775784343 0.877756238
-0.13166675 0.15447795 1.1826001 -0.5097383857 -0.5049257874 0.696574986
-0.085247263 0.10540846 1.2104443 -0.0593509376 -0.2470330447 0.9671877623
-0.32442006 -0.085410483 1.0754999 0.01807272807 0.4953077734 0.8685295582
-0.20878781 -0.12322397 1.031 -0.5299851298 0.1933810115 0.8256630898
-0.4080708 0.047340002 1.08 0.7229688168 -0.2007596195 0.6610686183
-0.27408925 0.19376729 1.0843333 0.3675393462 -0.6840042472 0.6301214695
-0.2789115 -0.057991501 1.0500001 0.2290169448 0.6955460906 0.6810043454
-0.14465876 0.071165465 1.138 0.9213422537 -0.3883861303 -0.0168720372
-0.19140495 -0.095855907 1.0413333 -0.8031669259 0.2278664112 0.5504541993
-0.28161427 0.12094405 1.0070001 0.06351220608 -0.3861231208 0.9202581644
-0.32476884 -0.14246818 1.1149999 0.07511407882 0.6785481572 0.7307053208
-0.12516519 -0.046516635 1.1242001 0.1738384068 -0.7922068834 0.5849687457
-0.082187496 0.22354999 1.25 0.497520119 -0.4322378337 0.7520931959
-0.26569524 0.22728732 1.1137779 0.3230947554 -0.7928165793 0.5167704225
-0.16802017 0.061306179 1.036 -0.7740941644 -0.296510309 0.5593387485
-0.11699379 0.017600836 1.1810001 0.6580887437 -0.5000799894 0.562884748
-0.43247545 0.14706215 1.169 0.6417631507 -0.535957098 0.5485344529
-0.26236913 0.022246644 1.0070001 0.3141379654 -0.03849883378 0.9485964179
-0.11694865 0.12504379 1.155 -0.4569829106 -0.7246502042 0.5157990456
-0.21518418 0.27784878 1.1815001 0.06079301238 -0.778347373 0.6248836517
-0.090463236 0.13941981 1.2140001 -0.8224028349 -0.2271790057 0.5215777159
-0.24566603 0.10657913 1.0123185 -0.03915444762 -0.401945889 0.9148259163
-0.13418466 0.2249625 1.1947778 -0.8096067905 -0.2950593233 0.5074217319
-0.15371832 0.086329296 1.0719999 -0.5662460327 -0.5134974718 0.6447370052
-0.2172247 0.20535597 1.0961177 -0.5337102413 -0.5367005467 0.6535333991
-0.15213247 0.16583076 1.1635715 -0.7792661786 -0.2097582668 0.590546906
-0.078756228 0.19369775 1.2140001 -0.01217546687 -0.2015219331 0.9794083238
-0.087365091 0.18736425 1.2535 0.3186352849 -0.7720839381 0.5498708487
-0.25585994 -0.025317781 1.0124002 0.2144998163 0.5195823908 0.8270574212
-0.2628265 -0.13712429 1.0162727 0.1130441353 0.3748755753 0.9201572537
-0.26486027 0.15628162 1.032143 0.2387703806 -0.6818226576 0.6914525032
-0.29487771 0.16536956 1.0651737 0.3233600557 -0.6890407801 0.6485839486
-0.24320486 0.19222538 1.067 -0.06110077351 -0.7385401726 0.6714350581
-0.16827837 0.22404094 1.146 -0.7184464931 -0.360010922 0.5951695442
-0.18568245 0.11550259 1.0608002 -0.8036077023 -0.4438223243 0.3965304494
-0.058121249 0.15196797 1.2165 -0.4924955666 -0.06065103784 0.8681990504
-0.32301512 0.20151733 1.1176667 0.3884941339 -0.7204330564 0.5744984746
-0.10818987 0.23215492 1.2855 0.7690569758 -0.628739357 0.1150571853
-0.2143749 -0.0055050142 1.0057586 -0.4193327725 0.3658040166 0.8308715224
-0.29530624 0.022040451 1.0220002 0.2100101858 0.3018423915 0.9299392104
-0.32560831 0.14434098 1.0531667 0.3342527747 -0.7157460451 0.6131742597
-0.20655568 0.23246543 1.1242858 -0.4460947812 -0.6352961063 0.6303953528
-0.35697094 -0.025342476 1.0410001 0.4885651469 -0.03288056329 0.8719076514
-0.079721436 0.05901457 1.1810001 0.4557419419 -0.5901526809 0.6663475633
-0.14604039 0.28234804 1.2340001 -0.7484624386 -0.5761803985 0.3283596933
-0.30583286 0.23496872 1.1548181 0.3645448685 -0.7461622953 0.5570896864
-0.3734602 0.12305385 1.0666001 0.543718636 -0.5433248281 0.6396625638
-0.2020452 0.095802926 1.0318183 -0.6113487482 -0.3608345389 0.7043089867
-0.32425934 0.04530964 1.0133603 0.3452936709 -0.2368020266 0.9081283212
-0.36563799 0.073771045 1.0335791 0.4905443192 0.2047026008 0.847031951
-0.23382425 0.023853023 0.99759084 0.2147787064 -0.183585763 0.9592530131
-0.24351828 -0.11774379 1.0175 -0.3484270275 0.2442154139 0.9049626589
-0.13118148 0.19447388 1.21 -0.8969288468 0.05358280241 0.4389162958
-0.13275033 -0.026851205 1.1450001 0.477689296 -0.6628075242 0.5766273737
-0.37489939 0.13761611 1.0943333 0.5400419831 -0.591996789 0.5982428193
-0.21931355 0.064696871 1.0070001 -0.4472028911 -0.09808286279 0.8890384436
-0.25273249 -0.071901277 1.0560001 0.3301140666 0.6612980366 0.6735796928
-0.42498171 0.1277917 1.13 0.6024169922 -0.577422142 0.5510693789
-0.18310885 0.045953531 1.0111054 -0.6290864348 -0.2222644687 0.7448817492
-0.24750905 -0.11203749 1.0817143 0.1507858634 0.506911695 0.8487073183
-0.34113729 -0.11275686 1.09 0.004887987394 0.5854727626 0.8106773496
-0.13969508 -0.076974839 1.0840001 0.3360372484 -0.9262209535 0.1708616763
-0.42309046 0.01732425 1.0739 0.7171744704 0.1795361191 0.6733703017
-0.36404198 -0.071685918 1.0670002 0.2484530509 0.6085985303 0.7535774112
-0.15496144 0.20461152 1.1664546 -0.7996333838 -0.1103342697 0.5902650356
-0.25133857 0.27091193 1.1750001 0.2111213356 -0.8360754848 0.5063651204
-0.24506235 0.075006373 0.99480033 -0.036775399 -0.1855127364 0.9819534421
-0.28516945 -0.1055106 1.0849627 0.1045469791 0.5036559701 0.8575550318
-0.1753659 -0.060933344 1.0600001 -0.1721411943 -0.2265799195 0.9586599469
-0.18422058 0.1837803 1.1304445 -0.7976456285 -0.002687383443 0.6031203866
-0.39866421 -0.045025602 1.0700001 0.6237658262 0.0796238184 0.7775450349
-0.29469666 -0.13294582 1.104875 0.1479865164 0.6902941465 0.7082329988
-0.072549425 0.25355187 1.2666668 0.5498169661 -0.5345076323 0.6418744922
-0.1740122 0.2868585 1.2030001 -0.4917562008 -0.7506418228 0.4412626624
-0.21321736 0.15752447 1.0614288 -0.5129380822 -0.5933797359 0.6203184724
-0.39281416 0.15456598 1.123 0.6111900806 -0.5950962305 0.5218305588
-0.39734077 0.086262636 1.0631112 0.6662809253 -0.3699043393 0.6474878788
-0.28538853 -0.13761015 1.031 0.3548035324 0.3966138959 0.8466474414
-0.10564753 0.15406565 1.1849998 -0.475074321 -0.4967993498 0.7262883782
-0.32338756 0.094173402 1.0051249 0.2142945379 0.137021035 0.9671106935
-0.11629324 0.2138267 1.2423334 -0.9724273682 0.07538812608 0.2206845284
-0.20215254 -0.044131309 1.0320001 -0.7367520332 0.2772629857 0.6167023182
-0.16335991 0.25753361 1.1818891 -0.6941793561 -0.4849499166 0.5319197178
-0.16675936 0.032505572 1.097 -0.1520227939 -0.6460825205 0.7479748726
-0.16421586 0.15573417 1.1443849 -0.7550863624 -0.2414802462 0.6095341444
-0.26396507 0.28296071 1.2037144 0.2910965383 -0.8261199594 0.4824817777
-0.42026436 0.093285225 1.097 0.6516601443 -0.5193821192 0.5527940392
-0.21253355 -0.077189289 1.0229232 -0.02852465585 -0.1760276109 0.9839718342
-0.1152537 -0.012705528 1.1543334 0.5077380538 -0.5645888448 0.650723815
-0.37904873 0.18800819 1.153 0.5939514041 -0.6093908548 0.5252280831
-0.13678716 0.11457977 1.1159412 -0.6900338531 -0.5835894346 0.4281082451
-0.27773306 0.065733775 1.0016429 0.280009985 -0.2182952315 0.9348484278
-0.3574456 0.10643445 1.042125 0.5058410764 -0.5699384212 0.6475299001
-0.23427655 0.12553579 1.0228181 -0.3805038631 -0.4585432112 0.8030908704
-0.30489451 -0.015245145 1.0228999 0.3540492356 0.1354570538 0.9253650904
-0.38275179 0.0076489169 1.0470001 0.4153848588 0.5566442013 0.719446063
-0.32682133 0.22979625 1.1650001 0.3407714963 -0.7285103202 0.5942621231
-0.25530931 0.24304704 1.1346668 0.1709787846 -0.8136569858 0.5556334853
-0.20545277 0.26270452 1.1570001 -0.1727476716 -0.7604936957 0.6259453297
-0.40574843 0.063880809 1.0632308 0.6776199937 0.3130905926 0.6654362679
-0.19216347 0.14634427 1.0946251 -0.9222588539 -0.278467983 0.2681309879
-0.21488607 0.10486737 1.0142189 -0.6129581332 -0.3500674367 0.7083326578
-0.28487521 0.13711034 1.023875 0.3411557376 -0.6459668875 0.682890594
-0.28779212 0.22825068 1.132 0.3533712327 -0.7528167367 0.5553338528
-0.17377514 0.24518128 1.1635263 -0.5313192606 -0.4930249155 0.6889312267
-0.17087647 0.013546144 1.0843751 0.05245552957 -0.5292317867 0.8468542695
-0.22887926 0.1742077 1.057 -0.5592027307 -0.4861495793 0.6715287566
-0.13449623 0.086118251 1.10375 -0.8394927979 -0.3867540956 0.3816714287
-0.33561799 0.0055087539 1.0356787 0.3215998411 0.2724823058 0.906822443
-0.087035462 0.14034469 1.2410001 0.7893912196 0.1276785731 0.6004662514
-0.29539648 0.07620918 1.0122501 0.340962261 -0.06191542 0.9380358458
-0.27508485 0.20945057 1.1010001 0.4040419757 -0.7048271894 0.5830683708
-0.14528258 0.24493527 1.1947143 -0.7028653622 -0.4658493698 0.5375543833
-0.36782387 0.045799945 1.0418571 0.5820413828 -0.296230644 0.7572814822
-0.41659364 0.15586281 1.1551818 0.6401449442 -0.5057756305 0.5782780051
-0.27675158 -0.031623647 1.0190001 0.1120570824 0.5680817366 0.815307498
-0.35675451 0.15494469 1.0910001 0.5081883669 -0.5447729826 0.6670584679
-0.17893517 0.006042738 1.0271428 -0.7265729904 0.3531897366 0.5893629789
-0.31323767 0.13238426 1.0366668 0.3778091371 -0.6488434076 0.6605017185
-0.08235056 0.20587641 1.2360001 0.8834373951 -0.3390648067 0.3233781159
-0.2853359 0.25220457 1.1666 0.3109890819 -0.7758427858 0.5489569902
-0.16482675 -0.035247561 1.0630343 0.04877791926 -0.3197939992 0.9462307096
-0.34241822 0.20402916 1.1368572 0.432102561 -0.7182335258 0.5453695655
-0.29522634 0.097665094 1.0055789 -0.02602459118 0.1514981538 0.9881148934
-0.42440471 0.053972363 1.093857 0.6499506235 -0.03763957694 0.7590437531
-0.12363338 0.0064543127 1.1623334 0.6680151224 -0.4060380459 0.6236096025
-0.17765257 0.13402453 1.1159 -0.7375540137 -0.5109223723 0.4415568113
-0.16449539 0.07506413 1.0533333 -0.6231305599 -0.4686350524 0.6261704564
-0.37499508 -0.015245763 1.0528402 0.5524537563 -0.01969473623 0.8333108425
-0.2949678 -0.07586284 1.0685 0.08053538948 0.5498865247 0.8313476443
-0.17551886 -0.083860412 1.0542727 -0.3887037039 0.3605976403 0.8478671908
-0.30479473 -0.095988952 1.0807692 0.06704793125 0.4721866846 0.878944993
-0.30610266 0.19700198 1.104 0.3207176924 -0.7446861267 0.5853056908
-0.33510199 -0.068324938 1.0618 -0.068805255 0.707247436 0.7036098838
-0.20457847 0.18520372 1.0933334 -0.6034222245 -0.4781766832 0.6381447315
-0.15294716 -0.056526087 1.1255715 0.3936930895 -0.8112095594 0.4323711097
-0.22523162 -0.054424718 1.0267307 0.07610450685 0.4780577123 0.8750250936
-0.36545923 0.22871268 1.1876668 0.4972850382 -0.7169122696 0.4886147976
-0.31907159 0.1685304 1.08 0.4001483321 -0.639608562 0.656340003
-0.33577779 0.071403623 1.031 0.1808694899 0.246213153 0.9521897435
-0.33618277 0.11724528 1.0344287 0.4556152821 -0.6063717008 0.6517116427
-0.1716601 0.098493502 1.0700001 -0.5347461104 -0.6381520033 0.5539031029
-0.2260371 0.29559708 1.2143334 0.109308891 -0.8714922071 0.4780720174
-0.38531321 0.07455726 1.0425715 0.5608179569 0.07548846304 0.8244905472
-0.36366367 0.20310526 1.1555001 0.4960661829 -0.6529467106 0.572345078
-0.3880153 0.21544784 1.1930001 0.5360685587 -0.6712341309 0.5119327903
-0.066998959 0.18695152 1.2326669 -0.7339805961 -0.04284215719 0.6778178215
-0.15147047 -0.069694996 1.0600001 -0.4645688832 0.1713811606 0.8687946796
-0.2160636 0.14231141 1.0464 -0.4327922165 -0.5683954954 0.6997267008
-0.15879151 0.044057757 1.0470001 -0.7978960276 -0.1566610783 0.5820818543
-0.21566774 0.24807663 1.1433336 -0.217509985 -0.7044809461 0.6755708456
-0.22438107 0.22179081 1.108 -0.2035365552 -0.7400718927 0.6409886479
-0.13511391 0.12500624 1.1346668 -0.4789137542 -0.7010464072 0.5283706188
-0.26493153 -0.0045538978 1.0064 0.255299747 0.1204928979 0.9593244791
-0.1368542 0.20511447 1.1856666 -0.8067166805 0.02131415345 0.5905538797
-0.33126286 -0.12495337 1.1048751 0.04732312635 0.6599370837 0.7498290539
-0.25495869 0.2569873 1.155 0.2254387587 -0.7986540198 0.5579687953
-0.10507201 0.1785152 1.223 -0.236024484 -0.8371206522 0.4934789538
-0.40710646 0.0028140999 1.0700001 0.5896596313 0.5418314934 0.5989325047
-0.36573482 0.17596935 1.1245 0.5139101148 -0.6998844147 0.4960425198
-0.32339293 0.18211851 1.0962501 0.4109092951 -0.6835356355 0.6032682657
-0.055623561 0.22593735 1.2510713 -0.08648177981 -0.4441234171 0.891782105
-0.27452198 0.043910015 1.0026956 -0.01003111992 0.4492298067 0.8933599591
-0.10654569 0.035677571 1.1834615 0.6490826607 -0.5208653808 0.5544284582
-0.34643269 0.023776544 1.0223532 0.2846977413 0.2796796262 0.9169113636
-0.2450102 0.15266049 1.0250001 -0.3389131129 -0.5416684151 0.7692419887
-0.096806794 0.16299044 1.2046667 -0.6078558564 -0.5678946376 0.5549837351
-0.27859589 0.17916436 1.0700001 0.3802953362 -0.6745641828 0.6327231526
-0.21494403 0.014855205 0.99669999 -0.2278335243 0.1182226688 0.966496408
-0.32501402 -0.046814356 1.0416002 -0.0173600018 0.6291409135 0.7770973444
-0.37563422 0.21462716 1.1730002 0.5145013928 -0.6466078162 0.5631932616
-0.093149632 0.073384307 1.1938888 0.3367023766 -0.5495111942 0.764636457
-0.18187055 0.20533396 1.1325455 -0.6828991175 -0.1938726455 0.7043168545
-0.41388062 0.11414126 1.1065 0.6114176512 -0.509242475 0.6056736112
-0.25462395 -0.088279359 1.0700001 0.2076041847 0.5805727243 0.7872965336
-0.30592424 0.21851882 1.1330001 0.346819371 -0.7615516186 0.5474992394
-0.40378037 0.18207695 1.169 0.465174526 -0.6470396519 0.6041128635
-0.30539209 0.26041996 1.1930001 0.356800288 -0.8054739833 0.4731862843
-0.19275971 0.28809458 1.1950001 -0.1478666365 -0.8156063557 0.5593941212
-0.4093332 0.095626801 1.08 0.68012321 -0.4953386188 0.5404369831
-0.10571543 0.015895007 1.1642382 0.6010438204 -0.486104399 0.6343885064
-0.18602014 -0.01718179 1.0415456 -0.820551455 0.4200310707 0.3876457512
-0.17541224 -0.098493502 1.0700001 -0.3930279315 0.660564959 0.6396741271
-0.23502967 0.045166448 1.0057777 0.1486839205 -0.06780451536 0.9865574837
-0.38383549 0.03428302 1.0449475 0.56813097 -0.3422726691 0.7483826876
-0.12154808 0.13906124 1.1750001 -0.389220655 -0.6818872094 0.6193037629
-0.41373891 -0.015780816 1.0863571 0.6939308643 -0.0158100985 0.7198680043
-0.054287411 0.13647947 1.2336001 -0.3689080179 -0.3894642591 0.8439339399
-0.21523453 0.29174852 1.1956667 0.0956517905 -0.849521935 0.5188094378
-0.13604333 0.25617516 1.21 -0.7566480637 -0.4658282697 0.458789438
-0.38319394 0.17318492 1.1353334 0.5543491244 -0.6822870374 0.4766355753
-0.14743866 0.025654271 1.1012857 -0.240808472 -0.6283547878 0.7397171855
-0.42758802 -0.026060671 1.1010001 0.7078354955 -0.06453403085 0.7034232616
-0.19917779 0.11198014 1.0470001 -0.7642277479 -0.3895182908 0.5140345097
-0.33263481 0.25465706 1.202 0.3526090086 -0.833922863 0.4245463014
-0.18225153 0.075885206 1.0329335 -0.667727232 -0.4955067337 0.5555298924
-0.23506501 0.24906889 1.141 0.01752523147 -0.7863716483 0.6175050735
-0.27438858 -0.044336941 1.0339092 0.1558744609 0.7046676874 0.6922041774
-0.35926676 0.13601483 1.0700001 0.5248339176 -0.6741555929 0.5196763873
-0.2456328 0.17139578 1.0455 -0.1828971505 -0.6931988001 0.6971542835
-0.23117208 0.19665948 1.0816001 -0.4261019528 -0.6467670798 0.632557869
-0.16523007 0.17504168 1.1450002 -0.7393524051 -0.08444854617 0.6680018902
-0.11042353 0.22373936 1.2672 -0.820464015 -0.3387584686 0.4605230689
-0.20387146 0.16536967 1.082619 -0.6781783104 -0.4768896997 0.5591515303
-0.26481485 0.10485926 1.0136667 -0.1050767824 0.0002773797314 0.9944640994
-0.064577393 0.17358036 1.219 0.07147014141 -0.2163203657 0.9737029672
-0.075389832 0.1252974 1.2112 -0.3091736138 -0.321236521 0.895108223
-0.19423078 0.031496879 0.99800009 -0.426784128 -0.03259915486 0.9037657976
-0.31482214 0.0056510735 1.0273635 0.2319778353 0.1233699471 0.9648658633
-0.067717992 0.095469758 1.2042857 -0.1697800756 -0.2145927697 0.9618340135
-0.060270835 0.1939625 1.25 0.3771858215 -0.3853761554 0.8421496749
-0.21585844 0.085856639 1.0157503 -0.7537124753 -0.08222392946 0.652040422
-0.18519078 0.22378038 1.1357502 -0.4883210063 -0.4672208428 0.7370530963
-0.4247044 0.035174757 1.0809412 0.6023509502 -0.3777447343 0.7031943202
-0.15397817 0.11819597 1.1032999 -0.3240808547 -0.8059765697 0.4953518212
-0.25477165 -0.15238468 1.0264999 0.0441968739 0.5062840581 0.8612334728
-0.089029446 0.21412364 1.2855 0.8685395122 -0.1293053329 0.4784550965
-0.28424513 0.15893792 1.0510001 0.3769415021 -0.7503525615 0.5430341363
-0.20848067 -0.09492781 1.028 -0.5341619849 0.01065950096 0.8453149199
-0.34676841 0.21453668 1.1543332 0.4232729971 -0.7083595991 0.5648598075
-0.31486651 0.15557311 1.0636668 0.3658856153 -0.7129020095 0.5982461572
-0.19145997 0.1754145 1.1154001 -0.9450115561 -0.09384465218 0.313283205
-0.26502731 -0.10572341 1.0805217 0.1353893727 0.4938473105 0.8589438796
-0.15427782 0.18434237 1.164091 -0.8334015608 -0.06107547507 0.5492828488
-0.13882694 0.084441043 1.0857142 -0.6359468699 -0.4739785492 0.6090286374
-0.13351518 -0.057025079 1.1054614 0.2030099928 -0.8076837659 0.5535647273
-0.29615825 -0.062041909 1.0562501 0.07331931591 0.6605151296 0.7472242117
-0.076123595 0.14688638 1.223 0.01294166874 0.3185960352 0.9478022456
-0.16242617 0.28720388 1.2270001 -0.6240437627 -0.6636872292 0.4124180377
-0.15504149 -0.0048497538 1.0733461 0.1676359028 -0.4640768766 0.8697878122
-0.25587007 0.2011082 1.077 0.1937287003 -0.7076852918 0.679448843
-0.3494963 0.18803886 1.123 0.4599405229 -0.6889432073 0.5601891875
-0.23619922 0.27768394 1.1830001 0.10581249 -0.8217797875 0.559894383
-0.11587507 0.23537195 1.22525 -0.8549007177 -0.3932881653 0.3383329511
-0.35584253 0.16873597 1.103 0.4680431485 -0.6487890482 0.6000069976
-0.16104454 0.13803819 1.141 -0.6139645576 -0.5535267591 0.5627216697
-0.2411973 -0.040199548 1.0190001 0.2271560431 0.6274219155 0.7448099256
-0.3946062 0.046931669 1.0635556 0.7041164041 -0.09958489984 0.7030668259
-0.19816524 0.13653673 1.0546666 -0.779307425 -0.3202372789 0.5386353135
-0.38897961 0.12837292 1.1010001 0.5682882071 -0.5853257775 0.578309834
-0.34411591 -0.084928274 1.0757366 0.002665383276 0.4682091773 0.883613646
-0.20276424 0.058312107 1.0100001 -0.228504613 -0.3862255216 0.893652916
-0.19392489 0.1270909 1.0726154 -0.8810114264 -0.3028924763 0.3634212315
-0.38716561 -0.02512176 1.0613334 0.6535018682 -0.07472937554 0.7532269359
-0.38257995 -0.061736617 1.067 0.4434690475 0.5136309266 0.7345191836
-0.13165683 0.23533143 1.2122223 -0.7952001691 -0.3800547719 0.4724563956
-0.16920924 0.27274999 1.189 -0.6156951785 -0.5704982281 0.5435542464
-0.32506052 -0.10360431 1.0841874 -0.1031557396 0.4992923439 0.8602709174
-0.18996051 -0.10470995 1.057 -0.5942878723 0.6683562994 0.4473497272
-0.13222693 0.17735985 1.2028 -0.740508914 -0.4083212316 0.5337792635
-0.16310605 0.1065744 1.0831538 -0.4111400843 -0.7123625875 0.5687735677
-0.3720924 -0.080477998 1.08 0.2832932472 0.5805097818 0.7633828521
-0.23487894 -0.024309808 1.005607 0.03288415447 0.5126048923 0.8579946756
-0.35652146 0.01285325 1.0327001 0.261698246 0.5715959668 0.7776837945
-0.1468022 -0.037052318 1.0700001 0.1003932431 -0.3093533814 0.9456329346
-0.087158792 0.087159954 1.2026668 -0.2150847763 -0.368429333 0.9044325948
-0.29453647 -0.15241447 1.0331819 0.4545996487 0.458216995 0.7637907863
-0.38383654 -0.0044654165 1.0631053 0.5927988291 0.3208071887 0.7386963964
-0.10593552 0.19418076 1.2557693 -0.5750202537 -0.6193116903 0.5346071124
-0.24548091 0.29437876 1.21225 0.192480579 -0.8480370045 0.4937453568
-0.33121955 0.24144977 1.177 0.3563619256 -0.7530974746 0.553037405
-0.40774569 -0.035052139 1.0805714 0.6577477455 -0.09943962842 0.7466455698
-0.2448878 0.22752123 1.1129 -0.07066128403 -0.8385531902 0.5402180552
-0.33490175 0.085351586 1.0142002 0.3367135525 0.3438808322 0.8765671253
-0.3261573 -0.0071277781 1.028 0.3176405132 0.02717135474 0.9478218555
-0.18083879 0.108882 1.08 -0.6683306694 -0.6275424957 0.3994051814
-0.12414798 0.20357455 1.2243334 -0.9600118399 0.1158383191 0.2548700273
-0.095080636 0.14512525 1.1947778 -0.7853630781 -0.2979251742 0.5426282287
-0.14543208 0.054697033 1.1250453 0.8982362747 -0.3911090791 0.2005126476
-0.13439563 0.098099001 1.1190001 -0.8665632606 -0.3520642817 0.3537213802
-0.35442993 -0.062982969 1.0545626 0.1832050383 0.6485424042 0.738802135
-0.22574569 -0.11510511 1.0178003 -0.4593669474 0.1752795726 0.8707807064
-0.34514973 -0.014701277 1.0355202 0.4570757747 -0.08631911129 0.8852292299
-0.26422033 -0.057541389 1.0418571 0.2447926849 0.6619074345 0.7084879279
-0.27150455 -0.071351022 1.057 0.2069981396 0.6527228355 0.7287693024
-0.16879866 0.14412048 1.126 -0.6792847514 -0.43184793 0.593362987
-0.31692386 -0.13513497 1.0554117 -0.1523566693 0.8333265781 -0.531370163
-0.30454391 -0.046066385 1.0432105 0.05734060332 0.7174165249 0.6942806244
-0.1229376 0.24913903 1.2410001 -0.8824360967 -0.4421530962 0.1606461406
-0.18008661 0.058236968 1.0220001 -0.6678740978 -0.365493238 0.6483508945
-0.14603226 0.21505274 1.1758572 -0.7203635573 -0.1667185426 0.6732617021
-0.29426649 0.12454642 1.0171666 0.3570852578 -0.6431472301 0.6773859859
-0.39230818 0.10158479 1.067 0.6192491055 -0.4935245812 0.6107078195
-0.22252622 -0.13250342 1.031 -0.4025096297 0.2418206781 0.8828979135
-0.37127185 0.090997994 1.0380001 0.5536176562 -0.3341888487 0.7627747059
-0.28492928 0.033583917 1.0116959 0.08428278565 0.4713861048 0.877890408
-0.1404534 0.269113 1.223 -0.7788849473 -0.4991316795 0.3797443509
-0.22599983 0.13434447 1.0358236 -0.4523317516 -0.5477696657 0.703807056
-0.10871923 -0.044668213 1.124 0.1686688662 -0.7361075282 0.6555123925
-0.30674616 0.055488806 1.0114212 0.4044941962 -0.2356018275 0.883671999
-0.3403562 0.041986197 1.0190001 0.4010304809 -0.1974748969 0.8945268393
-0.26553464 0.12504278 1.0070001 -0.1250535399 -0.223330766 0.9666876197
-0.20639344 -0.024558773 1.0161877 -0.5594381094 0.3902512491 0.7312543392
-0.41441792 0.18698746 1.1827779 0.4610000253 -0.6289900541 0.6259796619
-0.25205305 0.2792455 1.1930001 0.2630504668 -0.8105090857 0.52333498
-0.31524467 -0.035475288 1.0316668 0.09922370315 0.5323631167 0.840680778
-0.36433583 0.1142963 1.0548 0.5024856329 -0.5553866625 0.6626113653
-0.095353276 0.18095452 1.2360001 0.1121463999 -0.9272867441 0.3571588099
-0.25531274 0.085246116 1.0024481 0.212836504 -0.4245125949 0.8800509572
-0.15808317 -0.019643471 1.067 0.1709831357 -0.279063791 0.9449276328
-0.37890849 0.19915675 1.1650001 0.5727494955 -0.5959485173 0.5628529191
-0.35865572 0.059319649 1.041 0.550863564 0.05883200467 0.8325191736
-0.2828857 0.15096959 1.0353333 0.3534107208 -0.7097284198 0.6094148159
-0.40590543 0.10817716 1.092 0.6560369134 -0.5769302845 0.4865871668
-0.097726002 -0.01459886 1.1456156 0.4801781476 -0.4956462085 0.7237153053
-0.18592297 0.13499676 1.0844285 -0.8872805238 -0.3586346805 0.2900248766
-0.34280646 0.14137302 1.054 0.4400123358 -0.674939096 0.592322886
-0.29468206 -0.1176817 1.09 0.09157318622 0.5277680755 0.844437778
-0.38505894 0.14423323 1.1050587 0.5317852497 -0.5198699832 0.668535471
-0.40992057 0.0787948 1.0700001 0.7450764775 -0.1172046214 0.6566004157
-0.31443763 -0.13245617 1.1077 0.0812394172 0.6778808832 0.7306693196
-0.20052435 0.26839414 1.1730001 -0.09137768298 -0.7345020175 0.6724261045
-0.23885134 0.058619194 0.99800003 -0.2802091241 0.2330977023 0.9312079549
-0.32734469 0.057696652 1.0230001 0.390127182 -0.2706561685 0.8800829649
-0.3382706 0.16817974 1.09 0.4013009667 -0.6418044567 0.6534864902
-0.24834476 0.017550867 1.001 0.3431622684 -0.1273731589 0.9305996895
-0.31162956 0.037960544 1.0070001 0.1942079514 0.3048661947 0.9323839545
-0.12994041 0.13195498 1.149 -0.4157667756 -0.7843549252 0.4603534937
-0.27572834 -0.13641636 1.101 0.1526559293 0.6585226059 0.7369152904
-0.12485407 0.21506721 1.2041819 -0.8788922429 -0.04467002675 0.4749242067
-0.34578651 -0.1043411 1.0764285 -0.01090534125 0.4128567874 0.91073066
-0.12103347 0.11903292 1.141 -0.6420454383 -0.4664690793 0.6084277034
-0.27586532 0.0065755118 1.0110003 0.3459474742 -0.09186493605 0.9337458014
-0.32719916 0.20871329 1.131 0.3888748288 -0.7434768677 0.5440757871
-0.41185799 -0.050180398 1.08 0.6492469907 0.0852593258 0.7557837963
-0.17866087 0.26201317 1.169 -0.3900072873 -0.5896310806 0.7072690129
-0.068721898 0.1110123 1.2060001 -0.1404747516 -0.244387567 0.959448576
-0.22652254 -0.084202088 1.0439999 0.6609407067 0.3808099627 0.6466383338
-0.12411357 -0.035675067 1.1354738 0.2455382794 -0.6911125183 0.6797605753
-0.34526157 -0.035185888 1.0380001 0.3363987803 0.2401638478 0.9105806947
-0.18098256 0.020606926 1.0220001 -0.7503192425 0.2760401368 0.600685358
-0.17563407 -0.025536681 1.0722916 0.1487098485 -0.4915904403 0.8580350876
-0.24547379 -0.13316992 1.01675 -0.2415532619 0.3930908144 0.8872044086
-0.17704615 0.16461766 1.1346 -0.715841651 -0.2106400728 0.6657338142
-0.20883954 0.21078223 1.108 -0.5592864752 -0.5249468684 0.6415835023
-0.13570361 0.14307532 1.1674 -0.5090237856 -0.5970317721 0.6200386286
-0.40188903 0.0072182985 1.0558001 0.5547609329 0.5522513986 0.6223011017
-0.40105397 0.15563288 1.138 0.563436687 -0.6534863114 0.5054649115
-0.30487537 0.086959325 1.0181433 0.1220329553 0.3076363206 0.9436460137
-0.20167162 0.21776663 1.124 -0.5767524242 -0.4862010777 0.6564793587
-0.2481142 0.17934847 1.0600001 -0.06249817088 -0.6954045296 0.7158955932
-0.26602685 0.18809468 1.0710001 0.3184001148 -0.7010986209 0.6380298138
-0.14648417 0.071277738 1.067 -0.6743963957 -0.3582599759 0.6456308961
-0.33251902 0.1013179 1.01825 0.4468427002 -0.3807893097 0.8095252514
-0.2576611 0.038073633 1.0100001 0.1376009881 0.1770520061 0.974535048
-0.087408051 0.04833151 1.1730001 0.5846492052 -0.5531448126 0.5934779644
-0.29503307 0.0050997259 1.0176075 0.3905460536 -0.05755280331 0.9187825918
-0.31569862 -0.072493769 1.0670002 0.03331446275 0.604896009 0.7956072688
-0.24153885 -0.081743553 1.0524 0.4276427329 0.6406875253 0.637684226
-0.16755371 0.04548027 1.0343159 -0.8116788864 -0.1328092217 0.5688049793
-0.40422603 0.03410925 1.0643334 0.6690336466 -0.3591469526 0.6506977081
-0.30398822 0.24429378 1.1668181 0.3171445429 -0.7632302046 0.5629378557
-0.35557115 0.034973234 1.0272499 0.4662947059 -0.1352265179 0.8742328286
-0.26293072 0.26190594 1.1670001 0.2907762825 -0.8039271235 0.5187969804
-0.16709997 0.12312871 1.1146668 -0.3786247373 -0.8058744073 0.4552029669
-0.24914253 -0.059319649 1.041 0.3279097676 0.6092932224 0.7219673991
-0.19784029 -0.075979181 1.0342668 -0.6303388476 -0.1194105968 0.7670814991
-0.19009639 0.1589011 1.1120001 -0.9319838881 -0.2229756862 0.2858109474
-0.40814182 0.16997427 1.161 0.4862630069 -0.6452414393 0.5892467499
-0.18800057 0.092033051 1.036 -0.6736752391 -0.4583148956 0.579749167
-0.3360132 0.19707467 1.1240001 0.4252158403 -0.7117781043 0.5590736866
-0.20420285 0.19646941 1.1033528 -0.6524515152 -0.4520669281 0.6082289815
-0.327627 0.1277654 1.041 0.3635063469 -0.6079428196 0.7058814764
-0.24062397 -0.052270375 1.028 0.3035464585 0.571813643 0.7621605396
-0.32967049 -0.1232681 1.09 0.08065225184 0.8334424496 0.5466890931
-0.34487984 0.23232514 1.1743335 0.3872007132 -0.7264272571 0.5677843094
-0.15834896 0.26531598 1.1962 -0.7076759338 -0.5049697757 0.4941662848
-0.2153772 -0.06438724 1.0320802 0.0117536746 0.1988947093 0.9799503684
-0.40365094 0.20280664 1.1850001 0.50768888 -0.6088202 0.6095817685
-0.29387152 -0.024580697 1.0188893 0.2876670659 0.4025116265 0.8690409064
-0.29451621 0.11263622 1.0055 0.1997018009 -0.2764139473 0.9400609136
-0.16238469 0.22502778 1.1649998 -0.7455806136 -0.3188988864 0.5851607323
-0.2643488 0.071367934 0.99800009 0.2560502887 -0.2085573524 0.9438973069
-0.36164075 -0.044516694 1.0470001 0.3854683936 0.28386572 0.8779717088
-0.091714665 0.023817718 1.156 0.611743927 -0.4599096775 0.6436244845
-0.20504753 0.0061061247 1.0049677 -0.5263049603 0.3571286798 0.7716619372
-0.3493692 0.1477008 1.08 0.4739060402 -0.6868957281 0.5509875417
-0.18194339 0.23854801 1.153 -0.4444785416 -0.5877726078 0.6759898067
-0.32208821 0.25329268 1.189 0.3265325129 -0.8312445879 0.449898839
-0.23079389 0.071958557 1.001 -0.4352370203 0.08613773435 0.8961858153
-0.2258998 0.11437213 1.0177728 -0.2532054782 -0.5399417877 0.8027140498
-0.21497245 -0.044684842 1.0223427 -0.3344045579 0.4037214816 0.8515765071
-0.29758078 0.13703287 1.0317501 0.4049520195 -0.6520906091 0.6409303546
