# .PCD v0.7 - Point Cloud Data file format
VERSION 0.7
FIELDS x y z normal_x normal_y normal_z
SIZE 4 4 4 4 4 4
TYPE F F F F F F
COUNT 1 1 1 1 1 1
WIDTH 512
HEIGHT 1
VIEWPOINT 0 0 0 1 0 0 0
POINTS 512
DATA ascii
-0.16594467 0.087856464 1.1135001 0.4581215978 -0.8059259057 0.37497738
-0.086498067 -0.46891057 1.7310001 0.9835911393 -0.1309182793 0.1241325364
-0.098717928 -0.28077969 0.92300004 0.2138982564 0.613037169 0.7605478168
0.062521897 -0.086585961 1.0765001 0.7352665663 -0.4377368391 0.5174645185
-0.28250146 -0.12286747 1.0230001 0.706695199 -0.4613782763 0.5363879204
0.081266999 0.098603956 1.2360001 0.6361047626 -0.6676568389 0.3867881894
-0.10087979 -0.028474133 0.92800003 -0.006591975223 -0.4303701222 0.9026284218
0.0091418801 -0.16870923 0.94800007 -0.235356003 -0.1336718053 0.962673068
-0.013880263 0.047517609 1.1154001 -0.770424962 -0.3568360209 0.5283118486
-0.29731798 -0.018705437 1.123 0.6718126535 -0.6054187417 0.426773876
-0.16731724 -0.15558456 0.94017667 0.3157687783 0.1506701261 0.9367969632
-0.21294113 -0.0069983141 1.0062001 0.5571390986 -0.6894435883 0.4628861547
-0.067987248 0.14730191 1.1750001 -0.1489255279 -0.9067413211 0.3945140243
-0.10435361 0.058355853 1.0120771 -0.2557813227 -0.7949152589 0.5501687527
0.040788669 -0.024054857 1.1930001 0.9074633121 -0.307834208 0.2859168053
-0.0056570047 -0.025195479 1.0042856 -0.6281396747 -0.5456104279 0.5547520518
-0.20296039 -0.23263906 0.99575007 0.415579319 0.4204150736 0.8065636754
-0.075417966 -0.12516333 0.91519481 -0.02960392646 0.2324493378 0.972157836
-0.24122097 0.05597955 1.161 0.6177665591 -0.7453689575 0.2505785227
0.015550751 -0.1616113 1.0435001 0.4612295032 -0.7622517347 0.4541361034
-0.093612216 -0.19931251 0.96200001 0.2266296297 0.4255290926 0.8761073351
-0.18034436 -0.068979636 0.94800007 0.5403089523 -0.4249105752 0.7263038158
-0.082178734 0.098423369 1.09 -0.2312398702 -0.8084847927 0.5411842465
0.0041413731 0.10249899 1.1810001 -0.703407526 -0.5735929012 0.4197725952
-0.16432922 0.11408839 1.193923 0.4506542087 -0.8497127295 0.2736769915
0.071614899 0.051155254 1.1670001 -0.05354968086 -0.462938875 0.8847711682
-0.23374884 0.022199536 1.0853333 0.6309283972 -0.6810156107 0.371681422
0.031244399 -0.0104148 1.08 -0.7069439888 -0.4894906878 0.5105184317
-0.021434499 -0.10031346 0.97800004 -0.8800023794 -0.08904732019 0.4665472806
-0.26970649 -0.041422501 1.0500001 0.6381405592 -0.6179183722 0.4592967629
-0.036709674 -0.2220532 0.91492307 -0.3959902227 -0.07868241519 0.9148774743
-0.13517499 -0.26526356 0.98681235 0.09217139333 0.5294854641 0.8432968855
-0.23513967 -0.12518302 0.96480584 0.4450011551 0.2199416459 0.8681011796
-0.17598681 0.045896884 1.044 0.4813936651 -0.7694055438 0.4198514521
0.083485626 -0.023938037 1.1320001 -0.06100930274 -0.5635473728 0.8238277435
-0.043368213 0.016715208 1.0525556 -0.6759883165 -0.5890065432 0.4428443313
-0.15432428 0.012354249 0.96509999 0.4806723595 -0.7224902511 0.4969526231
-0.26219258 -0.19245112 1.0070001 0.802205503 -0.08241205662 0.5913328528
-0.066901654 0.012087188 0.977 -0.5973287821 -0.5695897937 0.5645934939
-0.039129641 -0.057242822 0.92714292 -0.5232610703 -0.4367303848 0.731754303
-0.24092378 -0.059159219 0.97800004 0.6462537646 -0.2261444926 0.7288448215
0.0038350406 -0.061181314 1.055143 -0.8915604949 0.4515635371 -0.03478939086
-0.037489187 0.11180715 1.1353334 -0.6581927538 -0.5744208097 0.4866446257
-0.12530352 -0.094374165 0.93192601 0.3292001784 -0.1867125481 0.9256163836
0.034427427 0.063986778 1.2187221 -0.6628225446 -0.5581835508 0.499096632
-0.12148391 0.12267687 1.1340001 0.2586227059 -0.8842479587 0.3888700306
-0.21684992 -0.18449189 0.96326315 0.466627717 0.1695682257 0.8680467606
-0.13282464 0.082729273 1.0632501 0.3580913544 -0.8230232596 0.4409118593
-0.15438622 -0.21546265 0.9659692 0.0237335898 0.2729158998 0.9617450833
0.042680766 0.023524849 1.1247145 -0.7170296311 -0.3983103931 0.5720291734
0.04102822 -0.17458357 0.99575007 0.3308570385 -0.9047032595 0.2684132755
0.062588327 -0.13453867 1.0439999 0.4411461949 -0.6361334324 0.6330278516
0.01696578 0.045992214 1.1658001 -0.8128663898 -0.456053853 0.3623024821
-0.017466852 -0.21779276 0.9641667 -0.4977889359 0.5297380686 0.6867195964
-0.048062444 -0.1730805 0.93161547 -0.1870536059 -0.2984581292 0.9359133244
-0.11504439 -0.1548728 0.93299997 -0.01424909383 0.5469901562 0.8370177746
-0.21154317 0.061415758 1.1120001 0.5923544168 -0.7418997288 0.3141673505
-0.065748483 0.063166291 1.0544001 -0.6087154746 -0.5869668722 0.5337933302
-0.25855529 0.020803301 1.13 0.6411001086 -0.6535601616 0.4023055434
-0.14397046 -0.25418097 0.93652952 0.5950574875 0.3995009363 0.6973561645
-0.088310137 -0.25121233 0.97800004 0.06898073107 0.4083176851 0.9102298021
-0.083128601 -0.23762007 0.90450001 -0.1683550328 0.1391410232 0.9758567214
-0.11802913 0.13770066 1.1810001 0.3099743724 -0.8863565326 0.3439302742
-0.1897545 -0.021927185 0.96200007 0.5325194597 -0.4910327792 0.689427197
-0.27489352 -0.074972481 1.0141429 0.8056538701 -0.07216481119 0.5879745483
0.049717519 -0.055566639 1.1120001 0.4537880719 -0.5792816877 0.6771330237
-0.03938885 -0.028376166 0.96625006 -0.5055062175 -0.7354459167 0.4512014389
0.029269271 -0.12935129 1.077 0.6536759138 -0.5881100893 0.4762712717
-0.02833299 0.13431937 1.197 -0.5439585447 -0.7621552348 0.3510391414
-0.14369136 -0.035751976 0.94638097 0.3576971292 -0.3910391331 0.8480219245
-0.08128278 -0.078868441 0.91800004 0.2612976432 -0.3573707938 0.8966658711
-0.031317599 -0.14389037 0.96550006 -0.7020042539 -0.4625831842 0.5414857864
0.062539205 0.0052309604 1.16475 0.7456753254 -0.1695282906 0.6443821788
-0.23527046 -0.0062543796 1.0464545 0.6372025013 -0.5390775204 0.550788939
-0.034178644 -0.10461595 0.93421054 -0.7564918399 0.1806169003 0.6285678744
0.0017792827 -0.086287856 1.0148001 -0.06353145093 -0.7633977532 0.6427966952
0.0042316699 -0.004913826 1.043625 -0.4931753278 -0.7800904512 0.3850155771
-0.11256158 0.026670873 0.97238088 -0.4041223228 -0.6012012959 0.6893780828
-0.19150458 -0.11195835 0.94800001 0.2696765661 0.3025684953 0.914180994
-0.20179375 0.083940826 1.149 0.5530133247 -0.7570821047 0.3478547931
-0.044332284 0.07566376 1.0938096 -0.7224761844 -0.3863473535 0.5733793378
0.064701982 0.085171074 1.1948462 -0.3170737326 -0.663044095 0.6781126857
-0.27187604 -0.0166639 1.0862499 0.6795945764 -0.6083492041 0.4099541903
-0.01232944 0.0080635799 1.082 -0.2780746818 -0.8942596316 0.3506768048
-0.17413738 0.023020038 1.0022001 0.5336021781 -0.7575728297 0.3759682775
-0.067281537 0.036066748 1.0143332 -0.7687646151 -0.5322628021 0.3545381427
-0.042624407 -0.00088806334 1.013 -0.5784856677 -0.7832609415 0.2277203649
-0.24561548 -0.15454715 0.99445456 0.7167215347 0.08884113282 0.6916772723
-0.0020005533 0.079021856 1.141 -0.660615921 -0.43863222 0.6092523336
-0.0077926889 -0.055484056 0.97366679 -0.8099229932 -0.3016545177 0.503020227
-0.24727611 -0.034748837 1.0116366 0.6679992676 -0.5286797285 0.5237123966
-0.25259429 -0.10566431 0.99612504 0.7328125238 -0.3486196697 0.5843373537
0.01121432 -0.12335752 0.98400003 0.1886553168 -0.6055577397 0.7731164098
-0.18056791 -0.25008231 0.96700007 -0.2014399767 -0.6686739922 0.7157492638
-0.079744227 0.12109309 1.123 -0.03203007206 -0.8794190288 0.4749696851
-0.29445481 -0.050180398 1.08 0.6979083419 -0.5818888545 0.4175275862
-0.12117462 0.10194056 1.097 0.1387740523 -0.901009798 0.4110026062
-0.14463741 0.043424852 1.0174211 0.4906868637 -0.6918762326 0.5296543241
0.038019281 -0.092611067 1.1120001 0.7680597901 -0.4138575792 0.4886778593
-0.18640769 0.057597581 1.0829999 0.4665551782 -0.7886660099 0.4004150629
-0.21356934 -0.085669421 0.96544456 0.5584620237 -0.3682517409 0.7433106899
-0.1350427 -0.1848892 0.95346892 -0.09199026972 0.4987597764 0.8618447781
-0.2013841 -0.1464489 0.95771426 0.4784317911 -0.1718285382 0.8611492515
-0.19703783 0.017775586 1.031 0.5565401316 -0.6293651462 0.5423675776
-0.071338087 -0.014182933 0.9517501 -0.6046442389 -0.4869759679 0.6302854419
0.0076024532 -0.038962573 1.0840001 -0.9322379827 0.3437155485 0.1131017879
-0.11555807 -0.0048938286 0.95420009 -0.0719922334 -0.381370455 0.9216147065
-0.23102708 -0.21112588 0.98700005 0.5373746753 0.5074272752 0.6736067533
-0.15592353 -0.11477273 0.94139308 0.403604418 -0.08583820611 0.9108980298
-0.11498834 -0.22581583 0.97384375 -0.003446166636 0.2806397676 0.9598069787
-0.12450111 -0.054974154 0.92216671 0.07960452884 -0.009513425641 0.9967811108
-0.095204763 0.083763108 1.0530001 -0.2358063906 -0.8076426387 0.5404708385
-0.035089295 0.03563891 1.0846666 -0.6538715363 -0.4363591671 0.6180960536
0.0052484442 0.017328911 1.115 -0.2471601963 -0.6872959137 0.6830344796
-0.083053641 -0.17165789 0.93800008 0.3379722834 0.4613687098 0.8203131557
-0.21844253 -0.030960359 0.98100007 0.6177152395 -0.6296865344 0.4710867703
-0.20549384 0.035508301 1.0636154 0.5684608221 -0.7037764788 0.4260880053
-0.11025486 -0.12393612 0.91800004 0.2236431539 0.1279419661 0.9662373662
-0.14273886 0.12234935 1.1630001 0.3819642067 -0.8711851239 0.3084473908
-0.068666667 -0.22210699 0.96700007 0.1998091042 0.3532917202 0.9139263034
-0.18516763 -0.19504976 0.9567036 0.0428763777 0.4482486844 0.8928800225
-0.018913206 -0.19612174 0.93800002 -0.7830658555 0.04080097005 0.6205989718
0.044591326 -0.15571089 1.0248421 0.3797331452 -0.7827572823 0.4930454493
-0.096795641 0.13354626 1.1552857 0.2148856819 -0.8779618144 0.4277934432
-0.060429946 -0.19809818 0.91300005 0.1240294725 -0.5320904851 0.8375538588
-0.27834606 -0.094911441 1.041 0.8985967636 -0.02298531495 0.4381729066
0.0097976262 -0.17902936 1.016 0.3233171701 -0.886044383 0.3322519064
-0.019074513 -0.075468726 0.94600004 -0.8349813223 -0.08394996077 0.5438369513
-0.27127251 -0.16347817 1.0190001 0.75218606 0.1028176248 0.6508799195
-0.23874263 0.046559766 1.13 0.56233567 -0.7301917672 0.3880702555
0.040925428 0.040925428 1.197 -0.3925682306 -0.8729233742 0.2896463573
-0.041589603 -0.1359428 0.93227768 -0.6756058931 0.1467953771 0.7225010991
-0.055514678 0.10335407 1.1074544 -0.3504416943 -0.7563025951 0.552446425
-0.037146416 0.13121742 1.1663333 -0.5313483477 -0.740849793 0.4108655751
-0.20547917 -0.054934356 0.96303231 0.2335892469 0.2282450795 0.9451667666
-0.0754233 -0.045630123 0.9351387 -0.06230404228 -0.3914521635 0.9180868268
-0.12537336 0.068902649 1.0329092 0.2328344584 -0.8467620611 0.4783117771
-0.26119581 0.03496322 1.1730001 0.6646463275 -0.6887049675 0.2897079885
-0.026879126 0.082206964 1.1190001 -0.671290338 -0.481274277 0.563688159
0.019221794 -0.18196487 0.97450006 -0.924577713 0.09901756048 0.3679015934
-0.14506191 -0.005066257 0.94094324 -0.09941946715 -0.1084827259 0.9891144037
-0.15011513 0.11034954 1.1340001 0.4210613668 -0.8144980073 0.3991244435
-0.15491904 0.075847909 1.0841333 0.5229843855 -0.7208459973 0.4548278749
-0.11543842 -0.25649884 0.91337514 0.3608446717 0.5156803727 0.77708745
-0.27160728 -0.13361715 0.99620008 0.8281561136 0.2443188578 0.5044460297
-0.25866663 0.0061235167 1.1023334 0.640956521 -0.6543737054 0.4012103975
0.04851824 0.034367085 1.153 -0.3400323391 -0.719869554 0.6051164269
-0.12937847 -0.28100672 0.94000006 0.505336225 0.493805021 0.7076665163
-0.01500367 0.10596564 1.1551818 -0.6355063319 -0.5700363517 0.5207592845
-0.15520154 -0.08529187 0.93357891 0.1786308736 0.225295037 0.957775116
-0.064611711 -0.19466086 0.94485718 0.3223218918 0.5344857574 0.7813025117
-0.13352159 0.040750097 0.98900002 0.2124237865 -0.8019157648 0.5583969951
-0.066049449 0.13253058 1.149 -0.07262691855 -0.8186109066 0.56973809
-0.055888548 -0.094492234 0.91580778 -0.3570385575 0.05773627385 0.9323036075
-0.15354203 0.063374765 1.0538 0.5023999214 -0.790787518 0.3496418297
-0.094479099 0.0354755 0.99425 -0.4038895965 -0.7049340606 0.5830447078
0.023165917 -0.026872464 1.057 -0.8809677362 0.2761986852 0.3842006624
-0.15438557 -0.24275288 0.97799993 -0.1487475932 0.506711483 0.8491864204
-0.023728738 0.0014275891 1.0352857 -0.1788737923 -0.9231564999 0.3402737975
0.0047854306 -0.14408748 0.96325946 0.2386256307 -0.5025096536 0.8309884667
-0.23994279 -0.18318212 0.98100013 0.6755568981 0.01445759553 0.7371661067
-0.18129379 0.00142809 0.97700006 0.5504453182 -0.6692230701 0.4991496503
-0.225453 -0.15469061 0.97370374 0.6052793264 -0.1283796132 0.7855924964
0.022204505 0.074128889 1.169 -0.9460282326 -0.2615475059 0.1913724989
0.056316629 -0.032499351 1.1320001 0.1428267956 -0.5382359028 0.8306037784
-0.10903542 -0.27302468 0.99500006 0.007352219895 0.4646759331 0.8854503036
-0.20516381 -0.21515012 0.97351503 0.3136673868 0.5562635064 0.7695347071
-0.29106209 -0.06098444 1.054 0.6719971299 -0.6194294095 0.4058657885
0.054244623 -0.11424983 1.061909 0.7100346088 -0.4532904625 0.5388678908
0.087265454 -0.0016846611 1.153 0.1911587268 -0.5896059275 0.7847440243
-0.046069667 -0.0054663578 0.98538899 -0.5616906881 -0.6886656284 0.458522886
-0.082594723 0.057704832 1.0325 -0.5220405459 -0.6965638995 0.4922117591
0.019871403 0.059614211 1.1930001 -0.7752794623 -0.554752171 0.3019798398
-0.1051121 -0.074539401 0.93233341 0.1431562454 -0.1691884547 0.9751315713
-0.025505865 -0.16727664 0.94728571 -0.4908639491 -0.5096690059 0.7066046
0.039717384 -0.00096871669 1.105 -0.6223777533 -0.6008238196 0.5016539693
0.0017957641 0.042499743 1.138 -0.7013060451 -0.4420648515 0.5592392087
-0.13914452 -0.13398097 0.93000013 0.3330563605 0.03926865384 0.942088902
-0.2568244 -0.014152557 1.0622 0.6795543432 -0.5178459883 0.5196551085
0.07006035 -0.063340262 1.09475 0.4857212603 -0.6173019409 0.6188805699
-0.011340341 -0.073051974 1.0352501 -0.9210519791 -0.2056268752 0.3307276666
-0.064909481 0.081689261 1.0765556 -0.4101438522 -0.6717754006 0.6168466806
0.0034295199 -0.20163955 0.95654547 -0.4397962987 0.364649564 0.8207374215
0.065181918 0.10418842 1.2146317 0.5881378651 -0.7093456984 0.3884875476
-0.17396125 -0.044357721 0.95751983 0.2441735864 0.1771853566 0.9534068704
0.033198666 -0.14294857 1.052 0.5053967834 -0.7046320438 0.4980640411
-0.057377834 -0.24217892 0.91085714 -0.2957293391 0.104184702 0.9495734572
-0.23489264 -0.084409863 0.98493081 0.531811893 0.1381486654 0.8355184197
-0.21906058 0.061016876 1.141 0.5588774681 -0.7688015699 0.3108055592
0.074890293 -0.043846771 1.1162857 0.195170626 -0.6319771409 0.7500088811
-0.065447904 -0.15350412 0.92644817 -0.01677357778 0.3698722422 0.9289311767
-0.07655482 -0.26265928 0.9106667 -0.1180937961 0.4025321305 0.9077564478
-0.2923578 -0.029812803 1.097 0.713561058 -0.5415840149 0.4444292486
-0.10120109 -0.096372396 0.9180001 0.3421746194 -0.2625623047 0.9022070765
0.013813929 0.011283674 1.0826666 -0.3946427703 -0.8754265904 0.2790795267
-0.060402334 0.038099933 1.0600001 -0.8396729827 -0.2946060598 0.4562417269
0.075911582 0.025306942 1.1545998 -0.1400191933 -0.3593800068 0.9226270318
-0.02380494 -0.12565838 0.98330778 -0.1037977263 -0.3572092652 0.9282389879
-0.25754607 -0.075428583 0.99392849 0.7289370894 0.0861531347 0.6791379452
-0.19321646 0.07492432 1.1245 0.5013513565 -0.7902402282 0.3523737192
-0.10481443 0.11167435 1.1173999 0.1120223254 -0.8809754848 0.4597099423
-0.2181585 0.0174895 1.0500001 0.6453906298 -0.6266766787 0.4367462099
0.044570986 -0.10529935 1.0839999 0.7660577893 -0.4403434098 0.4682447612
-0.10521577 -0.17841744 0.9525001 0.1475518048 0.5703119636 0.8080672622
-0.095083266 0.0081588449 0.96266669 -0.09011083096 -0.7278472781 0.679792881
-0.22562401 0.036997963 1.1046 0.6212091446 -0.6628808379 0.4179572165
-0.16882628 -0.012088795 0.95100003 0.4768769145 -0.4718486071 0.741584301
0.065521412 -0.0064757178 1.1367502 -0.3045317233 -0.4296708107 0.8500843644
-0.16515036 -0.17848973 0.95100015 0.02111338452 0.4464191794 0.894574821
0.053655505 0.071196727 1.177 -0.03383859619 -0.5594577789 0.8281677961
-0.054717768 -0.034508079 0.94400012 -0.177355811 -0.7148467302 0.6764163375
-0.0061612134 -0.050169881 1.0040001 -0.9611623287 -0.08621645719 0.2621711493
-0.15213084 -0.05700212 0.93657148 0.4915444553 -0.387901485 0.7796899676
-0.060557503 0.01898071 1.031 -0.818370223 -0.5313821435 0.2188680917
-0.18075989 -0.13629711 0.94800007 0.5132936835 -0.1780344993 0.8395435214
-0.11623622 -0.25194722 0.9780001 -0.02452089079 0.3876361847 0.9214862585
0.0080872504 -0.020667417 1.0250001 -0.5468577147 -0.6903478503 0.4736733735
-0.19031732 -0.16621599 0.94800007 0.3508714736 0.01209715474 0.9363455176
-0.16541517 -0.26178163 0.9517501 -0.2913117707 -0.8834002614 0.3670713902
-0.21501167 -0.11535032 0.95503235 0.3116010427 0.1971052438 0.9295452237
-0.12487713 -0.20503578 0.96246678 -0.04255492985 0.287869215 0.9567238092
-0.0051343259 -0.10496164 0.9953528 -0.3003375828 -0.6585591435 0.6899979711
-0.028583501 -0.12393414 0.95200008 -0.9330028892 0.1297017783 0.3356829882
-0.026130132 -0.046261907 0.95684612 -0.7035351992 -0.4654502869 0.5370235443
-0.17577915 -0.22494698 0.97194088 0.173049897 0.1528240591 0.9729843736
-0.14576304 -0.16636935 0.94169581 0.05074347928 0.525077641 0.8495402336
-0.2108468 0.045339152 1.085 0.6144547462 -0.702500701 0.3590795696
-0.10444752 0.092528075 1.0733334 0.04611320421 -0.8909484744 0.4517570436
-0.095161982 -0.14501899 0.92448276 0.1340696067 0.4770925343 0.8685666919
-0.15475196 0.025132675 0.98505008 0.488991648 -0.7211078405 0.4908061326
-0.024477683 -0.02393437 0.98406261 -0.4539901912 -0.7501621842 0.4807802141
-0.13115284 0.021018082 0.95900005 0.06672211736 -0.7251527309 0.6853478551
-0.16651662 0.036336754 1.0224617 0.4499194026 -0.7170969248 0.5323011875
-0.047775544 0.053609047 1.0762727 -0.7900162339 -0.2504916191 0.5595787168
-0.27779433 0.0082199192 1.125 0.6303282976 -0.6532100439 0.4195269644
-0.017176239 0.12402525 1.1756667 -0.5913006663 -0.7139377594 0.3750419319
-0.26435223 -0.095397986 1.0170001 0.7576233149 0.1132209152 0.6427969933
-0.17249539 0.094122082 1.1348001 0.4573152959 -0.798481226 0.3915232718
0.04904687 -0.078859672 1.097 0.737149775 -0.4304382503 0.5208964348
-0.12170237 -0.028780967 0.93800002 0.3141347766 -0.5750890374 0.7553753853
-0.19401072 0.0061706067 1.0052859 0.6067461371 -0.7126898766 0.3520401716
-0.2681697 -0.05669228 1.0265 0.7275844216 -0.5404168367 0.4225760996
-0.25261644 -0.1330573 0.97762507 0.6070482135 0.2505612671 0.7541296482
0.023087017 0.037139982 1.1450001 -0.2721010745 -0.9136614203 0.3019665182
-0.17610791 -0.096803598 0.9400003 0.2470488846 0.1837939769 0.9514129758
-0.27911663 -0.032890782 1.072 0.7019343972 -0.5737982988 0.4219522178
-0.17487063 0.073328957 1.0948001 0.4649399221 -0.7625748515 0.4497893453
0.046432648 -0.0051591834 1.177 0.9326081872 -0.2825932503 0.2244616151
-0.24464023 0.024060994 1.1051666 0.6265415549 -0.660916388 0.4130801857
-0.094098769 -0.23143211 0.96700007 0.1023058444 0.3034507334 0.9473389983
-0.06495396 -0.063681111 0.92203581 0.1663692445 -0.4546367526 0.8750009537
-0.027224164 0.063004442 1.1056362 -0.7079049349 -0.359646678 0.6078855991
-0.23602609 -0.10414686 0.97300005 0.6197683811 -0.3671956658 0.6935809255
-0.20396663 -0.014185092 0.98528576 0.6271944046 -0.6255244613 0.4640541971
-0.19552962 -0.084928609 0.95212519 0.5296689868 -0.3416463435 0.7763559222
0.017412208 -0.0034211918 1.0638335 -0.7513245344 -0.5133553743 0.4147019386
-0.25506112 -0.05338848 1.0022353 0.7359409928 -0.4615190625 0.4953696132
-0.13391522 0.10459071 1.115 0.3807748854 -0.8345986605 0.3980647326
-0.15612449 -0.26278698 0.99366677 -0.0964435041 0.5720916986 0.8144996762
-0.095181949 -0.01238582 0.94206262 0.01643040217 -0.6556017995 0.7549279928
-0.13512921 -0.2317712 0.96700013 -0.05348657444 0.3142440915 0.9478343129
-0.23306008 -0.01853887 1.0070001 0.5608357191 -0.6086251736 0.561283052
-0.064925969 0.026071139 0.99483329 -0.6573301554 -0.6361868978 0.4039595127
-0.034781355 -0.19475882 0.92280847 -0.4730735421 -0.3767599463 0.796400249
-0.15472737 0.053174939 1.0343637 0.4761745334 -0.7189744711 0.5062938929
-0.038279641 -0.084352814 0.92676491 -0.672224462 0.04739396274 0.7388288379
-0.12111939 0.12926187 1.161 0.3006278872 -0.894852221 0.3299429417
-0.017158341 -0.0082428586 1.0167501 -0.3529268801 -0.8308801651 0.4302101433
-0.012006388 0.025760761 1.1047 -0.689668417 -0.4610335827 0.5583954453
-0.030998494 0.018788282 1.0715001 -0.6262243986 -0.5987192392 0.4993779361
-0.24455084 0.0059738993 1.0756668 0.6356719136 -0.6757366061 0.3732309341
-0.09495081 -0.055182852 0.93532503 -0.1035545841 -0.04034711421 0.9938051105
0.02362792 0.033801053 1.123 -0.1289175898 -0.8017487526 0.58359164
-0.25412843 -0.1744552 0.995 0.7548329234 -0.1518553197 0.638096571
0.028586347 -0.16883811 1.0190001 0.3706409335 -0.8431293368 0.3895615041
-0.088310137 0.021434499 0.97800004 -0.2354005724 -0.7372826338 0.6332463026
-0.061319765 -0.011071861 0.97150004 -0.6063392162 -0.5888467431 0.5344270468
0.0063823527 0.08750426 1.164 -0.7012808323 -0.5538623929 0.4488225579
-0.0033260733 0.0059941458 1.0628572 -0.2121244669 -0.9330028892 0.2907040417
-0.11690349 0.078242503 1.0500001 0.1524062753 -0.8829808235 0.4439787865
-0.19537964 -0.12668 0.96270001 0.315417856 0.2213173509 0.9227839708
-0.26482874 0.029313102 1.153 0.6765903831 -0.6772203445 0.2891333699
-0.1608993 -0.13495076 0.93800002 0.4158937633 -0.127237767 0.9004681706
-0.194601 0.03387703 1.0443333 0.5460703969 -0.6984140873 0.4626282156
-0.23830359 -0.043298423 0.99449998 0.6588925719 -0.5565366745 0.5060904026
-0.13523895 -0.072405905 0.92683357 0.09943366051 0.1733645201 0.9798253179
-0.12538221 0.052363172 1.0044614 0.1999006271 -0.8508080244 0.48596856
0.046939764 0.0056975363 1.1347274 -0.773209095 -0.4125970006 0.4815718532
-0.095094293 -0.25510573 0.90473676 0.04733208194 0.3889649212 0.9200358391
0.015988356 -0.18114416 0.99500006 0.3080203831 -0.9182068706 0.249037385
-0.21542802 -0.13680728 0.97127789 0.3856945038 0.2130230665 0.8976975679
-0.20685041 -0.034346681 0.9634999 0.5002496839 -0.3914379776 0.7723513246
-0.055555195 -0.11503755 0.91764677 -0.4308817983 0.1105673686 0.8956091404
-0.10484582 0.069595933 1.031 -0.1337111741 -0.8624668121 0.4881314635
-0.054628432 0.11576611 1.1248 -0.2627429366 -0.7841439247 0.5622138381
-0.075225018 -0.10483581 0.91285688 -0.00393875828 -0.01072056685 0.9999347925
-0.17412849 0.056493964 1.0613573 0.4509063065 -0.8056007624 0.3843056858
-0.043885875 0.0044158869 1.0358001 -0.5871617198 -0.7612476945 0.2752145529
0.072523832 0.06527292 1.1818 -0.247536391 -0.5766586661 0.7785823941
-0.046050169 0.13213682 1.1455715 -0.4086690545 -0.7685376406 0.4922798872
-0.085472457 0.044967357 1.0144447 -0.4668501318 -0.7025180459 0.5371400118
-0.060187548 0.0061059832 0.99500006 -0.7409236431 -0.5453057289 0.3920125365
-0.017442159 0.091204897 1.1370001 -0.6068196893 -0.5632669926 0.5608031154
-0.0058175595 -0.18200652 0.94800007 -0.3287795484 0.05644175038 0.9427185655
-0.13772665 -0.11407824 0.93015021 0.4385745823 -0.1886429936 0.8786729574
-0.15419 -0.19365476 0.95777261 -0.01787381992 0.4429883957 0.8963491321
-0.0095372563 -0.037282005 0.98900002 -0.722787559 -0.4929263592 0.4843570292
-0.06306082 0.047525413 1.0425 -0.8404352069 -0.3860033154 0.3803551793
-0.28471065 -0.071403623 1.031 0.9199897051 -0.1364742368 0.3674149513
-0.13370506 0.094069704 1.0838572 0.3115096688 -0.8467286229 0.4312915504
-0.079102792 -0.024362568 0.93666679 -0.5384864807 -0.3198347688 0.7795755863
-0.2128807 0.0061625284 1.0333002 0.5896169543 -0.6309014559 0.50429672
-0.065125205 -0.22476339 0.90595227 -0.2886930108 -0.006084982306 0.9574024081
-0.083604537 0.087186962 1.074 -0.395575732 -0.7645488381 0.5089056492
-0.0088841403 0.063176103 1.126 -0.7260668278 -0.2390397191 0.6447379589
-0.22111812 0.072015539 1.1570001 0.557025671 -0.7581706643 0.3389685452
-0.014337007 -0.16108048 0.96200007 -0.08832610399 -0.5842313766 0.80676651
-0.22351991 -0.060754463 0.96700007 0.391463697 0.1375821829 0.9098501801
-0.13770066 0.12734723 1.1810001 0.3467310667 -0.8901259899 0.2957250178
0.025255011 0.011332378 1.1079999 -0.3213245273 -0.7466235757 0.5824978352
-0.21186228 -0.16646321 0.95900005 0.5000095367 -0.1490308493 0.8531003594
0.030024957 0.048661135 1.1810001 -0.5949670672 -0.7619701624 0.2557648122
-0.13253346 -0.26384532 0.92462516 0.5291226506 0.4382245541 0.7266281843
-0.27075148 -0.11729449 1.006 0.6908269525 -0.4193228185 0.5890046954
-0.032469101 -0.011408064 1.001 -0.4791022539 -0.757299304 0.4438003898
-0.1336287 -0.015773144 0.95139146 0.01519839093 -0.09816996008 0.9950535893
-0.25150955 0.042087015 1.1430001 0.6522428989 -0.6877477169 0.3187197745
-0.038648728 -0.15788415 0.93800002 -0.6990731955 -0.1415347755 0.7009027004
-0.082845002 0.069037497 1.0500001 -0.5036492944 -0.6854947805 0.5257701874
-0.085478507 0.11170486 1.108 -0.04694179446 -0.8792843223 0.4739784002
-0.11527909 0.042346504 0.98573357 -0.1962096244 -0.7669947743 0.6109179854
-0.094729342 0.12171114 1.1340001 0.0807152316 -0.882034421 0.4642201066
-0.054593541 0.09233772 1.0926001 -0.4416237772 -0.6796348691 0.5857174397
-0.25740972 -0.15440117 1.0107501 0.7197163701 0.1751282066 0.6718172431
-0.19539236 0.065130606 1.1037692 0.4770048857 -0.7805278301 0.4040329158
-0.13541602 -0.044493813 0.9326002 0.4473189414 -0.460210681 0.7668845654
-0.18134463 0.023226406 1.0190001 0.565641582 -0.7062770724 0.4257021546
-0.27345723 -0.0038778251 1.106125 0.6285290718 -0.6333730817 0.4514307678
0.047141872 0.043042578 1.169 0.1554077566 -0.5373931527 0.8288890123
0.0091287298 0.069986932 1.1570001 -0.8742305636 -0.212765187 0.4364079833
-0.2246467 0.050030489 1.1190001 0.6035295129 -0.7184534073 0.3457988203
-0.12504329 -0.1671586 0.94192857 -0.0414153859 0.6198750734 0.7836068273
0.0143323 -0.18509804 0.95729613 -0.6683414578 0.1926769763 0.7184672952
-0.07713718 0.0020612029 0.95736367 -0.4473316967 -0.6417487264 0.622938931
-0.13515028 -0.15542573 0.93189198 0.0748526454 0.46162799 0.8839098811
-0.02585027 0.00461565 1.053 -0.2804273069 -0.8950074911 0.3468747139
-0.12817799 0.0056580869 0.94663644 -0.2414359748 -0.2609691918 0.9346677065
-0.20535654 -0.19839887 0.96200001 0.2736411095 0.4173622131 0.8665617704
-0.094642706 -0.11549577 0.91488934 0.1768948287 0.07686472684 0.981223762
-0.1653778 -0.032278754 0.9473334 0.1104245484 0.1794152856 0.9775564075
0.040703636 -0.13081503 1.0633334 0.5890651345 -0.6584081054 0.468509376
-0.03208337 0.11786286 1.1556667 -0.5840755701 -0.6566184759 0.4771874845
-0.2216906 0.021514276 1.067 0.6507035494 -0.6570009589 0.380702883
-0.22655958 -0.1976366 0.9703334 0.4913009703 0.3677214682 0.7895595431
-0.014827063 -0.14416441 0.97193331 0.2079683095 -0.5626733899 0.8000923991
-0.10505504 -0.04555678 0.9244473 -0.1342602968 0.01705543883 0.9907993078
-0.065489337 -0.17518538 0.93377757 0.2201367468 0.3554656208 0.9083963633
-0.084866077 -0.21512873 0.96665758 0.1246715784 0.322317034 0.9383862615
-0.19034858 -0.23473364 0.97366667 0.4829962254 0.08059007674 0.8719059229
-0.074710853 -0.2043346 0.95559102 0.3067819476 0.514657557 0.8006325364
-0.23739183 -0.16489294 0.98156255 0.7016875744 -0.1768496484 0.6901875138
-0.17411125 -0.1142735 0.94800007 0.3189775348 0.1710989922 0.9321901202
-0.25116202 -0.19430774 0.98860008 0.7427964211 0.1483712494 0.6528701782
-0.19568339 0.047405753 1.0717273 0.5097286701 -0.7552955151 0.4119531512
-0.054921411 0.012174563 1.0160002 -0.7947451472 -0.5850041509 0.1617106348
-0.041859519 0.096442357 1.1157001 -0.6237283945 -0.5784138441 0.5257378817
-0.0045802197 -0.12587129 0.97720706 0.1488604099 -0.5395733714 0.8286743164
-0.054522477 -0.07536903 0.91461152 -0.1557870209 -0.1817528754 0.9709255099
-0.16599175 0.065875895 1.0734 0.4215789437 -0.8117235303 0.4041981697
-0.18840513 -0.062914155 0.96200007 0.472216785 -0.2012919635 0.8581916094
-0.055847391 0.14305861 1.1635002 -0.2386415452 -0.8681052327 0.4352511466
0.004926282 0.032956626 1.1240001 -0.3664935529 -0.7233474851 0.585193038
-0.06132108 0.03020292 1.044 -0.8531845212 -0.4346988797 0.2882933915
0.064342953 0.035746083 1.1650004 -0.235243544 -0.394937098 0.8880794644
-0.21779972 -0.022259662 0.99575007 0.5826656818 -0.6360726357 0.5058777332
0.031665199 0.053832591 1.2040001 -0.6518980861 -0.6096776128 0.4509124756
-0.034794856 0.055051371 1.0925238 -0.688403964 -0.3208889663 0.6504846215
-0.18221955 -0.027415415 0.94766665 0.4753387868 -0.1299926043 0.870146513
-0.13452713 -0.25105822 0.97740012 0.08977751434 0.468233943 0.879031837
-0.038479235 -0.038479239 0.94733334 -0.5606113076 -0.6392015815 0.5264372826
0.061758097 -0.0067516482 1.1840001 0.4981142282 0.322686106 0.8048328161
-0.080614761 -0.19031732 0.94800007 0.3810346425 0.5301195383 0.7574865818
-0.23581439 0.0063071302 1.0613333 0.6226354837 -0.6419802904 0.4474219382
-0.10498427 -0.21505037 0.96575028 0.07441677898 0.3066648841 0.9489039779
-0.016590917 -0.072552636 0.96233344 -0.9001073837 -0.005295710173 0.4356359541
-0.11431415 -0.27464861 0.92312515 0.3633536994 0.607491076 0.7063488364
-0.078101359 0.14098816 1.1570001 0.07448066026 -0.8368718624 0.5423080921
-0.23520011 -0.14550844 0.98376191 0.5048547983 0.2941225767 0.8115500808
0.05797806 -0.14629698 1.028 0.3826372325 -0.7321684361 0.5634874701
-0.22511087 -0.044463027 0.97387505 0.6160243154 -0.438298434 0.6545292735
-0.19511318 -0.045110855 0.95445472 0.227989912 0.1992643774 0.9530552626
-0.074957758 0.075497448 1.0631429 -0.4393714666 -0.7142487764 0.5447947979
-0.10587502 0.10181475 1.0905001 0.0644980073 -0.8973926902 0.4364932477
-0.020716218 0.027411029 1.0906668 -0.6589134932 -0.4850244522 0.5749645829
-0.17131527 -0.078667976 0.93800002 0.4093365073 -0.1607218832 0.8981158733
-0.11460234 -0.18825521 0.96200001 0.0104436418 0.4249643087 0.9051498771
-0.023812899 0.04677929 1.1021763 -0.71676296 -0.3683871329 0.5920656919
-0.14489368 -0.096529476 0.94000041 0.2576082945 0.05848301947 0.9644779563
-0.17445706 0.012355503 0.98736382 0.5263921022 -0.7122898698 0.4642784595
-0.058748938 -0.13117914 0.91800004 -0.284078002 0.2457632273 0.9267686605
-0.18083441 0.081131116 1.115 0.4931906462 -0.787799418 0.3689648807
-0.11470152 -0.10500911 0.92141682 0.3574120998 -0.205427289 0.9110742211
-0.15539882 0.08879932 1.1010001 0.4754547179 -0.7955074906 0.3756470382
-0.26647344 -0.084718004 1.0039999 0.6981244087 0.1875612289 0.6909725666
-0.24854289 -0.11094129 0.98100007 0.7236401439 -0.3757573068 0.5789225698
-0.040420469 -0.02150025 0.98100007 -0.524984777 -0.7170779705 0.4584649801
0.026247639 0.0028795316 1.0940909 -0.5038872957 -0.7270208001 0.4664100409
0.034561709 0.073443621 1.2320001 0.7814023495 -0.5455819368 0.3029038608
-0.084605061 0.12907924 1.1443334 0.0888755098 -0.8492498994 0.5204573274
-0.16794479 -0.0008439378 0.96266675 0.5348562002 -0.6385711432 0.5533134341
-0.044937488 -0.20467727 0.91497171 -0.3288744986 -0.2136624455 0.9198858142
-0.28093016 -0.10703223 1.026 0.8523013592 -0.1773370653 0.4920710623
-0.017710771 -0.035016991 0.97439998 -0.6520420313 -0.5784536004 0.4901352823
0.0031354609 0.063991912 1.1380002 -0.7764604092 -0.1812970042 0.6035235524
-0.085433334 -0.15690504 0.93195641 0.1904816478 0.4892918766 0.8510641456
-0.031266157 -0.054059014 0.94081819 -0.7231013179 -0.4085759223 0.5569471717
-0.1052862 -0.16440958 0.94150019 0.0945000872 0.5689069629 0.8169544339
-0.12448841 -0.13482459 0.92346162 0.184718132 0.2126805782 0.9595031142
0.00931809 0.057979226 1.1810001 -0.8874510527 -0.3984017074 0.2317470312
-0.031009452 -0.22041854 0.95600003 -0.1220721677 0.856562674 0.5013968349
-0.15537055 0.097837754 1.1255386 0.4095472395 -0.8250527978 0.3893057406
-0.28428897 -0.01740534 1.103 0.6683130264 -0.6092732549 0.4267831147
-0.12066177 0.11281385 1.1190001 0.2357512563 -0.8802373409 0.4118294716
-0.20711385 -0.072379939 0.97133338 0.4713888168 -0.04573523998 0.8807387948
-0.22450787 -0.072998807 0.97705555 0.3550779819 0.2116430253 0.9105640054
-0.0134393 -0.081531756 1.0220001 -0.9485850334 -0.1586615592 0.2738848627
-0.14611819 0.0075157364 0.95241672 0.2928088903 -0.6016842127 0.7431278825
-0.16491401 -0.06421458 0.94257158 0.4893175364 -0.3892368078 0.7804248929
-0.064688884 0.12221049 1.1352 -0.09422910213 -0.8408791423 0.5329569578
-0.19161215 0.00086702331 0.98900002 0.6026297808 -0.6653015614 0.4406939745
-0.17066683 -0.20093288 0.95900005 -0.02842358872 0.4330753386 0.9009094238
0.038219161 -0.14832674 1.0380001 0.4079438448 -0.7316064835 0.5461993217
-0.13852671 0.056935776 1.0227501 0.4471524358 -0.7293789387 0.5177461505
-0.14135198 0.070675991 1.0470001 0.4356579483 -0.8123984933 0.3875704408
-0.037109923 0.082950823 1.1057141 -0.702903688 -0.4523318708 0.5489282608
-0.011823165 -0.19599156 0.95200014 -0.5826836228 0.3035054207 0.7538993359
0.0033365933 -0.068248503 1.0380001 -0.948163867 -0.1091294661 0.2984561026
-0.047084101 -0.1873662 0.91650009 -0.09522801638 -0.4481951296 0.8888491392
-0.22874863 -0.17092369 0.97000003 0.6325984597 -0.1600013673 0.7577722669
-0.031442527 0.097641379 1.1326667 -0.6709342599 -0.530804038 0.5177781582
-0.13662547 0.026787335 0.97242093 0.3125007153 -0.7721495628 0.5532886982
-0.25756273 0.015448445 1.1154001 0.6378867626 -0.6433426738 0.42333287
-0.026644822 -0.087625749 0.94000012 -0.8218072057 0.06661369652 0.5658581853
-0.084031045 -0.065933742 0.92610699 0.2814969122 -0.3989571035 0.8726928234
-0.033015434 -0.15425877 0.9540953 -0.8049413562 -0.3544140756 0.4758782387
-0.26286602 -0.066880152 1.0057143 0.7543811798 -0.261803776 0.6019699574
-0.11362915 0.12569208 1.1470001 0.2360283881 -0.8993036151 0.3681624532
-0.20461874 0.054373495 1.0958 0.5475692749 -0.7329578996 0.4036590457
-0.25964588 -0.03049222 1.054 0.6387541294 -0.5799478889 0.5056220293
0.075361878 0.0050280346 1.1461203 -0.3137000501 -0.6048355103 0.731960535
-0.0060820212 0.013120486 1.095 -0.4197693467 -0.8153246045 0.3987975419
-0.071164295 0.10820872 1.1120001 -0.2119781375 -0.818184793 0.5344519615
-0.045322299 -0.10522261 0.92327774 -0.6309975982 0.1159184203 0.7670755386
-0.2452247 0.01532647 1.0926667 0.656127274 -0.637434423 0.403948456
-0.23789664 0.049185384 1.1450001 0.6028672457 -0.7343551517 0.3118871748
0.086023793 -0.011003044 1.141 -0.08754532784 -0.5651947856 0.8202991486
0.050975889 -0.16286555 1.0129999 0.3609188199 -0.8253665566 0.4341747165
0.0090971701 0.04851824 1.153 -0.8309241533 -0.2854288816 0.4775933623
-0.25322518 -0.00095556665 1.09 0.661162138 -0.6556783915 0.3646237552
-0.16281804 -0.020557834 0.93800002 0.07897157967 0.03674376756 0.9961994886
-0.055837043 0.055426762 1.0635556 -0.7943819165 -0.3232899606 0.5142382979
0.0026247399 -0.039371099 0.99800003 -0.7242232561 -0.4600693285 0.5136505365
0.05830681 -0.097593747 1.067 0.7234851718 -0.4393632412 0.5324745774
0.058731321 -0.045182839 1.1182728 0.2250815034 -0.6175519228 0.7536364794
-0.27135989 0.02095058 1.138 0.6563490629 -0.6656109095 0.355201453
-0.045063201 0.03450755 1.0734444 -0.6800566912 -0.471077323 0.5617908835
-0.034648057 -0.0040488848 1.0265 -0.4196248949 -0.8664278984 0.2705875337
-0.055058107 -0.024653427 0.95533341 -0.4247154891 -0.7161002159 0.5539108515
-0.012522103 -0.094962887 1.0037693 -0.3232464194 -0.7065880299 0.6294800043
-0.18094634 -0.0087503018 0.96600008 0.5599814057 -0.6172682643 0.5526307225
-0.18232037 -0.21265092 0.96640003 0.1245733723 0.4144151509 0.9015218019
-0.18428576 0.034794457 1.0335001 0.5412787795 -0.6568163037 0.524985373
-0.22467822 -0.10449795 0.9632501 0.5474472046 -0.2678362727 0.7928211093
0.057390109 0.055340458 1.169 0.03028336726 -0.4948247671 0.8684649467
0.057134874 0.094523951 1.2037144 0.5261681676 -0.6925705075 0.493450284
-0.12121845 -0.039863788 0.92800003 0.2611340284 -0.4395051599 0.8594441414
-0.045182411 -0.045808118 0.93451297 -0.3477581143 -0.6235409379 0.7001864314
-0.18610439 0.085012473 1.1328 0.5199821591 -0.7793318033 0.3496576846
-0.095308945 -0.13163902 0.9180001 0.1364315152 0.3239696324 0.9361784458
0.044673577 0.053591505 1.2159091 0.109199807 -0.8732859492 0.4748126864
0.040787794 -0.12141307 1.082 0.703019917 -0.5336239338 0.4701154232
-0.031254839 -0.18329912 0.9315455 -0.588596642 -0.3959527314 0.7048229575
-0.14573663 0.075215369 1.0725001 0.5402732491 -0.7285323739 0.4211239815
-0.28182203 -0.048972353 1.054 0.6726531386 -0.6167391539 0.4088649452
-0.11416313 0.085597053 1.0625556 0.1495115012 -0.8784942031 0.4537556767
0.04885488 0.00101781 1.161 0.9568243623 -0.2843687832 -0.06017883122
-0.075007603 -0.139127 0.92000002 -0.004182159901 0.3832344115 0.9236416221
-0.12506527 0.061639309 1.0190001 0.288192302 -0.8044362068 0.5194492936
-0.19119574 -0.0094311796 0.97800004 0.5922709107 -0.6333384514 0.4980939925
-0.093924142 -0.26748294 0.91259998 0.08848629147 0.470710218 0.8778394461
-0.0090656104 0.092670679 1.149 -0.6106441021 -0.5644498467 0.5554369092
0.062456697 -0.075064816 1.0856249 0.6896113753 -0.4908828437 0.5324191451
0.0735313 0.092533916 1.2040001 -0.3910579085 -0.6727160811 0.628113687
0.084478229 0.01526715 1.161 0.4153620601 -0.2287001014 0.8804377317
-0.10421645 0.046331327 0.99550009 -0.3446074426 -0.7376853228 0.5805739164
-0.15398538 -0.046144873 0.94621056 0.4308335781 -0.32196486 0.8430427313
-0.20508751 -0.18476212 0.95457166 0.3415952027 0.217288658 0.9143841267
-0.22513098 0.0042395601 1.0454999 0.6350858212 -0.583614707 0.5060235858
-0.046786383 -0.23296282 0.91494453 -0.3202664852 -0.006654784083 0.9473041296
-0.098192364 -0.2609815 0.98250008 -0.00268551521 0.4620108604 0.8868702054
-0.081747413 0.02869856 0.99200004 -0.2697310448 -0.7720552087 0.5754788518
-0.2464474 -0.08543127 0.99376464 0.6701316833 0.2139415294 0.7107408047
-0.20286767 0.0062416163 1.0168571 0.5509257317 -0.7279413342 0.4081449211
-0.16564149 -0.23536451 0.97216105 -0.1425726116 0.05366304144 0.9883285761
-0.1082017 -0.061016001 0.92800003 -0.1379449666 0.1280217767 0.9821311831
-0.18715431 0.047764309 1.0600001 0.5013412833 -0.7710527182 0.3925997913
-0.028780967 -0.068252005 0.93800002 -0.7825676203 -0.170478642 0.5987695456
-0.16196185 -0.25395733 0.98318189 -0.2853646576 0.586181283 0.7582601905
-0.20567463 0.02468255 1.0427144 0.5644309521 -0.6454594731 0.5145869851
-0.051907871 0.076562367 1.0815001 -0.6237673759 -0.4412774146 0.6451267004
-0.1214797 -0.069300503 0.93000007 -0.04276511073 0.1495907158 0.9878227115
-0.07486698 0.047221128 1.024 -0.4669826627 -0.7341974974 0.4928297997
