# .PCD v0.7 - Point Cloud Data file format
VERSION 0.7
FIELDS x y z normal_x normal_y normal_z
SIZE 4 4 4 4 4 4
TYPE F F F F F F
COUNT 1 1 1 1 1 1
WIDTH 512
HEIGHT 1
VIEWPOINT 0 0 0 1 0 0 0
POINTS 512
DATA ascii
-0.17504841 0.075020753 1.141 -0.5309481025 -0.7047410011 0.4705680013
-0.20699413 -0.31713066 0.89099997 0.325915128 0.4947848618 0.8055850267
-0.33704326 -0.060156867 0.94000006 0.6951950192 -0.5179892778 0.4983884394
-0.068435632 -0.12528977 1.0037693 0.6298579574 -0.4427458644 0.6381653547
-0.07417389 -0.015305723 1.3430001 -0.9013094902 -0.424441278 0.08654943109
-0.37061697 -0.25158143 0.96300006 0.7151330113 -0.05379422382 0.6969152689
-0.10215183 -0.083578773 1.177 -0.9686048627 0.01414619572 0.2482025474
-0.1870961 -0.14490204 0.87664533 -0.5052362084 -0.02249841206 0.8626877666
-0.19518831 -0.025005218 1.0142001 -0.4235860705 -0.8570258617 0.2933965027
-0.32254845 0.067958325 1.1570001 0.4087324142 -0.8564114571 0.3154318929
-0.31246978 0.032506552 1.034 0.3264832795 -0.8160839677 0.476881206
-0.10923705 -0.22090159 0.92300004 -0.564715445 0.306771487 0.7661512494
-0.29825076 -0.17493883 0.90999997 0.4403452277 0.001438125269 0.8978273869
-0.077421933 -0.029269271 1.077 -0.3388134837 -0.5241084099 0.781355083
-0.41370535 -0.14886349 0.98725003 0.5591574907 0.287564218 0.7775922418
-0.23055457 -0.0502593 0.91000003 -0.4314497411 -0.5479410291 0.7166671157
-0.15491088 -0.11470305 0.96350008 -0.2781893909 -0.5720927715 0.7715701461
-0.28415588 -0.29108015 0.94060004 0.3246288598 0.1622369885 0.9318236113
-0.22478117 0.054189175 1.0633751 -0.4464704394 -0.6679912806 0.5953585505
-0.060119752 0.0030569367 1.1623334 -0.8634511232 0.1257314831 0.488511771
-0.21448158 -0.22506946 0.91300029 0.04030773416 0.5152640939 0.8560830951
-0.097269893 0.092602953 1.1835002 0.3693870008 -0.6020265222 0.7078963518
-0.13241892 -0.085168339 1.0446001 -0.9596791267 -0.2475715131 0.1331325024
-0.26599309 0.0038298473 0.9639411 -0.2429107726 -0.8083923459 0.5361866951
-0.15480377 0.012889268 1.0817647 -0.1758525223 -0.7305880189 0.6597856283
-0.25096336 0.10158287 1.136 0.008091874421 -0.9378481507 0.3469516039
-0.15436061 -0.25453579 0.86838228 -0.3737415671 0.06772831827 0.9250568151
-0.27537751 -0.10517327 0.88774419 0.1315706968 0.03420199454 0.9907165766
-0.35460168 -0.13387261 0.93551415 0.3956626058 0.1786214858 0.9008581638
-0.12203068 -0.027090315 1.1339999 -0.8066743612 0.4211352468 0.4146342874
-0.10577685 -0.1820749 0.98900002 0.6299183369 -0.6762990952 0.3818670511
-0.28810334 0.068323016 1.09 0.3064334095 -0.8301039934 0.4658603966
-0.10471278 0.044767864 1.1328148 -0.1817847639 -0.5964930058 0.7817610502
-0.16711956 -0.04855993 0.95688891 -0.443808496 -0.7401792407 0.5051422715
-0.13220559 -0.15839215 0.91714293 0.2904072404 -0.5055101514 0.8124796152
-0.17571385 -0.085706413 0.90481585 -0.6683159471 -0.4331682622 0.6047471166
-0.32175103 -0.23225951 0.91800004 0.4547039568 0.172731027 0.873732388
-0.22793628 -0.31464213 0.95100015 0.08061701059 0.4603216648 0.8840842247
-0.28891602 -0.02977686 0.91800004 -0.01670727506 -0.5654326677 0.8246251941
-0.13282138 -0.025240058 1.0348237 -0.9068644047 -0.3152684271 0.2796475589
-0.24582165 -0.16488911 0.88112819 0.3016984761 0.1324396729 0.9441598058
-0.12094348 -0.082243897 1.1036667 -0.962392509 0.2145274729 0.166669324
-0.36511183 -0.19542003 0.93659979 0.4660049081 0.2681410611 0.843172431
-0.14746673 0.061705936 1.1930001 -0.3473079503 -0.08525485545 0.9338676333
-0.2448017 0.025293039 1.0154446 -0.3914939761 -0.77054286 0.5029872656
-0.16933517 -0.20026398 0.88200003 0.2998257577 -0.4445743263 0.8440724015
-0.073008806 -0.081222288 1.041 0.469415307 -0.5575022101 0.6847193241
-0.38131198 -0.09782882 0.96700013 0.7579544187 -0.3894454539 0.5232946873
-0.21497224 -0.026512371 0.96399999 -0.558251977 -0.7671099901 0.3160647452
-0.26960129 -0.24062921 0.91800004 -0.06994305551 0.4608502984 0.8847174644
-0.19933499 -0.27490982 0.93700004 -0.05365457386 0.3692159355 0.9277935028
-0.22517948 -0.10422473 0.88267487 0.3701510429 -0.3859703541 0.8449941278
-0.31778541 -0.10275567 0.92133331 0.1732755452 0.1848383397 0.9673729539
-0.20262903 0.006868585 1.0522223 -0.5143441558 -0.5249585509 0.6781361699
-0.15159564 0.028015811 1.1332 -0.5567365885 -0.7419505715 0.3735688627
-0.14008169 -0.034305722 1.087 -0.8492389321 0.06862594187 0.5235300064
-0.18511727 0.053486951 1.0933334 -0.5068408847 -0.5854742527 0.6327181458
-0.2529285 -0.30563009 0.9044286 -0.5073245764 0.7400456667 -0.4415361881
-0.40115187 -0.19501305 0.9756667 0.7475375533 -0.06993898749 0.6605272293
-0.07663855 0.0045684557 1.1160556 -0.6184487939 -0.4603812695 0.6368439198
-0.20624128 0.10199963 1.1658 -0.3670376539 -0.880443275 0.3001716137
-0.10042831 -0.036237016 1.1810001 -0.9854127169 -0.1013707593 0.1366959065
-0.086956233 -0.18407947 0.94261551 -0.8446733356 -0.3401159048 0.4133377671
-0.15085189 -0.084468588 1.0016 -0.384870708 -0.7718755603 0.5060460567
-0.33127481 -0.27194199 0.94000006 0.299790591 0.5014201999 0.8116054535
-0.093288071 -0.12255471 1.04325 0.7655051947 -0.3549721539 0.536653161
-0.30966058 0.0095951166 0.99500006 0.3161937892 -0.8482885361 0.4247682691
-0.21559282 0.082771748 1.1155455 -0.4656047821 -0.7714273334 0.4337188601
-0.19309475 -0.27612308 0.86268437 -0.03139061853 0.3180611134 0.947550416
-0.27423009 0.053239089 1.0434 0.1346509606 -0.8782684803 0.4588175416
-0.26455972 -0.20254521 0.8955 0.1299737096 0.4914544523 0.8611500263
-0.15543839 -0.027287785 0.99612504 -0.3924123943 -0.7783064842 0.4901545942
-0.1606048 -0.12541366 0.92060006 -0.889189899 -0.1222973317 0.4408908188
-0.11416101 0.0049368469 1.0929232 -0.777684927 -0.4778139889 0.4085339308
-0.37866566 -0.16192383 0.96200007 0.5837904811 0.1735315323 0.7931427956
-0.11845958 0.037084751 1.1750001 0.56340909 -0.6804873347 0.4685159326
-0.30460352 -0.13532557 0.89746165 0.2467271686 0.02505038865 0.9687611461
-0.21120566 -0.19094238 0.88900006 0.122549966 0.5204022527 0.845081687
-0.14293313 -0.24342579 0.91560006 -0.4309063852 0.8530575037 0.2943001986
-0.24467219 -0.27532339 0.93088913 0.004835038446 0.3061196208 0.9519807696
-0.28698975 -0.074042618 0.91187501 0.303961575 -0.2747404575 0.9122088552
-0.069447778 -0.15690054 0.97800004 0.5336155295 -0.704354465 0.4681231678
-0.22774462 0.003229002 0.987091 -0.6538840532 -0.6671910286 0.3567797542
-0.30263674 -0.012505651 0.95100003 0.4189011157 -0.6954725385 0.5838148594
-0.1344434 -0.19444345 0.90115434 -0.2658263743 -0.3562207222 0.8957918882
-0.1983784 -0.048510473 0.9334287 -0.339785099 -0.8261509538 0.449467063
-0.24502102 -0.023226587 0.93410522 -0.09173500538 -0.8176810741 0.5683153868
-0.15756242 -0.082217015 0.94100004 -0.9277878404 -0.1589661986 0.3375492096
-0.33515587 -0.16498119 0.91283876 0.387454927 0.2136468589 0.8967908025
-0.1091998 -0.064676084 1.135 -0.9567613602 0.08617731929 0.2778149247
-0.25388968 0.081744783 1.097 0.06227011606 -0.8687976599 0.4912362099
-0.12422016 -0.11990696 0.98400003 -0.6150680184 -0.6913694143 0.3790774047
-0.090989232 -0.066600367 1.0700001 0.03579999506 -0.6478312016 0.7609422803
-0.093995318 -0.1507459 1.0115 0.6453379989 -0.5336025953 0.5466325283
-0.11258767 0.072015539 1.1570001 -0.2283417881 -0.7530224919 0.6171038747
-0.25448254 -0.074837089 0.8881219 0.06365279108 -0.2042586207 0.976845324
-0.1270818 -0.13240533 0.94200009 0.369174391 -0.6017614007 0.7082326412
-0.32802236 -0.19594377 0.93000019 0.5143715143 0.191708982 0.8358646035
-0.274138 0.024819603 0.99439996 0.04624926299 -0.8659265637 0.4980282784
-0.17005579 -0.0111512 1.0600001 -0.3419468403 -0.6569233537 0.6719554067
-0.12686975 -0.064767256 1.0733333 -0.9249122739 -0.1601106673 0.3448214233
-0.27041924 -0.14564064 0.89800012 0.3355146348 -0.1282154918 0.9332688451
-0.34837019 -0.22558114 0.94488895 0.7214773893 0.06874168664 0.6890173554
-0.35153356 -0.095403977 0.92750001 0.6383559704 -0.2647482455 0.7227793932
-0.16334361 -0.1681013 0.90450001 -0.8209566474 -0.2998058498 0.4859491587
-0.29447535 -0.2151567 0.90696025 0.202709794 0.2680313587 0.941842854
-0.18806021 -0.24461667 0.92155564 0.08714057505 0.4618215859 0.8826819062
-0.31868193 -0.062879942 0.91183335 0.4367855191 -0.3819683194 0.8144437671
-0.12751354 -0.0063609346 1.0645455 -0.3800516129 -0.7477418184 0.5444657207
-0.20510463 -0.070562318 0.90100002 -0.05087776855 -0.7380223274 0.6728554964
-0.15201312 0.056752771 1.156 -0.896884501 -0.3456614614 0.2758919895
-0.18194719 0.082890876 1.177 -0.5933541656 -0.7986885905 0.1001369655
-0.13112521 -0.10525566 1.0175 -0.876552999 -0.4412106276 0.1923227608
-0.19055226 -0.10106213 0.88000005 -0.4043600857 -0.2992528975 0.8642572761
-0.18613002 0.025235062 1.0736189 -0.6228366494 -0.5004323721 0.6013667583
-0.23279987 -0.13518672 0.87672234 0.4193341732 -0.1359579563 0.8975936174
-0.27781415 0.088664532 1.1237501 0.2018407583 -0.8649849892 0.4594140649
-0.11606068 -0.046129923 1.1047367 -0.945771277 -0.2660236657 0.1864083558
-0.14586 -0.22484387 0.87688375 -0.5021916628 -0.2895536423 0.8148387671
-0.1248198 -0.10005397 1.13 -0.9143307805 0.3427413702 0.215702638
-0.12387335 0.024147442 1.1165 0.02478322014 -0.8584491611 0.5122994781
-0.3133859 -0.037630413 0.93614292 0.6260550618 -0.6054328084 0.4914327264
-0.1078522 -0.18603656 0.91489488 -0.6825492382 -0.1979020685 0.7035348415
-0.35746363 -0.16502124 0.93438458 0.7385158539 -0.1535031348 0.6565296054
-0.21485706 -0.0037416862 1.02475 -0.6453662515 -0.6764553189 0.3548389077
-0.14476836 -0.05188727 0.98100013 -0.6462244391 -0.5224663019 0.5562579632
-0.23577335 -0.24532613 0.92117393 0.06902828068 0.4110074639 0.9090148211
-0.38334507 -0.1356703 0.94725001 0.629496336 0.174877882 0.7570680976
-0.30115691 0.049111743 1.057 0.3263668716 -0.8711659312 0.3668168187
-0.14346881 -0.056916133 1.0453334 -0.8506338 -0.3858267069 0.3571553528
-0.26471281 0.068524428 1.07075 0.1755764484 -0.8742713332 0.45257321
-0.21479419 -0.16499099 0.87399983 0.03675066307 0.3469316363 0.9371700883
-0.095772721 -0.01270212 1.1340001 -0.3727473915 0.5825041533 0.7223214507
-0.23563245 -0.2070767 0.90194446 -0.01798121259 0.5761072636 0.8171762824
-0.18493588 -0.1748805 0.88266665 -0.3067163229 0.1759494692 0.9353966117
-0.29482386 -0.25467008 0.92521614 -0.01146391779 0.5409954786 0.84094733
-0.16307549 0.046379935 1.1130002 -0.7870429754 -0.3371735215 0.5166018009
-0.18264122 -0.22121631 0.89800006 0.4002158046 0.5770234466 0.7119489312
-0.38474619 -0.21115042 0.95200008 0.5644643307 0.4673085213 0.6804430485
-0.15370427 -0.14447191 0.94407159 -0.6749703288 -0.5435912609 0.4989224076
-0.33228931 -0.1358242 0.91677785 0.6507830024 -0.2655671835 0.7113055587
-0.22542629 0.0730289 1.0855999 -0.3584924042 -0.7528373599 0.5520136356
-0.25430301 -0.30344608 0.94573325 -0.1970187277 0.5139451027 0.8348916769
-0.24619955 0.04551382 1.0439999 -0.2218648493 -0.8005429506 0.5566928983
-0.22368149 0.0285355 1.0500001 -0.672717154 -0.4268875122 0.6043332815
-0.27606234 -0.010712867 0.94000006 -0.1645294726 -0.7492676973 0.6415044069
-0.077212155 -0.10468896 1.0248234 0.7361848354 -0.3243744373 0.5939807296
-0.26808679 -0.052383967 0.9112857 0.2066962421 -0.5555836558 0.8053591847
-0.20630665 -0.12496361 0.8689999 -0.1647149473 -0.1195666045 0.9790673256
-0.17228255 -0.22459857 0.86573339 -0.03193122894 -0.3942103088 0.9184653759
-0.18503824 -0.034347538 0.97399992 -0.1739284396 -0.8982461095 0.4036121964
-0.23671052 -0.0092334915 0.95750004 -0.4105637372 -0.7817780375 0.4693191648
-0.12518479 -0.093186453 1.0736667 -0.9718046188 -0.08021766692 0.2217227072
-0.1674144 -0.28399485 0.8720001 -0.2841751873 0.3277136087 0.9010262489
-0.17275578 -0.12463775 0.8950001 -0.7915771008 -0.09896455705 0.6030021906
-0.064669073 -0.02123462 1.1010001 -0.556065321 -0.667340517 0.4954271019
-0.22584808 -0.29730716 0.88375008 0.4048463106 0.3700608015 0.8361545801
-0.12792583 0.031225991 1.149 -0.0882435739 -0.9672540426 0.2379761487
-0.27508792 -0.17504168 0.8938067 0.4897475541 -0.02222642303 0.8715809584
-0.17525204 -0.065123126 0.92409086 -0.5382020473 -0.6553778648 0.5299230218
-0.11270626 -0.044621769 1.1544545 -0.9399427176 -0.2282921076 0.2537526786
-0.26829478 0.040795099 1.0190001 -0.08007533848 -0.8474333882 0.524828136
-0.18115528 -0.25059605 0.86100006 -0.3261463046 0.07786953449 0.9421066642
-0.29524609 0.027688235 1.0136924 0.3369050622 -0.8075789213 0.4840570986
-0.195546 0.092447765 1.1428182 -0.3567560911 -0.8451833129 0.3979827464
-0.096102998 0.023927389 1.1186001 -0.1594819576 -0.3611396551 0.9187729359
-0.20895262 -0.019941537 0.98900002 -0.632095933 -0.726980269 0.2682432234
-0.18933107 0.071612269 1.1190001 -0.4056130052 -0.7318676114 0.5475836396
-0.18707003 -0.30143118 0.87300009 -0.02559033409 0.5008491278 0.8651562333
-0.15908387 0.020370666 1.1065 -0.6145729423 -0.6493221521 0.4479741752
-0.23308551 0.10625404 1.1543332 -0.2896652818 -0.890963316 0.349683255
-0.25589454 -0.12461799 0.89321429 0.3447066844 0.02274320647 0.9384348989
-0.22510827 -0.29089335 0.93800008 0.01403544564 0.4751947522 0.8797686696
-0.29744965 -0.10486221 0.90146154 0.5939107537 -0.3085390627 0.7430166006
-0.30472475 -0.27524307 0.9402312 0.1107194722 0.5179904103 0.8481904864
-0.11733548 -0.022328481 1.08375 -0.8200688362 0.2834625542 0.497127831
-0.29501769 0.0051303622 0.97437495 0.2802420855 -0.8397094607 0.4651369452
-0.12175673 0.089769788 1.177 0.4351061881 -0.5524832606 0.7109464407
-0.36416692 -0.22476171 0.96481836 0.4790509045 0.3458360732 0.8067884445
-0.14482731 -0.072377264 1.023154 -0.800573051 -0.4809125364 0.3574995697
-0.16154775 -0.093167752 0.97500002 -0.8740311861 -0.3185564578 0.3668668568
-0.11030702 -0.015620008 1.1135001 -0.749915123 0.6273556352 0.2098860741
-0.1288836 -0.22117028 0.90750003 -0.5154389143 0.3934512734 0.7612612844
-0.40336797 -0.16258161 0.96553856 0.5180822015 0.3344203532 0.7872444987
-0.087610275 -0.17127262 0.96400005 0.5610387921 -0.7359647155 0.3789345324
-0.38196862 -0.18636034 0.95900005 0.7903295159 -0.2004822195 0.5789526105
-0.087897934 -0.012555445 1.1018 -0.08394229412 -0.7458043694 0.6608551741
-0.35702777 -0.27070415 0.95600003 0.6106062531 0.127727434 0.7815662026
-0.18630296 -0.015528087 1.0348825 -0.4944336414 -0.7227307558 0.4829033017
-0.067548186 -0.051524188 1.0751668 -0.09775621444 -0.5408865213 0.8353953958
-0.26486865 -0.29846078 0.92445469 -0.1130919978 0.8874284625 -0.4468567669
-0.2547875 0.012628909 0.9865334 -0.3167295456 -0.7836962938 0.5343244076
-0.15772556 -0.10524885 0.93373692 -0.9554373026 -0.09863252938 0.2782287002
-0.09838742 -0.063901111 1.1570001 -0.9665611386 -0.01048139855 0.2562219501
-0.33460096 -0.08519394 0.91368192 0.5048028827 -0.1252178699 0.8541045189
-0.071019642 0.0050013834 1.141 -0.8639613986 -0.39154917 0.3166385591
-0.22380659 -0.034379844 0.93303454 -0.5145055056 -0.7274630666 0.4539620876
-0.23504308 -0.18523493 0.88777757 0.01250520814 0.4574654996 0.8891394138
-0.33565065 -0.24445114 0.93313062 0.5913301706 0.134310931 0.7951661348
-0.1564986 0.064060219 1.1307499 -0.7054994106 -0.5587515235 0.4359670877
-0.31449881 -0.15570252 0.9048788 0.168661505 0.3502911031 0.9213302732
-0.1559632 -0.016227186 1.0172001 -0.2462411076 -0.8911345601 0.3811095357
-0.13540649 -0.096193753 0.98784012 -0.488663882 -0.7115428448 0.5048905015
-0.26358911 -0.26155525 0.92800003 0.06693063676 0.3102782369 0.9482867122
-0.37217587 -0.10678571 0.9472 0.7484816313 -0.3648630977 0.5537600517
-0.13664681 -0.034123525 1.013353 -0.5483244658 -0.7165929079 0.4310856462
-0.25688085 -0.21938583 0.91000003 -0.02730423398 0.5368698835 0.8432230949
-0.23491682 -0.084876552 0.89607137 -0.1055692434 -0.2102718353 0.9719263911
-0.24474846 0.093905024 1.1147275 -0.04466753826 -0.8873101473 0.4590049684
-0.20515241 0.034403618 1.0629166 -0.5219897628 -0.5395123363 0.6606460214
-0.21480627 -0.25448743 0.92522842 0.01187190879 0.3944073319 0.918859005
-0.22434455 0.096127667 1.1323334 -0.3088368773 -0.8821489811 0.3555741012
-0.28586495 -0.19454584 0.90120709 0.3888187408 0.1129100174 0.9143693447
-0.26599124 -0.032017153 0.93088245 -0.09635090828 -0.6357053518 0.765895009
-0.1433273 0.04678604 1.1743335 -0.6183982491 -0.6739653349 0.4041712284
-0.20546199 0.063198462 1.0940557 -0.46219033 -0.7018851042 0.5419754386
-0.15630148 -0.18808372 0.89689475 -0.4535057545 -0.6211041212 0.6391886473
-0.25316718 -0.097231358 0.89181828 -0.05790770054 0.03783137351 0.997604847
-0.15645896 -0.14745484 0.92199999 -0.7994430065 -0.1498844177 0.5817435384
-0.089574292 -0.16088587 0.99200004 0.5761461258 -0.6731059551 0.4636636972
-0.28484076 -0.12550104 0.89352667 0.05470594764 0.2569163144 0.9648840427
-0.17656417 -0.022547282 1.002 0.0531508252 -0.9556646943 0.2896204293
-0.33625299 -0.11845143 0.93000019 0.2941210866 0.3119415045 0.9034297466
-0.13342166 0.015781753 1.0910001 -0.1468233466 -0.8910377026 0.429528445
-0.35154682 -0.25098616 0.94800007 0.6807958484 0.01963772625 0.7322099209
-0.30712238 -0.1949089 0.912 0.5122880936 -0.05290852487 0.8571823239
-0.088829562 -0.13099986 1.0235001 0.7386977077 -0.428344816 0.5204290748
-0.30551416 -0.08492393 0.91627789 0.09041184187 0.1617589742 0.9826799035
-0.2262813 0.014933378 1.0239092 -0.782930553 -0.4985552132 0.3721054196
-0.30356771 -0.045704965 0.9147222 0.4222796857 -0.4917315543 0.7614985108
-0.10941238 -0.083990216 1.145 -0.8924036622 0.305500567 0.3320920169
-0.29043266 0.080621772 1.108 0.2587811649 -0.8249273896 0.50252074
-0.12477188 -0.17541985 0.90589195 -0.1258946955 -0.4254832566 0.896166563
-0.14872913 -0.010289436 1.067 -0.02225173265 -0.8031701446 0.5953339934
-0.07503622 -0.14426461 0.99473912 0.5640326142 -0.5783467293 0.58939147
-0.21475086 -0.085198745 0.888282 0.1779254675 -0.4995220602 0.8478326797
-0.18282825 0.0062051923 1.0613333 -0.5455355644 -0.5005552769 0.6721869707
-0.16727802 -0.10550619 0.90334612 -0.8631353974 -0.153241843 0.48115924
-0.14388227 -0.17648394 0.91645837 0.03083604202 -0.6970974803 0.7163129449
-0.2949861 -0.23527597 0.91460592 0.0001028530896 0.4176192284 0.9086221457
-0.12820987 0.051075477 1.189 0.04234403744 -0.205534637 0.9777333736
-0.19693156 -0.037955169 0.95646673 -0.3408076167 -0.8644483089 0.3695663512
-0.38709918 -0.12059952 0.96200007 0.7945702076 -0.2812682688 0.538095057
-0.27550781 -0.084886916 0.89425021 0.447019428 -0.3642028272 0.8170250654
-0.075502321 -0.06448514 1.05392 0.2157859951 -0.7097505927 0.6705896854
-0.34515005 -0.20466881 0.94262975 0.4333902299 0.3572167456 0.8273869157
-0.20779805 -0.20753531 0.90183336 0.1928041279 0.5705595613 0.7983034253
-0.39233711 -0.17576291 0.97800004 0.5905130506 0.1555023044 0.7919048667
-0.20771739 0.050041009 1.077 -0.5325322747 -0.6283482909 0.5670871139
-0.29351386 0.041597456 1.0347143 0.3290673494 -0.8286616206 0.4528074563
-0.13554116 -0.11723678 0.95576924 -0.02280151285 -0.7988177538 0.6011407971
-0.2458172 0.061690226 1.064923 -0.1915645897 -0.8091695905 0.5554705858
-0.09789864 -0.20342669 0.92122227 -0.8129200935 0.1174098626 0.570417285
-0.24548133 -0.056710735 0.89686966 -0.1822042167 -0.5542471409 0.8121648431
-0.34495825 -0.18467006 0.92523819 0.3825499117 0.4089812338 0.8284865022
-0.10632201 0.0047685183 1.1152501 -0.449529469 -0.06198789179 0.8911120892
-0.11210813 -0.065315172 1.1120001 -0.9737560749 0.07402026653 0.2152211219
-0.13519761 -0.048484404 1.0636002 -0.9151843786 -0.2127606869 0.3423017561
-0.17486453 0.035550222 1.0935 -0.7260860205 -0.3479301333 0.593079865
-0.21574898 -0.0074832267 1.0045 -0.7361147404 -0.6313254237 0.244056046
-0.23499373 -0.22533806 0.91432345 0.02844790369 0.4818844199 0.8757728934
-0.36670482 -0.14684933 0.9517501 0.5452871919 0.2999195755 0.7827580571
-0.32019374 -0.17985693 0.92000002 0.2437691242 0.3932841718 0.8865123391
-0.31529889 -0.2543034 0.92544436 0.1833057255 0.5092352033 0.8408796191
-0.19739035 -0.057931971 0.91530007 -0.2627193034 -0.7883906364 0.5562542081
-0.25594899 -0.011394038 0.95100009 -0.1857970506 -0.7817540169 0.5952647328
-0.28610075 0.058286935 1.0723335 0.3137117028 -0.8615461588 0.399153024
-0.24439669 -0.036901567 0.91679168 -0.05353419483 -0.7372217178 0.6735267043
-0.11309011 -0.16398294 0.92144448 -0.3838833869 -0.4585637748 0.8014691472
-0.21102504 -0.14474642 0.86900002 -0.01090213843 0.05267737061 0.998552084
-0.11739689 -0.20445508 0.90687513 -0.5097548962 0.1901898682 0.8390338421
-0.17049816 -0.15198892 0.89460009 -0.8046690226 -0.1142087579 0.5826355219
-0.14541861 -0.011889572 1.0432501 -0.2026651204 -0.9552747607 0.2153531462
-0.165047 -0.036858942 0.9735713 -0.3770729303 -0.7460262775 0.548872292
-0.19371344 -0.2009874 0.88900006 0.2203855664 0.4095184207 0.8852823377
-0.14554474 -0.20634048 0.88478374 -0.5791386366 -0.4455663264 0.6826925278
-0.088523172 -0.093998827 1.041 0.7632545829 -0.3341914117 0.5529544353
-0.097035609 0.062116217 1.149 -0.2648598552 -0.7317091823 0.6280533075
-0.25510105 -0.18513444 0.88677126 0.1715978831 0.3050165176 0.9367598891
-0.20658471 -0.29702085 0.8712669 0.1752365828 0.4940566123 0.8515868783
-0.370933 -0.17509113 0.94657147 0.7424631715 -0.163897723 0.6495274901
-0.25426561 -0.14560604 0.88617861 0.5054116845 -0.2026936263 0.8387337327
-0.33111823 -0.2153558 0.92700005 0.6589363217 -0.05852970108 0.7499181628
-0.12112662 -0.06559132 1.0922501 -0.9406915903 -0.02479022741 0.3383559287
-0.26551044 -0.2841818 0.9379999 0.1385702789 0.07243767381 0.9876998663
-0.15342076 -0.061086718 0.96333337 -0.6238695383 -0.6059976816 0.493511498
-0.23427221 0.035828643 1.0317827 -0.540215373 -0.642008841 0.5440514684
-0.16234496 -0.063229926 0.94216675 -0.6655969024 -0.5795943141 0.4701607823
-0.29499802 -0.15568236 0.90876007 0.1592944413 0.268470943 0.9500256181
-0.22901404 0.012332289 1.00475 -0.6838610172 -0.6433730721 0.3441005945
-0.14669789 -0.16205929 0.93050009 0.08789506555 -0.6294301748 0.7720700502
-0.1951571 -0.22741421 0.91233331 0.2194625884 0.5859899521 0.7800332904
-0.10462447 -0.032039538 1.1420001 -0.7719506621 0.4164237082 0.4802952111
-0.24160057 -0.30862522 0.88900006 0.4655644298 0.6661909819 0.5826141834
-0.163055 -0.084286578 0.92256528 -0.8522731066 -0.2280563563 0.4707662761
-0.14224355 0.01863881 1.1190001 -0.1878989041 -0.9423776865 0.2768001258
-0.31463727 -0.21490462 0.91365641 0.503439486 -0.04719399288 0.8627406359
-0.34674552 -0.15348905 0.9233126 0.6744436622 -0.22310175 0.7038120627
-0.067124613 -0.0088841403 1.126 -0.7326586246 -0.5713979602 0.3697509766
-0.19055225 -0.1249776 0.88000005 -0.5488903522 -0.07299100608 0.8327014446
-0.36397833 -0.11545899 0.93219066 0.5291652679 0.03840639815 0.847649157
-0.21490838 -0.052781694 0.9203158 -0.3033201694 -0.7104907036 0.6349802017
-0.31869441 -0.12355674 0.91225004 0.5888267159 -0.2391260564 0.7720763087
-0.14475784 0.037456084 1.1547143 -0.5890850425 -0.6933356524 0.4150476456
-0.19371527 -0.081704095 0.89099991 -0.3363549113 -0.5932509303 0.7313814163
-0.31171024 0.01864933 1.013 0.3287280202 -0.8213747144 0.4661346078
-0.26343316 0.092306502 1.1122502 0.1761981547 -0.8664163351 0.4672011435
-0.27535498 -0.21470776 0.90483344 0.03684648126 0.482742399 0.8749869466
-0.13636638 -0.14427307 0.93100017 0.3504677415 -0.5772901773 0.7375014424
-0.091839597 -0.040712401 1.08 -0.1884360313 -0.4877763689 0.8523884416
-0.086980328 0.033404313 1.1317779 -0.2070616335 -0.4850507379 0.8496183157
-0.33543342 -0.10412247 0.91578138 0.2149591297 0.3599766195 0.9078598022
-0.34206307 -0.049344059 0.95400006 0.673830688 -0.5381536484 0.5063031316
-0.39504528 -0.21278191 0.96700007 0.7780632973 0.3975931406 0.4863508642
-0.12497813 -0.03708142 1.1190001 -0.9715940952 -0.01430180296 0.2362211198
-0.13737971 -0.043333635 0.99533337 -0.5857791305 -0.6021398902 0.5424853563
-0.14510427 -0.10319721 0.97363657 -0.3816440403 -0.7426357865 0.5503088832
-0.18554218 -0.047726084 0.94626671 -0.344610095 -0.8368525505 0.4253489375
-0.34831238 -0.074285671 0.94150007 0.74226439 -0.467491895 0.4800988734
-0.2845372 -0.0027285956 0.95366681 0.1064747199 -0.8249572515 0.5550753474
-0.099646755 -0.1822612 0.97150004 0.6092922091 -0.7044733763 0.3639784157
-0.15812996 0.044640213 1.1316 -0.9025195837 -0.2259421647 0.3666176498
-0.15590377 -0.10087891 0.95100003 -0.9631440639 -0.1821220666 0.1979521215
-0.1567654 -0.23613346 0.86841673 -0.3706788421 -0.1641802788 0.914134562
-0.11907588 -0.14742553 0.92400002 0.192863822 -0.5270419121 0.8276655674
-0.29232714 -0.016968468 0.93666673 0.3350956738 -0.7198366523 0.6079030037
-0.22511482 -0.070957258 0.90100002 -0.1116031557 -0.5928017497 0.7975780964
-0.28387627 -0.27393129 0.93635303 0.1842774302 0.3539762199 0.9169201851
-0.24445966 -0.0020304271 0.97161543 -0.2467402816 -0.8419642448 0.4798077047
-0.12683925 -0.045023263 1.0824445 -0.8780597448 -0.1761330217 0.4449587464
-0.39220837 -0.14641444 0.958 0.4298305809 0.3455084264 0.8341879845
-0.24527985 -0.25719577 0.93000025 0.01311714947 0.2710131109 0.9624862671
-0.28535488 -0.054253355 0.91395563 0.03477469832 -0.243130967 0.9693699479
-0.24541846 0.074168153 1.0836666 -0.09444885701 -0.8403823376 0.5337011814
-0.10363652 0.078445792 1.1756667 -0.2011343241 -0.7184633613 0.6658493876
-0.1680913 -0.175951 0.88677788 -0.6282489896 -0.1994350255 0.7520165443
-0.10890567 -0.09058509 1.161 -0.8928810954 0.3312632442 0.3050049841
-0.13250904 -0.064864568 1.057 -0.9060961604 -0.265439868 0.3294410706
-0.11549381 -0.077983007 1.126 -0.9341512918 0.2909629345 0.2066445947
-0.16057816 -0.13031211 0.95900005 0.3559674621 -0.5289895535 0.7703617215
-0.23535852 0.082617059 1.0958 -0.1585187763 -0.8316111565 0.5322543383
-0.17517082 0.063811585 1.124125 -0.4707216322 -0.6854714751 0.5554727912
-0.28839469 -0.14144199 0.89800006 0.03092054464 0.2409861088 0.9700359106
-0.2244799 -0.27502251 0.93221062 -0.06612916291 0.3303639293 0.9415341616
-0.28556991 0.015988318 0.98562497 0.2049088925 -0.8611586094 0.465207696
-0.330854 -0.064873338 0.92500007 0.6879074574 -0.5174793601 0.5089188814
-0.1653005 0.0046982616 1.0713665 -0.3558104038 -0.5521346331 0.7540200949
-0.16379201 -0.20950142 0.86900002 -0.08198533952 -0.4593879879 0.8844439387
-0.11154531 0.030600926 1.126 -0.01735682786 -0.461029768 0.8872148991
-0.13509858 -0.082975626 1.0143845 -0.8398948908 -0.4727250338 0.2666601837
-0.30245793 -0.066838227 0.91123807 -0.02126198635 -0.05465622991 0.9982788563
-0.20882156 -0.29218248 0.94150007 -0.05459746718 0.4143624306 0.908472836
-0.21422081 0.015029999 1.0434003 -0.5973569155 -0.4835066199 0.6398328543
-0.20416276 -0.17799222 0.88117653 -0.02617029101 0.4357321262 0.8996958733
-0.12858233 -0.095238432 1.0318573 -0.9414814711 -0.2818305492 0.1848896444
-0.19765036 -0.26194885 0.92671436 -0.0144137051 0.4037672877 0.9147481918
-0.14671017 -0.0015797532 1.082 -0.07296217978 -0.6648434401 0.7434108853
-0.18827279 -0.068317898 0.90616673 -0.4346269369 -0.6905611753 0.5781217217
-0.11453011 0.10146125 1.1861429 0.4746828675 -0.503300488 0.722055912
-0.19675134 -0.031612601 0.98520011 -0.2847705781 -0.9143087864 0.288002044
-0.25362661 -0.23749073 0.92023081 -0.009247188456 0.4716357589 0.8817449808
-0.28909487 -0.090835817 0.90100002 0.5607584715 -0.3925566077 0.7290056944
-0.24237992 -0.10910993 0.889 0.2744679153 -0.2197320759 0.9361544847
-0.27468288 0.013559507 0.9736799 -0.02674163319 -0.8569273353 0.5147430897
-0.15769742 -0.27044728 0.86900002 -0.3733944893 0.2360540032 0.8971371651
-0.13547948 0.025951475 1.1335555 0.01547448616 -0.9426364303 0.3334623873
-0.099407859 -0.047141872 1.169 -0.9636830688 -0.1507106274 0.2204569876
-0.1002819 -0.18996491 0.93000007 -0.8208742142 -0.1929052025 0.5375435948
-0.13075395 -0.10442766 1.001 -0.800394237 -0.5657934546 0.1981082261
-0.17450114 -0.027443493 0.98672736 -0.0493628718 -0.9081982374 0.4156191945
-0.12423068 -0.021868011 1.0615001 -0.9581340551 0.05962735787 0.2800423205
-0.30466446 -0.11887424 0.89800006 0.5046527386 -0.1801784039 0.8443111777
-0.24546349 -0.28833207 0.94037503 -0.0600171946 0.521425724 0.8511834145
-0.24416223 -0.31335655 0.95339143 -0.04339059815 0.5012254715 0.8642281294
-0.1937442 -0.002741067 1.0428462 -0.5032099485 -0.649014473 0.5705786347
-0.2746664 -0.065885536 0.90550005 0.409819603 -0.3928936124 0.8232147694
-0.17464331 0.018604357 1.0827 -0.5459712148 -0.6110982895 0.5731267929
-0.26260883 0.060602039 1.057 -0.03628930822 -0.8614746928 0.5065021515
-0.26215315 -0.059043501 0.89800006 0.3492728174 -0.5434727669 0.7633123994
-0.065982491 -0.033467978 1.0908 -0.3797393739 -0.5404788852 0.7507866621
-0.22854699 -0.019114841 0.94800007 -0.5907111168 -0.6927059293 0.4137860537
-0.23492619 -0.15474232 0.87542105 0.2950364649 0.09833264351 0.950412631
-0.2269769 0.043017857 1.0439999 -0.549302578 -0.6094985604 0.5716452003
-0.22655185 -0.0046888078 0.97335005 -0.6225844026 -0.6898543239 0.3694451153
-0.2689622 -0.1606483 0.89100003 0.5085994601 -0.1393959671 0.8496442437
-0.17483109 -0.26512855 0.861889 -0.3289570808 0.1931333542 0.9243845344
-0.19457813 -0.16409278 0.87623078 -0.2611811757 0.2523764074 0.9317137599
-0.096804164 0.073367648 1.1623334 -0.1881278455 -0.7372896671 0.6488543153
-0.31817344 -0.05221865 0.92350006 0.6010735631 -0.5574704409 0.5726581216
-0.20488198 0.086609945 1.1315385 -0.3541531265 -0.7949461937 0.4925810993
-0.14066467 -0.020606926 1.0220001 -0.515868187 -0.7611971498 0.3930126429
-0.092750713 -0.0029394634 1.117 0.4954690933 -0.6499376297 0.5762737393
-0.20465787 -0.10500766 0.87434858 -0.08211012185 -0.3132298589 0.946121037
-0.23933263 -0.29857337 0.90100002 -0.3047781885 0.8422373533 -0.4446869791
-0.25557959 0.024023298 1.0041428 -0.3406730592 -0.8052149415 0.4853563607
-0.35670993 -0.23457158 0.95514292 0.730073154 -0.06360846013 0.6804022193
-0.13613684 -0.06620881 1.0346364 -0.8503960371 -0.4318936765 0.3004902601
-0.191727 0.0383454 1.08 -0.5502563119 -0.528839767 0.6461783648
-0.18598448 0.062697373 1.1059166 -0.4342934191 -0.7555593252 0.4904276431
-0.25424215 0.037220825 1.0247859 -0.2907942832 -0.8009281754 0.5234050155
-0.18921097 0.086185098 1.13 -0.3665735424 -0.7608295083 0.5355019569
-0.32614562 -0.044393998 0.94184625 0.6405994296 -0.5900374651 0.4914144278
-0.13469867 0.0047141863 1.0744399 -0.1022983193 -0.6573604941 0.7466004491
-0.18184431 -0.094213307 0.89341176 -0.6839705706 -0.340688616 0.6450701952
-0.22540314 -0.17519957 0.88105857 0.1107250005 0.4268472195 0.8975195885
-0.1202436 -0.00094679999 1.08 -0.6073817611 -0.4516367018 0.6535378098
-0.34196076 -0.077829301 0.92800003 0.6707375646 -0.4126223326 0.6163229346
-0.31752372 -0.082827471 0.90700006 0.02392160147 0.1501782686 0.9883694649
-0.12806347 -0.2409194 0.91300005 -0.6076279283 0.4380215406 0.6625144482
-0.253557 -0.048218712 0.90666676 0.1366295367 -0.6740899682 0.725902915
-0.19717109 -0.30851477 0.88200003 0.08733523637 0.5056331754 0.8583167195
-0.20283945 -0.01310196 1.0238001 -0.5489766002 -0.7247694135 0.4163339436
-0.3001987 -0.027660586 0.92800003 0.4566850364 -0.6590572 0.5975637436
-0.11141995 0.059223216 1.1450001 0.6602973938 -0.4530840516 0.5989342332
-0.11499987 0.014528941 1.1046875 -0.5244526863 -0.6731349826 0.5213814378
-0.27385452 0.071928039 1.0824001 0.2720911503 -0.8504604101 0.4502038062
-0.093466692 0.048403978 1.1423334 -0.2025879323 -0.6286153793 0.7508667111
-0.14162506 -0.12833391 0.94749999 0.2663511932 -0.6748811603 0.6881805658
-0.22741477 0.092191577 1.11575 -0.3262642026 -0.8462700844 0.4211634398
-0.3457073 -0.26395139 0.94288898 0.5825824142 0.2307288647 0.7793342471
-0.24475957 -0.19574639 0.89254862 -0.01597936638 0.5154320002 0.8567814827
-0.083516523 -0.020831354 1.09 -0.2338405997 -0.6419360638 0.7302305698
-0.27781346 -0.2570233 0.93000019 0.01418020856 0.4656782448 0.8848404884
-0.08379399 0.017745927 1.1245 -0.2399640381 -0.3647097051 0.8996688724
-0.088964723 -0.11369082 1.0320001 0.7626723051 -0.3335994184 0.5541140437
-0.10452464 -0.055236138 1.1456156 -0.9320908189 -0.1801584959 0.3142444491
-0.26489979 0.046116408 1.0341334 -0.1264517456 -0.8610627055 0.4925251305
-0.14755264 0.060878363 1.177 -0.731394887 -0.582026124 0.355397135
-0.10328799 -0.16155301 1.0070001 0.6378755569 -0.6028149128 0.4793004394
-0.2960293 0.01844682 1.002 0.3357610404 -0.822140038 0.4597284794
-0.21837737 0.042316407 1.057 -0.590800643 -0.5430762172 0.5966764688
-0.35520771 -0.21556243 0.9535715 0.5008029938 0.4678838551 0.7282040119
-0.2853269 0.052780125 1.0533078 0.257235527 -0.8849412203 0.3882124722
-0.17603599 -0.21186535 0.88850009 0.5274219513 0.1844611168 0.8293371797
-0.0749726 -0.11549506 1.0148892 0.6714349985 -0.3932371736 0.6281238198
-0.22169322 -0.01380487 0.98400009 -0.7128760219 -0.6304695606 0.3071089387
-0.090024896 -0.16718911 0.97800004 0.5887700319 -0.7216754556 0.3640527129
-0.2754755 -0.043271944 0.92027277 -0.1336883008 -0.4868087769 0.8632175922
-0.21999161 0.062315222 1.077 -0.5068848133 -0.6775839925 0.5328674316
-0.1486121 -0.03780143 0.98750001 -0.5611275434 -0.6325756311 0.5338388681
-0.20020875 -0.27998543 0.87500006 0.03709002584 0.3918455541 0.919283092
-0.2154195 -0.036940452 0.94486672 -0.4677880704 -0.784260869 0.4075649977
-0.37290809 -0.23464341 0.97136378 0.5652951002 0.1969451755 0.8010331392
-0.12828043 -0.10860892 0.97550005 -0.6150680184 -0.6913694143 0.3790774047
-0.26452538 -0.020601667 0.94000006 -0.227583006 -0.7072017193 0.6693816185
-0.31466115 -0.16844328 0.91261536 0.1315498799 0.350390017 0.9273195267
-0.13525398 0.037137449 1.1658889 -0.4497367442 -0.7936974168 0.4096111357
-0.33881649 -0.13284093 0.93128586 0.5026938915 -0.07244280726 0.8614237905
-0.228284 -0.25763479 0.93000007 0.01312707551 0.3595191538 0.9330453873
-0.30233735 -0.0023467392 0.96422225 0.2697638273 -0.8122256398 0.5172203779
-0.21468449 0.098450758 1.143 -0.3594087064 -0.8556900024 0.3723171055
-0.2855415 -0.16515958 0.90300012 0.4724108279 -0.01812967099 0.8811919689
-0.19683743 -0.21710515 0.90172732 0.2809760869 0.5897422433 0.7571370602
-0.32463124 -0.14485663 0.90836847 0.5485242605 -0.1055729389 0.8294428587
-0.37272257 -0.13523854 0.93735713 0.5081137419 0.2478445917 0.8248596787
-0.19816789 0.023165915 1.057 -0.5526901484 -0.4432020187 0.7057659626
-0.21581517 -0.24197052 0.91800016 0.008430709131 0.3903672099 0.9206206203
-0.24266572 0.017747413 1.0022 -0.3674205244 -0.8028939366 0.4694288671
-0.16712487 0.022072492 1.0945834 -0.6436476707 -0.6298189759 0.4347938597
-0.27746376 -0.02431081 0.92660707 -0.20642519 -0.6227431297 0.7547050118
-0.12387015 -0.082104877 1.08275 -0.960203886 -0.04055467248 0.2763400078
-0.3148863 -0.26459458 0.93548137 0.09340776503 0.5485255122 0.8308999538
-0.18499616 -0.05543799 0.93415004 -0.3723055422 -0.8006692529 0.4693797529
-0.21540225 -0.30667651 0.88066673 0.3460048437 0.4148061872 0.841555953
-0.20640345 0.00090927863 1.0372001 -0.5029433966 -0.6704348922 0.5454952121
-0.17819908 -0.015415219 1.0467 -0.4611786306 -0.6951783299 0.5513994694
-0.18096767 -0.28863198 0.87100005 -0.1046706587 0.3292704821 0.9384162426
-0.30100349 0.062111836 1.09 0.3092678487 -0.8422686458 0.4415166378
-0.11139672 -0.055202823 1.1245 -0.9502580166 -0.2235486507 0.2168772668
-0.23508298 -0.027973909 0.92500007 -0.3068418503 -0.7538614869 0.5809826851
-0.20836526 0.071233988 1.1055 -0.4673412442 -0.7496083975 0.4686996639
-0.22393288 -0.19527853 0.8936668 0.02854415588 0.5412486792 0.8403779268
-0.16662039 -0.13473664 0.90292865 -0.8740826249 -0.100194633 0.4753320813
-0.16608492 -0.094421089 0.91314298 -0.8715617657 -0.2034201175 0.4460945427
-0.3051205 -0.22495668 0.91077137 0.249160409 0.2380986363 0.9387375116
-0.29503214 -0.2846972 0.9469676 0.1570065916 0.3696444929 0.9158121347
-0.23500359 0.065196566 1.0732856 -0.2188193947 -0.7961055636 0.5642109513
-0.28117856 0.042357028 1.028 0.2402866185 -0.8462383151 0.4755449891
-0.28443313 -0.24619107 0.92105263 -0.0627720803 0.4804784358 0.8747571707
-0.16734971 0.035182126 1.1057059 -0.777125597 -0.3473826647 0.5247867107
-0.41112915 -0.15654305 0.97580004 0.5849203467 0.2897159457 0.7575836182
-0.1032642 -0.075595841 1.1630001 -0.9601389766 0.0454220511 0.2758078873
-0.086150035 -0.073018007 1.0510001 0.429818958 -0.5948807001 0.679244101
-0.28494337 -0.22632882 0.91096669 -0.001217178302 0.3979215324 0.9174186587
-0.086028136 -0.053822242 1.0724374 -0.05172597617 -0.5447772741 0.8369839191
-0.2358551 0.098828599 1.1245 -0.2293323576 -0.8819919229 0.4117000103
-0.33152026 -0.23226757 0.92800003 0.6381698251 0.09241861105 0.7643285394
-0.30516058 -0.24651694 0.92014998 0.09367209673 0.4861014485 0.8688676357
-0.24498039 -0.13525993 0.88323075 0.5080299377 -0.1704968065 0.8442963958
-0.15657386 -0.19619903 0.88523525 -0.4105093181 -0.5728578568 0.7094476223
-0.29054487 -0.042984717 0.90800005 -0.02216892131 -0.3667725921 0.9300464392
-0.15301555 0.036911573 1.1435455 -0.7292795181 -0.5638064146 0.3876515925
-0.21737438 -0.30289519 0.94200009 0.07669913024 0.4208072126 0.9039018154
-0.12703776 -0.033866685 1.0912001 -0.8988479972 0.2620655298 0.3512747586
-0.077281967 -0.0052795792 1.1065555 -0.5182409883 -0.644441247 0.5622470975
-0.080944568 -0.13878597 1.0058 0.5922420025 -0.5317803621 0.6053586602
-0.22433385 0.0045690699 1.0152 -0.7749739289 -0.5787172318 0.2539719939
-0.23370843 -0.30264434 0.94800007 0.08709414303 0.4755243063 0.8753806353
-0.17664537 -0.13456559 0.88651854 -0.7003331184 -0.09934213012 0.7068696618
-0.14170957 -0.22568774 0.90710008 -0.7338217497 0.3289296925 0.594399631
-0.075346574 -0.055033728 1.0641154 0.01165452134 -0.610201478 0.7921605706
-0.36704281 -0.09918572 0.95720005 0.7496032119 -0.3968978822 0.5296858549
-0.17520934 -0.075248279 0.91343892 -0.6167871356 -0.5470450521 0.5659641027
-0.13735579 -0.21233991 0.8937692 -0.7430903912 -0.08190772682 0.6641594768
-0.36508057 -0.20695069 0.94371444 0.3378480971 0.4531941712 0.8249083161
-0.21505181 -0.11524667 0.87235004 0.1400345713 -0.2658458352 0.9537904859
-0.3077963 -0.10366138 0.91230768 0.5421859026 -0.2097588181 0.8136557341
-0.22525939 0.084811002 1.1044704 -0.3842818141 -0.7920309305 0.4743568897
-0.26487803 -0.11460207 0.89380014 -0.005771631841 0.2265582234 0.973980546
-0.19778915 0.096358813 1.1570001 -0.3965284228 -0.8629187346 0.3132673204
-0.30763477 -0.02691349 0.9418 0.5630049109 -0.6406887174 0.5220568776
-0.14475632 -0.18598083 0.90325022 -0.2182395011 -0.6267414093 0.7480419278
