# .PCD v0.7 - Point Cloud Data file format
VERSION 0.7
FIELDS x y z normal_x normal_y normal_z
SIZE 4 4 4 4 4 4
TYPE F F F F F F
COUNT 1 1 1 1 1 1
WIDTH 512
HEIGHT 1
VIEWPOINT 0 0 0 1 0 0 0
POINTS 512
DATA ascii
-0.13485712 -0.11426613 1.1742802 0.2134451121 0.4125798345 -0.8855614662
-0.46194109 -0.49018201 2.3010001 -0.6832206845 0.7040569186 0.1936837435
-0.1981705 0.27984077 1.3700001 0.01423772797 0.9182912707 -0.3956493139
-0.33394331 0.093363717 1.1883848 -0.2198486626 0.5931007862 -0.774530828
-0.019553173 0.085113809 1.312 0.4345464706 0.8377982974 -0.3305501342
-0.02754136 0.17180562 1.4960001 0.3176088631 0.8431733251 -0.4338010848
-0.32181731 -0.10077108 1.2360001 -0.04466616362 0.4420481622 -0.8958785534
-0.13540949 0.12222356 1.1569999 0.3918066621 0.4477679133 -0.8037359118
-0.048487555 0.24007253 1.3490001 0.547514677 0.5040048957 -0.6679870486
-0.23464946 0.19712652 1.2432858 -0.09401358664 0.7625941038 -0.6400091052
-0.04825687 0.004313325 1.1855716 0.7064134479 0.2060077041 -0.677156508
-0.224161 0.0050715161 1.1569997 -0.07453864068 0.07980945706 -0.9940193295
-0.11287083 0.19834583 1.25 0.2112297267 0.7509558797 -0.6256574392
-0.24390796 -0.1404008 1.169 -0.3247600794 -0.191829443 -0.926138401
-0.33115467 -0.012012378 1.1743335 -0.2682594955 -0.2627753913 -0.9268149734
-0.01483795 0.11540404 1.4104166 0.9423642755 0.2974587083 -0.1531921476
-0.23565647 0.12205449 1.1570001 -0.05701706558 0.5530411005 -0.8312007189
-0.27433294 0.24463889 1.3142225 -0.04773511365 0.8420631886 -0.5372624993
-0.11386637 -0.045211453 1.2338669 0.2670289576 0.442497015 -0.8560910821
-0.32398444 0.17445315 1.2360001 0.09076000005 0.7585675716 -0.6452424526
-0.13466346 0.025311716 1.1549199 0.09884595126 0.1167068854 -0.9882352948
-0.072520204 0.075407363 1.2346667 0.6779857278 0.6617199779 -0.3200969696
-0.073608011 0.15335983 1.3153335 0.2412229627 -0.41002056 -0.8795990944
-0.20530629 -0.066913337 1.2019999 -0.1010576487 -0.4963058829 -0.8622457981
-0.1747705 0.23945229 1.2945001 0.01989248954 0.8321149349 -0.554246366
-0.43810803 -0.44203725 2.2410002 -0.670514226 0.7134139538 0.2035956979
-0.11467642 0.27720129 1.3712001 0.1711416692 0.8655498028 -0.4706740677
-0.049864799 -0.014405387 1.2640001 0.1920247376 0.5636918545 -0.8033542037
-0.21237455 -0.13178258 1.2423334 0.007703069132 -0.6118099093 -0.7909673452
-0.17391926 0.1654612 1.2060002 -0.0346650742 0.7605142593 -0.6483952999
-0.28339633 0.047875118 1.1569999 -0.2896331251 -0.2498909682 -0.9239410758
-0.27548 -0.064179391 1.189 -0.1552400291 -0.5167227387 -0.841960907
-0.02806736 0.18304801 1.3920001 0.8320310712 0.150391534 -0.5339538455
-0.13562059 -0.044290904 1.1652354 0.06702772528 -0.5909731984 -0.8039016724
-0.085913129 0.14455874 1.2145385 0.7903424501 0.3265756071 -0.5183697343
-0.34462118 -0.040999945 1.2640001 0.1911602318 0.5217978954 -0.8313751817
-0.089280613 -0.11079401 1.2270001 0.3486323357 -0.05183434114 -0.9358251095
-0.086043768 0.074424513 1.1662633 0.665465951 0.03367374465 -0.7456682324
-0.18433407 0.072524875 1.149 -0.07114865631 0.2797956467 -0.9574195743
-0.10577893 0.2418275 1.3151251 0.2540730238 0.7870230675 -0.5621757507
-0.26620597 0.15476146 1.205 -0.2266543508 0.8399066925 -0.4931375086
-0.18452492 -0.15145381 1.1684287 0.1699689031 -0.4379502833 -0.8827854395
-0.26363441 -0.11301786 1.2184999 -0.05941356346 -0.5828543305 -0.8104016781
-0.28469652 0.21207112 1.268 0.02778093703 0.736346662 -0.6760339141
-0.17790635 0.21064985 1.245 0.02456307411 0.7901131511 -0.6124686599
-0.025447685 0.047607869 1.25 0.5193107128 0.6594933271 -0.5434932709
-0.046870984 0.15834792 1.4450001 0.3442610204 0.7516474128 -0.5625926852
-0.27684429 -0.016284959 1.161 -0.1950870454 -0.2499283999 -0.9484075308
-0.16742288 -0.11149652 1.219 -0.2982826829 -0.5137146115 -0.8044406176
-0.22367799 0.26192346 1.322 -0.04108174145 0.7907747626 -0.6107271314
-0.074309148 0.20479873 1.2927142 0.7404114604 0.5026623607 -0.4462302625
-0.064683199 -0.063243121 1.2320002 0.1330446303 0.320084691 -0.9380005002
-0.063811518 0.094928615 1.286 0.4546460211 0.8154653311 -0.3582085073
-0.033731505 0.12242702 1.3454001 0.7444659472 -0.02684039809 -0.6671207547
-0.18500373 0.13481782 1.1650001 -0.09712099284 0.7241586447 -0.6827604175
-0.15561767 0.2656031 1.3346667 0.1165170595 0.8736619353 -0.4723754823
-0.28390074 0.1069619 1.1671538 -0.4524906874 -0.1846003979 -0.8724533916
-0.17224659 -0.01208748 1.149 -0.03484630212 -0.2318598926 -0.9721248746
-0.34885636 0.031426746 1.1950001 -0.3436815739 0.345087111 -0.8733829856
-0.23390727 0.228055 1.2840002 -0.07625616342 0.8555988669 -0.5119917393
-0.23577124 0.064230829 1.1487778 -0.001978253713 0.2656516135 -0.9640670419
-0.09838742 -0.011157337 1.1570001 0.1624252647 -0.09653799236 -0.9819869995
-0.31374934 0.14071815 1.189 -0.03604384139 0.6904485822 -0.7224829197
-0.13563462 0.074298188 1.146053 0.1739260107 0.4129176438 -0.8940071464
-0.28891426 -0.1155657 1.177 -0.2435649633 0.6356073022 -0.7325841188
-0.48257345 -0.45290703 2.256 -0.6910393238 0.6971354485 0.1909628808
-0.038122434 0.18118976 1.3450001 0.8926432729 0.3399414122 -0.2960200012
-0.069008566 0.26998091 1.381 0.3110822737 0.8167251945 -0.4859915674
-0.07414145 0.16522186 1.267 0.8743609786 0.3171455264 -0.3673031032
-0.12188413 -0.078328997 1.202 0.8277904391 -0.07803799212 -0.5555835366
-0.23554532 -0.042866867 1.1762382 0.1586394459 -0.6801476479 -0.7157043815
-0.12539971 0.16107829 1.197 0.135226652 0.79459095 -0.5918943882
-0.067509472 0.10248847 1.197 0.4271278381 0.5452365279 -0.7213036418
-0.063902862 0.048715051 1.1950001 0.6172247529 0.6024634242 -0.5060350299
-0.0059719793 0.14242263 1.4449999 0.2571310997 0.7782039046 -0.5729592443
-0.22465174 0.16551654 1.2133501 -0.07284007967 0.7038486004 -0.7066056132
-0.13500579 0.22351581 1.2780001 0.1568896472 0.8304628134 -0.534525156
-0.16484126 -0.072518237 1.189 -0.3388308585 -0.5021402836 -0.7956436276
-0.30985519 0.11686581 1.223 0.191200912 -0.01941081509 -0.9813589454
-0.28280914 0.18095452 1.2360001 -0.1585276574 0.7028207779 -0.6934781671
-0.32179451 0.058414929 1.169 -0.6402429938 -0.3000163734 -0.7071626782
-0.19503993 -0.037705433 1.1730002 -0.11590828 -0.6945970654 -0.7100000978
-0.19579668 0.034092497 1.1552221 -0.05967646837 -0.2769545913 -0.9590280652
-0.14430733 0.18538769 1.2249999 0.1615785211 0.7447439432 -0.6474942565
-0.10292833 0.11537875 1.183 0.6308071613 0.294660002 -0.7178146243
-0.084790878 0.025541052 1.1653204 0.3453825414 0.3483481705 -0.8714151978
-0.084594563 0.25530726 1.3455718 0.3094522655 0.7565019727 -0.5761458874
-0.22541992 -0.10476469 1.2174211 0.03423243761 -0.5042208433 -0.8628959656
-0.30916089 -0.069313653 1.2550001 0.1736742556 0.5969415307 -0.7832611799
-0.015613433 0.098484732 1.3700001 0.8034195304 0.5466890335 -0.2358984798
-0.084817499 -0.022793334 1.25 0.2088979781 0.5506917834 -0.8081461191
-0.061424527 0.10778266 1.322 0.6571298838 0.463453114 -0.5944674611
-0.30255061 0.012867226 1.169 -0.2497969568 0.331769228 -0.9096871018
-0.037254125 0.02618761 1.2142 0.7332921028 0.5330234766 -0.422100246
-0.033826843 0.073803723 1.2754999 0.4961369932 0.7522800565 -0.4335006773
-0.036805972 0.15757558 1.312 0.7107489109 -0.00274322601 -0.7034404278
-0.072514795 0.22799338 1.3235 0.5836576223 0.6293882132 -0.5130441189
-0.30747068 -0.04010487 1.1730001 -0.2444072366 -0.4967635274 -0.8327611089
-0.21495871 0.14539634 1.1833159 -0.1608936191 0.7590882182 -0.6307918429
-0.25528523 0.025075138 1.1609998 -0.08150594682 -0.1351359487 -0.9874690175
-0.16521941 0.10520067 1.1452966 0.06864960492 -0.1492733806 -0.9864100218
-0.20390426 0.10691664 1.149 -0.1248278096 -0.1588418931 -0.9793810844
-0.1740455 -0.11806596 1.1610001 0.3242233396 -0.09017955512 -0.9416723847
-0.034829967 0.21018083 1.3700001 0.9288686514 0.07101456076 -0.3635380566
-0.20330162 0.19039358 1.2270001 -0.1255724728 0.7075505853 -0.6954162121
-0.1889094 0.2584466 1.322 0.03960887343 0.8279700279 -0.5593717694
-0.089116096 0.17282255 1.2346667 0.7103728652 0.5417855978 -0.4492646754
-0.24201202 -0.078328997 1.202 0.311994195 -0.443038106 -0.8404622674
-0.16394104 0.28121275 1.3650001 0.02249517664 0.9094926119 -0.4151110649
-0.13497686 -0.01410206 1.149 0.08175226301 -0.2050414234 -0.975333035
-0.26174256 0.13173115 1.177 -0.3120607436 0.647721231 -0.6950361729
-0.20445576 0.22223544 1.2674999 -0.05049527436 0.8037383556 -0.5928363204
-0.2863718 -0.086123295 1.2128334 -0.7786706686 0.05376505107 -0.6251249909
-0.11346094 0.05370735 1.1618003 0.5293841958 -0.2330203503 -0.8157535791
-0.048402078 0.19129261 1.3145001 0.8550792336 0.3059774041 -0.4185897112
-0.09497913 -0.074839666 1.2234443 0.2782086432 0.3194678426 -0.905836761
-0.16533704 0.045198999 1.1458002 0.0371921286 -0.2704452872 -0.9620167017
-0.11524134 -0.11206956 1.2060001 0.7404969335 0.1819482595 -0.6469614506
-0.2160466 -0.12729505 1.1570001 -0.2260162234 -0.3321035802 -0.9157640934
-0.10235346 0.21932884 1.2830001 0.2866243422 0.8163169026 -0.5014710426
-0.29506069 0.076868534 1.1732669 -0.2006185204 0.578320682 -0.7907574773
-0.15591478 0.14458561 1.1752224 0.0691318512 0.7389199734 -0.6702373624
-0.2557472 0.085159227 1.1628668 -0.2349723279 0.120343782 -0.964523375
-0.34080416 -0.071229167 1.25 0.1351094544 0.5429139733 -0.8288484812
-0.13568012 0.24185112 1.3050001 0.2312690914 0.8025733232 -0.5499005914
-0.14354812 0.20569086 1.2534546 0.1464352608 0.7853334546 -0.6015048623
-0.29526496 0.15595178 1.2169411 0.04056028277 0.7771738768 -0.6279774308
-0.0090209004 0.1610875 1.47 0.3344720006 0.8355315924 -0.4359076321
-0.12550898 0.25753501 1.3344287 0.1798565239 0.8358821869 -0.5186064243
-0.19487332 -0.094786167 1.2110908 -0.01626325212 -0.4961417615 -0.8680891991
-0.15568916 -0.14170387 1.1730001 0.2981313169 -0.1000047922 -0.9492716789
-0.29647553 0.10371756 1.1950001 -0.734158814 -0.5250342488 -0.4305227399
-0.25517488 0.17905128 1.223 -0.2132207453 0.6409488916 -0.737374723
-0.16545282 -0.045223985 1.1739414 -0.2220575511 -0.5918967724 -0.7748216987
-0.24085189 -0.12852634 1.2320001 0.07734018564 -0.5816495419 -0.8097544312
-0.29222459 0.23445924 1.2920001 0.01891818643 0.8047189116 -0.5933545232
-0.25682539 -0.11337338 1.1730002 -0.357830435 -0.01495552622 -0.9336668253
-0.060030628 0.17442861 1.2920001 0.8948254585 -0.1399955899 -0.4238969684
-0.20471764 0.23872176 1.293 -0.04664809629 0.8412744403 -0.5385919809
-0.1154088 0.094982445 1.1650004 0.3691778481 0.263686657 -0.891166091
-0.084258191 0.19526204 1.2661817 0.6544413567 0.5422349572 -0.5269608498
-0.0053336397 0.16780452 1.4039999 0.9204663038 0.3419176638 0.1892990768
-0.048092179 0.21230938 1.3380001 0.8229287267 0.2965209782 -0.4846273363
-0.25622147 0.2117572 1.2589999 -0.1901715249 0.6918987036 -0.6964991093
-0.05653711 -0.036454432 1.245 0.2103668004 0.5217419863 -0.826759398
-0.22697163 0.092620715 1.1610001 -0.07192408293 -0.176288411 -0.9817073345
-0.24419352 -0.022061098 1.1570001 0.03469159454 -0.4414118528 -0.8966337442
-0.31209478 0.19290465 1.2550001 0.05498247594 0.6331334114 -0.7720874548
-0.16486645 0.015351746 1.1543332 0.0367204845 0.1805433035 -0.9828813076
-0.11472148 0.17905128 1.223 0.2009103894 0.7566431761 -0.6221946478
-0.22455783 0.035382196 1.1559998 -0.08641742915 -0.30108881 -0.9496723413
-0.28931051 -0.1029382 1.2360001 -0.5661114454 0.4367888868 -0.6990946531
-0.053308051 0.047585174 1.2243334 0.6970923543 0.6248756051 -0.351557523
-0.058497336 0.0805718 1.2590001 0.4863557518 0.7372845411 -0.4689025879
-0.24446349 0.2433203 1.3055001 -0.1282385737 0.8181814551 -0.5604765415
-0.038660999 0.1739745 1.47 0.3094167113 0.8439565897 -0.4381764531
-0.31503123 0.035143919 1.1836087 -0.2560566068 0.2180486172 -0.9417482615
-0.21401799 -0.02130037 1.1570001 -0.04543409124 -0.4902715385 -0.8703846931
-0.077179976 0.070836417 1.2060001 0.9181189537 0.3049575984 -0.253097713
-0.1516629 -0.097460344 1.189 -0.4299658239 0.4332865179 -0.7920809388
-0.17476261 0.18741414 1.2229999 -0.01414530259 0.7114998102 -0.7025439143
-0.047053505 0.13142531 1.322 0.1360241324 -0.4665386081 -0.8739789128
-0.26641172 0.22697136 1.2855 -0.06589078903 0.8251273632 -0.561091125
-0.1218254 0.13908112 1.1810001 0.3534641564 0.5745063424 -0.7382449508
-0.032662846 0.13818896 1.4330001 0.2879715562 0.7608549595 -0.5815256834
-0.19394912 0.0045785909 1.149 -0.1326108873 0.1070258394 -0.9853729606
-0.02578474 0.094924808 1.33675 0.5404943228 0.7249462605 -0.4269880354
-0.34566528 0.011350203 1.177 -0.2901749313 0.2845779359 -0.9136815071
-0.24608973 0.15181725 1.1872857 -0.07325025648 0.8070201874 -0.58596313
-0.20132913 0.26961622 1.3430001 0.02772707678 0.9050953388 -0.4243037403
-0.26132995 -0.042017758 1.169 -0.09092321247 -0.5843381882 -0.8064005375
-0.045391753 0.093073644 1.3053334 0.4626668692 0.8270509243 -0.3192587495
-0.3214123 0.15487194 1.21 0.1038986668 0.7507356405 -0.6523810625
-0.13435276 -0.067506924 1.1813636 0.215312615 -0.4384686351 -0.8725742102
-0.085535027 -0.044388637 1.2350402 0.1463675946 0.3955651224 -0.9066999555
-0.46587294 -0.46587294 2.2710001 -0.6797345877 0.7058676481 0.1992781311
-0.064742707 -0.0030687093 1.1669999 0.5017341971 -0.008154483512 -0.8649834394
-0.16639133 0.22148691 1.2653333 0.08923366666 0.8332872987 -0.545591116
-0.30425194 -0.014890082 1.169 -0.3184646666 -0.2915335298 -0.9019913673
-0.33504176 0.11302514 1.2049092 -0.1364448071 0.8255653977 -0.5475623608
-0.20574626 0.05520064 1.1448404 -0.1001980528 0.01233612839 -0.9948910475
-0.14260647 0.093751617 1.1610001 0.1982724369 0.01399599388 -0.9800469875
-0.26085654 0.19100375 1.245 -0.2472161651 0.7490112185 -0.614708364
-0.13469107 0.27533031 1.3556668 0.1283671111 0.8615308404 -0.491209209
-0.28195748 0.14123933 1.189 -0.2007795721 0.6871477962 -0.698223114
-0.061085258 0.027954269 1.1810001 0.5815851092 0.3954002261 -0.7109271884
-0.045568034 0.061394058 1.245 0.5097634792 0.678674221 -0.5287177563
-0.2957882 -0.10775022 1.205 -0.54475981 0.739815414 -0.394854337
-0.30535164 0.1226324 1.1742501 -0.5628266931 0.1821746975 -0.8062496781
-0.19514391 -0.12334059 1.2266924 -0.01848580502 -0.5368646383 -0.8434658051
-0.19609937 0.15792537 1.1930001 -0.1221632957 0.8390131593 -0.5302197933
-0.27518216 -0.099023886 1.189 -0.5856969357 0.6685779691 -0.4582167566
-0.14801639 0.17021886 1.2060001 0.05934195966 0.7452682257 -0.6641187668
-0.2608881 0.053386372 1.149 -0.2261491865 0.01481130905 -0.9739800692
-0.10839676 -0.033078823 1.161 0.1987968683 -0.4607686698 -0.8649693727
-0.16610026 0.2537654 1.3157501 0.02035157755 0.8293148279 -0.5584108829
-0.076123595 -0.091133885 1.223 0.2646540403 0.08344998956 -0.9607259631
-0.09592925 0.13499263 1.1950003 0.7307479978 0.2909217775 -0.6175531149
-0.056242548 0.2560831 1.365 0.3991192579 0.7189865112 -0.5690010786
-0.18507221 -0.055111479 1.1859999 -0.2520176768 -0.5948930383 -0.7632754445
-0.10442989 0.015209922 1.1565197 0.196890071 0.1554443091 -0.9680244923
-0.083994746 0.055866115 1.1844001 0.735041678 0.1566135287 -0.6596862078
-0.45290703 -0.45290703 2.256 -0.6751157045 0.7096389532 0.2015722692
-0.12026288 -0.056406487 1.2140001 0.7589433193 0.3471115232 -0.5509252548
-0.26344225 0.11240325 1.1569999 -0.346103996 0.2148432285 -0.9132657647
-0.33324543 0.052240193 1.1884286 -0.510815382 -0.2002558261 -0.8360413909
-0.28323916 -0.040757548 1.177 -0.2109324336 -0.5897248983 -0.779571712
-0.22501326 -0.05756199 1.1938 0.1056244001 -0.6353524923 -0.7649645209
-0.1279624 -0.095858373 1.1867143 0.5883746743 0.3227869868 -0.741366148
-0.1034983 0.15648091 1.2033334 0.4864345491 0.6132324934 -0.622356236
-0.08455538 0.095043994 1.1831052 0.4540970623 0.484931916 -0.7474201322
-0.17191046 -0.092827424 1.2060001 -0.3865095377 -0.5332106352 -0.7525269389
-0.20677519 0.12755062 1.161889 -0.1999670714 0.6737342477 -0.7114037871
-0.072026931 -0.0077567468 1.2640001 0.1922490746 0.549072504 -0.8133631945
-0.16536412 0.12579904 1.1557366 0.07196450233 0.5561711192 -0.8279461265
-0.025871068 0.15419881 1.4558182 0.309594214 0.7827964425 -0.5397973061
-0.22541423 0.21292292 1.2573334 -0.06784481555 0.7517856956 -0.6559080482
-0.17473526 0.15458438 1.1850001 -0.01096783951 0.8064706922 -0.5911723971
-0.20590359 0.08418718 1.1569997 -0.1475691646 0.1558746397 -0.9766916037
-0.27604765 0.015383287 1.1623335 -0.3436663747 0.144565478 -0.9278977513
-0.15467697 0.23269646 1.286 0.135147959 0.8090019822 -0.5720583797
-0.23653695 -0.11928891 1.1630001 -0.3585542142 -0.1683552265 -0.918202281
-0.15503903 -0.025336402 1.1558799 -0.07803984731 -0.4219409227 -0.9032583237
-0.076760493 0.15515378 1.2420001 0.8058232069 0.4202138484 -0.4172161222
-0.30124807 0.061872505 1.1570001 -0.22900258 0.3302494884 -0.915692687
-0.18538706 0.094208881 1.1555598 -0.06227120012 -0.1945047379 -0.9789229631
-0.19515005 0.17483263 1.2127223 -0.09282642603 0.6781656742 -0.7290230393
-0.28896073 0.032906562 1.1730001 -0.5263120532 -0.1933799386 -0.8280095458
-0.13495484 0.04665938 1.1477501 0.2697924972 -0.3128807545 -0.9106687903
-0.18528126 0.22858316 1.2774444 -0.001014607958 0.8281481266 -0.56050843
-0.084328316 0.22429229 1.3047273 0.5291275382 0.6994745731 -0.480374217
-0.082787134 0.11864631 1.2030001 0.5770227313 0.5194584727 -0.6302441359
-0.23474438 0.13639359 1.1756668 0.04997939616 0.7364425063 -0.674651444
-0.22523129 0.18366152 1.2263335 -0.1018796265 0.6782089472 -0.7277727723
-0.20492081 0.20820834 1.25 -0.1087625846 0.7692115903 -0.6296699643
-0.1055679 0.26195443 1.348 0.1697248816 0.8474318385 -0.5030434132
-0.16518509 0.085317925 1.1552855 0.03514387459 0.09904997796 -0.9944616556
-0.30122969 -0.076932758 1.2360001 -0.1564068794 0.4821503758 -0.8620138764
-0.26423138 -0.081221238 1.197 -0.01813217066 -0.5044056773 -0.8632763624
-0.27500707 0.074805789 1.1646522 -0.2868980169 0.4368447363 -0.8525586128
-0.15543309 0.065183498 1.1438804 -0.02414310351 0.1772987992 -0.9838609099
-0.25520152 0.25288361 1.322 -0.1337863505 0.79033494 -0.5978895426
-0.21629997 -0.086500697 1.21 0.006895213388 -0.3978705406 -0.9174156785
-0.11427218 0.23081844 1.2970001 0.1754738986 0.8179972768 -0.5478041172
-0.20501536 -0.14510693 1.161909 -0.04980509728 -0.4780754447 -0.8769055605
-0.10536306 -0.094720334 1.2140003 0.4439850152 -0.03617718443 -0.895303607
-0.12619816 0.005298255 1.1466366 0.1936150938 0.0472079441 -0.9799411297
-0.10609613 0.073232695 1.1570001 0.3795284033 0.1630407572 -0.910700798
-0.029214917 0.16594073 1.3330001 0.8841119409 0.2494365424 -0.39512977
-0.045335315 0.10556482 1.3358573 0.6592598557 0.4517792761 -0.60105896
-0.1860193 -0.077011071 1.2033335 -0.2274404317 -0.4862806797 -0.8436835408
-0.30138221 0.22071485 1.2780001 0.06002405658 0.7638699412 -0.6425728798
-0.032796685 0.036762726 1.2333335 0.5827177763 0.6467400193 -0.4921050072
-0.31506222 0.083476841 1.1755716 -0.08172801137 0.578117609 -0.811850071
-0.11502054 0.21495809 1.2665881 0.1642969102 0.7896419168 -0.5911617279
-0.12217051 -0.048661135 1.1810001 0.3882533908 -0.658609271 -0.6445875764
-0.084393419 0.0049194139 1.1609998 0.3009191751 0.0472038202 -0.9524806738
-0.082568854 0.2680496 1.365 0.2429005802 0.8428757191 -0.4801664352
-0.17502826 0.273186 1.3490001 0.01388947573 0.9144016504 -0.4045698345
-0.24516737 0.0050657294 1.1555998 -0.01273660827 0.08176933974 -0.9965698719
-0.19512101 -0.12613177 1.1553528 0.08365999907 -0.3025477827 -0.9494555593
-0.32515165 0.015455633 1.1752002 -0.1872553527 0.3322645724 -0.9244109988
-0.096186996 0.044213805 1.1689999 0.4602073729 0.1206063256 -0.8795813322
-0.086539857 0.24293251 1.3280001 0.4242427945 0.7224592566 -0.545958519
-0.2546615 -0.05543318 1.1836666 0.1006409451 -0.5739934444 -0.812651813
-0.11717182 0.11608474 1.1676667 0.6090359092 0.230956912 -0.7587714791
-0.098284855 -0.028081387 1.2320001 0.1024269685 0.4518262446 -0.8862063885
-0.32457379 -0.055222291 1.2559476 0.1766545475 0.5253922939 -0.8323196769
-0.17574185 -0.028837949 1.1610001 -0.1078815088 -0.5284613371 -0.8420749307
-0.017428426 0.16577269 1.3870001 0.8730894923 0.0939386934 -0.4784248173
-0.185194 0.11548723 1.1455003 -0.1147406697 0.2267930955 -0.9671605229
-0.27573797 0.16511622 1.2244117 -0.2685988545 0.6531745791 -0.7079672813
-0.071380205 0.12512262 1.3162858 0.3301607966 0.02370464429 -0.9436269999
-0.30206233 0.21173374 1.2566001 0.00491749635 0.6638624668 -0.7478384972
-0.28458786 0.19528216 1.2558126 0.02784509957 0.6330545545 -0.7736061811
-0.24446434 -0.096937716 1.2106668 0.1460327208 -0.5550675392 -0.8188861012
-0.30556655 -0.11043283 1.223 -0.4514445961 0.6347109079 -0.627168119
-0.3044146 0.1713901 1.2270001 0.09940762073 0.7439314127 -0.6608207822
-0.21495529 -0.041755188 1.176 -0.00149910606 -0.6959527731 -0.7180860043
-0.2944476 -0.05437161 1.1874616 -0.1558223069 -0.5040584207 -0.8494966626
-0.15486529 -0.11635417 1.1676668 0.3446648121 0.1564550996 -0.9255959988
-0.14509709 0.28321981 1.3724 0.0999378711 0.8852401376 -0.4542711675
-0.043287169 0.19499083 1.3590001 0.9418430924 0.1224919036 -0.3129333556
-0.061593063 0.20665684 1.3132501 0.7145492435 0.5024808645 -0.4867569506
-0.15267637 -0.0043169567 1.149 0.01343560871 -0.056969814 -0.9982854724
-0.24461526 0.10402893 1.1551816 -0.09322156757 -0.1002272293 -0.9905878305
-0.047866289 0.031795826 1.1956668 0.7479214072 0.4784530103 -0.4601046741
-0.26231498 -0.1326991 1.1734002 -0.3547184765 -0.1632927358 -0.9206032157
-0.22451644 -0.14374405 1.1662 -0.2506798804 -0.4393354952 -0.8626377583
-0.22473428 0.24226914 1.3042223 -0.08932708949 0.769739151 -0.6320778131
-0.31523842 0.10200205 1.189 -0.05993440747 0.7257416844 -0.6853516698
-0.052525192 0.17214461 1.312 0.745179534 -0.0618125014 -0.663993001
-0.19538155 -0.015189303 1.1547599 -0.1156362742 -0.3571097851 -0.9268769622
-0.2443371 0.043464258 1.153 -0.02823357657 -0.282476306 -0.9588587284
-0.026483223 0.18777411 1.3730001 0.8944625258 0.2479275018 -0.3721138537
-0.01501204 0.13218935 1.427 0.2903038263 0.7290990353 -0.6197889447
-0.14654961 0.25403318 1.3162858 0.1889731735 0.8321194649 -0.5214080215
-0.32199177 -0.030024957 1.1810001 -0.3042418063 -0.3940330744 -0.8672801256
-0.082433313 0.17652789 1.2538 0.7580100894 0.4635433257 -0.4588553905
-0.1534857 -0.062684074 1.177 -0.1504521966 -0.4663818181 -0.8716949821
-0.3320061 0.074399017 1.1754 -0.6123903394 0.1469617635 -0.7767755985
-0.20534424 -0.052117836 1.189 -0.07637741417 -0.6716743708 -0.7368989587
-0.2879405 0.093756095 1.1810001 -0.6321106553 0.08079954982 -0.7706540227
-0.1631915 0.19909362 1.2410001 0.1199219376 0.7701147199 -0.6265317202
-0.044357583 0.085330635 1.2863334 0.4555529952 0.8168659806 -0.3538381457
-0.14516495 0.10631227 1.1470802 0.2780366838 -0.1686233431 -0.9456541538
-0.13489367 0.15265067 1.1825 0.157029286 0.7318392396 -0.6631388068
-0.024945769 0.10544109 1.3552501 0.7785800695 0.5113355517 -0.3637980819
-0.070031643 0.092263907 1.268 0.4509586096 0.8008375764 -0.3940755725
-0.070860088 0.18671072 1.2830001 0.7841717005 0.3698660433 -0.4982708395
-0.21513399 -0.12155071 1.2270001 -0.001801108359 -0.5903742909 -0.8071275949
-0.063332856 0.10357396 1.3040001 0.6158500314 0.6977090836 -0.3659656048
-0.20509879 0.25093094 1.307 0.01925480925 0.7773133516 -0.6288188696
-0.24499552 0.16586065 1.2147895 -0.1266041547 0.6716259718 -0.7299931049
-0.015903611 0.10518159 1.3950001 0.8058807254 0.522695303 -0.2781113982
-0.21623334 0.23191866 1.2780001 -0.06598242372 0.8236026764 -0.5633160472
-0.18538994 0.055117469 1.1430802 -0.02672746591 -0.006921716966 -0.9996187687
-0.18584163 -0.10793111 1.223 -0.05705739558 -0.5152853727 -0.8551172018
-0.2216038 0.11180919 1.149 -0.147332564 0.04904900491 -0.9878700972
-0.32529506 -0.075068079 1.2409997 0.07655047625 0.4511016309 -0.8891835213
-0.023854757 0.077813596 1.29575 0.4664649367 0.8095248342 -0.3564828634
-0.055250332 0.1450257 1.3129375 -0.04259408265 -0.3096992671 -0.9498800635
-0.11501255 0.035623357 1.1609998 0.3308868408 0.0960098505 -0.9387736917
-0.067985937 0.08771006 1.184 0.8123804927 0.03007481247 -0.5823516846
-0.077043802 0.040929522 1.177 0.5001450777 0.4556093812 -0.7363932133
-0.025179369 0.058122996 1.2645714 0.5058968067 0.6927947402 -0.5139103532
-0.30452371 0.14676352 1.2031429 0.01021181419 0.7571259737 -0.6531890631
-0.28511679 0.12314122 1.1747144 -0.2122048736 0.5478117466 -0.8092412353
-0.22373268 0.074789323 1.1567498 -0.003865382401 0.3246888816 -0.9458130002
-0.31717917 0.11252543 1.2033335 0.08677054942 0.877910614 -0.4708968699
-0.26448664 -0.0053271218 1.1543912 -0.1221541539 -0.03714037687 -0.9918159842
-0.059402931 0.063723147 1.2320001 0.6639451385 0.6589131951 -0.3535678089
-0.038729381 0.01675047 1.194 0.7951811552 0.2973114848 -0.5284816027
-0.20598449 0.015040677 1.1564997 -0.1432853043 0.1601071805 -0.9766447544
-0.083164103 -0.061563041 1.2320001 0.1046258807 0.2569051981 -0.9607565403
-0.17484891 -0.13558549 1.1611903 0.228972733 -0.325828284 -0.9172826409
-0.087629847 0.16136716 1.2190001 0.7176655531 0.4622175097 -0.5208753347
-0.33509088 0.034273509 1.1846521 -0.3334570527 0.3196928203 -0.8869063854
-0.11480983 -0.0054212678 1.1563041 0.2669570744 -0.09985426068 -0.9585213065
-0.20541298 0.26367453 1.3238001 0.04087216035 0.8312378526 -0.5544124246
-0.065425172 0.2439799 1.3482945 0.4231167734 0.606750071 -0.6729239225
-0.26839414 -0.099748008 1.1730001 -0.2979845107 0.4459124506 -0.8440185189
-0.19502629 0.14406732 1.1756668 -0.1564415246 0.7167679667 -0.6795364022
-0.071633309 0.16259624 1.2970001 0.7820582986 -0.5003438592 -0.3715384901
-0.23307849 0.01933839 1.161 -0.04048338532 -0.01690000668 -0.9990372658
-0.041545235 0.2124742 1.3540001 0.9227294922 0.1261408329 -0.36422351
-0.27383032 -0.10114453 1.2060001 0.2412665337 -0.5486652255 -0.8004729748
-0.21541278 0.19800569 1.2410001 -0.1252574325 0.7515386939 -0.6476883292
-0.060495261 0.1883343 1.302 0.8004440069 0.3375375867 -0.4953360558
-0.14533967 0.13435084 1.1638889 0.1616290659 0.6849679351 -0.7104188204
-0.066244505 0.013943925 1.1680769 0.5561362505 0.2209272981 -0.8011888862
-0.12664302 0.083897389 1.1569998 0.2330876291 0.3930537403 -0.889482379
-0.28310987 0.15212007 1.205 -0.1508997977 0.8392708302 -0.5223540664
-0.12198815 -0.094408236 1.21 0.7535760999 0.02065848932 -0.6570360065
-0.18496941 0.1957882 1.2338669 -0.03526090086 0.7491543889 -0.6614562273
-0.22557908 0.15298408 1.1943333 -0.03574100882 0.8091725111 -0.5864830613
-0.015620884 0.16723205 1.4844999 0.3226459026 0.8409551978 -0.4343892038
-0.11542869 0.16685124 1.2111429 0.2213798165 0.7553266287 -0.6168246269
-0.15493031 0.035437778 1.1550798 0.03275888786 -0.1733736545 -0.9843111634
-0.15539834 0.2460444 1.3042728 0.1140314043 0.8178836703 -0.5639708638
-0.12502588 0.18725139 1.2335387 0.1681457758 0.7792103291 -0.6037865877
-0.098933585 0.21009491 1.268 0.4129108191 0.6960247755 -0.5874131322
-0.30372769 0.18485422 1.2427778 0.01402265206 0.6951164007 -0.7187604308
-0.24566655 0.22121105 1.268 -0.09569198638 0.7890215516 -0.6068674326
-0.11413805 0.15166289 1.189 0.3122226 0.6541270018 -0.6889374852
-0.30435997 -0.09571448 1.2360001 -0.2051489055 0.460291028 -0.8637396097
-0.099407859 0.093258925 1.169 0.4419653714 0.4371633232 -0.7832974195
-0.086253144 0.2142272 1.2861251 0.5891757607 0.6637122631 -0.4608230591
-0.26490986 0.14377438 1.1879473 -0.2830490768 0.6991887689 -0.6565198302
-0.24525811 -0.11505104 1.2235215 0.09730407596 -0.5805838704 -0.8083651662
-0.10326432 -0.05581532 1.2269999 0.2843275964 0.4706570506 -0.8352482915
-0.2451721 0.18857729 1.2320001 -0.1037172973 0.7641980052 -0.6365878582
-0.15008621 0.081590489 1.149 0.1259862036 0.3741226792 -0.9187816381
-0.29110506 -0.0091287298 1.1570001 -0.2961124182 -0.09752025455 -0.9501616955
-0.095447078 0.185293 1.2432859 0.5262682438 0.6704102755 -0.5230600238
-0.14706434 0.01108019 1.149 -0.09719599783 0.1746680439 -0.9798183441
-0.11785293 0.065222032 1.149 0.4842685461 0.02372756973 -0.874597609
-0.075280905 -0.075280905 1.22675 0.1318509877 0.2902946472 -0.9478102922
-0.12795447 0.13205142 1.1676668 0.4077646136 0.5565552711 -0.7238606811
-0.078641385 -0.011234484 1.1650001 0.3852258027 -0.1379488856 -0.9124533534
-0.12678792 -0.033472009 1.1570001 0.1207887381 -0.5076586604 -0.8530490994
-0.24159443 -0.057522487 1.1930001 0.2968089879 -0.5364384055 -0.7900242209
-0.074927084 -0.034680605 1.2424737 0.1772335768 0.5339083076 -0.8267588019
-0.11987101 -0.062541395 1.189 0.8220252395 -0.3068261445 -0.4797210097
-0.1318647 0.20943215 1.2640001 0.15325737 0.7890099883 -0.594958365
-0.15572599 0.16075876 1.1954 0.01271408796 0.8070604801 -0.590331912
-0.065041266 -0.047246099 1.2342224 0.1718560904 0.4295095503 -0.8865590692
-0.25481501 0.12472329 1.1642001 -0.2755929232 0.5642876029 -0.7782210708
-0.13025513 0.22992863 1.2920001 0.1873619705 0.8100209236 -0.5556631684
-0.081026793 0.07168065 1.1850001 0.8915669918 -0.1627103388 -0.4226507246
-0.1750374 0.035408884 1.1541198 0.01082977187 -0.2020697892 -0.9793112278
-0.25954154 -0.01933839 1.161 -0.09355051816 -0.3088517785 -0.9464982152
-0.27129522 0.20374732 1.2590001 -0.1540767252 0.6722102165 -0.7241503596
-0.09478651 0.27473813 1.3730001 0.1925840825 0.8695487976 -0.4547485411
-0.088600315 0.11153216 1.189 0.4908480644 0.4999599457 -0.7135182023
-0.28454188 0.064497761 1.1569998 -0.1750310957 0.3082118034 -0.9350773096
-0.18481252 0.26785958 1.3342501 0.01587363891 0.8700228333 -0.4927558601
-0.10501204 0.25123724 1.3280001 0.2434521019 0.8092636466 -0.534624517
-0.0031143583 0.11772275 1.4210001 0.278303504 0.7420614958 -0.6098294258
-0.2004507 0.071517587 1.149 -0.1063978896 0.3968151212 -0.9117111564
-0.045350406 0.18141082 1.3265001 0.8698642254 0.3148228824 -0.3797667623
-0.43708494 -0.45290703 2.256 -0.6711060405 0.713165462 0.2025135607
-0.26532823 0.21734035 1.2729999 -0.1542122811 0.7645640969 -0.6258277297
-0.13553315 0.17388257 1.2149374 0.1302796751 0.751963377 -0.6462029815
-0.14305708 0.26844218 1.3442 0.1379771829 0.8682141304 -0.4766199291
-0.025774 0.16495359 1.47 0.3176088631 0.8431733251 -0.4338010848
-0.12780222 0.10853045 1.1570001 0.4665078223 -0.003903182689 -0.884508431
-0.072130673 0.085317492 1.253 0.5306217074 0.7345411181 -0.4229538143
-0.037919339 0.1640331 1.4580001 0.3322274387 0.7986639738 -0.501757741
-0.055095993 0.08639776 1.2751428 0.4552249908 0.8028619289 -0.3849453926
-0.27208686 0.037275646 1.1570001 -0.3365891874 -0.2923260331 -0.8951274753
-0.13512181 0.19796275 1.243 0.1813044846 0.7766704559 -0.6032509208
-0.17436537 0.0046522198 1.1484287 0.01898755319 0.02137370966 -0.9995912313
-0.14520653 0.21725798 1.2644 0.1535541266 0.8079593778 -0.5688784719
-0.25508916 0.23412193 1.2932501 -0.07965775579 0.8457573056 -0.527588129
-0.24496102 0.075435124 1.154111 -0.03882913664 0.2853564322 -0.9576345682
-0.15911674 -0.10116032 1.202 -0.6882674694 -0.3416441679 -0.6399743557
-0.0604637 0.049856033 1.21 0.7133987546 0.6210952401 -0.324504137
-0.065182008 0.17336774 1.2774999 0.9299951792 0.1094308943 -0.3509043455
-0.2767511 -0.12334495 1.1823335 -0.3851272166 0.1533060372 -0.9100407958
-0.22492579 -0.074979179 1.2045598 0.1146563962 -0.3977430761 -0.9103045464
-0.31791878 0.051075477 1.189 -0.4653370678 -0.3761446476 -0.8012344241
-0.34126616 -0.0010248233 1.169 -0.3404693007 -0.01860800572 -0.9400714636
-0.052767288 0.22658895 1.3430003 0.6929607987 0.4027220011 -0.5980136395
-0.072001688 0.21784535 1.312 0.6477301121 0.5871505141 -0.485489428
-0.065357648 0.064417861 1.2133336 0.7266699076 0.6194974184 -0.2969407141
-0.2740514 0.095329136 1.167889 -0.4727098942 -0.08990682662 -0.8766196966
-0.23497231 0.25570691 1.3138751 -0.1403515637 0.7440983057 -0.6531608701
-0.27819088 -0.077977747 1.202 -0.1632283032 -0.5286294818 -0.8330110312
-0.18493532 0.015535794 1.1543912 -0.08639998734 0.2317553312 -0.9689295888
-0.064496167 -0.024833873 1.2506522 0.1920247376 0.5636918545 -0.8033542037
-0.26416552 0.23901483 1.3045001 -0.100300841 0.8424150348 -0.5294115543
-0.34238023 -0.054450989 1.2574002 0.1911602318 0.5217978954 -0.8313751817
-0.30378291 0.048295166 1.1631819 -0.399166137 -0.4784797728 -0.7821275592
-0.24703853 -0.072443791 1.189 0.2816982269 -0.4442506135 -0.8504630923
-0.03466991 0.093728192 1.3245715 0.5079728961 0.7740373015 -0.3779283464
-0.26527822 0.065693296 1.1565788 -0.2736328542 0.3241921067 -0.9055520296
-0.29787293 -0.028450465 1.1730002 -0.2567569017 -0.5038353205 -0.8247580528
-0.044936474 0.076561928 1.2656666 0.4818010032 0.7448279262 -0.4616265893
-0.04206948 0.12036546 1.3330001 0.711799264 -0.1271814853 -0.6907725334
-0.18484515 0.24506418 1.3042223 0.01766224951 0.8218022585 -0.5694989562
-0.2054987 -0.10429778 1.2158948 0.01207600068 -0.4879754484 -0.8727738261
-0.095553547 0.19510727 1.2546875 0.4605311453 0.6603193283 -0.5932027102
-0.22853561 -0.031769522 1.169 0.0678890571 -0.6258350611 -0.7769952416
-0.12516695 0.24917497 1.322 0.1819684505 0.820248127 -0.5422918797
-0.31324366 -0.084101267 1.2412857 0.02607295103 0.439001888 -0.8981077671
-0.16720794 -0.0584969 1.1810001 -0.2722762525 -0.511241734 -0.8151671886
-0.25133857 0.14215326 1.1750001 -0.2074320167 0.6859075427 -0.6974975467
-0.19453123 0.2138464 1.2589999 -0.08551626652 0.7979061007 -0.5966848731
-0.10679042 -0.11106359 1.2181667 0.5304967165 -0.06270507723 -0.8453645706
-0.31271541 -0.11247353 1.2360001 -0.1310836822 0.6095687151 -0.7818203568
-0.29597932 0.13857689 1.1930001 -0.0944590047 0.7273849845 -0.6796973944
-0.047732748 0.20140891 1.3280001 0.8700330257 0.348659277 -0.3485387564
-0.10690056 -0.068921253 1.2170001 0.4490607679 0.4367482364 -0.7794840932
-0.235378 0.15832776 1.204 -0.0127847055 0.7961903811 -0.6049110889
-0.057777882 0.21405482 1.327 0.6996729374 0.4981494844 -0.5121570826
-0.21518204 0.15859146 1.2044001 -0.1538060009 0.7693775296 -0.6200015545
-0.2012099 -0.15390672 1.1730001 -0.02779014595 -0.4922648072 -0.8700017929
-0.15270525 -0.082867354 1.189 -0.3563174307 -0.3377217054 -0.8711956739
-0.073085688 0.25825876 1.3540001 0.3676285148 0.717987299 -0.5910528898
-0.21052536 0.18060298 1.2190001 -0.124954246 0.6519199014 -0.7479217052
-0.32164901 0.16832964 1.223 0.1187024042 0.7403112054 -0.6617016792
-0.30585325 0.10755823 1.2125455 0.1065105125 0.9002075791 -0.422234267
-0.28390431 0.22250745 1.2780001 -0.02820766158 0.742434442 -0.6693246365
-0.049646508 0.10044759 1.317 0.5127506256 0.7510308623 -0.4159801006
-0.23490633 -0.0050627501 1.155 0.01106217783 -0.05431124941 -0.9984627962
-0.1162225 -0.043584187 1.1670001 0.1804776341 -0.6338503957 -0.7521046996
-0.27491531 -0.033470392 1.1677692 -0.2171573937 -0.5307504535 -0.8192353845
-0.15354794 0.27436447 1.3577502 0.0727154538 0.8881115317 -0.4538396299
-0.28813535 -0.1056322 1.1930001 -0.5012472272 0.7120264769 -0.4917006493
-0.1256081 0.26514798 1.3466001 0.1825478524 0.8374747038 -0.5150848627
-0.29327637 -0.086585388 1.2254002 -0.754216671 0.1906299591 -0.6283449531
-0.074031867 0.23714423 1.3344287 0.495750159 0.629226923 -0.5985860229
-0.043344855 0.16758466 1.322 0.7963439226 0.06850657612 -0.60095191
-0.2417154 0.21081115 1.2590001 -0.1016169116 0.729739368 -0.6761319637
-0.13496819 -0.05460979 1.1752402 0.1373429596 -0.5369066 -0.8323870301
-0.22375309 0.13015257 1.169 0.01842678152 0.7320954204 -0.6809527874
-0.22441262 -0.13169169 1.2346668 0.01758277975 -0.612310648 -0.7904217243
-0.1057054 0.18248299 1.2335002 0.3411800265 0.7372749448 -0.5831139088
-0.31443384 -0.0049437513 1.1683046 -0.2790875733 -0.1202259734 -0.9527097344
-0.14569572 -0.13237302 1.1689999 0.2947980762 0.01794847101 -0.9553909898
-0.093857907 0.26554257 1.3552501 0.1928841472 0.8410708308 -0.5053667426
-0.21455137 -0.0050618728 1.1543999 -0.1452798247 -0.1532299817 -0.9774529934
-0.10841649 0.27044553 1.3590001 0.1758944541 0.8540007472 -0.4896364808
-0.14504547 0.23786673 1.295125 0.1901542246 0.8023106456 -0.5658082366
-0.0063803801 0.15242955 1.455 0.3032386303 0.7966347337 -0.5228952169
-0.22121105 0.22121105 1.268 -0.06451990455 0.7839305401 -0.6174868941
-0.4478206 -0.49018201 2.3010001 -0.6789321899 0.7077575326 0.1952698827
-0.17690694 -0.12115446 1.223 -0.1337953657 -0.5365942121 -0.8331659436
-0.19565593 0.045355514 1.1455003 -0.04161708429 -0.2182427645 -0.9750066996
-0.27541459 0.23396622 1.2938181 -0.007125882432 0.8376199007 -0.5462070107
-0.094732068 0.064173386 1.1619598 0.4655408561 -0.1274163425 -0.8758063316
-0.034202103 0.1933185 1.3834001 0.8785965443 0.2385942489 -0.4136918485
-0.29516712 0.12851027 1.1832223 -0.1051214635 0.6279209852 -0.7711451054
-0.30026448 0.040241629 1.177 -0.5175644755 -0.3520497978 -0.7798640728
-0.15460573 0.12174065 1.1476668 0.1640429944 0.35670349 -0.9197024107
-0.17525883 0.14519654 1.1746002 -0.02933302708 0.7559797764 -0.653937459
-0.16466308 0.17422786 1.2118 -0.004473948851 0.680280149 -0.7329385281
-0.14542738 0.055158991 1.1440403 0.07795856893 -0.1164075732 -0.9901372194
-0.22520252 0.055298038 1.1468003 -0.08987278491 0.05429577455 -0.994472146
-0.23018636 -0.08804363 1.21 0.1152569503 -0.4209434092 -0.8997346759
-0.2448319 -0.035855774 1.1685203 0.1252562106 -0.5783094764 -0.8061445355
-0.09564463 0.22531271 1.2936667 0.3801914752 0.7907280326 -0.4797953963
-0.062519923 0.22612345 1.3330001 0.5897753835 0.5276328325 -0.6113662124
-0.063953161 0.13538684 1.3220001 0.02341827005 -0.3168200254 -0.9481965303
-0.24125516 0.23672454 1.2920001 -0.07738967985 0.8323149085 -0.5488740802
-0.095580339 0.23237562 1.3057501 0.37936306 0.760373652 -0.5271769762
-0.12092202 0.016037865 1.1535714 0.1942136735 0.1531731933 -0.9689267278
-0.28523451 0.005094836 1.1619999 -0.2985402942 0.2109053731 -0.9308021665
-0.21525548 0.045301899 1.1462177 -0.105264537 -0.1848322302 -0.977116406
-0.20612812 0.16651407 1.212 -0.1478591114 0.6987668276 -0.6999018788
-0.024345033 0.17427957 1.3748001 0.8425961137 0.365552783 -0.3954781294
