# .PCD v0.7 - Point Cloud Data file format
VERSION 0.7
FIELDS x y z normal_x normal_y normal_z
SIZE 4 4 4 4 4 4
TYPE F F F F F F
COUNT 1 1 1 1 1 1
WIDTH 512
HEIGHT 1
VIEWPOINT 0 0 0 1 0 0 0
POINTS 512
DATA ascii
-0.045462854 0.034270264 1.3850002 0.1494233608 -0.2456225753 0.9577798247
-0.21650073 -0.34270215 1.2410001 0.6273828149 0.2923604846 0.721745193
-0.28839877 -0.14220585 1.516 0.7364515662 -0.1136325151 0.6668784022
0.011591286 -0.17808431 1.202 -0.6040718555 -0.4849841297 0.6323666573
-0.18335253 -0.12671305 1.3051251 0.5897380114 -0.6202811003 0.5171657801
-0.2124335 0.013037438 1.4580001 0.6242077947 -0.3852878511 0.6796454191
0.062455487 -0.070107035 1.454 -0.8109781742 -0.4954014122 0.3112744987
-0.1434253 -0.20327182 1.177 0.3728099167 0.1708426327 0.912044704
0.02406187 -0.077750936 1.307 -0.7282928228 -0.4150751233 0.5452542305
-0.051633913 -0.2961047 1.202 -0.3135125041 0.7203945518 0.6186611652
-0.2665689 -0.22720219 1.2830001 0.6964151263 -0.4270463288 0.5767472982
-0.12308399 -0.070157878 1.404 0.4770425558 0.1599409431 0.8642044067
-0.081901707 -0.097775213 1.2346667 0.4299630523 -0.8502174616 0.3037466109
-0.21623015 -0.10416856 1.4449998 0.4429221451 0.1960867941 0.8748542666
-0.27776659 -0.041199826 1.516 0.8732059002 -0.01344998274 0.4871658087
0.02172906 0.02172906 1.4580001 -0.8747941852 -0.478915602 0.07331436127
-0.13200526 0.062047254 1.4250001 0.4333440661 -0.4453638494 0.7834947109
-0.14456686 -0.30492058 1.1870868 0.3920962811 0.2479688227 0.8858735561
-0.055400953 -0.21455282 1.149 0.1010967866 -0.1989078373 0.9747897983
-0.054284953 -0.050739713 1.3460001 0.5351296067 -0.7700520754 0.3473559022
-0.26961622 -0.15894406 1.3430001 0.5467416644 -0.3066530228 0.7791261077
-0.20821412 -0.2566759 1.223 0.4604742527 0.247444734 0.8524872661
-0.20366457 -0.17703319 1.245 0.5436466932 -0.695584178 0.4696923792
0.011416245 -0.0051159342 1.3470001 0.2558923364 -0.7428965569 0.6185659766
-0.11642484 -0.068485208 1.302 0.3766797185 -0.6498344541 0.6601724029
-0.26986605 -0.30374044 1.2880001 0.7785773873 0.08348296583 0.6219709516
-0.065385222 -0.14283824 1.1737275 -0.06452589482 -0.554739058 0.8295185566
0.0010886446 -0.11430489 1.2418001 -0.783377111 -0.3384483755 0.5213185549
-0.14183983 -0.13864264 1.2165 0.619433403 -0.7134179473 0.3276234567
-0.15574858 -0.0049444009 1.41 0.325547725 -0.1511287838 0.9333695769
-0.0392133 -0.067222804 1.2780001 -0.2625766397 -0.8199000359 0.5087410212
-0.095003717 -0.26512253 1.1641307 0.3248836696 0.1302624047 0.9367402792
-0.094692484 -0.0145702 1.3847501 0.344678849 -0.1122675464 0.9319831133
-0.24157602 -0.04601448 1.4580001 0.6687555909 -0.1211392358 0.7335470319
-0.18505315 -0.055016533 1.42625 0.4000451863 0.1005766466 0.9109600186
-0.26268739 -0.093647815 1.4878 0.8479198813 -0.01963966154 0.5297604799
-0.23511912 -0.17522687 1.2956363 0.5568387508 -0.666610837 0.4955407381
-0.073850393 0.081850857 1.4040002 0.1919070631 -0.4764538407 0.8579996824
0.053566962 -0.023669124 1.4210001 -0.7163317204 -0.4021498263 0.5702143312
0.01098288 0.032948639 1.3920001 -0.4187318683 -0.5767808557 0.701418221
-0.13469246 -0.11264957 1.2656 0.3693195879 -0.7224451303 0.5845306516
-0.25155425 -0.14246184 1.4640001 0.6631545424 0.05644155294 0.7463514209
-0.15749288 -0.25451532 1.2029999 0.5537057519 -0.1777884066 0.8135116696
-0.2895104 -0.09021952 1.536 0.8502081037 -0.1649331599 0.4999432564
-0.0058324621 -0.22430059 1.1683046 -0.4873838425 -0.162880972 0.8578617573
-0.025184879 -0.11857881 1.197 -0.1618425399 -0.7184066176 0.6765344739
-0.095009372 -0.18491022 1.1653204 0.03201488778 0.2748412192 0.9609564543
-0.03976297 -0.26304907 1.1630001 -0.2720122933 0.5377544761 0.7980159521
-0.25722933 -0.26655596 1.25125 0.5142934322 0.4409986734 0.7355422974
-0.19575244 -0.30476722 1.2102499 0.5835868716 0.03736324236 0.8111907244
-0.2244111 -0.13621826 1.3362143 0.5602033138 -0.6293540597 0.5385960937
-0.095517978 0.034288958 1.3968751 0.3138345182 -0.1537674665 0.9369436502
-0.024765832 0.076156035 1.4125001 -0.3379618824 -0.5952361822 0.7290237546
-0.028808925 -0.17570026 1.169 -0.4102011025 -0.4592857659 0.7879033089
-0.25280407 -0.0082672583 1.489 0.7154269218 -0.2911221981 0.6351473331
-0.014547582 -0.049184684 1.317 0.352409035 -0.7689834833 0.533359468
-0.17448577 0.034743879 1.4360001 0.6062602401 -0.4147360921 0.6785591245
-0.18537633 -0.21431538 1.2037143 0.5116806626 -0.1990811378 0.8357927799
-0.23029594 -0.21938145 1.245 0.6428332329 -0.4816551805 0.5956288576
-0.03482997 -0.014412401 1.3700004 0.3799915314 -0.3528108001 0.8550619483
-0.2741363 -0.20095392 1.325 0.6234550476 -0.6747574806 0.3949761093
-0.10483133 -0.12588321 1.1937059 0.2900753617 -0.6130704284 0.7348475456
0.0033325022 -0.076990031 1.2666668 -0.7000902295 -0.5083188415 0.5014834404
-0.16409667 -0.14553486 1.2576667 0.5982735157 -0.6467605829 0.4730428159
-0.15887742 -0.091323242 1.427 0.2979933023 0.1743319482 0.9385139346
0.033974044 -0.045686319 1.3363335 -0.7881976366 -0.4366258979 0.4337076247
-0.15360017 -0.094551027 1.3064445 0.611682415 -0.6231049895 0.4874267578
-0.16355 -0.17477322 1.2060002 0.6369153261 -0.4310415387 0.6391729116
-0.2452253 -0.31161976 1.2531111 0.705419004 -0.08720322698 0.7034057379
0.00376879 0.051506795 1.4330001 -0.8415403366 -0.5298348069 0.1052852198
-0.088507392 -0.056987714 1.383 0.3950937986 0.238279745 0.8871998787
-0.084535472 -0.07759963 1.2754999 0.3226831853 -0.7431486249 0.5861788988
-0.10459939 -0.22504039 1.1747144 0.2560753822 -0.2371814996 0.9371074438
-0.21067439 -0.025230465 1.439 0.622967124 -0.1937804967 0.7578661442
-0.067250192 -0.05580312 1.3057501 0.1153573021 -0.9676106572 0.2245491594
-0.12509358 -0.16631475 1.1861764 0.3971398473 -0.510756135 0.7625011802
-0.042020563 -0.1021143 1.2418001 -0.07761468738 -0.8307709098 0.5511766076
0.021177636 0.0074744597 1.4210001 -0.8673329353 -0.4873300195 0.1012078524
-0.10559129 -0.30095235 1.177 0.2286432236 0.2637328207 0.9371057749
0.024551926 -0.11104167 1.273 -0.5806679726 -0.5847164392 0.5665080547
-0.0061588264 -0.14578778 1.2168335 -0.7522562742 -0.3762617111 0.5408674479
-0.16965428 -0.33193231 1.202 0.3063008189 0.3002908826 0.9033300281
-0.067524374 -0.29157495 1.1670001 -0.2269105613 0.6868813038 0.6904387474
-0.20054802 -0.15797357 1.2780001 0.6071292162 -0.6395891905 0.4715079665
-0.1320751 -0.26518199 1.177 0.4752296507 0.0008369131829 0.8798614144
-0.13195412 -0.031456552 1.3980001 0.4766474068 0.1326317191 0.8690316677
-0.067889065 -0.12198816 1.21 -0.1782370061 -0.6646227837 0.7256087661
-0.11441972 -0.11485036 1.2336 0.4937770367 -0.841068387 0.2208804041
-0.12585339 0.015077789 1.4040002 0.4868282974 -0.202374354 0.8497310281
-0.011852284 0.014258859 1.3717145 -0.02995858155 -0.4724068046 0.8808712959
-0.22160761 -0.068542771 1.439 0.5298601985 -0.04651600868 0.8468083739
-0.22384214 -0.28491163 1.2440001 0.7176886201 -0.08237680048 0.6914745569
-0.065376543 0.004842707 1.3810003 0.1463699192 -0.3004893959 0.9424871206
-0.016143316 0.053990018 1.3861428 -0.3407739103 -0.4437384903 0.8288360834
-0.154743 -0.054466937 1.4120833 0.1991184503 0.2254191637 0.9536970258
-0.061899047 -0.18744998 1.1684285 0.2759856582 -0.382067889 0.8819614649
-0.18428241 -0.0051002447 1.427 0.5814163685 -0.2317948788 0.7798885107
-0.067085519 -0.24557731 1.149 0.2125769258 -0.04567937553 0.9760760665
-0.26446527 -0.055086046 1.4890002 0.8172261119 0.01308408845 0.5761685967
-0.22973576 -0.01540128 1.4640001 0.6320394874 -0.2958501875 0.7162393332
-0.22826996 -0.19281057 1.2640001 0.623871088 -0.6078284979 0.4912528992
-0.17459613 -0.28557688 1.1943337 0.4224503636 -0.09762497246 0.9011132121
-0.15009849 0.035974018 1.4150001 0.4797086418 -0.2935193181 0.826877296
-0.025944075 -0.03262106 1.3450001 0.4853028953 -0.7175043821 0.499668479
-0.1032797 0.073096864 1.4131818 0.4670074284 -0.4345476925 0.7701119184
-0.24157602 -0.084359884 1.4580001 0.7370980382 0.0255029276 0.6753044724
-0.27020884 -0.13706245 1.489 0.8077289462 -0.1566649973 0.5683572888
0.020737549 -0.13861415 1.245 -0.5447438359 -0.5390334129 0.6424151063
-0.21286991 -0.2262051 1.2171251 0.5907904506 -0.2462044358 0.7683423758
-0.25342211 -0.17758811 1.324 0.71528548 -0.499522835 0.4887163043
-0.065491647 -0.034406077 1.3700002 0.4501874745 -0.1468618661 0.8807740211
-0.034014322 -0.14439698 1.1820433 -0.2580211163 -0.2749203146 0.9261986613
-0.094817646 -0.15561919 1.1756002 0.457338959 -0.5489767194 0.6996182203
-0.0045981868 -0.19506392 1.1817999 -0.5966969132 -0.349127084 0.7225393057
0.056390218 -0.054448888 1.4223335 -0.7491247654 -0.2756395936 0.6023578048
-0.17212573 -0.16779451 1.2348573 0.5843586326 -0.7059733272 0.4001582861
-0.015268027 -0.086699262 1.244 0.01518966071 -0.8702537417 0.4923694432
-0.26151842 -0.19898142 1.2970001 0.6700908542 -0.6280360818 0.395662576
-0.22051235 -0.31194431 1.2270001 0.6531151533 0.02052328549 0.7569804788
-0.18802072 -0.10343236 1.4330001 0.2697890699 0.2020605356 0.9414804578
-0.13623394 -0.2355144 1.1834617 0.5608741641 -0.0174472779 0.8277172446
-0.19507097 -0.33399633 1.219 0.5180105567 0.2350987345 0.8224315643
0.029317925 -0.03709615 1.365 -0.8109428883 -0.4929566085 0.3152227998
-0.16265863 -0.11682621 1.2855 0.6436544061 -0.6314310431 0.4324393272
-0.21499205 -0.15290909 1.3039231 0.5372344851 -0.6886568069 0.4869608581
-0.027555242 -0.20657976 1.1569999 -0.445432961 -0.09397036582 0.8903701901
-0.043931518 0.065897278 1.3920001 -0.01470410358 -0.3652148843 0.9308071136
-0.25490189 -0.2370238 1.254625 0.6975103021 -0.5089991093 0.5043800473
0.0045419373 -0.055055331 1.2949166 -0.3294047415 -0.7176929116 0.613522172
-0.24770392 -0.11294273 1.4640001 0.7066881061 -0.07889135927 0.7031130791
-0.062728569 -0.078127883 1.2552501 0.2005920857 -0.8431970477 0.4987800717
-0.23781784 -0.25438255 1.2324446 0.5021604896 0.253601104 0.8267534971
-0.11810015 -0.091105826 1.2830001 0.4266618192 -0.686709106 0.5885493159
-0.27295634 -0.074963771 1.5089999 0.8682186007 -0.004822751973 0.4961584508
-0.28146434 -0.18567187 1.3490001 0.7112770677 -0.3779601455 0.5926474929
-0.176477 -0.10356827 1.3220001 0.556222856 -0.5759602785 0.599070847
-0.075659826 0.054914404 1.3920001 0.2664726675 -0.2251635045 0.9371732473
-0.22592402 -0.13147195 1.456 0.4219737053 0.0706680268 0.9038496614
-0.28650019 -0.11334699 1.5159999 0.6884347796 -0.1589193344 0.7076737881
-0.012562634 -0.16436218 1.1942002 -0.6966222525 -0.372085005 0.6134086847
-0.035531186 -0.23447895 1.1552607 -0.2895432413 -0.104778029 0.951412797
-0.20485012 -0.20269001 1.2320001 0.6273166537 -0.4298808575 0.6493660212
0.0046568532 -0.025612695 1.3279998 0.1306266934 -0.6533299088 0.7457188964
-0.085473247 -0.10527802 1.189 -0.1556141078 -0.5628982782 0.8117448688
-0.18562728 -0.24436164 1.2130555 0.1959549934 0.1967968047 0.9606626034
0.017154614 -0.16189666 1.223 -0.5735318065 -0.5058279634 0.6443596482
-0.10453378 -0.1047731 1.2566112 0.4437415898 -0.77305305 0.4533016682
-0.17366767 -0.033493053 1.4150001 0.4898406863 0.07392402738 0.8686721921
-0.10335462 0.01094343 1.3870001 0.2932186127 -0.2366693169 0.9262885451
-0.27287713 -0.2773937 1.2880001 0.700429678 0.4481545687 0.5554779768
-0.20417856 -0.12563044 1.3228003 0.5888912678 -0.515437901 0.6225197911
-0.051076937 -0.16461958 1.1810001 -0.1610233039 -0.1509657949 0.9753362536
-0.12349427 0.041438278 1.4039999 0.4194969237 -0.1985236406 0.8857825398
-0.080961041 -0.20701432 1.169 0.3779600263 -0.2460570484 0.8925257325
-0.24485804 -0.28520396 1.26525 0.638651967 0.1325744539 0.7579892278
-0.20506141 -0.28533807 1.2253157 0.6780168414 -0.08922237903 0.729611218
-0.2465145 -0.21444893 1.2650908 0.6903789639 -0.413796097 0.5934219956
-0.11065023 -0.041341849 1.3870001 0.4600858986 0.1800138205 0.8694342971
-0.12554085 -0.18651785 1.169 0.303048104 -0.0213392023 0.9527363181
-0.18768439 -0.18553814 1.2233635 0.5954763293 -0.5607844591 0.5752640963
-0.16427542 -0.21326618 1.189 0.4196640253 0.04985061288 0.906309545
-0.1381688 -0.13164115 1.2410001 0.5718752742 -0.7539739609 0.3232366145
-0.24099216 -0.15367615 1.3280001 0.5477397442 -0.6124022007 0.5700392127
-0.074615292 -0.16479166 1.1633335 -0.2633181512 -0.05732347071 0.9630044699
-0.012724818 -0.10256135 1.2241429 -0.5043262243 -0.5996307135 0.6213678718
-0.19677652 -0.076403663 1.4330002 0.2753399312 0.1065787598 0.9554207921
-0.15218408 -0.27518216 1.189 0.4385487735 -0.1618215591 0.8840185404
0.014412399 0.0048041334 1.3700001 0.1982586533 -0.7054060698 0.680511415
-0.25378799 -0.034960594 1.4770001 0.7422785759 -0.1583366841 0.6511160135
-0.014074507 -0.012378784 1.3540001 0.5047860742 -0.6100851297 0.6107267141
-0.044306513 -0.10835578 1.2177501 -0.01649481244 -0.8396458626 0.5428837538
-0.28647712 -0.064701207 1.5270001 0.8832517862 0.01663419046 0.4686038196
-0.16618216 0.017191257 1.4210001 0.4958048165 -0.3292814195 0.8035865426
-0.15648079 -0.14652327 1.2344 0.7072236538 -0.6432857513 0.2932884693
-0.27259424 -0.25264832 1.2640001 0.8486942649 -0.2135026902 0.4838745892
-0.014661375 -0.067284741 1.2863334 0.1887387484 -0.8703451753 0.4548372626
0.014264242 -0.044510335 1.3145001 -0.6501229405 -0.4947394729 0.5766914487
-0.18520233 -0.16436605 1.255 0.4909496605 -0.736124754 0.4659278989
-0.23453639 -0.33307767 1.256 0.7361851931 0.2075470388 0.6441705227
-0.038419038 -0.050061174 1.3280001 0.3044313788 -0.8776128888 0.3702933192
-0.18799144 -0.27332422 1.21 0.5287317038 -0.1464777887 0.8360544443
-0.026112871 -0.083379298 1.2650909 0.1299251318 -0.8543498516 0.5031955242
-0.19099464 0.014381366 1.439 0.6291772723 -0.3941490054 0.6699123383
-0.084514849 -0.23521046 1.1614798 0.3760080636 -0.2033747584 0.9040224552
-0.052256167 -0.12845148 1.1874001 0.02517904527 -0.7808335423 0.6242315173
-0.03995233 0.0060533835 1.381 0.3343161643 -0.2091372162 0.9189637303
0.039107222 -0.029015036 1.439 -0.7216168642 -0.4741337895 0.5044464469
-0.084517151 -0.13720785 1.1863333 0.2049390674 -0.7309179902 0.6509676576
-0.043699551 -0.054683484 1.3050001 0.06963185966 -0.9497789145 0.3050760925
-0.18497719 -0.14171615 1.2850001 0.5608413815 -0.6891226172 0.4588757753
0.00123084 0.05046444 1.404 -0.6141504049 -0.614431262 0.4952711463
0.014270586 -0.095357917 1.2868237 -0.7634925842 -0.399032414 0.5077914596
-0.14505014 -0.082154311 1.4107143 0.320972085 0.222463131 0.9205906391
-0.25378799 -0.075100526 1.4770001 0.8097154498 0.006807072554 0.5867832303
-0.11456754 -0.24447112 1.1668003 0.328327179 -0.05490892753 0.9429667592
-0.26833156 -0.11514912 1.4960001 0.7730128765 -0.1495366991 0.6165142655
-0.14752546 -0.32560977 1.202 0.2396176159 0.3366759717 0.9106221199
-0.15531002 -0.12535456 1.2654285 0.5715520978 -0.5818232298 0.578627646
-0.094979569 -0.066288903 1.2941428 0.2696152329 -0.7275275588 0.6308813095
-0.064122029 -0.26971966 1.161 -0.1120231077 0.5254140496 0.8434399366
-0.1141857 -0.14619194 1.1887143 0.365033716 -0.3943788707 0.8433360457
-0.22277288 -0.046147108 1.4449999 0.5953140855 -0.1783913821 0.7834396362
-0.14208469 -0.15551662 1.197 0.5205797553 -0.4812606573 0.7052551508
-0.27395394 -0.28165546 1.2550001 0.5713506341 0.4604257643 0.6793869138
-0.13375366 -0.084153786 1.302 0.4458584189 -0.6390583515 0.6267492771
0.071906827 -0.055507027 1.439 -0.8418931365 -0.3620868325 0.4001363814
-0.063861661 -0.068343177 1.2780001 0.2298976779 -0.8264248371 0.5139737725
-0.23428291 0.0041688425 1.4746668 0.6467600465 -0.3290866017 0.6880431771
-0.1292382 -0.0073850402 1.404 0.4651223421 -0.1599532515 0.870675683
-0.21515216 -0.17515986 1.2772857 0.5446062088 -0.7115162015 0.44401443
-0.097750083 -0.1147504 1.2120001 0.3470083177 -0.8758653998 0.3353281915
-0.26885614 -0.034098826 1.4960001 0.8339958191 -0.1189516038 0.5387963653
-0.17509542 -0.075041458 1.426625 0.3132101893 0.2222433984 0.9233132005
0.038454983 -0.043416917 1.4150001 -0.762599647 -0.4301208556 0.4831540585
-0.11438183 -0.20505637 1.1754001 0.1474013329 0.2370650023 0.9602463245
-0.0088686524 -0.12385283 1.2143334 -0.878669858 -0.2862022817 0.3821354806
0.0024225807 -0.095434636 1.2542 -0.7973716259 -0.3538139164 0.4888908267
-0.066587217 -0.054480448 1.381 0.4419944286 0.04477724433 0.8958994746
-0.07454627 0.024038132 1.3870002 0.2555632889 -0.1778042465 0.950301528
-0.11170574 -0.27875197 1.169 0.3598374128 0.1595041901 0.9192798734
-0.23126905 -0.23342039 1.2270001 0.5869890451 -0.3468360007 0.7315385938
-0.15253152 -0.18727674 1.189 0.5600722432 -0.4126421213 0.7183631063
0.026168363 -0.064386182 1.3243077 -0.6622220278 -0.4429835081 0.6043406129
-0.1924758 -0.034491949 1.427 0.5050676465 -0.01362589467 0.8629721999
-0.14581238 -0.10303869 1.2839092 0.4793706238 -0.7109810114 0.5144996047
-0.16457801 -0.30504039 1.1957203 0.3288315535 0.1988708377 0.9232118726
-0.12794775 -0.29510528 1.177 0.2756888568 0.1730131358 0.945548594
-0.17209668 -0.23191077 1.197 0.2967169285 0.4086912274 0.8630936146
-0.17415355 -0.19584115 1.2049333 0.6217370033 -0.4149750471 0.6642580628
-0.015176415 -0.14287868 1.194 -0.7696090341 -0.19775334 0.6071207523
-0.14601952 0.014850458 1.4115626 0.3255656958 -0.2378060222 0.9151258469
-0.12356091 -0.12746266 1.2150002 0.5566964149 -0.757055819 0.3419877589
-0.20648567 -0.0050671333 1.4450001 0.6455993652 -0.2783342004 0.7111480236
-0.20602718 -0.055275586 1.4330003 0.4414437413 -0.08600710332 0.8931574225
-0.058512241 -0.089935482 1.2360001 -0.1276644617 -0.8089835048 0.5738009214
-0.041586436 -0.18764611 1.1570001 0.033837758 -0.4452822506 0.8947506547
-0.0029736534 -0.13360225 1.2340001 -0.6332133412 -0.4837014675 0.604213357
-0.24595238 -0.19366048 1.2837694 0.633718729 -0.6118904352 0.4732764959
-0.017076589 -0.24280423 1.1610001 -0.397023499 0.02715715021 0.917406559
-0.15139332 -0.0246168 1.404 0.3048484027 -0.003753762227 0.9523934722
-0.10708308 0.054567236 1.4040002 0.437366724 -0.3292776346 0.8368312716
-0.044310238 0.083081707 1.404 -0.08773075044 -0.4975982904 0.8629595637
-0.090471998 -0.037395094 1.376 0.3775062859 -0.05057425424 0.9246249199
-0.27330908 -0.095777243 1.5089999 0.7832366824 -0.2013075352 0.5882308483
-0.073532753 -0.099113308 1.2156668 -0.07734601945 -0.8214755654 0.5649738908
-0.084723458 -0.095322207 1.2550908 0.4588518441 -0.7836223245 0.4187971652
-0.0454727 -0.032309551 1.365 0.4254257083 -0.5676214695 0.7048537731
-0.15808959 0.04738763 1.4350001 0.5571095943 -0.3930460513 0.7315351367
-0.22374725 -0.19973534 1.245 0.6567597389 -0.429068625 0.6201344728
-0.19803637 -0.14096537 1.302 0.5565526485 -0.6724193096 0.4879563451
-0.24250734 -0.14109978 1.3450001 0.4362781942 -0.6640057564 0.6072542071
-0.055309344 -0.014424895 1.3715001 0.1824896187 -0.3178144097 0.9304254651
-0.024471801 0.035937782 1.3818001 -0.04162010178 -0.3675112426 0.9290873408
-0.11471006 -0.014643842 1.3920001 0.397733748 -0.1024504378 0.9117630124
0.01322364 -0.119011 1.2570001 -0.6568882465 -0.5304868221 0.5357999206
-0.024242951 -0.06232243 1.3031112 -0.09679419547 -0.8621244431 0.4973653555
-0.15301564 -0.15514268 1.2157143 0.7340177894 -0.5559988022 0.3899784982
-0.10586452 -0.064252652 1.396 0.4957975745 0.26536268 0.8269022703
-0.061703306 -0.054718025 1.3280001 0.2264518887 -0.9435465932 0.2417423129
-0.23518158 -0.064370133 1.4539999 0.7051073909 -0.09068609774 0.7032777667
-0.055884521 -0.28693038 1.1850001 -0.3460356891 0.7125838995 0.61031425
-0.19566935 0.024748826 1.455 0.6412885785 -0.4347258508 0.6322676539
-0.1351901 -0.054134168 1.4107692 0.3737776577 0.219497785 0.9011719823
-0.084955461 0.0048594726 1.3843753 0.2342296839 -0.2815102935 0.9305312634
0.061556902 -0.038944162 1.4330001 -0.7512433529 -0.4580550492 0.4752041698
-0.16724257 -0.11162042 1.3036667 0.6362676024 -0.6295521259 0.4459009469
-0.23434021 -0.10443202 1.4527498 0.4751625359 0.06197707728 0.8777126074
-0.046838984 -0.2518225 1.149 -0.154299289 0.2648938298 0.9518523812
0.010142595 -0.07663513 1.2855 -0.7999850512 -0.3711774647 0.4714352489
-0.077725448 -0.022518586 1.381 0.2925700843 -0.1576646268 0.9431567192
-0.27340406 -0.21556395 1.2964444 0.7763163447 -0.4280768037 0.4626912475
-0.27934808 -0.15213323 1.4960001 0.7832127213 -0.1336731911 0.6072143912
-0.22530648 -0.086141273 1.4449998 0.5549323559 0.1514483839 0.8179935813
-0.15334325 -0.23407722 1.1960001 0.4529336691 0.2594377398 0.8529613614
-0.047526438 -0.12145048 1.2046667 0.1304763705 -0.8336473107 0.5366638899
0.017661326 0.01135371 1.439 -0.8831803203 -0.4608189166 0.08739817142
-0.12527654 -0.22052813 1.1810001 0.3333123922 -0.01209089346 0.9427388906
-0.10643215 -0.17224528 1.1730001 0.3859934211 -0.4025547802 0.8300353885
-0.045386869 -0.084955856 1.2540002 -0.2677386999 -0.7351173759 0.622830987
-0.26775563 -0.15150611 1.3260001 0.5766124129 -0.4217976928 0.6997177005
-0.23556121 -0.26882762 1.244 0.4583183527 0.5963049531 0.659063518
-0.072015539 -0.21807522 1.1570001 0.5315827727 -0.256603688 0.8072015047
-0.00119139 0.00119139 1.3590001 0.2144378871 -0.700520575 0.6806521416
0.03066054 -0.096520998 1.2953334 -0.6574983597 -0.5002804399 0.563396275
-0.18119298 -0.14784457 1.268 0.5488753915 -0.6560899019 0.5179592967
-0.084409922 -0.2843596 1.1653812 0.062011078 0.4080723822 0.9108411074
-0.12761022 -0.14079265 1.2030001 0.5136886835 -0.5682108402 0.6428533196
-0.21817078 -0.26893327 1.2320001 0.545603931 0.3795573711 0.7471629977
-0.20056731 -0.16954032 1.2640001 0.5582864285 -0.7259367108 0.4016617239
-0.0039412742 0.026391394 1.3840001 -0.3043937385 -0.5149677992 0.8013442159
-0.17441197 -0.015381992 1.4150001 0.5083754659 -0.09841877222 0.8554929495
-0.14224222 -0.25582576 1.1886667 0.6212423444 -0.1292297989 0.7728891373
-0.22717401 -0.32513499 1.2415715 0.6849053502 0.2150826603 0.6961638331
0.019866142 -0.033889305 1.3330001 -0.64320153 -0.4412063658 0.6258024573
0.0051767165 -0.21017469 1.1810001 -0.5988054872 -0.2878613174 0.7473739982
-0.26026216 -0.12818883 1.4770001 0.8120456338 -0.08644602448 0.5771559477
-0.21362805 -0.33195177 1.2270001 0.5994936824 0.234868288 0.7651432753
-0.014802225 -0.041290417 1.3330001 0.3917528689 -0.6792584062 0.6205946207
-0.017380854 -0.19529194 1.1663334 -0.5852863789 -0.2551860809 0.76962322
-0.12133243 -0.053516995 1.3980001 0.5406396389 0.2730372846 0.7957131267
-0.055411972 0.053327508 1.3870001 0.06150018424 -0.2196989805 0.9736272693
-0.26338178 -0.18486336 1.3367501 0.6820665598 -0.4984056354 0.5351420641
-0.054668378 -0.23305029 1.149 0.02489547618 -0.04115798324 0.9988424182
-0.24199726 -0.16824505 1.3145001 0.6846149564 -0.5783242583 0.443670392
-0.042528413 -0.03780055 1.3475001 0.4893965125 -0.7544679642 0.4373433292
-0.090272993 -0.16938865 1.1570001 0.2247287631 -0.1649952829 0.9603507519
-0.10378769 -0.090395726 1.273 0.3828801513 -0.6862676144 0.6184170246
-0.20184374 -0.11227558 1.439 0.3847138584 0.201803118 0.9007056952
-0.01518036 0.064413965 1.4039999 -0.3787944615 -0.5690922141 0.7298279405
-0.16965428 -0.2708146 1.202 0.3809156418 -0.3390032053 0.8602209687
-0.24496447 -0.016386943 1.4758334 0.6612151861 -0.307238698 0.6843966842
-0.16002235 -0.070707552 1.4150001 0.2882376611 0.2431954443 0.926161468
-0.11682986 -0.26132995 1.169 0.3905490935 0.1168584079 0.9131349921
-0.12903306 -0.31218272 1.187 0.2313789129 0.379122436 0.8959519863
-0.033293694 0.022437057 1.3760002 0.3020987809 -0.3725639582 0.8774579167
-0.17657897 -0.31627655 1.202 0.3957403898 0.2134922892 0.893202424
-0.14017461 0.050859816 1.4150001 0.4444184601 -0.3715121448 0.815150857
-0.14729053 -0.041438278 1.4039999 0.2659324408 0.2022851855 0.9425288439
-0.26002723 -0.28569514 1.273 0.7181138396 0.438178122 0.5406593084
-0.092507616 -0.10864267 1.2270001 0.3897344172 -0.8676859736 0.3085905612
-0.0029939921 -0.037090365 1.3140001 0.4032149911 -0.7073905468 0.5805310011
-0.21587141 -0.14231105 1.3228571 0.5585787892 -0.6189309359 0.5521903634
-0.24792594 -0.18337214 1.3032501 0.6861334443 -0.6307823062 0.3624011278
0.0078119766 -0.1026717 1.273 -0.7792952657 -0.4324450791 0.453530699
0.013023274 -0.14587839 1.2265557 -0.5560082197 -0.5131242871 0.6538794637
-0.25837931 -0.19147561 1.3157501 0.6879187226 -0.6515182853 0.3198307753
-0.21925083 -0.22141093 1.2320001 0.6385229826 -0.4675502479 0.6112979054
-0.056632668 -0.062295932 1.2920001 0.07832441479 -0.9474081397 0.3102952242
-0.16728598 -0.13321191 1.2742499 0.6277749538 -0.5784243345 0.5208876133
-0.036605217 -0.13073291 1.1930001 -0.01271065511 -0.6756563783 0.7371070981
-0.14525367 -0.065526098 1.4210001 0.2877680063 0.1729457825 0.94195503
-0.21559018 -0.1852548 1.2534001 0.6093890667 -0.6518053412 0.4514362812
-0.1282125 -0.1216375 1.25 0.4759508669 -0.7827957273 0.4008760154
-0.0010607666 -0.16017577 1.21 -0.599319756 -0.5225672722 0.6064150929
-0.025514506 -0.11231518 1.2125 -0.06284639984 -0.8343070745 0.5477061272
-0.022777552 -0.16461959 1.181 -0.5073146224 -0.3516234159 0.7867609859
-0.19651549 -0.014716228 1.4330003 0.5789481401 -0.1965524703 0.7913192511
-0.064801805 -0.20397422 1.1622 0.4633035064 -0.478430897 0.7459582686
-0.076245457 -0.062070854 1.29325 0.1798898131 -0.8634254932 0.4713131189
-0.081644259 -0.14791617 1.169 0.2808310688 -0.5793795586 0.7651491761
-0.27700064 -0.12403812 1.507 0.7370420098 -0.09213953465 0.6695367098
-0.27904913 -0.081444964 1.5230001 0.872341156 -0.1038642004 0.4777375162
-0.027623767 0.0048041334 1.3700001 0.3415124118 -0.2173517495 0.9144001007
-0.17593655 -0.093825251 1.427 0.272252202 0.1577562839 0.9492058158
-0.25451612 -0.30514166 1.2651764 0.6869650483 -0.1266558468 0.7155678272
-0.23662725 -0.29359764 1.2536155 0.7005633712 -0.2020849735 0.6843775511
-0.19374605 -0.20617132 1.2154167 0.6159186959 -0.4350599051 0.6567853689
-0.24103002 -0.027465617 1.4640001 0.6452643871 -0.2718670666 0.7139483094
-0.25529858 -0.16472587 1.3373749 0.6086372137 -0.3480069935 0.7130581141
-0.24769619 -0.24355921 1.2414 0.6806100607 -0.2607002556 0.6846935749
-0.094369657 0.062950246 1.3979999 0.4085447192 -0.3483987749 0.8436287642
-0.024541002 -0.095078953 1.2335385 0.2323878109 -0.8347055316 0.4992620051
-0.095677204 -0.20493294 1.1756667 0.0832252875 0.0899779126 0.9924603701
-0.20527457 -0.095710523 1.4365001 0.3603948951 0.2061155289 0.9097427726
-0.11856741 -0.11191877 1.2640001 0.3635390997 -0.7317512035 0.5765236616
-0.033316664 0.054717153 1.3870001 -0.04689333588 -0.3673487008 0.9289004207
-0.1683083 -0.2446835 1.21 0.3044683933 0.2084150761 0.9294418693
-0.28942493 -0.09515734 1.5075002 0.7725039124 -0.2764396966 0.571680665
-0.29150611 -0.075751007 1.5430001 0.8835935593 -0.09899909049 0.4576697052
-0.19136406 -0.28863198 1.2060001 0.6127213836 -0.02649002708 0.7898548841
-0.25444722 -0.2310113 1.273 0.7153099179 -0.4500235021 0.5346125364
-0.2487191 -0.054125398 1.47 0.785353601 -0.02666939795 0.6184726954
-0.075034775 -0.12834962 1.1958572 -0.1526165307 -0.7020619512 0.6955697536
-0.27519459 -0.05496512 1.5081428 0.8811062574 0.01392191555 0.4727134407
-0.26926991 -0.26926991 1.2640001 0.6751220822 0.4403199553 0.5918855667
-0.0010458634 -0.18198022 1.1930001 -0.6094735265 -0.3854712844 0.6927870512
-0.024314351 -0.22470982 1.1609999 -0.3761847317 -0.109709315 0.9200266004
-0.19199993 -0.10701003 1.322 0.5191882253 -0.5446843505 0.6586064696
0.015201321 -0.01328668 1.3339092 -0.1009288356 -0.6830536127 0.7233610153
-0.084404364 -0.25612572 1.1564999 0.3229054511 0.08704774082 0.9424196482
-0.23146629 -0.13413176 1.3540001 0.5656426549 -0.6219499111 0.5415040851
-0.028030833 -0.25294435 1.1556667 -0.3102146685 0.2029192746 0.9287575483
-0.026203215 0.073227622 1.3968002 -0.3115579486 -0.5513109565 0.7739430666
-0.08483386 -0.10736769 1.2046667 -0.03319655359 -0.8317673802 0.5541308522
-0.13908112 -0.18498135 1.1810001 0.5378888845 -0.2696925104 0.7987123728
-0.077084199 -0.1831096 1.1685001 -0.2749730349 0.2409599423 0.9307674766
-0.21581252 -0.014776392 1.4532 0.6535289884 -0.258664161 0.7113316655
-0.25418535 -0.20811352 1.2772857 0.703794837 -0.4198265374 0.5730780959
-0.21979348 -0.24338107 1.223 0.4897221923 0.001372602768 0.8718774319
-0.22688892 -0.16347671 1.302 0.5386297703 -0.6655213237 0.5166810751
-0.051134214 -0.065585189 1.268 -0.02630754374 -0.8408057094 0.5406973958
-0.20193666 -0.2273109 1.2060001 0.5005851388 -0.08597308397 0.8614076376
-0.14637846 -0.17357683 1.1933076 0.5617489815 -0.3975626826 0.7255219221
-0.23379479 -0.30514976 1.2435454 0.7344108224 -0.14333269 0.6633976698
-0.20197611 -0.27037013 1.2190001 0.58821702 0.05896611884 0.8065505028
-0.11442129 0.023277076 1.3974 0.4086076021 -0.2267765552 0.8840883374
-0.0038711573 -0.065444715 1.2753075 -0.03805518895 -0.8445528746 0.5341181755
-0.20464663 -0.24458703 1.2139412 0.4378664494 0.1668357104 0.8834244609
-0.10344553 -0.076854989 1.2865716 0.3388887346 -0.6978082061 0.6310452819
-0.18139549 0.012510033 1.427 0.5892234445 -0.31978181 0.7419941425
-0.013550199 -0.026090916 1.3355 0.4849459231 -0.6365535855 0.5996890664
-0.23484398 -0.20534272 1.2541766 0.6683781147 -0.4371543527 0.6018029451
-0.027973339 -0.091593035 1.25125 0.2200081944 -0.8315977454 0.50994277
-0.07094425 -0.088407449 1.245 0.2552707493 -0.848773241 0.4630559385
-0.22240332 0.00127818 1.4580001 0.6468219161 -0.2925406396 0.7043020129
-0.098383039 -0.290025 1.169 0.2723003328 0.2335135937 0.933447361
-0.01131163 -0.21080765 1.1730001 -0.5389646888 -0.2047247887 0.8170709014
-0.23420578 -0.18669084 1.2768888 0.5743216276 -0.6727755666 0.4663986862
-0.044860914 -0.20494634 1.1543332 -0.1099146679 -0.2224155515 0.9687363505
-0.22405495 -0.29693362 1.2346668 0.709256351 -0.2126897126 0.6721001267
-0.14455557 -0.21527876 1.1862798 0.3312908113 0.2564190328 0.9080174565
-0.0068903076 0.040936533 1.3870001 -0.4010522068 -0.4896790981 0.7741908431
-0.12941791 -0.28057805 1.1810001 0.34897089 0.07506332546 0.9341225028
0.014104787 -0.066699713 1.3042223 -0.7454915643 -0.4095435739 0.5258482099
-0.12459552 0.054551318 1.4141668 0.4061655104 -0.3986459374 0.8222596645
-0.098074451 -0.10570057 1.243 0.4416109025 -0.8483208418 0.2921157479
-0.18514061 -0.17539468 1.2350001 0.4775389433 -0.7227725983 0.499556154
-0.16717565 -0.15663432 1.2436666 0.641977787 -0.6407432556 0.4210850298
-0.16245173 0.034491949 1.427 0.5714127421 -0.379296869 0.7277508974
-0.24446359 -0.27373952 1.255 0.4799273014 0.5519194007 0.6819492579
-0.24718475 -0.094909862 1.467 0.7790278792 -0.07107430696 0.6229478121
-0.14568077 -0.13350089 1.2537692 0.5788027048 -0.6338562965 0.5130435228
-0.054526333 0.07560958 1.3960003 0.04925175384 -0.4143101275 0.9088021517
-0.063602306 -0.16715126 1.1733335 -0.3080325425 0.07994142175 0.9480112195
-0.23254459 -0.15681989 1.3153334 0.5726304054 -0.6630270481 0.4821717739
0.040747467 -0.055882238 1.3280001 -0.7069270015 -0.4362373054 0.5567326546
-0.0108093 -0.0012010334 1.3700001 0.2609471083 -0.4482962191 0.8549485803
-0.057481766 -0.15423559 1.1685556 -0.3587879539 -0.05861052126 0.9315771461
-0.065966979 0.065970257 1.3935002 0.1131918654 -0.3555437922 0.9277802706
-0.0070890775 -0.054644037 1.3040001 0.3860772252 -0.7442404628 0.5450233817
-0.058422819 -0.2608881 1.149 -0.07595110685 0.4659805 0.8815290928
-0.18698424 -0.32565534 1.21 0.505841434 0.2340053469 0.8302806616
-0.26334453 -0.075106911 1.488143 0.8258807063 0.02216005139 0.5634092689
-0.17782657 -0.13025513 1.2920001 0.6298541427 -0.6439607739 0.4342789948
-0.28034222 -0.19823362 1.3380001 0.681140244 -0.5874631405 0.4369611442
-0.13477544 0.034621391 1.4104166 0.3360240757 -0.1707037091 0.9262548685
-0.043759014 -0.17695586 1.1667778 0.1340218484 -0.5748721957 0.8071927428
-0.26184806 -0.026049273 1.4860001 0.7830128074 -0.1840114594 0.5941638947
-0.26777083 -0.2408817 1.2780001 0.7167301178 -0.4210212231 0.5559127927
-0.2436891 -0.22578759 1.2563751 0.6968820691 -0.4916154146 0.5221778154
-0.12759562 -0.1022997 1.273 0.3508434892 -0.7281274199 0.5888457298
-0.093853466 -0.11652741 1.1955456 0.1500784755 -0.6035710573 0.7830570936
-0.11188678 -0.11881069 1.2155001 0.4894618094 -0.8067936301 0.3309247792
-0.27619252 -0.28401765 1.2755001 0.6769115329 0.4905596375 0.54876405
0.0045334459 0.015268164 1.3718461 -0.006644287612 -0.6715145111 0.7409616113
-0.055904821 0.024306899 1.3862503 0.1783270538 -0.1738398671 0.9684932232
-0.22403389 -0.11456278 1.4519998 0.4361768067 0.1006404832 0.8942154646
-0.046245042 -0.13648385 1.177 -0.1686937809 -0.5580228567 0.8124979734
-0.20358938 -0.31489155 1.2169167 0.5621979833 0.1219384819 0.8179636002
-0.085494399 0.043966033 1.3931251 0.3343041837 -0.1076430678 0.9362978339
-0.012217051 -0.18284163 1.1810001 -0.6126062274 -0.3777643442 0.6942677498
-0.1834906 -0.11713241 1.316375 0.5095677376 -0.5999477506 0.616768539
-0.16027483 -0.16027483 1.2270001 0.7361554503 -0.5935465097 0.3252347708
-0.14379963 -0.014009133 1.41 0.3078323007 -0.07285475731 0.9486472011
-0.12569296 -0.12352584 1.2360001 0.5426586866 -0.7974612713 0.263774693
0.00104937 -0.16789919 1.197 -0.5985316634 -0.4961480796 0.6289649606
-0.094849855 -0.24495897 1.1633706 0.345385015 -0.1451475173 0.9271684885
-0.20370929 -0.18817824 1.2360001 0.5567266345 -0.5581565499 0.6152371168
-0.074630417 -0.045742497 1.3730001 0.417257905 -0.00980722066 0.9087352157
-0.16363496 -0.094736919 1.3166155 0.5889078975 -0.5996865034 0.5418151021
-0.16260764 -0.19909012 1.189 0.5480487943 -0.2545841038 0.7967618108
-0.26026216 -0.14243203 1.4770001 0.7771924138 -0.09214376658 0.622480154
-0.014311364 -0.078709975 1.2557501 0.03965826333 -0.8766604662 0.4794722795
-0.19508061 -0.25498918 1.2154616 0.3922678828 0.1207196862 0.9118950963
-0.10536072 -0.19422869 1.1681113 0.06354104728 0.2086838037 0.9759168029
-0.24413238 -0.12526163 1.4580001 0.5477250814 0.0319956094 0.8360463381
-0.1246111 -0.2349418 1.1754286 0.4963634014 -0.1235850006 0.8592730165
-0.031721085 -0.047867533 1.31575 0.08946228027 -0.8830586672 0.4606559873
-0.074658401 -0.0057843449 1.381 0.2407234162 -0.2316069156 0.9425553083
0.059291597 -0.061814643 1.439 -0.7926962376 -0.378429085 0.4779373705
-0.1332735 -0.13273567 1.2260002 0.5957018733 -0.7592699528 0.2620085776
-0.12463483 -0.15426327 1.1936318 0.4013836384 -0.4266854823 0.8104509115
-0.055049151 -0.10371169 1.2255882 -0.2304165065 -0.799959898 0.5540508628
-0.10457054 -0.024318732 1.3870003 0.3901029527 -0.08694475889 0.9166571498
-0.056840878 -0.044276051 1.3649999 0.5603199005 -0.4314356148 0.707039535
-0.24082297 -0.22883454 1.243 0.631749928 -0.5490371585 0.5472204685
-0.076541573 -0.082947873 1.2653334 0.3896392882 -0.7917600274 0.4704224765
-0.1656557 -0.044822153 1.4132355 0.3874363601 0.1719591767 0.9057168961
-0.11779594 -0.080418386 1.2920001 0.4198616445 -0.6486561894 0.6347923279
0.0379471 -0.036279097 1.427 -0.751234293 -0.411883682 0.5157508254
-0.051795218 0.0036171267 1.3740001 0.1819925755 -0.3011440039 0.9360507131
-0.15537222 -0.10584874 1.2936667 0.6197957993 -0.6322570443 0.4648700953
-0.16465861 0.004887159 1.4147062 0.4112360775 -0.2543981075 0.8753093481
-0.1136567 0.063911498 1.4135715 0.4283398688 -0.4147228599 0.8028262258
-0.15467156 -0.31434 1.1930002 0.2631872892 0.2947034538 0.9186306596
-0.084973544 0.073126271 1.3980001 0.3293741643 -0.3835617006 0.8627821803
-0.18405063 -0.19567537 1.2146153 0.6287754178 -0.4369970858 0.6431757212
-0.15306607 -0.29418513 1.189 0.3790082633 0.06875853986 0.9228352904
-0.037479427 -0.16213477 1.1810001 -0.09407268465 -0.3365301192 0.9369620085
-0.11471008 0.00488128 1.3920001 0.4101788104 -0.1548902243 0.8987560272
-0.11531366 -0.12560354 1.2040001 0.4830626845 -0.7069172263 0.5166415572
-0.17513821 -0.17771736 1.2128571 0.6394017339 -0.5209335089 0.5655030608
-0.10802082 -0.16116846 1.1810001 0.4200273156 -0.5222390294 0.7421882749
-0.17379415 -0.20496276 1.1946472 0.6128392816 -0.2523049116 0.7488459349
-0.0088187661 -0.09577208 1.2354287 -0.6039084792 -0.5734293461 0.5536003113
0.026164446 -0.10212103 1.2836251 -0.6127644181 -0.5574752688 0.5601260066
0.0045763943 -0.044605963 1.3047777 0.03950741887 -0.7358121872 0.6760321856
-0.25383556 -0.10495388 1.4735001 0.8200215101 -0.104016766 0.5628012419
-0.22460164 -0.02523783 1.4539999 0.6123155355 -0.2699770331 0.7430895567
-0.019804776 -0.12820987 1.189 -0.3800136447 -0.4559906423 0.8047745824
-0.18697385 -0.085844658 1.4330002 0.2307118773 0.1421159059 0.9625877142
-0.14703673 -0.11204398 1.2738333 0.489662528 -0.6829406619 0.5420541167
-0.29105684 -0.12891559 1.516 0.7237591147 -0.08851503581 0.6843521595
-0.011955395 -0.15436755 1.2033334 -0.7951498032 -0.3297456205 0.5089249611
-0.054726619 -0.058421243 1.317 0.1451963037 -0.9656669497 0.2154189497
-0.21386047 -0.29568484 1.2258571 0.6604026556 -0.2001562566 0.7237443328
0.03193083 -0.041391816 1.3490001 -0.8038038015 -0.4412229359 0.3990260363
-0.20699161 -0.2139089 1.2247779 0.6433210373 -0.451166898 0.6185357571
-0.093693659 -0.2264341 1.1668825 0.3108751476 -0.2982420325 0.9024457335
-0.043773599 -0.22392845 1.1535714 -0.2838726342 -0.01221985463 0.9587841034
-0.086642727 0.015864162 1.3920001 0.2381268442 -0.2874754667 0.9277141094
-0.025557354 -0.024663812 1.3558751 0.5685030222 -0.6174177527 0.5436907411
-0.10535565 -0.25469571 1.1667603 0.3698243499 0.05663724616 0.9273738265
-0.1730382 -0.25656173 1.2060002 0.3369760513 -0.1897613406 0.9221918583
-0.065643825 0.034036696 1.3866253 0.1937884986 -0.130464837 0.9723296762
-0.12798983 -0.091744922 1.2920001 0.4068063498 -0.6856039166 0.6037018299
-0.20416602 -0.13697369 1.31575 0.5706809759 -0.6048924327 0.5553632975
-0.26885614 -0.065574668 1.4960001 0.8428484797 0.04526018351 0.5362443328
-0.22538599 -0.25543809 1.22425 0.4239041805 0.2599145472 0.8676114678
-0.27664092 -0.2901907 1.2880001 0.7680333257 0.3811795413 0.5146134496
-0.014787614 -0.11620304 1.2050002 -0.5804758668 -0.6088435054 0.5407007933
-0.26759812 -0.15011601 1.4890001 0.7963039279 -0.1667540818 0.5814577937
