# .PCD v0.7 - Point Cloud Data file format
VERSION 0.7
FIELDS x y z normal_x normal_y normal_z
SIZE 4 4 4 4 4 4
TYPE F F F F F F
COUNT 1 1 1 1 1 1
WIDTH 512
HEIGHT 1
VIEWPOINT 0 0 0 1 0 0 0
POINTS 512
DATA ascii
-0.19836336 -0.14108196 1.21 0.4497404397 -0.6695544124 0.591126442
-0.075456455 -0.17796333 1.6240001 0.7999229431 0.4918792844 0.3437704146
-0.3615838 -0.12661959 1.4890001 0.8986573219 0.07806464285 0.4316491485
-0.075081237 -0.0036925201 1.404 -0.7694663405 -0.5877774954 0.2498782873
-0.2816914 -0.3910661 1.177 0.580098331 0.01153466944 0.8144647479
-0.35296202 -0.24684018 1.31575 0.7471690774 -0.4806043506 0.4590837061
-0.11823647 -0.2936531 1.1055001 -0.4625025094 0.5097098947 0.7254565954
-0.25992817 -0.01098288 1.3920001 0.700371623 -0.2839434445 0.6548707485
-0.058915507 -0.08448261 1.268 -0.5666888952 -0.5616478324 0.6028394699
-0.2542727 -0.25526708 1.1438891 0.6008358598 -0.1994467527 0.7740912437
-0.26629016 -0.15486611 1.3870001 0.2028027326 -0.01828984916 0.9790487885
-0.062886804 -0.17953169 1.1570001 -0.3059769571 -0.7205910683 0.6221950054
-0.17409119 -0.085887797 1.3238752 0.3686448336 0.3341704607 0.8674278259
-0.16504534 0.043491829 1.3473636 0.1391052604 -0.4310555458 0.8915385008
-0.0184626 -0.1046214 1.404 -0.114977181 0.7117432952 0.6929659247
-0.1639142 -0.18736774 1.1063634 0.0008549413178 -0.4173255265 0.9087566733
-0.33021492 -0.29708654 1.2190001 0.7357249856 -0.3093108833 0.6025243402
-0.27943751 -0.2005375 1.25 0.6747220159 -0.6192167997 0.4016475379
-0.34496132 -0.22479768 1.452 0.6519783139 -0.2119462639 0.7280130982
-0.18905228 -0.35909933 1.141 0.204823792 0.5060514212 0.8378300667
-0.11203011 -0.1092388 1.1943334 0.1768459231 -0.9029827118 0.3915964663
-0.10408432 -0.017083123 1.315182 0.2085581422 -0.6219894886 0.7547400594
-0.32150784 -0.06880518 1.427 0.7958673239 -0.3018503189 0.5248634219
-0.23900563 -0.084072337 1.3700001 0.486798197 0.1317691207 0.8635185957
-0.22301872 -0.18584748 1.1563333 0.776943028 -0.4704861343 0.4183328152
-0.1944938 -0.28553724 1.1127142 0.4570754468 0.09775900096 0.8840391636
-0.1318647 -0.080891788 1.2640001 0.1515193433 -0.9094778895 0.3871587217
-0.27785477 -0.3181653 1.1730001 0.5284014344 0.3476063609 0.7745719552
-0.32651186 -0.15887742 1.427 0.877053082 0.05936842039 0.4767108858
-0.33048579 -0.36732686 1.2360001 0.7909682989 0.1540221423 0.5921539068
-0.20222859 -0.01773935 1.3490001 0.4075826705 -0.1803584993 0.895179987
-0.076335847 -0.23394372 1.1138235 -0.330101043 -0.372318536 0.8674169779
-0.055518769 -0.054565661 1.3590001 0.5281431079 0.7454161048 0.4067181349
-0.29174852 -0.24772175 1.1956667 0.7237311602 -0.4882709384 0.4876522422
-0.15508251 -0.14798519 1.1561998 -0.009369990788 -0.8371558189 0.5468842387
-0.061113309 -0.1318761 1.223 -0.1961297244 -0.642914474 0.7404013276
-0.32287723 -0.24904346 1.2570001 0.834066391 -0.4735796452 0.2829408944
-0.23067817 -0.12913562 1.2590001 0.6371880174 -0.6324215531 0.4404933751
-0.13341112 -0.23918711 1.087 0.1147175133 -0.2810208797 0.9528206587
-0.20463403 -0.22596863 1.1149999 0.4009835124 -0.06259603798 0.9139441848
-0.10957106 -0.18261844 1.126 -0.4825767875 -0.4077946246 0.7751278281
-0.11368175 0.029916249 1.365 -0.5582230687 -0.7418941259 0.3714567423
-0.23761174 -0.18351263 1.21 0.6767138839 -0.5564629436 0.4820863903
-0.29473448 -0.10517457 1.395 0.5482731462 0.07691774517 0.832754612
-0.1834425 -0.10278916 1.25 0.3801147938 -0.7532513738 0.5367728472
-0.15531953 -0.034658045 1.3276666 0.2307784408 -0.2726602554 0.9340223074
-0.22883594 -0.323286 1.1427143 0.4712387323 0.006562544033 0.8819813132
-0.35537177 -0.1757489 1.471 0.6703277826 -0.2333571464 0.7044183016
-0.23520565 -0.38261777 1.1570001 0.4404974282 0.2187886834 0.8706856966
-0.22195797 0.020506987 1.376 0.5481610894 -0.4601520896 0.6984121203
-0.10254428 -0.14268713 1.1543332 -0.8018470407 -0.4063927531 0.4380482435
-0.34187281 -0.1135371 1.439 0.8438490629 -0.01145051979 0.5364584327
-0.28518465 -0.054358058 1.397077 0.6094917655 -0.2811455727 0.7412671447
-0.074370377 -0.054916918 1.3051251 -0.8054187298 -0.5422167182 0.2393777817
-0.094271906 -0.082386941 1.2325002 -0.3441450298 -0.7124919891 0.6114894748
-0.16614285 -0.32768998 1.1120001 0.201381892 0.2699411213 0.9415822625
-0.29807544 -0.34474915 1.21 0.6310244799 0.3643690348 0.684867382
-0.2545726 -0.22227913 1.1756667 0.6435158849 -0.689052403 0.3333078325
-0.20612395 -0.11273134 1.3571252 0.4982616007 0.3407781124 0.7972487807
-0.14491956 -0.1011737 1.2245001 0.02936952189 -0.8467434049 0.5311902165
-0.08562009 -0.01427038 1.3565001 -0.8029737473 -0.5118418336 0.3053703606
-0.31666794 -0.20255785 1.4210001 0.7717882395 0.1266219318 0.6231450438
-0.20792237 -0.062871203 1.3430001 0.5038045645 -0.04992093518 0.8623739481
-0.016986044 -0.074635647 1.37 -0.4280373156 0.2889020145 0.8563408852
-0.11870768 -0.060495261 1.302 0.635689199 -0.5616111159 0.5296151638
-0.25725141 -0.16249309 1.2666668 0.751554966 -0.5041700006 0.425414741
-0.24052665 -0.038292799 1.365 0.5556545258 -0.1458815187 0.8185148835
-0.094421282 -0.055169217 1.2671109 0.2399412692 -0.7024117112 0.6701089144
-0.13405567 0.0043004397 1.3374447 0.2230278254 -0.2731354237 0.93576473
-0.15404566 -0.27507737 1.0924231 0.3416701853 0.05041293055 0.9384668469
-0.30245438 -0.28642842 1.1844286 0.7734264731 -0.2930844426 0.562061429
-0.18855523 -0.1646117 1.138 0.1983985901 -0.5928768516 0.7804710269
-0.23769617 -0.12389258 1.381 0.3514816761 0.3014575541 0.886331737
-0.075414926 -0.14602296 1.1845001 -0.4528486133 -0.6978060603 0.5549728274
-0.12977296 -0.32789963 1.13 -0.3646201789 0.6140666008 0.6999816895
-0.3013176 -0.17350711 1.398 0.535195291 0.1348022372 0.8339030743
-0.26504982 -0.35521036 1.167316 0.6574507952 0.07129445672 0.7501170635
-0.29809472 -0.2311314 1.2320001 0.662646234 -0.6442960501 0.3818148077
-0.16611502 -0.23279496 1.1120002 0.2340278178 -0.2060561627 0.9501430392
-0.31312054 -0.21657877 1.27675 0.7392759323 -0.5695828199 0.3592303693
-0.22665954 -0.28432274 1.1440003 0.4346578121 0.2226448804 0.872640729
-0.149057 -0.11987101 1.189 0.01336872019 -0.8403754234 0.541839838
-0.20258276 -0.15806773 1.1754001 0.6258862615 -0.7642026544 0.1557585001
-0.34326059 -0.27212435 1.2880001 0.7313358784 -0.4828521311 0.4816654921
-0.094809659 -0.26258883 1.0964546 -0.4001356959 0.108960323 0.9099555612
-0.26766679 -0.21179974 1.21 0.6177325845 -0.6362711787 0.4621314406
-0.23126905 -0.14951813 1.2270001 0.6166067123 -0.5705786943 0.542435348
-0.054669518 -0.033505615 1.3926668 -0.7236565351 -0.6325856447 0.2759648561
-0.17154831 0.003812185 1.3380002 0.2239365429 -0.224968031 0.9482836127
-0.27365905 -0.28441066 1.1569999 0.5191619396 0.1351277232 0.8439261913
-0.1327824 -0.20749207 1.1055454 0.1546406299 -0.5060432553 0.8485319614
-0.34354743 -0.14482884 1.4568001 0.8436498642 0.1792868376 0.5060742497
-0.31140253 -0.1353924 1.404 0.6529723406 -0.01226532366 0.7572824359
-0.098839566 0.012284511 1.3342501 -0.5564450622 -0.576066494 0.5987623334
-0.1355654 -0.15859835 1.126 -0.09829307348 -0.6127530336 0.784137845
-0.23682362 -0.2245637 1.1441113 0.6915466189 -0.372957319 0.6186001301
-0.32164901 -0.25839135 1.223 0.7572609186 -0.4773645401 0.4457342327
-0.075219326 -0.20429768 1.1326666 -0.2387719154 -0.561624527 0.7921905518
-0.22160994 -0.25467867 1.126 0.4486553371 0.2211347967 0.8659144044
-0.32341582 -0.32446519 1.1970001 0.5277940631 0.335041523 0.7805002332
-0.14724317 -0.090172179 1.302 0.6319652796 -0.2649936676 0.7282844186
-0.19886833 -0.32783738 1.123 0.4684753716 0.2306445688 0.8528387547
-0.34297827 -0.084785938 1.4580001 0.8494704962 -0.2637142539 0.4570061862
-0.19543675 0.025811637 1.3557856 0.4540451169 -0.3991696537 0.7965592146
-0.17376359 -0.11776596 1.2190001 0.4176509976 -0.7159309983 0.5594733953
-0.33316401 -0.18621714 1.4450001 0.8174498677 -0.06822405756 0.5719450712
-0.1951526 -0.19431995 1.1245788 0.500507772 -0.5178642273 0.6937640905
-0.065943584 -0.10660069 1.2442727 -0.5479848385 -0.6118693948 0.5703757405
-0.26421416 -0.10423523 1.3825003 0.2864051461 0.1724823713 0.9424552917
-0.10188304 -0.21352725 1.1131999 -0.4253949523 -0.4663278461 0.7756142616
-0.086996809 -0.11505844 1.2142727 -0.7638244629 -0.385239929 0.5178440213
-0.29017842 -0.18934421 1.2780001 0.6760816574 -0.5297797918 0.5121005774
-0.073207632 -0.041866444 1.3340001 -0.6969591379 -0.6871036291 0.2052718401
-0.26176566 -0.059108373 1.376 0.5746839643 -0.08943246305 0.8134741187
-0.22520058 -0.35435137 1.1443688 0.4122852385 0.197713986 0.8893424869
-0.32884702 -0.24465312 1.2919999 0.8088513613 -0.4143921137 0.4171794355
-0.25783059 -0.18462543 1.2340001 0.7462120056 -0.513432622 0.4237388968
-0.32128519 -0.10792205 1.4150001 0.7316429615 -0.04207286984 0.6803884506
-0.27157819 -0.24903207 1.169 0.7447948456 -0.3774910867 0.550255537
-0.18494907 -0.044225845 1.3346667 0.4108943641 -0.262348026 0.8731204867
-0.30426121 -0.37386504 1.2030001 0.7472606897 -0.240193069 0.6196037531
-0.19410217 -0.25457272 1.1125998 0.3351550698 -0.06265135109 0.9400776029
-0.23430406 -0.0050259302 1.3649999 0.5699198842 -0.2824706435 0.771622777
-0.14507124 -0.30737731 1.102 -0.1844962239 0.528519094 0.8286306262
-0.095099047 -0.17198357 1.1539999 -0.6304217577 -0.5560347438 0.5416583419
-0.2112942 -0.12894364 1.2360001 0.5669720173 -0.6390880346 0.5197203159
-0.1543825 -0.065150745 1.3170002 0.3171359003 -0.2260591388 0.9210440516
-0.30428094 -0.045515656 1.4225 0.7262474895 -0.3861231208 0.568747282
-0.25502923 -0.31471896 1.1551051 0.5226428509 0.03902940825 0.851657927
-0.085326552 -0.031336743 1.2919999 -0.07537772506 -0.759378314 0.6462683082
-0.13794701 0.042813335 1.3565001 -0.2924847007 -0.6170771718 0.7305261493
-0.12251266 -0.26647088 1.0905715 -0.3338623941 0.1634118855 0.9283493161
-0.11676323 -0.10565849 1.2256668 0.4563350081 -0.741879046 0.4912981689
-0.12566367 -0.03443747 1.3220003 0.3920328021 -0.3190028667 0.8628716469
-0.10042831 -0.13148861 1.1810001 -0.7566716671 -0.4154241979 0.5048472285
-0.05851604 -0.072237037 1.381 -0.03281939775 -0.2807812095 0.959210515
-0.30374399 -0.073987156 1.4040002 0.6617248654 -0.2315733731 0.7130876184
-0.23502293 -0.18843248 1.1810001 0.8037910461 -0.5596206784 0.2018530518
-0.092917897 0.006075738 1.3855001 -0.7633013129 -0.5882496834 0.2670831382
-0.28463024 -0.36494312 1.186 0.6946518421 -0.1156120002 0.7099948525
-0.12766458 -0.13992038 1.1650001 0.2827410102 -0.8429955244 0.4576200545
-0.35294598 -0.11294273 1.4640001 0.9067749977 0.01811904088 0.4212254286
-0.22067717 -0.168384 1.1930001 0.6672660708 -0.6860927343 0.2898839116
-0.16287591 -0.16879864 1.126 0.2706257105 -0.7553927898 0.5967775583
-0.06026382 -0.1110123 1.2060001 -0.4179967344 -0.5912716389 0.6896930933
-0.18484604 -0.10478534 1.3430001 0.3446485698 0.4188131094 0.8401267529
-0.28758872 -0.13437079 1.3920001 0.3570162058 0.07536143064 0.9310532212
-0.35752657 -0.15211131 1.483 0.8505641818 -0.0817534402 0.5194775462
-0.11164262 -0.24098074 1.1010001 -0.4498524368 -0.1888219714 0.8729141355
-0.18630061 -0.14656655 1.1562001 0.2236838639 -0.8180216551 0.5299114585
-0.21900272 -0.085464478 1.3540001 0.5910884738 0.2377896607 0.7707597017
-0.1676833 -0.29474002 1.101 0.4029459357 0.239574194 0.8833112717
-0.36595488 -0.1440074 1.507 0.8855400681 -0.01840202697 0.4641983807
-0.21099833 -0.30576247 1.126 0.6601514816 0.05685200542 0.7489778399
-0.13492236 -0.1838212 1.1233912 -0.2135494649 -0.3412052393 0.9154101014
-0.28502756 -0.084899463 1.3835001 0.4627276957 -0.0902768299 0.8818918467
-0.065815747 -0.032309551 1.365 -0.7375436425 -0.5731960535 0.3570373356
-0.10425183 -0.074670762 1.2546667 0.4747354984 -0.7304180264 0.4910353422
-0.26426417 -0.034604553 1.3851254 0.6176614165 -0.2547599375 0.7440374494
-0.11029255 -0.037522208 1.2970001 0.6961845756 -0.507986784 0.5072242618
-0.21492578 -0.20534275 1.135 0.5992048979 -0.4294100404 0.6756926179
-0.276939 -0.0246168 1.404 0.6473609805 -0.3503199816 0.6769044995
-0.18363167 -0.20538041 1.1056665 0.2670972347 -0.1550632566 0.9511122108
-0.21363656 0.0045164693 1.3553334 0.4586164653 -0.2263442278 0.8593248725
-0.33211815 -0.13586579 1.4350001 0.838729918 0.1615552008 0.5200307965
-0.24966678 -0.28706625 1.153 0.2910704613 0.2931190431 0.9106916189
-0.31205252 -0.2758517 1.2042859 0.7481295466 -0.2776812613 0.6026568413
-0.35528672 -0.19535904 1.4565001 0.5711092353 -0.292457968 0.767008841
-0.36245081 -0.24984474 1.3380001 0.733561039 -0.488034755 0.472980231
-0.030157333 -0.094090879 1.376 -0.3410504162 0.6069608331 0.7178322673
-0.24607283 -0.34558016 1.153 0.5306236148 0.1662448645 0.8311445117
-0.037746344 -0.047777746 1.3740001 -0.2606981397 -0.6262542605 0.7347394824
-0.065756507 -0.067362063 1.2837144 -0.7011048198 -0.6220209599 0.34862867
-0.25030234 -0.16145045 1.2360001 0.7388669252 -0.4940257668 0.458273083
-0.21912143 -0.035847604 1.3540001 0.4982127547 -0.1658217311 0.8510506153
-0.11436513 -0.15483737 1.1369568 -0.3713446259 -0.4889082015 0.7893490791
-0.095603481 -0.15435557 1.1743335 -0.5904330015 -0.5440611243 0.5961429477
-0.1583523 -0.097357333 1.3380001 0.4679327607 0.3068255782 0.8287925124
-0.13327307 -0.087579437 1.2410001 -0.1125255972 -0.8405740261 0.5298805237
-0.13211016 -0.077911116 1.2880001 0.6208610535 -0.7159565687 0.3192768693
-0.30535451 -0.31435788 1.1850001 0.5040197968 0.3895617425 0.7708473802
-0.16210355 -0.096826956 1.2410001 0.3423102796 -0.8126334548 0.4716466665
-0.32925758 -0.21193591 1.439 0.7371049523 -0.1846520454 0.6500614882
-0.23443907 -0.063408419 1.3590001 0.5240280628 0.0502913557 0.8502148986
-0.30525196 -0.22554485 1.2540001 0.6823298931 -0.6125063896 0.3990761638
-0.13178185 -0.12333341 1.2050002 0.01284533087 -0.8819775581 0.4711163342
-0.088579632 -0.013789441 1.3330001 -0.8490113616 -0.4735168815 0.234438628
-0.15408741 -0.24606848 1.0962381 0.475110203 -0.3262757063 0.8171991706
-0.12441278 0.026265811 1.3442858 -0.1371547729 -0.6814062595 0.7189395428
-0.058748063 -0.16593517 1.1756667 -0.4050980806 -0.6861383915 0.6042430401
-0.085507043 -0.13617964 1.2041818 -0.6071218252 -0.6151106954 0.5030326843
-0.037528783 -0.072079092 1.3590001 -0.1400065273 0.02379971929 0.9898645282
-0.17499858 -0.2650913 1.1042306 0.4549964964 -0.1430022269 0.8789360523
-0.21050344 -0.17857875 1.138 0.6249942183 -0.3591011465 0.6931295991
-0.28371885 -0.3344948 1.1886364 0.6300166249 0.3592626452 0.688483417
-0.21223223 -0.27836972 1.126 0.6918994784 0.09633093327 0.7155386209
-0.19462536 -0.084415659 1.3373749 0.4396617711 0.2423842996 0.8648394942
-0.25457549 -0.23476194 1.1560906 0.7260733843 -0.3608678877 0.5853134394
-0.078220367 -0.07822036 1.2567501 -0.5485573411 -0.5688189268 0.6128048897
-0.11091762 -0.067222804 1.2780001 0.622209847 -0.6208235025 0.4768994749
-0.3320086 -0.086465813 1.4378002 0.8061213493 -0.2754126787 0.5237520933
-0.24591406 -0.20331682 1.1947777 0.7141028643 -0.573444128 0.4015207589
-0.31454065 -0.35533088 1.2245387 0.7476344109 0.1226224005 0.6526917815
-0.063941613 -0.15173031 1.2036002 -0.4225319922 -0.7247306108 0.544272244
-0.24464498 0.0043358682 1.3844286 0.6731532812 -0.3906405568 0.6279049516
-0.18454868 -0.30562302 1.1137998 0.407297194 0.1545228958 0.9001287222
-0.22596741 -0.10590354 1.3649999 0.4709375799 0.307136327 0.8269734383
-0.26132995 -0.38635838 1.169 0.5306313038 0.1504733562 0.8341391683
-0.28770536 -0.23196775 1.2110001 0.6808228493 -0.6188223958 0.3918405771
-0.27041221 -0.17880318 1.2590001 0.7232810259 -0.5048708916 0.471136868
-0.34090146 -0.31632239 1.2190001 0.8893620372 0.04102929309 0.4553589523
-0.18539235 -0.064480849 1.326154 0.4655817151 -0.05181220919 0.8834869266
-0.15508008 -0.13484769 1.1742176 -0.1110478565 -0.7779616117 0.6184206009
-0.21657613 -0.15314008 1.2110001 0.5461996198 -0.6306754351 0.5512843728
-0.33836922 -0.1659885 1.4565001 0.8195810318 -0.01613943838 0.5727359653
-0.15495592 -0.01355572 1.3330001 0.125203982 -0.3122618496 0.9417093396
-0.27310115 -0.22782727 1.1954 0.6344316602 -0.6571781635 0.406956166
-0.13496299 -0.05543467 1.3158236 0.3508617878 -0.4427804947 0.8251311779
-0.18357135 -0.015835231 1.3380002 0.3870057762 -0.1742800325 0.9054573178
-0.28851387 -0.27381444 1.1735716 0.7291637063 -0.3092170954 0.6104957461
-0.13509445 -0.28553101 1.0929583 -0.2624374032 0.3789025247 0.8874454498
-0.094959147 -0.094957463 1.2148334 -0.4616672993 -0.6573390365 0.5956246257
-0.13291173 -0.14830892 1.1456667 0.2451243401 -0.8271592855 0.5056892037
-0.1745501 0.024282889 1.3473337 0.289904654 -0.3215014935 0.9014388919
-0.1475928 -0.2220716 1.1120001 0.3251357079 -0.3547951281 0.8765883446
-0.25538164 -0.13508336 1.3852358 0.1961807013 0.1363375783 0.9710433483
-0.24398001 -0.27313349 1.1380002 0.2495020032 0.3500343859 0.902897954
-0.2544736 -0.19529764 1.2153076 0.6533636451 -0.5857494473 0.4795972705
-0.28331324 -0.17144707 1.3870001 0.391315937 -0.02697237022 0.9198610187
-0.134195 -0.016066143 1.3279998 0.2108359635 -0.3280902505 0.920817554
-0.18637988 -0.34588984 1.1248751 0.2939816415 0.5084148049 0.8093758225
-0.264503 -0.33436286 1.1657273 0.6812313795 0.0834370777 0.7272977829
-0.30237392 -0.24564585 1.2162 0.6890164018 -0.57816571 0.4370135069
-0.28495172 -0.21530999 1.234182 0.6836169362 -0.6264164448 0.3745267391
-0.31928727 -0.30137345 1.202 0.7524659038 -0.3058745861 0.5832973719
-0.32353383 -0.34050611 1.21 0.3701551557 0.6701859236 0.6433008313
-0.14499103 0.025978986 1.3433532 -0.03025939316 -0.3410199583 0.9395689368
-0.0784266 -0.048176341 1.2780001 -0.6157332659 -0.4931554198 0.614548862
-0.23197477 -0.2369104 1.126 0.5675901771 -0.1224586293 0.8141531348
-0.076853625 -0.1669987 1.1660908 -0.3469331861 -0.7030061483 0.6208218336
-0.20562129 -0.10988227 1.2410001 0.4661370516 -0.7144453526 0.5218085051
-0.11517848 -0.0046513295 1.3270998 0.1617497057 -0.4141535461 0.8957197666
-0.088634506 -0.18921798 1.136 -0.3898496628 -0.546182096 0.7414191365
-0.290025 -0.30232286 1.169 0.5285701156 0.2035934329 0.824113667
-0.16085079 -0.20666891 1.1120001 -0.1942895055 0.01988728717 0.9807426333
-0.31767771 -0.1656374 1.4100001 0.7357398868 0.1037761196 0.6692662835
-0.18406975 0.042294346 1.3590001 0.387144208 -0.4203310311 0.8206346035
-0.24524184 -0.10579276 1.3712858 0.4493951201 0.2495816946 0.8577604294
-0.32071039 -0.23801558 1.2746667 0.8433330655 -0.4192582965 0.3361722827
-0.31347746 -0.24388215 1.2348573 0.726154387 -0.6070530415 0.3227791786
-0.29515526 -0.15431438 1.397 0.436119765 -0.01115105767 0.8998195529
-0.19514465 -0.12508303 1.2247498 0.4486774504 -0.7117162347 0.5405076742
-0.20551348 -0.34593615 1.1306665 0.3682565689 0.3670070469 0.8542206287
-0.082136653 -0.10483179 1.2328002 -0.7017473578 -0.4602506161 0.5438014865
-0.10586385 -0.27692217 1.104769 -0.4522827268 0.4323277771 0.7800852656
-0.23507427 -0.30473438 1.1461431 0.4613687098 -0.06281512231 0.8849819899
-0.29476106 -0.2049374 1.2666667 0.6545404792 -0.6102673411 0.4462628365
-0.31140253 -0.094774671 1.4039999 0.6938468218 -0.1080741584 0.7119666934
-0.26513815 -0.084747374 1.3810003 0.3562147915 0.01990143582 0.934192121
-0.19513284 0.0047304933 1.3490005 0.4137744606 -0.1645043641 0.8953931928
-0.33242738 -0.25631607 1.2767501 0.8234017491 -0.4343535602 0.3651664555
-0.30116919 -0.33055153 1.197 0.3267417252 0.6280155182 0.7062835097
-0.11610887 -0.096158937 1.2444286 0.3788145483 -0.7785152793 0.5004133582
-0.33063045 -0.068406299 1.4450001 0.8066887856 -0.3274512887 0.4919643104
-0.18130226 -0.17801185 1.126 0.3838270605 -0.6277289391 0.6772246361
-0.12498798 -0.31497854 1.1164117 -0.4671005309 0.5718994141 0.6743501425
-0.18616065 -0.14331543 1.1952224 0.4606637359 -0.7453512549 0.4819132388
-0.31381705 -0.18569005 1.4120833 0.7281847 0.1909189075 0.6582530141
-0.15064465 -0.15862583 1.138 0.2498907596 -0.8162853718 0.5208001137
-0.32638299 -0.34922981 1.2410001 0.7500153184 0.2677908242 0.6047851443
-0.23284827 -0.16689049 1.218375 0.6595265269 -0.4879376888 0.571788013
-0.27208686 -0.26397246 1.1570001 0.6908222437 -0.2649241686 0.672740519
-0.077126503 -0.0078943828 1.3855001 -0.7419220209 -0.6090728045 0.2803247571
-0.11412112 -0.11680391 1.177 0.01766275801 -0.7963173389 0.604621172
-0.1630784 -0.12243877 1.2040001 0.409229368 -0.755431354 0.5117174983
-0.21706003 -0.37110266 1.141 0.22569713 0.3605794907 0.9050101042
-0.093427241 0.0011826233 1.3490001 -0.8323569894 -0.5029127598 0.2329390496
-0.32829639 -0.27597481 1.223 0.7404743433 -0.3020869195 0.6003675461
-0.18469672 -0.23533176 1.1126521 0.2065280229 0.05146446824 0.977086246
-0.31606621 -0.37400091 1.2238001 0.7484842539 -0.1794060022 0.6384237409
-0.086486079 -0.02344265 1.3153334 -0.6973661184 -0.6152795553 0.3675752282
-0.24508286 -0.3640731 1.1551998 0.4500637352 0.1816308945 0.8743299246
-0.097104572 -0.042366087 1.2830001 0.370811224 -0.6032510996 0.7061070204
-0.30729973 -0.11528868 1.4040002 0.5832778215 -0.002984133549 0.8122672439
-0.05937488 -0.052389599 1.3280001 -0.6303835511 -0.7252114415 0.2769204676
-0.20509671 -0.044818293 1.3430003 0.4930251241 -0.1585982591 0.8554372191
-0.095081314 -0.23513071 1.1060311 -0.3790422976 -0.2891099751 0.8790576458
-0.12531596 -0.22465879 1.0944194 -0.08399388939 -0.4021092951 0.9117308259
-0.079235762 -0.029565584 1.3490001 -0.7576698065 -0.5815598369 0.2961834073
-0.33986965 -0.20494013 1.452 0.6779655814 -0.2252425104 0.6997345686
-0.066018254 -0.19105284 1.141 -0.2633055747 -0.638346076 0.7233149409
-0.23461217 -0.20673138 1.1466002 0.6761630177 -0.4620949328 0.5738221407
-0.21508265 -0.32510179 1.1305997 0.5301590562 0.1123925298 0.8404161334
-0.27504489 -0.065417401 1.3870003 0.5407018661 -0.1962050647 0.8180128932
-0.21959624 -0.054602306 1.3540001 0.5586742759 -0.09179095924 0.8242921233
-0.29788902 -0.26440153 1.1936666 0.7613532543 -0.3451218009 0.5488462448
-0.13635558 -0.13150993 1.1843334 0.1992119998 -0.8158832192 0.5428159833
-0.24266571 -0.14807339 1.245 0.7144231796 -0.5839241147 0.3855283558
-0.27465191 -0.12404276 1.3855002 0.250028342 0.1000926942 0.9630510211
-0.078924544 -0.064473577 1.268 -0.5286086798 -0.6195402145 0.5802954435
-0.14426427 -0.1113805 1.21 -0.06150165945 -0.8376712799 0.5427009463
-0.18457742 -0.32508191 1.1129998 0.399480015 0.2060449719 0.8932867646
-0.32355574 -0.17614774 1.4250001 0.8422202468 0.15487881 0.5164083242
-0.3518151 -0.13660219 1.47 0.8773952127 0.1300858855 0.4617957175
-0.2254433 -0.13604027 1.2436666 0.5804278255 -0.6616358757 0.4747014642
-0.26885176 -0.23279709 1.1750001 0.7295156717 -0.5235429406 0.4401246309
-0.18476595 -0.11435845 1.2338184 0.4000967741 -0.729475081 0.5547870398
-0.2067259 -0.15635613 1.197 0.549565196 -0.7177849412 0.4275077581
-0.017023113 -0.091195248 1.3870001 -0.6407030225 0.4941790104 0.5876110792
-0.30401748 -0.056618638 1.404 0.6810500622 -0.3113037944 0.6627675295
-0.26774821 -0.20247371 1.2246001 0.6648304462 -0.6213291287 0.4146692157
-0.3524645 -0.25877818 1.3032501 0.724087894 -0.4980643392 0.4771044552
-0.20155883 -0.15863021 1.1476668 0.5202797055 -0.6921033859 0.5003018379
-0.32128519 -0.14761752 1.4150001 0.8042994738 -0.01179013588 0.594107151
-0.29199719 -0.037582699 1.4133334 0.673009038 -0.3747055531 0.6376947165
-0.1756265 -0.1551064 1.1457145 0.01732855476 -0.7155095339 0.6983880401
-0.24861389 -0.0684589 1.3700001 0.532602787 0.07354941219 0.8431635499
-0.14536136 -0.19429444 1.1145768 -0.2257703394 -0.2338552177 0.9456952214
-0.17797208 -0.13074781 1.2060001 0.4567316175 -0.6777096391 0.5762863159
-0.1218479 -0.17137957 1.13 -0.2799338102 -0.4047172368 0.8705406785
-0.14135373 -0.32072675 1.1120001 -0.2844887674 0.6306714416 0.7220247388
-0.29291362 -0.38478562 1.1882001 0.6316238046 -0.1244866475 0.7652152777
-0.14254811 -0.25454623 1.087 0.2074927241 -0.1358052939 0.9687640071
-0.12455063 -0.19544616 1.1141934 -0.1519692987 -0.5030699372 0.8507796526
-0.17332473 -0.13804886 1.1630001 0.03744557127 -0.8100113869 0.5852174163
-0.22477472 -0.17672986 1.1743335 0.7297450304 -0.652985692 0.2026867419
-0.08628767 -0.21719065 1.1185001 -0.3551300168 -0.4793311357 0.8025735617
-0.20329127 -0.20700923 1.1170001 0.5321655273 -0.3926874399 0.7500642538
-0.22111636 -0.218155 1.126 0.6119599938 -0.3808806539 0.693134129
-0.094433144 -0.12436607 1.1950001 -0.7687251568 -0.4383326173 0.4657532871
-0.27104801 -0.37353557 1.1738001 0.6046447754 0.08233690262 0.7922281027
-0.32619065 -0.12528303 1.4234002 0.794010222 0.06733860821 0.6041632891
-0.074010551 -0.093758628 1.2514616 -0.6230187416 -0.506855607 0.595772624
-0.15483336 0.0046919198 1.3379999 0.02622127347 -0.2637147009 0.9642442465
-0.096864648 -0.19794369 1.1243638 -0.4496842623 -0.4814403951 0.7523292303
-0.11399472 -0.13129748 1.161 -0.1376055479 -0.8229741454 0.5511608124
-0.325789 -0.095272064 1.4248183 0.7864730358 -0.1708111316 0.5935348868
-0.14093381 -0.075623021 1.307 0.5754870176 -0.3913841844 0.7180759907
-0.24314173 -0.24529748 1.1366667 0.65001899 -0.2253872603 0.7257243991
-0.14137039 -0.22792368 1.097 0.4291642308 -0.4448479116 0.7860842347
-0.068080619 -0.016270496 1.3745 -0.7663132548 -0.5696346164 0.2971201539
-0.24539126 -0.17531514 1.2250001 0.6848428249 -0.470738709 0.5562331676
-0.075175337 -0.12349807 1.225 -0.4623817503 -0.5946993232 0.657674551
-0.15504062 -0.085013747 1.3155715 0.5324304104 0.1095167696 0.8393592238
-0.02752295 -0.057040319 1.3649999 -0.2485594749 -0.2161568403 0.9441898465
-0.21691912 -0.12422587 1.25125 0.5620312095 -0.6508977413 0.5103459954
-0.089748748 0.00119665 1.365 -0.8121877313 -0.5392925739 0.2225188017
-0.24443251 -0.32490018 1.1474001 0.5289196372 0.02280379832 0.8483654857
-0.24416918 -0.024055734 1.3720001 0.6403057575 -0.1310578287 0.7568569183
-0.17113936 -0.038419038 1.3280001 0.2975240946 -0.2735822797 0.914675951
-0.05865952 -0.055208959 1.312 -0.3744867146 -0.8312521577 0.4108278453
-0.10605737 0.022862943 1.3442003 -0.3659975231 -0.7329075336 0.5734913945
-0.33316401 -0.15581435 1.4450001 0.8781986237 0.09908279777 0.4679206908
-0.1151781 -0.2148674 1.1040666 -0.3380883038 -0.4617627561 0.8200435638
-0.10769177 -0.09194801 1.2243334 0.4147833884 -0.711984694 0.5665972829
-0.16421822 -0.10655254 1.2256669 0.3688204587 -0.7596996427 0.5355631709
-0.34761587 -0.12593843 1.456 0.884998858 0.1433013827 0.4429918528
-0.26377922 -0.27499884 1.1484287 0.5342508554 0.1153427213 0.8374199271
-0.27118719 -0.1673995 1.273 0.7070083022 -0.4898433387 0.5100909472
-0.20509398 -0.094294265 1.3445002 0.4860174954 0.2921676636 0.8236656189
-0.34872222 -0.15541722 1.47 0.7966195345 -0.03885510564 0.6032309532
-0.11546472 -0.08133503 1.2640001 0.4725544751 -0.764598608 0.4382706881
-0.34236962 -0.1846057 1.4580001 0.6836106777 -0.2120211273 0.6983720064
-0.33422917 -0.36052915 1.25 0.7791987062 0.2501747012 0.5746842623
-0.13068645 -0.10152501 1.2320001 -0.180739522 -0.8048800826 0.5652444363
-0.27813476 -0.19170246 1.2640001 0.6935404539 -0.5239659548 0.4944302738
-0.21123779 -0.13928159 1.2190001 0.4859332442 -0.6521989703 0.5818121433
-0.34203148 -0.096275531 1.4450001 0.8304244876 -0.2004987746 0.519803226
-0.31136131 -0.065745614 1.4150001 0.746081233 -0.3095722198 0.5895149112
-0.10749264 -0.05400195 1.2857274 0.6994883418 -0.4817586839 0.5278490782
-0.27501082 -0.30475456 1.1652224 0.4383296371 0.2892441154 0.8510023355
-0.28227103 -0.15581359 1.3870001 0.2858093083 -0.02511171252 0.9579574466
-0.05332296 -0.04610448 1.3720001 -0.7256199121 -0.5422700047 0.4235787392
-0.24936345 -0.22086477 1.161 0.7311069369 -0.5215965509 0.4397950172
-0.27822551 -0.24299228 1.1820002 0.7180259824 -0.4668926001 0.5161879063
-0.11470657 0.013715574 1.335143 0.07483623922 -0.5302369595 0.844540298
-0.069005504 -0.21588881 1.1245 -0.1916020513 -0.5223355889 0.8309357166
-0.16891176 -0.27894568 1.1010001 0.5145777464 -0.007879296318 0.8574075103
-0.25053293 -0.38442096 1.1570001 0.4927678704 0.2429848909 0.8355466127
-0.14485954 -0.16873026 1.1190001 -0.09703406692 -0.5508515239 0.8289433122
-0.20491469 -0.24469043 1.1174347 0.3577866256 0.06166205555 0.9317652583
-0.22047991 -0.30727518 1.138 0.6161496043 -0.0333487615 0.7869228125
-0.19329798 -0.27100572 1.108 0.4450333714 -0.07802409679 0.8921085
-0.13223377 -0.2982499 1.1010001 -0.3796908557 0.5208197832 0.7645793557
-0.2242792 -0.014892372 1.3589998 0.4432311952 -0.1511573195 0.8835709095
-0.10926773 -0.031055041 1.312 0.5674003959 -0.5940008163 0.5702804923
-0.2197891 -0.1189023 1.3700001 0.426158309 0.3765034676 0.8225777745
-0.29504508 -0.21367504 1.2542223 0.664409399 -0.6213144064 0.4153655767
-0.22939737 0.0084072333 1.3700001 0.5670385361 -0.409799993 0.7145147324
-0.096103124 -0.10772013 1.2046667 -0.5898685455 -0.5624405742 0.5794098377
-0.25721836 -0.17426819 1.245 0.769416213 -0.4909146726 0.4086581469
-0.085694544 -0.25473213 1.1054285 -0.3498421907 -0.1850495189 0.9183502197
-0.2545279 -0.094090872 1.3760003 0.4504760206 0.1373817474 0.8821551204
-0.20428084 -0.26507279 1.11625 0.5015852451 0.07019963861 0.8622553349
-0.087007634 -0.077188089 1.2445 -0.4590230882 -0.7278920412 0.5093829632
-0.12508674 -0.11522546 1.2156249 0.1854116023 -0.881729126 0.4337929189
-0.26225457 -0.2175539 1.1950001 0.5847432017 -0.682867527 0.4379125535
-0.16565812 -0.31523365 1.1038094 0.2025663108 0.264485836 0.9428754449
-0.14523514 -0.04397922 1.3220003 0.2017814368 -0.3212430775 0.9252497554
-0.28687951 -0.25496951 1.1835001 0.7377561927 -0.3893529773 0.5514708161
-0.12564825 0.038691681 1.3650001 -0.2792461514 -0.7010095716 0.6562066674
-0.059414331 -0.15948057 1.189 -0.4474236071 -0.7225233912 0.5270408392
-0.30812028 -0.15590639 1.4040002 0.5456120968 0.006039563566 0.8380160928
-0.16457137 -0.055629745 1.3220003 0.2734570503 -0.2486448288 0.9291915894
-0.22489539 -0.19501139 1.1448464 0.6847250462 -0.4307895601 0.5878536701
-0.14759766 -0.093925774 1.2410001 0.07759713382 -0.8719408512 0.4834230244
-0.30645296 -0.36365363 1.2153846 0.7664361596 -0.1777988225 0.6172221899
-0.18432277 0.014128362 1.3430003 0.3238791227 -0.296887815 0.8983094692
-0.32960212 -0.22992863 1.2920001 0.8180763721 -0.3572749197 0.4506725073
-0.26229888 -0.3020595 1.1570001 0.4097652733 0.1967084408 0.8907290101
-0.30250961 -0.25500935 1.2040001 0.7109146118 -0.4490819871 0.5412262082
-0.25435412 -0.11506478 1.3816003 0.3533702493 0.2391221821 0.9044058919
-0.21240535 0.022138026 1.365 0.5208200812 -0.4312649965 0.7367203832
-0.28147486 -0.037175927 1.3980001 0.6446333528 -0.3464690447 0.6814741492
-0.11732781 -0.28177908 1.097 -0.4467346668 0.4167215824 0.7916888595
-0.16594072 -0.02570913 1.3330001 0.2971183062 -0.2405941188 0.9240320325
-0.33176818 -0.31654364 1.2060001 0.7537119985 -0.06792973727 0.6536847353
-0.17688173 -0.25292027 1.1120001 0.3914949 -0.1793035567 0.9025419354
-0.27457199 -0.14399774 1.3920001 0.2031933814 0.00452340534 0.9791281819
-0.3613804 -0.25862369 1.317 0.7244664431 -0.4960741401 0.4786008596
-0.19486506 -0.054668456 1.3363332 0.4720128775 -0.1496933401 0.8687897921
-0.15894406 0.01766045 1.3430001 0.09272588044 -0.2490250021 0.9640479684
-0.081670269 -0.0108093 1.3700001 -0.7556282878 -0.5785678625 0.3070589006
-0.2947838 -0.085445359 1.394182 0.5855640173 -0.1397819072 0.7984834313
-0.31378746 -0.22599843 1.2657778 0.7485492826 -0.552744329 0.3662617803
-0.32737818 -0.19563918 1.4356667 0.7996495962 -0.06922838837 0.5964629054
-0.10102794 -0.17404814 1.141 -0.6384156346 -0.4527902305 0.6224198937
-0.3480998 -0.24099216 1.3280001 0.742051065 -0.4988619387 0.4477689266
-0.092261657 -0.14462481 1.1844288 -0.6114703417 -0.5571479797 0.5618630648
-0.14436233 -0.025754094 1.3248237 0.1889481843 -0.2894409597 0.9383615851
-0.2681329 -0.19318664 1.245 0.7152326107 -0.571192205 0.4027179778
-0.33900174 -0.24654672 1.302 0.7551567554 -0.447681576 0.4788731337
-0.094859131 -0.023997582 1.3036667 0.1608885974 -0.8574702144 0.4887327552
-0.12479387 -0.075577311 1.2758571 0.4846072495 -0.7709109783 0.4133425951
-0.10076319 -0.15572493 1.161 -0.8211827874 -0.4367296696 0.3673227727
-0.10518184 -0.22510105 1.1031152 -0.4560518265 -0.3513728976 0.817651391
-0.11911708 -0.23823416 1.087 -0.2926905155 -0.2375648022 0.9262263179
-0.1756926 -0.096948817 1.3352729 0.357927382 0.3713813126 0.8567169309
-0.15477966 -0.29499507 1.0948261 0.2299640626 0.3268234134 0.9166803956
-0.22846811 -0.17390262 1.2046667 0.6977052689 -0.552963078 0.4554549158
-0.28626761 -0.22408216 1.223 0.6824088693 -0.6225488186 0.3830810487
-0.17477088 -0.18513823 1.1153479 0.3672095537 -0.6394351125 0.6754848957
-0.27218264 -0.34539911 1.1748183 0.742041409 0.03397195786 0.669492662
-0.20780462 -0.077117302 1.3430001 0.5135778189 0.1114273518 0.8507771492
-0.25466096 -0.024252983 1.3832502 0.6842141151 -0.2248085886 0.6937666535
-0.14484636 -0.14392051 1.1652001 0.1205468401 -0.8411648273 0.5271718502
-0.071438693 -0.16254891 1.1810001 -0.3696135581 -0.7128704786 0.5959877968
-0.28731021 -0.3543559 1.1950001 0.7660425305 -0.111712724 0.6330080032
-0.26067597 -0.24749002 1.1570001 0.7047967911 -0.3379817307 0.6237226129
-0.2441166 -0.055045903 1.3649999 0.5388274193 -0.05135793984 0.8408491611
-0.16551273 -0.24540578 1.1045183 0.4585267305 -0.2292377651 0.8586054444
-0.076882794 -0.17819858 1.1556666 -0.2875376344 -0.7210029364 0.6304576993
-0.28507838 -0.10407445 1.3848182 0.3936531544 0.0877834782 0.9150580764
-0.25354049 -0.047813695 1.375 0.5866549015 -0.1574036926 0.7943928838
-0.20405643 -0.36590117 1.1409999 0.2029319108 0.4192408323 0.8849043846
-0.35802233 -0.11394563 1.4770001 0.9169520736 0.03479753062 0.3974770904
-0.086507171 -0.066680752 1.2564615 -0.2985602319 -0.7008962631 0.647770226
-0.11499368 -0.25534758 1.0944285 -0.3836451173 -0.06591843069 0.9211249352
-0.2351829 -0.25500658 1.1305711 0.368627578 0.2046971619 0.9067595005
-0.19413824 -0.31499568 1.1175263 0.4491164088 0.123063229 0.884957552
-0.28726333 -0.073951386 1.3920001 0.5410359502 -0.2356850803 0.807299614
-0.21153089 -0.16821744 1.149 0.6638851166 -0.5527237058 0.503739059
-0.095745392 -0.0049748323 1.3250002 -0.4973164499 -0.5663192272 0.6572357416
-0.17482941 -0.21540071 1.1017998 -0.003854698502 0.1167698875 0.9931515455
-0.17172556 -0.1690675 1.1366667 0.2303185016 -0.7140666246 0.6611068249
-0.25588921 -0.36589611 1.1636667 0.5618110895 0.1379543841 0.8156818748
-0.3407647 -0.13174546 1.4450001 0.845236361 0.1975423545 0.4965405762
-0.23520507 -0.11524688 1.3704616 0.4095125496 0.3605814576 0.8380217552
-0.28508297 -0.28493407 1.1661428 0.6400202513 -0.07988142222 0.7641943693
-0.27867743 -0.26016748 1.1730001 0.7304708958 -0.3737345934 0.5716071725
-0.046190687 -0.063183114 1.3649999 0.05248751119 -0.07679561526 0.9956643581
-0.35216579 -0.21535318 1.4450001 0.6519783139 -0.2119462639 0.7280130982
-0.11792671 -0.043018475 1.3145 0.6334943175 -0.4459178746 0.6323307753
-0.29617068 -0.36274981 1.2038182 0.7584207058 -0.2073147446 0.6179147363
-0.11451118 -0.20485523 1.1145333 -0.3642390966 -0.5295940638 0.7660678625
-0.31179789 -0.056858845 1.4255 0.7686519623 -0.3396854699 0.542022109
-0.29490045 -0.32379869 1.1867778 0.4476626515 0.546538353 0.7077386379
-0.047318961 -0.041249793 1.3840002 -0.4824939072 -0.6957448125 0.53210783
-0.060913429 -0.11541492 1.2190001 -0.394618839 -0.6317665577 0.6671933532
-0.12262531 -0.067974627 1.2880001 0.6073723435 -0.6564685106 0.447378993
-0.30114889 -0.30291775 1.177 0.6444810629 0.1055112258 0.7573054433
-0.12262375 -0.17952117 1.1190001 -0.2401347756 -0.4004228711 0.8843058348
-0.10391656 -0.065278709 1.2664 0.4974756539 -0.6803391576 0.538197577
-0.21473764 -0.29472381 1.1331578 0.7041753531 0.009701125324 0.709959805
-0.31392995 -0.083740667 1.4116666 0.7444503307 -0.1813507974 0.6425772905
-0.11543544 -0.13759582 1.149 -0.02638465352 -0.7865766287 0.6169286966
-0.29586461 -0.22302563 1.2427143 0.6722757816 -0.6329299212 0.3839856386
-0.26531699 -0.31531593 1.1640003 0.5178859234 0.2210343182 0.8264006376
-0.21880437 -0.23554082 1.123 0.4667834342 -0.07297538221 0.8813557029
-0.19567779 -0.035085429 1.3430003 0.4064638913 -0.2391987443 0.8817998767
-0.2137634 -0.35461143 1.137143 0.3091063499 0.3044646084 0.9009742141
-0.072382852 -0.14117874 1.2036 -0.4779804647 -0.7151463628 0.5100003481
-0.26770771 -0.014770079 1.404 0.6587687135 -0.3144879639 0.6834626198
-0.25401023 -0.33530077 1.1566666 0.6287378669 0.1012822315 0.7709932327
-0.29616621 -0.27435091 1.1846668 0.7720085979 -0.3344971538 0.5404760838
-0.18504763 -0.19480675 1.1138749 0.4753133655 -0.5111267567 0.7161191702
-0.20462169 -0.0053871842 1.3540001 0.4187638462 -0.1433757395 0.8967052102
-0.2043553 0.014258874 1.35525 0.484346211 -0.3170190752 0.8154186606
-0.1451783 -0.0046793181 1.3355 0.1453631669 -0.3493859172 0.9256343842
-0.22301938 -0.33439302 1.1380001 0.4779157937 0.1413961947 0.8669507504
-0.24828514 -0.21504195 1.1850001 0.6875033379 -0.6568344235 0.3096897602
-0.21882915 -0.1740455 1.161 0.7333289981 -0.6192471981 0.2806447446
-0.15541196 0.0353209 1.3430003 0.06089544669 -0.4147451818 0.9078976512
-0.066423282 -0.11178552 1.2320001 -0.5207739472 -0.6621829867 0.5388025641
-0.35752657 -0.13781025 1.483 0.8783988953 0.05180381238 0.4751123488
-0.22115056 -0.073322646 1.3490001 0.5820924044 0.08913616091 0.8082222342
-0.23454338 -0.095732003 1.3649999 0.4586419165 0.1832585484 0.8695193529
-0.2024866 -0.29502293 1.1174617 0.5208947659 0.1079135686 0.8467722535
-0.030025832 -0.076866135 1.3700001 -0.354154557 0.2922221124 0.8883584738
-0.059147824 -0.071423784 1.273 -0.6423986554 -0.5902990699 0.4887442887
-0.15654995 -0.11220401 1.2148181 0.3029514849 -0.7957983017 0.5243334174
-0.06187864 -0.026690116 1.3840001 -0.7439190149 -0.6022489071 0.2896217704
