# .PCD v0.7 - Point Cloud Data file format
VERSION 0.7
FIELDS x y z normal_x normal_y normal_z
SIZE 4 4 4 4 4 4
TYPE F F F F F F
COUNT 1 1 1 1 1 1
WIDTH 512
HEIGHT 1
VIEWPOINT 0 0 0 1 0 0 0
POINTS 512
DATA ascii
-0.24668272 0.17592168 1.276125 0.3785938919 -0.7350906134 0.5624130368
0.042037919 -0.054493599 1.7760001 -0.9845638871 0.08999571204 0.1501155347
-0.41792452 -0.01275024 1.6160001 0.8837498426 -0.4607225955 0.08198096603
-0.11758057 -0.17285295 1.1463333 -0.2285662293 0.4483700693 0.8641306162
0.052563474 0.19343358 1.439 -0.9139247537 0.3703219891 -0.1661420316
-0.017062709 0.062924355 1.2165002 -0.6044319272 -0.6258416772 0.4929343164
-0.30257198 -0.044126637 1.2025715 0.6987210512 -0.2094807476 0.6840370893
0.064658552 0.081900828 1.6390001 -0.9628571868 0.1931840479 0.1886424124
-0.094298206 0.25813055 1.3445001 -0.02608233504 -0.8717646003 0.4892302155
-0.17509179 0.084258437 1.1332383 0.3029896617 -0.04325905442 0.9520115256
0.0043833335 -0.09095417 1.25 -0.002064534696 0.8740845323 -0.4857694805
0.015659194 0.054455556 1.3742001 -0.6478907466 0.5901706815 -0.4815975726
-0.10488813 0.17839356 1.224 -0.2187704444 -0.8072143197 0.5482194424
-0.084853239 -0.033413149 1.1279999 -0.2265987694 0.3020811975 0.9259589314
-0.23424242 -0.161174 1.2256669 0.6492731571 -0.3413770795 0.6796367168
-0.29228503 0.21524182 1.3950001 0.4577559233 -0.8168215752 0.3510868549
-0.29266673 0.08389245 1.2052002 0.5350592732 -0.5702950358 0.6232777834
-0.02547282 0.15502506 1.3142223 -0.8790550828 -0.05530675873 0.4735010862
-0.19546422 -0.064141318 1.1567498 0.00515134586 0.5501853824 0.8350266814
0.041989118 0.1711864 1.5790001 -0.9754181504 0.1234094203 0.1825639606
-0.19026735 0.24531324 1.365 0.2817957997 -0.9062331319 0.3151708841
0.025111239 -0.01027278 1.302 -0.5655238628 0.5336052775 -0.628846705
-0.084661692 0.10507005 1.1635602 -0.3586690426 -0.6155189276 0.7017784119
-0.2488004 0.016317148 1.153 0.4085061252 -0.2477452457 0.8784902096
-0.19470817 0.14206861 1.2052729 0.2955073416 -0.7333080173 0.6123191714
-0.051939614 -0.1170514 1.1815716 -0.5512375236 0.5427635908 0.6336756945
-0.042279132 -0.025913015 1.21 0.2346035391 -0.4557134509 0.8586538434
-0.16522171 0.21418943 1.2852727 0.1833119243 -0.816634655 0.5472701788
-0.020626213 0.22810428 1.3840001 -0.8447178602 -0.4356762171 0.3108663857
0.0361888 0.14113632 1.376 -0.232455343 0.4553272724 -0.8594425917
-0.045793764 0.034602076 1.1463335 -0.5787466764 -0.448612541 0.6810279489
-0.15447129 0.0044297962 1.1410002 0.1442483813 0.2049809843 0.9680780768
-0.1642997 -0.13441929 1.1960003 0.01456157304 0.5161480308 0.8563755751
-0.3135947 0.14713255 1.2970001 0.4850111604 -0.6217151284 0.6150076985
-0.068877943 0.21115042 1.2880001 -0.4997507036 -0.6325548291 0.5917124152
0.0053123613 0.084685273 1.307 -0.6592589617 -0.6251880527 0.4177529216
-0.053756211 0.11661125 1.257875 -0.7998805046 -0.4738505781 0.3683162332
-0.12535217 -0.084419534 1.1650001 0.1567502171 0.5750624537 0.8029524088
-0.25503615 -0.093332022 1.1859232 0.3589262068 0.6560546756 0.663900733
-0.25504544 0.21415199 1.336182 0.4591290951 -0.7125446796 0.5305473804
-0.23400132 0.09120927 1.169 0.3519088626 -0.6266653538 0.6953061819
-0.10527156 0.052513544 1.1248751 -0.1410511434 -0.07810264826 0.9869166613
-0.25450873 0.13316779 1.2264287 0.4144321382 -0.6321594715 0.6546911001
-0.30124107 0.021889489 1.189 0.5648340583 -0.435038954 0.7012158036
-0.14450009 0.1319094 1.169 0.1723444313 -0.7718623281 0.6119852662
-0.25642499 -0.1084875 1.25 0.8335469365 0.4365850687 0.3385159075
-0.17558581 -0.15164229 1.138 0.4944109023 0.4886140823 0.7188978791
-0.021520413 -0.046438787 1.2920001 -0.3407997489 0.7009826303 -0.6264813542
-0.0029736529 0.16462135 1.414 -0.5190560818 -0.6923103333 0.5012854934
-0.31356174 0.10672101 1.2550001 0.5191357732 -0.6341689229 0.5729990005
-0.16145045 0.18095452 1.2360001 0.1893963516 -0.8386400938 0.5106973648
-0.10708345 -0.13224529 1.1958572 0.07069536299 0.5062308311 0.8594955206
-0.02166857 -0.069133058 1.177 0.199125737 -0.3692298532 0.9077545404
-0.044674583 0.23506589 1.3340001 -0.6915055513 -0.5858899355 0.422555387
0.00119139 0.18347406 1.3590001 -0.8914045095 -0.2820632756 0.354736954
-0.25241664 -0.045933455 1.1569998 0.4216529727 -0.1226980612 0.8984174728
-0.14436245 0.24332058 1.3280001 0.1687206626 -0.860093832 0.4814269841
-0.071071364 0.13789967 1.21 -0.5851908922 -0.6124824286 0.531429112
-0.21502019 -0.13525254 1.1760911 -0.4667868316 -0.5452955961 0.6962490678
-0.094276078 -0.12453445 1.1409999 -0.2951868474 -0.1364034861 0.9456526041
-0.028377701 0.01200595 1.245 -0.9646221995 0.2397794873 -0.109589085
0.040655419 0.034850128 1.325 -0.5208268762 0.5895829201 -0.6173583865
-0.20052698 0.030927047 1.138 0.3378021121 -0.3365519643 0.8789894581
-0.067780353 -0.075538568 1.1539999 -0.7292417884 0.1293964386 0.6719099283
-0.13520828 -0.044680193 1.1323998 0.05465249717 0.4366857111 0.897952497
-0.21629909 0.20830914 1.302 0.3318099082 -0.7683739662 0.5472692251
0.051455949 0.093338698 1.365 0.04965017736 0.1388092041 -0.9890737534
-0.11598182 0.20795466 1.2640001 -0.02580693737 -0.8217906952 0.5692048073
-0.00118087 0.015354817 1.3470001 -0.6519972086 0.4195320904 -0.6315793395
-0.063082151 0.16593029 1.2504545 -0.7031369805 -0.4838397801 0.5210542083
-0.2074614 -0.014879662 1.1535714 0.3575424254 0.1242071763 0.9256003499
-0.039694589 -0.01119591 1.161 -0.8087838888 0.2352443039 0.5390071869
-0.12547182 0.10440223 1.13416 -0.3418110013 -0.2649363577 0.9016506672
-0.28573307 0.18389039 1.3147275 0.3134101629 -0.7992286086 0.5128427744
-0.27157819 0.060464576 1.169 0.6168202162 -0.1595382094 0.770766139
-0.050731823 0.067297317 1.1810001 -0.7222071886 -0.5268698931 0.4481348395
-0.20704237 0.168359 1.243 0.3416982293 -0.7649252415 0.5460143685
0.0019692855 0.12556817 1.3470001 -0.3541743159 -0.7939960361 0.4940959811
0.0127818 0.1725543 1.4580001 -0.9046706557 0.337148577 0.2605797946
-0.012189173 0.089756638 1.2640001 -0.416919291 -0.8126461506 0.4071665108
-0.020911714 -0.10243704 1.2130001 -0.7655373216 0.6432914734 0.01134169474
-0.19327827 0.11300409 1.1665001 0.3639376462 -0.6671707034 0.6499482393
-0.19360919 -0.17566325 1.1810001 0.6302645802 0.4359124005 0.6424538493
-0.10571092 0.23407546 1.3050001 -0.03834177926 -0.8453798294 0.5327878594
-0.085441299 0.01173584 1.126 0.0478829667 -0.318453908 0.9467282295
0.019120976 -0.061861984 1.2830001 -0.2013519853 0.5597726703 -0.8038108945
-0.31250975 0.045106255 1.2250001 0.8232834339 -0.1494239867 0.5476101637
-0.18441209 -0.16296881 1.223 -0.02385438047 0.5542884469 0.8319827318
-0.10466219 0.15335637 1.1861763 -0.2527904809 -0.6841964722 0.6840848923
-0.14834733 0.046312105 1.13 0.2864375412 -0.3259927034 0.9009341002
-0.2745235 -0.016186619 1.1842942 0.648846209 0.2672819793 0.7124317288
-0.019065455 0.031550359 1.1863333 -0.7273740768 -0.4809333682 0.4895202219
-0.18514371 -0.097355299 1.1827779 -0.04405293614 0.5079908371 0.8602352142
-0.28310439 0.14321858 1.2664 0.5096575618 -0.6547920704 0.5581187606
-0.23179944 0.23420151 1.3700001 0.3155327439 -0.8960376978 0.3123387396
-0.054099098 0.098651297 1.21 -0.8559401631 -0.3921981454 0.3369673789
-0.18536802 0.23269749 1.3232 0.2048083693 -0.8580616713 0.4709391296
-0.032920592 0.11511667 1.295 -0.7670496702 -0.3690487146 0.5248217583
-0.14764732 0.15819538 1.2030001 0.187647447 -0.7165784836 0.6717914343
0.0369252 0.17354843 1.404 -0.6477728486 0.5435697436 -0.5337811708
-0.031755321 0.19539954 1.322 -0.7352747917 -0.4014256001 0.5461030006
-0.30771089 -0.0096494695 1.223 0.8225470781 0.1427809894 0.5504815578
-0.046210933 0.17470731 1.2857274 -0.8667237759 -0.1780967116 0.4659092426
-0.23451972 0.054011367 1.1557691 0.2047032267 0.3164909482 0.926245153
-0.23191077 0.12067755 1.197 0.4038142562 -0.7308716774 0.5502368808
-0.2816914 -0.065005712 1.177 0.6221981049 0.2410836816 0.7448142171
-0.17245035 -0.03463259 1.1380002 0.2521129251 0.07535456121 0.9647594094
-0.075322196 0.065280706 1.1456403 -0.595854938 -0.1939728409 0.7793146968
-0.054283023 -0.058476292 1.1954 -0.1931169927 -0.6192483306 0.7610764503
0.032379102 0.1467572 1.439 -0.8899965882 -0.2547411323 0.3781706095
-0.13359113 -0.14576571 1.126 -0.2129938155 0.3640152216 0.906711936
-0.0041511417 -0.014440202 1.3254286 -0.6525614858 0.5485921502 -0.5226950645
-0.19352171 0.19263242 1.2672001 0.2876384854 -0.8055053949 0.5180976391
-0.22539744 -0.083361357 1.1671177 0.05391563848 0.6091324091 0.7912337184
-0.083905697 0.19652581 1.2523572 -0.4492385685 -0.6779494882 0.5818669796
-0.09769135 -0.10626077 1.1730002 0.5153123736 0.4382290542 0.7364838123
-0.28615242 0.11528589 1.2336001 0.4775445163 -0.636726141 0.6054180861
-0.26190591 0.10161881 1.1950001 0.5040338635 -0.6687403917 0.5465676188
-0.15503512 -0.067314103 1.155857 0.09228554368 0.7163298726 0.6916320324
-0.13548031 -0.15209439 1.2060002 -0.03106713668 0.573208034 0.818820715
-0.12448762 -0.0060324413 1.126 0.126205951 -0.1742501557 0.9765802026
0.043919247 0.058163326 1.3540001 -0.3590177 0.6319414973 -0.6868451238
-0.12819672 0.25995445 1.3540001 0.1521629691 -0.8764061332 0.4569011927
-0.13527328 -0.11522719 1.1849998 -0.08174928278 0.4564335644 0.8859940171
-0.0060051666 0.15012917 1.3700001 -0.9541237354 0.008706383407 0.2992859483
-0.22320195 0.22631823 1.3330001 0.3253441751 -0.8060721159 0.4943672121
-0.21533564 -0.13259584 1.21 0.1313041002 0.6652600765 0.73497504
-0.20492046 0.065238528 1.1435001 0.2864665687 0.1856965423 0.9399221539
-0.021120653 -0.077812932 1.268 -0.05927235261 0.7957379222 -0.6027337313
-0.10587394 -0.05831784 1.1420001 0.10650561 0.5776748061 0.8092887998
0.022203336 0.096993528 1.3330001 -0.6961316466 -0.4105505347 0.5889388323
-0.03507318 0.085135348 1.2337143 -0.5140706897 -0.7587577105 0.4000226259
-0.112468 0.12875296 1.161 -0.3098868132 -0.6647043228 0.6798075438
-0.075331971 0.23828082 1.3220001 -0.2414323539 -0.7164135575 0.6545701027
-0.23757227 0.15607736 1.245 0.3864844739 -0.7611547709 0.5208389163
-0.28132057 0.20535216 1.3540001 0.4945191145 -0.7792361975 0.385021776
-0.1354212 0.22470151 1.2945 0.15433079 -0.8448424935 0.5122725368
-0.16167004 0.11231283 1.149 0.272026211 -0.7109031081 0.6485511065
-0.057529878 -0.045019209 1.1484287 -0.5704035163 0.4560844898 0.6831008792
-0.054395121 0.0051238253 1.1316665 -0.5378654003 0.003820227459 0.8430220485
-0.24564201 0.1953713 1.3032501 0.3980531991 -0.7742071748 0.4920944273
-0.054944564 0.13595383 1.2834167 -0.8082279563 -0.1993979216 0.5540830493
-0.24526468 -0.015403263 1.1628948 0.3480505645 0.3062167764 0.8860542178
-0.16895646 -0.17811675 1.161 0.5134562254 0.6035985947 0.6099438071
-0.024927139 0.21840923 1.3540001 -0.8241338134 -0.452883184 0.3401474953
0.02174484 0.13826436 1.4039999 0.1487448215 -0.8851896524 0.4408108592
-0.22375828 0.14336091 1.2173333 0.4100009501 -0.6250417829 0.6642454267
-0.13468231 0.073493309 1.1380002 -0.03144584596 -0.09655904025 0.9948303699
-0.11480207 0.025056344 1.1364617 -0.1918050498 0.22271429 0.9558290243
-0.17176004 0.025665294 1.126 0.1284432858 0.08968783915 0.9876529574
-0.27567694 0.16602521 1.2861251 0.4489350021 -0.705306232 0.5486351252
-0.1754671 0.055149745 1.1437203 0.2114986032 -0.1145130545 0.970646739
-0.23036082 -0.11153216 1.189 0.2272057384 0.4144428968 0.8812574148
-0.015839029 0.12516695 1.322 -0.7149769664 -0.3877552748 0.5817677975
-0.06528537 0.25995445 1.3540001 -0.3466945589 -0.8723612428 0.3446573615
-0.067614451 -0.11421367 1.1554998 -0.6428860426 0.02769033983 0.7654611468
-0.23608372 -0.13490497 1.2410001 0.4589734375 -0.2347154617 0.8568850756
-0.26736581 0.029821569 1.1730001 0.5535132289 -0.3114706278 0.7724047899
-0.13519485 0.19407119 1.2436666 0.1823810041 -0.8227034807 0.5384200811
-0.18521589 0.0032511186 1.14125 0.05095218495 0.3486686349 0.9358600974
-0.29123569 0.055520177 1.1950001 0.8160056472 -0.03079190664 0.5772232413
-0.15580733 -0.094928965 1.177 0.1051601693 0.4693066478 0.8767511845
-0.010896089 0.19976164 1.381 -0.8636469245 -0.4145483077 0.2868164182
-0.21847646 -0.04577465 1.153 0.2940293252 0.07689639926 0.9526981115
-0.14904122 -0.16904676 1.141 0.2129193246 0.5817028284 0.7850396037
-0.025502522 -0.045409784 1.1954446 0.2039955854 -0.4890066981 0.8480909467
-0.10529443 0.08524289 1.1438802 -0.1300106198 -0.4465946555 0.8852403164
-0.029923264 -0.09802448 1.177 -0.3963695467 0.2058382034 0.8947188258
0.027372262 0.11489456 1.3573335 -0.8108533621 -0.2846823931 0.5113440752
-0.17444851 0.16282782 1.2139231 0.3154571652 -0.6923045516 0.6490001082
-0.095816262 -0.15368393 1.143 -0.2794894874 0.1675782502 0.9454116225
-0.074446999 0.036429469 1.1412352 -0.215541631 -0.3485438228 0.9121726751
-0.065909237 0.11506403 1.1835262 -0.7388162613 -0.4493590295 0.5022220612
-0.17349596 0.13163288 1.177 0.2416630685 -0.7870642543 0.5675638914
-0.038292799 0.2417233 1.365 -0.7270408273 -0.5985275507 0.336417079
0.0020563095 -0.032693706 1.3040001 -0.5841782689 0.5202124119 -0.6229885817
-0.027261924 0.017582208 1.1625 -0.8666940928 -0.1016936377 0.4883643687
-0.091455333 0.12803745 1.1810001 -0.5944572687 -0.5167031288 0.6161480546
0.01064361 0.041391816 1.3490001 -0.6087622046 0.5264895558 -0.5934790373
-0.0076278765 0.067562945 1.243 -0.5916023254 -0.6481731534 0.4794561863
-0.015191756 0.17528951 1.3330001 -0.9060893655 -0.1304180622 0.4024838209
-0.077806801 0.16099195 1.2270001 -0.6724235415 -0.5520182848 0.4930744469
-0.28259504 0.0058927336 1.169 0.6267235875 0.09373894334 0.7735829353
-0.16499393 0.25045842 1.3540001 0.2410206646 -0.8913012147 0.3840458095
-0.21812694 -0.15911674 1.202 0.7974559665 -0.4529677331 0.3986027837
-0.094904751 -0.084143482 1.1563846 0.2852624655 0.422814399 0.8601472974
0.018860256 0.012340661 1.3280001 -0.6217316985 0.5307457447 -0.5759849548
-0.026257204 -0.0069276588 1.2248183 0.05576016009 -0.6379936934 0.7680200934
-0.055524699 -0.086464308 1.1763685 -0.6568152308 -0.3472301364 0.6693466902
0.026940553 0.087255217 1.376 -0.1634235829 0.02035462856 -0.9863460064
-0.048474263 0.21451201 1.3061668 -0.691755116 -0.483597219 0.5362915397
-0.2004507 0.09166339 1.149 0.3587798774 -0.511574626 0.7807486057
-0.09448012 0.21932885 1.2830001 -0.1933471859 -0.812582314 0.5498425961
-0.22552107 0.0051790555 1.1441671 0.2195506692 0.3433336616 0.9131919146
-0.19492069 -0.12195573 1.189 -0.0391947031 0.4155538678 0.908723712
-0.2545495 -0.073819332 1.1676669 0.3956353962 0.5210151672 0.7563172579
-0.18727703 -0.15877835 1.161 0.6401298046 0.4741440713 0.6045007706
-0.166216 0.19835109 1.2640001 0.1785960793 -0.8025350571 0.5692459345
-0.11504672 0.24752927 1.3256 0.08975186199 -0.8512621522 0.5170081258
-0.01556171 0.14500663 1.3448002 -0.9260918498 -0.1389812231 0.3507679105
-0.022754759 -0.089935482 1.2360001 0.05142867565 0.891160965 -0.4507629871
-0.045891747 -0.023943521 1.138 -0.7186385989 0.2414571792 0.652117312
-0.034621317 0.098955326 1.2739999 -0.5021086335 -0.7798371315 0.373819381
-0.066712581 0.089287043 1.153 -0.6768820286 -0.4392052889 0.5907024741
0.022457473 -0.034501702 1.2880001 -0.4512544274 0.4515402019 -0.7697278261
-0.218297 0.17840517 1.2640001 0.3568531275 -0.7415965199 0.5680584908
-0.18719289 0.21801122 1.302 0.2289230824 -0.8007768393 0.5534895062
-0.038370531 0.071462937 1.2046667 -0.7473703027 -0.5454759002 0.3793331981
-0.11430927 -0.032377757 1.1260002 0.05331090838 0.23691006 0.9700677991
-0.13606547 0.17792979 1.2245002 0.1193587705 -0.7851919532 0.6076405644
-0.26186472 0.082477674 1.1760001 0.5285268426 -0.5256564021 0.6665918827
-0.30593964 0.097141676 1.233143 0.5345686674 -0.6146817803 0.5800023079
-0.15251106 0.09229634 1.126 0.03215127066 -0.03215555847 0.998965621
0.051870614 0.11580416 1.376 0.2119442821 0.2392650396 -0.9475399256
-0.089718066 0.16254978 1.204 -0.5924904943 -0.6125169396 0.5232380033
0.028954545 0.18631095 1.4360001 -0.8252612352 0.5545218587 -0.1070018634
-0.032666352 -0.12118163 1.202 -0.582006216 0.7709349394 0.2587046325
-0.21570608 0.10676564 1.1747779 0.3877645135 -0.6556982994 0.6478413939
-0.11505022 0.1667718 1.2040001 0.01369347423 -0.8283450603 0.5600508451
-0.16423175 -0.15619621 1.2108572 0.07508110255 0.608810842 0.7897545099
-0.26085654 -0.13206545 1.245 0.4589734375 -0.2347154617 0.8568850756
-0.26332542 0.19511163 1.3232 0.409835726 -0.7655034661 0.4960232973
-0.22250037 0.033225041 1.1484287 0.3362998366 -0.43504861 0.8352455497
-0.066140994 0.19064169 1.268 -0.6167114377 -0.5628449917 0.5503385663
-0.018033033 -0.025458399 1.21 0.1119111329 -0.5487707257 0.8284482956
-0.18390933 0.18227215 1.245 0.2463482618 -0.8017827868 0.5444785953
-0.30469269 0.1358261 1.2744285 0.4772723019 -0.6801387072 0.5564373136
-0.19568416 -0.035123438 1.1446804 0.2613624632 0.05325352401 0.9637705684
-0.25971249 0.14793751 1.25 0.4233190119 -0.6925425529 0.5841111541
-0.056079604 0.054438371 1.1552498 -0.6030209064 -0.4788098931 0.6380492449
-0.18474503 -0.14399828 1.2041998 0.1388548464 0.5893010497 0.7958917022
-0.026887661 0.052731212 1.1950001 -0.6860248446 -0.5339627862 0.4942202568
-0.12437607 0.14380752 1.1752859 0.08736915886 -0.7464578748 0.6596720815
-0.29791063 0.16778874 1.302 0.4089778662 -0.6632149816 0.6268038154
-0.0048885853 0.093600817 1.2863334 -0.599008739 -0.759555757 0.2535026073
-0.2343777 0.21128631 1.317 0.3587503731 -0.7606265545 0.541059494
-0.17496355 -0.082880467 1.1671333 -0.01509859879 0.5838457346 0.8117241859
-0.26392171 -0.0022314673 1.1569999 0.4443467855 0.3783572614 0.8120355606
-0.12581569 0.042732868 1.1187145 0.01998624019 -0.02001625113 0.999599874
-0.10574047 0.19159223 1.2435 -0.09879236668 -0.8108642101 0.5768355727
-0.28978217 -0.013698793 1.202 0.8070822358 0.08950442076 0.5836156607
-0.15627828 0.22720937 1.3050001 0.1426847428 -0.8502756357 0.5066285133
0.043627754 0.16240689 1.3824999 -0.6640004516 0.4395113587 -0.6049241424
-0.27548054 0.1038396 1.2139285 0.4961490631 -0.6614168286 0.5624623299
-0.20460032 0.12471358 1.1846925 0.3945932984 -0.7213973403 0.5691063404
0.0048672534 -0.074556045 1.2664616 -0.06559120864 0.7508903146 -0.6571617126
-0.22414708 0.19352673 1.2859167 0.3154502511 -0.7756765485 0.5466415286
-0.19513373 0.15760802 1.223 0.2995468378 -0.7174792886 0.6288840175
-0.14545804 -0.015024605 1.1299998 0.2525800467 -0.1638323963 0.953604877
-0.26839414 -0.041133199 1.1730001 0.5990769267 -0.1913549304 0.7774896026
-0.15461408 0.14189754 1.1872222 0.25006181 -0.7811897397 0.5720241666
-0.059402931 0.14796731 1.2320001 -0.6328849196 -0.5930392146 0.4977561235
0.016215703 0.15519391 1.4227144 -0.5923585892 -0.6749570966 0.4399366081
-0.003173884 0.15462402 1.3932002 -0.7943681479 -0.5459324121 0.2663401067
-0.23451892 -0.065471895 1.155769 0.100795567 0.2952857018 0.9500771761
-0.083323658 0.22942542 1.302 -0.2798155844 -0.8230970502 0.4941805899
-0.077468984 -0.14052002 1.1476668 -0.4440358579 0.04982328042 0.8946226835
0.0052350145 0.1143215 1.32725 -0.3916941881 -0.6421958804 0.6589082479
-0.038847618 0.15454593 1.293875 -0.7987775207 -0.03517523408 0.600597322
-0.038588017 0.044214025 1.1659999 -0.7300920486 -0.516435802 0.4475037456
-0.058614809 -0.060671471 1.1730001 -0.9164110422 0.1947919577 0.3496382833
-0.014870895 0.10525347 1.3050001 -0.5812167525 -0.6660898924 0.4674519598
-0.063029051 0.08637774 1.1835001 -0.8276434541 -0.3691043258 0.4228099585
-0.14601643 0.2082206 1.2746667 0.1872736663 -0.8186308146 0.5429292917
-0.20810401 -0.15633684 1.1810001 0.7600532174 0.2859514952 0.5835673809
-0.13396956 -0.062451977 1.149 0.03381734341 0.6881682873 0.7247625589
-0.08335638 -0.058349475 1.1409999 -0.2014374137 0.4548296332 0.8674980998
-0.13645755 0.11826321 1.153 0.1318797767 -0.7541745901 0.6432949305
-0.22594455 0.077187471 1.1534444 0.3072383702 -0.4297972023 0.8490458727
-0.15584311 0.0667518 1.1409999 0.09594086558 -0.02676254511 0.9950271845
-0.29588959 0.12555839 1.2508334 0.4826054275 -0.6653149128 0.5696033835
-0.21506424 -0.10097259 1.177 0.06413315237 0.5359122753 0.8418343067
-0.041167825 0.18526727 1.3045001 -0.8144012094 -0.2965025306 0.4988355041
-0.13439517 0.015077935 1.1341667 0.06010557339 0.2259204239 0.9722896814
-0.18164797 0.10307934 1.149 0.3322859704 -0.6275869012 0.7040743828
-0.263834 0.1820711 1.2953334 0.4006705582 -0.754440248 0.5198875666
-0.095556349 -0.014775658 1.1237197 0.02549498715 0.03306807205 0.9991278648
-0.17510299 -0.055138316 1.145167 0.1782987565 0.5498572588 0.8160064816
-0.07512664 -0.095837094 1.1465654 -0.06111487374 -0.07833497971 0.9950520396
-0.24574886 0.036947522 1.1631539 0.3855911493 -0.2047056258 0.8996750116
-0.0173843 -0.031291738 1.322 -0.5701677203 0.6325303316 -0.5242272019
-0.17513049 0.14157028 1.1962001 0.2727563083 -0.7770216465 0.5673106313
-0.25311479 0.064823203 1.1569999 0.5085261464 -0.03555702046 0.8603120446
-0.027105171 0.13476685 1.3064445 -0.8272719979 -0.172296986 0.5347287059
-0.26317766 0.16101445 1.2666668 0.437725991 -0.7170152068 0.5424805284
-0.10549755 0.0053846398 1.1301737 0.1436677873 -0.1987921745 0.9694541097
0.0072772098 0.13831958 1.3840001 -0.3183889389 -0.8973113894 0.3057135642
-0.11425801 -0.14444371 1.1350002 -0.3448925912 0.1966077536 0.9178205132
-0.19470268 0.20440982 1.2849231 0.2781352103 -0.7875647545 0.5498932004
-0.1683799 -0.011669894 1.141 0.2002330124 -0.05059230328 0.9784411788
-0.019158674 0.20136158 1.3379999 -0.8296567202 -0.4158713818 0.3724523783
-0.033637177 0.092552327 1.2538 -0.3496744037 -0.8574061394 0.3776010573
-0.067124613 -0.010858393 1.126 -0.3824623227 0.2093189806 0.8999489546
-0.087432891 0.18388803 1.2346668 -0.4774572551 -0.654918015 0.5857618451
-0.28392583 0.19638683 1.3350002 0.3410148025 -0.7957618833 0.5004717112
-0.19610563 -0.083514929 1.1675884 -0.03094313107 0.5598396659 0.8280229568
-0.062403176 -0.13143015 1.1930001 -0.2829805911 0.8482567668 0.4476410151
-0.10770358 0.1056904 1.1482002 -0.5571578145 -0.2992622852 0.7746077776
-0.15447429 -0.051823974 1.1368001 0.1350899488 0.5358277559 0.8334502578
-0.054050762 -0.046000201 1.2122858 0.3165300786 -0.4232947528 0.8488994241
-0.28493598 -0.034316063 1.1861999 0.6322190166 -0.185127452 0.7523476481
-0.011622555 -0.062611826 1.2830001 -0.08159803599 0.6641635895 -0.7431207895
-0.11494941 0.22313927 1.2855 0.02708263695 -0.8501168489 0.5258972049
-0.094575711 0.034843434 1.1356003 -0.3220267892 0.07180201262 0.9440038204
-0.3027088 0.035491325 1.2048 0.7055557966 -0.3882270455 0.5928496718
-0.28143629 0.072964966 1.189 0.6132357717 -0.4510662556 0.6484451294
-0.23358738 -0.03384218 1.1610001 0.2268471718 -0.113105692 0.9673404098
-0.038419038 0.21421525 1.3280001 -0.7788500786 -0.4304670393 0.4561696053
-0.16494486 0.23638484 1.325 0.1743060499 -0.8624826074 0.4751222134
-0.11467043 -0.11455384 1.1878887 0.172479704 0.5307152867 0.8298144937
-0.20677966 0.047564134 1.1543332 0.3485151231 -0.1332007051 0.9277902842
-0.17508593 -0.11568283 1.1887997 0.04562607408 0.3827734292 0.922714889
-0.066299371 0.25234148 1.3346667 -0.3360579908 -0.7393429279 0.5834698677
-0.25513297 0.11622342 1.2145385 0.4436258376 -0.6925450563 0.5688386559
-0.054674193 0.19643712 1.2849231 -0.6233667731 -0.5321282744 0.5729340315
-0.27205509 -0.082346179 1.189 0.508469224 0.5515663028 0.661236465
0.03280662 0.1768149 1.4580001 -0.8530113101 0.3065631092 -0.4223633409
-0.13509732 -0.13510151 1.1946002 -0.06887800246 0.4860222936 0.8712279797
-0.039284311 0.0080583207 1.149 -0.8147969246 0.1708598137 0.5539972186
0.04277052 0.18727674 1.4210001 -0.8787853718 0.4392447174 -0.1865484565
-0.29380187 0.15457389 1.2870001 0.4858621657 -0.6153428555 0.6207182407
-0.28482416 0.033899046 1.1876665 0.6168632507 -0.319121778 0.7194727659
0.0054575424 -0.045730446 1.2880001 -0.3315693438 0.5292372108 -0.781005621
-0.056006972 0.1562766 1.2668571 -0.911961019 -0.03371657059 0.4088890553
-0.094953366 0.24535909 1.3252728 -0.08956328779 -0.8075746894 0.5829250216
-0.15403384 0.17217469 1.2173333 0.1642288268 -0.7862384319 0.5956996679
-0.27188018 0.13348871 1.243 0.4996033013 -0.6437833309 0.5796029568
-0.24505186 0.10472835 1.1844288 0.3780451715 -0.6827678084 0.6252279282
-0.085381202 0.085386537 1.1458001 -0.2569638789 -0.5178408623 0.8159720898
-0.20450836 0.0058556953 1.1372503 0.2388025522 0.3744584024 0.8959655166
-0.20179404 0.22485916 1.3153334 0.2896457613 -0.8150554895 0.5017866492
-0.088496871 0.14411348 1.197 -0.6715909243 -0.4752942324 0.5683845282
-0.087939307 -0.11017684 1.153 0.4712059498 -0.4179778993 0.7766977549
-0.095370814 0.20627177 1.265 -0.2036539167 -0.783513546 0.587053299
0.01135371 0.1677826 1.439 -0.8381602168 -0.1627568305 0.5205743313
-0.15485442 -0.11536469 1.1854798 0.08127605915 0.4288684726 0.8997033238
-0.064340025 0.074046046 1.165 -0.8512731194 -0.3086170256 0.4243696928
-0.025360212 0.17453802 1.3150001 -0.809512496 -0.1995893419 0.5521355271
0.0023932999 0.13282815 1.365 -0.4864973724 -0.8003985882 0.3502604663
-0.21515389 -0.065704919 1.1567893 0.02991298959 0.4021169543 0.9150995612
0.035705302 0.10412988 1.3728572 0.226343751 0.03653505817 -0.9733620882
-0.14457761 0.25416252 1.3456668 0.1768783033 -0.8676837087 0.4645847976
-0.29291648 -0.053892866 1.1880001 0.6612553 -0.06252320111 0.7475508451
0.046403427 0.074857116 1.3649999 -0.2352112085 0.5152874589 -0.8241083026
-0.24096236 0.22909229 1.3540001 0.3465360701 -0.8673388362 0.3572619259
-0.1753967 0.1172705 1.1613637 0.2989054322 -0.6993651986 0.6492640972
-0.048205096 0.084886752 1.1954 -0.7619428039 -0.4728529453 0.4425531626
-0.0082783634 0.1620194 1.3490001 -0.9058468938 0.09847351909 0.4120004177
-0.086257644 0.054934338 1.13425 -0.5437232852 -0.00971171353 0.8392083645
-0.018505557 -0.10755473 1.1950001 -0.7811532617 0.3791356683 0.496040076
-0.14493898 -0.082902521 1.1674614 0.1315918863 0.5753732324 0.807235539
-0.065714151 -0.033966549 1.135778 -0.4360735714 0.334872812 0.8352844119
-0.24225324 -0.0015109349 1.149 0.2717080116 0.4042257965 0.8733706474
-0.055039883 0.17575538 1.2665713 -0.790443182 -0.3271227479 0.517870903
-0.041771997 0.11599264 1.2763333 -0.7689704895 -0.3844689727 0.5107523799
-0.065160885 0.2222348 1.3040001 -0.4105204344 -0.7183142304 0.561691761
-0.0082321921 -0.096649565 1.2250001 0.03774452582 0.9088335633 -0.4154478014
-0.21448211 0.13312709 1.2052001 0.3248778582 -0.7088314891 0.6261088252
-0.21263614 -0.12406815 1.1932666 0.0983569324 0.5733072162 0.8134154677
-0.12556322 0.2379915 1.3140001 0.1364743412 -0.8493981957 0.5098013878
0.012664765 -0.0034527518 1.3135002 -0.6067226529 0.5919535756 -0.5305455327
-0.11502818 -0.096502051 1.1739233 0.2262609005 0.5794382691 0.7829797268
0.0023932999 0.16633435 1.365 -0.9640604258 0.02750166133 0.2642558515
-0.26600507 0.015998915 1.1612858 0.4843285382 -0.2731890082 0.8311399817
0.02612335 0.054622911 1.3545001 -0.5384311676 0.6236117482 -0.5667453408
-0.15497889 0.018755406 1.126 0.01834403351 0.4347123504 0.9003825188
0.025279561 0.1269878 1.373 -0.3295117021 -0.6225444078 0.709831357
-0.23528798 0.16880159 1.2640001 0.3662241697 -0.7310334444 0.5757342577
-0.056589443 -0.10586147 1.1671538 -0.8105553389 0.1055511758 0.5760720372
-0.11481117 -0.068108305 1.1542307 0.1666444838 0.6201418638 0.7665857077
0.0041178288 0.10127378 1.3148572 -0.5742112398 -0.5158841014 0.6357240081
-0.068898112 0.099748008 1.1730001 -0.7963338494 -0.4171245098 0.4380177259
-0.30503395 0.084206872 1.2182307 0.6877919436 -0.4207266271 0.5915499926
-0.037389614 -0.064059131 1.193 0.1962158978 -0.4506733119 0.8708575368
-0.12338689 0.055996642 1.1305001 -0.006816452369 -0.4233511388 0.9059400558
-0.073379636 0.12757498 1.1938889 -0.485658288 -0.6505045891 0.5839347839
-0.10386133 0.13882455 1.1730001 -0.3660569787 -0.6357261539 0.6795988083
-0.25811082 -0.02262326 1.1730001 0.5853842497 0.0318495743 0.8101301789
0.025739813 0.035103925 1.3346667 -0.5269511342 0.5500266552 -0.6479144692
-0.016796406 0.082679309 1.2442 -0.5246252418 -0.7015174031 0.4823294878
-0.21709073 0.15876783 1.2320001 0.3356152475 -0.7691076398 0.543908
-0.1854946 -0.01503711 1.1437203 0.2833230495 0.05678839236 0.957341671
-0.052084696 0.24723279 1.3442 -0.5995245576 -0.6691562533 0.4390901625
-0.1325783 0.15305577 1.1876668 0.2015272081 -0.7674200535 0.6086486578
-0.19154815 0.080809377 1.138 0.3058081269 -0.1748814881 0.9358941317
-0.088698506 0.17205372 1.2190001 -0.4921375215 -0.6929216385 0.5269348025
-0.23650853 -0.096439071 1.1828462 0.243452087 0.5991050005 0.7627609372
-0.13495301 -0.094942197 1.1751053 0.06893064827 0.510409236 0.8571645021
-0.094895668 0.07280992 1.1377144 -0.13334319 -0.4792283475 0.8675020337
-0.20366719 -0.14532503 1.21 -0.1938503385 0.3836337626 0.9029104114
-0.01316315 0.1938573 1.365 -0.8664604425 -0.3962628841 0.3036808074
-0.05502959 0.024552995 1.1359134 -0.3531679213 -0.3643955886 0.861677587
0.035791844 0.046388112 1.3430002 -0.4190224707 0.6561620831 -0.6275918484
-0.18178824 0.17103153 1.2270001 0.3123483956 -0.7586188912 0.5717830658
-0.16509274 0.044614788 1.1329565 0.2880423367 -0.3457689881 0.8930147886
-0.044590302 -0.078373395 1.1871539 -0.09992921352 -0.4430690408 0.8909006715
-0.15429102 -0.034838241 1.1354402 0.2158994228 0.1889647692 0.9579560161
-0.21681179 0.095587797 1.1620002 0.4105201066 -0.6337402463 0.6556268334
-0.0011773633 -0.0011773633 1.3430001 -0.6880387664 0.5124843121 -0.5137727261
-0.13418452 -0.16500184 1.1338003 -0.083442837 0.5156215429 0.8527436256
-0.23792237 0.13595697 1.2243334 0.4186970592 -0.6318291426 0.652291894
-0.21610272 0.23263139 1.3470001 0.2759005427 -0.900816679 0.335273385
-0.16533612 -0.16560568 1.1439335 0.4606261253 0.5686708689 0.6814961433
-0.098357618 -0.12113517 1.1810001 0.3630497754 0.5311179161 0.7655773163
-0.1578 0.18957916 1.25 0.2045769542 -0.8133946061 0.544552505
-0.037843946 0.23179418 1.3490001 -0.7655670047 -0.5381189585 0.3526118994
-0.20348926 0.18276589 1.2574002 0.3379700482 -0.766987741 0.5454411507
-0.11986663 -0.14744657 1.21 -0.06311453879 0.541210711 0.8385150433
-0.075199395 0.17498587 1.2432222 -0.6621714234 -0.5156373382 0.5437344313
-0.13238464 -0.024678167 1.126 0.1471199095 0.02259801142 0.9888604879
0.0045982134 -0.057783049 1.2757777 -0.1282123923 0.6355686784 -0.7613238692
-0.29807544 0.053038333 1.21 0.8145054579 -0.05187019333 0.5778324604
-0.11345433 0.07237865 1.1372001 -0.06023628265 -0.3693222106 0.9273471236
-0.26879695 0.11642352 1.2240001 0.4533008933 -0.6625296474 0.5962992311
-0.18336746 0.04170163 1.138 0.2932448387 -0.369677633 0.8816722035
-0.10237729 0.11562342 1.1620001 -0.6139345169 -0.4005305469 0.6801909208
-0.07884156 0.20321368 1.2666668 -0.4905326068 -0.6603022814 0.5686638951
-0.10486274 -0.044458896 1.1322857 0.05816626549 0.4488277435 0.8917232156
-0.039520133 0.13211016 1.2880001 -0.7808440924 -0.2271140665 0.5819808245
-0.043610483 0.084455788 1.2134001 -0.7767217755 -0.5467656255 0.3126509786
-0.20240262 -0.14654973 1.169 0.7198851109 0.283108294 0.6337310672
-0.22798944 -0.018320581 1.161 0.178515479 0.1138499752 0.9773281813
-0.05101411 -0.0080022132 1.141 -0.7565575838 0.2095331252 0.6194485426
-0.13576669 0.16662614 1.2106154 0.1377045512 -0.7756183743 0.6159980297
-0.26804641 0.20682348 1.3430001 0.4349579215 -0.7302353978 0.5268470645
-0.28272325 0.02166857 1.177 0.5526391864 -0.4170947373 0.7215413451
-0.17242806 0.24280685 1.3379999 0.2159778476 -0.8833975792 0.4158874154
-0.16804647 0.099027388 1.141 0.3546057642 -0.5613030195 0.747792542
0.0068748202 -0.01718705 1.307 -0.5932106972 0.52789253 -0.6078079343
-0.16832964 -0.16618532 1.223 0.09176172316 0.6102312207 0.7868911028
-0.12366043 0.084250301 1.1431334 -0.2425183356 0.002619897947 0.9701432586
-0.041450113 -0.047746334 1.197 0.2693354487 -0.5138546824 0.8145009279
-0.14428823 0.10397827 1.1336193 0.05544502661 -0.5122224092 0.8570612669
-0.036103178 -0.11386994 1.1880001 -0.4782412648 0.5217522383 0.7064417005
-0.11655897 0.25784257 1.3430001 0.1050596684 -0.8784223199 0.466193825
-0.13399938 0.20265236 1.2572858 0.1863739192 -0.8294157386 0.5266253352
0.0073850402 0.14893164 1.404 -0.3185318708 -0.8369660378 0.4450002909
-0.025789779 0.074579611 1.2258002 -0.5639719963 -0.6828631759 0.4643634856
0.042951118 0.20224553 1.427 -0.8521730304 0.4825913906 -0.2022538632
-0.014895443 -0.036665708 1.307 -0.4784102738 0.6571409106 -0.5824855566
0.012326013 0.025836086 1.3451819 -0.6244989634 0.4488515854 -0.6391661167
-0.12477499 0.18818565 1.2328891 0.0253537707 -0.813034296 0.5816634893
-0.055368949 0.22723658 1.3157501 -0.4676122367 -0.6591997743 0.5888925791
-0.12465362 0.21658815 1.2744285 0.09231581539 -0.8335899115 0.5446151495
-0.27566937 0.086917557 1.1945 0.5773209929 -0.5662987828 0.5882229209
-0.17709894 -0.068193272 1.161 0.03474922478 0.6449946761 0.7633966208
-0.18527406 0.014861046 1.1301597 0.1063196063 0.3149967492 0.9431188703
-0.2045621 -0.05501584 1.1472002 0.1570837647 0.3815844655 0.9108885527
-0.015391135 -0.083073311 1.2539999 0.02301043831 0.8575390577 -0.5139039755
-0.15521102 -0.14465666 1.2043998 0.08843999356 0.5228339434 0.8478342891
-0.12616198 0.027769672 1.1255714 -0.1688825041 0.3419063687 0.9244342446
-0.29262403 0.1031521 1.2256668 0.4914635122 -0.6368037462 0.5940914154
-0.30111921 -0.024298044 1.2052001 0.7285305262 -0.2155142426 0.6502283812
-0.25054169 0.20204975 1.317 0.4398872256 -0.7471547127 0.4982560575
-0.25053293 -0.062886804 1.1570001 0.3134067357 0.2764262855 0.9084958434
-0.17104732 0.071019642 1.141 0.13114582 0.2704309821 0.9537650943
-0.16451606 0.15477937 1.2046666 0.2590894997 -0.6637655497 0.7016323209
-0.29610819 0.00931809 1.1810001 0.7593775988 0.1006871238 0.6428123713
-0.19749284 0.23488793 1.3330001 0.2602853179 -0.8919710517 0.3696474135
-0.24651697 -0.086569391 1.1746001 0.2798810303 0.6645435095 0.6928552985
-0.24605404 0.077488571 1.1630001 0.4280424416 -0.5410326123 0.7239221931
-0.085283883 -0.0742037 1.149 0.02368246019 0.3604801893 0.9324661493
0.024068883 0.16088149 1.4450001 -0.9666599631 0.2001134008 0.1597597003
-0.23543374 0.12716469 1.2108001 0.4178933501 -0.6826261282 0.5994887352
-0.14572673 0.23550792 1.3130001 0.1547710299 -0.8491175175 0.5050201416
-0.20880885 -0.17141025 1.1850001 0.6921039224 0.4430027306 0.5698602796
-0.12753631 0.24922229 1.3346667 0.1782832295 -0.859157145 0.4796499908
-0.16188878 0.079957262 1.126 0.1417767406 0.2921542525 0.9458039999
-0.23444237 0.023396041 1.1477501 0.3839196861 -0.3289855421 0.8627712131
0.0081494935 0.0011642133 1.3280001 -0.63702631 0.5710101724 -0.517827034
-0.18187006 -0.1716335 1.1676668 0.6073915958 0.4850225151 0.6291491389
0.0010989017 0.074732319 1.2535 -0.5818041563 -0.6674882174 0.46471861
-0.050022598 0.10560326 1.268 -0.761118412 -0.513658464 0.3960476518
-0.31124997 0.12140957 1.2590001 0.5217776299 -0.650693655 0.5516755581
-0.029889366 0.034014374 1.1756667 -0.7457255721 -0.4667209685 0.4754627943
-0.20201351 0.2111098 1.2970001 0.302320987 -0.7624991536 0.5720114112
-0.27666494 0.17842746 1.3030001 0.3451321423 -0.7656741142 0.5427954793
-0.17493723 0.22826572 1.3128333 0.163682878 -0.8502501845 0.5002824664
-0.25459829 0.05087287 1.1632223 0.4430499971 0.2358982414 0.8649038672
-0.24451733 0.1438747 1.2356365 0.4132026136 -0.6961783767 0.5870258212
-0.07239484 -0.047708493 1.1416668 -0.4105275273 0.4054099917 0.816767931
-0.033183005 0.16478527 1.3053335 -0.8137603998 -0.1204625815 0.5685796142
-0.17501938 0.20384087 1.2752222 0.2446810305 -0.7934913635 0.5572276115
-0.10005397 -0.028728366 1.13 0.01532344148 0.188283667 0.9819951653
-0.082807302 0.14756843 1.2110001 -0.6685475111 -0.5272496939 0.5244540572
-0.11103071 -0.15804371 1.141 -0.3323293924 0.3103125691 0.8906533122
-0.016543867 0.047172848 1.2046667 -0.6532313228 -0.5435681343 0.5270887017
-0.1818487 0.15224543 1.2060001 0.3123047948 -0.6636249423 0.6797556281
-0.20462714 0.24052665 1.365 0.2732020915 -0.9090461731 0.3146358132
-0.084352657 0.11635531 1.1745386 -0.4979878962 -0.5274056196 0.6883686185
-0.20550616 0.19357443 1.2763333 0.3041927516 -0.7866245508 0.5372974277
-0.24765076 -0.14446916 1.2424546 0.4589734375 -0.2347154617 0.8568850756
-0.086410187 -0.094693922 1.1630001 0.4208739698 0.1490029991 0.8947978616
-0.26736581 -0.0092549697 1.1730001 0.5081571341 0.506190598 0.6968123317
-0.29809648 0.10988227 1.2410001 0.5058726072 -0.6165106893 0.6033302546
-0.16089725 0.13015257 1.169 0.1880852878 -0.7790734768 0.5980538726
-0.012104721 0.13316362 1.3363333 -0.8020630479 -0.4702157676 0.3682281673
-0.069503009 -0.12792583 1.149 -0.5966487527 -0.003533170093 0.8024947047
-0.093995005 0.09694507 1.1551818 -0.3810551465 -0.5443063974 0.7473469973
-0.062561564 0.12697554 1.2045001 -0.7109113932 -0.5133906007 0.4806611538
-0.19400124 0.055382833 1.1458001 0.3477496505 0.03839123994 0.9368010759
-0.05937488 0.24099216 1.3280001 -0.3760353625 -0.6797698736 0.6296906471
-0.061085258 -0.073509373 1.1810001 -0.8126554489 -0.2267024964 0.5368399024
-0.11280165 -0.015165856 1.1260002 0.08984877914 -0.06229720637 0.9940051436
-0.04813455 0.20201351 1.2970001 -0.7130631208 -0.4498247802 0.5377719402
-0.085344084 0.25369117 1.3335557 -0.1043726429 -0.8148550987 0.5701907277
-0.21449089 0.21679652 1.3139999 0.3368832171 -0.7850077152 0.5198774934
-0.26561955 -0.054517187 1.1673639 0.5787831545 0.05140671134 0.8138595819
-0.018029088 0.10029899 1.2855 -0.4459797144 -0.8260374069 0.3446219862
-0.16498698 -0.10492284 1.183 0.1118882373 0.4098810554 0.9052505493
-0.023974203 -0.059414331 1.189 0.3070135415 -0.4249204099 0.8515781164
-0.011919686 0.11615851 1.3330001 -0.4740505219 -0.6820601821 0.5568392873
