# .PCD v0.7 - Point Cloud Data file format
VERSION 0.7
FIELDS x y z normal_x normal_y normal_z
SIZE 4 4 4 4 4 4
TYPE F F F F F F
COUNT 1 1 1 1 1 1
WIDTH 512
HEIGHT 1
VIEWPOINT 0 0 0 1 0 0 0
POINTS 512
DATA ascii
-0.22679894 0.12221412 1.087 0.4273576438 0.5921950936 -0.6831328273
-0.11921088 -0.13314462 1.766 0.9402321577 0.2487172335 0.2326009274
-0.49268317 0.11765568 1.3980001 -0.6958339214 0.6407639384 -0.3244020939
-0.28706625 -0.20317014 1.153 -0.1099097431 -0.6525031328 -0.7497729659
-0.047732748 0.18976678 1.3280001 -0.7877086401 0.4881852269 -0.3757529557
-0.077876933 -0.063155942 1.1658 -0.4096164405 0.5439375639 -0.7323566675
-0.3154451 0.21442878 1.2844287 -0.4143269956 0.8545202017 -0.3132544756
-0.41688594 -0.014211935 1.1313334 -0.6981293559 0.1059332043 -0.7080914974
-0.22330908 -0.061696641 1.0380001 -0.008120882325 -0.435429275 -0.9001863003
-0.13809955 -0.012813359 1.6240001 0.9439355731 0.240338847 0.226324603
-0.11735586 0.09198162 1.2060001 0.3968021572 0.6776350141 -0.6191598177
-0.36331347 0.12247384 1.174 -0.5307906866 0.6556428075 -0.5370230675
-0.16603737 0.23283696 1.244 0.5632785559 0.6534510851 -0.5056866407
-0.31968966 0.028725736 1.057 -0.1967771798 -0.3869250715 -0.9008705616
-0.33895704 -0.10102619 1.077 -0.2236021161 -0.3791437745 -0.8979154229
-0.14406167 0.025379613 1.0933479 0.6817852855 0.4131209552 -0.603738308
-0.14714061 -0.14137039 1.097 0.4775825441 -0.5530827045 -0.6826525331
-0.25780049 0.18946783 1.1810001 -0.3161954284 0.7659206986 -0.5598088503
-0.24449037 -0.1870521 1.0468236 -0.1437369734 -0.4055231512 -0.9027129412
-0.045078199 0.084521621 1.2855 -0.61747545 0.7836100459 -0.06840601563
-0.22418606 0.035101991 1.0318388 0.3008266985 0.1364096403 -0.9438726902
-0.16848639 0.164776 1.1762002 0.721536994 0.2881818414 -0.6295518875
-0.093964636 0.0064803199 1.2320001 -0.5789646506 0.5200621486 -0.6279612184
-0.11539914 0.15349208 1.2780001 0.9001726508 0.3647578359 -0.2379935831
-0.31295672 0.10291672 1.1075 -0.4700154364 0.6893112659 -0.5513033867
-0.16255616 -0.056716029 1.1067271 0.7988081574 -0.08123721182 -0.5960755348
-0.24805897 -0.12258167 1.1010001 -0.08959070593 -0.5275097489 -0.8448117971
-0.42120239 0.062514223 1.169 -0.7027852535 0.4915804267 -0.514238894
-0.1718141 0.086742662 1.1416668 0.7356396914 0.5349465609 -0.4155315161
-0.3920598 0.15322688 1.244 -0.5148724914 0.6979143023 -0.4978172183
-0.40462813 -0.091558188 1.123 -0.6331744194 0.0202430319 -0.7737444043
-0.24688599 0.23204227 1.245 -0.2367004603 0.8776794672 -0.4167152941
-0.37358618 0.054885067 1.1073076 -0.596308887 0.5207690001 -0.6109135747
-0.32717076 0.17714803 1.21 -0.4119849205 0.7067704797 -0.5751033425
-0.29462442 -0.04490599 1.06284 -0.3992041647 -0.01435224991 -0.9167497158
-0.13471124 0.01953827 1.1730001 0.9689127803 -0.2329308838 -0.08337431401
-0.3202472 -0.16829808 1.097 -0.4299535453 0.3845445812 -0.8168631196
-0.36355308 -0.025794679 1.0758235 -0.589836657 0.129670307 -0.7970435023
-0.27381882 0.081578337 1.0557144 -0.292381376 0.6212363243 -0.7270340919
-0.17386459 -0.015018945 1.0433751 0.661988318 -0.09940241277 -0.7428933978
-0.13185942 -0.10345894 1.1570001 -0.2355142981 0.8465416431 -0.4773890078
-0.20270111 -0.13497862 1.0510001 0.1562315226 0.3831564188 -0.9103751183
-0.30485392 0.14743567 1.1552857 -0.4126638472 0.7407015562 -0.5301600695
-0.19189692 0.065115616 1.0821818 0.7781762481 0.3875800669 -0.4941896796
-0.21769413 0.1624541 1.1368572 0.3897716999 0.6688408256 -0.6330323815
-0.13075921 0.21035178 1.2970001 0.8431748748 0.5241134763 -0.1198380515
-0.058497336 0.13796541 1.2590001 0.1208790764 0.1612268984 -0.9794866443
-0.13876143 0.18178824 1.2270001 0.6969546676 0.4307910502 -0.573300302
-0.071153767 0.062485293 1.2360001 0.0325211063 0.4494557083 -0.8927104473
-0.2055776 0.20768809 1.2025715 0.07719706744 0.8367225528 -0.5421586633
-0.41127414 0.10889778 1.2060001 -0.5748633146 0.5591825843 -0.5973667502
-0.11297165 -0.047204114 1.21 -0.6695112586 0.4954340458 -0.5534436107
-0.23923269 -0.1762249 1.123 -0.05547846481 -0.5585627556 -0.8276048303
-0.26753414 -0.00181996 1.0380001 -0.03981774673 -0.3876776695 -0.9209346175
-0.17985606 -0.08480259 1.0630001 0.6943021417 -0.2770069838 -0.6642376184
-0.122917 0.067529418 1.154 0.5467472076 0.7065013647 -0.4493587315
-0.14468189 -0.014810554 1.1329999 0.2856733203 0.5707360506 -0.7698383927
-0.36557001 -0.1296555 1.1120001 -0.3677402437 -0.6929078102 -0.6201982498
-0.098958135 0.18045306 1.3280001 0.6686179638 0.5315839052 -0.5199697614
-0.27273801 -0.21001777 1.0840001 -0.5275211334 -0.5334267616 -0.6611939073
-0.29208955 0.20878869 1.2340001 -0.3564047217 0.8260893226 -0.4365227222
-0.27251419 -0.09135773 1.067 -0.09554881603 -0.6859629154 -0.7213357687
-0.26739699 0.1369206 1.1140001 -0.3810916841 0.7284539938 -0.569318831
-0.12880425 -0.096201897 1.0830001 0.02755638957 0.09856124222 -0.9947493672
-0.1998011 -0.18291649 1.0700001 0.4230344594 -0.3383063674 -0.8405894637
-0.1428771 0.13488056 1.21 0.8381637931 0.1454027593 -0.5256800652
-0.35501248 0.095086567 1.13275 -0.5376554132 0.6009256244 -0.5914516449
-0.39141324 0.0086553302 1.097 -0.6926427484 -0.3134276271 -0.6496223211
-0.1053651 0.12298918 1.2433333 0.4404928386 0.7699899077 -0.4616076052
-0.29491997 -0.12392577 1.0958 -0.01914413832 -0.5727237463 -0.8195248246
-0.37025577 -0.067319229 1.097 -0.6393339038 -0.1067881882 -0.7614777684
-0.076766364 -0.022799823 1.1930001 -0.5618261099 0.434567064 -0.7039197087
-0.070860088 0.17546308 1.2830001 0.4965164959 0.4835315943 -0.7208803892
-0.33442181 0.065170303 1.08525 -0.526565969 0.6240079403 -0.577358067
-0.22409439 -0.01537717 1.0370001 -0.1740072817 0.202969417 -0.9635999799
-0.19474794 0.12573674 1.1246001 0.6383804083 0.5138186812 -0.5731149912
-0.41211534 0.034347363 1.1355 -0.8189447522 0.3594765365 -0.4473321736
-0.1659871 0.11444101 1.1760402 0.7012325525 0.2706126869 -0.6595768929
-0.17822312 0.031196767 1.057 0.4448019862 0.5723535419 -0.6888850331
-0.22702599 0.072277658 1.057 0.2475511432 0.5091637969 -0.8243001103
-0.11601543 -0.11764809 1.1183333 -0.02717242204 0.92241925 -0.385232836
-0.080891788 0.093080953 1.2640001 0.9924565554 -0.02712365612 0.1195588484
-0.26684242 0.038449723 1.0505002 -0.1574883759 0.18079032 -0.9708307385
-0.33455095 -0.058223814 1.077 -0.3629981875 -0.05173077434 -0.9303527474
-0.20642555 0.23668528 1.2328001 -0.1017439142 0.7878830433 -0.6073619127
-0.36637011 0.14831622 1.2113334 -0.5330463052 0.6785758138 -0.5053676963
-0.3262158 -0.014481907 1.061 -0.316439122 0.1582957655 -0.9353120923
-0.26314142 0.16371545 1.1456667 -0.3840107918 0.7603729367 -0.5238021612
-0.38789168 0.08661437 1.1623334 -0.5779258609 0.6188493371 -0.5320030451
-0.40344241 -0.043319825 1.10425 -0.7179721594 -0.3564172387 -0.5978986025
-0.35511348 0.016673064 1.0744705 -0.3351827562 -0.4202354848 -0.8432405591
-0.284237 -0.1647854 1.11685 -0.07892555743 -0.4828805923 -0.8721221685
-0.16441397 0.058635168 1.1126667 0.542403996 0.6650814414 -0.5132879615
-0.35358158 0.18168654 1.2410001 -0.510130167 0.6775451899 -0.5298110247
-0.29570168 0.1748957 1.1842729 -0.3512435853 0.7715937495 -0.5303498507
-0.23291545 -0.10071176 1.067 -0.2425569892 -0.6097299457 -0.7545830011
-0.078212693 0.14837408 1.312 0.2194791734 0.8151627183 -0.5360398293
-0.156222 -0.0274572 1.08 0.9186703563 -0.3324412107 -0.2133720517
-0.26822054 0.10862046 1.0836667 -0.3868383467 0.7282389402 -0.5657067895
-0.11647612 -0.072732866 1.1810001 -0.4325764477 0.6421822309 -0.6328345537
-0.059161853 0.026891747 1.2270001 -0.3125175834 0.5520606041 -0.7730212212
-0.28346139 0.22788073 1.268 -0.3844603002 0.8651857376 -0.3219377995
-0.044040229 0.096193127 1.322 0.7956622839 0.01309082191 0.6055990458
-0.12189174 0.18837813 1.2640001 0.7101144195 0.5465618372 -0.4438554645
-0.16568762 0.19504766 1.2038182 0.689525187 0.4784568548 -0.5437223911
-0.21542154 -0.14137039 1.097 -0.2833017409 -0.5804861188 -0.763397634
-0.25457591 0.2139426 1.2127779 -0.2544581592 0.8376992345 -0.4832297862
-0.20716816 0.18236355 1.1670001 0.3233594894 0.7050113082 -0.6311875582
-0.33362761 0.12297758 1.1442001 -0.5103917122 0.6900974512 -0.5130943656
-0.19763003 0.1014597 1.097 0.6844279766 0.5460011363 -0.4831574857
-0.1672982 -0.11849715 1.0764287 0.6250184774 0.1528534144 -0.7654983401
-0.2646071 -0.054934744 1.0444003 -0.3473923206 -0.07248505205 -0.9349141717
-0.096867733 -0.096867718 1.149 -0.3130573332 0.776910603 -0.5462645888
-0.30483362 0.083920673 1.0755713 -0.4498458803 0.6076601148 -0.6545134783
-0.33855727 0.14805409 1.1810001 -0.4795950949 0.6910776496 -0.54074049
-0.13293394 0.04537249 1.1232308 0.5389137864 0.5659456849 -0.6239209771
-0.18666469 -0.05391258 1.0467503 0.5612012148 -0.3089058399 -0.7678739429
-0.11688159 0.15672334 1.2427143 0.8628695607 0.0109681068 -0.5053076148
-0.14498125 0.0849301 1.1752857 0.3775528371 0.8285797238 -0.4134120047
-0.089280613 0.096810296 1.2270001 0.7012215853 0.402808547 -0.5882462263
-0.18156029 0.13895956 1.1570001 0.8153530955 0.1211903691 -0.5661380291
-0.1464783 0.23258099 1.2755001 0.7196471691 0.5985963345 -0.3518385589
-0.30673689 -0.089113168 1.0700001 -0.1243176907 -0.5142515898 -0.8485814333
-0.39038843 0.064736575 1.136 -0.6415814757 0.5738216043 -0.5090206265
-0.29854885 0.059218835 1.0500001 -0.4205071032 0.3056169152 -0.8542670012
-0.32852557 -0.13940403 1.1120001 -0.1135418117 -0.4452196658 -0.8881934881
-0.30014348 0.00091786997 1.0470001 -0.3827826381 0.1256833673 -0.9152492285
-0.3102681 -0.18456464 1.138 -0.08343245834 -0.6715865135 -0.7362136841
-0.235008 0.14587773 1.1144617 0.09230222553 0.8016284704 -0.5906539559
-0.29585415 -0.18480289 1.0826428 0.31717664 0.8653413653 -0.3880506754
-0.17632835 -0.15216741 1.0600001 0.6658806205 -0.1207105294 -0.7362282276
-0.29764616 0.12831272 1.123 -0.3813126385 0.6755616665 -0.6310444474
-0.21506675 -0.16485986 1.0468068 0.3696423173 -0.2113321722 -0.9048222303
-0.15713418 0.0043334658 1.0635883 0.8156991601 0.1761952937 -0.5509901047
-0.1657322 -0.086853951 1.09595 0.09640550613 0.4241902828 -0.9004268646
-0.10690712 0.068249121 1.1872858 0.5584586859 0.7021008134 -0.4417899847
-0.39424357 0.13456017 1.2181666 -0.4745256603 0.700437963 -0.533115387
-0.085391715 0.13263503 1.2744285 0.00468684826 0.8726267815 -0.4883651435
-0.20490019 0.014474644 1.0455457 0.07778555155 0.3059245646 -0.9488728046
-0.24402542 0.098316401 1.0600002 0.3155668378 0.5137953758 -0.7977668047
-0.13223377 -0.06080823 1.1010001 -0.1374931931 0.4501131475 -0.8823229074
-0.1683239 -0.05562216 1.0753334 0.9168043137 -0.3095713556 -0.2522607148
-0.37376335 -0.10473011 1.0960001 -0.5667190552 -0.2421756536 -0.7875153422
-0.15476175 0.16496441 1.2036668 0.711894393 0.3293580413 -0.6202657819
-0.083906643 0.034868538 1.243 -0.2767978609 0.3726146817 -0.88574332
-0.053087674 0.10602182 1.2654285 0.3152553141 0.242907837 -0.9173929691
-0.26561424 -0.18663038 1.1340001 -0.002352028154 -0.6416618228 -0.7669840455
-0.16827881 0.041358501 1.0845 0.6483651996 0.5894781947 -0.4818070531
-0.20517784 0.045026638 1.0559999 0.5944411159 0.311770767 -0.7412413359
-0.41069204 0.085256711 1.186 -0.5944196582 0.5984619856 -0.537129879
-0.25407654 -0.1513913 1.1079999 -0.116337508 -0.4951799512 -0.8609659672
-0.049509749 0.071514085 1.2550001 0.4746050239 0.5108143091 -0.7168115973
-0.077020422 0.08268369 1.2920001 0.1352175921 0.9890701175 0.05879195407
-0.28523597 0.19456084 1.2045001 -0.3227133751 0.7480719686 -0.5798658133
-0.07375133 0.0042261179 1.2046667 -0.5596542954 0.5282847285 -0.6385157108
-0.23918535 0.17811675 1.161 -0.04138052091 0.8366703391 -0.546141386
-0.063548021 0.20333602 1.307 -0.5493244529 0.7032852173 -0.4512566328
-0.17334701 -0.15507466 1.097 0.7463969588 -0.5345284343 -0.3964478672
-0.11071774 0.17311536 1.302 0.7733588815 0.4163069427 -0.4781261086
-0.38752961 0.10751352 1.1830001 -0.5604257584 0.5993156433 -0.5716150403
-0.27448514 -0.024455056 1.0567 -0.2444162965 -0.2205199599 -0.944262445
-0.14377108 0.20616935 1.2424287 0.670953691 0.4985009134 -0.5489244461
-0.223024 -0.20165086 1.0600001 0.246540904 -0.5377482772 -0.8062532544
-0.35598171 0.04510922 1.0806154 -0.5586442351 0.5418319702 -0.6279607415
-0.23244554 0.20117484 1.189 0.01882439107 0.8168161511 -0.5765908957
-0.24649626 -0.076500088 1.0513334 -0.1669606268 -0.6036740541 -0.7795522809
-0.093488999 -0.045526858 1.1863332 -0.5295086503 0.4367274642 -0.727248013
-0.1941729 -0.1097499 1.0700001 -0.03077435307 -0.0213282872 -0.9992987514
-0.1332621 -0.040472195 1.126 0.1398878992 0.5716773272 -0.8084654808
-0.12396621 0.034746245 1.1950001 0.9198101163 -0.2687761784 -0.2858474255
-0.14665405 0.070832916 1.138 0.3132633269 0.788383007 -0.529450953
-0.35259885 0.080621772 1.108 -0.48260957 0.6543915272 -0.5821165442
-0.3962549 -0.064125232 1.1237142 -0.5347248316 -0.1322649866 -0.8346108794
-0.24484102 0.015231745 1.0314616 0.0136609152 -0.1090114415 -0.9939466119
-0.22619899 0.22121193 1.2190001 -0.02265984751 0.8049313426 -0.5929351449
-0.21600512 0.092423759 1.077 0.3992718756 0.5556221604 -0.7292914391
-0.14225669 0.10549243 1.202 0.6877120137 0.3499829173 -0.6360535622
-0.24499431 -0.034430292 1.0410002 -0.3837863505 0.1409446448 -0.9126021266
-0.18274029 0.11278019 1.1466 0.9019438028 0.2830547392 -0.3261555135
-0.20284927 -0.081690431 1.0470001 0.1611405015 -0.5155618191 -0.8415638804
-0.18619902 0.21979348 1.223 0.2336046249 0.6446757913 -0.7278887033
-0.21191487 0.24502659 1.2590001 -0.1345670968 0.9057144523 -0.401961416
-0.38520485 -0.024731293 1.09356 -0.632043004 0.226587221 -0.7410666943
-0.20501928 -0.035477489 1.0340003 0.1990148425 -0.0952963084 -0.9753521085
-0.098651297 -0.020154567 1.21 -0.656175375 0.4579423666 -0.5997688174
-0.26701748 -0.1950604 1.0606925 -0.3996595144 -0.5792121887 -0.7104825974
-0.12437094 0.11901013 1.223 0.4809257686 0.6512442827 -0.5870189667
-0.18502124 0.084365241 1.1142105 0.8372492194 0.4047974348 -0.367631346
-0.3445093 -0.12287983 1.0960001 -0.1366582215 -0.666705966 -0.7326852679
-0.24378118 0.052426014 1.0463077 -0.143724218 0.3834719658 -0.9123007059
-0.18449482 0.18548787 1.1868947 0.368570447 0.585880816 -0.7217336297
-0.31645563 0.19764976 1.2320001 -0.3874376118 0.7866336703 -0.480728209
-0.3670899 -0.0039600288 1.0908573 -0.5518497825 0.1508673579 -0.8201833963
-0.12837118 0.00303239 1.153 0.3495095968 0.6319863796 -0.6916908622
-0.13609461 -0.11485999 1.1010001 0.792670846 -0.1533211172 -0.5900555253
-0.11186618 -0.114931 1.748 0.9402321577 0.2487172335 0.2326009274
-0.18393373 0.24781175 1.2563335 0.2603376508 0.9153192043 -0.3072703183
-0.39702377 -0.012139579 1.1142857 -0.6499229074 0.2905420065 -0.7022716999
-0.39348814 0.041761417 1.1182001 -0.6636894941 0.5029944777 -0.5536360145
-0.2738519 0.17143831 1.1682001 -0.3890347779 0.7646560669 -0.5137636662
-0.36676806 0.10459141 1.1538 -0.5845932364 0.613871038 -0.5304837823
-0.29204255 0.023837553 1.0558751 -0.3970814645 0.1103819013 -0.9111213684
-0.081983671 0.11748866 1.2525001 0.588622272 0.5253129601 -0.6144673228
-0.31589848 -0.11220829 1.087 0.03455398232 -0.6214826703 -0.7826655507
-0.25595006 -0.10800923 1.0817778 -0.1321323365 -0.6967692375 -0.7050203681
-0.15948057 0.14488758 1.189 0.7437751293 0.1476777345 -0.6519124508
-0.3772814 0.12808771 1.1943334 -0.5247704983 0.6419254541 -0.5590595603
-0.078295976 0.16243494 1.3330001 0.5085963011 0.6893581748 -0.5158634782
-0.37935996 0.029622566 1.09 -0.6591615677 0.3709012866 -0.6541699171
-0.28563511 0.11570109 1.1048888 -0.3647957146 0.6990400553 -0.615034163
-0.31694013 -0.037024163 1.0706668 -0.1336742043 -0.5953962803 -0.7922338843
-0.19492395 -0.0054385192 1.0341669 0.02448482253 0.2653824389 -0.9638322592
-0.32412022 0.054364674 1.0654668 -0.4648610055 0.4903971553 -0.7371667624
-0.30512911 -0.1475278 1.1120002 0.00526604522 -0.3969662189 -0.9178181291
-0.16147296 0.20658797 1.2252222 0.6658080816 0.5478363037 -0.506532371
-0.169045 -0.034815066 1.057 0.7926281691 -0.2473466545 -0.5572793484
-0.33403662 0.10481919 1.1249287 -0.4736966789 0.5874167085 -0.656165421
-0.33374438 -0.16047296 1.123 -0.07363128662 -0.3459794819 -0.9353483915
-0.28521499 -0.10561212 1.0831784 -0.0366220288 -0.649580121 -0.7594106197
-0.13329257 0.21471429 1.2657499 0.7731496096 0.514179647 -0.3712936342
-0.096210659 0.079294503 1.2060001 0.5014070272 0.6089007258 -0.6146795154
-0.2551516 0.12692106 1.092625 -0.3177430034 0.6825707555 -0.6581311226
-0.10119626 0.1489518 1.2970001 0.5700662732 0.6847451925 -0.454035759
-0.32568619 0.085976511 1.0937222 -0.5114885569 0.644167006 -0.5687075853
-0.15455455 -0.035569277 1.1158637 0.557759881 0.3615061343 -0.7471393943
-0.28900194 -0.075270601 1.0600001 -0.2569268644 -0.3368213177 -0.9058366418
-0.27500513 -0.13488673 1.1035832 -0.09075991809 -0.477895081 -0.8737155795
-0.058259759 0.15573283 1.2780001 0.09578818828 0.5743840337 -0.812962234
-0.31447074 -0.064948 1.066 -0.3719089627 0.08587235957 -0.9242887497
-0.38298556 -0.08486747 1.106846 -0.6185357571 0.1775675267 -0.7654301524
-0.13305461 -0.10922449 1.1326667 -0.07902400196 0.9225977659 -0.3775825202
-0.30509925 -0.024401559 1.0544784 -0.1162541658 -0.4844582677 -0.8670554757
-0.28468347 0.14456248 1.1343637 -0.3598557711 0.7552378178 -0.5478317738
-0.19721474 0.16368464 1.1563846 0.4870159328 0.5587555766 -0.6712731719
-0.34449318 -0.03454582 1.0649199 -0.3357625008 -0.35400334 -0.8728947043
-0.2494555 -0.011046 1.0500001 -0.2264010608 -0.1608374864 -0.960663259
-0.34657717 0.15844047 1.2037144 -0.4785979986 0.693918407 -0.537978828
-0.41103479 0.01765782 1.1190001 -0.8792064786 0.02372968383 -0.4758496284
-0.22588222 -0.15542762 1.1125884 -0.05331782252 -0.4862486422 -0.8721923232
-0.32764164 0.0071022534 1.0700001 -0.3643663824 0.1989690363 -0.9097518921
-0.35435036 -0.085059658 1.0845383 -0.497392416 0.01274549123 -0.8674320579
-0.26677316 0.21925083 1.2320001 -0.3187629879 0.8509022593 -0.4175589383
-0.35883719 -0.048286799 1.08 -0.3435457349 -0.4661759734 -0.8152645826
-0.31632394 0.15579647 1.1738001 -0.4295759797 0.7417096496 -0.5151032209
-0.21243827 -0.12242737 1.077 -0.3364750743 -0.6062465906 -0.720589757
-0.35745925 0.16747192 1.223 -0.5309368968 0.6523961425 -0.5408191085
-0.14499417 0.0042743525 1.0836874 0.7904210687 0.2112432867 -0.5749877095
-0.0491753 0.18526947 1.3045001 -0.9627761245 0.2576593459 0.0816931203
-0.13292712 0.15466629 1.2261113 0.8423113227 0.08512649685 -0.5322266221
-0.37263548 0.073937193 1.1245 -0.5678771734 0.6570336819 -0.4958046377
-0.30611974 0.18800397 1.2116001 -0.3899139166 0.7320941687 -0.5585742593
-0.20528264 0.073718272 1.0643888 0.4770303667 0.4868173599 -0.7317450643
-0.28438485 0.094319582 1.0739412 -0.3606176078 0.6915408373 -0.6258803606
-0.34446868 0.033915143 1.0636315 -0.4311625957 0.08976963162 -0.8977974057
-0.12408689 0.084371932 1.1845001 0.4208556712 0.8115510941 -0.4052966237
-0.21846785 0.13321641 1.1051251 0.5754268169 0.6054596901 -0.5498204827
-0.181207 -0.125451 1.0600001 0.484788686 0.2530748248 -0.8372174501
-0.40355122 0.066225439 1.1543334 -0.6501397491 0.4979248047 -0.5739244223
-0.26541641 0.065094575 1.0427145 0.1238289997 -0.004528841469 -0.9922932386
-0.19450517 -0.16510181 1.056739 0.4251265228 -0.2318028659 -0.8749485016
-0.17568707 0.011468555 1.0465 0.4503722489 0.4316137433 -0.7815845609
-0.25505915 0.15214039 1.1249093 -0.2418458611 0.7662108541 -0.5953415632
-0.32830113 0.13968018 1.1630001 -0.488193661 0.6944411993 -0.5286003947
-0.15894449 0.023112001 1.076 0.7088811398 0.459107399 -0.5354511142
-0.23479632 -0.11558695 1.0832942 -0.2926277816 -0.6716632843 -0.6806154251
-0.16427788 0.095117897 1.1654001 0.7153052688 0.4971843064 -0.4910663664
-0.24704038 -0.20451134 1.0603751 -0.1916502714 -0.7060486078 -0.6817371845
-0.41514373 0.046579055 1.155 -0.726283133 0.4358341396 -0.5315650702
-0.18502492 0.046963073 1.0713499 0.499800384 0.5746848583 -0.6480253935
-0.31689659 0.16768676 1.1930001 -0.4196529984 0.7255925536 -0.5453501344
-0.1305979 -0.08843638 1.1730001 -0.392899245 0.7153854966 -0.5778008103
-0.20335293 0.19713297 1.1835002 0.1881625652 0.7548747063 -0.628298521
-0.25433132 0.083863385 1.0446427 0.1211220324 0.3459408581 -0.9304054976
-0.20534748 0.14220499 1.1343334 0.5757454038 0.5613706708 -0.5944579244
-0.38413516 -0.053351738 1.1065 -0.5843620896 -0.5080552697 -0.6327722669
-0.15165018 0.12445774 1.1930001 0.7508419752 0.2154098749 -0.6243675947
-0.22494304 -0.085214205 1.0542003 -0.09490472823 -0.579834044 -0.8091882467
-0.071400121 0.075793967 1.253 0.2819499075 0.6370110512 -0.7174407244
-0.12272002 0.13555774 1.2410001 0.7234826684 0.3463491499 -0.5971726179
-0.35184842 -0.0070733847 1.0760001 -0.5688829422 0.3301012516 -0.7532631159
-0.30469829 -0.16479792 1.1244999 0.02680845 -0.5947083235 -0.8034944534
-0.35275069 0.060872573 1.0951999 -0.4968537688 0.5924884081 -0.6341086626
-0.37460932 0.16131982 1.2350001 -0.5429467559 0.6662175059 -0.5112368464
-0.28525186 0.15822323 1.156111 -0.3557829857 0.762783587 -0.5399811864
-0.31226337 0.13168935 1.138 -0.4478484094 0.7068710327 -0.5475080609
-0.26830733 0.01916481 1.041 -0.3366113603 0.2651135921 -0.9035527706
-0.22516564 0.0045750597 1.0441004 0.0817899406 0.01433905307 -0.9965464473
-0.1045495 0.13562699 1.266 0.5128312707 0.7382211089 -0.4382164478
-0.26268613 0.23288563 1.2590001 -0.3178497851 0.8831138611 -0.3450817764
-0.18906036 0.10481163 1.1173999 0.8341097236 0.3374301791 -0.4363506436
-0.10579702 0.11007164 1.2190001 0.3739664853 0.5719192624 -0.7301078439
-0.1841526 0.20475951 1.2055001 0.208025977 0.7620096207 -0.6132426262
-0.14537156 -0.084397763 1.0920527 -0.2188686579 0.3650676012 -0.9048879147
-0.082098201 0.022252182 1.2252858 -0.4215304554 0.5160986185 -0.7456234097
-0.24515401 0.11251181 1.0751818 0.004621183965 0.7219043374 -0.6919774413
-0.094778351 -0.0751682 1.1659093 -0.3975055814 0.5868034363 -0.7054438591
-0.26482958 -0.16834892 1.123 -0.0412094444 -0.5091068149 -0.8597162366
-0.31562367 -0.12740771 1.101 -0.02013487741 -0.6022824645 -0.7980290651
-0.15509996 -0.10569976 1.087 0.06250270456 0.2597086132 -0.9636622071
-0.34496042 0.12770791 1.1627142 -0.4895053506 0.6870362759 -0.536996901
-0.1290094 0.18314531 1.245 0.7282954454 0.4572167397 -0.5104297996
-0.36082286 0.14119154 1.1930001 -0.5039147735 0.6804177761 -0.5320728421
-0.1896344 0.08481136 1.087 0.8093533516 0.4019188285 -0.4282620847
-0.14768268 0.043070629 1.1026666 0.5210924149 0.6140103936 -0.5928354859
-0.083542533 0.13949607 1.2936667 0.2991742492 0.8869045973 -0.3519872129
-0.10853279 0.17402036 1.2590001 0.9434174895 0.1263729632 -0.3065832257
-0.31725141 0.11595996 1.1235455 -0.4643903077 0.6142092943 -0.6380349398
-0.22375162 0.23719181 1.243 -0.2082913667 0.8523189425 -0.4797573686
-0.24273716 -0.054143809 1.0380001 -0.2557328641 -0.1399724483 -0.9565607309
-0.1070689 -0.10580363 1.1318183 -0.1434421092 0.8574393988 -0.4941882193
-0.16129413 -0.016594047 1.0600001 0.82129246 -0.1836256981 -0.5401483774
-0.37506694 0.086224332 1.1470001 -0.5846869946 0.6015572548 -0.5443068743
-0.057092041 0.045928568 1.2326669 0.04841383547 0.3818085194 -0.9229725599
-0.12030584 0.14569148 1.2590001 0.9048435688 0.2397690266 -0.3518081009
-0.28546789 -0.18555214 1.1327691 -0.1457232833 -0.6206230521 -0.7704490423
-0.26234251 0.20042966 1.197 -0.3911675811 0.7392136455 -0.5482254028
-0.33697665 0.18792927 1.2320001 -0.4236818254 0.7185528874 -0.5515210629
-0.1450568 -0.12493061 1.0860356 0.4500111341 -0.2580783069 -0.8549184799
-0.13794525 0.080129966 1.1570001 0.318990171 0.8621814251 -0.3935586512
-0.224686 0.1876184 1.1746 -0.02926008776 0.8121459484 -0.5827202201
-0.23586966 0.15710391 1.1311429 0.02864257991 0.7810377479 -0.623826623
-0.1721525 0.13738039 1.1743335 0.7942092419 0.08499853313 -0.6016700864
-0.17983852 0.07020434 1.097 0.7777912021 0.5065434575 -0.3720948696
-0.2156262 -0.1848716 1.0526248 0.4108659625 -0.3566080928 -0.8390589356
-0.079675846 0.098230496 1.245 0.8720539212 -0.01378772501 -0.4892156124
-0.28448799 -0.20123853 1.0710001 -0.5688343048 -0.5224017501 -0.6352353692
-0.20497058 0.22098508 1.2177501 -0.008235326037 0.7129573822 -0.7011590004
-0.2243484 -0.035280306 1.0319002 -0.2128087729 0.05051842332 -0.9757870436
-0.18351962 -0.035191931 1.0426074 0.5612769127 -0.2739340067 -0.7809790969
-0.28633615 -0.012730022 1.0464375 -0.06940265745 -0.4872452319 -0.8705029488
-0.096516222 0.16547835 1.3158889 0.6423847079 0.5438104272 -0.5400112271
-0.2854405 0.043349102 1.0521176 -0.0661617741 -0.2629597485 -0.9625356197
-0.16677721 -0.14289579 1.0835713 0.6793688536 -0.5360638499 -0.5010923147
-0.23384409 -0.13732307 1.101 -0.09213420004 -0.5055664778 -0.8578541875
-0.2147681 0.10712747 1.0903078 0.5331025124 0.5427270532 -0.6490370035
-0.20543815 -0.054532103 1.0360743 0.2561536729 -0.3149928153 -0.9138735533
-0.37964314 -0.11869979 1.1190001 -0.6305615902 -0.4002964199 -0.6649472117
-0.30569366 0.21454138 1.268 -0.4015098214 0.8550440073 -0.328161031
-0.15469669 0.18442076 1.2152632 0.736905992 0.3771103621 -0.5610323548
-0.24444957 0.22294879 1.2262002 -0.1605388373 0.8604530096 -0.4835782051
-0.26160112 0.10071176 1.067 -0.2860346138 0.6743026376 -0.6808084846
-0.35515913 -0.10574699 1.0858749 -0.3584241569 -0.3003391922 -0.8839278817
-0.26542029 -0.074744612 1.0515383 -0.198866114 -0.4984418154 -0.8438056707
-0.3774488 -0.046822768 1.09 -0.5379812121 -0.4386735559 -0.7198206186
-0.39193836 -0.10150573 1.108 -0.6461180449 -0.1032155529 -0.756226182
-0.27471927 0.18366823 1.187 -0.3663707972 0.7723360658 -0.5189117789
-0.16126919 -0.045455385 1.09175 0.9266953468 -0.2424637973 -0.2871358395
-0.29486322 0.10425505 1.0932223 -0.384097755 0.7453229427 -0.5449427962
-0.394555 0.12340358 1.2030909 -0.514028132 0.6216709018 -0.5910164118
-0.21514846 -0.10517099 1.0631665 -0.1821936071 -0.5238637924 -0.8320890665
-0.046960112 0.088369168 1.2653333 0.6915306449 0.1739373207 -0.7010928392
-0.11335628 -0.057593059 1.1945 -0.5476834178 0.5943611264 -0.5888783336
-0.3524332 -0.064803191 1.0858461 -0.4682967067 -0.1026412994 -0.8775892854
-0.060262945 0.16941847 1.2970001 -0.9142600298 0.3999016881 -0.06486353278
-0.1140686 -0.093628071 1.1551818 -0.2775661945 0.7957582474 -0.5382618308
-0.22395064 0.20810752 1.205 0.03614189476 0.830930233 -0.5552015305
-0.32483435 -0.085434154 1.0709 -0.2413919568 -0.221378997 -0.9448392987
-0.40913156 0.0029718999 1.13 -0.7343545556 0.01313090604 -0.6786390543
-0.15248588 0.10516757 1.1844288 0.6867236495 0.3413210213 -0.641802609
-0.22562826 0.054162409 1.044621 0.1581103802 0.5442914963 -0.823861599
-0.12869641 0.060856447 1.138 0.5194782615 0.6314016581 -0.5757380724
-0.064492084 0.094957031 1.2562224 0.1927588433 0.2033146024 -0.9599516392
-0.15335412 0.22444917 1.2540001 0.62278229 0.5973488092 -0.5052886605
-0.24335191 0.032351755 1.0374286 -0.1735898554 0.2750116289 -0.9456400871
-0.17639114 -0.065551542 1.0625 0.7712088823 -0.3017275929 -0.5605330467
-0.16879866 0.070085995 1.126 0.5674929023 0.6991783977 -0.4348579347
-0.14108196 0.15487193 1.21 0.7901414633 0.1563872099 -0.5926377773
-0.33820924 0.088950984 1.115 -0.48683846 0.6947584748 -0.529432714
-0.19514601 -0.094785213 1.0600001 0.3209092617 -0.3982787728 -0.8592969775
-0.1842079 0.23444118 1.2332308 0.3330416083 0.6680395603 -0.6654370427
-0.37574828 0.014128886 1.0817999 -0.3988043368 -0.3471123576 -0.8488039374
-0.14390615 -0.048776634 1.10725 0.3447078764 0.514336586 -0.7852606773
-0.29521933 0.076004185 1.0627859 -0.4464605749 0.632869482 -0.6325734258
-0.30027324 0.16192208 1.169 -0.3714309633 0.7532803416 -0.5427777767
-0.32007363 0.071756914 1.077 -0.5003034472 0.5986475945 -0.6255538464
-0.1290357 -0.01200332 1.141 0.3029654324 0.5864331722 -0.7512044311
-0.40224564 0.051485464 1.1366667 -0.7148175836 0.4769327343 -0.5114401579
-0.088779151 0.11259994 1.2350001 0.6882830262 0.4910762012 -0.533957541
-0.25577164 -0.086734444 1.0623751 -0.1343734562 -0.6709632277 -0.729213357
-0.39537907 0.024408054 1.103889 -0.7174734473 0.2882523537 -0.6341469884
-0.26251084 -0.03763267 1.0470001 -0.3795435727 0.1760062426 -0.90827775
-0.34809628 0.10903016 1.141 -0.5057960153 0.6352838874 -0.5835964084
-0.15772417 0.081144273 1.1570001 0.4163355231 0.8029538393 -0.4265323579
-0.41333795 -0.024691841 1.1178 -0.640955925 0.3119077384 -0.7013480663
-0.051335845 0.12164363 1.273 0.3130028546 0.0402305983 -0.9488997459
-0.29697084 0.21368749 1.25 -0.4154751599 0.8427773118 -0.3422087133
-0.2452424 0.16716333 1.1418002 -0.11187163 0.8102776408 -0.5752694011
-0.20569654 0.1150723 1.1041874 0.5952341557 0.5761812329 -0.5600995421
-0.2283756 0.1043876 1.0747001 0.5450807214 0.4605924487 -0.7005295157
-0.34197015 0.17419103 1.2190001 -0.4449495971 0.6940464973 -0.5659675598
-0.30570155 0.043430064 1.0503334 -0.2482605577 -0.2815701365 -0.9268683791
-0.36160046 -0.12021291 1.097 -0.3679349422 -0.5862628222 -0.721747756
-0.27876246 0.20799968 1.223 -0.3350842893 0.7993223667 -0.4988008142
-0.1889091 0.1718287 1.169 0.453951329 0.5935733318 -0.6645290852
-0.067618661 0.015755452 1.2157778 -0.3994231224 0.6220172048 -0.6734655499
-0.15570451 -0.074292868 1.1019089 -0.147101149 0.3471319377 -0.9262076616
-0.30553192 0.025318934 1.0663332 -0.3390248716 -0.1815366298 -0.92309618
-0.27507606 -0.2010556 1.141 -0.07567416131 -0.6625240445 -0.7452082634
-0.04223254 0.087889336 1.302 -0.5855620503 0.7686769962 0.2573960423
-0.28362182 0.070675991 1.0470001 -0.2563091218 0.425430268 -0.8679370284
-0.17509344 -0.095300496 1.0844826 0.7232667804 0.2484371215 -0.6443323493
-0.15675764 -0.027889397 1.097 0.9249340892 -0.2713952065 -0.2661607265
-0.17658369 0.15454793 1.1652858 0.7422622442 0.2340276092 -0.6279155016
-0.17334193 0.054699615 1.0946364 0.6562140584 0.5974441171 -0.4609161019
-0.24437362 0.13697208 1.101 -0.084060736 0.774893105 -0.6264778376
-0.26512855 -0.11659452 1.093111 -0.06561615318 -0.5958768725 -0.8003907204
-0.28654727 -0.15055872 1.108 -0.07804822922 -0.4480814636 -0.8905792832
-0.24144977 0.19088978 1.177 -0.05910048634 0.7980524898 -0.5996826887
-0.09732227 -0.061085258 1.1810001 -0.4267771244 0.584456861 -0.6901242137
-0.10150339 -0.036023401 1.2046667 -0.6778267026 0.4400709569 -0.5889723897
-0.16438405 0.17520653 1.1943333 0.7493076921 0.3583945334 -0.55685848
-0.091503248 -0.0057981764 1.2152222 -0.6383985281 0.4940574467 -0.590215683
-0.3843523 -0.0048457752 1.1059284 -0.7187389135 -0.02300529554 -0.6948993802
-0.14562789 0.054164369 1.1165556 0.4812293947 0.6221607924 -0.6175225973
-0.37725192 0.14836796 1.2246001 -0.515350461 0.6943163276 -0.5023332834
-0.40069979 0.14148699 1.2320001 -0.4739326537 0.7107933164 -0.5197698474
-0.3325749 -0.11339945 1.087 -0.06981768459 -0.6003706455 -0.7966684699
-0.12947489 -0.079603083 1.0940001 -0.2171396911 0.3449724019 -0.9131507874
-0.049062651 0.055606674 1.2436666 0.356079638 0.4466453791 -0.8208015561
-0.1812859 0.097082064 1.13 0.8740721345 0.3401356637 -0.3468509912
-0.34204701 -0.074417762 1.0769999 -0.4489405155 0.06389084458 -0.8912745714
-0.074190743 0.045335155 1.2344446 -0.2353459597 0.3616800606 -0.9021085501
-0.25496525 0.17548905 1.154111 -0.2617451847 0.8011243939 -0.5382277966
-0.32524949 -0.03057901 1.057 -0.06325281411 -0.556773603 -0.8282524943
-0.38489622 0.037556786 1.1046666 -0.6447480321 0.5159187913 -0.5640282035
-0.40094483 0.0039086184 1.1155001 -0.7656028271 -0.1831452698 -0.6166928411
-0.17166011 -0.13476413 1.0700001 0.7632010579 0.02605902776 -0.645635426
-0.22416075 0.17248242 1.1483334 0.1430001557 0.780613482 -0.6084353328
-0.31063017 -0.18176194 1.097 0.370750457 0.8708258867 -0.322810024
-0.23802727 0.23912749 1.2570001 -0.2368103266 0.8859906793 -0.3986744881
-0.33267686 0.022446549 1.0732857 -0.1230017394 -0.4428125918 -0.8881371617
-0.17022149 -0.068280935 1.097 0.8803890944 -0.07134984434 -0.4688541889
-0.28414822 0.013578314 1.0457144 -0.409930408 0.2942134142 -0.8633629084
-0.070031643 0.15006781 1.268 -0.5008814335 0.4537623525 -0.7370328903
-0.33237237 0.16146885 1.1960001 -0.4439833164 0.7171596289 -0.5371786356
-0.25983524 -0.2082434 1.0700001 -0.3362107575 -0.6338425279 -0.696567297
-0.39461783 0.094056189 1.1752859 -0.5814235806 0.5971031785 -0.5526431799
-0.40130731 0.1011086 1.189 -0.5859714746 0.5428756475 -0.6016007066
-0.2213283 0.023777829 1.0432501 0.3935231566 -0.07024924457 -0.9166267514
-0.24952914 -0.1839159 1.1340001 -0.02896161936 -0.6380803585 -0.7694249153
-0.19725782 -0.1245847 1.0627273 -0.3343739212 0.4980691671 -0.8000757694
-0.065226339 0.12343291 1.2646667 0.2744011879 0.09232299775 -0.9571731687
-0.12435221 0.10522503 1.2124 0.415804714 0.5205180645 -0.7457662821
-0.38123429 0.10248233 1.169 -0.6089262366 0.5857083797 -0.5349341035
-0.27574363 -0.045113351 1.0522857 -0.4528124332 0.1395361274 -0.8806194067
-0.31714404 -0.16403118 1.1143638 0.5845065713 -0.2663736939 -0.7664183378
-0.32290614 -0.10165563 1.077 -0.03966192901 -0.5353577137 -0.8436936736
-0.062036775 0.18507154 1.293923 0.5752122998 0.3887310624 -0.7197353244
-0.21019223 -0.14961281 1.0470001 0.4066998959 -0.1358176172 -0.9034095407
-0.20538987 0.15534082 1.1454619 0.5428153276 0.5422979593 -0.6412990689
-0.13562033 0.018405616 1.105 0.7192459106 0.3743055761 -0.585303843
-0.20895086 0.13047168 1.1190001 0.5885752439 0.5814362764 -0.5617036819
-0.18015237 0.11908377 1.161 0.8676430583 0.1847474426 -0.4615884125
-0.19529869 0.025807953 1.0512725 0.2830328047 0.4156901538 -0.864346087
-0.24412316 0.0025096775 1.0410001 0.05908738077 -0.3910574317 -0.9184676409
-0.37215567 0.043999724 1.0958 -0.5971305966 0.5329009295 -0.5995428562
-0.048927862 0.20319971 1.3132501 -0.7946156263 0.5407896042 -0.2759214342
-0.33863002 0.049715765 1.0700001 -0.4885884821 0.5298007131 -0.6932477951
-0.38173923 -0.068965614 1.108 -0.6901966333 -0.02682420425 -0.7231245041
-0.36256129 0.031157609 1.077 -0.5527282357 0.2123485059 -0.8058533072
-0.42184675 0.082900226 1.197 -0.6257508397 0.5611326098 -0.5418174267
-0.2425386 0.073412068 1.0600001 0.3641165197 0.1858956367 -0.9126127362
-0.13300188 0.19566381 1.2538333 0.7684190273 0.4549743533 -0.4500339031
-0.12368254 0.1975553 1.2767501 0.7964562774 0.5542592406 -0.2417728901
-0.24411952 0.20899443 1.202 -0.05685234442 0.8443559408 -0.5327578187
-0.38160512 0.061802369 1.1190001 -0.6345175505 0.5421295762 -0.5508928895
-0.078686096 -0.044519763 1.181 -0.4892538786 0.4369599521 -0.7547824979
-0.29471672 -0.1938113 1.1425 -0.135582 -0.6360182762 -0.7596698403
-0.13608111 0.13415052 1.2241999 0.8485704064 0.2041979134 -0.4880895615
-0.40116617 -0.026226362 1.108 -0.6249567866 0.2709318101 -0.7321372628
-0.09199477 -0.025884459 1.197 -0.6338887811 0.4460660517 -0.6318307519
-0.21714589 0.14363752 1.1169232 0.5553882122 0.6255933642 -0.5478839278
-0.26784679 0.12587675 1.1016666 -0.4249609709 0.6570324898 -0.6226688623
-0.24512996 -0.1650492 1.114 -0.09439200163 -0.4589602649 -0.8834283352
-0.28474343 0.054651313 1.0415145 -0.07638692111 -0.07354544103 -0.9943621755
-0.31873846 -0.00092926668 1.0600001 -0.4687725604 0.2986578345 -0.831297636
-0.35077626 -0.019643471 1.067 -0.5043771267 0.1829347759 -0.8438830376
-0.35460889 0.0047588972 1.0855999 -0.4699187577 -0.134180516 -0.872451663
-0.087909997 -0.085301794 1.1564286 -0.3470017016 0.6537255645 -0.6724824905
-0.14151153 0.011118763 1.153 0.976197958 -0.1521218866 -0.1545847207
-0.1146919 0.075258322 1.1760001 0.5450386405 0.738817513 -0.3963351846
-0.30014613 0.11170486 1.108 -0.4242627621 0.6678541899 -0.6115323901
-0.34371275 0.073089451 1.097 -0.5050949454 0.5852373838 -0.6343314052
-0.27195847 0.15224089 1.138 -0.3912324607 0.7523798347 -0.5299639702
-0.28498432 -0.18595058 1.0712777 -0.6204069257 -0.4689729214 -0.6286172867
-0.26303944 0.2270216 1.245 -0.3154313564 0.8739933968 -0.3696466386
-0.21888438 0.081380092 1.067 0.3142267764 0.5887138247 -0.7447667718
-0.14433701 -0.0041825767 1.1438236 0.2924670577 0.6005907059 -0.7441464067
-0.42470029 0.04833151 1.1730001 -0.7212296128 0.4710582197 -0.5078700781
-0.37200952 -0.086191975 1.0965 -0.6035758853 0.1017697752 -0.7907838225
-0.25343013 0.18388662 1.1666 -0.2598670423 0.8068358898 -0.5305515528
-0.30861297 -0.051591832 1.0700001 -0.3732558787 0.03445997462 -0.927088201
-0.10663707 0.082272537 1.1955001 0.4609685838 0.7219316363 -0.5160645843
-0.2547482 0.064362437 1.0532261 0.2500732839 -0.03706815466 -0.9675170779
-0.17564717 0.21364985 1.2143077 0.3172782958 0.7272395492 -0.6086519361
-0.20761876 -0.001368915 1.041 -0.09340567887 0.2826639712 -0.9546604156
-0.20835648 0.033502258 1.0470001 0.5565189123 0.2726520598 -0.7848232985
-0.34448028 -0.13248011 1.1074544 -0.1282383054 -0.6424876451 -0.7554896474
-0.15475938 0.065256968 1.1244003 0.3681836724 0.7428500056 -0.5591195822
-0.27753073 0.02807525 1.0500001 -0.3789048493 0.2124280334 -0.9007249475
-0.17471282 0.10381561 1.1553332 0.8044964075 0.4161307216 -0.4238168895
-0.35488954 0.1134704 1.1548461 -0.5168393254 0.6792560816 -0.5210453272
-0.31161028 0.09052898 1.087 -0.4742568433 0.6659066081 -0.575889647
-0.2375828 -0.021598436 1.041 -0.3236469626 0.226977393 -0.9185498953
-0.19127989 -0.067564704 1.0500001 0.5170661807 -0.3299089372 -0.78981179
-0.23348352 -0.17749909 1.0444286 0.1354140937 -0.2996503115 -0.9443901181
-0.22668895 -0.12741123 1.0927273 -0.342451483 -0.6259558797 -0.7006469965
-0.16320251 0.12652762 1.1841112 0.6958565116 0.2132067382 -0.6858036518
-0.3738575 -0.035394054 1.0814444 -0.5730082989 -0.09312772006 -0.8142411709
-0.32199705 0.13262652 1.149 -0.4943236411 0.7090944648 -0.502821207
-0.23474459 -0.196289 1.0528336 0.01312853303 -0.5053883791 -0.8627920747
-0.29511508 -0.13467567 1.1058332 -0.03310682625 -0.4874710441 -0.8725112677
