# .PCD v0.7 - Point Cloud Data file format
VERSION 0.7
FIELDS x y z normal_x normal_y normal_z
SIZE 4 4 4 4 4 4
TYPE F F F F F F
COUNT 1 1 1 1 1 1
WIDTH 512
HEIGHT 1
VIEWPOINT 0 0 0 1 0 0 0
POINTS 512
DATA ascii
-0.22151175 0.16441095 1.123 0.3215869665 -0.12474408 -0.9386270642
-0.49522224 -0.49522224 2.3810003 -0.6615055203 0.7223004699 0.2017237246
-0.04919941 0.26491988 1.439 -0.7331320643 0.5649815798 -0.3785672784
-0.40476927 0.31218275 1.3540001 -0.4020355046 0.8168553114 -0.4136603475
-0.36013728 -0.067325369 1.2190001 -0.5414398909 -0.03274087608 -0.8401017189
-0.098235756 0.00338744 1.2880001 -0.1371251047 0.6836496592 -0.7168123126
-0.19520554 0.31544876 1.2853532 0.2351068556 0.772795558 -0.5895012617
-0.41264263 0.15268873 1.1956667 -0.7511357069 0.2320946008 -0.6180025935
-0.19573772 -0.045170251 1.1450003 0.5860859156 -0.1172893047 -0.8017147779
-0.10885131 0.17072469 1.307 0.583583951 0.677595377 -0.4475425184
-0.31308925 0.043125052 1.1279998 -0.2614353597 -0.06471625715 -0.9630489945
-0.30231851 0.24928017 1.21 -0.2485570014 0.7100678682 -0.6588042378
-0.11987101 0.096939169 1.189 0.8808372021 0.1640593857 -0.4440837204
-0.16410735 0.2255825 1.2114116 0.7112331986 0.4645509124 -0.5275791883
-0.10133127 0.16137943 1.427 -0.8684629798 0.3354535997 -0.3650246263
-0.29207203 0.34133717 1.3380001 -0.1366986334 0.9007891417 -0.4121801257
-0.12385822 0.31385741 1.3717144 0.8816052079 0.4003484249 -0.2499867976
-0.40889135 0.24710779 1.2640001 -0.5144219995 0.6396185756 -0.5711900592
-0.40896061 0.046590447 1.1810001 -0.6805648208 0.2186060995 -0.6993160248
-0.32756945 0.15718049 1.13 -0.3063686192 0.4523645937 -0.8375586867
-0.28453925 -0.10057427 1.153 -0.4491602182 -0.4928959012 -0.7451904416
-0.19402078 0.064298734 1.1234282 0.01986161806 0.04325516522 -0.9988666177
-0.084534682 0.086182997 1.3430002 -0.3315027952 0.5754811168 -0.7476144433
-0.13607778 0.0052340496 1.1940002 -0.2023858428 0.3330679238 -0.9209265709
-0.13253124 0.2551322 1.307 0.9157348871 0.03171359748 -0.400529474
-0.33441111 0.29539242 1.2757777 -0.2969470322 0.7270895839 -0.6190018058
-0.27453861 -0.015799398 1.1740437 0.02341411822 -0.552664876 -0.8330746293
-0.23534325 0.22555701 1.1755002 0.006314927712 0.739836812 -0.6727567315
-0.11017158 0.22397518 1.381 0.4923002422 0.8160322309 -0.3028727472
-0.15609238 0.16685809 1.1615715 0.8245836496 0.370472908 -0.4275647402
-0.23517326 0.2749669 1.2344617 -0.0361298807 0.7654719949 -0.6424540877
-0.23761174 -0.071071364 1.21 0.1696170568 -0.661001265 -0.7309632897
-0.13482231 0.15644541 1.233143 0.6242190599 0.67003268 -0.4017546773
-0.35527992 -0.012937608 1.167909 -0.2873528302 -0.6442492604 -0.7087815404
-0.26427138 0.10434433 1.1123599 -0.08013202995 0.03935117647 -0.9960072041
-0.3552655 0.20320983 1.1866667 -0.2923097908 0.7446997762 -0.59998101
-0.37797475 0.10596845 1.1463335 -0.4807826579 0.3735460937 -0.7932914495
-0.064020768 0.1636419 1.3649999 -0.6435090303 0.4070719779 -0.6482195258
-0.13958462 0.04457324 1.3380001 -0.529214263 0.5404437184 -0.6541045904
-0.24875592 0.028626673 1.126 0.02814618498 -0.5013698936 -0.8647751212
-0.22437057 0.34941041 1.3330001 -0.025482269 0.864563942 -0.5018763542
-0.26609024 0.31202582 1.2780001 -0.006002186798 0.8343110085 -0.551261425
-0.29497865 0.20736666 1.1620911 -0.3022797704 0.5396323204 -0.7857632637
-0.15449984 0.20487638 1.2770625 0.8472208977 0.1280822456 -0.5155692697
-0.39121249 -0.0230125 1.25 -0.7041069269 -0.1685251892 -0.6898062825
-0.1217465 -0.032345783 1.2436666 0.3018248975 0.8077781796 -0.5063557625
-0.13272908 0.068540432 1.2410001 0.8061003089 -0.3760954738 0.4568966031
-0.15523601 -0.052143756 1.193 0.5735039115 -0.2158872932 -0.7902442217
-0.17407317 0.27641544 1.2418889 0.5388125777 0.6620360613 -0.5209503174
-0.15395167 0.10739335 1.1409999 0.5888499022 0.3537519574 -0.7267154455
-0.30217734 -0.077203646 1.2105001 -0.08072692901 -0.6934028268 -0.7160137296
-0.35540769 0.25246951 1.2360001 -0.2750726342 0.741702497 -0.6117290854
-0.35392088 0.32248709 1.3280001 -0.3105186224 0.8518391252 -0.421839118
-0.15949723 0.33180079 1.3280001 0.4368759394 0.7167972922 -0.5434529185
-0.14619574 0.047444165 1.1559089 0.7295296788 -0.3641065955 -0.5789756775
-0.22574604 -0.093664378 1.1457503 0.3708989322 -0.324717015 -0.8700533509
-0.40507692 0.20495158 1.2157646 -0.4376666248 0.5628457665 -0.7011794448
-0.18836322 0.21052361 1.149 0.53824687 0.5055098534 -0.674351573
-0.365536 0.036395196 1.144143 -0.4345456958 0.05333332345 -0.8990693092
-0.19505395 0.01200332 1.1409999 0.1620724201 -0.5670962334 -0.8075484037
-0.10158784 0.12587149 1.3850001 -0.6612821221 0.4956350625 -0.5630735159
-0.32640538 0.095764682 1.1229998 -0.1789634377 0.04834656417 -0.9826671481
-0.093691118 0.24770392 1.4640001 -0.874017477 0.4754551947 0.1001787558
-0.27505991 0.17367621 1.1260002 -0.1798122823 0.5466806889 -0.8178066611
-0.37224934 0.16228853 1.1570001 -0.5601112843 0.4078612924 -0.7210579515
-0.31443405 -0.057815291 1.1570001 -0.6922641993 -0.1869083941 -0.6970190406
-0.059795681 0.23064049 1.3920001 -0.4646197855 0.5015075803 -0.7298072577
-0.20432276 0.11438139 1.1151599 0.2485700101 -0.1326622963 -0.9594861269
-0.38204432 0.29221842 1.2970001 -0.3335322142 0.7909550071 -0.5129780173
-0.09128233 0.053088889 1.307 -0.3881129622 0.5145328641 -0.7646072507
-0.2852717 0.28200436 1.2420001 -0.104568325 0.8023915291 -0.5875656009
-0.22812064 -0.027264038 1.1810001 -0.2659170628 -0.6113922596 -0.7453104258
-0.12351707 0.21718013 1.3355 0.9129776955 0.04905282333 -0.4050500989
-0.15159231 0.29751703 1.2936667 0.6171262264 0.5653727651 -0.5472739935
-0.20531593 0.2551544 1.2037778 0.06942323595 0.7498950958 -0.6579040885
-0.1073601 0.27141601 1.376 0.9462069869 0.2937847674 -0.1355833262
-0.31435776 0.0010107966 1.153 0.05825293809 -0.7101769447 -0.7016090751
-0.13972752 0.24204767 1.2550001 0.9433489442 0.157973811 -0.291782558
-0.1527504 0.043491434 1.21 0.7152776122 0.02952237241 -0.6982165575
-0.13758144 0.021603696 1.2970001 -0.1753985733 0.6505094171 -0.7389674187
-0.30472583 0.32178137 1.2970001 -0.1331001371 0.8394338489 -0.5269109607
-0.17382108 -0.016591694 1.1747779 0.8866783381 0.09390396625 -0.4527511299
-0.11273977 0.24105133 1.4210001 0.7705923915 0.3290368617 -0.545822382
-0.11392546 0.11930206 1.2260001 0.6884159446 0.5595763922 -0.4614734948
-0.27154362 0.064611301 1.13 -0.02136581391 -0.001006898237 -0.9997712374
-0.090656973 0.18837813 1.3430001 0.4818513393 0.5939679146 -0.6442216039
-0.17549655 0.14476205 1.131 0.4199315012 0.377797544 -0.8251827359
-0.23081759 0.084203832 1.13 0.1640105247 -0.2784174681 -0.9463531375
-0.12302755 0.28605527 1.3340001 0.8792996407 0.3583494723 -0.3137161732
-0.24506779 0.19905506 1.141 -0.04753578454 0.7077825069 -0.704829216
-0.29719001 0.12878233 1.13 -0.1129066497 0.0647360459 -0.9914944768
-0.25512415 0.25463942 1.2044616 -0.0139380442 0.7779924273 -0.6281190515
-0.10748634 0.15624304 1.2640001 0.5575628281 0.7541406751 -0.3469805419
-0.13639422 0.1343016 1.1945 0.8347812295 0.4495625794 -0.3178580701
-0.23461238 0.002877692 1.153923 -0.0675098002 -0.6845893264 -0.7257959843
-0.22629221 0.30172411 1.2653334 -0.09622257203 0.8385552764 -0.5362520218
-0.075366706 0.19449627 1.3866253 -0.6264252067 0.1344008893 -0.7678071856
-0.27503529 -0.054260362 1.1938423 -0.004758098628 -0.5206456184 -0.8537596464
-0.25457698 0.3333725 1.314 -0.03697263822 0.8612993956 -0.5067508221
-0.33459648 -0.067753181 1.189 -0.9116746187 -0.3871959448 0.137581706
-0.39349359 0.081376582 1.1750001 -0.640516758 -0.1597771347 -0.7511388063
-0.15603095 0.19434033 1.1883848 0.8219416738 0.3791220784 -0.4250627756
-0.13168761 -0.01004397 1.273 0.005746624433 0.7838824987 -0.6208825707
-0.3353292 0.18438245 1.1555998 -0.2555608451 0.6682397127 -0.6986732483
-0.32364145 0.22424446 1.1881429 -0.279769361 0.6697998047 -0.6878207326
-0.39164409 0.18249364 1.1850001 -0.4918231666 0.5963346362 -0.6344249249
-0.37454006 0.26926991 1.2640001 -0.2607848942 0.6818970442 -0.6833795905
-0.076327346 0.12669271 1.3569168 -0.4951421022 0.5033177137 -0.7081705928
-0.2459292 0.1357733 1.1238999 0.0286312867 0.1325801015 -0.9907586575
-0.39216575 0.13220222 1.169 -0.6010048389 0.3434180915 -0.7217043638
-0.1566899 0.073244803 1.1260002 0.4302991927 -0.03715613112 -0.9019212723
-0.34453255 0.12591033 1.1414707 -0.436126411 -0.09881477058 -0.8944436312
-0.35464644 0.072131641 1.1445557 -0.3950685859 -0.4393266737 -0.8067917228
-0.28507751 0.018207053 1.138 -0.01194384135 -0.6135927439 -0.7895323634
-0.32498819 0.27155277 1.244 -0.2827771306 0.7319704294 -0.6198841929
-0.08097332 0.2616061 1.4210001 -0.5018463135 0.6595928073 -0.5595422983
-0.25237539 -0.078641094 1.126 0.03767997399 -0.3973764777 -0.9168817401
-0.08670672 0.15794115 1.3930001 -0.8533457518 0.1809602827 -0.4889318943
-0.19599691 0.33579129 1.315125 0.0854107067 0.8348451853 -0.5438185334
-0.31058285 -0.093897134 1.177 -0.7508407235 -0.655736804 -0.07904067636
-0.38701913 0.23581165 1.2320002 -0.3721436262 0.6520713568 -0.6605392098
-0.19501713 0.23175052 1.177 0.2255809456 0.7096206546 -0.6674966216
-0.086399004 0.21761672 1.4120001 -0.2650777996 0.8060559034 -0.5291574597
-0.10656556 0.25285202 1.3456668 0.9283549786 0.02640905976 -0.3707554936
-0.36882418 -0.018226776 1.223 -0.8183121085 -0.33242625 -0.4688902795
-0.13440922 0.1749007 1.2830001 0.7361527085 0.6092003584 -0.2948797941
-0.18599783 0.1750446 1.1457276 0.6041164994 0.2835766077 -0.7447332144
-0.31488886 -0.026240002 1.1746002 0.1287954599 -0.4633109272 -0.8767865896
-0.27343673 0.23009957 1.177 -0.1007067263 0.7270941138 -0.6791114211
-0.35700846 0.2284418 1.2120001 -0.3309138119 0.6188428998 -0.712411046
-0.13367216 0.21622194 1.3032501 0.9249129891 0.1239792034 -0.359395504
-0.11478412 0.074576676 1.3348184 -0.4309997559 0.5552592874 -0.7112849951
-0.37390709 0.32800952 1.3540001 -0.3947293758 0.8236675858 -0.4071368873
-0.12970722 0.07455612 1.1650001 0.9225025177 -0.09642157704 -0.3737539649
-0.22606486 0.32360163 1.2936667 -0.08233905584 0.8216947913 -0.5639485717
-0.21386312 0.034463599 1.1259999 -0.009713733569 -0.2605234981 -0.9654186368
-0.15072969 0.17933531 1.2550001 0.7630273104 0.5247836709 -0.3773478568
-0.20503104 0.28639409 1.2421428 0.141992107 0.7573974133 -0.6373283267
-0.20457982 -0.017302768 1.161 -0.2418251932 -0.5139300823 -0.8230409622
-0.30347043 0.30124721 1.268 -0.1515669674 0.7864218354 -0.5988055468
-0.29495099 0.088943094 1.1190001 -0.0978994742 -0.3306779265 -0.9386520982
-0.16650793 0.012806443 1.1636667 0.8062469363 -0.4600656629 -0.3718943894
-0.13864264 -0.036257617 1.2165 0.9395507574 0.1370869875 -0.3137698472
-0.13780674 0.26777083 1.2780001 0.8617711067 0.2640708685 -0.4331479669
-0.18529974 0.094137661 1.1303197 0.1220334843 0.05725872517 -0.9908729792
-0.16462158 0.014773369 1.20375 0.08424247801 0.3949557245 -0.9148296118
-0.17475471 0.034753986 1.1326667 0.4104311466 -0.3955669999 -0.8216282725
-0.33557749 0.31845617 1.302 -0.2612167001 0.8074247241 -0.5289906859
-0.21471189 0.19254054 1.1365 0.1026141495 0.6107628345 -0.785136342
-0.33409238 0.024117781 1.141 -0.07370743901 -0.205888778 -0.975795567
-0.15315278 0.13589121 1.1631333 0.8639562726 0.2722005546 -0.4236584008
-0.14829518 0.17205636 1.21 0.9433655143 0.3005366921 -0.1404963583
-0.23336603 0.10672671 1.1079999 0.1217020527 -0.1913994104 -0.9739378095
-0.13723867 0.31318566 1.3379999 0.8445792198 0.4735663533 -0.2498416454
-0.29131281 -0.074823499 1.138 -0.5444036722 -0.4042727351 -0.7349749804
-0.30908549 0.17904952 1.141 -0.2123473883 0.7472417355 -0.6297129393
-0.18475419 0.29519162 1.2653334 0.2948406339 0.7917762399 -0.5349386334
-0.16362341 0.24651866 1.2333335 0.7708900571 0.3979349136 -0.4973693788
-0.22047991 -0.06484703 1.138 0.4403314292 -0.2196302265 -0.8705577254
-0.39117569 0.30502391 1.3280001 -0.4201026559 0.7972581983 -0.4334664047
-0.11785293 0.037237585 1.3136667 -0.3917917013 0.5509732366 -0.7368363142
-0.19648744 -0.073703848 1.1543332 0.5431292653 -0.2119941711 -0.8124463558
-0.34234247 -0.03484362 1.1838572 -0.2087706178 -0.4349001944 -0.8759433031
-0.25487304 0.29513687 1.2561669 -0.02041410469 0.8052372336 -0.5926012993
-0.1359001 0.10489734 1.1645002 0.8646814823 0.2836213112 -0.4145900309
-0.3879765 0.055426501 1.1615715 -0.5152454376 0.2245686799 -0.8270979524
-0.13863343 -0.026058916 1.189 0.3817971647 -0.09425249696 -0.9194277525
-0.17639236 -0.054369546 1.16475 0.8083244562 -0.202602163 -0.5527783632
-0.084408097 0.23221643 1.4370002 -0.9327719808 0.3568133414 -0.05119209364
-0.26556754 0.0035097091 1.1544117 -0.1339243352 -0.7467052937 -0.6515331864
-0.32654488 0.066472933 1.1409999 -0.1463468373 -0.2375807017 -0.96028018
-0.3033258 -0.052266747 1.189 -0.04829993844 -0.5527154803 -0.8319692016
-0.33235222 0.25113431 1.2190001 -0.2743572891 0.6932765841 -0.6664050221
-0.23441233 0.054171424 1.1234998 0.1587887555 -0.04564378783 -0.9862569571
-0.27452829 0.19631697 1.1458571 -0.2521007955 0.6717352271 -0.6965751648
-0.26353917 0.2721445 1.2270001 -0.06234490126 0.7850565314 -0.6162785888
-0.20310134 0.14214624 1.126 0.05516977981 0.3910528421 -0.918713212
-0.25470528 -0.10147942 1.1423334 -0.07031760365 -0.6388867497 -0.7660803795
-0.25157878 0.1583295 1.108 -0.09381504357 -0.003289249493 -0.9955841899
-0.21503229 0.21198939 1.1570001 -0.04989876226 0.7599015236 -0.6481202245
-0.24322689 -0.046373162 1.1944286 0.1246202514 -0.4905948937 -0.8624305129
-0.39117831 0.029313102 1.153 -0.4835242927 0.03537375852 -0.8746159077
-0.29458433 0.15358761 1.118077 -0.08569774032 0.08212474734 -0.9929307103
-0.17429416 0.21473211 1.1853637 0.7971574664 0.4296371341 -0.4242073596
-0.059795681 0.15254 1.3920001 -0.7078079581 0.3403823376 -0.6189893484
-0.26837397 -0.075314432 1.21 0.01321392972 -0.7030316591 -0.7110357881
-0.35358876 0.095751286 1.126 -0.3203624189 0.02114927955 -0.9470589161
-0.11157863 0.093773529 1.3540001 -0.3168907464 0.6576926112 -0.6833891273
-0.35363525 0.15419494 1.1375002 -0.436545819 0.3457193077 -0.8306057453
-0.17476788 0.31870076 1.3030001 0.3441497087 0.7620925903 -0.5484303832
-0.088213712 0.16598457 1.324 0.650267303 0.3838443756 -0.6556034684
-0.058302715 0.24809667 1.4150001 -0.2624497712 0.6363893747 -0.7253472805
-0.14152937 0.23425615 1.2846667 0.939411521 -0.07877235115 -0.3336179554
-0.40272751 0.10807547 1.1630001 -0.8015348315 -0.01841931976 -0.5976643562
-0.12792847 0.033832319 1.2060001 0.2548933029 0.4653422236 -0.8476355672
-0.12187421 0.1868773 1.324 0.5748022795 0.656509161 -0.4884649813
-0.35543087 0.30227402 1.2941428 -0.3381114602 0.7391542196 -0.5825218558
-0.15206067 0.15674338 1.1860001 0.9247934222 0.3217517734 -0.2030589134
-0.36082548 -0.040091719 1.2360001 0.3650603592 0.3382212818 -0.8673738241
-0.32145289 0.20257342 1.169 -0.2185884863 0.6522523165 -0.7258002162
-0.1769461 0.24116486 1.1943334 0.6968720555 0.5377869606 -0.4745045304
-0.37452865 0.0049957531 1.1654211 -0.3753672242 -0.5928424597 -0.7124866247
-0.10970256 -0.021054026 1.2640001 0.04577668011 0.81369555 -0.5794860125
-0.17599717 0.19426855 1.1652353 0.7352118492 0.3402062654 -0.5862791538
-0.28524631 0.33010358 1.312 -0.1148799583 0.878207624 -0.4642778635
-0.3751362 0.20969692 1.202 -0.3156498373 0.6863803267 -0.6551696062
-0.10801761 0.20772617 1.3540001 0.4266266227 0.7374397516 -0.523614645
-0.41729948 0.067981116 1.1930001 -0.676251173 0.2225186229 -0.7022605538
-0.25547403 0.34570581 1.33675 -0.07998811454 0.8771213889 -0.4735608995
-0.36322829 0.18408875 1.1676666 -0.3703067899 0.5994232297 -0.70962286
-0.19449043 0.26868415 1.223 0.2217774391 0.7743442655 -0.5926260948
-0.16067547 0.27702665 1.2640001 0.66111058 0.5228257179 -0.5381320119
-0.24988419 -0.0082266396 1.1730001 -0.06278327107 -0.7185616493 -0.6926235557
-0.35305512 0.0085619651 1.149 -0.1898338199 -0.5906780958 -0.7842592001
-0.097570367 0.026011186 1.3025556 -0.2761493623 0.4426194727 -0.8531292677
-0.1370791 0.30342028 1.3140001 0.7872443199 0.4642798007 -0.4058209658
-0.47755393 -0.4858472 2.365 -0.6898803711 0.7025276423 0.1746996492
-0.20773582 -0.041547861 1.1750001 -0.6374770999 -0.3006198108 -0.7094016075
-0.27264434 0.1348415 1.1260002 -0.1370105296 -0.04600890726 -0.9895005226
-0.36561233 0.13309099 1.1540909 -0.6288269758 -0.07217819244 -0.7741879225
-0.17866993 0.1184552 1.126 0.4918924868 -0.1114650443 -0.8634913564
-0.27277598 0.037181769 1.126 -0.1372611523 -0.2082344741 -0.9683995843
-0.31671074 0.33790326 1.3430001 -0.2125433683 0.9042559266 -0.3703329861
-0.11223701 0.13784751 1.243 0.6151320338 0.5754424334 -0.5389606357
-0.23415281 0.24539313 1.1948184 0.0130825052 0.7515496612 -0.6595467925
-0.25492984 0.084876403 1.1244999 0.05932770669 -0.4386679828 -0.8966886997
-0.2463876 0.17686322 1.1233001 -0.06488719583 0.6093612909 -0.7902331948
-0.35349303 0.28123817 1.268 -0.2462161779 0.7479513288 -0.6163979769
-0.29603425 0.065877117 1.13 -0.1345237792 -0.06415957958 -0.9888311028
-0.11769533 0.24513274 1.3252308 0.8293921947 -0.124667488 -0.5445793271
-0.29431656 0.26712081 1.2247778 -0.1686207652 0.749263823 -0.6404457092
-0.14178827 0.086409234 1.1416668 0.7845085263 0.1261272132 -0.6071559191
-0.29472142 0.23390473 1.1879333 -0.2674880922 0.7052620053 -0.6565482616
-0.25763303 0.21198939 1.1570001 -0.07272873819 0.7441193461 -0.6640759706
-0.28536823 -0.034435932 1.1846921 0.07767599076 -0.4545427263 -0.887331605
-0.084870584 0.14451039 1.3705455 -0.5082105398 0.4334574342 -0.7442020178
-0.29443201 -0.0055404599 1.1655003 0.104768604 -0.6577101946 -0.745949626
-0.22375435 0.26288781 1.2173333 -0.06869672984 0.758811295 -0.6476775408
-0.13999403 0.063050739 1.2190001 0.9659599066 -0.2549453676 -0.04386744648
-0.24182412 0.3093099 1.2830001 -0.006755861454 0.8158302903 -0.5782519579
-0.34618339 0.050879981 1.138 -0.1911179572 0.1649303138 -0.9676114321
-0.12244052 0.11716475 1.204 0.7952614427 0.4637205303 -0.3905412555
-0.095219143 0.11504935 1.3649999 -0.560441792 0.5510902405 -0.6182268858
-0.37860471 0.08302296 1.141 -0.6299418211 -0.3797208369 -0.6774845719
-0.14546266 0.33231714 1.3490001 0.7065145969 0.6584165096 -0.2594703138
-0.15301621 0.22573885 1.2344 0.7406766415 0.4533649683 -0.4958410561
-0.18546377 -0.005070393 1.1560397 0.3391559422 -0.3006538749 -0.8913924694
-0.17599073 0.25241259 1.214875 0.6434174776 0.5487290621 -0.5337699652
-0.30716294 0.10829464 1.123 -0.1700866669 0.2886596918 -0.9422028065
-0.33345193 -0.053675123 1.169 -0.8710455298 -0.08790190518 -0.4832731485
-0.13219227 0.1859106 1.3036667 0.8474814296 0.3158554435 -0.4266269505
-0.30276275 -0.082593828 1.1559999 -0.6303009391 -0.4185237885 -0.6538795829
-0.068256974 0.27595919 1.4330001 -0.6223215461 0.7432937026 -0.2454186827
-0.083607703 0.25462347 1.4450001 -0.7316904068 0.6802940965 -0.04276794195
-0.22219017 0.017245036 1.138 -0.09306143969 -0.6033738852 -0.7920097709
-0.22466235 0.33536521 1.3153335 -0.02001463622 0.8544165492 -0.5192030072
-0.27452859 0.2438693 1.1948181 -0.1195973158 0.7590485811 -0.6399544477
-0.3353174 0.23282164 1.2053335 -0.305193603 0.7012374997 -0.644300282
-0.34637976 0.26774129 1.2516667 -0.2829250991 0.7248305678 -0.6281512976
-0.16478352 -0.0058090328 1.1951821 0.6094484925 0.303889364 -0.7322730422
-0.10726893 0.15920968 1.2880001 0.4714392722 0.8427618742 -0.2598026395
-0.21504195 0.23955882 1.1850001 -0.06660789996 0.7559691668 -0.6512096524
-0.3750985 -0.039540295 1.2190001 -0.07745765895 0.2224806249 -0.9718552828
-0.20166464 0.1753421 1.13 0.471388638 0.1095935106 -0.875089705
-0.30470741 0.28518602 1.2527778 -0.1904149801 0.7712988257 -0.6073221564
-0.22202197 -0.051075477 1.189 -0.2832642496 -0.5161939859 -0.8082728982
-0.26807415 -0.08302296 1.141 -0.3342478275 -0.516102612 -0.7886168361
-0.32513803 0.13284856 1.1337334 -0.2032247186 -0.2427389324 -0.9485660195
-0.075967751 0.21569362 1.3924617 -0.5240859985 0.4827904105 -0.701603353
-0.078589663 0.10674118 1.3380001 -0.4109244645 0.5456820726 -0.7303233743
-0.39045769 0.16499655 1.169 -0.6819908619 0.2766242027 -0.6770284176
-0.087763101 0.1718179 1.4100001 -0.8990132213 0.2239343077 -0.3763358593
-0.088280335 0.074346595 1.325 -0.2336113006 0.6476048231 -0.7252818346
-0.36575937 0.3094002 1.312 -0.3766486645 0.7834408283 -0.4943240583
-0.28339428 0.11276981 1.1185555 -0.114518933 0.2861172259 -0.9513266087
-0.15911588 0.14839716 1.1463333 0.7923010588 0.2251911461 -0.5670520067
-0.16551068 0.30341923 1.278 0.42006585 0.7011759877 -0.576104939
-0.12626849 0.16140968 1.2525001 0.4881710708 0.7785544395 -0.3943881094
-0.15531114 0.038567197 1.189 -0.02746904455 -0.6348643303 -0.7721351981
-0.10623739 0.057561349 1.322 -0.4539213479 0.5022673011 -0.7359911203
-0.20479399 0.30417293 1.2657778 0.1738731861 0.8243881464 -0.5386579037
-0.13509879 0.14467877 1.2134373 0.7578206658 0.5630510449 -0.3296685815
-0.21428868 0.097168989 1.1248462 0.1690833867 -0.4241723418 -0.8896564841
-0.14828202 0.22381212 1.2670001 0.9571582079 -0.2108981907 -0.1984190643
-0.27481043 0.29808068 1.2640001 -0.104527615 0.772636354 -0.6261845231
-0.22549008 0.12488072 1.116607 0.1148427129 0.4105708897 -0.9045676589
-0.2526238 -0.027954269 1.1810001 0.088375099 -0.5104475021 -0.8553555608
-0.31375986 0.017957641 1.138 -0.09828659892 -0.4989598095 -0.8610336185
-0.16426928 0.054151401 1.1320869 0.4631819427 -0.3258038163 -0.8242052794
-0.26351199 0.018198725 1.1375 -0.07108494639 -0.6878175735 -0.7223945856
-0.1610875 0.25971249 1.25 0.724401474 0.4479469955 -0.5240095258
-0.39394683 0.2689552 1.273 -0.4373030066 0.6398082972 -0.6319900751
-0.14907366 0.21145201 1.2060001 0.6307933927 0.5760233998 -0.5199006796
-0.26480189 0.32276335 1.296375 -0.02264267579 0.8389344811 -0.5437612534
-0.13775627 0.12243515 1.1764287 0.8265076876 0.393383801 -0.402658999
-0.38309896 0.25212494 1.245 -0.3704842329 0.7040541768 -0.605845809
-0.40896061 0.12734722 1.1810001 -0.5679097772 0.4043051302 -0.7169489861
-0.22470053 0.14412916 1.128 0.2245265841 0.1682416797 -0.9598346353
-0.17856114 -0.035036962 1.1565557 0.7586504817 0.0419578366 -0.6501453519
-0.30666062 0.33337441 1.325 -0.1735022813 0.8829281926 -0.4362736642
-0.33579513 -0.0075840428 1.161889 -0.09543181956 -0.6383979917 -0.7637674809
-0.13394853 0.2743234 1.3155714 0.8919703364 0.1320764124 -0.4323710799
-0.16432716 -0.034323949 1.1863998 0.5524904132 -0.06225716695 -0.8311909437
-0.31630161 -0.064103335 1.2019999 0.2184225172 -0.5226421952 -0.8240975142
-0.27491879 0.25793672 1.2108001 -0.1072778776 0.7553210855 -0.6465148926
-0.1046214 0.22442317 1.4039999 0.3233066201 0.8652206659 -0.3832311034
-0.11514734 0.013877634 1.2947778 -0.07244470716 0.5360522866 -0.8410705924
-0.21213527 -0.0018131218 1.149 -0.131112501 -0.6065294147 -0.784175694
-0.15479296 0.3169446 1.3139231 0.445748508 0.6660743952 -0.5980411172
-0.14361326 0.065024815 1.1447897 0.7752383351 -0.3048597872 -0.5532323718
-0.062854074 0.19656913 1.3700002 -0.6478391886 0.2398967296 -0.7230172157
-0.40253377 0.1875681 1.202 -0.493382901 0.6020560861 -0.6277753115
-0.13673909 0.19554815 1.2830001 0.8862166405 0.1853046268 -0.4245965481
-0.25457355 0.23557781 1.1837693 0.009912924841 0.7467414141 -0.6650406122
-0.3038334 0.18861921 1.1630001 -0.2059150785 0.6443729401 -0.7364661694
-0.27359012 0.34111449 1.3280001 -0.1006464958 0.8893122077 -0.4460875392
-0.33550844 0.20757452 1.1832223 -0.3355723023 0.6409267783 -0.6903651953
-0.2549969 -0.062962197 1.1970001 0.1562036872 -0.5982317924 -0.7859510779
-0.37598899 0.072040297 1.1615001 -0.6156389713 -0.2420196384 -0.7499434352
-0.23539992 0.2119651 1.1552857 0.02026704885 0.7950983644 -0.6061418056
-0.31605849 0.30706039 1.2830001 -0.1759617776 0.7816787362 -0.5983442664
-0.2142065 0.064163238 1.1259999 -0.04467710853 0.06293553114 -0.9970170856
-0.37543392 0.19470412 1.1837693 -0.4090651572 0.672531426 -0.6167391539
-0.29534832 0.17254975 1.1260002 -0.235997349 0.5725209117 -0.7851910591
-0.37269729 0.018131219 1.149 -0.4419722855 -0.4441806078 -0.7793356776
-0.29451054 0.034703173 1.13112 -0.06204013899 -0.2870624959 -0.9559006691
-0.27471402 0.15517448 1.114846 -0.2066497654 -0.04889952019 -0.9771922827
-0.17546557 0.015449969 1.1457695 0.461559236 -0.5405904651 -0.7033669353
-0.3231304 -0.075995944 1.1746 -0.8054451942 -0.4279978871 -0.4099705517
-0.13662674 0.0024196 1.2880001 0.03284202144 0.6951752305 -0.7180896997
-0.11850605 0.26510522 1.327143 0.8186526299 0.238580972 -0.5223858953
-0.16522887 0.094275922 1.1301535 0.2402464449 0.2591822445 -0.9354711175
-0.32483083 -0.044448722 1.1856399 0.555649519 -0.4077736735 -0.7245510817
-0.19446394 0.044420704 1.1259999 0.0586714223 -0.1748230904 -0.982850194
-0.22412409 -0.013701049 1.1635715 -0.2178294212 -0.6832073927 -0.6969777346
-0.39745176 0.1467572 1.1816667 -0.7105637789 0.1816970259 -0.6797685623
-0.25553599 0.054279011 1.1239129 -0.1809543818 0.1032309979 -0.9780587554
-0.12423339 0.057068292 1.3334546 -0.503130734 0.486425817 -0.714317441
-0.40222082 0.22457306 1.2256668 -0.4140318334 0.5840898156 -0.6981523633
-0.12126842 0.19779703 1.3430001 0.5090770125 0.6347936392 -0.5812724233
-0.33388436 0.28203622 1.2583333 -0.2814778984 0.7210242152 -0.6331620812
-0.34154582 0.079957262 1.126 -0.1938238293 -0.4918810427 -0.8488140702
-0.3515442 0.17023201 1.149 -0.3543525338 0.6161649227 -0.7034025192
-0.38413283 0.22341996 1.2167778 -0.3430336118 0.623021543 -0.702973783
-0.20507535 0.34687883 1.33675 0.02196899988 0.8537145257 -0.520277679
-0.31489339 0.079957262 1.126 -0.1165476516 -0.5253122449 -0.8428900838
-0.27457875 0.083396085 1.1232308 0.03225271031 -0.4489798546 -0.8929595947
-0.36404839 0.28831434 1.2830001 -0.223477453 0.8086466193 -0.5441952348
-0.28441641 0.31342509 1.284875 -0.1100426093 0.813714087 -0.570753932
-0.14694738 0.024772024 1.21 -0.08761241287 0.2585609257 -0.9620136619
-0.34055868 0.14313336 1.126 -0.3363159895 -0.09389987588 -0.9370562434
-0.076106474 0.17508537 1.3846924 -0.777338326 0.06847828627 -0.6253445745
-0.26602626 0.28383806 1.2436666 -0.08651793748 0.798181951 -0.5961713195
-0.13444091 0.23584449 1.307 0.929872632 -0.06005552784 -0.3629465997
-0.066414073 0.14270049 1.3649999 -0.4423685968 0.3985981047 -0.8033863306
-0.1761609 0.33957332 1.322 0.254709661 0.7676236033 -0.5881130695
-0.40333626 0.06487859 1.1746668 -0.6545626521 0.2192660272 -0.7235124111
-0.24491608 0.013483389 1.1419413 -0.0004872224526 -0.6641764045 -0.7475757003
-0.28622186 -0.082999013 1.219 0.007698192261 -0.7146751285 -0.6994141936
-0.31175861 0.14577511 1.1190001 -0.1566345692 -0.2186376154 -0.9631527662
-0.31250799 0.2620374 1.2250001 -0.266082406 0.7411201596 -0.6163935661
-0.072619557 0.23755212 1.4039999 -0.5607218742 0.4283909798 -0.70857054
-0.10830516 0.23498698 1.3379999 0.8825196028 -0.2771762311 -0.3799111545
-0.27547559 0.21555088 1.1652666 -0.1312498748 0.7035099864 -0.6984605789
-0.10407962 0.19272114 1.3254286 0.3616966605 0.6426178813 -0.6754390001
-0.37964314 0.14351121 1.161 -0.6712777019 0.04576265439 -0.7397918701
-0.12271726 0.13595697 1.2243334 0.691383183 0.5506276488 -0.4677590132
-0.38440371 -0.033536006 1.2340001 -0.7041069269 -0.1685251892 -0.6898062825
-0.37249583 0.052983452 1.149 -0.4995499551 0.2239003628 -0.8368503451
-0.17531368 0.073738351 1.126 0.137300238 0.08988179266 -0.9864430428
-0.15760572 0.12483402 1.1462309 0.7427381873 0.2268901914 -0.6299688816
-0.23584397 -0.074971572 1.1335557 0.3748903871 -0.302695632 -0.876260519
-0.12652741 0.30418444 1.356143 0.8495513797 0.4380934536 -0.2938309312
-0.2348049 0.15418664 1.115258 0.4397395253 -0.2972234488 -0.8475183845
-0.14124431 0.21449564 1.2855 0.8870704174 0.05625905097 -0.4581931531
-0.35424784 -0.019738151 1.1850001 -0.3028870225 -0.568836689 -0.7646464705
-0.099685766 0.21138187 1.3700001 0.5125760436 0.7649921775 -0.3899393976
-0.40137744 0.038810033 1.1650001 -0.6319788098 0.1724521965 -0.7555547953
-0.38220352 0.12325069 1.1564286 -0.4821590483 0.3729831874 -0.7927207351
-0.14595993 0.25478426 1.2666667 0.8322961926 0.3616589308 -0.4201021791
-0.093581714 0.10279882 1.3478 -0.4676648676 0.5378510356 -0.7014312744
-0.14148699 -0.027001332 1.2320001 0.7736408114 0.5365936756 -0.3369674683
-0.10601968 -0.0055799833 1.273 -0.04027465731 0.743873775 -0.6671054959
-0.29358223 0.22259004 1.1736668 -0.274338901 0.6834754944 -0.6764609814
-0.31546539 0.23844674 1.2035 -0.2825503051 0.7069160342 -0.648409605
-0.29563624 0.0078537054 1.1486001 0.1412527561 -0.7173907161 -0.6822009683
-0.20914987 -0.084463328 1.1470001 0.444886148 -0.2555921972 -0.8583407998
-0.17141025 -0.054020196 1.1850001 0.7971119285 -0.07604371756 -0.599024117
-0.13858369 0.28512225 1.29575 0.8359125853 0.3308156431 -0.437962532
-0.13956621 -0.044073537 1.197 0.6663722396 -0.4053492248 -0.6258115172
-0.24475695 0.26356432 1.2162727 0.02995318733 0.7726477385 -0.6341279745
-0.33455738 0.0071801511 1.1470002 -0.07899164408 -0.5726269484 -0.8160016537
-0.18362221 0.15790081 1.1409999 0.3569740951 0.4681726098 -0.8083216548
-0.33865508 0.10684688 1.13 -0.2084602416 0.4200218916 -0.8832473755
-0.13895166 0.1834162 1.268 0.7722820044 0.4088539779 -0.4862293303
-0.47521853 -0.49330881 2.381 -0.6898803711 0.7025276423 0.1746996492
-0.24470873 0.32222435 1.2948571 -0.01754427701 0.8103861809 -0.5856333971
-0.28479692 -0.06594421 1.2029409 0.03042585403 -0.6505219936 -0.7588776946
-0.22526389 0.2866694 1.2433333 -0.1051734462 0.7658159137 -0.6344009638
-0.36765209 0.25916457 1.25 -0.2453206331 0.7142823935 -0.6554528475
-0.2054556 0.32872897 1.302 0.07446800917 0.8520721197 -0.5181000233
-0.30887744 0.21776722 1.1810001 -0.2899309397 0.6652303338 -0.6880469918
-0.13176081 -0.020862475 1.2525001 0.2643956244 0.8258219361 -0.4981094897
-0.14961632 0.17231672 1.177 0.908378005 0.3184961081 -0.2709422112
-0.2339538 0.18711047 1.1303636 0.02062707953 0.6480050683 -0.7613566518
-0.10275673 0.15759881 1.317 0.5724181533 0.6557896733 -0.4922167361
-0.22942542 -0.056034781 1.2060001 0.04845251143 -0.5545992255 -0.8307057619
-0.23081757 0.032690901 1.13 0.04478977621 -0.4281564057 -0.9025940299
-0.098191053 0.24296378 1.4360001 0.9435133934 -0.1447990835 -0.2980197072
-0.17934409 0.2111136 1.169 0.740250051 0.4316459 -0.5154722929
-0.36081555 0.13800779 1.138 -0.5795018673 -0.1681907773 -0.7974267602
-0.38453165 0.29818219 1.3132501 -0.3909150958 0.783624053 -0.4828236997
-0.36391932 0.11206897 1.138 -0.3869286776 0.4794928432 -0.7876374722
-0.13277555 0.02886425 1.317 -0.3503364027 0.6417808533 -0.6821889281
-0.15672041 0.037189886 1.1465386 0.6573874354 -0.4102947116 -0.6320601106
-0.36656129 0.23731302 1.2235 -0.2719347477 0.6432864666 -0.7157052755
-0.33595994 0.16702531 1.1420909 -0.2795564532 0.5938321352 -0.7544611096
-0.24493934 0.095414668 1.1150868 0.0838694647 -0.4636588991 -0.882035315
-0.19745305 0.19227509 1.1364 0.4752859473 0.4161949158 -0.7751677632
-0.32497069 0.32381833 1.3145001 -0.2091558874 0.8821837306 -0.4219072163
-0.25449124 0.12177032 1.1186668 -0.1888305843 0.312876761 -0.9308335781
-0.39110497 0.20382793 1.2046667 -0.4341758192 0.585005343 -0.6850256324
-0.34430405 0.19224665 1.168 -0.2670324445 0.7071233988 -0.6547290683
-0.33562919 0.26146847 1.2350001 -0.2946782708 0.7515411973 -0.5902122855
-0.06475658 0.26388264 1.4131818 -0.2928881347 0.703394711 -0.6476514935
-0.14496909 0.16568036 1.2433335 0.5437155366 0.7295820713 -0.4148293138
-0.39319989 0.098047279 1.153 -0.7823218107 -0.09061592072 -0.6162477732
-0.16361529 0.18625605 1.1738002 0.653160274 0.4865940511 -0.5801791549
-0.3465395 0.2157522 1.1942308 -0.3858852684 0.6138735414 -0.6886594296
-0.40145108 0.2360837 1.2410001 -0.4916689396 0.6418796182 -0.588432014
-0.13510017 0.16693604 1.2666668 0.5732573867 0.7414468527 -0.3487585485
-0.17302769 0.17811675 1.161 0.5963257551 0.4843975902 -0.6401207447
-0.26518482 0.18546793 1.1329334 -0.1905630082 0.6319741011 -0.7511953712
-0.21637507 0.22734703 1.1734446 -0.1235256866 0.7238764167 -0.6787815094
-0.35376552 0.026005326 1.1380002 -0.2195942551 -0.2295143455 -0.9482096434
-0.14789015 0.28121537 1.2780001 0.6936514378 0.4629364312 -0.551849246
-0.3330676 -0.022546114 1.169 -0.099930875 -0.4112128913 -0.9060451388
-0.18829484 -0.02137401 1.161 0.2350413203 0.1923418492 -0.9527645111
-0.19572777 0.24564785 1.1939231 0.1618366987 0.7734049559 -0.6129059196
-0.13544996 0.047532573 1.223 0.1146888509 0.5504541993 -0.8269501925
-0.35728902 0.32880086 1.3540001 -0.3285795748 0.8630714417 -0.3835923672
-0.28502208 0.054120291 1.1259999 -0.05333313718 0.01006748341 -0.9985260367
-0.20553133 0.20368037 1.1462309 0.04354802892 0.6765326262 -0.7351239324
-0.16876008 0.26287901 1.2340002 0.6878371835 0.4992624521 -0.5268936753
-0.21493062 0.27800572 1.2320001 -0.05298440531 0.7514371872 -0.6576737761
-0.11356735 0.22297139 1.3565001 0.9471212626 -0.06328374147 -0.3145734966
-0.096543789 0.20368385 1.3430001 0.4403247237 0.7591463327 -0.4793860614
-0.14755601 0.14470507 1.1757693 0.8984966874 0.3000083268 -0.3204663694
-0.19500136 0.21809198 1.1618891 0.2553613186 0.6958821416 -0.6712217331
-0.19529206 0.024780842 1.1307998 0.117118746 -0.468187511 -0.8758331537
-0.17577051 0.31126809 1.2880001 0.3147289753 0.7756254077 -0.5471296906
-0.19202359 0.28858843 1.2516667 0.2563007772 0.7804697752 -0.5702428222
-0.17099208 0.00206192 1.1750001 0.8858876824 -0.2598201036 -0.3843130469
-0.32279041 0.1115453 1.126 -0.2104103863 0.3816592991 -0.9000353813
-0.086558565 0.23803604 1.452 -0.9370009899 0.3493212759 0.001939105685
-0.31252429 0.16169135 1.126 -0.2861573994 0.4637228549 -0.8384957314
-0.14495254 0.3238034 1.3247274 0.6457389593 0.6630499363 -0.3786633909
-0.10245954 0.26091442 1.3590001 0.9715932012 0.1418167204 -0.1894588619
-0.2040235 0.084840953 1.126 0.001240947517 -0.02075277269 -0.9997838736
-0.12698218 0.095289983 1.1738001 0.8991154432 0.1185658202 -0.4213473797
-0.23572306 0.29288641 1.2538182 -0.0858476907 0.7997345328 -0.5941841602
-0.39182177 0.26158243 1.2590001 -0.4075520933 0.6241974831 -0.6665424109
-0.14414629 0.11489174 1.1552222 0.7482074499 0.3992244899 -0.5299107432
-0.24457203 0.2848815 1.2426667 -0.02683266439 0.7824938297 -0.6220798492
-0.20518881 -0.064982206 1.1442595 0.4877603352 -0.2329915464 -0.8413113356
-0.16734824 0.12647253 1.13375 0.6405725479 0.07314445823 -0.764406085
-0.2953901 -0.025500799 1.1762727 0.1065117046 -0.4743988216 -0.8738426566
-0.29821834 -0.10076319 1.161 -0.612765193 -0.4105020463 -0.675282836
-0.15878566 -0.019109873 1.189 0.3554555476 0.3695283234 -0.8585453629
-0.1669337 0.29130581 1.2666668 0.5035831928 0.6476302743 -0.5718207955
-0.29408133 0.18405092 1.141 -0.2996431291 0.7450332642 -0.5959357619
-0.25646204 0.22213046 1.169 -0.003570521018 0.742775023 -0.6695315838
-0.095443189 0.15493865 1.4138889 -0.8684629798 0.3354535997 -0.3650246263
-0.1932617 -0.057676781 1.1542 0.5629833341 -0.2191722691 -0.7968772054
-0.32153416 0.19170333 1.1570001 -0.1748194993 0.6937934756 -0.698633492
-0.18491007 0.13373804 1.1251177 0.3327713013 0.1766982973 -0.926304996
-0.16609511 0.16225357 1.1482729 0.5722919106 0.4751362503 -0.6683767438
-0.22519636 0.3107934 1.2780001 -0.09072758257 0.8124950528 -0.5758648515
-0.13534769 0.086996011 1.1558571 0.9027915597 0.109339498 -0.4159473777
-0.12621106 0.17320858 1.2970001 0.6370611787 0.6529703736 -0.4096129239
-0.34605494 0.24599594 1.224 -0.3020000756 0.6830777526 -0.6649817824
-0.36810794 0.31902689 1.3330001 -0.3771419227 0.8245904446 -0.4216806889
-0.21544084 0.29653251 1.25 0.008658075705 0.8091740012 -0.587505281
-0.12815727 0.22052287 1.317 0.9207984805 0.0427325815 -0.3876907825
-0.19576055 -0.035500616 1.1570001 -0.5156697631 0.2870253623 -0.8072800636
-0.15075949 0.0017489501 1.197 0.02345978841 0.3556480408 -0.9343254566
-0.12800473 -0.039799791 1.2270001 0.7075173259 0.5812969208 -0.40188694
-0.12848671 0.11456122 1.1858002 0.7890310287 0.4203442931 -0.4480409324
-0.26530075 -0.044741105 1.1867598 0.05776549503 -0.4613598883 -0.8853305578
-0.37199885 0.14526354 1.1472857 -0.6957631111 -0.05702674761 -0.7160039544
-0.16860229 0.11073878 1.138 0.4723544717 0.106825836 -0.8749111295
-0.39667538 0.24621935 1.2514286 -0.4696582854 0.6664869189 -0.5789786577
-0.22482291 0.25332335 1.2040002 -0.05490517616 0.7671664357 -0.6390939951
-0.10549787 0.042631321 1.3064445 -0.3816838264 0.4739141762 -0.7935507894
-0.22091123 0.17930463 1.13 0.1753435284 0.4056482315 -0.8970530629
-0.15395406 0.15191144 1.1630001 0.905141294 0.2056199908 -0.3720747828
-0.37470546 0.17420889 1.1668825 -0.4430240095 0.5303336978 -0.7228249311
-0.22529431 0.2040334 1.1472858 0.02311151847 0.7441628575 -0.6675983071
-0.42073074 0.24440327 1.273 -0.5052366257 0.6494609118 -0.5682749748
-0.32124221 0.17059758 1.138 -0.2692677379 0.6381277442 -0.7213098407
-0.092879914 0.13171333 1.37 -0.6211495399 0.4568622708 -0.6367496252
-0.1255253 0.044168442 1.3257501 -0.5037816763 0.5654169917 -0.6530755162
-0.37519675 0.24551448 1.2327275 -0.3107679188 0.6985696554 -0.6445337534
-0.24507177 0.065078624 1.1229997 -0.0549105294 0.1516361833 -0.9869099855
-0.17554602 0.22630325 1.1962 0.8041411638 0.4036611319 -0.4363652766
-0.19637147 0.10706708 1.1256251 0.3558540344 -0.3509563804 -0.8661394119
-0.20590889 0.1547997 1.1336192 0.2065406889 0.07028683275 -0.9759101868
-0.38241953 0.28681466 1.2830001 -0.2913705707 0.7989360094 -0.5261220336
-0.10218339 0.17030565 1.439 -0.9323438406 0.05341024324 -0.3576063812
-0.30389023 0.27265087 1.2348573 -0.255389154 0.7593387961 -0.5984822512
-0.32236785 0.29124272 1.268 -0.2447380424 0.7467460632 -0.6184445024
-0.16333176 0.20969692 1.202 0.6660439968 0.5501588583 -0.5036969185
