# .PCD v0.7 - Point Cloud Data file format
VERSION 0.7
FIELDS x y z normal_x normal_y normal_z
SIZE 4 4 4 4 4 4
TYPE F F F F F F
COUNT 1 1 1 1 1 1
WIDTH 512
HEIGHT 1
VIEWPOINT 0 0 0 1 0 0 0
POINTS 512
DATA ascii
-0.094462402 0.14771561 1.0933334 -0.06198056787 -0.8503552675 0.5225459933
-0.35216489 -0.30642918 1.7390001 0.1725788116 0.9747102261 0.1419735253
-0.41564256 -0.029781243 1.4770001 0.8970480561 -0.4332204163 -0.08732010424
0.00151751 -0.20789887 1.7310001 -0.1586683244 0.7930802107 0.588088572
-0.23152328 -0.19277461 1.105 0.7025510669 0.2870002687 0.6511933804
0.041545235 0.12700972 1.3540001 -0.6985684633 0.5811495781 0.4174533188
0.014584352 -0.09284889 1.153 0.1677113473 -0.6951541305 0.6990233064
-0.26636815 0.19311389 1.266 0.4153928459 -0.8335727453 0.3641500175
-0.30363423 0.035063781 1.0935714 0.7237424254 -0.1994757354 0.6606105566
-0.12500121 -0.045453146 0.99709982 -0.007113080937 0.07626521587 0.9970622063
-0.05348105 0.22374725 1.245 -0.2140735984 -0.8628044128 0.4579748809
0.021999072 0.06373138 1.2038461 -0.5118855238 -0.6299120188 0.5841096044
-0.1195335 -0.19213903 1.01 -0.2803709507 0.4219089448 0.8621977568
-0.017347302 0.02369402 1.0640001 -0.824552834 -0.4131906033 0.3865050375
-0.25940302 -0.078634366 1.031 0.5384468436 0.2532769144 0.8036950827
-0.22491106 0.14581977 1.1329091 0.3092658818 -0.7883364558 0.5318648219
-0.18512726 0.075709514 1.0239999 0.2869163156 -0.6150721312 0.7344149351
-0.16441883 0.20897104 1.21 0.1348922402 -0.9075689912 0.3976463377
-0.044160839 -0.11464539 1.0506315 -0.4407771826 -0.2211914361 0.869936645
-0.031914465 0.14310034 1.1743335 -0.8988972306 -0.1545379609 0.410002172
-0.1756662 -0.12419485 1.0470004 -0.06871361285 0.2883862853 0.9550454617
-0.095116422 0.046377275 1.0108335 0.05658970401 -0.5921847224 0.8038126826
0.010004519 0.15340264 1.268 -0.8381589055 -0.4026008844 0.3679703474
-0.0032164899 -0.031092737 1.223 0.6157191396 -0.590888083 0.5212880373
-0.21520856 -0.0053306594 1.0130002 0.2481692582 0.2160000801 0.9443283081
-0.30163324 0.12576807 1.1663333 0.5391581655 -0.6495620012 0.5360761881
-0.03155591 0.06410829 1.1366667 -0.4646868408 -0.835436523 0.2934483886
-0.044477358 -0.035387501 1.0130002 -0.6323274374 0.2688018978 0.726572454
-0.2687676 -0.12306208 1.123 0.4593670964 -0.3525226414 0.8152973056
-0.09517391 0.19137964 1.1674001 -0.1058280542 -0.8570536375 0.5042414665
-0.014354929 -0.051800475 1.0920001 0.142097801 -0.6155607104 0.7751730084
-0.24323976 0.092135742 1.0746001 0.3680244386 -0.7492803335 0.550578773
-0.31075028 -0.042763799 1.0840001 0.6739884019 -0.280298084 0.6835002303
-0.16498725 0.12687118 1.0816 0.2322676182 -0.7611246705 0.605591476
-0.049390525 0.090393975 1.0630001 -0.6574861407 -0.5830103159 0.4772954285
0.050022598 0.091152295 1.268 -0.2095400393 -0.4903967679 0.845933795
-0.23191077 0.18154101 1.197 0.3405125737 -0.7997459769 0.4944264889
-0.11990959 -0.17467146 1.077 -0.0694661811 0.4751034081 0.8771836758
-0.15304233 0.16904676 1.141 0.1011775136 -0.8579252362 0.5037135482
-0.27798101 -0.0031028739 1.041 0.6217082739 -0.126079157 0.7730348706
-0.10786623 -0.1069602 1.0325001 0.278029263 0.4965310693 0.8222874403
0.048957448 0.015593854 1.2410001 0.4956756234 -0.5524717569 0.6701347828
-0.11500421 0.10753938 1.0425001 0.08341193199 -0.7984062433 0.5963135958
-0.18379229 -0.18478519 1.0226667 0.6399315 0.3593978286 0.6792060137
-0.15445587 0.012854496 0.99800009 0.08713132143 -0.1063935012 0.9904991388
-0.1851166 -0.065369412 1.0100001 0.06083466485 0.3343969285 0.9404668212
-0.013169637 -0.12375361 1.1046 -0.9392098188 -0.1139677539 0.3238768578
-0.1178766 0.23029594 1.245 0.1162411794 -0.8935056925 0.4337460101
-0.24062397 0.05136916 1.028 0.4726470411 -0.2723328471 0.8381167054
-0.29216406 0.097128183 1.1145999 0.4211934805 -0.70064044 0.5759331584
-0.0042204489 0.11567784 1.2240666 -0.879149437 -0.05122451112 0.4737851024
-0.044623941 0.11858276 1.1148334 -0.683991611 -0.5914445519 0.4270232022
-0.067443505 -0.1526338 1.0122499 -0.5465410352 -0.006432136521 0.8374076486
-0.020371104 0.17476262 1.223 -0.8528087735 -0.3038003445 0.4247617126
-0.39195153 -0.27782005 1.7130001 0.1725788116 0.9747102261 0.1419735253
-0.23191057 -0.1240186 1.0467857 0.2307989597 0.2111050636 0.9498244524
0.014025133 0.1136114 1.3057501 0.2227846384 -0.9225194454 0.3151584864
-0.17340818 -0.18188642 1.075 0.09589577466 0.4947371185 0.8637356162
-0.065638907 0.16441883 1.1329091 -0.5646051168 -0.6399558783 0.5212270021
0.03012665 -0.040515151 1.1850001 0.4738760591 -0.5644527078 0.6758954525
-0.055206072 0.01514205 1.0157002 -0.2766952813 -0.4705611467 0.8378615379
0.0021452033 0.034530323 1.1126001 -0.6291338801 -0.6302962899 0.4548814297
-0.02174221 0.094216242 1.1810001 -0.8656185269 -0.1072690189 0.4890786707
-0.017415276 0.1982377 1.268 -0.83163625 -0.5422925949 0.1195820272
-0.074423879 -0.076001532 1.0125387 -0.2546376884 0.4816229045 0.8385696411
-0.13526185 0.074643038 1.0042142 -0.01522687916 -0.1231568158 0.9922704101
0.060959894 0.14377333 1.312 -0.9836913943 0.1671318561 -0.06646960229
-0.10474677 -0.003010473 1.0100001 0.03610542417 -0.1230859086 0.9917390347
-0.19491328 0.17590649 1.1650001 0.1897906512 -0.8409312963 0.5067682862
-0.27563044 0.057608884 1.0617778 0.7139847279 -0.3687206805 0.5952066183
-0.23753658 -0.14587103 1.0953636 0.3684915304 -0.3621996939 0.8561689854
-0.27172107 0.15867579 1.1830001 0.1540532559 -0.8611294627 0.4844828546
-0.051985454 0.18611282 1.1860001 -0.4904626906 -0.758174479 0.4296717048
0.034595896 0.047987856 1.273 0.3730668128 -0.2686367631 0.8880627751
-0.24497436 -0.035251956 1.0335456 0.3908889294 -0.04284575582 0.9194400907
-0.21445858 0.12225131 1.0955715 0.3620382845 -0.7131929398 0.6002367139
-0.11947038 0.20828022 1.2060001 0.09945768118 -0.9216660857 0.3750197291
-0.040335432 -0.1547755 1.0700001 -0.5317832828 0.63080585 0.5650579929
-0.26637167 0.13069171 1.138 0.3312254548 -0.7296289802 0.5982735157
-0.051968295 0.055072449 1.0348572 -0.8575254679 -0.149399817 0.4922700524
-0.14471838 -0.081292421 1.0190001 0.06693413109 0.6469359994 0.7596009374
-0.0062876716 -0.064937986 1.1947502 0.4707321823 -0.6753774881 0.5676939487
0.0099019501 0.0011002166 1.2550001 0.6848145723 -0.5548403263 0.4724205434
-0.19552033 0.10193002 1.057 0.3015620112 -0.7558150887 0.5812090039
-0.13433744 -0.13634214 1.0505216 -0.1028860882 0.3968155086 0.9121139646
-0.044637647 -0.077467062 1.0753528 0.1436108947 -0.5675264001 0.8107340932
-0.18442611 0.15009147 1.1190001 0.2675155699 -0.7955220938 0.5436727405
-0.076897621 0.1233516 1.0632499 -0.5969887972 -0.5922449231 0.5411565304
-0.13508852 0.15287098 1.1042727 0.01606725715 -0.8584473729 0.5126498938
-0.17482293 -0.024721721 1.0159119 0.2256108969 0.00858957693 0.9741796255
-0.14423496 0.19189212 1.1761112 0.06511074305 -0.8568089604 0.5115066171
-0.20290241 -0.15506649 1.062077 -0.01992297545 0.5789737701 0.815102756
-0.18663795 0.21501565 1.245 0.1786587238 -0.930960834 0.3184226155
-0.28234857 -0.045708198 1.053375 0.6699848175 -0.2805816531 0.687309444
-0.19478838 0.035010979 1.0239199 0.2888019681 -0.1225918829 0.9495075941
0.0049153445 0.10387648 1.2662858 -0.6928847432 -0.7133724689 0.1049308479
-0.02218429 -0.0055245939 1.0349091 -0.8985317945 -0.09092507511 0.4293870032
-0.15444176 -0.17450933 0.99530023 0.2643552721 0.3698650301 0.8906829953
-0.20497158 -0.097715497 1.031 -0.06325308979 0.5920780301 0.8033944368
-0.10558125 0.17244677 1.1326668 0.02703363448 -0.8547355533 0.5183593035
-0.26396939 0.18264875 1.2270001 0.4326944351 -0.8236381412 0.3666001856
-0.072249606 0.20931643 1.2120001 -0.2155357599 -0.8331695199 0.5092867017
-0.15520349 0.10557789 1.0443158 0.2229708582 -0.7578921914 0.6130933762
0.0020426332 0.066385582 1.1650001 -0.3726198673 -0.9047714472 0.2062597871
-0.084866606 -0.034996528 0.99799973 -0.01622374915 0.0007730143843 0.9998680949
-0.12504378 0.12733664 1.0747856 0.09062740952 -0.8220604658 0.5621416569
-0.093490809 -0.14084396 1.0455 0.4263445139 0.5053116679 0.7502602935
-0.2249712 -0.065301277 1.0184832 0.1765390486 -0.008272800595 0.9842588902
-0.081737116 0.087218039 1.0417501 -0.6195301414 -0.369023025 0.6928235292
0.026681786 -0.0074696383 1.2175 0.5428901911 -0.6387563348 0.5452161431
-0.25234005 0.11276475 1.1056668 0.400082916 -0.7163820267 0.5716034174
-0.10280231 -0.15682822 0.99800009 -0.4927615523 0.2090737969 0.8446739912
-0.15499993 0.047485527 1.0220001 0.07633218914 0.236146003 0.9687148333
-0.24414276 0.013656567 1.027 0.391484648 -0.4870235324 0.7807354331
0.02817256 0.081266999 1.2360001 -0.6898818016 -0.6617270112 0.2935650647
-0.065125689 -0.11597566 1.0176502 -0.2424913943 -0.256918788 0.9355162382
-0.30124721 0.071272999 1.0840001 0.7515791059 -0.3250914812 0.5739724636
-0.19777723 0.19442484 1.1962001 0.2341726571 -0.8687713742 0.436347872
-0.016088337 -0.094928548 1.0616428 0.06243088841 -0.4508998394 0.8903885484
-0.30298477 0.0079732835 1.0700001 0.8591009974 -0.08324758708 0.5049903393
-0.20288506 -0.1546094 1.0264117 0.4089707434 -0.391933769 0.8240939379
-0.2353061 0.16266988 1.1670001 0.377833724 -0.7899705768 0.4828956127
-0.02244851 -0.02504929 1.1133333 0.4978530109 -0.4987526536 0.7094985247
-0.21623123 0.078347705 1.0416 0.3610849977 -0.677931428 0.6403331757
0.045791555 0.11633968 1.2919999 0.4281618297 -0.4762566388 0.768021524
-0.036617491 0.059151333 1.0710001 -0.8395649791 -0.4554315805 0.2961633205
-0.030030217 0.052310698 1.105 -0.7237939239 -0.6336323023 0.2731894553
-0.03583562 0.20425591 1.219 -0.5265541673 -0.6765913963 0.5147473216
-0.26507154 0.025118168 1.0535238 0.6039099693 -0.1817821562 0.7760463953
-0.10550182 0.084883183 1.0154831 -0.4364264309 -0.1509191841 0.8869923353
-0.14213133 -0.01853887 1.0070001 0.09459616244 -0.03220608458 0.9949946404
-0.11861326 0.024872538 0.99800009 -0.007407066878 -0.1031749994 0.9946356416
-0.015216679 0.14525518 1.2031429 -0.8389502764 -0.2514082491 0.4826555252
-0.012919146 -0.10802754 1.1340002 -0.008932796307 -0.8111366034 0.5847885013
-0.0048057321 0.085134394 1.2112353 -0.7143530846 -0.3890033662 0.5817010403
-0.015050612 -0.13263352 1.0730001 -0.8224824071 0.4192980826 0.3843329251
-0.043615043 0.096358813 1.1570001 -0.7512043118 -0.1779908538 0.6356188655
-0.042962644 0.13601394 1.1446365 -0.8533235788 -0.2054457515 0.4791981578
-0.15486404 0.22138639 1.2440001 0.1419751048 -0.9369850159 0.3192211688
-0.20434771 -0.037742909 1.0190001 0.2281361669 -0.1705789417 0.9585701227
-0.28797185 -0.019827571 1.077 0.7333509326 0.09275846928 0.6734925508
-0.1850227 0.0052883448 1.0050001 0.2282967716 -0.03744893894 0.9728710651
-0.10612552 -0.068051867 1.0100001 0.0371649377 0.5272610784 0.8488901854
-0.15521008 -0.054675147 1.0059166 0.2340444922 0.1829304397 0.9548610449
-0.16721581 -0.15272658 1.057 -0.05818579346 0.3772987425 0.9242619276
-0.14875543 -0.10312493 1.041 0.05567929894 0.4530487061 0.889745295
-0.084041648 0.23029594 1.245 -0.02422918193 -0.9172765613 0.3975131214
0.024937369 -0.066613518 1.169 0.3567024767 -0.5904523134 0.7239678502
-0.2337316 0.19835022 1.223 0.3945619464 -0.8252850771 0.4040116668
-0.057039436 0.11123716 1.0845 -0.6440439224 -0.5926846266 0.4836655557
-0.055508781 -0.1410469 1.0380001 -0.8924438357 0.1399909705 0.428889811
0.026877724 0.10867949 1.3330001 -0.509924829 -0.7488914132 0.4232473373
-0.27278998 0.08223246 1.0852858 0.3273772895 -0.7366541624 0.5917472243
-0.075219035 -0.0055111251 1.003 0.0538556464 -0.4047912359 0.9128217697
0.0083555104 0.13584942 1.243 -0.8876453042 -0.3025427163 0.3472084403
-0.12428094 0.18202609 1.1556667 0.1430193186 -0.87547189 0.4616215229
-0.26808468 -0.15110226 1.1120001 0.4613053203 -0.3573401272 0.8120993972
-0.067386076 0.14398725 1.1059999 -0.6809232235 -0.5838340521 0.4421327412
-0.22791666 -0.17531931 1.0810001 0.5158874393 0.3322714269 0.7895922065
-0.034232661 0.025979919 1.0337778 -0.6352469921 -0.5548921824 0.5371739864
-0.011273056 -0.078911394 1.169 0.2653465271 -0.7271880507 0.6330787539
-0.047871787 -0.067953765 1.0226002 -0.5068588257 0.4027763307 0.7621452212
-0.051951267 0.1691011 1.1619999 -0.6378114223 -0.5735464096 0.5140439272
-0.23582868 -0.096127793 1.0312001 0.2338980734 0.5690457821 0.788339138
-0.25132984 0.072072521 1.054 0.4877227545 -0.6462799907 0.5868974924
0.00099589338 0.051788207 1.136 -0.4498214424 -0.7777292728 0.4390874803
-0.27165794 -0.091476656 1.054 0.6247524619 0.5096080303 0.5915944576
-0.0057333997 0.018155767 1.09 -0.6845661402 -0.5877450705 0.4311901331
-0.17510687 -0.094982706 1.0325557 -0.03054378927 0.5841052532 0.8111029863
-0.031027278 0.16768676 1.1930001 -0.811645031 -0.35301736 0.4654150009
-0.1209537 0.057341013 1.0220001 -0.2888906896 -0.07892479748 0.954103291
-0.13425745 0.09483172 1.0256922 0.1425586492 -0.7734614015 0.6176038384
0.052526068 0.063182533 1.2570001 -0.1087162048 -0.1608735919 0.980969131
0.038419038 0.15018351 1.3280001 -0.6309379935 0.7310421467 0.2597973347
-0.083357222 0.020870928 1.0100001 -0.4242663085 0.1728935689 0.8888790011
-0.0061807916 0.16326308 1.2443334 -0.8892723918 -0.3474782705 0.297411263
-0.075225934 0.066663615 1.0237727 -0.1975363493 -0.5963811278 0.7780160308
-0.039098166 -0.009112657 1.006 -0.5618029833 -0.1108162031 0.8198153377
-0.099711187 0.21764916 1.223 0.05350808054 -0.8981254101 0.4364717901
-0.093170002 0.20713092 1.1941429 -0.1326079816 -0.8866337538 0.4430526793
-0.20480829 -0.13283537 1.045875 -0.1930334419 0.2974039614 0.9350342155
0.023685779 0.096446708 1.2867501 0.00633116439 -0.8719133735 0.4896192253
-0.30029166 0.10874349 1.138 0.4921940565 -0.7215015888 0.4870117903
-0.27386189 0.1511312 1.1570001 0.2621157765 -0.7726479173 0.5781959295
-0.28397903 0.034304377 1.0727893 0.7928732038 -0.2155371755 0.5699962974
-0.14536837 -0.17389366 1.0682499 -0.004410936497 0.5101166964 0.8600938916
-0.026675837 0.07391765 1.164143 -0.7508889437 -0.4291501343 0.5019919872
-0.029719876 0.11682986 1.169 -0.787129879 -0.02063572034 0.6164419651
0.0295875 0.031779166 1.25 0.5250930786 -0.554877758 0.6452812552
-0.24313283 -0.013102076 1.0190001 0.2648458779 0.3415382206 0.9017806053
-0.065356746 0.04484551 1.0132906 -0.6322099566 -0.05073817819 0.7731339931
-0.075809747 0.18133691 1.153 -0.2424187064 -0.8367195129 0.4910535812
-0.011504496 0.067981116 1.1930001 -0.7062931061 -0.5652698874 0.4261689782
-0.2152319 0.10354017 1.0736666 0.3973311484 -0.7516556382 0.5264425278
-0.21380204 0.051812749 1.0190001 0.1283101141 0.03056021966 0.9912631512
0.017248709 -0.02780962 1.2046667 0.5615856647 -0.6016546488 0.5680081248
-0.11605927 0.19947103 1.1820002 0.1287878454 -0.8558258414 0.5009748936
-0.25816956 0.16965428 1.202 0.3587203622 -0.8161308169 0.4530454278
-0.25193474 -0.10797203 1.0526667 0.4673469067 0.5861663818 0.6618125439
-0.11485931 -0.15524504 1.0613333 -0.0501736328 0.43209216 0.9004326463
0.0087035466 0.096826956 1.2410001 -0.7282755971 -0.6416210532 0.2407012731
-0.16997427 0.17811675 1.161 0.1878340244 -0.8505033255 0.4912865758
-0.17038104 0.060913429 1.0070001 0.1949714422 0.05100576207 0.9794817567
-0.10102355 0.13002107 1.067 0.08131092787 -0.8110932112 0.5792376995
-0.16537476 0.14506516 1.1031427 0.2538618743 -0.8085526824 0.5308452845
-0.065070361 -0.054524366 1.0030835 -0.3522049487 0.3315306902 0.8752365708
-0.21253818 0.16083063 1.149 0.3031845689 -0.7888169885 0.5346464515
-0.016106296 0.11567248 1.1930001 -0.9142017961 -0.08138986677 0.3970022798
-0.058407918 -0.090756916 1.0250001 -0.4778567255 0.2702982724 0.8358180523
-0.1884132 0.11835 1.08 0.2607042193 -0.7556557655 0.6008474827
-0.12539294 -0.17482176 0.99306476 -0.1888415813 0.3558982015 0.9152460694
-0.17556424 0.19322892 1.1850001 0.1624833494 -0.8463000059 0.5073218346
-0.093798958 -0.090225659 1.0190001 0.1225843802 0.4182033241 0.9000439048
-0.24555026 0.12770568 1.1248749 0.4291705787 -0.7142120004 0.5529139042
-0.085282311 0.16174762 1.1182001 -0.2433297187 -0.830149889 0.5016390681
-0.02190242 0.038568292 1.0862501 -0.7314036489 -0.609269917 0.3063312769
-0.24469408 0.14354075 1.1472857 0.408220619 -0.7559657097 0.5117340684
-0.084806494 -0.11539083 1.032778 0.3670229912 0.322384268 0.8725608587
-0.09798298 -0.18086891 1.013 -0.4470538497 0.3777140379 0.8108482957
-0.28185973 -0.071151145 1.0450001 0.6930982471 0.131179288 0.7088066339
-0.26430783 -0.055331521 1.0364001 0.5144587159 -0.2577315271 0.8178671598
-0.091199636 -0.13901304 1.01 -0.4064291418 -0.3440845311 0.8464166522
-0.26463422 -0.024699297 1.0433686 0.5552797914 0.3828830719 0.7382851243
-0.17572805 -0.16757791 1.0047501 0.5745341182 0.3265423775 0.7505202293
-0.13478854 0.11751454 1.0524546 0.09860037267 -0.8250334263 0.556415081
-0.15429872 0.083620109 1.0179503 0.2484222353 -0.6422009468 0.7251650095
-0.21668711 0.028036499 1.0316001 0.1382914037 -0.1463526785 0.9795184135
0.01093554 -0.11134368 1.1340001 0.05910316482 -0.7834621072 0.618622601
0.0046358136 0.12864383 1.322 -0.8930416703 0.09493159503 0.4398460984
0.051792592 0.037468731 1.2570001 0.4964697957 -0.5067302585 0.7047994137
-0.069420382 0.13313696 1.0847501 -0.7100569606 -0.5528654456 0.4360720515
0.038309895 0.14238293 1.3045001 0.4809497297 -0.6433268189 0.5956659317
-0.20741217 0.13751701 1.1125001 0.3238683939 -0.7897420526 0.5209766626
-0.14452247 0.0330575 1.0062941 0.2052976489 -0.4770380557 0.8545686603
-0.12489069 0.16150279 1.1242857 0.1198896319 -0.8426044583 0.5250182748
-0.1151329 -0.024605839 1.0024999 0.1165180057 -0.2608892322 0.9583112001
-0.040976275 -0.057176199 1.087 0.1794662476 -0.5633811951 0.8064697981
-0.13201754 0.21645689 1.2243334 0.1150746047 -0.9055226445 0.4083951712
-0.086448096 0.11010758 1.0380001 -0.518733561 -0.5303358436 0.6705664396
-0.14484636 0.14008169 1.087 0.1248249263 -0.779514432 0.6138207912
-0.0193305 -0.1297905 1.0500001 -0.3864298165 0.2046334296 0.8993315101
-0.27353403 0.11130774 1.117 0.3543694019 -0.7423664927 0.5686073899
-0.23505011 0.10710271 1.0908 0.3458336592 -0.7058717608 0.6181780696
-0.012419386 0.18584579 1.2426001 -0.8759553432 -0.3708591461 0.3084894717
-0.17392717 0.092412502 1.036 0.2910198867 -0.7228022218 0.6267889738
-0.17568082 0.025786644 1.0112501 0.2440730482 -0.4779413044 0.8438012004
-0.07593248 0.19572707 1.1835456 -0.2497291714 -0.8602535129 0.4445213675
-0.12457609 -0.092196397 1.026 0.1133786589 0.5673422813 0.8156396747
-0.20167856 -0.18240242 1.0372001 0.7735317349 0.6259860396 0.09894476831
-0.016636064 -0.074346855 1.0721999 0.1603092104 -0.5154153705 0.8418123126
-0.1342922 0.0028412768 1.0027648 -0.1177691668 0.394205004 0.9114454389
0.0077761938 -0.015061132 1.2352729 0.6275101304 -0.6295253038 0.4581800103
0.0083897002 -0.047194179 1.1963334 0.5530177951 -0.5749875307 0.6029599309
-0.18655643 0.20907184 1.223 0.1972140223 -0.9195309877 0.3399550021
-0.20512255 0.015099495 1.0128802 0.3192301691 -0.4371561408 0.8408249617
-0.035340533 0.045100644 1.0531999 -0.7282639742 -0.4895827472 0.4795209467
-0.25826862 0.0456305 1.041 0.6168135405 -0.01585089602 0.7869496942
-0.22559473 -0.024522945 1.0274999 0.1745150089 0.2068114728 0.9626907706
-0.17328106 0.11026976 1.057 0.2751118839 -0.7896494269 0.5484224558
-0.18823734 0.1661457 1.1458 0.236525476 -0.8403531313 0.4877113402
-0.054370347 0.075582854 1.0438969 -0.4957618415 -0.5656292439 0.6590021253
-0.16307665 -0.19260323 1.0055001 0.4352507591 0.3771478236 0.8175061345
-0.053885896 0.19757788 1.2052002 -0.3514514565 -0.7531459332 0.5561053157
-0.12510747 -0.11543835 1.0438573 0.05339119956 0.4746540189 0.8785516024
-0.25313294 -0.12841204 1.108 0.4593670964 -0.3525226414 0.8152973056
-0.064743586 -0.024497574 0.99799985 -0.1498886198 0.004953742027 0.9886904955
-0.19475356 -0.01487778 1.0154446 0.1619708985 0.3683093786 0.9154854417
-0.28507185 0.12331982 1.1474001 0.4776890576 -0.7009015679 0.5296698809
-0.058240473 0.14115912 1.126 -0.7575883865 -0.4995143116 0.4201729596
-0.21457028 0.17523731 1.175182 0.3221995234 -0.8207120299 0.4718253911
-0.22069907 -0.14440453 1.036 -0.6728762388 -0.458496958 0.5805326104
-0.16525628 -0.07444603 1.0156089 0.07293193787 0.5365098715 0.8407366276
0.028810773 0.087540425 1.2640001 -0.2062479854 -0.6477481127 0.7334058881
-0.29891995 -0.05471861 1.0700001 0.6910862923 -0.2494676411 0.6783550978
-0.058893062 -0.09522073 1.0464001 -0.8951221704 -0.1064068004 0.4329363108
-0.033087794 0.18674131 1.2034546 -0.6622024775 -0.519099474 0.5403921008
-0.20551422 -0.075174153 1.0179416 0.08017224818 0.34596771 0.9348148108
-0.2542285 0.15192853 1.1670001 0.2405585349 -0.8284749389 0.505728066
-0.19425118 0.13219997 1.0961429 0.2937045097 -0.7493903041 0.5934238434
-0.13545848 -0.063310497 1.0047826 0.03613387421 0.4971541762 0.8669095039
-0.044793904 -0.09504126 1.0629284 -0.200944975 -0.5730136037 0.79452914
-0.006266939 -0.10047319 1.153 0.09710478038 -0.7295354605 0.6770145297
-0.2832652 0.012859266 1.0543637 0.591599226 -0.4857153893 0.6434989572
-0.026211457 -0.026211457 1.031 -0.8636473417 0.1533537656 0.4802039862
-0.24525937 -0.054798011 1.0247598 0.3873497844 -0.2128659487 0.8970218897
-0.26135185 -0.0063084937 1.028 0.5470864773 -0.0007713758387 0.8370757103
0.014961193 0.082999013 1.219 -0.4999899268 -0.6216456294 0.6029650569
-0.16531599 0.15792438 1.1241251 0.1772741526 -0.8348557949 0.5211426616
-0.066905662 0.10234821 1.06375 -0.6104207039 -0.5557957292 0.5643383265
-0.16475208 -0.0044950647 1.0044501 0.05520324782 0.3874384165 0.9202412963
-0.055703525 0.21652225 1.2252858 -0.2220234126 -0.8216906786 0.5249095559
-0.032552969 0.0086608827 1.0220002 -0.7028432488 -0.3780497313 0.6025692821
-0.017024787 0.0047823759 1.0524546 -0.8205472231 -0.3541036844 0.4486790001
-0.15525228 -0.13600358 1.0522174 0.05094383284 0.4168537259 0.9075448513
-0.08450038 -0.16476206 1.0116074 -0.4520774186 0.2135211825 0.8660454154
-0.14447854 0.20424218 1.193 0.08016590774 -0.8717650771 0.4833209217
-0.1966342 0.087553076 1.0418571 0.3077678382 -0.7179093957 0.6244077086
-0.23316021 0.12190944 1.1054001 0.3391444385 -0.7543372512 0.5620999336
-0.17773598 -0.045865443 1.0100001 0.2013826519 -0.1285222322 0.971044302
-0.039557829 0.1531598 1.1570001 -0.810033977 -0.3162021935 0.4938229918
-0.27785072 -0.026019465 1.0600001 0.7626547217 0.1504858285 0.6290562749
-0.096140236 0.1812003 1.149 -0.07574561983 -0.857845366 0.5082950592
0.026554637 0.0044140848 1.2344617 0.598886013 -0.6102302074 0.5186083913
0.0056355055 0.10863566 1.2863334 0.06892050803 -0.868082881 0.4916117191
-0.012706845 0.048893012 1.1155001 -0.4869961143 -0.7704446912 0.4113997519
-0.1155717 0.14128697 1.0864999 0.1354407519 -0.8143101931 0.5644065142
-0.10455214 -0.045112729 0.99799967 0.007962309755 0.1092912182 0.9939779043
-0.10296275 0.1602722 1.108 0.05691500753 -0.8510887623 0.521927774
-0.14605774 0.18171494 1.1554 0.0769341737 -0.8716436625 0.4840645194
-0.24631046 0.16784923 1.1855001 0.3397820294 -0.8016371131 0.4918598235
-0.0032270099 0.14091277 1.2270001 -0.8742963672 -0.2119212747 0.4366866648
-0.25065014 -0.16124646 1.0926667 0.4233918786 -0.3345173299 0.8419248462
-0.2247574 -0.044140581 1.0221304 0.2481855005 -0.2804002166 0.9272430539
-0.19504961 -0.11513139 1.0436132 -0.0794127956 0.3242027164 0.94264853
-0.18524142 -0.16503073 1.0635198 0.1153490022 0.5195186734 0.8466374278
-0.095527709 0.065824687 1.0233332 -0.10584943 -0.345494926 0.9324318767
-0.054455027 0.035192598 1.0315654 -0.616772294 -0.3317195177 0.7138305902
-0.085344642 -0.055028573 1.0012307 0.01994618587 0.3313758969 0.9432879686
-0.14541996 0.12612711 1.0723683 0.1688579023 -0.8024004102 0.5723989606
0.00098099001 -0.12262375 1.1190001 -0.06604280323 -0.8892071843 0.4527128935
-0.23620331 0.067430943 1.0414284 0.3841610849 -0.6439993382 0.6615777612
0.029918879 0.065378293 1.2640001 -0.8902007937 -0.03551915661 0.4541816711
-0.10183711 0.10183711 1.028 -0.1819347143 -0.6244343519 0.7595930099
-0.21737315 0.19613153 1.2115 0.2559756339 -0.8453533649 0.468886137
-0.12472749 0.04174399 1.0070001 0.09918925166 -0.481574744 0.8707739115
-0.0074253664 -0.051977567 1.21 0.5888770819 -0.5894368291 0.552981019
-0.1095395 -0.1297905 1.0500001 0.2576909959 0.5276973248 0.8094015718
-0.19469951 0.055115249 1.0141003 0.2476029843 0.02081359364 0.9686380029
-0.13458879 -0.15751071 1.0600002 -0.04237068444 0.3979049325 0.9164476991
-0.25582212 0.095947169 1.0956666 0.4092769325 -0.7047487497 0.579501152
-0.27469629 0.096387945 1.1039999 0.3654577732 -0.6990637183 0.6146141291
-0.24818127 0.026257263 1.04175 0.6109193563 -0.1082177684 0.7842617631
-0.098865204 0.01837318 0.99800003 -0.1773638576 0.3350182474 0.925367415
-0.14487776 0.16261554 1.1242001 0.0873202458 -0.877669394 0.4712446928
-0.057815876 -0.11492876 1.0358889 -0.7835102081 -0.2893955708 0.5498744845
-0.2617709 0.010616433 1.0380001 0.4823397994 -0.5182307363 0.7062472701
-0.1747109 0.042109806 1.0220002 0.1559106559 0.1121557727 0.9813832045
-0.18632761 -0.14043412 1.0470001 -0.04665476456 0.4666467309 0.8832123876
-0.20573963 0.14823031 1.131 0.2821822464 -0.7944263816 0.5378288627
-0.26085654 0.18882085 1.245 0.4274820685 -0.8275290728 0.363943249
-0.15523441 -0.035435308 1.0069143 0.2267493308 -0.1883108169 0.9555751085
-0.22831468 0.088530183 1.0630001 0.3720351756 -0.7616515756 0.5305438042
-0.21534091 -0.11529096 1.0426003 0.0421388261 0.346375823 0.9371489286
-0.076372571 0.22051235 1.2270001 -0.1088806316 -0.8621693254 0.4947818518
-0.25813997 0.078381673 1.0707501 0.4891848266 -0.6527127028 0.5785018206
-0.041442662 0.077831343 1.153 -0.8274964094 -0.3840917945 0.4095401466
-0.04513111 -0.13568455 1.0528502 -0.484633863 0.375508219 0.7900149226
-0.067852072 -0.13481398 1.0184 -0.4658141732 -0.1926693469 0.8636525273
-0.23357056 -0.082023934 1.0185715 0.196624428 0.2724507451 0.9418648481
-0.0095153395 0.10255422 1.2060001 -0.909789443 -0.1404813677 0.390574187
-0.035537001 0.16481332 1.1750001 -0.8132378459 -0.4381315112 0.3829947114
0.0082546938 -0.069133058 1.177 0.3434129953 -0.6538394094 0.6742118001
-0.18223689 -0.079381458 1.0220001 -0.03658406809 0.5601137877 0.8276075125
-0.1346823 0.17059758 1.138 0.1007839367 -0.8590761423 0.5018274188
-0.02702588 -0.041504029 1.1010001 0.1520902663 -0.6308301091 0.760869205
-0.15410791 0.21263725 1.2250001 0.09182359278 -0.9376193285 0.3353184462
-0.2266762 0.0098554865 1.0220001 0.2548874319 -0.4250837564 0.8685252666
-0.20500086 -0.055023022 1.0123003 0.2174320072 -0.09138593078 0.9717879891
-0.052878998 0.1561372 1.1435 -0.7115709186 -0.4767166376 0.5161473751
-0.011668433 0.12517047 1.21 -0.8935008049 -0.0003688743163 0.4490614831
-0.041813493 0.071272999 1.0840001 -0.9119719863 -0.3356419504 0.2359059453
-0.12487639 -0.075723261 1.0134447 -0.002649245784 0.5895885825 0.8076993823
-0.085122414 0.1355886 1.0753529 -0.292699635 -0.7703617215 0.5664536357
-0.13678017 0.22491321 1.2442 0.126011163 -0.8960469365 0.4257006645
-0.24436821 0.1869314 1.21325 0.4079011381 -0.811137557 0.4191330969
0.041859955 0.0032223344 1.2243334 0.5188951492 -0.6290612817 0.5788175464
-0.097407311 -0.020183496 1.001 0.1683371067 -0.285800904 0.9433877468
-0.18049163 0.20265904 1.204 0.1972517669 -0.8755970597 0.4409326315
-0.29205447 0.082845002 1.0946666 0.3819049895 -0.7272117138 0.5703610778
-0.061401293 0.12715656 1.103 -0.7137184739 -0.5416694283 0.4440721869
-0.20271084 0.072504818 1.0266666 0.3354441822 -0.5875645876 0.7363728881
-0.014587482 0.061621904 1.131143 -0.3877089918 -0.8292968273 0.4024282992
-0.29144496 -0.035411697 1.067 0.6936747432 -0.2812991738 0.6630883217
-0.028807266 -0.14124854 1.0600001 -0.4945296943 0.5452024937 0.6769007444
0.043036968 0.11329444 1.3268001 0.1838927716 -0.976382792 0.1134022474
-0.065063484 0.088178173 1.0507274 -0.428214699 -0.6216387749 0.6558943391
-0.13496616 -0.19147995 1.0010002 -0.04112096503 0.4443000853 0.8949338198
-0.2893219 0.081046075 1.075 0.3526715636 -0.6813520193 0.6413908601
0.053059492 0.13223827 1.2955714 -0.4772965014 -0.5030301213 0.7205197811
-0.25267029 -0.094374992 1.0367501 0.4770821631 0.565615356 0.6726602912
-0.04173021 0.12722625 1.161 -0.8695265055 0.06513217092 0.4895727336
-0.21360721 0.18700139 1.1935713 0.3373040259 -0.8043420911 0.4891419411
-0.22934082 -0.15796788 1.0855 0.501406014 -0.06340231001 0.862885952
-0.23474136 0.033503938 1.033 0.2630003095 0.1026048958 0.9593243003
-0.019804776 0.13237929 1.189 -0.8666394353 -0.1924677938 0.4603175521
-0.15861353 -0.091022544 1.028 0.02624230087 0.6146392822 0.7883716822
-0.075138323 -0.095107369 1.0220854 -0.1073121056 0.229528904 0.9673678875
-0.10520584 0.12089175 1.0526667 0.08032224327 -0.8141174316 0.5751184225
-0.0087184496 -0.031967651 1.105 0.4978530109 -0.4987526536 0.7094985247
-0.11693418 0.14849944 1.1023334 0.1376785487 -0.8353040218 0.5322703719
-0.070780315 0.022398833 1.0220001 -0.5259609222 -0.05597472936 0.8486647606
-0.085797615 0.17259288 1.138 -0.1540611386 -0.8558520079 0.4937434196
-0.22485842 0.1328961 1.1160001 0.3362210989 -0.7370055914 0.5863260031
-0.01061731 0.03957361 1.1010001 -0.6004087925 -0.652889967 0.4617834687
0.056440435 0.15580663 1.3236364 -0.927775979 0.358079344 -0.1049330831
-0.037258334 0.2202625 1.25 -0.5047698021 -0.8054839373 0.3104884923
-0.15495083 0.068178371 1.01 0.1326868087 -0.1392237842 0.9813312292
-0.0084186299 0.0084186299 1.067 -0.8090615869 -0.411681354 0.4194494486
-0.051891655 -0.15104178 1.057 -0.6675952673 0.4296119213 0.6080707908
-0.063912183 0.18486349 1.1650001 -0.4227618873 -0.7716379762 0.4752338827
-0.18971768 -0.15854341 1.016 0.6492307782 0.3304376304 0.6850622892
-0.098502263 -0.14868267 1.0600001 0.2557070255 0.4218743145 0.8698482513
-0.12460738 0.085922495 1.0116875 -0.1442828476 -0.4582431912 0.877038002
-0.015078667 0.086084977 1.1945999 -0.8771513104 -0.1927794665 0.4398200214
-0.21184379 -0.16456766 1.0371112 0.8745415211 0.4848798513 -0.00828953553
-0.086033136 0.032809246 0.99800009 -0.3364319801 -0.006420283578 0.941685915
-0.21390072 0.091880977 1.0544001 0.376335144 -0.7391292453 0.5586231947
0.024504878 0.015583917 1.2516668 0.6164475083 -0.4818957746 0.6227109432
-0.29223216 -0.0015417645 1.0560001 0.8347119093 0.04595461115 0.5487660766
-0.30594146 0.018982755 1.0826668 0.641520977 -0.4516584873 0.6200447083
0.0045376262 -0.08351633 1.1650002 0.2099242657 -0.6916902661 0.6910111308
-0.25977474 0.13847914 1.153 0.2252233028 -0.7398765683 0.6339220405
0.01538068 -0.054789778 1.1829997 0.4887461364 -0.5713454485 0.6593114138
0.00107567 0.091431953 1.2270001 -0.6254410148 -0.5207644105 0.5810576677
-0.15507779 0.11747386 1.0618 0.2093503922 -0.8356878161 0.5077384114
-0.255909 -0.14481194 1.1024209 0.4573538601 -0.350884527 0.8171337247
-0.10519614 0.036241118 1.0023201 0.02989407443 -0.3809144199 0.9241269231
-0.046264332 0.1010262 1.077 -0.7131973505 -0.53660357 0.4510056973
-0.1412985 -0.048557688 0.99800003 0.2142214328 0.0959739089 0.9720587134
-0.16465728 -0.10769191 1.0424999 0.03782115132 0.4562151134 0.8890654445
0.016944651 0.12679274 1.3330001 -0.6595094204 -0.5304021239 0.5326545238
-0.11176623 0.071580186 1.0232002 -0.4054429233 0.1205599755 0.9061353803
-0.28349859 0.06382969 1.0749999 0.5586963296 -0.3178375661 0.766053319
-0.057823621 0.0013242051 1.0070001 -0.1356658638 -0.4535031021 0.8808687329
-0.10161444 -0.12163398 1.0380001 0.4199959636 0.4921522141 0.7624890804
0.01783929 0.049320389 1.197 -0.5309946537 -0.7325445414 0.4259379506
-0.11340561 0.21925084 1.2320001 0.108184658 -0.8955891728 0.4315276444
-0.12854125 0.1881844 1.1730001 0.1229599118 -0.8490418196 0.513817966
-0.0046356381 0.15606648 1.2590001 -0.893961668 -0.3642265797 0.2610968053
0.033197962 -0.017127613 1.2060001 0.511780262 -0.6204630733 0.5942276716
-0.18010503 0.13055232 1.087 0.2238132209 -0.7548295856 0.6165549159
0.043698654 0.034442808 1.24225 0.4390527606 -0.5366957188 0.7205486894
0.0095153395 0.074008197 1.2060001 -0.4109413922 -0.5894556046 0.6954633594
-0.12720726 -0.012691211 1.0100001 0.02882722765 -0.08646580577 0.9958376884
0.0010353433 0.069368005 1.1810001 -0.5013710856 -0.8285021186 0.2494218349
-0.15104178 -0.15104178 1.057 0.03946475312 0.3893721402 0.9202346802
-0.27507028 0.045691166 1.0508001 0.740667522 -0.05285739154 0.6697893143
-0.024865301 -0.10751297 1.0565386 -0.1243518144 -0.3953192234 0.9100875258
-0.27479818 0.11805228 1.1316 0.3973197341 -0.7509786487 0.5274164677
0.045223594 0.075828701 1.2676923 -0.08250623196 -0.2091408223 0.9743987322
-0.08381284 -0.13067593 1.028 0.6942458153 -0.2523179948 0.6740611196
-0.28751862 0.13254148 1.1630001 0.4930212796 -0.6438156366 0.5851764083
-0.11396841 0.1921066 1.1676667 0.1669725031 -0.8391097784 0.5177015662
-0.1447468 -0.12551078 1.0450003 -0.005898151081 0.3863552213 0.922331214
-0.011476444 -0.1319883 1.0910001 -0.8218975067 0.5373187065 0.1891377419
-0.045616798 -0.05451341 1.0144446 -0.605188787 0.3416191936 0.7190569043
-0.25849685 0.11857384 1.1240001 0.3676103652 -0.7607673407 0.5348790884
-0.16599919 0.18760578 1.1736668 0.1588098854 -0.8465031385 0.5081455708
0.022204388 -0.082090892 1.1618 0.2885959744 -0.6481185555 0.7047373652
-0.30198318 0.11583879 1.1539999 0.5221050978 -0.684242487 0.5091350675
-0.08883848 -0.0014757222 1.01 -0.004481385928 -0.2469829917 0.969009459
-0.19371158 -0.17310953 1.0266666 0.6438717842 0.3535115719 0.6785710454
-0.03086831 -0.088863313 1.067 0.05918633938 -0.5011046529 0.8633603454
-0.2048471 0.11593066 1.0847999 0.3656634986 -0.7332437038 0.573274672
-0.02890129 0.09438128 1.1670001 -0.771589458 -0.200219363 0.6037896276
-0.13503981 0.055395197 1.0153826 -0.09050593525 0.1560025215 0.9836015105
-0.11520582 0.0081659313 1.0070001 -0.1837209463 0.3598947525 0.9147253036
-0.23515734 -0.10786305 1.0414286 0.2871973813 0.592835784 0.7523718476
-0.046409566 0.10786916 1.0953335 -0.6008099318 -0.6456002593 0.4714103639
-0.22250763 0.061386079 1.0275714 0.3243700564 -0.5235848427 0.7878089547
-0.16556638 -0.1711788 1.067 0.01289433613 0.4691831172 0.8830067515
-0.28634065 0.10783117 1.125 0.419831574 -0.7433358431 0.5207621455
-0.20865105 0.16997427 1.161 0.2774454057 -0.8162625432 0.5066946745
-0.11986137 0.10003468 1.028 0.05451160297 -0.7782189846 0.6256226301
-0.22920451 0.078242503 1.0500001 0.3618714213 -0.7071637511 0.6074277163
-0.095019445 -0.10492833 1.0241722 0.1865349412 0.4124833345 0.8916625977
-0.085044727 0.15389076 1.1049331 -0.250349313 -0.8150203824 0.5225580931
-0.13347287 0.020900706 0.99800003 0.02594681457 -0.1294903159 0.9912411571
-0.13544548 -0.034868076 1.0017058 0.1837483495 -0.2380665541 0.9537090063
-0.020154567 0.15805423 1.21 -0.8310930729 -0.3510909081 0.4312998056
-0.028298801 -0.063500725 1.0811428 0.1713825613 -0.5437363982 0.8215708733
-0.10936417 -0.1706081 0.99800003 -0.3764354587 0.3391521275 0.8621323705
-0.29191625 0.04224686 1.087 0.7233341336 -0.1020029336 0.6829224825
-0.16843922 0.079739846 1.0220001 0.2625957727 -0.6297749281 0.7310451269
-0.0457347 -0.023750694 1.0033181 -0.537961781 0.1811914742 0.8232659101
-0.16440129 0.20112924 1.197 0.1698498726 -0.8657966852 0.470687896
-0.11453366 0.17818972 1.1435001 0.09353558719 -0.853153646 0.5132055879
-0.091110215 0.19982126 1.1810001 -0.1621447802 -0.8515654802 0.4985431433
-0.25781232 -0.042436365 1.041 0.5207133889 -0.2344474941 0.8209092021
-0.18466802 0.18522115 1.1759335 0.1769891977 -0.829923749 0.5290570855
-0.062958695 0.068907246 1.0322858 -0.4059231579 -0.6223080158 0.6692975163
-0.061442152 0.056264374 1.0223335 -0.6060875058 -0.3181981444 0.728977263
-0.18600325 0.14186811 1.1065 0.234259367 -0.8103458881 0.5370866656
-0.15272374 0.1523373 1.1068 0.1808725744 -0.8403372765 0.5109974742
-0.059430111 0.17023201 1.149 -0.5900599957 -0.6415934563 0.4900887907
-0.30124721 -0.01995644 1.0840001 0.674890697 0.07645388693 0.7339464426
-0.083878115 0.11630386 1.0514117 -0.5223488212 -0.5934986472 0.6122997999
-0.11953613 0.1213894 1.057 0.08961126208 -0.8277900219 0.5538352132
-0.13382667 0.20969692 1.202 0.08716347814 -0.9101998806 0.4048933983
0.052657861 0.10195458 1.2780001 0.00941195339 -0.5379149318 0.842946589
-0.044064991 0.038586043 1.04175 -0.6554163694 -0.4436155856 0.6112565994
-0.2281788 0.099413998 1.08 0.3321902454 -0.7419390678 0.5823882818
-0.17550808 0.1180011 1.0725 0.2448635548 -0.8019683361 0.5448749065
-0.21449125 -0.086369909 1.0220001 0.01227859315 0.4708205462 0.8821435571
-0.095197231 0.22663936 1.2340001 0.0502387546 -0.88768363 0.4577049613
-0.27644822 0.1369099 1.1533999 0.4020715952 -0.6752916574 0.6183200479
-0.0056431037 -0.072412759 1.1818889 0.3824034035 -0.7103226185 0.5909394026
-0.26921555 0.068476431 1.0700001 0.3877181709 -0.6285334229 0.6742553711
-0.025080247 0.15426008 1.195118 -0.8151763678 -0.3158245087 0.4855331182
-0.19337863 0.20187704 1.2120001 0.2451711446 -0.8652416468 0.4373191297
-0.075317726 0.0070906989 1.0107502 -0.1620202214 -0.2858762443 0.944470346
-0.024115346 0.015162243 1.0446668 -0.8355301023 -0.3678129315 0.4081703722
-0.29398763 0.023550384 1.0744444 0.6471439004 -0.4498789608 0.615478456
-0.091288179 0.077730522 1.031 -0.4085066319 -0.3452670574 0.8449337482
-0.075860597 0.20311518 1.1963334 -0.2762281597 -0.8503193259 0.4479453564
-0.27150595 -0.037999816 1.0470001 0.6011604667 -0.1100236923 0.7915180922
-0.18254742 -0.15210079 1.057 0.05771528929 0.5282546878 0.8471221328
-0.013426149 -0.063630596 1.0832857 0.1264285892 -0.5820659399 0.8032528162
-0.22500317 0.15368895 1.1458 0.3238398731 -0.7938797474 0.514667511
-0.045648031 0.1290085 1.132 -0.7900665402 -0.4871922731 0.3720733821
0.028146436 0.12370241 1.3490001 -0.8096227646 0.2152667046 0.5460505486
-0.22542958 0.17582801 1.1850001 0.3287480772 -0.8142718673 0.4784203172
