# .PCD v0.7 - Point Cloud Data file format
VERSION 0.7
FIELDS x y z normal_x normal_y normal_z
SIZE 4 4 4 4 4 4
TYPE F F F F F F
COUNT 1 1 1 1 1 1
WIDTH 512
HEIGHT 1
VIEWPOINT 0 0 0 1 0 0 0
POINTS 512
DATA ascii
-0.19435972 -0.12479652 1.1380004 -0.0457640253 0.3794640601 0.9240739346
-0.46561256 -0.47347102 2.2410002 -0.279080987 0.8909665346 0.3581794202
0.4619779 -0.18032596 1.9590001 0.07362097502 0.8787371516 0.4715940952
-0.058875181 0.058875181 1.7220001 -0.9960304499 -0.002681810642 -0.08897256106
-0.44844127 0.21661995 1.4450001 0.7470932603 -0.6104617119 0.2630364299
-0.49748117 -0.10648958 1.8130001 0.8840546012 -0.4455305636 -0.1412444413
-0.069774777 0.23415941 1.3490001 -0.8330711722 -0.3813984394 0.4006589949
-0.24783805 -0.20213741 2.0050001 -0.05913354829 0.8017053604 0.5947871208
-0.31629971 0.15866503 1.174143 0.4476041496 -0.7039687037 0.5514332652
-0.058715627 0.0022582933 1.2880001 0.1754321903 -0.5259100795 0.8322512507
-0.11555343 -0.082538165 1.8830001 -0.2816725969 0.8664311171 0.4122592509
-0.35426977 -0.061612133 1.2550001 0.1785235554 -0.3623407483 0.9147887826
-0.14496616 0.072569132 1.1279999 -0.1702772826 -0.1408872157 0.9752724767
-0.24488653 0.28683853 1.2932501 -0.003947494552 -0.8330666423 0.5531585217
-0.14273159 0.2064397 1.2111429 -0.7314347029 -0.482872963 0.4814945757
-0.2843293 0.0049882336 1.1380004 0.1831493527 0.03585566208 0.9824309945
-0.49463606 0.12760438 1.5430001 0.7545026541 -0.6021926999 0.2609399855
-0.35263976 0.275437 1.376 0.4164447188 -0.85246557 0.316032052
-0.02978475 0.10841649 1.3590001 0.4349757135 -0.5968554616 0.6742104292
-0.088004179 -0.061085258 1.1810001 -0.08649347723 -0.07044588774 0.9937586784
-0.075827159 0.10702547 1.233143 -0.6334370375 -0.5782023072 0.514236927
-0.35200855 0.22863935 1.2640001 0.1743239909 -0.6855410933 0.7068554163
-0.057518099 0.22112514 1.4580001 -0.4863635898 0.166567713 0.8577328324
-0.21410635 0.16249017 1.1371112 0.1037134156 -0.626932025 0.7721397281
-0.14552666 0.31200916 1.3280001 -0.2342679203 -0.8659279346 0.4419132471
-0.37318113 0.044927288 1.1838571 0.4514523447 0.1796277612 0.8740278482
-0.2708146 -0.10221408 1.202 -0.1676874012 0.8110938072 0.5603640079
-0.17521381 -0.024891486 1.143167 0.1043871194 0.6234538555 0.7748603821
-0.24491781 0.22590657 1.2143333 0.1440735161 -0.7572960854 0.6369814873
-0.12075821 0.020304477 1.2190001 0.03987335041 -0.5150184631 0.8562511802
-0.10175631 0.16644467 1.2945 -0.8136782646 -0.2905834019 0.5034768581
-0.23552321 0.075250022 1.1147598 0.10064926 -0.06179343164 0.993001163
-0.11913374 0.24498975 1.278 -0.7555619478 -0.3856604993 0.5295206308
-0.12374646 0.13450629 1.1752224 -0.9087952971 -0.3015191257 0.2884047627
-0.056058448 0.15073495 1.4210001 -0.9615267515 -0.1057768688 -0.2535302043
-0.34402588 -0.032123696 1.182 0.5317206383 0.5915061831 0.6061300039
-0.3102681 0.080809377 1.138 0.4260232449 -0.2352138758 0.8736009598
-0.38151044 0.17312238 1.2190001 0.1084038168 -0.6927297711 0.7130035162
-0.18445505 0.26085654 1.245 0.0004669640621 -0.848703742 0.5288683772
-0.088779151 0.068212561 1.1730001 -0.8108183146 -0.3960772455 0.4309251904
-0.20534424 -0.075049683 1.1889998 0.01974793896 0.378625989 0.9253390431
-0.36996123 0.11375539 1.169 0.4501372874 0.05461644009 0.8912875056
-0.071793154 0.062479448 1.3280001 0.3001986146 -0.6131231189 0.7307262421
-0.42777476 -0.43548238 2.1980002 -0.279080987 0.8909665346 0.3581794202
-0.10132864 0.29554185 1.376 -0.7425115705 -0.5798873305 0.3352718949
-0.13618547 -0.095356792 1.1460911 -0.4610445499 -0.1642985642 0.8720343709
-0.08273191 -0.047368929 1.245 -0.9694905877 -0.01619145088 0.2445931435
-0.21428013 0.31671074 1.3430001 0.1468578875 -0.8788151145 0.454000771
-0.27224952 0.13286725 1.126 0.2649956644 -0.2917047441 0.9190678
-0.02818834 0.22182998 1.3980001 -0.8473271132 0.2923882008 -0.4433349371
-0.051041286 0.16974196 1.3540001 -0.8041073084 -0.4233070016 0.4173997939
-0.29204518 0.25142819 1.2590001 0.2386561483 -0.7600446939 0.6044628024
-0.11777782 0.016586533 1.1353334 -0.4832943976 0.2863613665 0.8272990584
-0.23768508 -0.032119606 1.1570001 -0.1762470603 0.7323563695 0.6577165723
-0.31495988 0.20348071 1.2163637 0.4188640416 -0.6677923799 0.6153098941
-0.057431661 0.12653473 1.3050001 -0.6352851987 -0.6707553864 0.3827530444
-0.2049502 0.024634771 1.1239544 0.1596041769 -0.03246992081 0.9866469502
-0.19567989 0.19775057 1.1810001 0.197883904 -0.7109076977 0.6748719811
-0.25434259 0.18432355 1.1746 0.2263450623 -0.7631201744 0.605322659
-0.25081521 -0.11382377 1.149 0.5922803879 0.4124387503 0.6921691895
-0.16511935 0.12618665 1.1302352 -0.1521898657 -0.4803417027 0.8637766242
-0.3196502 -0.1029382 1.2360001 0.1274127662 -0.2731432617 0.9534981847
-0.084927954 0.22114092 1.4039999 -0.5928546786 -0.633012712 0.4978134632
-0.11664807 0.14400421 1.2435454 -0.6986004114 -0.6306894422 0.3379175663
-0.29365128 -0.051950656 1.1689999 0.1361849904 0.5048455596 0.8523993492
-0.18235719 0.28882658 1.2920001 -0.004627667367 -0.8403656483 0.5420001745
-0.1305979 -0.027764909 1.1730001 -0.944898665 -0.1354299635 0.2980355918
-0.10631126 0.27520141 1.3268001 -0.7766942382 -0.4797484577 0.4081512392
-0.32875264 0.02646306 1.161 0.5297648311 0.04924202338 0.8467139006
-0.12692818 0.19535902 1.2590001 -0.9484497905 -0.03734010458 0.3147200048
-0.1590621 0.17324834 1.1556667 -0.6000334024 -0.5022751093 0.6226392984
-0.06315244 0.02310455 1.7570001 -0.9964695573 0.01617811248 -0.08238147944
-0.086677961 -0.0086048339 1.197 0.06602396816 -0.4519984424 0.8895719647
-0.22488253 -0.1177451 1.21 0.002885168651 0.4794907868 0.8775421977
-0.23560417 0.25825137 1.25 0.07336316258 -0.8493762612 0.5226641297
-0.27506587 0.050852511 1.13 0.1380502731 0.4563827813 0.8790090084
-0.21420649 0.11549383 1.1259999 -0.02214249037 0.02913112566 0.9993303418
-0.091324821 0.21508491 1.312 -0.8411242962 -0.1153812259 0.5283910632
-0.12132014 -0.090990111 1.1930001 -0.8085013628 0.3242432177 0.4911128581
-0.022417244 0.24659176 1.4366001 -0.9021705389 0.3388539255 -0.2669576406
-0.16511783 -0.06406039 1.1637368 0.6495357156 0.2705943286 0.7105505466
-0.088123411 0.04242979 1.2410001 -0.1205139682 -0.5863282681 0.8010590076
-0.35236898 0.07444986 1.1570001 0.3713550866 -0.300788343 0.8784200549
-0.090864748 0.021853546 1.312 0.2345435321 -0.5462073684 0.804143548
-0.35507059 0.14903553 1.1930001 0.111299023 -0.715960741 0.6892116666
-0.32248831 0.12432992 1.1474001 0.5441565514 -0.3047919273 0.7816620469
-0.16186334 0.01863881 1.1190001 -0.09532967955 0.1492848396 0.9841881394
-0.18474431 0.085041046 1.1149999 -0.05035552755 0.120071359 0.9914873838
-0.24712488 -0.07171265 1.177 -0.2032298297 0.4398597181 0.8747691512
-0.18502051 0.23153993 1.2060001 0.005441369954 -0.7357309461 0.6772520542
-0.054332934 0.18744917 1.394182 -0.05687630922 -0.7846566439 0.6173160076
-0.099082179 0.10327791 1.1960001 -0.7389028668 -0.5407039523 0.4020718336
-0.1212956 0.098047279 1.153 -0.6487112641 -0.4146598577 0.6381464601
-0.14440906 0.24615942 1.2428461 -0.5408337116 -0.6318129301 0.5552578568
-0.13871847 0.28425917 1.2970001 -0.4272204936 -0.6996805668 0.5726515055
-0.36351946 0.0027816633 1.169 0.4073949456 -0.01049062703 0.9131917953
-0.077359401 0.13214289 1.2666668 -0.5709437728 -0.7567461133 0.3183685243
-0.31698582 -0.016374905 1.153 0.3465995789 0.3373596072 0.875246942
-0.24548313 0.014862004 1.1301903 0.1340286285 0.08435117453 0.9873809814
-0.035714962 0.14376785 1.381 -0.9421823621 -0.1408333182 -0.3040696084
-0.12613218 0.17374019 1.1943334 -0.842490375 -0.3511065841 0.4085757434
-0.35432413 0.20100038 1.2360001 0.1290263236 -0.6761468649 0.7253810167
-0.074902914 0.15575613 1.3241178 -0.5868327618 -0.4144935608 0.6955734491
-0.27766401 0.20917004 1.202 0.3100019693 -0.6961146593 0.6475516558
-0.26462296 0.095472276 1.13 0.17237477 -0.1285481602 0.9766075611
-0.34463659 0.25115693 1.294 0.4593465626 -0.6635159254 0.5905483365
-0.083975166 -0.026870856 1.2771667 0.01979317516 -0.6808542013 0.7321514487
-0.043284714 0.20291273 1.427 -0.7883753777 0.6098476052 -0.0809327364
-0.10874349 0.052875269 1.138 -0.6361910701 -0.1361504793 0.7594234347
-0.27887994 0.15979616 1.161 0.2890071571 -0.7121341825 0.6397966743
-0.05470312 0.034267083 1.3062308 0.3381088376 -0.5090136528 0.7915728092
-0.28073409 -0.12237127 1.1730001 0.860245645 0.4419815838 0.2542237639
-0.21454261 -0.013091639 1.136 0.03031664714 0.637627244 0.7697482705
-0.12745768 -0.064238451 1.1631334 -0.8533882499 -0.08241679519 0.5147193074
-0.31910843 -0.066638939 1.2360001 0.07650959492 -0.4073227346 0.9100738764
-0.21617076 0.29720527 1.3130001 0.1313894689 -0.8774808049 0.461263746
-0.19427066 -0.043836113 1.1673332 0.2882463038 0.5957249403 0.749683857
-0.17274716 -0.096555904 1.1354545 -0.2133697569 -0.1314730346 0.9680848122
-0.379971 0.079721436 1.1810001 0.4747261703 -0.2198330164 0.8522373438
-0.18651435 -0.10221407 1.202 0.04619007185 0.4505706131 0.8915450573
-0.27781653 0.27331749 1.2830001 0.1069595367 -0.7175465226 0.688248992
-0.21545438 0.27662387 1.2763333 0.09581339359 -0.8221771121 0.5611101389
-0.053513706 0.084261909 1.3490001 0.3921166062 -0.6276590228 0.6725241542
-0.16047822 0.19982126 1.1810001 -0.5259808898 -0.6254771948 0.576300621
-0.21585548 0.242438 1.2250001 0.1315725595 -0.7665531635 0.6285578012
-0.02533216 0.1797377 1.376 -0.3011013269 -0.4702380598 0.8295867443
-0.31597611 0.2266538 1.2424546 0.5198090076 -0.601337254 0.6067883372
-0.11760426 0.3024734 1.3460001 -0.619230926 -0.6871060729 0.380050391
-0.28311142 -0.085676156 1.1743335 -0.2437301725 -0.2438136786 0.938696146
-0.20578156 0.062229779 1.13 -0.03927790001 0.3711104989 0.9277576208
-0.33600748 0.17651042 1.2128999 0.4598403871 -0.585224092 0.6678768992
-0.31262621 0.046708003 1.1380001 0.3769019842 0.347430408 0.8586250544
-0.28505254 0.23126905 1.2270001 0.2465538532 -0.6802893281 0.6902301311
-0.22723375 0.2115984 1.189 0.03777649254 -0.6611998081 0.749258101
-0.27532592 -0.031561758 1.149 -0.003977695014 0.5935774446 0.8047670722
-0.081412233 0.187365 1.3330001 -0.7345409393 -0.1695839614 0.6570318937
-0.23380262 0.14126256 1.1190001 0.04622921348 -0.3610126674 0.9314143658
-0.17424978 0.31788808 1.3430001 0.03127359971 -0.9108769894 0.4114913344
-0.29336548 0.18333894 1.189 0.3674660027 -0.5643412471 0.7392480373
-0.15512353 0.2689552 1.273 -0.3007488847 -0.7710422873 0.5612877011
-0.29174328 -0.12075821 1.2190001 0.5849157572 0.2205403298 0.7805353999
-0.12442394 -0.014023026 1.2019999 -0.2034495622 -0.5319171548 0.8219929338
-0.11312682 0.1321575 1.2060001 -0.8409577012 -0.4437079728 0.3096987903
-0.094054811 0.24501181 1.3245715 -0.8636214733 -0.3375200927 0.3744838834
-0.14378943 -0.017015805 1.1416665 -0.3237257004 0.5174412131 0.7921213508
-0.13368049 0.12592177 1.1422501 -0.6815364957 -0.3540477753 0.6404359341
-0.17472143 0.054291964 1.1259999 0.08670508862 -0.1547019929 0.984149158
-0.13439561 0.043397125 1.1190001 -0.217677176 -0.0336432904 0.9754408002
-0.32292366 0.25066882 1.268 0.4579356313 -0.6504538059 0.605974257
-0.23514818 0.045066241 1.1309088 -0.03198746592 0.1684241444 0.9851954579
-0.10592938 0.20510581 1.2855002 -0.8310260177 0.01103083044 0.5561241508
-0.24524382 0.16457361 1.1423334 0.2050100267 -0.6991124749 0.6849910021
-0.22439246 -0.1332317 1.1426667 0.2527545691 0.5424323678 0.8011755347
-0.1091184 -0.041485909 1.1930001 -0.1280617565 -0.3683577478 0.9208217859
-0.086340383 0.024251118 1.2158751 -0.1719946414 -0.5660645366 0.8062188029
-0.18466543 0.15515336 1.13175 -0.3293506503 -0.3349933922 0.882784009
-0.34434065 0.13083579 1.169 0.4887147248 -0.4535793364 0.7452675104
-0.11405504 0.16531549 1.2656 -0.7939122915 -0.4116439521 0.4474958479
-0.33893073 0.101781 1.161 0.5995922089 0.02345908619 0.7999618053
-0.26507637 0.24804638 1.2424546 0.182484284 -0.7895582318 0.5859157443
-0.072863273 0.22863993 1.4330001 -0.6041359305 -0.7191800475 0.3432198167
-0.18437332 -0.0018645725 1.126 0.07933922857 0.4902919531 0.8679395914
-0.14812949 0.10104197 1.1190001 -0.5156689882 0.00264547579 0.8567838073
-0.075665101 0.25461906 1.3700001 -0.840080142 -0.4030805528 0.3630307913
-0.12581357 0.22479378 1.2544121 -0.8613881469 -0.2593663633 0.4367373884
-0.22702217 0.18386243 1.1630001 0.1599750966 -0.84490031 0.5104423761
-0.15687482 0.23158145 1.2173334 -0.4718156159 -0.6367102861 0.6099098921
-0.23509498 -0.094830811 1.1949052 -0.03605651855 0.5109577179 0.8588493466
-0.19519742 0.18321063 1.1556667 0.07142119855 -0.7811393738 0.6202582717
-0.15504289 -0.11903292 1.141 -0.1574477106 0.05577092245 0.9859512448
-0.29465777 0.11530507 1.1322069 0.3000531197 0.09672660381 0.9490058422
-0.14394301 -0.045295645 1.1482002 -0.2009731084 0.04931129515 0.9783548713
-0.045541078 0.1292382 1.404 -0.940350771 -0.1364817917 -0.311629802
-0.17471616 0.30447736 1.3148572 0.01768787205 -0.8801217079 0.4744184613
-0.25390106 -0.011472936 1.138 0.04587036371 0.5352289677 0.8434606194
-0.04277052 0.2337845 1.4210001 -0.7050852776 0.5293867588 -0.471809715
-0.32128212 -0.044579815 1.169 0.4188128412 0.61365062 0.669349432
-0.11147869 0.2583414 1.302 -0.7765509486 -0.4195995629 0.4700051248
-0.24535821 0.11548839 1.1243747 0.07767105103 0.2552936971 0.9637387395
-0.08694429 0.0011291467 1.2880001 0.2006773204 -0.5312448144 0.8231084943
-0.24007253 0.30748206 1.3490001 0.1532248855 -0.8840777278 0.4415072799
-0.096147537 0.27894658 1.3540001 -0.8210858703 -0.472211808 0.3206773996
-0.224865 -0.054669809 1.1766001 -0.1279318929 0.4252175391 0.8960042
-0.075887769 0.14384697 1.2920001 -0.6081815958 -0.7341212034 0.301962167
-0.090299293 0.12946525 1.2410001 -0.4665924907 -0.7697082758 0.4357070625
-0.26618439 -0.05345263 1.1690001 -0.09564954787 0.4848714769 0.8693392873
-0.43810803 -0.47347102 2.2410002 -0.2786643207 0.892942965 0.3535520732
-0.24886726 0.2689552 1.273 0.03046630882 -0.7835906744 0.6205299497
-0.34132141 -0.08235056 1.2360001 0.1611349136 -0.280765444 0.9461534023
-0.13663237 0.15409507 1.1618574 -0.6171855927 -0.5577475429 0.554977119
-0.20306493 0.14028157 1.1190001 -0.1640140265 -0.1065025926 0.9806919098
-0.37077302 0.21014138 1.2550001 0.1193690747 -0.6694028378 0.7332468033
-0.30501434 0.14599819 1.1535 0.3816728294 -0.5922872424 0.7095925808
-0.28505474 0.077269405 1.13 0.2965066135 -0.2572641671 0.9197276831
-0.12758744 0.18834336 1.223 -0.8723908663 -0.403291434 0.276206851
-0.34553933 0.04902466 1.1570001 0.4900743365 0.3578164876 0.7948549986
-0.17634568 -0.08257214 1.1885 0.3116298914 0.4431714416 0.8405271769
-0.063364491 0.20631763 1.4111111 -0.4442695379 -0.6798129082 0.5835057497
-0.24325658 -0.13536873 1.161 0.5402082205 0.474273324 0.6951546073
-0.15541719 0.14538972 1.1443602 -0.4233865142 -0.4203641117 0.8025196791
-0.19215745 0.27324212 1.2670001 0.1052144244 -0.8336286545 0.5422114134
-0.18567605 0.10888533 1.123 0.08550008386 -0.3633190691 0.9277332425
-0.35066053 0.027764909 1.1730001 0.3783230484 -0.04761634395 0.9244481325
-0.31229642 0.014243934 1.1466669 0.4598065317 -0.05131829903 0.8865350485
-0.11084193 0.10741183 1.1743335 -0.7573971748 -0.5267031789 0.3859187961
-0.086769447 0.25611162 1.3476667 -0.8399432302 -0.358962208 0.4069907963
-0.11124549 0.039961971 1.2320001 -0.08293094486 -0.5893941522 0.8035776019
-0.2790772 0.029008023 1.141 0.2066276968 0.04233087972 0.9775034785
-0.086456612 -0.034460016 1.186143 0.1086471677 -0.2876963317 0.9515390992
-0.096068859 0.14633912 1.27425 -0.5740967989 -0.7406504154 0.349069953
-0.29913357 -0.097566865 1.223 0.3186221719 -0.1464820653 0.9364950061
-0.11462873 0.07612434 1.143316 -0.5724919438 -0.3471084535 0.7428113222
-0.30022764 -0.07168065 1.1850001 0.06746588647 0.2470856756 0.9666421413
-0.1152484 -0.065414742 1.1843598 -0.5357530713 0.1777688861 0.8254495263
-0.2075894 0.21812694 1.202 0.1408860981 -0.7242996097 0.6749379039
-0.12119273 0.15414898 1.2126669 -0.9539155364 -0.2779967487 0.1129731983
-0.18578583 0.24673367 1.2250001 -0.01722966693 -0.799413085 0.6005346775
-0.20820834 0.25971249 1.25 0.168513298 -0.8183495402 0.5494609475
-0.047660857 0.063938804 1.3260001 0.1919931769 -0.6434867382 0.7409881353
-0.075793386 0.19603604 1.3870001 -0.4543335438 -0.7074391842 0.5413970947
-0.083523542 0.087752581 1.2060001 -0.7092717886 -0.5168965459 0.479324013
-0.13447833 0.21620157 1.2337779 -0.798379004 -0.3538758457 0.4871989787
-0.25486451 0.21232042 1.1954 0.1843997687 -0.7066304088 0.6831326485
-0.10539863 0.0034736036 1.2057145 0.0635850057 -0.4569554329 0.887214005
-0.32778305 0.077898845 1.1539999 0.5048616529 -0.2594100535 0.8232989311
-0.19631284 0.30550167 1.325 0.1003342345 -0.8850218058 0.4546091557
-0.12396785 0.16667134 1.2426001 -0.9353656173 -0.3018882275 0.1842678189
-0.31488878 0.17571253 1.1957692 0.4212026894 -0.5774659514 0.6993721128
-0.092507862 0.18682317 1.3120002 -0.8283767104 -0.08491463959 0.5536980629
-0.34448111 -0.015115994 1.1656317 0.5257734656 0.3988815844 0.7513026595
-0.10315945 0.23632884 1.3038751 -0.8453288674 -0.2227092683 0.4856126606
-0.20526887 -0.026842512 1.1553332 0.1099422649 0.7560667396 0.6451944113
-0.12579291 0.29500043 1.3252727 -0.5933617949 -0.6457959414 0.480488658
-0.25676236 0.06388589 1.1231765 0.1995405406 0.1969470233 0.959893465
-0.054924041 0.14724319 1.3330001 -0.6484926939 -0.4896044731 0.5828762054
-0.37168825 0.13770066 1.1810001 0.3991511166 -0.4531209171 0.7970946431
-0.29504478 -0.015243709 1.1428951 0.2306850851 0.3504941463 0.907710433
-0.33751667 0.20930417 1.25 0.1952232867 -0.7067942619 0.6799483299
-0.21456093 0.085239105 1.1175599 0.09935326129 -0.08695581555 0.9912455082
-0.10243041 0.085190862 1.1645557 -0.7949888706 -0.4442597032 0.4130690098
-0.21302211 -0.10178889 1.197 0.04129295796 0.5000026822 0.8650388122
-0.33382338 0.0042591388 1.1564666 0.4491507709 -0.08465313911 0.8894366026
-0.2689054 -0.10564867 1.161 0.6886277795 0.1859799922 0.700858891
-0.15512295 -0.075858593 1.1465241 0.08685686439 -0.3799423873 0.9209232926
-0.15667424 -0.0035243335 1.1279999 -0.1183766127 0.4775781035 0.8705780506
-0.18148315 0.033353657 1.1190001 0.1504520625 -0.1370153129 0.9790766239
-0.13243262 0.2663686 1.2838334 -0.552946806 -0.6223134398 0.5540539622
-0.14632262 0.17461607 1.1748669 -0.6717324853 -0.5127007961 0.5347087383
-0.05937488 0.17230357 1.3280001 -0.6404227018 -0.3699562252 0.6730461717
-0.11606665 0.18529502 1.2765714 -0.8347430229 -0.124670364 0.5363407135
-0.37331447 0.15764256 1.2036002 0.07406383753 -0.7503047585 0.6569302082
-0.35785884 0.089464709 1.1730001 0.445890367 -0.3684819341 0.8157222867
-0.26238108 0.15064465 1.138 0.3643444479 -0.6625014544 0.6544806361
-0.13636392 0.0061275498 1.128 -0.3446124792 0.360088259 0.8669363856
-0.031006385 0.20245345 1.3870001 -0.5618081689 0.3726915121 -0.7385611534
-0.28469825 0.14504944 1.1440002 0.265319854 -0.6708809137 0.692476809
-0.16506347 0.2472387 1.2333335 -0.2954128087 -0.7410316467 0.6029953361
-0.18343084 -0.062912479 1.1764287 0.4186578393 0.5123294592 0.7498294115
-0.20440359 0.28881666 1.2953334 0.1247818321 -0.8511110544 0.5099406838
-0.3040821 0.2624976 1.2741538 0.2213040739 -0.7361411452 0.6396254897
-0.042220265 0.12304192 1.376 -0.9529509544 0.03720282763 -0.300832957
-0.23497628 0.095837124 1.1244998 0.1530412734 -0.2613484561 0.9530348182
-0.094980925 0.11482765 1.2145263 -0.6578965187 -0.5865321159 0.4723899364
-0.24525626 0.24399793 1.2333335 0.1184353977 -0.7768075466 0.6185006499
-0.24634157 -0.1215849 1.2060001 -0.04591862485 0.4743514359 0.879137218
-0.06311474 -0.016805699 1.2780001 0.221827358 -0.6059236526 0.7639693618
-0.26067597 0.17141727 1.1570001 0.3671515584 -0.7071076632 0.6043165326
-0.33443424 0.15431763 1.1857272 0.4442990124 -0.6689531803 0.5959026814
-0.25746208 -0.090685032 1.189 -0.1498719305 0.6192522645 0.7707561851
-0.29486814 0.16724652 1.174 0.2851302624 -0.7695037127 0.5714583993
-0.14073217 0.31576043 1.3490001 -0.348688364 -0.8713635206 0.3451696336
-0.17510563 -0.042877365 1.1569999 0.2994096577 0.516912818 0.8019694686
-0.21497904 -0.11646355 1.1324615 0.1082602963 0.3898573816 0.9144894481
-0.13608767 0.25472715 1.2658181 -0.6127987504 -0.6013925672 0.5126447678
-0.22388314 0.012548022 1.13 0.07245550305 0.08565411717 0.9936868548
-0.1628779 0.083722383 1.1235455 -0.3132487833 0.3158364296 0.8956129551
-0.45469019 -0.46249601 2.2260001 -0.279080987 0.8909665346 0.3581794202
-0.16533473 0.26245406 1.2552501 -0.2713679373 -0.8087953329 0.5217370391
-0.17384437 0.21809252 1.1935713 -0.2202711403 -0.7278895974 0.6493514776
-0.25480014 0.034159396 1.130909 0.1809591353 0.1176323891 0.9764304161
-0.31437403 0.10501017 1.142905 0.434161067 0.133967191 0.890818119
-0.069037497 0.11835 1.25 -0.6100161672 -0.6558316946 0.4447078705
-0.37482151 0.015997706 1.1814445 0.4107536674 -0.1196387112 0.903862834
-0.24439977 -0.046960402 1.1730001 -0.2425822467 0.4896357059 0.8375026584
-0.30428851 -0.033093289 1.1566364 0.2260768563 0.5427221656 0.8089140058
-0.36463287 0.18383117 1.2262728 0.1391064227 -0.6389786005 0.7565419674
-0.09288425 0.085701928 1.1843846 -0.7795951366 -0.47547701 0.4076187909
-0.35582873 0.16752924 1.2105715 0.17288284 -0.7089387178 0.6837524176
-0.15517785 0.044702593 1.1231499 0.06746440381 -0.1976329684 0.9779518247
-0.12766458 -0.09089718 1.1650001 -0.9266421795 0.09161952138 0.3646095395
-0.27465725 0.175556 1.1745001 0.3452080488 -0.6875653863 0.6388155222
-0.06953457 -0.038630318 1.2590001 0.1452290267 -0.7581489086 0.6357033849
-0.11253057 0.22506279 1.2836251 -0.8502364755 -0.1729878485 0.4971650839
-0.13428324 0.091184914 1.138 -0.5998988748 -0.2136615664 0.7710188627
-0.14171448 0.18773246 1.1930001 -0.6555384398 -0.5574748516 0.5094026923
-0.18854119 -0.10660968 1.126 -0.1372839361 0.1649533957 0.9767003059
-0.29249185 0.09513922 1.1380001 0.3127683997 -0.04701730609 0.9486650229
-0.066562273 0.017341582 1.3029091 0.2721189559 -0.5120840669 0.8146908283
-0.074442834 0.034338646 1.3153334 0.2626603544 -0.5048820972 0.8222551942
-0.090864748 0.1633265 1.312 -0.7810479999 -0.2214594185 0.5838833451
-0.045238756 0.17458867 1.3734286 -0.3087643087 -0.6453971267 0.6986609697
-0.17424433 0.19560343 1.1661114 -0.1151131839 -0.7499856949 0.6513604522
-0.29638723 0.19814445 1.2031429 0.3804153204 -0.5914683938 0.7109495401
-0.29440209 0.21492562 1.2184999 0.3478476703 -0.6815562248 0.6438036561
-0.2646381 0.23267481 1.2243334 0.2035797089 -0.7149610519 0.6688691974
-0.11294535 0.13230741 1.2270001 -0.7038350105 -0.6560035348 0.2725356817
-0.12678927 -0.0054591983 1.1427779 -0.4900077879 0.5218282342 0.6982747316
-0.23470068 -0.017031753 1.1427143 0.02465863153 0.6569522619 0.7535288334
-0.14147297 0.29789835 1.312 -0.3321447074 -0.7344499826 0.5918303132
-0.09633252 0.064316332 1.1544545 -0.7713273168 -0.3045441508 0.5588443875
-0.1270573 0.063035086 1.1260002 -0.3846585155 -0.3256421983 0.8637099862
-0.20534566 -0.14123678 1.1426001 0.1011173353 0.3799006939 0.9194839597
-0.13148861 0.15840752 1.1810001 -0.8395841718 -0.3890507519 0.3791278899
-0.27439529 0.26106432 1.2672001 0.1640277505 -0.7382383347 0.6542927623
-0.17657295 -0.13373235 1.1418 -0.08671230078 0.2693235278 0.9591380358
-0.34705392 -0.048957448 1.2410001 0.190769136 -0.3482577503 0.917781949
-0.29506722 0.053211171 1.13 0.2114734352 0.3682433069 0.9053595066
-0.33606258 0.23632304 1.2735554 0.4423087239 -0.6569526196 0.6105540395
-0.10530034 -0.016006181 1.1957277 0.03510216624 -0.4298520684 0.9022167325
-0.21437192 0.19168152 1.1764287 0.1510270834 -0.7701113224 0.6197736859
-0.26500013 0.0049664625 1.1328335 0.1565710157 0.1741335541 0.9721949697
-0.17297949 0.27788317 1.273 -0.1586060822 -0.8208101988 0.5487392545
-0.22527574 -0.074808799 1.1880587 -0.118901521 0.4233603179 0.8981249928
-0.2654466 0.19466005 1.1873997 0.2793644965 -0.5305685401 0.8002827764
-0.33560643 0.19161624 1.2256668 0.4798997045 -0.5934878588 0.6461179852
-0.19505395 0.16904676 1.141 0.009881572798 -0.6570692062 0.7537655234
-0.23484603 -0.11692419 1.1380001 0.430780232 0.4069009721 0.8055184484
-0.1435647 0.024091033 1.1232001 -0.2260141373 0.2237929553 0.948068738
-0.04940455 0.20901924 1.4450001 -0.6162682176 -0.7652025819 0.1862216592
-0.12204558 0.14587843 1.1950001 -0.9095414281 -0.2928586304 0.2949036956
-0.22565724 0.22747871 1.2117144 0.07348920405 -0.7405123115 0.668012619
-0.19404028 0.12494361 1.13 -0.1267852634 -0.01414837316 0.9918292761
-0.37226975 0.067901634 1.1676668 0.6593097448 0.01832641289 0.7516480684
-0.2126271 0.044552319 1.1260002 0.06215452775 -0.02169112489 0.9978308082
-0.19512162 -0.018011641 1.1414 0.09005700052 0.7017133832 0.7067446709
-0.28403163 0.2441939 1.2427143 0.240221709 -0.7652278543 0.5972602963
-0.27483928 0.11154213 1.1332726 0.2022863179 0.1607046574 0.9660508633
-0.086500697 0.0058824331 1.21 0.0138064567 -0.5098550916 0.8601495028
-0.32081467 0.063991904 1.138 0.4787010849 -0.07713175565 0.8745833039
-0.10423566 -0.080261461 1.189 -0.4875782728 0.3959300816 0.7781431675
-0.32777193 0.13722403 1.1623334 0.5056999326 -0.5140684247 0.6928212643
-0.1316898 -0.044659372 1.1645 -0.8493488431 -0.1129264757 0.5156104565
-0.13780423 -0.065382212 1.1474001 -0.3690737188 -0.1587438434 0.9157428741
-0.20433524 0.0059227603 1.126 0.1601002365 0.2970304489 0.9413505197
-0.12184789 0.034672167 1.13 -0.5117276311 0.1553396136 0.8449878097
-0.17559674 0.17437302 1.146778 -0.260617137 -0.6049484611 0.7524068356
-0.23484914 0.19558421 1.18275 0.07669948041 -0.615776062 0.7841792107
-0.3151713 -0.08712928 1.2270001 0.1556696296 -0.3508893251 0.9233870506
-0.22620879 0.2871187 1.2945 0.06169640645 -0.8531802297 0.5179546475
-0.20430577 -0.057812136 1.1818 0.0767197907 0.4789072275 0.8745066524
-0.25573155 -0.029313102 1.153 -0.1372947842 0.6347927451 0.7603869438
-0.12357628 0.27609795 1.3043078 -0.6000055671 -0.620452404 0.5050070286
-0.051041286 0.10208257 1.3540001 0.4176523387 -0.5859853029 0.6943974495
-0.25440326 0.25723717 1.2547144 0.09590056539 -0.8356397152 0.540841341
-0.20241094 0.10169596 1.1190001 0.1311613023 -0.2967042327 0.9459192753
-0.15504289 -0.095026277 1.1410003 -0.2165574431 -0.2491046786 0.943954289
-0.1546931 0.28115752 1.2880001 -0.2732028067 -0.7798986435 0.5631326437
-0.28291583 -0.10838667 1.1850001 0.9671290517 0.1891709119 -0.169928804
-0.22415881 0.17404248 1.1475457 0.1447047591 -0.7323582172 0.6653660536
-0.10293567 0.18489042 1.293875 -0.8328684568 -0.05861752108 0.5503581762
-0.033720549 0.25476062 1.4245001 0.5138396621 -0.6759487987 0.5282632113
-0.11866122 -0.048496325 1.177 -0.7036713362 -0.2108203471 0.6785289049
-0.084551804 0.22550726 1.3255296 -0.8496609926 -0.2779556215 0.4481259286
-0.13365485 -0.026662648 1.155 -0.7437284589 0.3957956433 0.5387149453
-0.19607387 0.31590369 1.3438572 0.07337563485 -0.8858353496 0.4581612945
-0.22512363 0.26615688 1.265 0.08937570453 -0.8268072605 0.5553393364
-0.22530861 0.063424833 1.1240908 -0.1111144423 0.3592610359 0.9265986681
-0.12814032 0.13490234 1.1570001 -0.8360792994 -0.3489331007 0.4233404398
-0.44588771 -0.43509704 2.1980002 -0.2786789536 0.8889513612 0.3634604812
-0.13927674 0.10788576 1.1332 -0.6754260659 -0.1386377364 0.7242783904
-0.16578583 0.10446524 1.1172607 -0.1211303771 -0.2226403356 0.967346251
-0.03815604 0.20801196 1.404 -0.7617247701 0.3969523311 -0.5120587945
-0.32238013 0.21203235 1.2340001 0.5301290751 -0.647793591 0.5471075177
-0.14787157 0.12299597 1.126 -0.3637122214 -0.4770502746 0.8000853062
-0.32251048 0.23508751 1.2570001 0.5208591223 -0.5801867843 0.6261701584
-0.070860088 0.12822303 1.2830001 -0.6245070696 -0.7311260104 0.2746737897
-0.26449123 0.28011516 1.273 0.05747156218 -0.7525119781 0.6560661197
-0.05046444 0.14893164 1.404 -0.9136350751 -0.1328983307 -0.3841991127
-0.043079399 0.15795779 1.365 -0.8710699081 -0.0881357342 0.4831865728
-0.17304786 0.14470668 1.1409999 -0.4064682424 -0.222982198 0.8860375285
-0.12333604 0.11551646 1.1643333 -0.862000227 -0.3535940051 0.3632174432
-0.12468168 0.0049341889 1.2107058 -0.01780413836 -0.47966519 0.877270937
-0.10583646 0.29373416 1.3565001 -0.7268901467 -0.5951402187 0.3426934779
-0.27520066 -0.015360457 1.1415219 0.04453023523 0.3773553371 0.9249972701
-0.1747957 -0.11423349 1.1358186 -0.1704681069 0.1940470338 0.966067493
-0.11104561 0.11838068 1.1950001 -0.8037337661 -0.4797863364 0.3518765867
-0.056402396 0.049062356 1.322 0.26790604 -0.5434914827 0.795514524
-0.29074651 -0.10889778 1.2060001 0.7099869251 0.2321619838 0.6648453474
-0.26472613 -0.07248798 1.1766365 -0.1187201589 0.4308183491 0.8945955038
-0.32783505 0.042116527 1.153 0.4849512279 0.4106769562 0.77211833
-0.32676154 -0.029150043 1.1626 0.4419699311 0.549402535 0.7090976238
-0.25503978 0.13490529 1.1232398 0.2590112984 -0.2526429892 0.9322471023
-0.33856851 -0.064227231 1.2418001 0.190769136 -0.3482577503 0.917781949
-0.26617879 0.21816902 1.2116001 0.2313054204 -0.754373312 0.61434412
-0.10185552 0.027876247 1.223 -0.08555923402 -0.5960915089 0.7983448505
-0.083134674 0.00637249 1.304143 0.1950042397 -0.5830634236 0.7886763811
-0.30029166 0.13069171 1.138 0.4040356278 -0.4886167943 0.7733103037
-0.24706395 0.14879313 1.13 0.1912045032 -0.6056545377 0.7724140286
-0.20487672 0.23363611 1.2148125 0.1475706697 -0.7239656448 0.6738669276
-0.1653183 0.31084496 1.3280001 0.03725731745 -0.8817048073 0.4703280926
-0.18425305 0.014022387 1.1190002 0.1116054207 0.1376567483 0.9841721654
-0.2641809 -0.1228736 1.168 0.6423743963 0.3579794765 0.6776472926
-0.16468008 0.29505402 1.3045001 -0.1281469315 -0.8114973903 0.5701318979
-0.15779781 0.21232122 1.1960001 -0.533264339 -0.6163364649 0.579446733
-0.22726093 -0.038048211 1.1730001 -0.09744650871 0.599788487 0.794202745
-0.1056624 0.14372742 1.2567273 -0.557483077 -0.6949730515 0.4541201293
-0.23263286 -0.001645211 1.126 0.08700951189 0.3913400471 0.9161235094
-0.026160609 0.23793697 1.4210001 -0.9538554549 0.2398175597 -0.1806856394
-0.24448216 0.17827018 1.1620001 0.1939295828 -0.8143586516 0.5470021367
-0.23557544 0.27681676 1.2830001 0.05272003263 -0.8061279655 0.5893880725
-0.097576603 0.2651152 1.3374447 -0.8403924704 -0.3909276426 0.3753878772
-0.22012925 0.15103038 1.126 0.04217768088 -0.5798382759 0.8136391044
-0.1932523 -0.086341821 1.193 0.03949544951 0.3744877279 0.9263903499
-0.23604074 0.21812694 1.202 0.0438702926 -0.7732656598 0.6325627565
-0.22543307 0.30694613 1.3346667 0.1532248855 -0.8840777278 0.4415072799
-0.19521701 0.069650292 1.1190001 -0.06611163914 0.4091626108 0.9100632668
-0.35570747 0.21609835 1.25 0.09997595847 -0.6822884083 0.7242150307
-0.23081757 0.028728366 1.13 0.04393196106 -0.03527230397 0.9984116554
-0.30792916 0.23998749 1.25 0.3896002173 -0.6954222322 0.6038208604
-0.37158656 0.19832654 1.243 0.199275583 -0.6480760574 0.735041976
-0.19445743 0.21252495 1.189 0.1608752757 -0.6877802014 0.7078683376
-0.29466501 0.035238788 1.1423335 0.17066966 0.1730223894 0.9700180888
-0.3613449 0.055195808 1.1660001 0.5819158554 0.2717824578 0.7664908767
-0.085762545 0.20281683 1.322 -0.8624985218 -0.06381316483 0.502020061
-0.1043622 0.037010238 1.141 -0.6843819618 0.03597766533 0.7282354832
-0.20479284 0.2513859 1.2360001 0.1379748732 -0.8314795494 0.5381492972
-0.1930538 0.043010514 1.1260002 0.1108156219 -0.1089881063 0.987846911
-0.18901898 -0.029313102 1.153 0.2120233029 0.6602953076 0.7204555869
-0.35369018 0.1161519 1.166778 0.5065304041 0.05192117393 0.8606573939
-0.06913013 0.14169769 1.307 -0.5995643139 -0.6966917515 0.3938822448
-0.37342569 0.10369093 1.1817273 0.3686308563 -0.02655084431 0.9291965961
-0.24565268 -0.10427877 1.2034999 -0.04415722564 0.4994233549 0.8652319908
-0.075948328 0.1731078 1.3266156 -0.665678978 -0.2649581134 0.6976164579
-0.089825898 0.15122588 1.2970001 -0.662871778 -0.63342309 0.3992194533
-0.098603956 0.054177999 1.2360001 0.7757831216 -0.335486412 0.5344243646
-0.24907765 0.079744227 1.123 0.1701362878 -0.2170875967 0.9612110257
-0.11778631 -0.028143629 1.189 -0.5571994185 -0.4519459307 0.6966158748
-0.32331008 0.19390149 1.2060001 0.5103057027 -0.5451239347 0.6651526093
-0.33023068 -0.093583286 1.2270001 0.1086596474 -0.316388309 0.9423860908
-0.28519765 -0.064868234 1.1744403 0.08305682987 0.3478505313 0.9338638186
-0.027623767 0.12730953 1.3700001 -0.9467034936 0.01991999522 -0.3214898705
-0.29649377 0.015474866 1.1409999 0.304454267 -0.08476130664 0.9487481713
-0.11894263 0.21898782 1.268 -0.8798238039 -0.04173149541 0.4734644294
-0.33996695 -0.053910617 1.2550001 0.190769136 -0.3482577503 0.917781949
-0.33429623 0.2225872 1.2585 0.329713583 -0.6480519772 0.6865257621
-0.23053265 0.11869979 1.1190001 -0.001748461742 0.2726210356 0.9621198773
-0.027845563 0.16465202 1.381 -0.8303066492 0.03465924412 0.556227982
-0.20721595 0.26853117 1.2640001 0.1582774222 -0.8229690194 0.5455915928
-0.33337066 0.064260043 1.1478573 0.4718491435 -0.1314406395 0.8718266487
-0.26496986 -0.039694589 1.161 -0.1179641634 0.6510823369 0.7497841716
-0.054124646 0.072222054 1.3380002 0.2846416235 -0.6438321471 0.7102530003
-0.12604041 0.20631529 1.243 -0.9217910171 -0.1944115311 0.335418433
-0.049637742 0.15133458 1.381 -0.9682148695 -0.1460198313 -0.2030719817
-0.3269819 0.093723558 1.1540909 0.5294672847 -0.007082971744 0.848300755
-0.29356322 0.27163035 1.2830001 0.1911423355 -0.688495636 0.6995987296
-0.1014071 0.25467122 1.3145001 -0.8431954384 -0.3731049597 0.3870583773
-0.34563109 0.15911674 1.202 0.2496006489 -0.7315321565 0.6344763637
-0.059044376 0.2123085 1.4330001 -0.6110244393 -0.7393453121 0.2828738987
-0.27377909 -0.092458293 1.1850001 -0.7155452371 0.1564779133 0.6808153987
-0.16573454 0.033983681 1.1186521 0.04915929586 -0.1190489829 0.9916706681
-0.35888717 0.041133199 1.1730001 0.4897571206 0.210641101 0.8460308909
-0.14528909 0.22514975 1.2257367 -0.6393304467 -0.5129314661 0.5728507042
-0.30231324 0.23079829 1.2360001 0.4016033113 -0.6478700638 0.6472859979
-0.3700366 0.15114172 1.189 0.06874264777 -0.7176769972 0.6929748654
-0.21679881 0.13282605 1.1190001 -0.1596854776 0.08598839492 0.9834157825
-0.19876489 -0.1110123 1.2060001 0.0257710889 0.4920451939 0.870188117
-0.30874974 0.18862185 1.202 0.3906056881 -0.5381344557 0.7468858957
-0.15580706 -0.036388677 1.153 0.04823316261 0.3640624583 0.9301247597
-0.12365004 0.23602994 1.265 -0.8222741485 -0.3481500745 0.450174123
-0.083112381 0.23197038 1.4150001 -0.277210772 -0.8011946082 0.5303219557
-0.1952991 0.29638609 1.3053334 0.102937296 -0.866646409 0.4881883562
-0.34497789 0.084991224 1.1656671 0.4053740501 -0.3524701893 0.8434670568
-0.053056747 0.15682252 1.3450001 -0.8405484557 -0.2345423102 0.4883320928
-0.33139315 -0.040515151 1.1850001 0.5019453764 0.6306256652 0.5919139385
-0.30805364 0.24932399 1.2640001 0.2937571108 -0.7245515585 0.6234835982
-0.34738094 0.17905128 1.223 0.2644811571 -0.6387863159 0.7224969268
-0.30498788 0.064572379 1.1332002 0.3845676184 -0.05169237405 0.9216483235
-0.13444875 0.2344287 1.2437693 -0.7327537537 -0.4581170082 0.503190577
-0.34860387 0.10180467 1.1730001 0.5892727375 0.03741146252 0.8070675731
-0.15319207 0.1570401 1.1542 -0.5404621959 -0.44816342 0.7120745182
-0.29618272 0.15911762 1.161 0.2529548705 -0.7479874492 0.6136192679
-0.34182021 0.11664488 1.1570001 0.6060059667 -0.09326075017 0.7899742126
-0.118151 0.28286964 1.317 -0.6266904473 -0.5971013904 0.500728488
-0.27494395 0.065037183 1.1240999 0.1249675229 0.05791515112 0.9904690385
-0.15894406 0.31671074 1.3430001 -0.07235103101 -0.9157696962 0.3951343894
-0.31223974 -0.079419866 1.2410001 0.1137410775 -0.2843348682 0.9519541264
-0.15228751 0.23869179 1.2320001 -0.5005605221 -0.6062800884 0.6179511547
-0.17303793 -0.074096151 1.1756668 0.565443337 0.4398961961 0.6976855993
-0.17511767 0.20828022 1.1820002 -0.1456140876 -0.712761879 0.6861246228
-0.12333619 -0.074894801 1.1756668 -0.8624945283 0.1670714915 0.4776926339
-0.2226558 0.25212494 1.245 0.08555518091 -0.8455439806 0.5270063281
-0.15568276 -0.055910338 1.1551051 0.3856253922 0.06410081685 0.9204260707
-0.2283138 0.297851 1.322 0.1655659676 -0.8865470886 0.4319978356
-0.11179575 0.2878643 1.3330001 -0.7180994153 -0.5560824275 0.4184561968
-0.33482003 0.20262571 1.2360001 0.3793681562 -0.6897488832 0.6167060137
-0.25855529 0.050522301 1.13 0.1382081062 0.397439003 0.9071608186
-0.21052361 0.18030491 1.149 0.1220792308 -0.7651314735 0.6321949363
-0.33410904 0.14402919 1.1747144 0.4847637713 -0.6256880164 0.6111616492
-0.11604173 0.15446065 1.2543335 -0.7234045863 -0.5323301554 0.4396707118
-0.10175631 0.21637785 1.2945 -0.8278015256 -0.1355124563 0.5444089174
-0.3557592 0.13872135 1.182143 0.1845910251 -0.5978316069 0.780079186
-0.253995 0.27716181 1.2844286 0.01357718557 -0.7628555894 0.6464263201
-0.28201538 0.19306761 1.189 0.3390828073 -0.543176949 0.7681026459
-0.36564037 0.025750101 1.1748668 0.4379988313 -0.09562817216 0.8938748837
-0.17405351 0.073957682 1.1248748 -0.2222543657 0.3344623744 0.9158263803
-0.11172579 0.24585932 1.293875 -0.7893000841 -0.3029308021 0.5340770483
-0.23507132 0.23693393 1.2251335 0.09628538787 -0.7514912486 0.6526791453
-0.19500558 0.26540846 1.2547143 0.1288123429 -0.832880795 0.5382536054
-0.21462214 -0.085925922 1.1930002 0.009408340789 0.3947569728 0.9187374115
-0.14665405 0.13168935 1.138 -0.3815071583 -0.5363875031 0.7528218627
-0.28374407 0.12317146 1.126 0.2747511864 -0.07502236962 0.9585840702
-0.074241392 -0.0064925933 1.2880001 0.191134721 -0.5143638849 0.8360008001
