# .PCD v0.7 - Point Cloud Data file format
VERSION 0.7
FIELDS x y z normal_x normal_y normal_z
SIZE 4 4 4 4 4 4
TYPE F F F F F F
COUNT 1 1 1 1 1 1
WIDTH 512
HEIGHT 1
VIEWPOINT 0 0 0 1 0 0 0
POINTS 512
DATA ascii
0.02396719 -0.052286051 1.1445556 -0.4578666091 0.6514807343 -0.6049223542
0.042279001 -0.14287387 1.6630001 0.9683076739 0.2229420543 0.1125926822
-0.31399921 0.054068416 1.1860001 -0.5637344718 0.6058155894 -0.5614186525
-0.050022598 0.21898782 1.268 0.4887349904 0.7691400647 -0.4117786288
-0.19181378 -0.17235443 1.057 0.3436543047 0.696189642 -0.6302552819
-0.12880777 0.10065974 1.0470001 0.3509263694 0.5691397786 -0.7435930371
0.050219849 0.070307791 1.273 -0.378090471 -0.7222136259 -0.5791848302
-0.075510725 -0.05444048 1.0015831 0.3470273018 -0.3338310122 -0.8764296174
-0.19230413 0.16578089 1.1943334 -0.3495434821 0.8258597255 -0.4424647689
-0.24070811 -0.018443312 1.052 -0.6284254193 0.244479388 -0.7384519577
-0.047533993 0.11481641 1.1678572 0.6794266701 0.3539260626 -0.6427407861
-0.07349097 -0.17974296 1.01 0.2215182483 -0.2904803157 -0.9308871031
-0.022094192 0.037140861 1.0725 0.4913748801 0.6867025495 -0.5357148051
-0.2852143 -0.11601763 1.1028333 -0.7601252794 0.1028479114 -0.6415854692
-0.22639094 0.086611956 1.1120002 -0.5477536917 0.5428604484 -0.6366069913
0.051346954 0.18424495 1.2919999 -0.7565399408 0.4844098389 -0.4393113256
0.0018484517 -0.10549149 1.0525001 0.8007127047 -0.2745700777 -0.5324194431
-0.15095937 0.01324205 1.0070001 -0.288538903 0.1143562347 -0.950614512
-0.16506167 -0.084673308 1.0244 -0.1659438759 -0.4130211473 -0.8954753876
-0.3043856 -0.023672894 1.1251001 -0.8338394165 0.08697783202 -0.5451115966
0.035263039 0.03422419 1.1830001 0.1937916428 0.4971649349 -0.8457374573
-0.14516197 0.20943215 1.2640001 -0.29395473 0.8984713554 -0.3260979652
-0.1259782 0.15260564 1.1248751 0.14026317 0.8320993185 -0.5365975499
-0.00762437 0.13511711 1.243 0.8153139353 0.4743694365 -0.3320192993
-0.094410859 0.19316509 1.1947143 0.01977466419 0.8372045159 -0.5465322733
-0.25987118 0.11078174 1.1810001 -0.7032755613 0.5993237495 -0.3823800087
-0.074725844 0.024995795 1.0130002 0.04071577266 0.5790898204 -0.8142464161
-0.11783242 -0.18279131 1.0769999 -0.08398779482 -0.3387700319 -0.9371130466
-0.20578258 0.055928957 1.0441428 -0.4986599982 0.572516799 -0.650816977
-0.041553646 -0.046255916 1.0724001 0.3663938046 0.203587845 -0.9079138637
-0.071425542 0.08879932 1.1010001 0.7518924475 0.5885526538 -0.2970917523
-0.09619803 -0.11703324 1.0424 -0.4189727902 -0.5572564006 -0.7168871164
-0.23599887 -0.09486828 1.0534091 -0.58629179 0.05920007452 -0.8079339862
-0.27141774 0.033567566 1.0940001 -0.7836777568 0.4384905994 -0.4399717748
-0.0069773896 0.064791799 1.1370001 0.8003525138 0.4266324043 -0.4212132692
-0.14417945 -0.19230844 1.01675 -0.4551034272 -0.5912716389 -0.6657918096
0.018368317 0.096212655 1.194091 0.2966299653 0.7160086036 -0.631935358
-0.17345153 0.12153906 1.0965716 -0.4472221136 0.7202831507 -0.5302684307
-0.039540295 0.18060298 1.2190001 0.5908743739 0.5762840509 -0.5645920634
-0.28041849 -0.056650199 1.077 -0.6934287548 0.02629535459 -0.7200452089
-0.18488616 -0.029023413 1.031 -0.1648130566 -0.3900133371 -0.9059394598
-0.039338958 -0.14713389 1.0600001 0.1627897471 -0.7415590882 -0.6508376598
-0.012803278 0.0078799184 1.1235001 0.2635193765 0.7790914774 -0.5688356757
-0.20347258 0.13195498 1.149 -0.4459614754 0.7697921395 -0.4566600919
0.047893353 0.12244228 1.2360001 -0.1523287743 0.2153656185 -0.964579463
-0.14660969 -0.13674517 1.0600002 -0.0518774651 -0.3117431104 -0.9487491846
0.0034560394 0.16348101 1.3132501 0.234299615 0.655847609 -0.7176124454
-0.046989378 -0.09648893 1.0256315 0.631712079 0.3214864433 -0.7053979635
-0.0386617 -0.015286963 1.0256001 0.8543775678 -0.24913764 -0.4560366571
-0.082012668 0.067270644 1.0511429 0.6395366788 0.527528882 -0.5592013001
0.0059625795 -0.085998185 1.1048946 -0.2487218976 0.8422781825 -0.4782310426
-0.14572632 0.18473484 1.1747502 -0.1894798577 0.8785559535 -0.4384481907
-0.29908273 0.029008023 1.141 -0.5864447355 0.6266536117 -0.5132132173
-0.12519532 -0.035262443 1.0056666 -0.3369050026 0.1475696564 -0.9299022555
0.060763519 0.065032884 1.2160002 0.1814490855 0.6391400695 -0.7473795414
-0.077964246 0.15169787 1.149 0.6269475222 0.4514226317 -0.6349443793
0.018793603 -0.017015724 1.1815716 -0.7071530223 0.4504655302 -0.5449912548
-0.12812132 0.05721302 1.0220002 -0.2159575224 0.5143731236 -0.8299292922
-0.1953651 -0.12264156 1.0470001 -0.01652884483 -0.5166648626 -0.8560281396
-0.28456238 0.1055821 1.2235715 -0.7100253701 0.6205631495 -0.3328142464
-0.10958771 0.12102295 1.087 0.4625126421 0.7036739588 -0.5393746495
-0.26633888 0.064108141 1.13 -0.7194506526 0.4994577467 -0.4826310575
-0.083164103 0.21925084 1.2320001 0.2180543691 0.8398011923 -0.4971782565
-0.118812 -0.082185745 1.0190001 0.001544969738 -0.5833647251 -0.8122088909
-0.25300854 -0.13252473 1.0737778 -0.5637081861 -0.312774241 -0.7644640803
-0.17315811 0.092598572 1.0562501 -0.4836506248 0.7433746457 -0.4620349109
-0.24272598 0.030975919 1.05475 -0.6376423836 0.4008273482 -0.6578370929
-0.044420596 -0.13729559 1.0050588 0.4638854563 0.2148626596 -0.859444201
0.031239724 0.13737951 1.2880001 -0.4757931232 0.7010096908 -0.5312309265
-0.1610463 -0.19154027 1.087 -0.1363812089 -0.5217160583 -0.8421475291
-0.27375174 -0.01271613 1.0852727 -0.6840610504 -0.2265767753 -0.6933422685
-0.02833299 0.14376369 1.197 0.7304944396 0.2763731778 -0.6244964004
-0.19397426 0.013752395 1.0360001 -0.4588702023 0.2555697262 -0.8509537578
-0.12461571 0.207335 1.2254002 -0.1713171452 0.8975374699 -0.4062966108
-0.03281714 0.068529911 1.1010001 0.3171023428 0.8174130917 -0.4809178114
-0.0068561179 -0.062926158 1.0504446 -0.09527780861 0.4931249321 -0.8647253513
-0.0093145836 0.18245625 1.25 0.6738210917 0.4509131908 -0.5853567123
-0.20723924 -0.064163759 1.0426 -0.4164783955 0.03328173235 -0.9085362554
-0.22838219 0.14247411 1.1950001 -0.5224994421 0.7499216795 -0.40572384
-0.17211361 0.056577142 1.0190001 0.01697279513 -0.0108751934 -0.9997968078
-0.0041413731 0.047625795 1.1810001 0.9251394868 -0.349965632 -0.1471088529
-0.29245672 -0.07783097 1.1157142 -0.7991366386 -0.3661217093 -0.4767971635
-0.033273008 -0.0080802366 1.0845 0.2607012689 0.6927229166 -0.6724357605
-0.084595375 -0.015168697 0.99747831 -0.02285656705 0.0725864768 -0.9971001744
-0.16534734 0.14617793 1.1308889 -0.514085412 0.7082520127 -0.4838339388
-0.11256613 -0.17628276 0.99757153 -0.02656423114 -0.3694838285 -0.9288573861
-0.037795551 0.023443121 1.0364001 0.6112670302 0.4931121171 -0.6190258861
-0.076491974 0.11225858 1.1332 0.8342903852 0.4438021779 -0.3271072209
-0.11468203 0.01881502 1.0220001 0.234448716 -0.01580189914 -0.9720000625
-0.09546081 -0.15488179 1.0603461 -0.1304215938 -0.3334517777 -0.9337023497
-0.2336462 0.10506797 1.1458 -0.5925725102 0.7008610368 -0.3970536292
-0.062281616 0.16589622 1.1818891 0.6618193388 0.4851835966 -0.5714823008
-0.04761133 -0.053055864 1.0345001 0.9023259282 -0.0928093195 -0.4209445715
-0.28560573 0.080261461 1.189 -0.6103172898 0.6656431556 -0.4294555187
-0.039147548 0.084321305 1.145 0.2594058812 0.8910918832 -0.3723759651
-0.23282088 0.062948905 1.0825001 -0.6260396242 0.6678635478 -0.4025328159
0.070716314 0.092475176 1.2410001 -0.3024861217 0.0103692282 -0.953097403
-0.24590231 -0.055898719 1.0521334 -0.4098772407 -0.3811579049 -0.8286852837
-0.0069340826 0.1532536 1.276 0.7998424172 0.5081044436 -0.3195028305
0.043464255 -0.021226728 1.153 -0.6640077829 0.4525966346 -0.5951889753
-0.11446198 0.17118022 1.1554 0.1145296097 0.8693777323 -0.4806925952
-0.082391568 -0.14440462 1.001 0.1849775165 0.07730761915 -0.9796973467
-0.017940355 0.10540928 1.1938572 0.511977613 0.554238379 -0.6562764645
0.036422871 0.16003989 1.2590001 -0.912291348 0.3172902763 -0.2589427531
-0.16586471 -0.20173264 1.0452858 0.4636950493 0.884703815 -0.04781287909
-0.20241532 0.088378519 1.0840001 -0.5198753476 0.7582787275 -0.393373847
-0.13473022 -0.1066094 1.0423334 0.01735249721 -0.6152310967 -0.7881558537
-0.21471302 -0.14733957 1.0713999 -0.2014584988 -0.5564649701 -0.8060776591
-0.08307907 -0.090225659 1.0190001 -0.2496051043 -0.3764915764 -0.8921610713
-0.25822359 -0.08497832 1.0825455 -0.6723949313 -0.01426974032 -0.7400550246
-0.14334923 0.12216503 1.074 -0.2228553146 0.8390468359 -0.4963223934
-0.052529864 0.059096098 1.0700001 0.4904402196 0.7479822636 -0.4472034574
-0.0035205963 0.085714132 1.1654444 0.408811003 0.809194088 -0.4219935238
-0.017359972 0.03296157 1.1480001 0.9157408476 -0.3920490444 -0.08784220368
-0.29772019 0.0079937968 1.1120001 -0.8415070176 0.2611552775 -0.4729312062
-0.20517768 0.11334101 1.1145002 -0.5192193985 0.6673766375 -0.5338723063
0.035569519 0.092883013 1.2524 -0.6062175035 -0.5250409842 -0.5973544121
-0.095103785 0.1339529 1.1161 0.4333022237 0.734888792 -0.5217160583
0.040220588 -0.065726332 1.1190001 -0.3647158444 0.7016778588 -0.6120706797
-0.15466921 -0.044976689 1.0172189 -0.4611357749 0.134575367 -0.8770651221
-0.28682765 0.055962268 1.1667144 -0.6004790068 0.6062497497 -0.5214270949
0.01721072 0.11509669 1.2270001 0.4768704474 0.8212018013 -0.3134042323
-0.092865296 0.098493494 1.0700001 0.5338960886 0.7224958539 -0.4392660856
-0.0087421201 0.047595989 1.108 0.8048571944 0.4761959314 -0.3541784286
-0.15282002 0.080980465 1.028 0.05424258485 0.4019738138 -0.9140431285
-0.03392183 -0.12445222 1.0347002 0.6897999048 -0.3866491914 -0.6121098399
-0.18515518 0.15436259 1.163 -0.4126133025 0.8162264824 -0.404381752
-0.096419461 0.055026837 1.0246087 0.4885373116 0.3929409683 -0.779056251
-0.16810434 0.18290597 1.2060001 -0.4651535153 0.8054075241 -0.3673567176
-0.29752508 -0.045047514 1.1026001 -0.7093059421 0.3289661109 -0.6234311461
-0.14615786 0.13746513 1.1016667 -0.3196063936 0.7731550336 -0.5477983952
-0.034979001 -0.080083497 1.0500001 0.08096949011 0.57380265 -0.8149812818
-0.00099414005 -0.068595663 1.1340001 -0.3387972414 0.7481949329 -0.570456624
-0.14698905 -0.014282551 1.0220002 -0.1881210506 -0.1294589341 -0.9735763073
-0.16505809 -0.11462697 1.0460004 0.05430166796 -0.5588021874 -0.8275212646
-0.21459857 -0.015582024 1.0351306 -0.4350527227 0.2833618224 -0.8546550274
-0.16369557 -0.16182478 1.067 0.1060525477 -0.4172624648 -0.9025768042
-0.1142049 -0.20240699 1.0137501 -0.1910727173 -0.5633687377 -0.8038077354
-0.059147824 -0.02913251 1.0070001 0.5914469957 -0.1016864851 -0.7999064326
-0.056555521 0.20449223 1.2341819 0.5524579287 0.6768767834 -0.4864442647
-0.19489178 -0.095179707 1.0340003 -0.2300251573 -0.2721294165 -0.9343628883
-0.1247067 0.19282737 1.1954001 0.06055824459 0.8796611428 -0.4717297852
-0.065023556 0.044425011 1.0340911 0.3615631461 0.7233350873 -0.5882673264
-0.22496212 -0.12420907 1.0550001 -0.2897007167 -0.4764919877 -0.8300776482
-0.010318367 -0.040335432 1.0700001 -0.08317361772 0.5493772626 -0.8314245343
-0.015653584 0.15546367 1.223 0.8133674264 0.3059228659 -0.4948177338
-0.25818455 0.0035335801 1.0609001 -0.5864923 -0.1541577578 -0.7951491475
-0.1156345 -0.13377705 1.0569999 0.003369267099 -0.3701196909 -0.9289779663
-0.17554127 -0.005345562 1.0164003 -0.2221146524 -0.0833748877 -0.9714492559
0.025295954 0.12319648 1.2546999 -0.01817556284 0.9126755595 -0.408280462
-0.074473269 -0.12202717 1.0235001 -0.8068912625 -0.03246575966 -0.5898071527
0.021203937 0.073655784 1.273 -0.2834178507 -0.7551848888 -0.5910753608
0.015178606 -0.10149521 1.082 0.7517720461 -0.6585820913 0.03329274431
-0.14504215 0.16409652 1.1436667 -0.07604923099 0.874618113 -0.4788106382
-0.11483233 -0.0082168616 1.0070001 -0.2641962469 0.2629733086 -0.9279252887
0.039455697 0.0025620586 1.169 -0.6798720956 0.4170582891 -0.6031884551
-0.053394508 0.0055011529 1.0118002 0.6370651126 0.2053059936 -0.7429653406
-0.067416914 0.19320558 1.2042857 0.4946325123 0.6741378903 -0.5485223532
-0.22439077 0.0049473904 1.054353 -0.279610604 -0.04222561046 -0.9591845274
-0.015439305 0.12567422 1.2148751 0.7510358095 0.4591159523 -0.4745079279
-0.10446738 0.083507933 1.0453124 0.1915094107 0.697691083 -0.6903269291
-0.038484205 -0.025248585 1.0536667 0.9180281162 -0.1302308589 -0.3745188117
-0.10211092 -0.061501965 1.0070001 -0.04492335394 -0.4406965375 -0.8965313435
-0.085384898 0.17179616 1.1672223 0.3093860745 0.7490777373 -0.5858009458
-0.0570485 0.14108402 1.169 0.6548305154 0.3399385512 -0.6750102043
-0.0086553302 -0.010578737 1.097 0.2427593768 0.7415953875 -0.6253832579
-0.24864897 0.088166364 1.13 -0.6058929563 0.6181734204 -0.5007548332
-0.18471757 -0.14444935 1.0599999 -0.09143854678 -0.3970507681 -0.9132303596
-0.22442971 -0.044079158 1.035682 -0.1762053668 -0.3323509693 -0.9265497923
-0.057100806 0.081713222 1.123 0.5066464543 0.7964467406 -0.3301241994
-0.14783229 0.038525995 1.0220001 -0.3334897757 0.4591307938 -0.8233975172
-0.23794749 0.12515774 1.1750001 -0.5980197191 0.6689307094 -0.4414794445
0.013428307 0.064942859 1.1643847 0.9589147568 -0.178517133 -0.220486179
-0.25171572 0.042865317 1.077 -0.6045320034 0.5715376735 -0.5548745394
-0.26507956 -0.035105366 1.0738572 -0.7309260964 0.3406477273 -0.5913596153
-0.13153769 -0.060913429 1.0070001 -0.1884842068 -0.3219052851 -0.9278203845
-0.17896098 -0.054682523 1.031 -0.4581390023 0.1038601696 -0.882791996
-0.22294509 0.03457924 1.0380001 -0.3644483984 0.05356907472 -0.9296815395
-0.20713954 0.14611235 1.1744547 -0.4469831288 0.7831580043 -0.4322841763
-0.30690113 0.037769429 1.1643333 -0.6032631397 0.6107722521 -0.5128653049
-0.07846605 0.11721472 1.105 0.7665318847 0.5174944997 -0.3803002834
0.038988873 0.051633913 1.202 0.134863019 0.5619876385 -0.8160771132
-0.028695054 0.091209278 1.169 0.4898670614 0.6889790297 -0.5341705084
-0.035866186 0.20384224 1.2523333 0.5312339067 0.7197752595 -0.4468937814
-0.19387366 0.038113669 1.0270001 -0.2829164863 -0.2064127326 -0.9366707206
-0.18730554 0.12914133 1.1245 -0.4074314237 0.794212997 -0.450805217
-0.1349391 -0.16535991 1.0685 -0.01543646958 -0.3660668433 -0.9304605126
-0.24336793 0.064316936 1.1060001 -0.5757759809 0.6657021642 -0.474681586
-0.024370207 0.079022102 1.1247143 0.2501473129 0.8840842843 -0.3947421014
-0.1789452 0.099413998 1.08 -0.47735852 0.7559615374 -0.4479408562
-0.28139377 -0.088354409 1.0955 -0.764259398 -0.03939331323 -0.6437046528
0.022710845 -0.035316993 1.1631819 -0.6243756413 0.554320991 -0.5503483415
-0.17277004 0.024308281 1.0268461 -0.3703159392 0.1854683608 -0.9102019668
-0.19748332 0.077532277 1.0618571 -0.5100182295 0.6589912176 -0.552821815
-0.11564723 0.041491758 1.0070001 0.1997902691 0.2738088369 -0.9408041835
-0.28719565 -0.016870573 1.1059999 -0.7979907393 -0.02766183577 -0.6020345688
-0.16428559 -0.17880552 1.0353333 -0.4889580309 0.54570961 -0.6805300117
-0.058376707 -0.075513795 1.0182 0.6592808962 0.01137205027 -0.7518107295
-0.10148995 -0.034996536 0.99800009 -0.1100280657 -0.03969209641 -0.9931356311
-0.12129473 0.13866849 1.1010001 0.2623012364 0.816296339 -0.5146439075
-0.058422823 0.10274358 1.149 0.6492478848 0.5335185528 -0.5420656204
-0.28100848 0.010549807 1.0940001 -0.8046672344 0.2384686619 -0.5437309146
-0.26716396 -0.1143608 1.0825833 -0.6812277436 -0.002974553732 -0.7320655584
0.048760198 0.072598517 1.2360001 -0.1007117555 0.6985676289 -0.7084210515
-0.095538244 0.0065522068 1.0100001 -0.2572796047 0.4082859159 -0.8758480549
-0.05460855 -0.11489135 1.011182 0.3097241223 0.2934502959 -0.904410243
-0.073704623 0.076795511 1.0719999 0.6673451662 0.6490159631 -0.3652789593
-0.014596078 -0.094965518 1.0380001 0.08966132998 0.07165368646 -0.9933914542
0.0073762736 0.051633913 1.202 0.5416571498 -0.1347220242 -0.8297333717
-0.21493454 -0.10518169 1.0432802 -0.2904670537 -0.2223046422 -0.9307038188
-0.071766563 0.12533879 1.153 0.7334781885 0.2941504717 -0.6127684712
0.033590361 0.14194636 1.2360001 0.09215070307 0.3073643446 -0.947119534
-0.10245078 0.21236898 1.2173334 -0.1029665321 0.8262308836 -0.5538415313
0.06132108 0.04334766 1.2060001 0.3419040143 0.4990599751 -0.7962667942
-0.16961834 0.16649829 1.187 -0.4619065523 0.8162823319 -0.3468796909
0.0040706554 0.1346636 1.266 0.5206045508 0.7746552229 -0.3589989245
-0.13728599 -0.1959876 1.08 -0.1219194755 -0.4075083435 -0.9050263166
-0.17461081 0.07453113 1.0346668 -0.4743413627 0.5901492834 -0.6532412171
-0.09876702 0.15064465 1.138 0.394010663 0.6838799119 -0.6140552759
-0.11453386 0.18057142 1.177 0.0752620697 0.8570908904 -0.5096379519
-0.28166011 0.033891346 1.126 -0.7202694416 0.5516551137 -0.4205812216
-0.0032933445 0.15822081 1.2533334 0.9716468453 0.1756907701 -0.1582249403
-0.12472074 0.21964094 1.2590001 -0.2437360734 0.9233134389 -0.2967911363
-0.07985469 -0.13309115 1.0470001 -0.4759997725 -0.4993623793 -0.7239208817
-0.22313678 0.05741173 1.0620002 -0.619048655 0.6211301684 -0.4805997014
-0.15206046 0.10065974 1.0470001 -0.2908970416 0.7272696495 -0.6216572523
-0.051633913 0.16965428 1.202 0.6089588404 0.52148664 -0.5976795554
-0.10580578 -0.095812768 1.0323045 -0.200500831 -0.5701709986 -0.7966834307
-0.25162348 -0.10476518 1.067 -0.7004535198 0.05773748085 -0.711358726
-0.21492448 0.11641695 1.135 -0.5487272143 0.7123194337 -0.4376064837
-0.036515795 0.12506264 1.1849999 0.7295806408 0.2620061636 -0.6317158341
0.030030217 -0.080403484 1.105 -0.3037649393 0.8059612513 -0.5080879331
0.0052757799 0.11188459 1.204 0.1697402 0.8309355378 -0.5298437476
0.0079285735 0.14724493 1.2920001 0.4418192506 0.7664968371 -0.4661312699
-0.030030217 0.00096871669 1.105 0.2300921977 0.7607515454 -0.6068893075
-0.22438073 0.12576081 1.155 -0.554659605 0.6759789586 -0.4851856828
-0.092142045 -0.16761078 1.001 0.2041925639 -0.2140792608 -0.9552358389
-0.14510371 -0.075176783 1.0177816 -0.1881523877 -0.4560321569 -0.8698467612
-0.19594026 -0.044958886 1.0421054 -0.275241822 -0.2160380483 -0.9367867708
-0.2652024 0.02449788 1.0746499 -0.703066349 0.4312604666 -0.5654308796
-0.054085068 0.068609685 1.09 0.4746019542 0.8073976636 -0.3505168259
-0.014031927 0.086176336 1.1430001 0.383017987 0.878265202 -0.2862646878
-0.24489003 -0.074616343 1.0639545 -0.5868684053 -0.2167818397 -0.7801224589
-0.046333671 0.043985154 1.0551819 0.5057736635 0.703476727 -0.4993130267
0.0030423254 0.032439586 1.1563333 0.8836176991 -0.4663543403 -0.0416344814
0.011903004 0.0546395 1.1450002 0.9632380009 -0.04308136925 -0.2651725709
-0.22533475 -0.073719375 1.0502667 -0.4640959203 0.04818276316 -0.8844735026
-0.096858434 0.034017216 1.0187273 0.2796737552 0.197702691 -0.9395191669
-0.025981769 0.17458028 1.2350001 0.6725958586 0.4450449049 -0.5912274122
0.02916144 0.097204804 1.2320001 0.710190177 0.437984556 -0.5511800647
-0.075501032 0.0061469367 1.0014284 -0.04857997224 0.3357990682 -0.940680027
0.038908221 -0.037910573 1.138 -0.6259051561 0.4859466553 -0.6099988222
-0.12594588 0.11451089 1.0634999 0.3639205396 0.7192411423 -0.5918226242
-0.12501766 0.074288242 1.0350001 0.1339896619 0.5414910913 -0.8299603462
-0.2855733 0.046598777 1.1430001 -0.6890388727 0.5665479898 -0.4519388974
-0.14714849 0.15009147 1.1190001 -0.2013103515 0.8122282028 -0.5475029349
-0.27902544 -0.033444833 1.09 -0.6539512873 0.3136723936 -0.6884456277
-0.096842669 -0.19280142 1.0057501 0.09329108149 -0.421970576 -0.9017968774
-0.077102542 0.18346053 1.1867778 0.3572215736 0.718816936 -0.5964016914
-0.18683733 -0.075664602 1.031 -0.3454982936 -0.07323355973 -0.9355574846
-0.028435558 -0.062632576 1.0600001 -0.2550970018 0.5472822785 -0.7971246243
-0.25547865 -0.014659619 1.0712173 -0.6927790642 -0.1178676635 -0.7114523053
0.01863618 0.079721436 1.1810001 0.3917613029 0.6689456105 -0.6316919923
-0.25276873 -0.036295287 1.0552354 -0.6965287328 0.2111510336 -0.6857572198
-0.24603948 0.10661231 1.1626002 -0.6019973755 0.6498464346 -0.4640029669
-0.13015869 0.011510633 1.01 0.2122620791 -0.1927117109 -0.9580224156
-0.16432892 -0.024902692 1.0267776 -0.190053612 -0.1360857189 -0.9722964168
-0.064592235 0.055897202 1.0526429 0.4804316163 0.705239296 -0.521366477
0.044300422 0.17294073 1.2759999 -0.825835228 0.4554193318 -0.3325498402
-0.01593714 -0.1236793 1.04505 0.4601361156 -0.4621488154 -0.7580852509
-0.04708511 0.15271074 1.187 0.5998546481 0.4716840088 -0.6462882757
-0.0152295 -0.023512242 1.0821579 0.3135536313 0.6238588691 -0.715880096
-0.18890326 0.058749817 1.031 -0.4675022662 0.42561391 -0.7747867107
-0.060270835 0.21807083 1.25 0.5116323233 0.7389648557 -0.4383644164
0.017416881 -0.068676464 1.1245 -0.3265024126 0.7563322783 -0.56688416
-0.035238493 0.057125188 1.0810909 0.3937834501 0.7613043785 -0.5151215196
-0.28389212 0.092635609 1.2053336 -0.6934951544 0.6423447132 -0.3262786567
-0.057185344 -0.15333438 1.0035714 0.2634755671 0.002198645379 -0.9646635652
-0.19447123 -0.0056853769 1.0243331 -0.5035953522 0.2087259889 -0.8383467197
-0.13474616 -0.092070431 1.0273076 -0.04442169145 -0.6356518269 -0.7706967592
-0.054211393 0.025885498 1.0244544 0.5398594141 0.5474063158 -0.6394514441
-0.035005301 0.15805423 1.21 0.6370044947 0.4982161224 -0.5882226825
-0.11291654 -0.16316105 1.067 -0.03261765465 -0.3337043822 -0.9421132803
-0.11425871 0.097786151 1.0608572 0.346090436 0.6920058131 -0.6335214376
-0.22073589 0.0774009 1.09 -0.6220541 0.6960723996 -0.3585134745
-0.18290013 0.14304131 1.1463335 -0.4654826224 0.7522162795 -0.4663652778
-0.15368931 0.16997427 1.161 -0.3280336559 0.8203120232 -0.4684891403
-0.029740039 0.0027036399 1.028 0.8126557469 0.01178210136 -0.5826249719
-0.034754965 0.19278717 1.2346667 0.5495522022 0.6312330365 -0.5472999215
-0.26496232 -0.055045195 1.0641999 -0.5844106674 -0.1428763866 -0.7987806797
-0.11523375 -0.11156753 1.046 -0.1205660179 -0.565887928 -0.8156192303
-0.084412731 0.13691203 1.1328572 0.7261392474 0.4543048143 -0.5160706639
0.0091602895 -0.049872689 1.161 -0.491171658 0.6503093839 -0.5795240402
0.048760198 0.097520396 1.2360001 -0.1423597932 -0.2722223103 -0.9516452551
-0.0047200983 0.018462224 1.1427144 -0.7175220847 0.6492624283 -0.2522307336
-0.20623167 0.096750908 1.1035833 -0.5527117848 0.6060573459 -0.5720176101
-0.0023347824 0.092644602 1.184 0.1305253357 0.7913732529 -0.5972365141
-0.15490484 0.05471728 1.031 0.1139563024 -0.02553210221 -0.9931576252
-0.18821596 0.10906873 1.1010001 -0.4924075305 0.6311613917 -0.5993080735
-0.16220199 -0.065467842 1.0190001 -0.3500499725 -0.1083910093 -0.9304388165
-0.23247768 -0.14191422 1.0650001 -0.2827890217 -0.5967863202 -0.7509170771
-0.27268076 0.0038990374 1.0741429 -0.7260764241 -0.02647822909 -0.6871039867
-0.033297554 -0.026228547 1.0749999 0.6131266356 0.325596869 -0.7197654843
-0.065244272 -0.13539526 1.0038286 0.1737448275 0.2643737495 -0.9486407638
0.027340604 0.0034622487 1.1843334 -0.6676377058 0.4223807156 -0.6130696535
-0.071599998 0.21052536 1.2190001 0.3899250627 0.7594063878 -0.5208266377
-0.059257116 -0.051514979 1.0190001 0.761679709 -0.2607744038 -0.5931616426
-0.2160501 0.07374081 1.0714999 -0.598364234 0.6541278362 -0.4626845419
0.00099063327 0.048541032 1.13 0.9394018054 -0.04099043086 -0.3403586149
-0.02603963 0.026505139 1.0515001 0.6073907018 0.5578402281 -0.5655889511
-0.085001595 -0.069949232 1.0100001 0.01692735218 -0.4286474586 -0.9033132195
-0.018105797 0.050505642 1.087 0.5698107481 0.6544973254 -0.4969395995
-0.16442086 0.13416776 1.1158464 -0.4716180265 0.7245467305 -0.5026017427
0.045691136 0.13451426 1.2508334 -0.8414322138 0.1849170476 -0.5077376962
-0.11350203 0.19836336 1.21 -0.0780223757 0.8536444902 -0.5149791837
-0.13198173 0.13102879 1.087 0.0448525548 0.8445854187 -0.533538878
-0.064971693 -0.095226221 1.0151603 -0.008336659521 0.1020182967 -0.9947475791
-0.13424835 0.21064985 1.245 -0.2693825364 0.9005137682 -0.3413326442
0.040103115 0.18791175 1.307 -0.6334878802 0.5731000304 -0.5198552608
-0.13153769 0.030898117 1.0070001 -0.2190929204 0.2918801904 -0.9310232401
-0.17433542 0.04239168 1.0318002 -0.02554868348 -0.1659604758 -0.9858013988
-0.2018788 0.030145058 1.0419999 -0.2661248446 -0.274407357 -0.9240552783
-0.19428071 0.17411038 1.2110001 -0.3985586762 0.8150703907 -0.4204892814
-0.050193548 -0.073921412 1.041 0.8152791858 0.1469402611 -0.5601146817
-0.27324298 -0.071404509 1.086 -0.5381734371 -0.5078296065 -0.6726651788
-0.16401468 -0.13065577 1.057 0.05403359979 -0.4000163376 -0.9149138331
0.043066148 0.016143093 1.1812353 -0.5658507943 0.4965835214 -0.6581927538
-0.17471617 -0.10100778 1.0380001 -0.01148150302 -0.4816131294 -0.8763087392
-0.013273609 0.038811203 1.1650001 0.9399518371 -0.3184050322 -0.1229178607
-0.045405198 -0.055598199 1.057 0.8324897289 0.1681767255 -0.5278990269
-0.075468726 -0.035101738 1.0009998 0.3352794051 -0.06392762065 -0.9399473071
-0.13119316 -0.20218125 1.0250001 -0.3333806694 -0.6478582621 -0.6849357486
-0.13539819 -0.12468601 1.052308 -0.05746085569 -0.4234813154 -0.9040806293
-0.18760666 -0.1604037 1.0700001 0.03820845857 0.03085079044 -0.9987934232
-0.1543466 -0.10254776 1.0380001 -0.03639105707 -0.5844942927 -0.8105813265
-0.014666458 0.06689544 1.1156001 0.6393001676 0.6338031888 -0.4354180396
-0.031558644 0.10560939 1.1820909 0.6722734571 0.4119993448 -0.6150649786
-0.23394902 0.09772554 1.126 -0.5318384767 0.6510910988 -0.541505456
-0.081726372 0.087428212 1.0840001 0.7373773456 0.5829696059 -0.3412052691
-0.23022494 -0.0272994 1.0380001 -0.4451684654 0.09318743646 -0.8905847073
-0.29144782 -0.062111832 1.09 -0.8118031621 -0.3347580135 -0.4784482419
-0.14270204 0.11212303 1.057 -0.1273841411 0.7776527405 -0.6156536937
-0.24594492 0.013721279 1.0516471 -0.4805971682 -0.0448720865 -0.8757926822
-0.12203375 0.15904398 1.141 0.1249455214 0.8290189505 -0.5450837016
-0.0010721633 0.11901013 1.223 0.4037101269 0.7955325842 -0.4518252909
-0.2074219 -0.085185885 1.0416429 -0.4137773812 -0.01467398927 -0.9102598429
-0.20474844 -0.13815098 1.0600001 -0.1245008186 -0.6047459245 -0.786626935
-0.086728953 0.084210336 1.0531054 0.6129099131 0.5949404836 -0.5199877024
-0.095228173 -0.13517226 1.0554585 -0.3003440499 -0.4520414174 -0.8399118781
-0.059147824 -0.011476443 1.0070001 0.6091461182 -0.04074077308 -0.7920108438
-0.17309877 -0.17489976 1.0741817 0.3107534349 -0.3898749053 -0.8668505549
-0.29428631 0.071973808 1.1762002 -0.5269219875 0.6421371102 -0.5567882657
-0.083481021 0.1059925 1.0925001 0.7079260945 0.53360039 -0.462721616
-0.041244976 -0.13748457 1.0455 0.6348766685 -0.5300413966 -0.5621278286
-0.23516172 0.044879489 1.064 -0.6439512968 0.6010338068 -0.4733763039
-0.13498926 0.17232248 1.1552857 -0.04321080074 0.8729634285 -0.4858679771
-0.15742816 0.11675183 1.0827143 -0.460477829 0.7454124689 -0.4819962382
-0.022635972 0.022638602 1.135 0.9075778127 -0.4165464342 -0.05283529684
-0.16524553 0.10515967 1.0710001 -0.5080512166 0.7365639806 -0.4464946091
-0.041306064 -0.11365258 1.0222729 0.6433480382 0.2146017402 -0.7348805666
0.048109714 0.02823831 1.1930001 0.2390780002 0.4713934362 -0.8488992453
-0.29452166 0.02229197 1.1251001 -0.5942876339 0.6157522798 -0.517369628
-0.20127095 -0.02433276 1.028 -0.3428991437 -0.2212131172 -0.9129539728
-0.10484584 0.068692088 1.031 0.2272715271 0.608145237 -0.7605964541
-0.24185216 -0.11490295 1.057 -0.5559535027 -0.258695513 -0.7899318337
-0.20720021 0.0048330007 1.0424999 -0.5232231617 0.2028449178 -0.8277025223
-0.042980336 0.097574234 1.1618 0.6225486994 0.5674929619 -0.5388736725
-0.22507429 -0.056585003 1.0518183 -0.2506093383 -0.3832856119 -0.8889809251
-0.15658203 -0.19520503 1.0324445 -0.6010814905 -0.5518554449 -0.5780628324
0.0036819999 -0.076401502 1.0500001 0.4104814827 0.2757698596 -0.8691696525
0.0062661944 -0.055985145 1.1430001 -0.3383701444 0.739682138 -0.5817009211
-0.045818105 0.075063705 1.1120001 0.2276048511 0.9171329141 -0.3272052109
-0.068243243 0.15389211 1.1676668 0.6897791028 0.4093592465 -0.5971848965
-0.05611841 0.19268379 1.217 0.5870220661 0.649084866 -0.4838325679
0.029289609 -0.016998742 1.1682 -0.6902294755 0.4561804235 -0.5616784692
-0.25194961 0.095359415 1.1450001 -0.5675355196 0.7197166681 -0.3998891711
-0.15536816 -0.174394 1.0747142 -0.06819214672 -0.511736989 -0.8564316034
-0.03020292 0.0082371598 1.044 0.8191256523 0.1243830621 -0.5599660873
-0.062821493 0.09411148 1.133 0.6996278763 0.5887609124 -0.404822737
0.013078114 0.12313572 1.243 0.2958894372 0.8634003401 -0.4086432159
0.00090997998 -0.088268057 1.0380001 0.3554029167 0.1176070794 -0.927284956
-0.19244672 0.071287908 1.0470001 -0.5307899714 0.6212225556 -0.5764933228
0.040687852 -0.053585373 1.1320001 -0.4815070629 0.5821428895 -0.6551798582
-0.084985867 -0.10533678 1.0262691 -0.4518980682 -0.3639770746 -0.814437747
-0.07550481 -0.16506217 1.0014999 0.2482544482 -0.1632907242 -0.9548329115
0.064466946 0.077192254 1.2324446 -0.06527616829 0.6019383073 -0.7958701849
-0.085446067 0.04579502 1.0332224 0.3947458863 0.5320677757 -0.749052465
-0.12576075 -0.1467209 1.0600001 0.01910115406 -0.327208519 -0.9447590709
-0.16610292 0.088074565 1.0418571 -0.426338017 0.6992563009 -0.5738261938
-0.11396678 0.14473477 1.1165714 0.3363031447 0.7871505022 -0.5170050859
-0.067351818 0.094101839 1.1161667 0.773368001 0.567940414 -0.2816835344
-0.21430027 0.13592903 1.1632856 -0.4723355174 0.7457641959 -0.4698243439
0.022779483 0.10623324 1.2142001 0.628809154 0.705570817 -0.3267551064
-0.29131824 -0.004799312 1.0955001 -0.7918365598 -0.05877752975 -0.6078981161
0.034548383 0.083377555 1.2658666 -0.3489055336 -0.6913733482 -0.6326671839
-0.024831785 -0.045421448 1.0641538 -0.07914667577 0.377862066 -0.922472775
-0.13132524 0.20212251 1.2113334 -0.03369364515 0.9035152793 -0.4272292852
-0.093997516 0.16504739 1.1549999 0.3217951357 0.7468206286 -0.5819852352
-0.046553813 -0.036915734 1.0372001 0.9455395937 -0.220744729 -0.2392209768
-0.29524294 -0.029812803 1.097 -0.7021641135 0.2387944311 -0.6707777381
-0.013288339 0.16754168 1.2426001 0.7056968212 0.4179570973 -0.5721047521
0.040545832 0.11835 1.25 -0.6445931196 0.2560214102 -0.7203837633
-0.22181858 0.051094767 1.0470001 -0.5473446846 0.5719440579 -0.6109777093
-0.094928972 0.18057142 1.177 0.1424389929 0.8049106598 -0.5760468245
-0.12420236 -0.18551338 1.0041304 -0.2115727663 -0.5344192982 -0.8183110356
-0.16457339 0.014992352 1.0156251 -0.454026252 0.3173870444 -0.8325416446
-0.24324211 -0.0013899549 1.057 -0.4609808922 -0.1461191177 -0.8752975464
0.023919148 0.1312249 1.275 0.1850223392 0.9044056535 -0.3844699562
-0.088569291 0.064422265 1.0350002 0.5842881203 0.4478310645 -0.67679739
-0.27390572 -0.070352502 1.0700001 -0.522434175 -0.5094920397 -0.6837253571
-0.036683239 0.21009491 1.268 0.5290840268 0.7250916958 -0.4408084154
-0.075635381 0.036615223 1.0238945 0.1679910421 0.6505730152 -0.7406306267
-0.034903169 -0.094724275 1.0358751 0.3835104108 0.4274318218 -0.8186707497
-0.10302556 0.12731574 1.104 0.4444285631 0.7214192152 -0.5310720801
-0.30707881 -0.053616934 1.1120001 -0.9234319925 -0.1136983261 -0.3665325344
-0.25516641 0.075230345 1.1234612 -0.6447007656 0.4179843068 -0.6400390863
-0.15880904 0.12788491 1.1023334 -0.4247509837 0.7567673922 -0.4968799949
-0.13830468 -0.043032058 1.01 -0.407738328 0.09689273685 -0.9079434276
-0.061705936 0.17779677 1.1930001 0.5798363686 0.5769181252 -0.5752871633
-0.31338599 0.026834328 1.155 -0.5962071419 0.6334630251 -0.4932155907
-0.11626055 -0.045752827 0.99800009 -0.1669260263 -0.1590855718 -0.9730505943
-0.17685103 -0.17629504 1.0540001 0.6025882363 0.7139223218 -0.3566544652
-0.13489145 -0.024844222 1.0122502 -0.4267657399 0.2126982659 -0.878993988
0.0025348817 0.07246045 1.156 0.7212988138 0.4929876924 -0.4865091443
-0.085042089 0.20569687 1.2125623 0.1123246327 0.7800343633 -0.6155725121
-0.22555554 0.016508965 1.0438697 -0.2175989896 -0.2461768985 -0.9444827437
-0.014637146 -0.075512089 1.0454549 -0.105800502 0.385335207 -0.9166913629
-0.1347151 -0.0052640825 1.0185865 -0.1796373725 -0.2109270245 -0.9608538747
-0.17829472 0.0089595336 1.0220001 -0.469039768 0.3004761934 -0.8304912448
-0.10482311 -0.075511247 1.0133002 -0.05290424079 -0.5356495976 -0.8427814841
-0.13694607 0.084256209 1.0362501 0.2824673057 0.4412238002 -0.8517826796
-0.258003 0.048733901 1.09 -0.59589535 0.6372032166 -0.4887543619
-0.096654691 0.11236959 1.0862499 0.4617306888 0.7190905213 -0.5193395615
-0.14468935 -0.15524346 1.0617777 -0.05175703019 -0.3504067957 -0.9351664782
-0.18082039 0.081690431 1.0470001 -0.5211192966 0.6706832051 -0.5278434157
-0.25656423 -0.068229213 1.072 -0.4733656347 -0.516051352 -0.7138739228
-0.15156718 -0.02888412 1.0190001 -0.375097692 0.1262494028 -0.9183478951
-0.27237362 0.043614458 1.1056668 -0.7685161233 0.5468286872 -0.3322067261
-0.27999067 0.057615411 1.153 -0.7021915317 0.5522471666 -0.4493885636
-0.0011326533 0.15970412 1.2920001 0.4910730422 0.7338680029 -0.469345361
-0.10523461 0.1647345 1.1445296 0.243936196 0.7687189579 -0.5912413001
-0.032524332 0.039338958 1.0600001 0.4962823391 0.6907176375 -0.5259401202
-0.11896805 0.21719855 1.245 -0.2503253222 0.9163327217 -0.3125245869
0.032506801 0.11160668 1.2360001 0.2790981233 0.3720964789 -0.8852391839
-0.13388994 0.043441024 1.0181667 -0.3770913184 0.4972883463 -0.7813491225
-0.11289012 0.058236968 1.0220001 0.1562867463 0.5489395857 -0.821121037
-0.038634699 0.0802413 1.13 0.1610650569 0.921756804 -0.352735579
-0.0073762736 0.097999059 1.202 0.08835741132 0.7537903786 -0.6511474252
0.046847817 0.06200964 1.2105715 0.2161499411 0.6156061292 -0.7578313351
-0.06165655 0.077798903 1.1046667 0.619795382 0.7312527895 -0.2848211527
-0.25162348 0.03086831 1.067 -0.6363916993 0.5070579052 -0.5812898874
-0.026486028 -0.13438721 1.0466 0.5021880269 -0.5509265065 -0.6665486693
-0.1150981 -0.024599086 1.0021999 -0.2892966568 0.2016647309 -0.9357557297
-0.1998011 -0.1491473 1.0700001 -0.2328662574 -0.2728438079 -0.9334503412
-0.14913414 -0.089480489 1.031 -0.1115085408 -0.5915552378 -0.7985162735
-0.11632472 0.11339353 1.0758889 0.4812063575 0.674590826 -0.5597925186
-0.2768681 -0.10732879 1.0917143 -0.6988326311 0.1232585236 -0.7045851946
-0.19241366 0.091735937 1.0732501 -0.4726290107 0.774759233 -0.4199642241
-0.013203477 0.11435284 1.2050002 0.5176893473 0.5840770006 -0.6251814365
-0.026386058 0.12354935 1.1960001 0.7230684161 0.3063632548 -0.6191232204
-0.0065149483 -0.052112136 1.0615001 -0.07822566479 0.5380145907 -0.8392979503
-0.21294585 -0.12024097 1.0470001 -0.1856423765 -0.4522663057 -0.8723486066
-0.082645059 -0.12344135 1.0359231 -0.5389777422 -0.5267620683 -0.6572858691
-0.18223795 -0.020546436 1.0190001 -0.1577507257 -0.3794364035 -0.9116703272
-0.10534079 0.17509207 1.1666 0.1292666495 0.8561477661 -0.5003010035
-0.2317705 0.07020434 1.097 -0.6380842328 0.6474851966 -0.416667074
-0.13539368 0.19241653 1.1850001 -0.02790815197 0.8768917918 -0.4798769355
-0.050850172 0.03867152 1.0419999 0.5207989216 0.6699696779 -0.5290642977
-0.060050789 0.11908377 1.161 0.6151191592 0.3565582931 -0.7032030821
-0.17233203 -0.037350286 1.028 -0.3795646429 -0.03773474693 -0.9243953824
-0.16963938 0.14956371 1.1450001 -0.4985567331 0.7367733121 -0.4567343593
-0.30027324 0.050216343 1.169 -0.6094817519 0.582002461 -0.5383355618
-0.11153216 0.19075127 1.189 0.05215213075 0.858335495 -0.5104315281
-0.0077260635 0.14017287 1.2590001 0.8668567538 0.4407202899 -0.2330773175
0.0081749167 -0.078806199 1.1190001 -0.2817057669 0.7988198996 -0.5315342546
-0.087928787 -0.042433299 0.99800003 0.05617695674 -0.1777228415 -0.9824758172
0.013510836 0.15548174 1.306 0.02186096646 0.7192249894 -0.6944332123
-0.22248572 0.10242316 1.118 -0.5285020471 0.6138891578 -0.5863665342
-0.29353973 0.046794891 1.1554 -0.6163656116 0.6104415059 -0.4974480867
-0.11492501 0.0051110489 1.0132816 -0.02145168185 0.1663394272 -0.9858351946
-0.26153508 -0.098193675 1.077 -0.6537681818 0.1465382427 -0.7423703074
-0.16451158 -0.14499332 1.0601999 0.008562423289 -0.3031973541 -0.9528893232
-0.19503643 0.15612262 1.1737275 -0.4039118886 0.8143318892 -0.4167957902
-0.0181996 -0.11101756 1.0380001 0.4063927531 -0.2396779954 -0.8817025423
-0.12507218 0.085318856 1.044778 0.3038152754 0.556910038 -0.7730119228
0.036683239 0.067808412 1.268 -0.4984143376 -0.6433647275 -0.5810894966
-0.24469697 0.054441974 1.0834209 -0.569111526 0.6716575623 -0.4743292332
0.021022467 -0.090778835 1.09 -0.2528056204 0.8562412858 -0.450488776
-0.14441502 0.064816222 1.0310882 0.01363263372 0.17230241 -0.9849497676
-0.022704849 0.14535752 1.2102666 0.7911764979 0.273834765 -0.5468584895
-0.071246691 0.13740434 1.1610001 0.7270327806 0.2492434382 -0.6397663951
-0.078572564 0.10282467 1.1065 0.8176630735 0.4719239771 -0.3297194242
-0.15506184 -0.0054231388 1.0139095 -0.0303511247 -0.3425578177 -0.9390063882
-0.043055952 0.0053825136 1.0232497 0.7016450167 0.2032779753 -0.6829146147
-0.11783653 0.026635149 1.0061001 0.2843751311 -0.09121031314 -0.954364419
-0.065326393 -0.044799265 1.0047241 0.4845090508 -0.2500867248 -0.8382765651
-0.023058584 0.18526308 1.2441428 0.5981693268 0.5438594818 -0.5885663033
-0.20510033 0.044657055 1.0330771 -0.4321730435 0.1335839182 -0.8918418288
-0.016348956 0.060587309 1.097 0.591686666 0.6623180509 -0.459610343
-0.047846053 0.21284962 1.25475 0.4936469495 0.7495495081 -0.4410082102
-0.052014388 0.089024626 1.141 0.5944411159 0.6609615088 -0.4580061436
-0.069949232 -0.12130436 1.01 -0.2751609683 0.5521908402 -0.787001729
-0.19331178 0.14416103 1.1559999 -0.4645046294 0.7497634888 -0.4712644815
-0.04276906 -0.02092954 1.0380001 0.9227278233 -0.2681162059 -0.2769242823
-0.11741284 -0.06248286 1.0070001 -0.08641500771 -0.4286380112 -0.8993341327
-0.10535895 -0.12478229 1.0530802 -0.1687817574 -0.4917625189 -0.8542144299
-0.28812 -0.044299722 1.0906668 -0.6560970545 0.3306366503 -0.6783922315
-0.055564571 0.18397392 1.2041819 0.5757974386 0.6104212999 -0.5439146161
-0.15236501 -0.11846677 1.0508001 0.004594710656 -0.5475534201 -0.8367580771
-0.047331527 0.13420394 1.1765556 0.6757947206 0.3169454932 -0.6654675007
-0.1766578 0.13779554 1.1308 -0.4630159438 0.7510424852 -0.4706925452
-0.15585694 0.15645838 1.1324 -0.3976548016 0.800324142 -0.4487225711
