# .PCD v0.7 - Point Cloud Data file format
VERSION 0.7
FIELDS x y z normal_x normal_y normal_z
SIZE 4 4 4 4 4 4
TYPE F F F F F F
COUNT 1 1 1 1 1 1
WIDTH 512
HEIGHT 1
VIEWPOINT 0 0 0 1 0 0 0
POINTS 512
DATA ascii
-0.15714777 -0.11178552 1.2320001 0.4434221089 -0.7616532445 0.472505182
-0.4302417 -0.39250118 1.7220001 0.9027650952 0.0005855101626 0.430133462
-0.029415673 -0.36382544 1.766 -0.138113901 0.8199205399 0.5555671453
-0.32131585 -0.14557576 1.4960001 0.8656275272 -0.1225374714 0.4854621589
-0.25091341 -0.37377617 1.1843334 0.6736301184 0.07269636542 0.7354846597
0.023054579 -0.10387973 1.414 0.5416556597 0.6560865045 0.5255089402
-0.058129136 -0.26586932 1.087 -0.2436609417 0.1968116909 0.949681282
-0.10880134 0.050852802 1.3490001 0.07010618597 -0.3424017727 0.9369344711
-0.31472248 -0.23263805 1.3150001 0.6952225566 -0.5631682873 0.4466621578
-0.22543439 -0.065447554 1.3825002 0.5933043957 -0.0477887243 0.8035584092
-0.20211451 -0.22685902 1.1357143 0.6914377809 -0.3335707188 0.6408153772
-0.0077260635 -0.089401588 1.2590001 -0.6891120076 -0.5132644773 0.5115507245
-0.055952083 -0.14508043 1.1466001 -0.6989037991 -0.45835042 0.5490431786
-0.15150991 -0.34114167 1.115 0.2696062624 0.3330628574 0.9035383463
-0.26104853 -0.17280678 1.3980001 0.6055114269 -0.03001911007 0.7952702641
-0.23779027 -0.19131994 1.2423334 0.6239461899 -0.6858655214 0.3745392561
-0.10470875 -0.056722902 1.3166429 0.4205231071 -0.3509807289 0.836643815
-0.021965761 -0.00244064 1.3920001 -0.7738009095 -0.5700187683 0.2762440145
-0.29281193 -0.28212535 1.2190001 0.764829576 -0.3513054848 0.5400186777
-0.12426219 -0.18712723 1.097 -0.1243638992 -0.2712968886 0.9544273615
-0.28767991 -0.06491892 1.452 0.7475646138 -0.2933006883 0.5959210396
-0.18535002 0.016787792 1.3818572 0.6600615978 -0.4287824333 0.6168178916
-0.078011937 -0.099385068 1.2190001 0.05544075742 -0.888455689 0.4556015432
-0.16488522 -0.14961807 1.161 0.6814631224 -0.7079449892 0.1855315119
-0.16416353 -0.10232034 1.3450001 0.5160246491 0.2544167638 0.817918539
-0.21615261 -0.30332726 1.1542307 0.555824697 -0.06247686967 0.8289484978
-0.031114215 -0.027654888 1.3145001 -0.8267989755 -0.4783060849 0.2960181832
-0.30295497 -0.21257764 1.452 0.6702752113 -0.2223022133 0.7080345154
-0.13885236 -0.26350233 1.101 0.3887366652 -0.135423243 0.9113420844
-0.027261412 -0.21119718 1.1240001 -0.3746142983 -0.4902764559 0.7869517803
-0.24951772 -0.24537638 1.1810001 0.6927677393 -0.4263584316 0.5816281438
-0.00119665 -0.0622258 1.365 -0.3776646256 -0.5569554567 0.7397094369
-0.16600823 -0.035320904 1.3430003 0.4839142263 -0.1482457072 0.8624675274
-0.094175041 -0.31097382 1.1190001 -0.325566709 0.6185606718 0.7151147127
-0.18916757 -0.37224934 1.1570001 0.3109538853 0.4866913259 0.8163573146
-0.024672557 -0.13138393 1.2028 -0.4794773161 -0.6999233961 0.5293474793
-0.21190554 -0.13791953 1.376 0.3619917035 0.003391927807 0.9321751595
-0.29381034 -0.34311724 1.2346668 0.8383516073 0.2732927799 0.4716754258
-0.28617677 -0.12738511 1.4330001 0.8078890443 0.05296834558 0.5869494081
-0.20712116 -0.19463004 1.1872224 0.7119057178 -0.6196651459 0.3304623067
-0.11084193 -0.12594046 1.1743335 -0.1691367924 -0.7968308926 0.5800459385
-0.059147824 -0.061379816 1.273 0.6244632602 -0.5855304599 0.5169136524
-0.054247472 0.026241703 1.3452501 -0.2104856968 -0.6770682931 0.7051767707
-0.23785719 -0.15970412 1.2920001 0.6487998366 -0.6148246527 0.4483852983
-0.28589153 -0.2327024 1.2640001 0.8155189157 -0.5009968281 0.2897085845
-0.19908983 -0.15084745 1.2320001 0.7506833673 -0.499173373 0.4327822328
-0.25623652 -0.31794244 1.1930001 0.514723897 0.5282936096 0.6752519608
-0.22688484 -0.01353924 1.4039999 0.6619724035 -0.4098231792 0.6275647283
-0.11455014 -0.0046763043 1.3333126 0.297858417 -0.2584182322 0.9189670086
-0.075705513 -0.21565095 1.0958999 -0.2911405563 -0.4126717448 0.8630986214
-0.17476617 -0.29455903 1.1246876 0.6656109691 0.02378225699 0.7459198833
-0.16655877 -0.19218093 1.1242001 0.6002491117 -0.4075236619 0.6882045269
-0.25151843 -0.1153539 1.3968002 0.5905379653 -0.01690378971 0.8068327904
-0.11526533 -0.15544435 1.1340001 0.1421733052 -0.8146755695 0.5622192025
-0.019471643 -0.16909584 1.169 -0.4221024811 -0.6031472683 0.6767886281
-0.31205565 -0.1022921 1.4770001 0.9234266877 0.04295413941 0.3813634813
-0.11691906 -0.086393528 1.2435 0.2972917259 -0.7802523971 0.5502942801
-0.057782851 -0.10834285 1.177 -0.1537305713 -0.7644200325 0.626122117
-0.15283953 0.021666525 1.348 0.4498261213 -0.3277057409 0.8308221102
-0.26252005 -0.064391166 1.4125 0.6967697144 -0.1597147137 0.6992875934
-0.07528536 -0.17554884 1.1176665 -0.1763626784 -0.4701938033 0.8647624254
-0.30402425 -0.16744158 1.4580001 0.7522255778 -0.1737799644 0.6355763078
-0.26568523 -0.22435434 1.2245002 0.6507264972 -0.6544232965 0.3850781322
-0.014119434 -0.061720368 1.292909 -0.6079987288 -0.6765934825 0.4154019654
-0.044824935 -0.074268475 1.233778 -0.2157129645 -0.751521647 0.6234445572
-0.26612884 -0.1934422 1.2755001 0.6490259171 -0.6445111036 0.4041915536
-0.22551611 -0.34494328 1.1624001 0.6147331595 0.06911789626 0.7857008576
-0.19666922 -0.023119893 1.37 0.6378123164 -0.2295993567 0.7351731658
-0.16521785 -0.14277545 1.2025713 0.496278435 -0.6386894584 0.5880335569
-0.25510445 -0.28453267 1.1665558 0.4667460024 0.160408482 0.8697225451
-0.02138694 -0.023758762 1.3552501 -0.7597121 -0.539844811 0.362498343
-0.16506432 -0.23451197 1.1173999 0.3630573452 0.1135475934 0.9248223305
-0.071161009 -0.014978727 1.3145001 0.4345454276 -0.3777923584 0.8175837398
-0.19154814 -0.3329646 1.138 0.4543044865 0.1513484865 0.8778958321
-0.10305329 -0.24558541 1.087 0.130153507 -0.05482954532 0.9899766445
-0.1350729 -0.30471587 1.1014799 0.2445037812 0.3668797016 0.8975617886
-0.19598681 -0.09641023 1.37 0.4104186296 0.2837266326 0.8666347265
-0.14216596 -0.073554963 1.3265001 0.3298338056 0.2122151554 0.9198773503
0.032180898 -0.082709782 1.37225 -0.4158648849 0.4777417183 0.7738341093
-0.22401711 -0.26502529 1.1474618 0.4531485736 0.1619124413 0.8766075373
-0.12614603 -0.22558105 1.1120001 0.141559884 -0.2276937068 0.9633879662
-0.091460876 -0.08016941 1.2880001 0.6745768189 -0.6313102245 0.3826140761
0.00122032 -0.035389278 1.3920001 -0.7623404264 -0.5360691547 0.3625836968
-0.28527522 -0.20056468 1.4210001 0.8483657837 -0.1274605989 0.5138378143
-0.1856313 -0.18385716 1.1554999 0.7851597071 -0.4907068014 0.3777977228
-0.10483499 -0.28518811 1.0916364 -0.07834713906 0.3458426595 0.9350157976
-0.11832369 -0.11121511 1.2160001 0.3500801027 -0.7850097418 0.5110808611
-0.23714641 -0.21222591 1.2044001 0.5712184906 -0.7054329515 0.419611454
-0.21568513 -0.14576219 1.266 0.7280074954 -0.5126743317 0.4551594257
-0.038341016 -0.17826316 1.136 -0.4195827544 -0.6083627939 0.6736801863
-0.27362618 -0.35368761 1.2051113 0.706612289 -0.2370429486 0.6667156219
-0.18722883 -0.064257033 1.3545556 0.6028308272 0.06306396425 0.7953727841
-0.045421395 -0.23485109 1.1024399 -0.3527236879 -0.3499113023 0.8678410649
-0.0413699 -0.10077284 1.21 -0.7117661834 -0.5209628344 0.4711545706
-0.28746778 -0.31822997 1.21 0.5687460303 0.646959424 0.5079088807
-0.13388453 -0.0349264 1.3280001 0.2391547114 -0.2317789197 0.9429122806
-0.2746014 -0.25559723 1.2042222 0.7934875488 -0.3138063252 0.5214432478
-0.086165749 0.016365677 1.3333572 0.3169548213 -0.3947000504 0.8624103069
-0.22349711 -0.21871926 1.1676668 0.6992945075 -0.5018803477 0.5090219378
-0.18905228 -0.26707387 1.141 0.4291545153 0.2558194995 0.8662463427
-0.046115294 -0.030368609 1.2830001 0.5147547722 -0.7153269053 0.4725832641
-0.27493477 -0.094638452 1.4242001 0.6733208299 -0.1464058161 0.7247098684
-0.082479432 -0.076980539 1.2545 -0.03329675272 -0.8512383699 0.5237218738
-0.18678786 -0.16789919 1.197 0.6959545612 -0.6286256909 0.3470979333
-0.1826193 -0.11725634 1.253 0.6095607877 -0.701434195 0.3693585098
-0.029302234 -0.055741094 1.2566001 -0.6006550789 -0.5073467493 0.6179100275
-0.31155944 -0.24182412 1.2830001 0.7339327335 -0.5439822674 0.4067260325
-0.30022764 -0.10007589 1.4450001 0.8567431569 -0.02167485096 0.5152876377
-0.25508776 -0.034537449 1.4240001 0.7059960365 -0.3297564089 0.6267617345
-0.036226496 -0.0011685967 1.3330001 -0.8153287172 -0.438554734 0.3780328035
-0.14617066 -0.16667254 1.1260002 0.2259914875 -0.5818421841 0.7812730074
-0.084714934 -0.12027428 1.1930001 0.08774652332 -0.8224800229 0.5619850159
-0.29053435 -0.24949232 1.2320001 0.8039670587 -0.412814945 0.4280430079
-0.28091511 -0.28560573 1.189 0.8231723309 -0.275054872 0.4967213869
-0.075051494 -0.045883968 1.3063333 0.5693002939 -0.4662415683 0.6771380901
-0.086928517 -0.14050074 1.153 0.2926267982 -0.8629626036 0.4119042754
-0.10778266 -0.088080451 1.322 0.5816020966 0.02331258729 0.8131393194
-0.045683853 -0.1463376 1.1767143 -0.5574712157 -0.5881587863 0.5859138966
-0.01613505 -0.10864267 1.2270001 -0.5750495195 -0.5851858258 0.5717303753
-0.23478958 -0.15205187 1.3920001 0.4827280343 0.02531573735 0.8754043579
-0.28029224 -0.16443813 1.4210001 0.8288903832 0.05613707006 0.5565872192
-0.098460183 -0.20179464 1.1120001 0.2363445163 -0.4306324124 0.8710321784
-0.16926715 -0.0040358226 1.3540001 0.5599986315 -0.2603334188 0.7865291238
-0.21123779 -0.17632836 1.2190001 0.6370927095 -0.6095762253 0.4717305601
-0.16610143 -0.26533255 1.1160476 0.6385897994 -0.08968456089 0.7643034458
-0.0081494935 -0.043075893 1.3280001 -0.6162915826 -0.7310189009 0.2929095924
-0.24329075 -0.085768126 1.3958182 0.629057467 -0.1244292259 0.7673357129
-0.29449248 -0.21944807 1.2970001 0.7481568456 -0.5264219046 0.4039075971
-0.075283602 -0.28421372 1.1033334 -0.2423792928 0.5474199057 0.8009892106
-0.30160838 -0.13861153 1.4640001 0.856459856 -0.004668549169 0.5161925554
-0.26718685 -0.21301466 1.2525001 0.6724523306 -0.6405792832 0.3707641661
-0.14119154 -0.13850778 1.1476668 0.199837938 -0.8089419603 0.5528813004
-0.26699758 -0.13597099 1.41 0.6800546646 -0.03148925677 0.7324848771
-0.2359774 -0.17400806 1.2654285 0.6437374353 -0.6081005335 0.4645598233
-0.24781063 -0.34517235 1.1815001 0.6919371486 -0.0652557835 0.7190025449
-0.21750084 -0.37323678 1.1626002 0.4103333056 0.3512786925 0.84156394
-0.077122122 0.043438397 1.34825 -0.05211696029 -0.6680877805 0.7422550321
-0.13956621 -0.13117126 1.197 0.411886394 -0.7703862786 0.4866770804
-0.1248005 0.024724629 1.3430003 0.2059112936 -0.224225089 0.9525353909
-0.23754422 -0.30952734 1.1730001 0.5559789538 0.3293952048 0.7631422877
-0.22474125 -0.035399426 1.3857144 0.6085367203 -0.2707797289 0.745896399
-0.054870456 -0.19547103 1.1165293 -0.4072160423 -0.4989896119 0.7649735212
-0.18039082 -0.11743563 1.381 0.4259554446 0.2241579145 0.8765358925
-0.28755981 -0.18621714 1.4450001 0.7210446596 -0.09220229089 0.6867265105
-0.10373729 -0.1742631 1.1128571 -0.3900546134 -0.2755972743 0.8785803914
-0.17791337 -0.13173203 1.2250001 0.5583331585 -0.6826276779 0.4714695215
-0.2259236 -0.11417444 1.3855002 0.3873162568 0.05714813992 0.9201740026
-0.14472792 -0.2055629 1.1014999 0.3184951246 0.1218383089 0.9400618672
-0.095171906 -0.025530174 1.3238752 0.2439344376 -0.2584505677 0.9347188473
-0.17126268 -0.16727209 1.138 0.6691051722 -0.5003110766 0.549533546
-0.14520814 -0.012558542 1.3430003 0.220515728 -0.321477741 0.9208826423
-0.16517302 -0.3529745 1.136 0.4003789127 0.3494223654 0.8471131921
-0.13656276 0.04657701 1.3545556 0.2981920838 -0.3444176018 0.8902010918
-0.082470223 -0.15305287 1.13 -0.06708751619 -0.6118299961 0.7881391644
-0.16516726 -0.075855844 1.3430003 0.4932544231 0.2386614233 0.836505115
-0.21938145 -0.17135765 1.245 0.6982485056 -0.6019070148 0.3875010312
-0.074753068 -0.2459525 1.0901741 -0.1947987229 -0.06316277385 0.9788073897
-0.20458008 -0.35314909 1.1476668 0.4151671231 0.3293083608 0.8480520248
-0.11990696 -0.32267645 1.1120001 -0.1745854169 0.6322302222 0.7548542619
-0.16237357 -0.31565398 1.1167142 0.4500900805 0.2273047268 0.8635690212
-0.22059651 -0.23872773 1.149 0.6543392539 -0.3547236323 0.6678407788
-0.2051125 -0.0051896269 1.3859092 0.6397691965 -0.3850051165 0.6651815176
-0.19512235 -0.29468036 1.1433337 0.5821979046 -0.1199770421 0.8041461706
0.022834538 -0.057689052 1.3710002 -0.3752428293 -0.4432923496 0.8140544891
-0.18574066 -0.205364 1.13375 0.6872597337 -0.402387172 0.6047797799
-0.14010623 -0.095366426 1.3430001 0.3751280606 0.2685644627 0.8872159123
-0.24143925 -0.053925522 1.3980001 0.705142498 -0.1764101982 0.6867703199
-0.20519172 -0.20923491 1.153 0.7145351768 -0.5054605007 0.4836829007
-0.25816956 -0.23182574 1.202 0.6993146539 -0.5421233773 0.4658983052
-0.15441136 -0.28494075 1.1064284 0.4786164463 0.1219651476 0.8695118427
-0.019671524 -0.14184204 1.1810001 -0.2665242255 -0.6878097057 0.6751908064
-0.20637961 -0.054899793 1.3713335 0.5699505806 -0.1425142884 0.8092255592
-0.13491353 -0.10175373 1.2333335 0.2759879827 -0.7599762082 0.5884443521
0.0333662 -0.095220573 1.3938463 -0.1194704622 0.7159750462 0.6878274083
-0.3160699 -0.12196888 1.4960001 0.8890589476 0.03620323166 0.4563589692
-0.032309551 -0.0047865999 1.365 -0.7399463654 -0.6004478931 0.3032189012
-0.31059775 -0.19044882 1.4580001 0.6556509137 -0.1619203687 0.7374982238
-0.11450251 -0.1435567 1.1546469 -0.09582329541 -0.787838161 0.608382225
-0.037529223 -0.15924563 1.1570001 -0.5380919576 -0.6514550447 0.5348489285
-0.058497336 -0.0805718 1.2590001 0.4423397779 -0.7490702868 0.4931827188
-0.02415392 -0.051758401 1.312 -0.5891810656 -0.7168309093 0.3728526533
-0.26371449 -0.2643061 1.1850002 0.7323280573 -0.4258209765 0.5313869119
-0.16872765 0.017949751 1.365 0.6448761225 -0.4429621994 0.6228317022
-0.15500252 -0.054919127 1.3360555 0.4240505695 -0.06852574646 0.9030422568
-0.21287394 -0.3260262 1.149 0.5882560611 0.05658106133 0.8066928387
-0.29595828 -0.25194961 1.2550001 0.7965266109 -0.5431680083 0.2655445039
-0.25157204 -0.17658783 1.2830001 0.6081219316 -0.6402376294 0.4693436325
-0.18428646 -0.24544096 1.1251248 0.3649221659 0.2670656443 0.8919124007
-0.14858449 -0.13929795 1.177 0.5013200641 -0.8503644466 0.1598702073
-0.23918535 -0.25139907 1.161 0.6572193503 -0.3521478176 0.6663742661
-0.26528323 -0.30490467 1.1761429 0.3871326149 0.5278270841 0.7559940219
-0.028709957 -0.087585129 1.2436666 -0.6877474189 -0.4410862923 0.5765816569
-0.22551444 -0.19359815 1.2134001 0.6089396477 -0.6704480052 0.4239008427
-0.24514739 -0.20711705 1.2254002 0.5874709487 -0.7142347693 0.3804557025
-0.27545229 -0.055881612 1.4347143 0.7525458336 -0.2662364841 0.6023229361
-0.12513027 -0.24564369 1.0962499 0.4484770596 -0.2978450656 0.842707932
-0.1008868 -0.21810591 1.0960001 0.4513501227 -0.5248997808 0.7216393352
-0.15508878 -0.12370422 1.2121763 0.3804386854 -0.6968356967 0.6080184579
-0.065033875 0.0046479772 1.3246251 0.08126050979 -0.3753065765 0.9233318567
-0.26837397 -0.33201995 1.21 0.7359147072 -0.04300051555 0.6757073998
-0.062962197 -0.098640777 1.197 0.3245899677 -0.8155166507 0.4791387916
-0.068540432 -0.090299293 1.2410001 0.2415482253 -0.8416498303 0.4829906821
-0.058212418 -0.030818339 1.302 0.5946065784 -0.4675587118 0.6540885568
-0.30674216 -0.084707037 1.4640001 0.8990128636 -0.1460861862 0.4128373265
-0.092863709 -0.26625565 1.09 -0.06189939752 0.1685671955 0.9837446809
-0.10398205 -0.092924036 1.2264287 0.25374493 -0.809943378 0.5287770629
-0.19615416 -0.1347875 1.25 0.7050150037 -0.6054278612 0.3693385124
-0.18776155 -0.0020017223 1.3700002 0.6722385883 -0.3279474676 0.6637362242
-0.074121602 -0.12573086 1.1638235 0.3081750572 -0.805875361 0.5055621266
-0.29212025 -0.15378749 1.4450001 0.8538458943 -0.018285634 0.5202046037
-0.076155521 -0.19458687 1.1062351 -0.1197881475 -0.5115957856 0.8508352041
-0.055764768 -0.21561521 1.1073332 -0.3654145002 -0.3853809536 0.8473215103
-0.095872968 -0.10494927 1.2043999 0.009695741348 -0.843067348 0.537720561
-0.062792562 -0.16493455 1.1325001 -0.5631032586 -0.3789549768 0.7343758345
-0.19310249 -0.17785093 1.1754 0.746294558 -0.6013508439 0.2853447497
-0.23481122 -0.28172275 1.1570001 0.3235668838 0.3042104542 0.8959690332
-0.11582948 -0.26515821 1.09192 0.2499016374 0.04000056535 0.9674446583
-0.014324174 -0.074267454 1.2748181 -0.7867385149 -0.5041363239 0.3562149107
-0.18438528 -0.035688002 1.3569168 0.6405791044 -0.1422028542 0.7546103597
-0.20777877 -0.078067169 1.3700001 0.5433371067 0.1025488228 0.8332277536
-0.27166584 -0.11412447 1.4150001 0.6880742311 -0.05128183961 0.7238259315
-0.21792178 -0.094432779 1.381 0.4533558786 0.1205433384 0.883140862
-0.12417558 -0.16719295 1.1153077 0.2249468565 -0.7181884646 0.6584863067
-0.17479439 -0.21516967 1.1156427 0.4938515425 -0.1229633167 0.8608081341
-0.12580258 -0.054909971 1.3267368 0.2392501384 -0.1062525213 0.9651268125
-0.085505001 -0.0043981392 1.3279997 0.2743069232 -0.2541294098 0.9274556637
-0.044116054 -0.010741651 1.3128334 -0.1679850817 -0.6908881068 0.7031746507
-0.12578736 -0.28556421 1.0959232 0.2004048079 0.1716027707 0.9645674825
-0.27973381 -0.32725614 1.2320001 0.7231944799 0.3480335772 0.5965420008
-0.037694037 0.01094343 1.3870001 -0.802280426 -0.5353560448 0.2640832365
-0.2792455 -0.30852968 1.1930001 0.5636953712 0.5050961375 0.6535483003
-0.15676115 0.035386648 1.3649999 0.5830905437 -0.4888073206 0.6489012241
-0.046354152 -0.12502554 1.183154 -0.8087307215 -0.3400635719 0.4799076617
-0.243223 -0.22621767 1.1873335 0.6487842798 -0.5516403913 0.52418679
-0.25460038 -0.19664314 1.2563846 0.5931618214 -0.6780712605 0.4340257943
-0.30417529 -0.11679304 1.4640001 0.9031786919 0.1082548052 0.4153903723
-0.10478534 0.01766045 1.3430001 0.1507294774 -0.3439977467 0.9267935157
-0.054335803 -0.085229173 1.2153335 0.1445569992 -0.8919383287 0.4284265637
-0.027707197 -0.026537137 1.3355001 -0.8321251869 -0.4893992543 0.2608755529
-0.034460016 -0.038906466 1.268 0.06750674546 -0.7149367332 0.6959226131
-0.20510246 -0.25442204 1.1371583 0.4051543474 0.2238032222 0.8864322305
-0.23518373 -0.36470309 1.174273 0.5997470617 0.1136132777 0.7920829654
-0.28368706 -0.21527758 1.275 0.8061925173 -0.4712869823 0.3576900661
-0.17667052 -0.086274587 1.3566924 0.5754681826 0.2621790767 0.7746602297
-0.31340468 -0.1547647 1.4711667 0.8138208389 -0.160735026 0.5584442019
-0.14586335 -0.1830899 1.1136668 0.4420583248 -0.5702831149 0.6923594475
-0.023673214 -0.1917197 1.141 -0.5154467225 -0.5738620758 0.6363937259
-0.18584397 -0.1542398 1.2122667 0.6672354341 -0.4916425049 0.5595396161
-0.11525712 -0.025612693 1.3279997 0.1904278696 -0.2533504367 0.9484465122
-0.13448671 0.0047176718 1.3456252 0.2308911234 -0.1918772757 0.953872323
-0.1778637 -0.31691262 1.13 0.5150155425 0.1173124462 0.8491153121
-0.0045832135 -0.049269542 1.307 -0.4544805586 -0.7588879466 0.4664081037
-0.1019765 -0.075623021 1.307 0.6828455329 -0.3526552022 0.6398095489
-0.20282961 -0.11459787 1.3760002 0.3186686039 0.1387634426 0.9376540184
-0.24459456 -0.13452581 1.3950002 0.4853650033 0.02119910717 0.8740546107
-0.016448313 -0.015245526 1.3730001 -0.7607228756 -0.5664235353 0.3169623017
-0.14551902 -0.23485102 1.112 0.2353393435 -0.03181524202 0.9713923931
-0.15579331 -0.15267277 1.1432223 0.3471795619 -0.7469090223 0.5670919418
-0.27584624 -0.18389748 1.427 0.8612478375 -0.01283617225 0.5080230832
-0.11488856 -0.30512676 1.1036954 -0.1333288997 0.511482954 0.8488866687
-0.075083576 -0.063443489 1.2846667 0.5578192472 -0.7520501614 0.3510816097
-0.28422359 -0.075775392 1.4358002 0.7285217643 -0.2236988246 0.6474680901
-0.23632127 -0.030771 1.404 0.7130175829 -0.3594600856 0.6019920111
0.0053421562 -0.046011474 1.3760002 -0.5747839808 -0.6008668542 0.5555019379
-0.17434907 -0.054187648 1.3437502 0.5614187121 -0.04432034865 0.826344192
-0.12460218 -0.20559141 1.103476 -0.3275476694 0.2168958932 0.9196024537
-0.054293372 -0.13410494 1.1642001 -0.7461770177 -0.4715952277 0.4699125886
-0.13881403 -0.3288219 1.123 0.1547259688 0.3712940514 0.9155329466
-0.048582237 -0.25642413 1.1010001 -0.2370519638 -0.09767046571 0.9665747881
-0.28147575 -0.14511639 1.427 0.8224279881 0.02236386761 0.5684294701
-0.29405487 -0.29546061 1.2051113 0.8922277093 -0.113606371 0.4370620847
-0.22626734 -0.32569095 1.1632501 0.7205218673 0.03583468497 0.6925056577
-0.12586191 -0.083796687 1.3275713 0.3695652187 0.2453590035 0.8962256908
-0.28906417 -0.23282601 1.2830001 0.7874643803 -0.4852673411 0.3800202906
-0.1610875 -0.10629583 1.25 0.4750334024 -0.7577778697 0.4473432004
-0.19723636 -0.31363219 1.1409999 0.5386148095 -0.04823266715 0.8411704302
0.02263641 -0.072674789 1.3590001 -0.4784166515 -0.2520621717 0.8411790133
-0.26357618 -0.084328957 1.4127272 0.6874706745 -0.1290515363 0.7146536112
-0.094506651 0.035442539 1.3475002 0.05695825443 -0.4268403053 0.9025315046
-0.22639288 -0.21466881 1.1860911 0.5844355226 -0.6868826151 0.4320039153
-0.26553676 -0.154962 1.41 0.616977632 -0.06851188093 0.7839927673
-0.045037758 0.014343202 1.3264 -0.3084099889 -0.5522789359 0.7745135427
-0.18412513 -0.35229552 1.1373334 0.3885495067 0.377705276 0.8404570222
-0.088588923 -0.13082057 1.1750001 0.1832908392 -0.854493022 0.4860515893
-0.2082241 -0.28504464 1.153 0.4235413969 0.1400826424 0.8949801922
-0.303325 -0.2176459 1.3155715 0.7058354616 -0.5536392927 0.4419047534
-0.072987758 -0.13768284 1.1353334 0.02375116944 -0.7494635582 0.6616194248
-0.065029629 0.02311795 1.3280001 -0.05522815511 -0.5793875456 0.8131788969
-0.085095152 -0.061573181 1.304143 0.5349319577 -0.6123305559 0.5821503997
-0.17750309 -0.10809738 1.3650001 0.5182108283 0.2868712246 0.8057061434
-0.30074051 -0.26503563 1.2340001 0.8176652789 -0.3384844363 0.4656734467
-0.20857362 -0.15232083 1.25 0.7633807063 -0.4912347794 0.419449985
-0.085757591 -0.087156132 1.2345884 -0.1133388579 -0.8306106329 0.5451974273
-0.25273323 -0.26611048 1.1671538 0.6415773034 -0.3122314513 0.7006354928
-0.18307693 -0.017076589 1.3590001 0.6554239392 -0.2265454233 0.7204836011
-0.0084440531 -0.033776212 1.376 -0.7933565974 -0.497059375 0.3514502943
-0.278382 -0.27306589 1.2120001 0.7877844572 -0.3718921542 0.4910110533
-0.13203651 -0.15304233 1.1409999 -0.02045155875 -0.7222337127 0.6913466454
-0.041096378 -0.12328914 1.202 -0.7540391088 -0.4194699526 0.5054403543
-0.23936683 -0.32537395 1.182 0.6908063293 0.04179633409 0.7218307853
-0.034850415 -0.22429857 1.1129999 -0.3396083713 -0.4068588614 0.8480165005
-0.22616425 -0.13496898 1.3870004 0.4201359153 -0.01256093476 0.9073742628
-0.25173411 -0.15515843 1.3980001 0.5107280016 -0.05635834858 0.8578931093
-0.25728238 -0.35559353 1.193 0.6692512035 -0.08896487206 0.7376910448
-0.18157169 -0.18655993 1.138 0.7321695089 -0.4542009234 0.5075719953
-0.19915938 -0.18019181 1.202 0.6743447185 -0.6340310574 0.3785020411
-0.15451427 -0.25199959 1.1120002 0.4691076279 -0.2087205201 0.8581222296
-0.17435747 -0.33455598 1.128 0.3904037178 0.2428785264 0.8880286813
-0.097118013 -0.15872417 1.1190001 -0.1723970175 -0.5007852912 0.8482295275
-0.032974064 -0.030699991 1.2970001 -0.7158844471 -0.5768021345 0.3934575021
-0.031861573 -0.10206504 1.2320001 -0.6567427516 -0.5414230824 0.5249285102
-0.094551899 -0.29517409 1.1020434 -0.2770607471 0.5577122569 0.782428503
-0.074877545 -0.26546258 1.0926206 -0.1173914969 0.2608054578 0.958227396
-0.055758521 -0.045054637 1.284875 0.7358447313 -0.4942235351 0.4628992081
-0.24783805 -0.042645447 1.4100001 0.7051417232 -0.3022775948 0.6414073706
-0.044989806 -0.061994951 1.2516667 0.2996932566 -0.7130025029 0.6338859797
-0.22495267 -0.15184306 1.2830001 0.6903883219 -0.5685492754 0.4473429024
-0.15766037 -0.21544257 1.1120002 0.4019730091 0.1113432944 0.9088566303
-0.23186629 -0.23391591 1.169 0.6632252932 -0.4888650179 0.5666950345
-0.31419003 -0.13651015 1.4830002 0.8750402331 -0.04865253717 0.4815989435
-0.079195149 -0.032064375 1.322 0.4014051855 -0.3486150503 0.8469601274
-0.12792847 -0.1215849 1.2060001 0.3696574569 -0.7754819989 0.5118408203
-0.15539551 0.0047879922 1.3458238 0.3373864591 -0.2309982777 0.9125843644
-0.014955349 -0.037393633 1.3470001 -0.7830468416 -0.527077198 0.3301928043
-0.29141188 -0.20184374 1.439 0.7558258772 -0.1201722994 0.6436504126
-0.012070239 -0.10424589 1.2516667 -0.587449491 -0.5950876474 0.5484284759
-0.21235859 -0.22538361 1.1558571 0.7091034055 -0.4377481043 0.552764833
-0.18578827 -0.22490266 1.124421 0.4690289795 -0.08222376555 0.8793469667
-0.06345927 -0.12994041 1.149 -0.08545877784 -0.7998092175 0.5941396952
-0.053948309 -0.1833621 1.1315385 -0.518972218 -0.5209822059 0.6776764393
-0.15055872 -0.3020888 1.108 0.4212467074 0.2394661903 0.8747612238
-0.12111939 -0.12926187 1.161 -0.1490279138 -0.8028018475 0.577321291
-0.18404147 -0.28450748 1.13475 0.6412593126 -0.0468143113 0.7658948302
-0.046980064 -0.10548268 1.1947144 -0.6263230443 -0.5702152848 0.5315769315
-0.21110134 -0.037395094 1.376 0.5443592072 -0.2018454969 0.8142060041
-0.16090165 -0.17472142 1.126 0.4954151213 -0.454844296 0.7400544286
-0.026587136 -0.075121678 1.254706 -0.7082250118 -0.4890019894 0.5092095733
-0.020304477 -0.13144477 1.2190001 -0.4830898345 -0.6271768212 0.6109610796
-0.24197139 -0.10578649 1.3870001 0.5047250986 -0.02544447593 0.8629050851
-0.3131541 -0.1791293 1.47 0.7296362519 -0.2074094266 0.6516228318
-0.072507933 -0.068439029 1.266 0.3917962015 -0.8178157806 0.4215128422
-0.26444888 -0.24618737 1.1949999 0.7421911359 -0.3670838773 0.5607153773
-0.045974351 -0.052626889 1.2653333 0.4473183155 -0.6054952145 0.6582415104
-0.083983697 -0.23220269 1.09 -0.1151764616 -0.1674660593 0.9791269302
-0.027899917 -0.056915831 1.273 -0.7630777955 -0.5386825204 0.3571181893
-0.07374835 -0.10797973 1.2052001 0.3282366693 -0.867713511 0.3732746542
-0.27865374 -0.2311314 1.2320001 0.7285094261 -0.5984074473 0.3334405422
-0.2552762 -0.09551318 1.4040002 0.6527479887 -0.1396776289 0.7445873022
-0.11360798 -0.19559744 1.11335 -0.4003088176 0.04038736597 0.9154898524
-0.14613937 -0.31735909 1.1120002 0.3117239773 0.2664381266 0.9120520353
-0.25314274 -0.074670956 1.4040002 0.6561180353 -0.09280756116 0.7489297986
-0.025447687 -0.043523774 1.326 -0.6321153641 -0.6858916879 0.3605311513
-0.025552984 -0.17617036 1.1556665 -0.5192839503 -0.6098304391 0.5987078547
-0.2260662 -0.1839779 1.2338183 0.6760049462 -0.6397501826 0.3657006621
-0.033685919 -0.13820826 1.1883334 -0.3498721719 -0.7276328206 0.5900338292
-0.19445562 -0.045472708 1.3649999 0.6170893908 -0.1707158089 0.7681515813
-0.11170486 -0.21855299 1.108 0.2666276991 -0.4420503974 0.8564468026
-0.095617667 -0.18679203 1.1190002 -0.03998875618 -0.2977510989 0.9538056254
-0.17397843 -0.15432642 1.1955001 0.5701659918 -0.6455103159 0.5081605911
-0.039082676 -0.088563502 1.2270001 -0.7091728449 -0.4779649675 0.5182889104
-0.2810567 -0.248997 1.2190001 0.7629010081 -0.3718551397 0.5288722515
-0.28242403 -0.34734848 1.217 0.7401241064 -0.2195143104 0.635633409
-0.23502469 -0.29531184 1.1656003 0.3422329128 0.3244406283 0.8818247318
-0.06568104 -0.053576022 1.2942222 0.6337573528 -0.5568134189 0.5369454622
-0.1778637 -0.26359853 1.13 0.5671079755 0.1699829847 0.805912137
-0.08093562 0.031670459 1.3380001 0.1171345115 -0.6152479649 0.7795829177
-0.24988419 -0.29924402 1.1730001 0.3463720381 0.4636852741 0.8154890537
-0.14961807 -0.14147559 1.161 0.3461301029 -0.8965317011 0.2764504552
-0.092827424 -0.045951884 1.3170002 0.3925545812 -0.4188854098 0.8188015223
-0.2571598 -0.33395004 1.1933999 0.7209281325 0.01354315411 0.6928774714
-0.27354357 -0.17575908 1.411875 0.7458236217 -0.001873840461 0.6661407948
-0.19427693 -0.19188684 1.1663334 0.7442485094 -0.5826863647 0.3264518082
-0.11430243 -0.073892474 1.3170002 0.5136383772 -0.08394137025 0.8538907766
-0.10437319 -0.11684681 1.1857059 -0.1431216896 -0.7841174006 0.6038841605
-0.29262695 -0.13554582 1.4450001 0.8684987426 0.120659925 0.4807817936
-0.29689148 -0.24512324 1.27675 0.7725615501 -0.5280481577 0.3525816202
-0.28454366 -0.10364173 1.4330001 0.7348116636 -0.05465555191 0.6760655046
-0.20799425 -0.022034314 1.381 0.5882700086 -0.2865103185 0.7562078238
-0.041892834 -0.19359037 1.131 -0.4067854881 -0.6070914865 0.6826166511
-0.11155759 -0.22984709 1.097 0.4492937028 -0.4299862981 0.7831008434
-0.025157178 -0.15570074 1.1762002 -0.2980038226 -0.658188045 0.6913626194
-0.27188897 -0.27498448 1.177 0.7191246152 -0.3411442339 0.6053762436
-0.15800217 -0.021898959 1.3430001 0.3774455488 -0.2523691356 0.8909796476
-0.21747699 -0.20428717 1.1938 0.6260043383 -0.6623415947 0.4116092622
-0.25534424 -0.20392458 1.2426001 0.5998666883 -0.7066994905 0.3751476109
-0.21250926 -0.18924956 1.2060001 0.6058168411 -0.6477279663 0.4619896114
-0.034963969 -0.11554842 1.214 -0.6359503865 -0.4929726124 0.593755126
-0.15850396 -0.32980639 1.123 0.3826025128 0.2351200134 0.8934953213
-0.06080823 -0.23358083 1.1010001 -0.3579275608 -0.3030300736 0.8832104206
-0.03262106 -0.015328516 1.3450001 -0.8464049101 -0.4607559144 0.2670256495
-0.18834336 -0.14295512 1.223 0.683222115 -0.5217605233 0.5108556747
-0.27316093 -0.20747682 1.2656 0.7265518904 -0.5772355795 0.3727217317
-0.14683793 -0.1027026 1.243 0.3346353769 -0.7770806551 0.5330711007
-0.14424147 -0.054843802 1.325158 0.3576538265 -0.03974727914 0.9330079556
-0.19347204 -0.19640024 1.1434617 0.6968308687 -0.5176250339 0.4964787066
-0.24219525 -0.187801 1.2576667 0.596642673 -0.6756586432 0.4330161512
-0.15816996 -0.14568272 1.187 0.5125315785 -0.8268416524 0.231612429
-0.064098358 0.037984215 1.3540001 -0.112164326 -0.7318263054 0.6721974611
-0.045510393 -0.16770719 1.1472502 -0.4973811507 -0.5628264546 0.6601805687
-0.11988592 -0.10044496 1.2320001 0.3290177584 -0.7350907922 0.5927806497
-0.19835022 -0.16296881 1.223 0.6895577312 -0.5422105789 0.4801227152
-0.26680318 -0.043501426 1.4342 0.7466050386 -0.3226134181 0.5818088055
-0.2955828 -0.085719012 1.4450001 0.7883132696 -0.2083317935 0.5789300799
-0.23381865 -0.19543591 1.2258574 0.6307455301 -0.6789541245 0.375741154
-0.23285186 -0.048029497 1.3870001 0.6493741274 -0.1597745866 0.7434953451
-0.25057063 -0.21885282 1.2060001 0.6116310954 -0.6820018291 0.4009749889
-0.099330716 -0.0011685967 1.3330001 0.2382064164 -0.3103742898 0.9202855825
-0.12463453 -0.015534174 1.3355 0.2670525908 -0.3442400098 0.9001009464
-0.17011891 -0.11810804 1.2360001 0.5210677981 -0.7187654972 0.4602874219
-0.27288976 -0.23660806 1.2171251 0.7244608998 -0.5193961263 0.4531932175
0.017414983 -0.083471812 1.3700001 -0.3816173077 0.38906461 0.8384491205
-0.13258882 -0.17921346 1.108 0.294670701 -0.5967401266 0.7463715076
-0.18500608 -0.30394912 1.1316841 0.5766844749 -0.02950081788 0.816434145
-0.27504539 -0.2248387 1.245 0.7273365855 -0.6106061339 0.3132756948
-0.30420142 -0.23215026 1.3045001 0.7058354616 -0.5536392927 0.4419047534
-0.15732531 -0.19426361 1.1128001 0.5488753319 -0.3840207458 0.7424715161
-0.3107231 -0.1157086 1.483 0.8982231021 0.05662433431 0.4358771741
-0.15385588 -0.083868057 1.3380002 0.4064911604 0.2479410321 0.8793691993
-0.10005835 -0.22965774 1.087 0.290217638 -0.3067996204 0.9064478278
-0.22751926 -0.37714052 1.1743335 0.5026055574 0.2200667113 0.8360372782
-0.078963116 -0.29538056 1.1120001 -0.3502002656 0.5951417089 0.7233022451
-0.11499055 -0.045293435 1.3248799 0.2130681574 -0.2137184292 0.9533762932
-0.27353474 -0.075342089 1.4259092 0.7215515375 -0.1652463377 0.6723518968
-0.12690389 -0.1383777 1.1450001 -0.1037376225 -0.7445697784 0.659434855
-0.094518028 -0.095528521 1.2153332 -0.006974301767 -0.8566269875 0.5158891678
-0.19565938 0.005336971 1.3828001 0.6493267417 -0.3844883442 0.6561581492
-0.20254418 -0.36844721 1.161 0.3269693851 0.4058301151 0.8534594178
-0.1455421 -0.025545251 1.3366667 0.3011789918 -0.3353917897 0.8926385641
-0.054667182 -0.2445637 1.094 -0.2846703827 -0.2676554322 0.9205016494
-0.22270401 -0.15827954 1.267 0.6918236017 -0.5520216227 0.4654591978
0.025737181 -0.10662546 1.3980001 -0.1194704622 0.7159750462 0.6878274083
-0.16834892 -0.25301564 1.123 0.5429514647 0.05857656151 0.837718606
-0.082745939 -0.071561858 1.2755001 0.4959089458 -0.7909434438 0.3584449887
-0.10564165 -0.13495564 1.1645201 -0.06455940008 -0.8470430374 0.5275890231
0.0035610199 -0.070033394 1.3540001 -0.4354185462 -0.445951581 0.7820088863
-0.1226937 0.011495205 1.3380001 0.2004467696 -0.2115619779 0.9565890431
-0.24241848 -0.2647332 1.1569998 0.5962824821 -0.1271301061 0.7926443815
-0.14526421 -0.11189654 1.2240909 0.2946940958 -0.7875516415 0.5412188172
-0.29807544 -0.3086831 1.21 0.9168656468 0.2884205282 0.2759909928
-0.21882915 -0.29109365 1.161 0.3970611095 0.1506970376 0.905335784
-0.063586809 -0.1164547 1.1668949 0.0634104386 -0.7936457992 0.6050665379
-0.23674208 -0.065897286 1.3920001 0.6525568366 -0.06055379286 0.7553163767
-0.11538161 0.0353209 1.3430003 0.07742897421 -0.3126612902 0.9467035532
-0.21745235 -0.012215035 1.3935001 0.6334479451 -0.3947295249 0.6655315757
-0.31352079 -0.24763401 1.29575 0.6800270081 -0.5668376684 0.465035826
-0.17770252 0.0065815751 1.365 0.6573467851 -0.3835338652 0.648688674
-0.1451309 0.035346732 1.3543848 0.4509407282 -0.3618349433 0.815921545
-0.11545891 -0.17569332 1.1051302 -0.1536327004 -0.4538792968 0.8777189255
-0.15436891 -0.26462767 1.1057081 0.4770159423 -0.134668842 0.8685160279
-0.29913619 -0.12220033 1.452 0.8960307837 0.1447237581 0.4197426438
-0.29377452 -0.32833624 1.2320002 0.8266367912 0.366786629 0.426777631
-0.28764135 -0.28306925 1.2033334 0.8145517111 -0.3421426117 0.4684484005
-0.21203411 -0.16659647 1.2340001 0.7188903689 -0.5806127191 0.3822113872
-0.073965438 -0.11711594 1.1845555 0.4056494832 -0.8196554184 0.4044916034
-0.13705982 -0.27894568 1.1010001 0.3842590451 0.04278477281 0.9222334027
-0.035978399 -0.012774787 1.324 -0.7382752895 -0.5258914828 0.4223597646
-0.23668464 -0.16437222 1.2754999 0.6650602818 -0.5880739093 0.4602867663
-0.045063488 -0.023855368 1.2958889 0.1137105376 -0.8803986907 0.4603999257
-0.28699657 -0.16525955 1.439 0.832157433 0.03178482503 0.553627789
-0.29913619 -0.18330048 1.452 0.6810716987 -0.1422635764 0.7182634473
-0.047987856 -0.041291878 1.273 0.4963709116 -0.6034901142 0.6240317225
-0.085302129 -0.20385526 1.1015713 0.07415493578 -0.5372538567 0.8401543498
-0.066761956 -0.095664494 1.2261111 0.404999584 -0.8404929638 0.3599262238
-0.2665996 -0.31928727 1.202 0.5256735086 0.6114556193 0.5914300084
-0.16574156 -0.2851311 1.1142777 0.6165738106 0.07895173132 0.7833283544
-0.11085187 -0.15990137 1.1190001 0.02904236317 -0.737714529 0.6744878292
-0.27467805 -0.29592246 1.1823334 0.6404701471 0.2254259735 0.7341533899
-0.22673702 -0.023967188 1.395 0.6628757715 -0.3658874035 0.6532396674
-0.25351095 -0.18818736 1.2672001 0.588119328 -0.6716991067 0.4504841864
-0.10419708 -0.016007936 1.3279998 0.2238274068 -0.2407309711 0.9444310069
-0.25654221 -0.12589732 1.404 0.5786055923 0.005160604604 0.8155911565
-0.086002149 -0.2827768 1.0949 -0.2787599862 0.4227690697 0.8622987866
-0.13504654 -0.21524569 1.1016895 -0.003917552996 0.2965927124 0.9549960494
-0.1740593 -0.025606673 1.3482002 0.5848765373 -0.1631703079 0.7945407033
-0.27699488 -0.12477355 1.4232501 0.7271143198 0.005471732467 0.6864945889
-0.064492755 -0.25485241 1.0918751 -0.2377235889 -0.005666047335 0.9713163376
-0.039429836 -0.24715775 1.097 -0.3318200409 -0.2988916934 0.894739747
-0.065041125 -0.20574358 1.1059128 -0.3835601211 -0.4186889231 0.8231531978
-0.021758866 -0.10117873 1.2410001 -0.6018802524 -0.5663745999 0.5629919767
-0.22718315 -0.20306028 1.2037144 0.5747991204 -0.6892461181 0.4410734773
-0.066390671 0.032139651 1.3380001 -0.09981239587 -0.6962538958 0.7108220458
-0.0063868091 -0.07401482 1.2857778 -0.5394480824 -0.6928620934 0.4784745574
-0.21550043 -0.12591036 1.3810003 0.3783849478 0.01432308741 0.9255375266
-0.19138509 -0.36161712 1.149 0.3385448754 0.476706177 0.811257422
-0.05865952 -0.021853546 1.312 0.3853397965 -0.5639566779 0.7303876281
-0.085714437 -0.16453159 1.1238399 -0.1272494793 -0.370172441 0.9202064872
-0.1742442 -0.27528724 1.1245 0.7277204394 -0.02119979262 0.6855461001
-0.14475018 -0.15486409 1.1321934 0.1278233528 -0.6344726682 0.7623028755
-0.25617018 -0.21466644 1.2243334 0.6121076941 -0.7021712065 0.3637028039
-0.23754422 -0.34380499 1.1730001 0.6818680763 -0.04566833749 0.7300481796
-0.30239925 -0.19707528 1.4449999 0.6793593764 -0.1971304864 0.7068312168
-0.14724317 -0.044406671 1.3330001 0.3964469731 -0.1654562801 0.9030249119
-0.093368948 -0.14813693 1.1359999 0.1157914251 -0.8324434757 0.5418765545
-0.11571331 -0.29432741 1.0953749 0.02507911809 0.3401123881 0.9400503039
-0.13872701 -0.19365622 1.101 0.2613178194 -0.2762440145 0.9248795509
-0.044422809 -0.21418247 1.1142068 -0.3837775886 -0.3758980036 0.8434544802
-0.035369273 -0.074207835 1.2431818 -0.5205466151 -0.5778948665 0.6285449266
-0.06689804 -0.18587692 1.1185555 -0.3333008289 -0.4458933771 0.8307163715
-0.16974196 -0.11039162 1.3540001 0.5878096819 0.2902435064 0.7551413774
-0.12476674 0.043954168 1.3490001 0.1380686015 -0.3030780256 0.9429107904
-0.095300578 0.046612475 1.3546251 -0.02506616525 -0.4227808714 0.9058852196
-0.23345983 -0.085115559 1.3870001 0.5616027713 -0.03874484077 0.8264993429
-0.17692126 -0.36218986 1.1423334 0.3275522888 0.4867589772 0.8097994924
-0.037395094 0.0036188799 1.376 -0.7953385115 -0.5404385924 0.2745228708
-0.20545615 -0.27406657 1.146273 0.3171239197 0.304672271 0.8981131315
-0.18787403 -0.087355457 1.3650001 0.4695658684 0.2919145525 0.8332429528
-0.10430579 -0.034768596 1.3220003 0.2009312361 -0.2486928701 0.9475117326
-0.17856239 -0.14355709 1.21 0.5822157264 -0.5520444512 0.5968850851
-0.085382693 -0.25547358 1.09 -0.1126425117 0.07627542317 0.9907036424
-0.21761277 -0.16341111 1.25525 0.7070062757 -0.5586757064 0.433616817
-0.15494631 -0.13442399 1.2046666 0.4126919806 -0.6859792471 0.5992643833
-0.30674216 -0.10395864 1.4640001 0.9167979956 0.0574449338 0.3951981366
