# .PCD v0.7 - Point Cloud Data file format
VERSION 0.7
FIELDS x y z normal_x normal_y normal_z
SIZE 4 4 4 4 4 4
TYPE F F F F F F
COUNT 1 1 1 1 1 1
WIDTH 512
HEIGHT 1
VIEWPOINT 0 0 0 1 0 0 0
POINTS 512
DATA ascii
-0.15512003 -0.18163627 1.0470001 0.2610811591 0.3154375553 0.912324369
-0.48458803 -0.4812111 1.9260001 0.6899843812 0.4132428467 0.5942658782
-0.49536112 -0.064196333 1.4572501 0.8257184625 -0.5491191149 0.1290629357
-0.05431797 -0.057791907 1.4870001 0.9998908043 -0.007766698021 0.01257182378
-0.25618041 0.12755062 1.233 0.1791295111 -0.8705041409 0.4584050775
-0.02925612 -0.070431396 1.2360001 0.5876477361 -0.6007419825 0.5420140028
-0.37237799 -0.06698557 1.1010001 0.5929214358 -0.4726375043 0.6519646645
-0.16468436 0.033873331 1.0633334 -0.3262217939 -0.6763814688 0.6603692174
-0.024418298 0.09717311 1.3447144 0.3296647668 -0.7376574278 0.5892220736
-0.10723262 0.07284724 1.2042857 -0.8924842477 -0.1976802498 0.4054558277
-0.30119023 -0.2011082 1.077 0.2591873705 0.4120765626 0.8735072017
-0.37085456 0.046096884 1.1950001 0.5245561004 -0.6894492507 0.4995003641
-0.05775718 -0.18659036 1.1558571 0.0725832358 -0.8107315302 0.5809010863
-0.24765307 -0.073889196 1.031 0.222249195 -0.1763560325 0.9589076042
-0.083660997 -0.072467707 1.082 -0.8320662379 -0.3232046366 0.4507821202
-0.28596723 0.02685504 1.103875 0.4014919698 -0.7194097042 0.5667926073
-0.35954729 0.1084349 1.302 0.3983063102 -0.8555389047 0.3307645917
-0.14535791 0.15654856 1.2755001 -0.2047275901 -0.9381431937 0.2792381048
-0.22459324 -0.2715103 1.0372001 0.3928410709 0.5383405685 0.7455637455
-0.19317526 0.092564315 1.1476668 0.1994933635 -0.8060118556 0.5572676659
-0.05310601 0.024424285 1.2780001 -0.4218090773 -0.811506629 0.4043935239
-0.07404428 -0.016167926 1.1650001 -0.3779329062 -0.8514751792 0.3635337055
-0.45476118 -0.46118891 1.8330001 0.7855843306 0.3111551404 0.5348268151
-0.15951476 -0.05136916 1.028 -0.2926603258 0.1137154102 0.9494307637
-0.31470233 -0.1153263 1.0627389 0.4176386595 0.2995581329 0.8578128219
-0.29537749 0.076721929 1.1746668 0.3496416509 -0.7606960535 0.546893239
-0.23495418 -0.15572579 1.0440003 -0.01692364924 0.5457822084 0.8377561569
-0.11317394 -0.14661635 1.1057501 0.1024017185 -0.5606626868 0.821688056
-0.07811977 0.1015557 1.273 -0.8380643725 -0.4463758171 0.313682586
-0.12724817 0.042502116 1.1340001 -0.7017233372 -0.5741192698 0.4218666553
-0.31380248 -0.036630016 1.0555295 0.4960697889 -0.08685688674 0.863927424
-0.098014399 -0.22077492 1.0855 -0.7060393095 0.2930390239 0.6446988583
-0.073864117 -0.13540366 1.2128235 0.5141206384 -0.6213454008 0.5912781358
-0.23293406 0.0024193609 1.0464545 0.2498329729 -0.6620294452 0.7066119909
-0.35554972 0.0060276091 1.1326667 0.4153008759 -0.6472089887 0.6392540336
-0.2320151 -0.26808468 1.1120001 -0.03446482122 0.6810538769 0.7314217687
-0.17502651 0.12835276 1.21 -0.06629604846 -0.8687815666 0.4907375872
-0.33434001 0.096056566 1.2342223 0.5167069435 -0.74672997 0.4188176394
-0.12482943 -0.11521441 1.0360372 -0.6326950192 0.2755524516 0.7237180471
-0.15455721 -0.25197139 1.031 -0.4270658195 0.2652438581 0.8644422889
-0.3702558 -0.13560016 1.097 0.5559498072 -0.2456419766 0.794090569
-0.12182262 -0.015186789 1.0828333 -0.8153569698 -0.4144641757 0.404243052
-0.087580092 -0.097617939 1.1450001 0.648153007 -0.2734588385 0.710716486
-0.21583724 -0.2126271 1.0769999 0.003432039637 0.3749848604 0.9270246029
-0.21624927 0.048121117 1.1021999 0.2212613225 -0.7777984142 0.5882797241
-0.19170095 -0.10775936 1.028 0.2263756245 -0.2412573099 0.9436890483
-0.072244637 0.054282323 1.3363334 -0.4345235825 -0.6395536065 0.6341612339
-0.078011937 0.018167162 1.2190001 -0.5978273153 -0.3588607907 0.7168133855
-0.012372397 -0.02362003 1.2830001 0.4515401125 -0.2875237167 0.8446547389
-0.20499973 0.14885566 1.2640001 0.1327528507 -0.9296740294 0.3436319828
-0.11635757 0.12363996 1.234182 -0.5890558958 -0.6133882403 0.5260874629
-0.23481603 0.1037282 1.1855334 0.1872080863 -0.8074916005 0.5593839884
-0.26479718 -0.23718216 1.0500001 0.9132360816 0.4059723616 0.03444283083
-0.14195834 0.088854551 1.165 -0.6552969813 -0.6226587296 0.4276470244
-0.16772592 -0.23335934 1.085 0.1038167328 0.4523744285 0.8857648969
-0.33535522 -0.16313292 1.0655456 0.5462954044 0.1562908143 0.8228818178
-0.11567977 0.024682842 1.184111 -0.8021731973 -0.2454691976 0.544300437
-0.25408363 0.064705014 1.13325 0.2882447839 -0.7808527946 0.5542417169
-0.071229167 -0.096433334 1.25 0.5832512975 -0.5858444571 0.5626758933
-0.16504423 0.063061267 1.106625 -0.2382182628 -0.8001303673 0.5504937768
-0.32280773 0.043025702 1.1480001 0.4667378664 -0.7184888124 0.5156835914
-0.25082222 0.13834588 1.2830001 0.242934525 -0.9356968403 0.2558402717
-0.28477883 -0.16503814 1.0437859 0.1766522676 0.3154809773 0.9323441982
-0.086631536 -0.035603736 1.1166252 -0.6405586004 -0.6220695972 0.4502378404
-0.027604479 0.05865952 1.312 0.3469994664 -0.5903115869 0.7287822366
-0.18502049 -0.0138075 1.0500001 -0.2061304748 0.04366880655 0.9775496125
-0.34649411 -0.022829274 1.0928334 0.5391451716 -0.6206361651 0.5693269968
-0.078863323 -0.17482442 1.0838333 -0.200821057 -0.3016546965 0.9320275187
-0.11493675 -0.064675108 1.0445559 -0.4425409734 -0.4759531319 0.7600171566
-0.038307704 -0.15012479 1.1810001 0.2979001403 -0.6146649718 0.7303714752
-0.05489862 -0.061620899 1.2780001 0.5106531978 -0.4994915128 0.6998153329
-0.10541654 0.1376102 1.293 -0.6604396701 -0.6632602215 0.3520018756
-0.26500469 -0.11556572 1.0440001 0.2318524122 -0.1394831836 0.9626987576
-0.26480418 -0.030549329 1.0380001 0.1180588976 0.1919516176 0.9742774963
-0.079675846 0.064395547 1.245 -0.8273591399 -0.1274251193 0.5470280647
-0.055710066 -0.021901939 1.2128 -0.6500625014 -0.6509042382 0.3921000361
-0.04830784 -0.025304105 1.312 0.78993994 -0.2270929664 0.5695820451
-0.20524096 -0.054631736 1.0252141 0.1267617047 -0.2155565023 0.9682286978
-0.045961525 0.064731315 1.3724 0.9478262067 -0.2821481228 -0.1483843774
-0.11764516 -0.153329 1.0600001 -0.8373997808 0.3243814707 0.4399298429
-0.3361786 -0.072867319 1.070923 0.5100007653 -0.4634717703 0.7246330976
-0.25543261 -0.19489817 1.0647856 -0.1263695508 0.4170485437 0.9000562429
-0.12656875 -0.22230075 1.0500001 -0.7122710943 -0.0533339195 0.6998752356
-0.29480606 0.10459501 1.2149 0.2424423546 -0.7869250178 0.567424655
-0.27859589 -0.00093803334 1.0700001 0.3693507016 -0.704839468 0.605624795
-0.29509372 -0.075117782 1.0436898 0.3285531402 -0.4329401851 0.8394138813
-0.1950895 -0.17697522 1.0632858 0.1074198633 0.5767218471 0.8098474145
-0.33223051 0.07198678 1.197 0.4461518824 -0.7126082182 0.5414221883
-0.13656674 0.025368353 1.0948572 -0.6673266292 -0.5761666298 0.4719186425
-0.11161457 -0.0060314666 1.1470001 -0.6844879389 -0.7100032568 0.1654437929
-0.068054318 -0.20123225 1.1170001 -0.9226578474 0.2552351952 0.2890631258
-0.038187601 -0.11244127 1.21 0.5156024694 -0.544811964 0.6613124013
-0.21435042 0.13265142 1.2262001 0.2258728594 -0.8414239287 0.4909044802
-0.16359565 -0.13828804 1.031 0.03013244271 0.4498277307 0.892606914
-0.37110615 0.072069891 1.2270001 0.4566971362 -0.7390142679 0.4952631891
-0.19702742 -0.24745056 1.0190001 -0.01953732967 0.3073554933 0.9513942003
-0.24538095 0.027388381 1.0824999 0.2377238721 -0.7521634102 0.614603579
-0.046888266 0.003272346 1.2438571 -0.7242817879 -0.5472753048 0.4194110334
-0.082241416 -0.16604242 1.1875001 0.4199575782 -0.6946269274 0.5840625763
-0.14500757 -0.016312838 1.0455602 -0.3404317498 -0.5696846247 0.7480412126
-0.36124277 0.096405283 1.2640001 0.3983063102 -0.8555389047 0.3307645917
-0.079460189 -0.12654771 1.1190001 -0.155738309 -0.6343815327 0.7571694851
-0.20527929 0.025645865 1.0625788 0.2184584141 -0.7692089081 0.6004944444
-0.09810666 -0.10482274 1.0644667 -0.8553770185 0.1707377434 0.489059031
-0.16493119 0.14686786 1.2435715 -0.05657063797 -0.8884138465 0.4555443525
-0.13383579 0.10702908 1.2040002 -0.5215956569 -0.6907996535 0.5007333159
-0.31560013 0.0055775591 1.0918823 0.4516005814 -0.664110899 0.5958302021
-0.20650858 -0.24727941 1.09 -0.03867955878 0.5325662494 0.8455040455
-0.1548139 -0.094909057 1.0239999 0.1079244688 -0.3047063649 0.9463119507
-0.25513434 -0.24248897 1.0859286 -0.182581529 0.3804800212 0.9065864086
-0.11879622 -0.18988687 1.067 -0.7903317809 -0.2952056527 0.5368699431
-0.2533181 -0.27339023 1.0600001 0.7499418855 0.644823432 0.1476140171
-0.2281525 -0.10312492 1.041 0.09993442148 -0.02522647753 0.9946742058
-0.1185379 0.057731714 1.169 -0.9515263438 -0.1082351878 0.2878936231
-0.35464779 0.036810894 1.1637692 0.4429982007 -0.7313404083 0.5185496807
-0.080315813 0.02970585 1.2550001 -0.8561556935 -0.3921828866 0.3364372253
-0.37308916 -0.021541454 1.1170001 0.6913337111 -0.3203013837 0.6476609707
-0.18381433 0.11099615 1.177 0.01735509187 -0.8789522052 0.4765940309
-0.19632819 -0.1508292 1.0380001 0.05192119256 0.5636743903 0.8243636489
-0.25492817 0.08339373 1.1647334 0.1909275949 -0.8155986667 0.5462101102
-0.10330947 -0.044602953 1.0733 -0.731358707 -0.5344482064 0.4236502945
-0.093185864 -0.0017442745 1.1943334 -0.4787697196 -0.8169832826 0.3214310408
-0.28663316 0.048598308 1.1313334 0.3494003117 -0.7415806651 0.5726932883
-0.02128722 0.01008342 1.2780001 -0.4075521231 -0.3261134624 0.8529661894
-0.098603956 0.092102602 1.2360001 -0.8194019198 -0.3824329078 0.4269959629
-0.058883071 0.02886425 1.317 -0.2140809894 -0.9241900444 0.3162942827
-0.34583607 -0.11496165 1.0837499 0.6117207408 0.2144622207 0.7614484429
-0.1506225 -0.21716501 1.02575 -0.4921076894 -0.07827385515 0.8670082092
-0.021054026 -0.052081011 1.2640001 0.1646599025 -0.5398885608 0.8254740834
-0.19985282 0.069899261 1.123 0.2249407172 -0.796507895 0.5612279773
-0.14817053 0.07350371 1.1343637 -0.6263347864 -0.5918079019 0.5074132085
-0.22511074 -0.034474652 1.0441003 0.1383887678 -0.09184791148 0.9861097932
-0.11580227 -0.0016257783 1.1131667 -0.8877452016 -0.4082950056 0.2126114666
-0.26621473 0.098653577 1.1946001 0.2622442245 -0.8317152858 0.4893645346
-0.03902657 0.042574439 1.3490001 -0.8141591549 -0.4510219991 0.3656830192
-0.1718024 -0.20173532 1.067 0.3187725246 0.4702465534 0.822953403
-0.22619313 0.077561326 1.1443847 0.147634089 -0.8516345024 0.5029143095
-0.18629938 0.046384037 1.0837272 0.1964854598 -0.7909997702 0.5794072747
-0.095345184 0.04453769 1.2160001 -0.8238688111 -0.1973515004 0.531312108
-0.31390154 0.022554586 1.1185555 0.4665551484 -0.6400151849 0.6104972363
-0.30730274 -0.14423254 1.0503637 0.4509635866 -0.1479859501 0.8801886439
-0.019195493 0.039520133 1.2880001 0.3082746565 -0.5411319137 0.7823956609
-0.22525664 -0.1847318 1.0628749 -0.09377551824 0.5066128969 0.8570586443
-0.043822374 0.07420589 1.3330001 0.6349748373 -0.5252366662 0.5665098429
-0.18294631 -0.27306762 1.028 -0.09954280406 0.4099751413 0.9066485763
-0.25554636 0.043643314 1.1062499 0.2373685986 -0.7850373387 0.5721647739
-0.14164303 0.0084423004 1.0700001 -0.5246867537 -0.626565516 0.576298058
-0.3414222 -0.042093154 1.067 0.6348814368 0.05249690264 0.7708239555
-0.18467019 -0.075325772 1.033483 0.04675526172 0.2034574747 0.9779667854
-0.042217113 -0.032833971 1.2739999 0.4472627938 -0.4718959928 0.75978297
-0.23560417 0.1413625 1.25 0.225504458 -0.908501327 0.3518140018
-0.12602837 -0.086509168 1.027294 -0.2972623408 -0.2127399892 0.930793643
-0.13786197 -0.15196666 1.0380001 -0.4720597267 0.4313254654 0.7688419819
-0.26423597 -0.14465959 1.0363078 0.1249616817 0.1289429814 0.9837470651
-0.14388868 0.12795338 1.2235715 -0.3395758569 -0.7951215506 0.5024638772
-0.28047195 -0.22137585 1.0700001 0.01649081521 0.07100567967 0.9973396063
-0.1045092 0.12504365 1.2659999 -0.772834897 -0.4985802472 0.392611742
-0.18475559 0.015198946 1.0440001 -0.08270138502 -0.5017741919 0.8610360622
-0.048062369 -0.093424611 1.2320001 0.6857355833 -0.5116359591 0.5176826715
-0.13454397 0.14671992 1.25 -0.2956776917 -0.8247942924 0.4819637239
-0.36225501 -0.090799294 1.0826668 0.7573845387 0.09883270413 0.6454461217
-0.2875151 -0.04850772 1.0600001 0.3470571339 0.2427410334 0.9058852792
-0.3088263 -0.17872895 1.0600001 0.3237169087 0.518758893 0.7912626266
-0.1118013 -0.17104644 1.09 -0.2453142852 -0.6308698058 0.7360870838
-0.23535256 0.11847011 1.2120001 0.1978360564 -0.8648661375 0.4613755643
-0.32033664 -0.089033388 1.0470001 0.4282624722 -0.03955832869 0.9027881026
-0.20653565 0.11907413 1.202 0.1959093213 -0.8441371322 0.4990511537
-0.13567673 -0.044922333 1.0457311 -0.5850561857 -0.1505633444 0.7968939543
-0.27837342 0.068936333 1.153 0.3047432005 -0.768755734 0.562268734
-0.06922555 0.0431263 1.2945001 -0.6463695168 -0.753441155 0.1205522418
-0.37204495 0.015650155 1.1556666 0.4672356248 -0.6665022969 0.5809178948
-0.30588686 -0.011032742 1.071125 0.4122808278 -0.6549782157 0.6332677603
-0.23764008 -0.24698944 1.0320001 0.5155364275 0.4149887264 0.7496709824
-0.15556873 0.11290751 1.1870002 -0.2759286761 -0.8370551467 0.472442627
-0.067331798 0.075515777 1.273 -0.9190123081 -0.3133181632 0.2392657548
-0.3259806 0.058614809 1.1730001 0.4559835494 -0.7195405364 0.5237752199
-0.20505677 -0.0054274979 1.0321251 -0.06812287122 -0.02324754559 0.9974060655
-0.085903689 -0.15153797 1.1010001 0.05386688933 -0.5495257974 0.8337384462
-0.34878182 -0.056378435 1.09 0.6830379963 -0.1138649732 0.7214526534
-0.21899484 -0.080207989 1.028 -0.0599315241 0.3884555697 0.9195164442
-0.25838041 -0.17301849 1.0470001 -0.1502166241 0.5301181674 0.8345116377
-0.066503383 -0.033292376 1.1446363 -0.6056747437 -0.630807519 0.4850154221
-0.29512939 -0.10265547 1.0455 0.1617814749 0.4558091164 0.8752512932
-0.16418827 0.09166339 1.149 -0.136613816 -0.8254637122 0.5476735234
-0.21489204 0.093287759 1.1645002 0.2436322719 -0.8166809082 0.5231401324
-0.37509322 -0.048240338 1.123 0.7490441799 -0.1895355433 0.6348299384
-0.3486591 -0.1441503 1.08 0.5532438755 -0.2050619572 0.8073851466
-0.088790551 -0.018955287 1.138 -0.4523248971 -0.8063480258 0.3810578585
-0.2875905 -0.021960499 1.0500001 0.4054903388 -0.4085763395 0.8177059293
-0.21511479 -0.12473036 1.0309998 0.1701875776 -0.06452229619 0.98329705
-0.17190094 -0.23494402 1.0190001 -0.2632865906 0.1613187045 0.9511342645
-0.27724582 0.1282125 1.25 0.2044227421 -0.9001612663 0.3846050203
-0.041616242 -0.0078733433 1.2830001 0.8152813315 -0.1070770249 0.5690789223
-0.14401454 0.04613601 1.1137501 -0.7204252481 -0.556699872 0.4136093855
-0.16447732 0.0044263881 1.0568887 -0.5079983473 -0.2660568357 0.8192383647
-0.14829168 -0.12059865 1.0190001 -0.07346294075 0.2286585569 0.9707309008
-0.18513006 -0.034313031 1.0335939 0.1634154469 -0.5072616935 0.8461565971
-0.33487386 0.024247117 1.1339999 0.4892132282 -0.6133134961 0.6200942993
-0.12494563 0.085354663 1.1844667 -0.6385492086 -0.5341172218 0.5540520549
-0.095361158 -0.19544314 1.0769998 -0.4434825182 0.01182771381 0.8962049484
-0.17637247 0.15493037 1.2653333 0.06722732633 -0.9435093403 0.3244543076
-0.17453897 -0.16462816 1.0453639 0.186871767 0.5145987868 0.8368195891
-0.10167404 -0.11549382 1.126 -0.1618128866 -0.6319500208 0.7579286098
-0.26485962 -0.055470258 1.0440003 0.274165988 -0.3477562964 0.8966039419
-0.31349161 0.088515282 1.202 0.4015843868 -0.7600470185 0.5109388232
-0.3348814 0.0049025705 1.1174285 0.5201181173 -0.6622669101 0.5393325686
-0.24421084 -0.12516621 1.0328531 0.1503894478 -0.161945045 0.9752727151
-0.064667754 -0.11589754 1.2260002 0.5810895562 -0.5784035325 0.572524488
-0.23889166 -0.222863 1.0756668 -0.1661516577 0.422812134 0.8908554912
-0.062193945 -0.14836209 1.189 0.3668597341 -0.6375631094 0.6774416566
-0.067045718 -0.0083826864 1.1950001 -0.4698127806 -0.8523874879 0.2295897901
-0.05442195 -0.076067016 1.2575455 0.6761512756 -0.5473446846 0.4931868911
-0.27443692 -0.085019529 1.033621 0.207525298 0.01586773247 0.9781009555
-0.17336082 0.078260034 1.13 -0.07005713135 -0.8301565647 0.5531113148
-0.13481614 -0.19587816 1.0441073 -0.2784503102 -0.2699548006 0.9217319489
-0.15524478 0.044307232 1.0839374 -0.6591563821 -0.5769901872 0.4822812676
-0.19553779 -0.22670633 1.0803636 0.00243224646 0.3604477346 0.9327762127
-0.25348508 0.012139203 1.0650001 0.3185505271 -0.7338590622 0.5999803543
-0.35491365 0.065707475 1.2040001 0.5031116605 -0.6593624949 0.5586767793
-0.069810718 0.049864799 1.2640001 -0.9165096283 0.08155043423 0.3916116059
-0.10181081 -0.084762268 1.0510001 -0.8423050046 0.04183122888 0.5373754501
-0.31546676 -0.063119322 1.0624617 0.5079854727 -0.3435191512 0.789902091
-0.34381464 -0.095080301 1.064625 0.64864856 0.1384020895 0.7483982444
-0.077962466 -0.055525057 1.1057143 -0.7183104753 -0.5373718143 0.4418841898
-0.019187165 0.076173134 1.3265001 0.2369996011 -0.7150645852 0.6576578617
-0.060913429 0.0010686567 1.2190001 -0.5369209051 -0.5889635682 0.6040180922
-0.297979 0.11594092 1.2360001 0.223704949 -0.8373248577 0.4988418221
-0.096847706 -0.008525583 1.1669999 -0.3933469653 -0.8598974347 0.3253529668
-0.28667879 -0.1881765 1.0600001 0.1387440562 0.6039172411 0.7848783731
-0.193748 0.14179324 1.2346667 0.1180098355 -0.9130057096 0.3905050755
-0.11201357 0.046214487 1.1941429 -0.8512115479 -0.0342878066 0.523701489
-0.10858033 0.094739698 1.2142999 -0.8107547164 -0.4141429365 0.4137178063
-0.23534229 0.05517599 1.1149445 0.2007673383 -0.7441730499 0.6371020079
-0.085903689 -0.19979846 1.1010001 -0.8673087358 0.2319843918 0.4404074848
-0.08773154 0.1225992 1.2830001 -0.791696012 -0.5251335502 0.3121733367
-0.13028494 -0.17278926 1.054 -0.7002788186 0.07123224437 0.7103066444
-0.076021023 -0.19105284 1.141 -0.08593150228 -0.9094673991 0.4067982137
-0.30276954 0.062379658 1.1570001 0.3781534135 -0.7553496957 0.5352072716
-0.098324008 -0.038752757 1.0960001 -0.7604453564 -0.5579007864 0.332369715
-0.043919247 0.085464478 1.3540001 0.8446179628 -0.5352608562 -0.01078601275
-0.35562423 0.087312624 1.2427143 0.4101950228 -0.8284502029 0.3813269734
-0.266945 -0.0101255 1.0500001 0.3499596119 -0.5993639827 0.7199243903
-0.080822527 -0.17801243 1.1670001 0.1679160446 -0.8080797791 0.5646337271
-0.10124362 0.025576312 1.2029999 -0.8012253642 -0.1956957728 0.5654565692
-0.24412861 -0.01516439 1.0352145 0.1343760341 -0.1412206143 0.9808158875
-0.083516277 0.094215617 1.2948571 -0.8588675857 -0.4617321193 0.221697852
-0.27622882 0.11591396 1.2242498 0.1830911189 -0.8330791593 0.5219739079
-0.28437462 -0.13469099 1.0435387 0.3119071722 -0.2083293647 0.9269912839
-0.23485312 -0.054399855 1.0343336 0.2719709277 -0.4348528385 0.8584491014
-0.096404396 0.10214096 1.2582 -0.7039310932 -0.5385680795 0.4630610049
-0.056536406 0.021780433 1.2546 -0.5040444732 -0.797560513 0.3314157128
-0.046800267 -0.16841263 1.169 0.1957657486 -0.6598514318 0.7254459858
-0.09517844 -0.065184668 1.0629523 -0.8289862871 -0.2904420495 0.4779383838
-0.14930218 -0.20474841 1.0600001 0.5085754991 0.3443706632 0.7891513109
-0.34530383 0.055478424 1.1855 0.45379287 -0.7033413649 0.5471590161
-0.29112217 0.011911708 1.087 0.3602962792 -0.6886869669 0.6292033792
-0.23511834 -0.25512281 1.0931305 -0.01730968431 0.655510664 0.7549875379
-0.32558432 -0.024770709 1.0714375 0.4868413806 -0.5759181976 0.6567371488
-0.097061314 0.065364711 1.2256669 -0.8339482546 -0.2540112138 0.4899067283
-0.11881932 0.021160394 1.1140001 -0.8918662667 -0.3441475034 0.2934910953
-0.3430388 0.081217907 1.2190001 0.4315720797 -0.7961810231 0.424077034
-0.2165429 0.03761952 1.0817778 0.2314727157 -0.815828681 0.5299471021
-0.12647405 -0.025155293 1.0627501 -0.8354932666 -0.2908966243 0.4661868513
-0.3313666 -0.13727044 1.067 0.558578074 -0.2430870533 0.7930316329
-0.2045453 -0.02476334 1.0462803 -0.08354770392 0.03533032909 0.9958772659
-0.21548238 -0.1673798 1.0521538 -0.05186811835 0.6418460011 0.7650773525
-0.1950279 -0.20451905 1.073923 0.02859102376 0.3401422203 0.9399392605
-0.14505067 -0.066727176 1.0359201 -0.2029351145 -0.2444683611 0.9481838346
-0.16440783 -0.02572163 1.0357336 0.02870553173 -0.5071164966 0.8613993526
-0.13656537 -0.24197051 1.0455 -0.6439743638 0.1169643402 0.7560531497
-0.22602411 0.017015278 1.0631876 0.2706007957 -0.7567065358 0.5951222181
-0.34997234 -0.010723387 1.1120001 0.4740423858 -0.6644514799 0.5777439475
-0.12381996 0.0053623072 1.0915 -0.8535473347 -0.4421255887 0.2756481171
-0.13255148 0.066985928 1.1542 -0.7856203914 -0.4506001174 0.4239813387
-0.11730852 0.01093554 1.1340001 -0.9442111254 -0.2972710431 0.1417579204
-0.037428696 0.028352862 1.2936667 0.1434987634 -0.6498501897 0.7463932037
-0.2675736 0.029197384 1.092 0.327129811 -0.7178630829 0.6145393848
-0.37410647 0.028998906 1.1730001 0.4708665013 -0.723828733 0.5043379068
-0.19590843 0.056407198 1.1021874 0.2734490335 -0.750726521 0.6013612151
-0.18484421 -0.24608399 1.0914546 -0.03122584336 0.4797044694 0.8768743277
-0.20622119 -0.091699488 1.0412728 0.1190233231 0.06718043983 0.9906160831
-0.045051094 -0.13514796 1.1950803 0.4313640893 -0.5611422062 0.7064307928
-0.11111292 0.0056103747 1.1747779 -0.6859021783 -0.5833829641 0.4349741936
-0.35842693 -0.049538679 1.108 0.7808957696 -0.1720388085 0.6005035043
-0.3580929 -0.11099915 1.1010001 0.5926166177 0.1068297923 0.7983689308
-0.18438247 -0.13460803 1.0270356 0.1157196239 0.3058167994 0.9450317621
-0.040999945 0.0077567468 1.2640001 -0.7617877126 -0.5100045204 0.3994682133
-0.31843251 0.10507201 1.223 0.433508724 -0.7416266799 0.5119180083
-0.35325369 0.023856891 1.1468184 0.4410131872 -0.6716808081 0.5952749848
-0.12266882 -0.13521506 1.0431429 -0.6795684695 0.3538727462 0.6426202059
-0.31524289 0.07562644 1.1846365 0.4116715789 -0.7206695676 0.5578188896
-0.11600988 -0.046736386 1.0564001 -0.5152291656 -0.5320079923 0.6719422936
-0.21353453 0.011930084 1.0467693 0.2502982914 -0.7108071446 0.6573461294
-0.19514671 0.13278018 1.2151818 0.1602500528 -0.8573528528 0.4891481996
-0.22469012 -0.23512748 1.0852412 -0.06496070325 0.3646208346 0.9288873672
-0.10866064 -0.10469811 1.0445 -0.7869596481 0.2583258152 0.5603233576
-0.25508875 -0.093268901 1.0341252 0.06025571749 0.394008249 0.9171296358
-0.18440236 -0.0548889 1.022857 -0.08391465992 -0.01546944119 0.9963528514
-0.2439325 -0.041422501 1.0500001 0.1472918242 -0.06116206944 0.9872002602
-0.20663145 0.10784239 1.1844286 0.2219420671 -0.8240597844 0.5212170482
-0.10432848 -0.024581952 1.116125 -0.7291657329 -0.6249377131 0.2788731158
-0.33242878 -0.0080141947 1.097 0.5568240285 -0.6201816201 0.5525592566
-0.040837765 -0.056289885 1.2590001 0.499083221 -0.5819836259 0.6420365572
-0.18519425 0.032241903 1.0660001 0.155106023 -0.7837549448 0.6013903022
-0.20456605 -0.27215537 1.0318573 0.1001588628 0.5024716258 0.8587726355
-0.27747202 0.088004179 1.1810001 0.2735919952 -0.8203372955 0.5021893978
-0.29429263 0.092107482 1.1958572 0.2699608207 -0.8054580688 0.5275968909
-0.25523022 0.11379756 1.2131001 0.253449142 -0.8214976192 0.5107887983
-0.37321979 0.056664884 1.21375 0.5451446176 -0.6607621312 0.5159561634
-0.2150936 -0.25544307 1.0239564 0.2291450948 0.3810096979 0.8957254887
-0.21620464 0.14259399 1.244 0.1591297835 -0.9082010388 0.3871028423
-0.17317292 -0.18222694 1.0563333 0.3371145427 0.5086401105 0.7922367454
-0.15594773 0.12303766 1.2054287 -0.2629544735 -0.8331418633 0.4865486324
-0.079031497 -0.15174048 1.202 0.4581500888 -0.6538611054 0.6021329761
-0.32641017 -0.1796667 1.0730001 0.4477266669 0.4873222113 0.7497051954
-0.24300323 -0.26317883 1.046 0.5568222404 0.4889511168 0.6714728475
-0.13494582 -0.10483928 1.0221199 -0.3351883292 -0.008332301863 0.9421142936
-0.16638257 0.10240886 1.1658 -0.1199664026 -0.8613533974 0.4936378598
-0.054515779 0.045159113 1.3345001 -0.418367058 -0.7345501781 0.5342330933
-0.23446326 0.041737922 1.097 0.1750280708 -0.7989549637 0.5753573775
-0.22407776 0.070085995 1.126 0.1502598077 -0.8143132925 0.560638845
-0.23563735 0.087764226 1.162143 0.2018951923 -0.818814218 0.5373840928
-0.2151598 -0.14461583 1.0325001 0.04295785353 0.4245723784 0.9043743014
-0.16482523 -0.074622452 1.0343827 -0.04307938367 -0.1011674404 0.9939363003
-0.18351614 0.06848345 1.1120001 0.08415088803 -0.8322519064 0.5479739308
-0.17777905 -0.093652084 1.031 0.1591562629 -0.1996148974 0.9668625593
-0.17491473 -0.25582758 1.0231998 -0.2003492713 0.3052670062 0.9309523106
-0.084757224 0.045511492 1.2435 -0.8935719728 -0.02647106163 0.448138833
-0.1857693 0.12110436 1.1952858 0.03726587817 -0.8572911024 0.5134814978
-0.32802552 -0.058177702 1.0807999 0.5175891519 0.140482381 0.8440178633
-0.20705728 0.079021856 1.141 0.2446524948 -0.8137281537 0.5272490978
-0.27368003 0.044495266 1.1132941 0.3288476467 -0.7407342196 0.5858088732
-0.36329857 0.10010394 1.2830001 0.3983063102 -0.8555389047 0.3307645917
-0.11257479 -0.21555384 1.0737001 -0.7769408822 0.102829203 0.6211191416
-0.071072899 0.035257999 1.2767501 -0.8241867423 -0.5091257691 0.2480064034
-0.047329478 -0.011832369 1.2270001 -0.6409311891 -0.5342078805 0.551207006
-0.16499422 0.13564791 1.2247778 -0.1213133112 -0.8624574542 0.4913758636
-0.11400458 0.13626137 1.2535 -0.6420000792 -0.6684096456 0.3755855262
-0.064918272 -0.16672206 1.1754 0.2618733048 -0.7092312574 0.654532969
-0.065395825 0.013512941 1.2330002 -0.5522819161 -0.634088695 0.5412173867
-0.25486976 -0.21378735 1.0685 -0.1925900429 0.3408361673 0.9201846719
-0.22511652 -0.01559999 1.0331113 0.01730377227 0.003444190603 0.9998443723
-0.085474998 0.088762499 1.25 -0.7490057349 -0.4463008642 0.4896998107
-0.087927908 -0.088863313 1.067 -0.878903985 0.09272455424 0.4678995013
-0.33581257 0.045600824 1.1632859 0.452955097 -0.7222285867 0.5227021575
-0.025707124 -0.026499631 1.2671429 0.08606243134 -0.432066977 0.8977256417
-0.11862089 0.11007164 1.2190001 -0.5863981843 -0.6436254382 0.4918164611
-0.24291031 -0.17860505 1.0600001 -0.1534332186 0.5439904928 0.8249440193
-0.15514369 -0.15897664 1.0410001 -0.05110162869 0.4172801673 0.9073399901
-0.056683511 -0.12376535 1.2107999 0.519693017 -0.5578916669 0.6470518112
-0.092378944 0.0064542894 1.2112308 -0.7119626999 -0.3893519938 0.5843921304
-0.21601444 -0.25851059 1.1016666 -0.07660704851 0.7095171213 0.7005118132
-0.30323526 -0.16468517 1.0470002 0.3492310643 0.2728452682 0.8964335322
-0.052686792 0.053481054 1.3556668 0.898850441 -0.0509124063 -0.435288161
-0.1521327 0.025674056 1.0846001 -0.7089397907 -0.4968623519 0.5005319118
-0.37200576 -0.0025805559 1.1340001 0.4111742377 -0.6550593972 0.6339029074
-0.17501928 -0.11487946 1.0237998 0.1664993614 -0.04497431591 0.9850153923
-0.06811963 0.045028228 1.317 -0.3284500241 -0.8788670301 0.3459961712
-0.17723997 -0.21786019 1.0811428 0.1684469581 0.4137181938 0.8946859241
-0.30441663 0.044232275 1.1345334 0.3870532811 -0.73525846 0.5564033985
-0.26044321 -0.25490791 1.0535001 0.8705947995 0.412284404 0.268488884
-0.07383725 -0.050209329 1.123 -0.6585550308 -0.57725811 0.4827818871
-0.1448639 -0.035311081 1.0328002 -0.5019088984 -0.1274766624 0.8554748297
-0.19424176 0.1030774 1.1641111 0.2193461657 -0.8343952298 0.5056400299
-0.12820862 -0.0070718196 1.0652858 -0.7642085552 -0.4405609667 0.4710533917
-0.094842941 -0.16414842 1.091077 0.003218774451 -0.4833139181 0.8754411936
-0.26388669 -0.22763777 1.08 -0.2026934028 0.4421737492 0.873726368
-0.36002332 -0.031851929 1.1010001 0.7627313137 -0.1765155941 0.6221600771
-0.10446461 -0.13277428 1.11365 -0.0082371803 -0.5549573302 0.8318380117
-0.1589721 -0.22293721 1.0730001 0.3030474782 0.4431965649 0.8436462879
-0.037359148 -0.095911212 1.2175714 0.5958189368 -0.5201185346 0.6119447947
-0.23554961 -0.20535065 1.0723438 -0.179369539 0.3737353384 0.9100266099
-0.10491625 0.10781977 1.2423334 -0.8473796844 -0.4380105734 0.3001572192
-0.27235755 0.060856447 1.138 0.2809873521 -0.7753571868 0.5655681491
-0.12180129 -0.16657732 1.0715001 -0.9230417609 0.0593579039 0.3800928295
-0.13758357 -0.22498523 1.0354288 -0.6335362196 -0.03010532446 0.7731271386
-0.10735969 -0.02586874 1.0824666 -0.7520471215 -0.5189134479 0.4063913822
-0.15498868 -0.23485722 1.0258998 -0.3947572112 0.1071006209 0.9125218987
-0.13814312 -0.13196337 1.028 -0.4545206726 0.3410925269 0.8228407502
-0.11830062 -0.20447783 1.057 -0.7516591549 -0.1676120162 0.6378986835
-0.28178608 -0.059661549 1.0470001 0.3784660399 -0.3667807579 0.8498442769
-0.2844823 -0.20350501 1.0685 0.1666335911 0.3097261488 0.9361105561
-0.084991664 -0.11447071 1.1317141 -0.159054324 -0.6506066322 0.7425716519
-0.083233356 0.027563278 1.233 -0.8053299189 -0.4673271775 0.3647589087
-0.20607892 -0.19299127 1.0664285 -0.01875408739 0.4062901437 0.9135516286
-0.13778307 0.10169011 1.1876668 -0.5801268816 -0.6545966864 0.4847225845
-0.040563367 0.052152898 1.322 0.8134253025 -0.2258969396 0.536012888
-0.18836586 -0.00090997998 1.0380001 -0.299228549 0.07472819835 0.9512507319
-0.32223791 -0.15544331 1.057 0.4811520875 -0.005504868459 0.8766198158
-0.2442573 -0.14509244 1.0337744 0.05376124009 0.277954489 0.9590886235
-0.24521844 0.094204612 1.1752859 0.219530046 -0.8019323349 0.5556178093
-0.2769824 -0.1030221 1.0455 0.1093951836 0.3456843197 0.9319522977
-0.2351325 0.13111076 1.2360001 0.2016130984 -0.8486050367 0.4891029298
-0.2494555 -0.00092049997 1.0500001 0.2700552046 -0.6645627022 0.6967256069
-0.025204167 -0.061210122 1.25 0.4053260386 -0.6513627172 0.6414338946
-0.2956689 -0.12383306 1.0506666 0.3479484916 -0.140299961 0.9269561768
-0.1218254 0.041068617 1.1810001 -0.9094802737 0.01701606996 0.4153986573
-0.24504831 -0.10515057 1.0430002 0.1329880953 0.04134417325 0.9902549386
-0.22526412 0.11420529 1.1951334 0.168856591 -0.8455320001 0.5065206289
-0.32444486 -0.10376921 1.0547222 0.4235277772 0.3857865632 0.8196297884
-0.24587446 0.075215846 1.1439092 0.2383561432 -0.8328678012 0.4995173812
-0.12065125 -0.16119006 1.1010001 -0.1375974417 -0.6327751875 0.7620121241
-0.10551686 -0.015195138 1.1340001 -0.6355401874 -0.7332238555 0.241808638
-0.35473749 -0.075569123 1.0831175 0.5626248717 -0.4114058316 0.7170763612
-0.24344333 0.1411749 1.268 0.242934525 -0.9356968403 0.2558402717
-0.33609912 0.032569047 1.149 0.468901962 -0.6900520921 0.5513248444
-0.18561384 0.14826888 1.2528 0.1171634644 -0.9259927273 0.3589014113
-0.27526394 0.014456932 1.0816799 0.3454940915 -0.6685062051 0.6585842967
-0.14447588 -0.08350122 1.031 0.01985165663 -0.3895009458 0.9208120704
-0.37069237 -0.12197589 1.087 0.6062538624 0.01349889953 0.7951565981
-0.23511322 -0.084946372 1.0335001 -0.01250448916 0.3792724311 0.9252005219
-0.024168195 -0.0065622255 1.278 0.411691606 -0.08171979338 0.9076518416
-0.26501411 0.053538401 1.1247647 0.2799142897 -0.7849754691 0.552685678
-0.14091715 0.058550812 1.132 -0.7331845164 -0.5141416192 0.4450830221
-0.30604345 0.017193187 1.1047499 0.3944004774 -0.7392776012 0.5458176136
-0.11537393 0.066376813 1.1830001 -0.8746802211 -0.1477878839 0.4616202712
-0.34677362 0.094678029 1.2557501 0.408138454 -0.8492645025 0.3349220455
-0.29363322 -0.041948169 1.0458751 0.3436037004 0.3073283136 0.887403965
-0.37454927 -0.082592957 1.0955 0.7583711147 -0.1799358279 0.6264953017
-0.29465061 0.033041235 1.1166251 0.3990207911 -0.6934068799 0.5999743938
-0.17451729 0.024848239 1.0528336 -0.1340523064 -0.5722652078 0.8090379834
-0.21963392 -0.060557503 1.031 0.1504033953 -0.2339033037 0.9605561495
-0.093293779 -0.053111296 1.0833846 -0.7685877085 -0.5094437599 0.3869625032
-0.14955495 0.061581451 1.115 -0.6305732727 -0.6181129813 0.4693758786
-0.33990121 -0.032191198 1.08 0.6405051351 -0.4010930955 0.6548873782
-0.04387629 -0.075310051 1.245 0.6471264958 -0.5722517967 0.5037412643
-0.15706491 0.018996052 1.057 -0.6321287751 -0.3417617083 0.6954222918
-0.29496822 0.05528184 1.1436667 0.3524459302 -0.7656370997 0.5381279588
-0.039489448 0.051455949 1.365 0.9591004252 -0.2009817809 -0.1993305385
-0.20894356 0.05881615 1.1120001 0.234887138 -0.7410691977 0.6290027499
-0.3229146 0.091299869 1.2156668 0.4905327559 -0.7204110622 0.4902912676
-0.076103657 0.0029580926 1.2270001 -0.4430863559 -0.560161829 0.6999236941
-0.21541646 -0.044860892 1.0331155 0.223317802 -0.3700961471 0.9017527103
-0.080996402 -0.031406295 1.1313334 -0.6058754921 -0.612126708 0.5081493855
-0.27591988 -0.17696612 1.0500001 0.01206147671 0.5480917096 0.8363312483
-0.26105466 0.091833465 1.177 0.2202404886 -0.8254239559 0.5197782516
-0.25540039 -0.15840301 1.041 -0.05159294978 0.3830575347 0.922282517
-0.10507389 -0.18419297 1.0830666 -0.2997941971 -0.4063921273 0.8631157875
-0.15879151 -0.0082608303 1.0470001 -0.1860337704 -0.5653591752 0.803592205
-0.085523777 -0.13689198 1.1074544 -0.06517338008 -0.5813094378 0.8110682964
-0.033198711 0.045025531 1.3057501 0.6059669852 -0.39653337 0.6896124482
-0.2755504 0.082621604 1.166091 0.2798540294 -0.7981491089 0.5335163474
-0.032007977 -0.038630318 1.2590001 0.1218611524 -0.4898432195 0.8632516861
-0.17593023 0.057201952 1.0966251 0.005707072094 -0.8305047154 0.5569823384
-0.05364674 0.0285355 1.302 -0.1540948153 -0.96408391 0.2163261026
-0.29729521 -0.00094679999 1.08 0.352658391 -0.6766604781 0.6463456154
-0.073938675 0.085897356 1.2853078 -0.8920530081 -0.3965412676 0.2167865634
-0.30478412 -0.048589032 1.06075 0.2396861017 0.2511421442 0.937804997
-0.34084538 -0.12840712 1.077 0.6209085584 -0.07663684338 0.7801277637
-0.14539221 -0.0047086142 1.0563476 -0.3588978648 -0.591794014 0.7217839956
-0.081713222 -0.19591483 1.123 -0.6200891137 -0.6700283289 0.4081072211
-0.16236733 -0.19387299 1.057 0.3113772571 0.4775708616 0.8215657473
-0.078963116 -0.21154317 1.1120001 -0.8878996372 0.348190248 0.3006621897
-0.13504267 0.015877718 1.0822667 -0.5928969383 -0.6273918152 0.5048294067
-0.24345385 0.11018385 1.197 0.2584841549 -0.8360800743 0.4838967621
-0.11752944 0.09129519 1.197 -0.6656271815 -0.5308350325 0.5245518088
-0.30718061 -0.023240311 1.0604285 0.4555596709 -0.5328804851 0.7130945325
-0.050226863 -0.10793433 1.2190001 0.5547566414 -0.5436451435 0.6298373342
-0.11292957 -0.011099914 1.1010001 -0.8409628868 -0.4912587106 0.2268176824
-0.013623775 0.085947521 1.3430002 0.3296647668 -0.7376574278 0.5892220736
-0.20520897 -0.072904773 1.0266665 -0.02706978098 0.3773035407 0.9256939292
-0.23874263 0.066372432 1.13 0.2380610108 -0.7908939719 0.563749671
-0.091045722 0.076107316 1.2427143 -0.7396203876 -0.3253109455 0.5891811848
-0.36217466 0.040241629 1.177 0.4630785286 -0.7380430102 0.4907655418
-0.1227307 0.04868656 1.1570001 -0.9436884522 -0.2148140818 0.251608789
-0.28781253 -0.010693799 1.0607501 0.3905642927 -0.6779322624 0.622789979
-0.21471077 -0.10508797 1.0334002 0.2116281837 -0.2206287533 0.9521220922
-0.25069949 -0.057783727 1.0380001 0.2574940324 -0.4571726918 0.8512872458
-0.34772456 0.10760207 1.2920001 0.3940138221 -0.8574550748 0.3309439421
-0.35604677 0.078523912 1.2270001 0.394346863 -0.811023891 0.4321235418
-0.32267958 -0.076630987 1.0560001 0.5010694265 -0.4923653603 0.711692214
-0.31817546 -0.13258758 1.0606 0.5255599022 -0.2098773569 0.8244624138
-0.27571461 0.10639128 1.2122223 0.1766584069 -0.8069357276 0.5636014342
-0.14351599 -0.20690779 1.0346668 -0.2893284261 -0.564337194 0.7731834054
-0.32519901 -0.045162961 1.0612273 0.3947278261 0.09027805179 0.914352119
-0.10707431 -0.078561604 1.0380001 -0.6706526279 -0.1989856511 0.7145836353
-0.056100529 -0.094082996 1.245 0.6166569591 -0.5705156326 0.5424445868
-0.11389277 -0.094863094 1.0340717 -0.6547961235 0.1081985608 0.7480208278
-0.12535498 0.13625827 1.2434 -0.4202406704 -0.6990228295 0.5785887241
-0.23383267 -0.068592027 1.0275714 0.1193315834 -0.1563757658 0.9804624319
-0.33350837 -0.019002188 1.0838333 0.5313618779 -0.6210975051 0.5761010647
-0.14652799 0.10325117 1.1754001 -0.4914164841 -0.7388283014 0.4611318111
-0.24478462 -0.03002934 1.0380001 0.004274845123 0.2752970159 0.9613497257
-0.3181248 -0.0113616 1.08 0.4707306921 -0.6287143826 0.6189756393
-0.27026406 -0.068248503 1.0380001 0.2707009912 -0.4175229967 0.8674073815
-0.14569247 0.083689123 1.1452354 -0.573317647 -0.6424276829 0.5085209012
-0.25300863 0.10099521 1.1876668 0.2551137805 -0.8146956563 0.5207570791
-0.073046498 0.022895902 1.2436666 -0.5896310806 -0.7167759538 0.3722463846
-0.10649252 0.05521518 1.2049092 -0.8689504862 -0.1120498106 0.4820476472
-0.046812832 0.034436632 1.324 0.08642829955 -0.9377112985 0.3364931345
-0.071438693 -0.011388777 1.1810001 -0.3498905897 -0.892490983 0.2846690118
-0.087629847 0.032059699 1.2190001 -0.7509511709 -0.2614970207 0.6063758135
-0.19411705 0.083021551 1.1346155 0.2024289221 -0.8196699023 0.5358766317
-0.19598167 -0.16685355 1.0523573 0.07150916755 0.652421236 0.7544752955
-0.26424575 0.071517587 1.149 0.2526594102 -0.7904506922 0.557988286
-0.19246288 -0.2546224 1.1010001 -0.05689898506 0.633138597 0.771944344
-0.038693581 -0.024040975 1.2855 0.6097868085 -0.4575342536 0.6471649408
-0.17560242 0.043474898 1.0737727 0.04054739699 -0.7758490443 0.6296143532
-0.12692343 0.0020232217 1.077 -0.7889595628 -0.4513858259 0.4168855846
-0.041248918 0.061873384 1.307 0.736387074 -0.3892228007 0.5533892512
-0.24886441 -0.24658026 1.0417501 0.6019908786 0.419632107 0.6793496013
-0.03413076 0.015164202 1.2834766 -0.3323402703 -0.3656187356 0.8694095016
-0.1329098 0.036291167 1.1141539 -0.7095437646 -0.5533869267 0.4362459481
-0.25297424 -0.25393823 1.0951251 -0.1649125963 0.5454607606 0.8217520714
-0.17263407 -0.058749814 1.031 -0.1636086851 0.15100348 0.9749000669
-0.3086831 -0.19175768 1.067 0.3122534752 0.5796620846 0.7526550293
-0.3315506 -0.088401139 1.057 0.590557754 -0.2328046858 0.772685945
-0.21473357 0.12436163 1.214 0.2163498551 -0.8543397784 0.4725423455
-0.1323323 0.078412749 1.1738001 -0.7225363255 -0.5084771514 0.4683932364
-0.24439363 -0.16733111 1.0506668 -0.1422471255 0.564879179 0.8128205538
-0.11256356 -0.0015275916 1.1620001 -0.6852793097 -0.6714203954 0.2821115851
-0.087472491 -0.21166138 1.0925001 -0.7758197784 0.3182540238 0.5448101163
