# .PCD v0.7 - Point Cloud Data file format
VERSION 0.7
FIELDS x y z normal_x normal_y normal_z
SIZE 4 4 4 4 4 4
TYPE F F F F F F
COUNT 1 1 1 1 1 1
WIDTH 512
HEIGHT 1
VIEWPOINT 0 0 0 1 0 0 0
POINTS 512
DATA ascii
0.4230133 -0.30563754 1.1126667 0.8409295082 0.02603817917 0.5405178666
-0.48554549 -0.48718172 2.3330002 0.003831379814 0.7408156991 0.6716974378
0.46643838 -0.28576264 2.1030002 0.09555121511 0.7254546881 0.681605041
-0.22074817 0.22531854 1.5640001 0.9165458679 -0.203399539 0.344343245
0.45869479 0.17306715 1.605 -0.97113657 0.08753310889 0.2218821645
0.17047162 0.25335285 1.0743333 0.7510251403 -0.2646005452 0.6049361825
-0.036226496 -0.20333582 1.3330001 -0.6702139378 -0.2079340667 0.7124441862
0.073042698 -0.32642975 2.2120001 0.0352046825 0.7230292559 0.6899197698
0.15074635 0.43017858 1.3980001 0.98425138 0.09986408055 -0.1458642632
-0.23999889 -0.011125777 1.8130001 0.9876771569 0.08088200539 0.1339848638
0.1868878 -0.47458175 1.2920001 0.3186706007 -0.3302559555 0.8884706497
0.24479175 -0.042873133 1.2270001 0.02810992859 0.7533780932 0.656986475
-0.074194387 0.045251511 1.128 0.2792543471 0.5415087342 0.7929598689
0.39350456 0.22514509 1.302 0.5849954486 -0.6926899552 0.4218541682
-0.20735796 -0.26062423 2.1700001 0.001637023292 0.7414387465 0.6710186005
0.30394909 -0.45625767 2.286 0.03738062829 0.7197446227 0.6932318211
-0.18039082 0.027845563 1.381 0.1814822406 -0.5877424479 0.7884307504
0.49692973 -0.11248071 1.9150001 0.06581282616 0.7307152748 0.6795026064
0.22454001 -0.24674173 1.3430002 0.4311429858 -0.3302363753 0.8396782875
0.43634343 -0.076348782 1.1064284 0.7724484205 -0.2594091892 0.5796812177
0.29253826 0.078018948 1.0470001 -0.1406637877 0.6068851352 0.7822430134
0.13241586 0.41430932 1.1947144 0.6685361862 -0.2903633714 0.6846520901
0.35168886 -0.48023009 1.1730001 0.541110754 -0.174388051 0.8226712346
0.054934785 -0.053313833 1.2347502 -0.06243739277 0.7481680512 0.660564959
0.10515661 0.075162552 1.0830833 -0.05409320816 0.8335223198 0.5498312712
-0.15716881 -0.09059035 1.245 0.03570050001 0.6113972068 0.7905181646
0.35644022 -0.18524978 1.2333335 0.8031368256 -0.06318943202 0.5924342275
0.40790424 0.32683009 1.4450001 0.5036997795 -0.7376057506 0.449693501
0.37564728 -0.18345565 1.9930001 0.09555121511 0.7254546881 0.681605041
0.3059178 -0.34536597 1.245 0.5974242091 -0.2551421523 0.7602544427
0.37111726 0.1238204 1.177 0.5407963991 -0.6529498696 0.5302789211
0.1055682 -0.15131442 1.3380001 -0.1314104944 0.7001076341 0.7018408775
0.47409958 -0.19746566 1.0380001 0.7594124079 -0.1157896072 0.6402230859
-0.17766702 0.14315616 1.4580001 0.4614731371 -0.4062563181 0.7886686921
0.14479464 -0.35540503 1.365 0.8333345056 0.0115845697 0.5526475906
-0.21324566 0.070581309 1.7130001 0.9832032919 0.1012778059 0.1518359035
-0.4891879 -0.40274504 2.2410002 0.002915842924 0.7399779558 0.6726247668
0.12831156 -0.24042846 1.4210001 0.3970271349 -0.08188726753 0.9141465425
0.34530964 -0.0017068699 1.1676668 -0.1083367094 0.7236193419 0.6816437244
0.21526577 0.037085291 1.1340001 0.03750485182 0.8083932996 0.5874466896
0.24950548 -0.3555944 2.2410002 0.03209638223 0.7339307666 0.6784655452
0.099707685 0.15346313 0.98900002 0.1462019384 0.6092851162 0.7793565989
0.21484277 -0.12403855 1.3120002 0.1703015417 0.6186891198 0.7669557929
-0.044741563 -0.10344767 1.2668571 -0.06936889887 0.7251677513 0.6850691438
0.484561 -0.31432548 1.0163217 0.6007553339 0.1004753634 0.7930937409
0.41237661 -0.19559117 1.132 0.8998277783 0.006316145416 0.4361995459
-0.0026582556 0.10331253 1.0646924 0.3306878805 0.5338007808 0.7782687545
0.034907803 0.014200754 1.1445793 -0.05481738597 0.8106026649 0.5830252171
0.43163562 -0.42476866 1.1190001 0.6457679272 0.1355325133 0.7514085174
0.20487748 0.13437185 1.0121893 0.2957856357 0.1409148872 0.9448035955
0.48572066 -0.18345565 1.9930001 0.1000049487 0.7266743779 0.679664135
0.10560421 0.49568665 1.2558461 0.6019713879 -0.403622359 0.688998878
0.14571063 -0.013788067 1.1943334 -0.01864174753 0.7856547832 0.6183842421
-0.08484482 -0.034745224 1.1948336 0.01079146285 0.6788381338 0.7342086434
0.27519953 -0.44482771 1.2342858 0.5380889177 -0.3108661473 0.7834682465
0.43724978 0.25738814 1.5160002 -0.9840826392 -0.08794988692 0.1544218957
0.21520412 -0.37490827 1.2919999 0.5373870134 -0.1975053251 0.8198822141
0.13787039 0.32491389 1.1446002 0.5535505414 -0.4328711629 0.7114803791
0.37378716 -0.2752699 1.1943336 0.7758771777 -0.08860465139 0.6246309876
0.3017433 -0.25511676 1.2830001 0.6919645071 -0.1563495398 0.7047978044
0.37168825 -0.37479427 1.1810001 0.7557922602 -0.1196160689 0.6437934637
0.1343873 -0.084608197 1.276125 -0.06557928771 0.7525357008 0.6552780867
0.38742793 -0.1093554 1.1880001 0.8837422132 -0.0005277851014 0.4679737687
-0.12306997 -0.14377333 1.312 0.2177050114 0.5335657001 0.817258954
0.40234616 0.27984077 1.3700001 0.4524745047 -0.734521687 0.5057120919
0.35192207 0.06921459 1.1120001 -0.3176616132 0.03772106022 0.9474535584
0.025336251 -0.13532156 1.3136668 -0.05389980599 0.7542924881 0.6543223262
0.043024462 -0.19260484 1.376 -0.1844612062 0.6762907505 0.7131654024
0.3667272 0.17135765 1.245 0.6256998181 -0.6678205132 0.403132081
0.30447379 -0.17634937 1.302 0.7385630012 -0.07569810003 0.669921279
0.18479256 0.081608899 1.0700001 0.01601438224 0.8168001175 0.576698482
0.42260945 -0.1340809 1.9360001 0.09985322505 0.7267479897 0.679607749
0.45107079 -0.36660254 1.0706002 0.8257173896 0.2035486698 0.5260786414
0.42035553 -0.016284959 1.161 0.5969477892 -0.06674138457 0.7994991541
-0.0055439142 -0.02486928 1.196143 -0.162009716 0.750856638 0.6402868032
0.11703237 0.031008577 1.141 -0.05736461282 0.7525824308 0.6559946537
0.12181021 0.47659719 1.3490001 0.9774244428 0.1690243632 -0.1267762184
0.44766891 -0.14550363 1.0848181 0.7009622455 -0.1372503042 0.6998673081
0.16405828 -0.28554037 1.3732728 0.5394239426 -0.5593052506 0.6294437647
0.2450539 -0.30556157 1.3054374 0.2894416451 -0.4154644012 0.8623299003
0.26445895 0.0020573612 1.1738002 0.08298121393 0.7823027968 0.6173462868
-0.15506251 -0.025556993 1.2032306 0.2294867635 0.524869442 0.8196632862
0.45140335 -0.26535371 1.061125 0.8609002233 -0.02192671224 0.5083011389
0.1681338 0.1860867 1.0446001 0.676509738 -0.2560527623 0.6904864907
0.28490925 0.045989521 1.1144613 -0.007673331071 0.8100549579 0.5863037705
-0.18634574 0.077469565 1.4330001 0.5628365278 -0.3873139918 0.7302074432
-0.19500923 0.19500926 1.5030001 0.271209389 -0.5097171664 0.8164764643
0.064660989 0.11240462 1.0327369 0.128153801 0.6824441552 0.7196155787
0.17211597 -0.1602459 1.3540001 0.0554366149 0.6401002407 0.7662887573
0.13389793 0.11168921 1.031 0.04299624637 0.7767648697 0.62832129
0.31226149 -0.042959996 1.2190001 0.18239142 0.6838935614 0.706415534
0.16804823 -0.41258737 1.322 0.7523776889 -0.0673565641 0.6552792788
0.26272911 -0.09131097 1.2780001 0.04210097343 0.7054659128 0.7074922919
0.22540414 -0.49458861 1.24212 0.570073843 -0.26429528 0.7779227495
0.33193231 -0.42255509 1.202 0.5915756822 -0.2191367745 0.7758977413
0.035896394 0.057206716 1.0959091 0.007742164191 0.7238591909 0.6899042726
0.075444669 -0.014331553 1.1861111 -0.03455708548 0.7999273539 0.5991010666
0.19504368 -0.072372712 1.2589999 0.05987255275 0.7566770911 0.6510415077
0.18694817 -0.32486933 1.3276248 0.5367695689 -0.2256054729 0.8130071759
0.41111284 -0.36554372 1.13 0.8168708682 -0.05708559975 0.5739888549
0.07452368 -0.10162319 1.2880001 -0.06326800585 0.7107205987 0.7006235719
-0.11354848 0.014398576 1.166846 0.3709611595 0.4695206583 0.801210463
0.12159367 -0.18603832 1.3870001 -0.2671151757 0.8112388849 0.5201355815
-0.044900447 -0.145064 1.3132502 -0.3162236512 0.5022582412 0.8048225045
0.38530198 -0.21498246 1.1846797 0.8335630894 -0.02126581036 0.5520148277
-0.094651066 -0.079419866 1.2410001 -0.02657306567 0.7420676351 0.6697980762
0.20515555 -0.005298892 1.1857271 -0.06393712759 0.7417545319 0.6676168442
0.41183722 -0.13494428 1.1330477 0.9137132764 -0.05557199195 0.4025416076
0.29380366 -0.49451908 1.2050002 0.5534806848 -0.3200243115 0.7689236403
-0.025182251 0.0080583189 1.149 -0.03765319288 0.7766284943 0.6288325787
0.015320627 -0.086376213 1.2664 -0.1184274107 0.6904012561 0.7136673331
0.22299197 -0.43488979 1.2654999 0.5293552876 -0.2034128904 0.8236541748
0.26746896 -0.38887849 1.2590001 0.5064455271 -0.330509007 0.7964149117
0.11527529 -0.046878077 1.2330911 -0.04749915376 0.763481915 0.6440801024
0.34253624 -0.24440488 1.2416154 0.7533802986 -0.1440079212 0.6416228414
0.40624848 -0.25511634 1.1468949 0.8980295062 -0.07335406542 0.4337766171
0.23651841 0.088483214 1.0314287 0.1835514456 0.7596258521 0.6239210367
0.49292451 -0.25627396 1.0176874 0.4677095115 -0.2865824997 0.8361329436
0.38289902 -0.42511997 1.1553156 0.7104173899 -0.1024046838 0.696290493
-0.036303863 -0.062119938 1.2270001 -0.1553482264 0.6975415945 0.6995017529
0.27301633 -0.22450587 1.3220003 0.6490396857 -0.3108253777 0.6943594813
-0.024565816 0.055122275 1.1031998 0.2095741034 0.6355320215 0.7430866361
0.16475487 0.05206085 1.1140771 0.01913078129 0.818320632 0.5744435191
0.44280151 -0.21474956 1.083909 0.8561244011 -0.01103379112 0.516651988
0.35386464 -0.32478058 1.2112175 0.6157285571 -0.1624552757 0.7710295916
0.39308614 -0.32487559 1.1636088 0.8402599096 -0.1147697493 0.5298973322
0.15451823 -0.1243706 1.316 0.007500842679 0.7445325851 0.6675440073
0.24426943 0.069246732 1.087 0.01459683012 0.7833061218 0.6214647293
0.36427167 -0.12755062 1.233 0.8437269926 -0.008206848055 0.5367098451
0.11124549 0.44606203 1.2320001 0.6763758659 -0.2960355282 0.6744468808
0.32150432 -0.29334292 1.2516667 0.7058928609 -0.3013267815 0.6410284042
0.16246104 0.29370531 1.1077856 0.7674259543 -0.1996041983 0.6092746258
0.0035478701 -0.17148039 1.3490001 -0.2431812584 0.5410503745 0.8050636053
0.16515787 0.018237472 1.1558001 0.01040076278 0.7747604251 0.6321693659
0.32910767 -0.1495944 1.2640001 0.7954022288 -0.03629532829 0.6049941778
0.13142057 0.36752513 1.1730001 0.6707117558 -0.3544995189 0.6515180469
0.38329619 -0.1644197 1.1946003 0.8768082857 -0.05946958065 0.4771484137
-0.094659954 -0.11540096 1.2763333 0.02833848074 0.716606915 0.6969013214
0.45312876 -0.31510499 1.0645789 0.9094496965 0.05607802793 0.4120151699
0.18560348 -0.038623828 1.2238001 0.04915013909 0.7418251038 0.668789804
0.32499805 0.048474588 1.0758001 0.1321960688 0.9542984962 0.2680271864
0.33415654 -0.37465218 1.213276 0.5895721316 -0.1872260571 0.7857169509
0.28404513 -0.31418836 1.2758948 0.6320035458 -0.3403896689 0.6962085962
0.362876 0.041442662 1.153 -0.4558084607 0.494166106 0.7402962446
0.30492458 0.017106164 1.1479335 -0.01683058403 0.7417681217 0.6704452038
0.3266086 -0.20528649 1.2657777 0.752407968 -0.1450551301 0.6425272226
0.49976048 -0.15284771 1.9590001 0.1000049487 0.7266743779 0.679664135
0.054158714 -0.15894406 1.3430001 -0.07475990057 0.700022161 0.7101971507
0.44111499 0.14512253 1.6390001 -0.97113657 0.08753310889 0.2218821645
-0.078113459 -0.17731985 1.322 -0.09597335756 0.5857916474 0.8047591448
-0.20508476 0.25065917 1.5289999 0.8865209818 -0.148391068 0.4382472038
0.43124336 -0.25479159 1.1032224 0.8781627417 0.005483985879 0.4783305228
0.38685429 0.24546902 1.344 0.5708666444 -0.6461119652 0.5066069961
0.14956021 -0.39517942 1.3870001 0.9392310381 0.1805549562 0.2919674814
0.074649341 0.037378337 1.1253334 -0.1298729777 0.7683506608 0.6267138124
0.4147931 0.30894083 1.4039999 0.4740532339 -0.7417888641 0.4743657112
0.30133489 -0.40177983 1.2320001 0.5696851015 -0.2842485309 0.7711430788
0.4154247 -0.071832754 1.1460001 0.7199937105 -0.287038058 0.6318371296
0.15315016 0.14170791 1.0040001 -0.02586312592 0.677893281 0.7347052693
-0.010948982 -0.1181735 1.2920001 -0.2159997523 0.7059766054 0.6744932532
-0.064333282 -0.0051120534 1.1648403 0.06932877004 0.7086191177 0.7021769285
0.29039583 -0.071229167 1.25 0.1649886072 0.7334063649 0.6594648361
-0.13402042 -0.058968984 1.223 0.08181206882 0.6605430841 0.746317327
0.30562368 -0.014360326 1.1865999 0.1546440721 0.7435501814 0.6505523324
0.41621503 -0.1606141 1.9700001 -0.5083742142 0.7143988609 0.4808221459
0.35809878 0.095808558 1.1463333 -0.1401564032 -0.7984173894 0.5855646133
0.11228873 -0.12030935 1.307 -0.1476486474 0.7040367723 0.6946452856
0.044755343 0.085660741 1.0644401 0.0527529642 0.733107388 0.6780639291
0.25767905 -0.26586601 1.3170002 0.5908894539 -0.3065102994 0.74625808
0.1853776 -0.098540843 1.2920001 0.005210760515 0.7158625722 0.6982218027
0.2049922 -0.28464752 1.3362 0.4953371882 -0.4351633191 0.7518470287
0.25501505 -0.34512517 1.2834352 0.4693954885 -0.2693484128 0.8409038782
0.3586601 0.14261262 1.2140001 0.6843816638 -0.6461778879 0.3377512395
0.0057191229 -0.05749255 1.2340001 -0.08288829774 0.7207296491 0.6882429123
0.17796873 -0.36533895 1.317 0.6469315886 -0.1423693448 0.7491398454
0.084882848 -0.07352218 1.2574615 -0.04388391227 0.7153838873 0.6973522305
-0.15754752 0.066465355 1.404 0.5436308384 -0.3970443308 0.7394737005
0.15451249 -0.058079164 1.25 -0.05415102094 0.7301722169 0.6811139584
0.035096034 -0.03140264 1.2040001 -0.03906827793 0.7749988437 0.6307538748
0.084072329 -0.17895396 1.3700001 -0.03789788857 0.680680871 0.7315991521
0.17509529 0.1070229 1.0334784 -0.06949386746 0.6896318793 0.7208179235
0.3875021 0.0078517189 1.1683334 0.2401230484 0.4386865795 0.8659647703
0.074349098 -0.13270353 1.3162857 -0.09373276681 0.7181844115 0.6895109415
0.1146924 0.0025711169 1.1733335 -0.1115293652 0.7543908954 0.6468814611
0.14469668 0.086816244 1.0648667 -0.004194611683 0.8258779645 0.5638332963
0.19538969 -0.42536706 1.2946317 0.6882051229 -0.2493602782 0.6813172102
0.30666104 -0.4562355 1.206 0.6066071987 -0.2919668853 0.7394478321
0.46644101 -0.3443214 1.036316 0.7812967896 0.1054172888 0.6151931286
0.2017289 0.06080823 1.1010001 0.009387810715 0.8224526048 0.5687562227
0.13713537 -0.31515443 1.3754548 0.7915818691 -0.1600071043 0.5897422433
0.32512999 0.041102737 1.123 0.0347959362 0.7528476119 0.6572744846
0.0049290587 0.031544659 1.1245 -0.01331431977 0.7167143226 0.6972397566
0.023271553 0.12251788 1.041 0.3042450845 0.5591734052 0.7712068558
-0.045061901 -0.033538114 1.1954004 -0.04037887231 0.7117059827 0.7013160586
0.4326041 -0.34455985 1.1041598 0.7925775647 0.02329946682 0.6093258262
0.38524276 0.19669807 1.2758571 0.5671926141 -0.695219636 0.4415452778
0.0043625855 -0.2103588 1.3556668 -0.5961139798 0.2541804612 0.7616038322
0.38281211 -0.46460089 1.1546 0.6525550485 -0.0921715349 0.7521145344
0.431481 -0.38577163 1.1035624 0.728710115 0.03160982206 0.6840924025
-0.13272662 -0.11049436 1.268 -0.09840729833 0.7270596623 0.6794852614
0.15462513 -0.2555992 1.3965884 0.5998767018 -0.3485447764 0.7201836705
0.35105607 -0.28449076 1.2246001 0.6649881601 -0.1860720366 0.7233034968
0.4349367 -0.11520617 1.1054119 0.6855443716 -0.1254439801 0.7171420455
-0.082182243 -0.14153609 1.302 -0.2527461648 0.1506377608 0.9557340741
0.22495267 -0.097854413 1.2830001 0.08666031063 0.6835339069 0.724756062
-0.1721812 -0.053912617 1.2264287 0.2183571011 0.5824737549 0.782971561
0.025348818 -0.007420809 1.1754001 -0.03508259356 0.8123754263 0.5820785165
0.064315937 0.1436877 1.0101876 0.2217824012 0.5707163215 0.7906298041
0.40184081 -0.16498755 1.1545999 0.9196448326 -0.02607518807 0.3918845356
0.30388683 -0.21482849 1.2950557 0.7297620177 -0.2154684067 0.6488611698
0.25473267 0.034209818 1.1346 0.07790958136 0.8029178381 0.5909762979
0.47096056 -0.16693363 1.0638001 0.6880737543 -0.193238765 0.6994378567
0.18018129 0.22083759 1.054 0.6662610769 -0.2988084257 0.6832347512
0.2161749 -0.33724809 1.307 0.5000027418 -0.3263433576 0.8021827936
-0.19300517 0.1086453 1.4580001 0.535888195 -0.4230312109 0.7306630015
-0.20328936 0.16314942 1.4770001 0.1422585845 -0.6215589643 0.7703421116
0.36654291 -0.235139 1.2142779 0.8225674033 -0.06214553118 0.5652617216
0.075809747 0.01212956 1.153 -0.07271590829 0.7488093376 0.6587845087
0.43180782 -0.1741115 1.102818 0.7925887108 -0.04398333281 0.6081681848
0.46718451 -0.23575799 1.0447245 0.6781795621 -0.1589648128 0.717497468
0.4046472 -0.2941553 1.1458336 0.8784085512 -0.03595277295 0.4765561819
0.27473858 -0.028640699 1.21 0.1119903773 0.719628036 0.6852689981
0.084751278 -0.035459574 1.2153636 -0.03120389953 0.7894710302 0.6129940748
0.094523564 0.10128012 1.0513334 0.003971125931 0.7697678208 0.6383116245
0.47068101 -0.28421313 1.0325 0.7956690192 -0.1043739244 0.5966714621
0.243275 -0.46134582 1.25 0.4254256785 -0.2861991525 0.8585470319
0.23641039 -0.065145977 1.2548949 -0.03150656819 0.7244910002 0.6885638237
0.40465212 -0.4044579 1.1331998 0.7943370938 -0.05457476899 0.6050208211
0.13597946 -0.16368924 1.3572142 -0.02025512233 0.6709861159 0.7411931753
0.35324034 -0.44322109 1.181 0.6112475991 -0.1805125922 0.770578742
0.15894406 -0.38440913 1.3430001 0.8715748787 -0.04111616313 0.4885352552
0.10436665 0.053644814 1.1126002 -0.1193242297 0.7863258719 0.606179297
0.17831148 0.15307751 1.028 0.6324921846 -0.005735228769 0.7745454907
-0.12494165 -0.0146829 1.1865555 0.2261068225 0.4685518146 0.8540110588
0.039642867 -0.10986737 1.2920001 -0.1192858666 0.6629008055 0.7391437292
-0.14713857 0.017241111 1.3720001 0.155250445 -0.6156181097 0.7726005316
0.094739154 0.12575863 1.0168402 0.06802643836 0.7260204554 0.6843001842
0.26491591 -0.48545164 1.2241427 0.4798192382 -0.3165531456 0.8182711005
0.23451866 -0.016977137 1.202 0.002545026829 0.7178447843 0.696198523
-0.2110613 0.21552938 1.5270001 0.750530839 -0.3573215604 0.5558999777
0.22504428 0.014282651 1.1642003 0.01981474832 0.8138877749 0.5806840658
0.40480554 -0.10412464 1.1551818 0.9150517583 -0.0101135103 0.4032096863
0.0043367725 0.06865333 1.086 0.09851650894 0.6800290346 0.726536274
0.25527972 -0.42488396 1.2549603 0.4894379675 -0.3293839097 0.8074383736
0.28100955 0.063713282 1.0847501 0.3682552278 0.9041166306 0.2167053223
0.23217727 0.11344022 1.0070001 0.136897698 0.5303176641 0.8366732597
0.40350333 -0.44139722 1.1308889 0.7220247388 -0.05731482804 0.6894891262
0.19164985 -0.139063 1.3330001 0.1589879245 0.6748208404 0.7206522226
0.27611455 -0.28551137 1.2951821 0.6578424573 -0.2677801549 0.7039439678
0.19834451 -0.49613771 1.2675 0.620696485 -0.3055393696 0.7220675945
-0.083940834 0.018466981 1.149 0.2391113043 0.5695890784 0.7863803506
-0.040472195 0.028626673 1.126 0.1662987173 0.6524255276 0.739381969
0.048756693 -0.078675576 1.2640001 -0.09735169262 0.709649384 0.6977968216
-0.025313783 0.085077703 1.0841479 0.2546085119 0.4943794012 0.8311218619
0.35602403 -0.40493613 1.1859598 0.6336067915 -0.2028535455 0.7465874553
0.22488444 0.085311018 1.0629444 -0.08955924213 0.7924861312 0.6032784581
0.07532642 0.063499086 1.0934167 -0.09456081688 0.7747253776 0.6251870394
0.23578925 -0.40492386 1.2736524 0.3638972938 -0.316560328 0.875995636
0.16103724 -0.32484415 1.3540001 0.7426536679 -0.2014824003 0.6386472583
-0.0045163911 -0.14593869 1.3246667 -0.1426859498 0.737694025 0.6598850489
0.43917188 -0.28485122 1.0854999 0.8833333254 0.04970192909 0.4661029279
0.11503146 -0.023220619 1.2037998 -0.115296267 0.7583143115 0.6416121721
0.13513047 0.061500803 1.1018889 0.04239455983 0.8240107894 0.5649857521
0.41854477 -0.22503127 1.1176668 0.8384357691 -0.01294932235 0.5448465347
-0.078011937 -0.060913429 1.2190001 -0.02078280039 0.6886604428 0.7247861028
-0.16786537 0.1049533 1.4354001 0.4900597334 -0.4817000031 0.726502955
-0.015384952 -0.085193262 1.2538753 -0.2329391837 0.6783001423 0.6968846917
0.40732148 -0.32525876 1.1339999 0.8713769913 -0.03263215721 0.4895275831
0.39084256 -0.38071704 1.155 0.7573298812 -0.129426375 0.6400783062
0.38900241 -0.24660897 1.177 0.8378929496 -0.1234284341 0.5316962004
0.32712317 -0.31564939 1.2270001 0.7093552947 -0.2008391768 0.6756320596
0.45036909 -0.11424457 1.077 0.7581657767 -0.04127505422 0.6507541537
0.39745447 -0.13498141 1.165 0.8932712078 -0.02432385832 0.4488595724
0.41713747 -0.09548308 1.1245002 0.8038688302 -0.1519623995 0.5750672221
0.14488617 -0.0386368 1.2242001 -0.03869758174 0.7688314319 0.6382794976
0.21092339 -0.4653706 1.273 0.6160148978 -0.2217024863 0.7558926344
0.32789963 0.0802413 1.13 0.5186417103 -0.6341835856 0.5734299421
-0.05542637 -0.083142184 1.2446001 -0.07287388295 0.7296175361 0.6799615622
0.14876263 0.26535505 1.1120001 0.7854709625 -0.2384114563 0.5711351633
0.4034082 -0.21526307 1.1552222 0.9233359098 0.02520662732 0.3831650615
0.23500252 0.052656014 1.1123002 0.06797555834 0.807977736 0.5852788687
0.12149618 0.47580975 1.2352002 0.6019713879 -0.403622359 0.688998878
0.12532443 -0.20515807 1.411875 0.01910771057 0.4962840974 0.8679498434
-0.051481374 0.070908308 1.108 0.3435843885 0.4888032079 0.8018860221
0.20484792 0.10303244 1.0431666 0.1753716171 0.8304035068 0.5288428664
0.37756073 -0.13506995 1.2045455 0.8726549745 -0.01462067291 0.4881184101
0.43154904 -0.045056533 1.1421429 0.6019495726 -0.3959605992 0.6934492588
0.24601705 -0.3751862 1.2775238 0.43767941 -0.2847394645 0.8528541327
0.043708548 0.037386619 1.1190001 -0.0721328184 0.7283155918 0.6814347506
0.1506087 0.35276803 1.153 0.5553864837 -0.349295795 0.7546775937
-0.12551674 -0.082950197 1.245 -0.03336649388 0.7046316862 0.7087883353
0.19323136 -0.39221364 1.312 0.6407833099 -0.1932056993 0.7430130243
0.37715411 -0.30524561 1.1859998 0.7367760539 -0.09934586287 0.6687985063
0.35435233 -0.15527721 1.2433639 0.7617952228 -0.07492638379 0.6434703469
0.17497303 0.0010353433 1.1810001 -0.02125545219 0.7592291236 0.6504762173
0.2825672 -0.35348603 1.2640001 0.5906395912 -0.2497067302 0.7673274279
0.19584185 0.021984827 1.153 -0.0396740213 0.7733724117 0.6327092648
0.21589267 -0.3056187 1.3161176 0.4942251444 -0.3889456093 0.7774720788
0.21562843 -0.052010875 1.2360001 -0.01556251571 0.7313733697 0.6817996502
0.41585228 -0.27521792 1.1240715 0.8550031781 -0.02963192947 0.5177755356
-0.019702207 -0.17963776 1.322 -0.6153551936 -0.1199676096 0.7790672779
-0.025617203 -0.013547008 1.1755716 -0.1211792305 0.7529438138 0.6468316913
0.10442995 -0.095950969 1.2830001 -0.1014920548 0.7096467018 0.6972093582
0.0050620926 0.0068305479 1.1547499 -0.02325939201 0.8096308112 0.5864784122
0.32503012 -0.47453773 1.1873028 0.4243046641 -0.1937530637 0.884548068
0.37179872 -0.20419759 1.21 0.8531554341 -0.07699460536 0.515943408
0.28501791 -0.19629137 1.3145002 0.6710764766 -0.08568926901 0.7364194989
0.3165755 -0.23508692 1.2654545 0.7259721756 -0.1757239103 0.6648951173
0.40829578 -0.044230461 1.1626002 0.5256132483 -0.299295783 0.7963370681
-0.11524134 -0.042172924 1.2060002 0.09612476081 0.6264134049 0.7735413909
-0.094928972 -0.01238204 1.177 0.1677337587 0.6205388904 0.7660266757
0.24651128 -0.22697814 1.336889 0.4844976068 -0.362069279 0.7963466048
0.42739254 -0.14473066 1.1079999 0.7489960194 -0.03904037923 0.6614233255
0.37286884 -0.34481373 1.1837198 0.7443729639 -0.1461121142 0.6515828371
0.31802997 -0.26442057 1.2589999 0.7346658707 -0.1652770787 0.6579890251
0.30127791 -0.43208182 1.223 0.5479032397 -0.254394412 0.7969225049
0.17563643 -0.29659745 1.3479091 0.5789836049 -0.4039859176 0.7082184553
0.15515538 -0.1041773 1.2938422 0.02340099216 0.6850736141 0.728097856
0.29569885 -0.37471715 1.24356 0.6194298863 -0.2340682298 0.7493454814
-0.06523627 -0.11810015 1.2830001 -0.07762175053 0.7385197282 0.6697488427
0.22975941 -0.27594224 1.317 0.3893395066 -0.4254000783 0.816975832
0.45610255 -0.19540037 1.0657585 0.7458752394 -0.1367754787 0.6518915892
0.35402095 -0.21475466 1.2331766 0.757673502 -0.1401584893 0.6374060512
0.075230271 0.081608899 1.0700001 -0.02269933932 0.7815780044 0.6233943701
0.05477111 -0.0019357774 1.169 -0.02487947606 0.7981392145 0.6019591093
0.12848952 0.44179735 1.2046667 0.6834580898 -0.2618823647 0.6813975573
0.14557984 -0.14349455 1.3380002 -0.01093532145 0.7158204913 0.6981986761
0.33467209 0.018383043 1.149 -0.03158881515 0.7547847033 0.6552115679
0.11505526 -0.064691797 1.2564549 -0.04868683591 0.7556949854 0.6531115174
0.39138949 -0.18487683 1.1752223 0.8788414001 -0.006885070354 0.4770642817
0.16485804 0.068611443 1.087 0.04585861787 0.8188038468 0.5722387433
0.16293551 -0.079235762 1.273 0.04491155222 0.761249125 0.6469023824
-0.015127995 -0.044543792 1.2154667 -0.1771289706 0.7425133586 0.6459870338
0.12699756 0.12926762 1.0070001 0.01336672623 0.7342628241 0.6787337065
0.025757346 -0.15454845 1.3355001 -0.07932591438 0.7234060168 0.6858506799
0.49389297 -0.13238367 1.9360001 0.1000049487 0.7266743779 0.679664135
0.453706 -0.39354149 1.0865 0.7419554591 0.1900541782 0.6429475546
0.27599746 0.019138509 1.149 0.1124471948 0.8023591042 0.58615309
0.15903136 0.22490969 1.0734001 0.672549963 -0.2978984416 0.6774460077
0.14259136 0.39424992 1.1765001 0.6895944476 -0.3115639389 0.6537487507
-0.1553967 0.041098662 1.3870001 0.1805055737 -0.5876746178 0.7887054682
0.26498049 0.085478097 1.0351336 -0.07216410339 0.5993011594 0.7972643375
0.17333598 -0.44153109 1.3036667 0.6922959089 -0.3529263735 0.6294198036
0.18440685 -0.016860053 1.2019999 -0.03118211776 0.7650381327 0.6432296634
0.35409549 -0.35459214 1.2031764 0.70875144 -0.2151488066 0.671849966
0.17503579 0.036996834 1.1362859 -0.006093737669 0.7808980942 0.6246287227
0.38151044 0.15922984 1.2190001 0.6508127451 -0.6406796575 0.4073970318
0.3009471 -0.28271914 1.2729999 0.6204590797 -0.3193641901 0.716266036
0.076117583 -0.20233755 1.3844287 -0.02657236718 0.6172155142 0.7863453031
0.28452167 -0.24501982 1.3034285 0.6567869782 -0.2046422809 0.7257770896
-0.46515319 -0.47530937 2.3170002 0.003831379814 0.7408156991 0.6716974378
0.18873405 -0.26945052 1.3540001 0.5470824242 -0.5029695034 0.669120729
0.27217346 -0.048602398 1.2320001 0.150298357 0.7305876017 0.6660721302
-0.055506233 0.014711572 1.1456959 0.1587422192 0.6708425879 0.7244108915
-0.073135033 -0.098621495 1.2640001 -0.04542340338 0.7091857195 0.7035568953
0.32495359 -0.17552991 1.274591 0.7952691317 -0.05645603687 0.6036221981
-0.054998562 -0.17072469 1.307 -0.2830551267 0.2519840896 0.9254100919
0.14427938 0.036596451 1.136 0.006145224441 0.7689958811 0.6392242312
0.41601118 -0.16463056 1.1245 0.8770113587 0.005767095834 0.4804350138
0.16208369 -0.3547788 1.3430001 0.7524768114 -0.06332220882 0.655567646
0.18633024 -0.11770243 1.3120002 0.0643196553 0.6959974766 0.7151576281
0.33451498 -0.34202009 1.223 0.6173940301 -0.1648570448 0.7691857815
0.12132014 0.3880153 1.1930001 0.6655830145 -0.3109357059 0.6784675717
0.39617476 -0.27580202 1.1644076 0.879743278 -0.04969514906 0.4728447795
0.035559352 -0.17597197 1.3555385 -0.1152899563 0.6706733704 0.7327383757
0.43311733 0.25663313 1.4890001 -0.9831787944 -0.04783955961 0.1762691885
0.43930382 -0.32209259 1.087 0.8681560755 0.05540584028 0.4931888282
0.492966 -0.28494331 1.0168574 0.6071943641 -0.09111959487 0.7893112302
0.39455697 -0.019471643 1.169 0.5028681159 0.02903141826 0.8638754487
0.15291235 0.31497997 1.1242859 0.6489720941 -0.3777942955 0.6603837609
0.36838445 -0.16671735 1.2171251 0.8387456536 -0.1080918461 0.5336871147
0.39253536 -0.35182297 1.161 0.7885537148 -0.09957128763 0.6068513989
0.14483632 0.0027685803 1.1730002 -0.01679553092 0.7605487108 0.6490636468
0.2938745 0.055318639 1.0615555 -0.04908914119 0.7865343094 0.6155924201
0.30492201 -0.31431949 1.2553464 0.6075303555 -0.2786609828 0.7438110709
0.44899359 -0.23478624 1.0670002 0.8537170291 -0.07839687169 0.5148020387
0.20889215 -0.40310538 1.2880001 0.6075334549 -0.2561656833 0.7518525124
0.42444694 0.32707644 1.424 0.5036997795 -0.7376057506 0.449693501
0.26489359 -0.072845735 1.2589999 0.1094291583 0.7262160778 0.6787012815
0.04550086 0.13206778 1.0248233 0.2689173818 0.6019709706 0.75187397
-0.1161209 -0.12632529 1.2934999 0.3241490424 0.5969499946 0.7338787913
0.49229917 -0.23932473 1.0380001 0.5451311469 -0.2412671447 0.8028836846
0.21462202 -0.033102933 1.2180001 -0.01981472224 0.7167236805 0.697075665
0.26164293 -0.3205409 1.2920001 0.5416907668 -0.4002696574 0.7391585112
-0.024061868 -0.20051558 1.307 -0.5065116286 0.1071249694 0.8555526137
0.4668248 -0.31487063 1.0352858 0.7819551229 0.07886061072 0.6183261275
0.013926144 -0.1121619 1.2880001 -0.09734377265 0.7265815735 0.6801495552
-0.093932152 -0.16456589 1.302 -0.02636623755 0.4821225107 0.8757069707
0.15722491 0.118812 1.0190001 0.008520730771 0.7469638586 0.6648100019
0.12598827 -0.13229927 1.3254286 -0.1157771796 0.7132344842 0.6912974715
-0.035347056 -0.12645596 1.2936666 -0.04392943531 0.7162361145 0.6964740157
0.27634814 -0.41485357 1.2440002 0.5714336634 -0.2464549541 0.7827665806
0.13390574 0.01802795 1.1553999 -0.02245192789 0.7696431279 0.6380794644
-0.10970256 -0.098621495 1.2640001 -0.007116745692 0.688411355 0.7252855897
0.0295875 -0.069037497 1.25 -0.1308069676 0.7282550931 0.6727064848
-0.1036597 -0.060913429 1.2190001 0.02356428839 0.6712206602 0.7408829331
0.085148886 -0.1620194 1.3490001 -0.03487187624 0.7098231912 0.7035161853
-0.026877724 -0.15776055 1.3330001 -0.4397924244 0.3042648137 0.8449884653
0.3425962 -0.17538027 1.2537144 0.7858205438 -0.04368271679 0.6169099808
0.015005971 0.047853589 1.1070769 0.01682779379 0.7148350477 0.6990906
0.21484643 0.07283663 1.0827999 0.04153524712 0.8243329525 0.5645795465
0.40438873 0.26362476 1.3462727 0.5390086174 -0.6927966475 0.4790641963
0.4466835 -0.17478001 1.0823599 0.7642408609 -0.1286676973 0.6319656372
0.18424362 -0.055413928 1.2426 0.09564029425 0.7463905811 0.6586000323
0.085489027 -0.05194496 1.2344 -0.02806815878 0.7808967233 0.6240292192
0.4021568 0.23758543 1.322 0.4997832179 -0.7221882343 0.4781849384
0.17758022 -0.45599467 1.2780001 0.413980335 -0.3280495107 0.8491194248
0.33684778 -0.39351374 1.197 0.5367619395 -0.2572673559 0.8035547137
0.14113632 -0.27624118 1.376 0.3032566011 -0.5963917375 0.7432041168
0.11487839 -0.17431201 1.3649999 -0.1115569249 0.7128198743 0.6924180984
0.11498569 0.091170169 1.0612001 0.03413188085 0.8172530532 0.5752673149
0.32653949 -0.445759 1.1950003 0.5175518394 -0.3366166651 0.7866570354
0.23395583 -0.35502389 1.2919999 0.3802695572 -0.3076713979 0.8722003102
0.42797551 -0.20476915 1.1069999 0.8343173265 0.02267515287 0.5508180261
0.062378336 -0.03066054 1.2060001 -0.04478767142 0.77732867 0.6274983883
0.28779745 -0.46535879 1.219 0.5187577009 -0.2616551816 0.8138961792
0.016213657 0.087616108 1.0670002 0.1870653629 0.6407535076 0.744608283
0.34891069 0.11388777 1.1810001 0.5402374864 -0.6650183797 0.5156490803
0.10392211 0.016435748 1.1558888 -0.1681761295 0.7271079421 0.6656056046
0.36210629 0.017243156 1.1570001 -0.3780635893 0.4832663834 0.7896338105
-0.22409615 0.064763747 1.7342001 0.9930998087 0.04673050717 0.1075593457
0.20158949 0.15768778 1.0220001 0.5460945964 -0.03418793157 0.8370255828
0.15447591 0.098551571 1.0457499 0.01559562236 0.8151296973 0.5790684819
0.19528317 -0.34535351 1.3167915 0.5506363511 -0.2535498738 0.7953062654
-0.01004397 -0.099323705 1.273 -0.1873861402 0.6905108094 0.6986281276
0.36329263 -0.29464829 1.2046666 0.7904423475 -0.07507589459 0.6079181433
0.24562359 0.02122673 1.153 0.06750983745 0.7940132022 0.6041402817
0.12601557 0.050209329 1.123 -0.01396631449 0.7892468572 0.6139172316
0.16441883 -0.028034547 1.21 -0.01371722203 0.7529582977 0.6579252481
0.45448151 -0.30236936 2.1160002 0.09555121511 0.7254546881 0.681605041
0.13501029 -0.11212928 1.3051251 -0.04528726265 0.7126489878 0.7000575066
0.31625074 -0.36523601 1.2265555 0.669663012 -0.2047834396 0.7138733864
0.14418142 -0.22554573 1.4104999 0.4830414355 0.001099785557 0.8755968213
0.045079794 -0.14369395 1.3247274 -0.06810864806 0.7665240765 0.6385938525
0.3143957 -0.19479468 1.284389 0.7881919146 -0.109439902 0.6056206822
0.33420631 -0.27492923 1.2429999 0.7707869411 -0.2411360145 0.5896956325
0.26512569 0.054181296 1.10375 0.05488084629 0.8241426945 0.5637170672
0.025205851 -0.046528406 1.2254617 -0.1203156114 0.7301948667 0.6725619435
0.44546494 -0.095421828 1.0952381 0.7769799232 -0.07580497861 0.6249446273
0.21315536 -0.079235762 1.273 0.06734991819 0.7241992354 0.6862939596
0.12881652 0.34384882 1.1570001 0.5446284413 -0.3637205362 0.7557031512
0.38330609 0.18608715 1.2538573 0.539806366 -0.7317870259 0.4160490334
0.05863585 -0.17830084 1.365 -0.08982849866 0.7190147042 0.6891652346
0.44168222 -0.25453141 1.08 0.8623791337 -0.05849093571 0.5028727651
0.45522597 -0.29523385 1.0516537 0.8876776099 -0.02266085148 0.4599075317
0.20229672 -0.44492427 1.2830001 0.6594953537 -0.187785998 0.7278751731
-0.065012872 -0.043903992 1.2041175 -0.07464296371 0.6853175759 0.724408865
0.034461267 0.1016768 1.0502859 0.207868427 0.6522367001 0.728956759
0.21771666 0.099450819 1.0220001 0.402310133 0.7073378563 0.5812225342
0.19522788 0.1175672 1.0267142 0.2830683589 0.5073836446 0.8139005899
0.23594686 -0.325627 1.2967224 0.3440591693 -0.3453436196 0.8731328845
-0.065468594 -0.024946433 1.1853998 -0.04135196283 0.7112431526 0.7017287016
0.18381596 0.20383553 1.0380001 0.6650440097 -0.3193615973 0.6750738025
0.15384623 0.24749176 1.09 0.7953256369 -0.263276428 0.5460243821
-0.01162723 -0.19632636 1.3455715 -0.7364467978 0.05929214135 0.6738920808
0.19494554 0.044486251 1.1247647 0.01336206868 0.8212059736 0.5704754591
0.09228231 0.028432932 1.138 -0.1494891644 0.72926265 0.6677042842
-0.21237338 0.23266383 1.5430001 0.9081072807 -0.1978709102 0.3690369725
0.34537175 0.033550031 1.1347272 -0.4061038196 0.6094415188 0.6809263825
0.057015765 0.021005809 1.141 -0.1184601709 0.7777147293 0.6173548102
0.39395398 -0.15599063 1.1755456 0.8884058595 -0.02514688857 0.4583695233
0.06507542 0.095073901 1.0538001 0.02985326014 0.7812690139 0.6234802008
0.45119402 -0.34332019 1.0700001 0.899520874 0.02605258115 0.4361002743
0.46818471 -0.25797933 1.0380001 0.7270288467 -0.1241212338 0.6752947569
0.26509219 -0.014110875 1.1946472 0.09092825651 0.7666684389 0.6355718374
0.26056373 0.078075059 1.0730001 0.4199098945 0.8779175878 0.230079174
0.24448402 -0.1051776 1.2931111 0.03151323646 0.6731477976 0.7388362288
0.055295311 0.072699778 1.0805 0.006184788886 0.7648262978 0.6442068815
0.23263007 0.0015538916 1.182 0.05217945948 0.7737446427 0.6313450336
0.10491186 0.11225422 1.0326668 0.06597539783 0.7753816247 0.6280370951
0.29455507 -0.055656992 1.2334119 0.1701983213 0.7223019004 0.6703077555
0.1025871 -0.011977458 1.188 -0.1346164197 0.7576349974 0.6386451721
0.30414945 0.032863483 1.131143 -0.08305868506 0.7194777131 0.6895310879
0.35576773 -0.25504255 1.2260475 0.7335302234 -0.2038050443 0.6483802199
0.42742583 -0.06811174 1.126 0.693072021 -0.4006433785 0.5992795825
0.24532741 -0.254832 1.3330001 0.3937405944 -0.3631774187 0.8444350362
0.11562356 0.41794205 1.21 0.6563531756 -0.2853657901 0.6984030604
0.13505401 0.074168503 1.0827143 0.04412762076 0.8311747313 0.5542575121
0.055311847 -0.12420432 1.3066428 -0.1298154444 0.6953803897 0.7068196535
0.19771463 -0.36605877 1.3053335 0.577747345 -0.2482468486 0.7775483727
0.14452083 0.28444296 1.1240001 0.751085043 -0.1855439842 0.6335965991
0.04468457 -0.014553018 1.1853999 -0.01944960468 0.7961494327 0.6047874093
-0.17108676 0.048002761 1.404 0.3972102702 -0.5599873662 0.7270750403
0.33505782 -0.22541833 1.2560717 0.7281570435 -0.1818787754 0.6608384252
0.31473443 0.0047426508 1.1644787 -0.01100020856 0.7505101562 0.6607673764
0.27464706 -0.33499795 1.276913 0.560546279 -0.2758193612 0.7808402777
0.085118011 -0.11600913 1.3050001 -0.06089697033 0.7035739422 0.7080079317
0.034506805 -0.095282272 1.274875 -0.1335817426 0.6804758906 0.7204918265
0.32606038 -0.011350203 1.177 0.02825514041 0.7097724676 0.7038640976
0.37211022 0.1425565 1.1956667 0.656163156 -0.6321684122 0.4120837152
0.16356835 0.27570397 1.0940455 0.7943960428 -0.2380123287 0.558824718
0.26970649 0.069037497 1.0500001 0.04395430535 0.7322207689 0.6796475649
0.065080225 0.049538679 1.108 -0.09476298094 0.7623922229 0.6401391029
0.31577474 -0.02845134 1.202 0.1678904593 0.7178624272 0.675637722
0.32262364 -0.40407664 1.2111429 0.63389498 -0.2037849575 0.7460890412
0.18447126 0.17754094 1.0315001 0.5626433492 -0.2078897357 0.8001339436
0.31139025 0.067452483 1.054 -0.2033360302 0.6366659403 0.7438487411
0.285339 0.0064669745 1.1652224 0.1334507465 0.7778920531 0.6140642166
0.30957994 -0.49094999 1.189 0.5663672686 -0.2255038172 0.7927017808
0.43603656 -0.36551192 1.0948261 0.8146931529 0.0009324450511 0.5798915625
0.12124738 0.15090501 0.99500006 0.03894177824 0.6335344315 0.7727338672
0.43514618 -0.23512329 1.0930313 0.8724443316 -0.06083297729 0.4849126339
0.37825951 -0.40554169 1.1652354 0.7518709302 -0.1431945264 0.6435723901
0.19488183 -0.30464625 1.3332175 0.460426122 -0.4080140293 0.7883732319
0.095047422 -0.13657883 1.324 -0.07488562167 0.7194268107 0.6905195117
0.17497176 0.093897037 1.0535557 0.02512721904 0.8202044964 0.571518302
-0.018097321 0.027968587 1.126 0.002024055459 0.7117003798 0.702480197
0.065019444 -0.066115275 1.25 -0.05959481746 0.729973793 0.6808720231
-0.053937979 0.045323249 1.1186521 0.2795499563 0.5231202245 0.8051068783
-0.17080711 -0.070716314 1.2410001 0.184560284 0.5980848074 0.7798923254
0.12289552 0.46059102 1.2190001 0.6679173708 -0.3161132634 0.6737646461
0.1646689 -0.045466341 1.2347502 -0.0005671358085 0.7815020084 0.6239024997
