# .PCD v0.7 - Point Cloud Data file format
VERSION 0.7
FIELDS x y z normal_x normal_y normal_z
SIZE 4 4 4 4 4 4
TYPE F F F F F F
COUNT 1 1 1 1 1 1
WIDTH 512
HEIGHT 1
VIEWPOINT 0 0 0 1 0 0 0
POINTS 512
DATA ascii
0.33942252 -0.34124249 1.0380001 0.8542864919 0.190182969 0.4837613702
-0.49610215 -0.48251033 2.0400002 -0.1915446073 0.6975890398 0.6904203296
-0.20192 0.42441449 1.2350001 0.804438591 -0.173966229 0.5679914355
0.36150926 -0.19518107 1.9360001 -0.7321777344 0.6430526376 0.2244974673
-0.28110316 -0.2259433 1.21 -0.02054320835 0.5675447583 0.8230862617
0.19893934 0.27237332 1.5230001 -0.9735355377 -0.1485259831 0.1736911386
-0.41456953 -0.08203496 1.6710001 0.9163526297 0.1747843325 0.3602059186
0.054825358 0.070415236 0.98814285 -0.1822662354 0.4868882 0.8542358279
-0.10402877 -0.4831275 2.184 -0.1513486356 0.7176884413 0.679718256
0.080633171 -0.30734092 1.3330001 0.5718293786 -0.2519056499 0.7807398438
0.15491815 0.2033127 1.2341819 -0.8828607798 0.3561359346 -0.3061438203
-0.21559593 -0.0053056302 1.0429502 0.1442791671 0.6027991176 0.7847399116
0.22821824 -0.11360197 1.1570001 0.8663290143 0.2607659698 0.4259990156
0.17311537 -0.47749403 2.1700001 -0.1465936005 0.6983501911 0.7005835772
0.33713093 -0.010726893 1.748 -0.9357428551 0.2519060969 0.246837303
-0.034316242 -0.1160505 1.1952502 -0.2096372992 0.7263928056 0.6545270681
0.18559472 -0.48483786 1.1838331 0.686429739 -0.1769981235 0.7053267956
-0.11203812 0.23455857 1.087 0.5336899757 -0.3406541049 0.7740347385
-0.49589175 -0.24476708 1.8130001 0.1172950864 0.7620702386 0.6367815733
-0.40612721 0.070113167 1.5090001 0.973741293 0.1035814658 0.2027282864
0.33489266 -0.13906702 0.97800004 0.7508254051 -0.003787208814 0.6604898572
-0.11071774 -0.26595086 1.302 -0.4766958654 0.2042966783 0.8549993634
-0.26200935 -0.41958144 2.0900002 -0.1495461464 0.7117145061 0.6863660812
0.22276889 -0.29807106 1.1930001 0.6823828816 -0.01489034481 0.7308433056
0.10019423 -0.33337355 2.0780001 -0.1465936005 0.6983501911 0.7005835772
0.18272364 0.041353244 1.097 -0.4988543093 0.2997035086 0.8132171631
0.48104715 -0.044748574 1.8230001 -0.9247392416 0.3230114579 0.2012982368
-0.10534008 0.085187487 0.95544106 -0.07080195099 0.6432807446 0.7623496056
-0.05633394 -0.011079533 1.0755001 -0.1883504093 0.7476574183 0.6368143559
-0.18506183 -0.116069 1.1443046 -0.1785460562 0.6833643913 0.7079085112
0.090040676 -0.166742 1.268 -0.06194689497 0.6517043114 0.7559391856
0.094982453 -0.055156361 1.1650002 -0.1683317721 0.7017300725 0.6922711134
0.25404221 -0.10792644 1.8940001 -0.7221021056 0.6488971114 0.2397938371
0.24961768 0.094167151 1.705 -0.6054466367 0.5746483207 0.5506483316
0.28826332 -0.22155778 1.087 0.8623636961 0.1930079311 0.4680564404
0.2925759 -0.4528662 1.1014444 0.6343997121 -0.0311388988 0.7723777294
0.38073108 -0.26149565 0.93800002 0.6039201021 0.1936084032 0.773172915
0.10496493 -0.42481831 1.2744287 0.7152891159 0.02947443724 0.6982067823
0.27114072 -0.047034919 1.052 0.8471733332 -0.1484446526 0.51015836
-0.15348205 0.33476371 1.1561426 0.5852169991 -0.2470947206 0.7723116279
-0.15523797 -0.19530299 1.2229998 -0.2917331457 0.5642642379 0.7723326087
-0.02343593 -0.19901939 1.273 -0.3320712447 0.5983731747 0.729162693
0.19213465 -0.19537568 1.2330002 0.8201015592 0.02229868062 0.5717833638
0.15212119 0.13683628 1.1435002 -0.5913950205 0.6448898315 -0.4841167927
-0.29402372 -0.13290098 1.1460911 0.1502013803 0.5546631217 0.8184059858
0.055230953 0.011286047 1.0810909 -0.1264493763 0.792565763 0.5965316892
-0.059141394 0.16196972 1.0170001 0.6600530744 -0.211494416 0.7208328843
0.28123787 -0.34884 1.123 0.712191999 0.03502588719 0.701110363
0.14442398 -0.32463738 1.2560004 0.6371456981 -0.2010611743 0.7440562844
-0.011381179 -0.26883128 1.3430001 -0.443610549 0.6266824007 0.640686214
-0.4385604 -0.15478602 1.7310001 0.9131423831 0.3091570139 0.2656932175
0.14199692 0.094965301 1.0230001 -0.9413842559 0.08351948857 0.3268335164
-0.20361939 -0.27406037 1.2518182 -0.377930522 0.08685258031 0.9217511415
0.2167318 -0.3951982 1.1763685 0.5698317289 -0.1679827124 0.8044088483
-0.14521843 -0.052674372 1.0858332 -0.2179429829 0.6868026257 0.6933996081
-0.12625636 0.018462015 1.0190001 -0.1917118579 0.7320635915 0.6537044048
0.00099764671 -0.050879981 1.138 -0.2339113355 0.6763041615 0.698497057
0.41098922 -0.09909226 1.853 -0.8421623111 0.4365124702 0.3165746629
-0.039726149 0.048554182 1.0070001 -0.1686349511 0.7821968198 0.5997752547
0.32838318 -0.23274517 1.0064 0.8810215592 0.2300825566 0.4133557975
0.28075251 -0.1389955 1.0500001 0.8751368523 0.2441602796 0.4177573919
-0.41329309 -0.01692668 1.6090001 0.9538629651 0.1393208653 0.2659607232
0.24479361 -0.21480981 1.1648184 0.8357866406 0.09718574584 0.5403846502
-0.25488615 -0.066396691 1.0923334 0.1387089789 0.581479609 0.8016490936
-0.094790801 -0.086160734 1.1454003 -0.1876695901 0.7471597195 0.6375989914
0.049856033 -0.10925896 1.21 -0.151547268 0.6822789311 0.7152124643
-0.42135757 -0.4533594 2.0280001 -0.1915446073 0.6975890398 0.6904203296
0.14585181 -0.24559751 1.2748749 0.6088202 -0.2061573416 0.7660529017
-0.22544871 -0.17488094 1.1862631 -0.2155623883 0.5723686814 0.7911554575
0.042556904 -0.21853547 1.312 -0.1709466726 0.6634041667 0.7284724712
0.16129658 -0.024114031 1.1339999 0.003507323796 0.7238188386 0.6899811625
0.12651527 -0.1082885 1.223 -0.08286488801 0.699134469 0.7101721168
-0.083164111 -0.16956837 1.2320001 -0.2090182751 0.604986608 0.7683115005
0.15617153 -0.39665848 1.2251999 0.5907180309 -0.1898439825 0.784226656
0.34514928 -0.41771308 1.0612 0.7276553512 0.1148088574 0.6762666702
0.23221007 -0.012283152 1.1120001 0.6659419537 -0.07988196611 0.7417143583
0.13544895 -0.48359084 1.2410001 0.7565464973 -0.1519813389 0.6360338926
-0.019659249 0.11197225 0.97500008 0.4202723801 0.05026653409 0.9060046673
0.065791681 -0.37477589 1.3124547 0.7173234224 0.01530370768 0.6965722442
-0.12575613 -0.13436455 1.1868668 -0.3277344108 0.6587495208 0.6772290468
0.30481434 -0.29494786 1.0840645 0.7554189563 0.154231146 0.6368319392
0.37124553 -0.32237488 0.97800004 0.8229299784 0.3305715024 0.4620700479
0.11878833 0.069372386 1.0840001 -0.2405614555 0.124764204 -0.9625819921
0.25912148 -0.1643859 1.1190001 0.8624952435 0.2492264658 0.4404408634
0.23719656 -0.45462686 1.1467146 0.6265397668 -0.1445057392 0.7658759356
-0.16512191 0.061060708 0.98100007 0.1158465743 0.6024438143 0.7897094488
0.36508185 -0.19516906 0.94735283 0.6716786027 -0.003486308735 0.7408344746
-0.49795106 -0.43330479 1.9930001 -0.1915446073 0.6975890398 0.6904203296
0.24908116 -0.091361813 1.097 0.8626576066 0.2953430116 0.4106024206
0.26581454 -0.27429277 1.1341741 0.8426467776 0.03020452708 0.5376189351
0.025103787 -0.15556231 1.2505001 -0.1407711357 0.6130595207 0.7773940563
0.10421112 0.038299814 1.016 -0.3524685502 0.4476907849 0.8217900395
-0.12404658 0.28845751 1.123 0.4790610075 -0.3891198933 0.7868203521
0.30309576 -0.087016352 1.0139002 0.7237109542 -0.01261940412 0.6899878383
0.00458935 0.02845397 1.0470001 -0.1540902555 0.7842215896 0.6010429859
-0.18154101 0.37882257 1.197 0.6026000977 -0.3508401513 0.7167875171
0.12309803 0.0086553302 1.097 -0.1277511269 0.7438883781 0.6559799314
-0.082025751 -0.21817735 1.273 -0.2437661141 0.6071119308 0.7563022971
0.18199314 -0.27451172 1.2323638 0.7162528634 -0.1769608259 0.6750309467
-0.32000348 -0.18449713 1.189 0.08132912219 0.4985634983 0.8630295396
0.18511502 -0.34524247 1.2157693 0.6095094085 -0.1311434358 0.7818565965
0.2188209 -0.16567755 1.1886001 0.8033728004 0.06783267111 0.5916002393
0.26600716 -0.40452647 1.1332381 0.7649844885 -0.06731569022 0.6405211687
-0.054346845 -0.052384857 1.1190002 -0.2144177556 0.6936067343 0.6877025366
-0.22469249 -0.22571453 1.2251052 -0.1830347031 0.6325260401 0.7526015639
-0.15562499 -0.2417154 1.2590001 -0.2195753753 0.6607971191 0.7177282572
0.15012479 -0.065226629 1.1810001 -0.03712732345 0.7257626057 0.686942637
0.0032052395 -0.011215051 1.0965 -0.1936037689 0.7368310094 0.6477636099
-0.19420025 -0.077409834 1.101 -0.1277570575 0.7021216154 0.7005022168
-0.083893314 0.20339999 1.0470001 0.6819005013 -0.2761125565 0.6773282886
0.3152799 -0.37495634 1.0833793 0.7172973156 0.07854941487 0.6923254728
0.054190181 -0.025619531 1.1238998 -0.1350879967 0.7484153509 0.6493270993
0.3079125 -0.18385236 1.0254999 0.8825532794 0.1725808084 0.4373964071
0.10514288 -0.36492234 1.2737895 0.5630007982 -0.1699368507 0.8087963462
-0.044853728 -0.24499159 1.3048944 -0.2479227781 0.6717797518 0.698030293
-0.24583058 -0.11427207 1.1252105 -0.05144097656 0.6199547648 0.7829494476
0.33510906 -0.2849018 1.0243477 0.8783692718 0.2159100473 0.4264391065
0.24528438 -0.3450931 1.1648668 0.7251759171 -0.06720980257 0.6852756739
-0.1512513 -0.29465994 1.2780001 -0.4578418732 0.2413189411 0.8556553125
0.15531114 0.17198884 1.189 -0.5973823071 0.6561256051 -0.4611220658
0.032907873 -0.29258093 1.365 0.5016071796 0.3469225764 0.7924865484
0.043042578 -0.070712812 1.169 -0.1572973132 0.7117308974 0.6846143007
-0.11523127 -0.014434126 1.061857 -0.2788369954 0.676954627 0.6811625361
0.10794642 -0.29606226 1.2880001 0.5075198412 -0.2183739096 0.8335084915
-0.17504403 -0.15637758 1.1832501 -0.1915874481 0.6177709699 0.7626619935
0.21327522 -0.23497248 1.2029521 0.7466044426 -0.05058249831 0.6633424759
-0.024747325 -0.15437709 1.2333336 -0.2589972317 0.6296690702 0.7324187756
-0.1446076 -0.086873688 1.1249093 -0.2146027982 0.750916779 0.6245555282
0.054230396 0.046396349 1.0341365 -0.1269944459 0.7894894481 0.6004821658
-0.18559684 0.022963496 1.0115002 0.1110970154 0.6222094893 0.7749276161
-0.075861827 0.018192235 1.0376002 -0.1872731745 0.7797318101 0.5974504352
-0.16500688 -0.014953853 1.0453129 -0.117181778 0.6899998188 0.7142609358
0.18285818 -0.43470612 1.1953335 0.5902109742 -0.1706478 0.7890058756
-0.093052901 0.051309545 0.99200004 -0.1261733174 0.7548826337 0.6436089873
0.15320769 0.24269009 1.2664 -0.8828607798 0.3561359346 -0.3061438203
-0.037934944 -0.080941416 1.1570001 -0.19827874 0.7427725196 0.639511168
0.0050995699 0.06742774 0.98315394 0.183892116 0.8052923083 0.5636381507
-0.27423084 -0.17634127 1.1734213 0.04507152736 0.5842649341 0.8103104234
-0.054618467 0.0785973 0.96700007 -0.3371104896 0.4737924039 0.8135583997
0.3127484 -0.24441132 1.0515335 0.9047629237 0.2218958437 0.3635467887
-0.21523012 -0.044928443 1.0714482 -0.00273707672 0.6219201684 0.7830758691
-0.095950902 -0.042495973 1.0967 -0.2552891374 0.6851473451 0.6822027564
0.08451768 -0.13111076 1.2360001 -0.1042482257 0.7031763792 0.7033315301
0.14572069 0.10225976 1.1066999 -0.5145027041 0.748293221 -0.418741256
-0.067524374 -0.28057542 1.3280001 -0.380202055 0.4604855776 0.8021218181
0.094987012 0.034090977 1.0631249 -0.1967844814 0.7393817902 0.6438869834
0.35314021 -0.2749334 0.97362965 0.8763899803 0.266618371 0.4010676444
0.39618319 -0.13206106 1.8830001 -0.8316959143 0.4295012951 0.3518671691
0.33243877 -0.18545155 0.98430449 0.8444476128 0.1079998612 0.5246372223
0.0053694374 -0.094685711 1.1846665 -0.2053209394 0.7271570563 0.6550465226
0.11526255 -0.02369437 1.1354003 -0.1004907489 0.7373818755 0.6679592729
-0.058619194 0.11986312 0.99800003 0.7975305319 -0.008342288435 0.60322088
0.35504255 -0.38227084 1.0259999 0.7656436563 0.2176515907 0.6053243876
-0.084149726 -0.11689913 1.1829998 -0.1844841391 0.6991072297 0.6908072829
-0.11651229 -0.20328255 1.245 -0.3077238202 0.57631284 0.7570796013
0.13500357 -0.43552125 1.2426001 0.8001556396 -0.04564937949 0.5980527997
0.26965126 -0.091737032 1.057 0.878125608 0.1174538136 0.463788718
-0.00457189 -0.22522247 1.3040835 -0.3012230694 0.6348538995 0.7114950418
0.28077003 -0.17737947 1.082 0.8762244582 0.2596958578 0.4059418142
-0.24475132 -0.14867301 1.1536666 -0.186756894 0.6347504854 0.7498090863
0.085353285 -0.087287337 1.1951541 -0.1026259214 0.6957758665 0.7108895183
0.30532351 -0.13475281 1.0137107 0.8056356311 0.1256117225 0.5789411664
0.045085844 -0.18465793 1.2765714 -0.1168518886 0.6550409794 0.7465031743
0.26838881 -0.22451647 1.126 0.8659275174 0.119837828 0.4856010675
0.005227651 -0.12429862 1.217 -0.1903669089 0.7045869827 0.6836063266
0.24200034 -0.26462355 1.1730002 0.770814836 -0.04518581554 0.6354547143
-0.24265915 -0.25364816 1.2525001 -0.0834197104 0.4796975553 0.8734594584
0.14050336 0.053481925 1.034 -0.8535171747 0.3770647049 0.3596256971
-0.19489178 -0.19643469 1.21 -0.2561120689 0.5997289419 0.7581106424
0.3478969 -0.23456833 0.96555561 0.8327575922 0.1139798313 0.5417779684
0.24226157 -0.15470698 1.1555712 0.8808242679 0.1829548478 0.4366648197
0.1413625 -0.36710417 1.25 0.6848594546 -0.1301969886 0.7169492841
0.3170425 -0.33473772 1.0742608 0.8186159134 0.1056959927 0.5645319819
0.18081249 -0.23122083 1.25 0.7644735575 -0.1568052322 0.6252937913
0.14495596 0.034679517 1.0736923 -0.3073975146 0.5805647969 0.7539570928
0.084762484 -0.0043651429 1.1049999 -0.1314172149 0.7666447163 0.6284786463
0.086010158 -0.33535451 1.2947778 0.7185300589 -0.1653799117 0.6755472422
-0.12448216 -0.16529098 1.2136524 -0.3427798748 0.6009280682 0.722071588
0.15152015 -0.28530413 1.2646667 0.6878319383 -0.2041939944 0.6965572238
0.29416877 -0.40470889 1.1035938 0.724016428 -0.1189662367 0.67944628
0.26385871 -0.31451243 1.1412107 0.8030365109 -0.006727110129 0.5958918929
-0.14460868 -0.11597277 1.1556665 -0.2738494277 0.7006902695 0.658816874
0.16462414 0.0061855959 1.1070623 -0.2935676873 0.6876110435 0.6640850902
-0.03587798 0.018229248 1.0445455 -0.1630792171 0.7923074961 0.5879235268
0.21855299 0.02622636 1.108 0.2105218321 0.4230825007 0.8812955022
-0.063962042 -0.13827971 1.211 -0.2413813174 0.6811477542 0.6912111044
0.16185516 -0.46540102 1.2106668 0.7323505878 -0.02846093848 0.6803327203
-0.096111037 -0.30290735 1.3065455 -0.541978538 0.008988877758 0.8403442502
0.24952592 -0.04153442 1.085 0.6852776408 -0.2054672837 0.6986972094
0.38109139 -0.16788167 1.9150001 -0.7321777344 0.6430526376 0.2244974673
0.15059994 0.085121706 1.067 -0.9728038907 0.1092781126 -0.2042323798
0.24687351 -0.12533872 1.1245002 0.888672173 0.2157503664 0.4046153426
0.26467067 -0.12460512 1.0836799 0.8928083181 0.2194230705 0.3933787942
-0.28123787 -0.098777831 1.123 0.1842891425 0.5449194908 0.8179854751
0.20951369 -0.35961306 1.189 0.6329123378 -0.1478770673 0.7599699497
0.21428336 -0.43398419 1.1732669 0.5842391849 -0.2256015092 0.7795951366
0.28552485 -0.25551462 1.1044089 0.8546645641 0.09542933851 0.5103349686
-0.19039008 -0.22955604 1.2410001 -0.2489573061 0.6337350607 0.7323934436
0.18680969 -0.3850866 1.2060002 0.618219018 -0.1822956204 0.7645741105
-0.054658998 -0.18461782 1.2520002 -0.2271588743 0.6310116053 0.7417702675
-0.20523591 -0.14468578 1.1635264 -0.2547418773 0.6393763423 0.7254684567
0.29745036 -0.20108016 1.057 0.8801003695 0.2412558496 0.4089241028
0.19823582 -0.15869552 1.2190001 0.7784940004 0.08400204778 0.6220054626
0.35130593 -0.3176063 1.0116667 0.852509439 0.2300303727 0.4693758786
0.3643367 -0.35252446 1.0058 0.8068655133 0.2587836683 0.5310357809
-0.11497085 -0.23507144 1.2758949 -0.258485347 0.6345894337 0.7283416986
0.32271731 -0.44243807 1.077 0.6811724305 -0.01272764988 0.7320123911
0.17363845 -0.31519258 1.2339048 0.6531418562 -0.1288755238 0.7461882234
-0.25544941 -0.20334645 1.1966668 -0.2439153641 0.5994280577 0.7623590231
-0.034839071 -0.026670288 1.1016153 -0.1849163771 0.7168405056 0.6722689867
-0.13498951 0.041646734 0.99200004 -0.06743752211 0.7166641951 0.694150269
-0.041244537 0.087754332 1.001 0.8634138107 0.1699018031 0.4750262797
0.01881502 0.051069338 1.0220001 -0.1450603306 0.7613055706 0.6319583654
-0.41366875 -0.054867059 1.6470001 0.9362668991 0.1635620147 0.3108886182
0.24660051 -0.38435999 1.156238 0.690292418 -0.03739867359 0.7225633264
0.26542664 -0.46277222 1.1255386 0.6848942637 -0.08781322837 0.7233316302
0.38127121 -0.22590686 0.93414289 0.5841659307 -0.01324071456 0.8115262389
0.32416999 -0.30449703 1.052 0.8932726979 0.1850677729 0.4096508622
0.29148114 -0.31682733 1.1120001 0.8116677403 0.07344821841 0.579483211
-0.1150035 -0.065142743 1.1153845 -0.2871673703 0.7133432627 0.639277935
0.13473327 -0.043107886 1.1569999 -0.05554590374 0.715606153 0.6962919831
0.020179113 -0.25876746 1.3540001 -0.02620889246 0.6477809548 0.7613756657
-0.17538813 -0.040222343 1.067 -0.09912505001 0.6935091019 0.713596046
-0.22616598 -0.088711649 1.1120001 -0.1239698529 0.6632339954 0.7380732894
0.12078363 -0.39559409 1.2640001 0.6893252134 0.05785833672 0.7221378684
0.035107169 -0.046147738 1.1442002 -0.1577136964 0.7106974125 0.6855913997
-0.006499703 -0.17230348 1.2589999 -0.228366971 0.6264227629 0.7452805042
-0.17290233 0.34891069 1.1810001 0.6066685319 -0.2747140229 0.7459795475
-0.13441028 0.067797638 0.96670008 0.08713905513 0.6347716451 0.767770648
0.2145893 -0.47513813 1.1627599 0.535769403 -0.122706309 0.8354007006
-0.0140705 0.010318367 1.0700001 -0.2219427228 0.7760537863 0.5903235674
0.38133246 -0.29081839 0.95600003 0.702085197 0.3644435704 0.6117657423
0.12442618 -0.082653888 1.1955715 -0.1029885635 0.6830717325 0.723053515
0.085999988 -0.39530304 1.2942502 0.7433837056 0.1139357239 0.6590898037
0.25277892 -0.18544044 1.1465001 0.8847658634 0.1363285333 0.4456500411
0.2131736 -0.1952356 1.2037998 0.7865368724 0.03258559108 0.6166830063
-0.14059542 -0.25982034 1.2830001 -0.638433218 0.08997513354 0.7644001245
0.015048293 -0.19666731 1.2853532 -0.1525366157 0.6642729044 0.7317609191
0.04490396 -0.13403903 1.2342501 -0.1204585955 0.7256119847 0.6774783731
-0.084679574 -0.24667208 1.2936666 -0.2371605188 0.6566745043 0.7159144282
-0.14510745 0.30466822 1.1442944 0.5601046681 -0.3188965917 0.7645833492
0.33626789 -0.37443641 1.0524212 0.8422628641 0.07593034208 0.5336925983
0.2004849 -0.31610847 1.21 0.6721027493 -0.05687408522 0.738270402
0.35115573 -0.16659003 0.964625 0.7480119467 -0.05495536327 0.6614060998
0.035390161 -0.0079305014 1.1029999 -0.1455636024 0.7682401538 0.6233925223
0.012777418 -0.24393512 1.325 -0.2493044287 0.711370945 0.6571139097
0.086436331 0.062815793 1.0031428 -0.3264439404 0.4335197508 0.8399375081
-0.30411419 -0.16351861 1.1684999 0.1520460695 0.5436306 0.8254379034
0.23836128 -0.41890728 1.1570001 0.6367998123 -0.1706416607 0.7519091964
0.067516968 -0.33629364 1.3253334 0.6564788818 -0.2935778201 0.6948723197
0.20728289 -0.2668097 1.2053336 0.7537338734 -0.08785746247 0.6512805223
-0.11640512 0.2615861 1.1065 0.4803987741 -0.3958362341 0.7826433778
0.11523908 -0.32491842 1.275174 0.5080506802 -0.2506220937 0.8240588903
-0.17175654 -0.26926991 1.2640001 -0.2857431471 -0.1626397818 0.9444041252
0.084248871 -0.032581922 1.1367692 -0.1257185191 0.7216599584 0.6807361841
-0.094970174 -0.14298435 1.2036667 -0.2087671608 0.6667476296 0.7154465914
0.14516197 0.21164837 1.2640001 -0.8828607798 0.3561359346 -0.3061438203
-0.11511885 -0.10725565 1.1635715 -0.2978680432 0.7095762491 0.6385735273
-0.08457429 -0.0053696246 1.0623809 -0.1781658083 0.7215533257 0.6690424085
0.15602386 -0.43494329 1.219 0.6897884607 -0.0704183206 0.7205783725
-0.21503909 -0.11522199 1.1343809 -0.1863201261 0.6691285372 0.7194107175
-0.10474706 0.20855607 1.0700001 0.6388207078 -0.3049252629 0.7063488364
-0.014017968 0.04246863 1.0240769 -0.1872021258 0.7795815468 0.5976688266
0.1555205 -0.49517158 1.2183478 0.732267499 -0.1098228619 0.6721035838
0.27171728 -0.19613677 1.113091 0.8725590706 0.1684024334 0.4585643411
0.29013371 -0.064172879 1.031 0.7081067562 0.02836233377 0.705535531
-0.30589381 -0.21255368 1.1963334 -0.04585011303 0.5438002944 0.8379612565
0.24479091 -0.3045741 1.1639677 0.769246459 -0.01107620634 0.6388561726
0.3209652 -0.40554598 1.08 0.7543272376 -0.004608711693 0.6564824581
0.025369504 0.012213195 1.0718 -0.1342006326 0.8023165464 0.5816169977
0.30584219 -0.26513466 1.0746428 0.8239391446 0.1379612684 0.5496280193
0.32038602 -0.11570209 0.99400002 0.7504599094 0.02696027793 0.6603658199
0.29812801 -0.3452515 1.097 0.7810303569 0.004989891313 0.6244731545
-0.05509048 -0.10376395 1.1754616 -0.2001919597 0.717230022 0.6674610972
-0.15497126 0.0062195105 1.0247856 -0.0985962376 0.7013596296 0.7059556842
0.055186167 -0.16114362 1.2590001 -0.1112130359 0.635132134 0.7643551826
-0.06510938 -0.032435786 1.0962501 -0.2232883126 0.6938659549 0.6846110821
-0.084755316 -0.19599003 1.2515626 -0.2647244632 0.6175311804 0.7406592965
-0.1748697 -0.093988821 1.1251431 -0.2043168396 0.7296028733 0.6526364088
0.22297342 -0.13551395 1.183 0.8214706779 0.1891352534 0.5379718542
0.25827038 -0.24554178 1.1463336 0.8573173881 0.05376315117 0.5119730234
-0.06527707 -0.077456392 1.1428461 -0.1984447539 0.7273426056 0.6569569111
0.19431357 -0.24584427 1.2246 0.7490805984 -0.1454662383 0.6463109851
-0.18701492 0.40288356 1.2190001 0.804438591 -0.173966229 0.5679914355
-0.0050067226 -0.075023629 1.1635454 -0.227162078 0.7050437927 0.6717965603
0.28513691 -0.10475367 1.0340002 0.787530005 0.1178497523 0.6049032807
0.11413498 -0.45210752 1.2640001 0.7047342658 -0.06389356405 0.7065884471
-0.052451842 -0.20869137 1.273 -0.1625547111 0.6345183253 0.7556205988
0.29148114 -0.37531856 1.1120001 0.7616592646 -0.02320879512 0.6475619674
0.31212342 -0.21510224 1.0343335 0.8993458152 0.218549639 0.3786992729
0.157271 -0.34534603 1.2360001 0.6495396495 -0.2274722904 0.7255030274
-0.22455816 -0.067845233 1.09 -0.02418179438 0.6440927982 0.7645650506
0.065929726 -0.05172947 1.1570001 -0.09563115984 0.7125611901 0.6950620413
-0.081604034 0.17540759 1.0355556 0.6430894732 -0.2404085398 0.7270761132
0.3207421 -0.15751903 1.001 0.8514852524 0.1338143349 0.507017374
-0.15426949 -0.16796826 1.2019999 -0.337767303 0.6482853293 0.682377696
0.2891185 -0.17088717 1.0536667 0.8731057644 0.2812114954 0.3982542753
-0.02452107 0.077678621 0.97800004 0.02106875181 0.583212018 0.8120467067
0.12682699 -0.27449307 1.278 0.5154487491 -0.1321820468 0.8466643095
0.26637682 -0.37450209 1.1340002 0.7590199113 -0.05524693057 0.6487191916
-0.14512077 -0.21553592 1.2426844 -0.3549962044 0.6186287403 0.7009109259
-0.25647759 -0.24044774 1.2190001 -0.2245264351 0.6521989703 0.7240334153
-0.085975818 -0.065357417 1.1249093 -0.2399263531 0.7224534154 0.6484569311
0.22548148 -0.33459228 1.1853075 0.6371546388 -0.0964500457 0.7646772861
0.27371269 -0.43411177 1.124 0.7173774242 -0.126290828 0.6851425171
0.23698887 -0.097202614 1.1245 0.8623272777 0.2945374548 0.411872983
-0.11759257 -0.29406208 1.2880001 -0.6008343697 0.04463655874 0.7981263399
-0.09544339 0.027905239 1.0175 -0.1463461816 0.7708181143 0.6200179458
0.34198749 -0.26625836 1.0023637 0.8932123184 0.2301425636 0.3862721026
0.044868018 0.027134662 1.05525 -0.1513153315 0.7621080875 0.6295195818
0.055007152 -0.30150336 1.3466001 0.5423715711 -0.2706564069 0.7953478694
-0.22561927 -0.20320538 1.2060002 -0.2219882607 0.63323313 0.7414425015
-0.14717589 -0.031957131 1.06425 -0.2208927125 0.6581285 0.7197731137
-0.084214061 0.071171604 0.97033352 -0.1323217154 0.6840554476 0.717327714
0.32735273 -0.25523233 1.025353 0.8764161468 0.2459540218 0.4140064716
0.28643048 -0.28514382 1.104714 0.8249701262 0.09481289983 0.5571667552
-0.065789551 0.036817741 1.0131155 -0.1603045464 0.7842681408 0.5993545651
-0.024390291 -0.04681126 1.1241251 -0.2873792946 0.7096218467 0.643311739
-0.15496142 -0.13708431 1.1730002 -0.2712579072 0.6497249007 0.710124433
0.11314611 -0.12837732 1.2410001 -0.1308199167 0.708846271 0.6931256056
0.0340322 -0.09098164 1.1883334 -0.1685384065 0.6819696426 0.711696744
-0.25481325 -0.091476396 1.1077 0.1347763836 0.6407090425 0.755861938
-0.18596576 0.0015817258 1.031 0.08032607287 0.6320977211 0.7707140446
-0.16455126 0.036671385 0.99714267 0.08168232441 0.6572133303 0.7492653728
-0.24403337 -0.045399796 1.0738332 0.1240046769 0.5909306407 0.797134757
0.025456268 -0.027987834 1.123 -0.1570532322 0.7550626993 0.636564672
-0.16541135 -0.075297549 1.1053498 -0.1615978181 0.7388923764 0.6541591883
-0.053282637 -0.1580478 1.2320002 -0.1917037815 0.6319200397 0.7509505749
0.16831781 -0.20694813 1.2590001 0.7315955162 0.004268504214 0.6817256212
-0.065477192 0.057935186 0.98811775 -0.1545693576 0.74115628 0.6532959938
-0.27409598 -0.15300374 1.1569998 0.1048244834 0.5602118969 0.8216900229
0.1657439 -0.25567526 1.2571002 0.7345157862 -0.2240388542 0.6405413151
-0.13496371 -0.0048091742 1.0437503 -0.2196841538 0.7306162119 0.6464818716
0.2274673 -0.21559115 1.1873529 0.7393519282 0.05644498765 0.6709491014
-0.10496424 0.0054357462 1.044353 -0.2359263748 0.7669135332 0.5968101621
-0.034823492 -0.2647227 1.3275386 -0.3015673459 0.5778897405 0.758353889
0.085028023 0.013633082 1.0831363 -0.1613547057 0.7676697373 0.6201997995
-0.19512624 -0.024946427 1.0536799 0.06929228455 0.6594567895 0.74854213
0.32401186 -0.2050311 1.004125 0.8753340244 0.1764240265 0.450183183
0.26748767 -0.15400234 1.0942308 0.8800718784 0.281344682 0.3825162947
-0.23182926 -0.02480839 1.0550909 0.09199855477 0.575915575 0.8123161197
-0.12216261 -0.036998741 1.0821111 -0.3040503561 0.6491697431 0.6972316504
0.35193068 -0.29536042 0.99449992 0.8918352127 0.2488299757 0.3777745664
0.23366976 -0.1849277 1.1747144 0.7892889977 0.1368987709 0.5985662937
0.25306019 -0.01341538 1.0934286 0.6491949558 -0.1958949864 0.7349632978
0.09493234 -0.11167463 1.219 -0.1194874868 0.7015369534 0.7025443912
-0.19631049 -0.17337866 1.189 -0.2597104013 0.604555428 0.7530360222
0.2617113 -0.068476431 1.0700001 0.8495050073 0.136166513 0.5097057223
-0.024908204 -0.13423216 1.2142 -0.2106186002 0.6668952703 0.7147660851
0.34568039 -0.20494601 0.96460736 0.7906600833 0.0659840107 0.6086893678
0.086096637 -0.36491871 1.2938181 0.7590194345 -0.06341466308 0.6479722857
0.13487604 -0.0088604698 1.123 -0.1054374427 0.7426455617 0.6613323689
0.15521325 0.1860456 1.2126667 -0.804962337 0.4802334309 -0.348441571
0.31884381 -0.27488998 1.0525454 0.8887133598 0.1864183843 0.418851763
0.26337618 -0.34450564 1.1433531 0.7937546968 -0.01413118187 0.608073771
-0.26757401 -0.12853557 1.141 0.1131697223 0.5949158669 0.7957811952
0.19783124 -0.45541522 1.177 0.6477559805 -0.2162294984 0.7305182815
0.16991641 -0.36761791 1.2190001 0.577771008 -0.1863475144 0.794641614
-0.014073005 -0.2471882 1.3219999 -0.2998155951 0.648812294 0.6993948817
-0.40666112 0.067327999 1.536 0.9724097848 0.04932717979 0.2280044109
0.17120774 -0.41433549 1.21 0.5906620622 -0.1960913241 0.7827301621
0.1358332 -0.40413749 1.2431818 0.7551345229 -0.07198718935 0.6516054273
0.13439788 -0.30445457 1.2730001 0.5583142042 -0.2447463423 0.792707026
-0.12303403 -0.089024626 1.141 -0.3046685755 0.7155453563 0.6286270022
-0.034829833 -0.2224419 1.2880001 -0.214197129 0.6378731132 0.7397550344
0.075359143 -0.18333642 1.2830001 -0.1168430969 0.6598309278 0.7422741055
0.20049454 -0.21872133 1.223 0.8066763878 0.01202495024 0.5908710361
-0.083580226 -0.26645991 1.3120002 -0.3470929265 0.4558708072 0.8195781112
-0.17506531 -0.21271373 1.2270001 -0.2236872762 0.6147736907 0.7563182712
-0.013170601 0.061458278 1.0015 -0.1561855972 0.8073543906 0.5690210462
0.12432337 -0.062116373 1.1755456 -0.03142596036 0.7043988109 0.7091083527
0.16127422 -0.04260074 1.1570001 0.008027664386 0.716989994 0.69703722
0.0038401186 -0.14379054 1.2349092 -0.2085709274 0.6639319062 0.7181174159
-0.21541281 -0.24478725 1.2409998 -0.1520687938 0.3204658628 0.9349741936
0.25413969 -0.43466738 1.1417274 0.6722652316 -0.1726420373 0.7198987603
-0.025648743 -0.094654679 1.1758237 -0.2140989602 0.712471664 0.6682408452
0.075289503 -0.071751781 1.1764287 -0.09795638174 0.690610826 0.7165620923
0.053577971 -0.20259124 1.2942222 -0.1094632968 0.6955782771 0.7100623846
0.12913562 -0.34546539 1.2590001 0.6217064857 -0.2121115178 0.7539826035
-0.19485103 -0.056767162 1.0823528 -0.06401858479 0.6733461618 0.7365504503
0.19512759 0.016706225 1.1132354 -0.2489398867 0.3419542611 0.9061436057
0.043494254 -0.2755512 1.3490001 0.499389559 0.3102672398 0.8089154959
0.18823624 -0.29540724 1.219 0.6849207878 -0.1212563664 0.7184569836
-0.0060754456 0.091979437 0.96700007 0.2367377728 0.4067953825 0.8823109865
0.30097982 -0.15998027 1.031 0.8134078383 0.255184114 0.5227319598
-0.10530684 -0.18331985 1.2338824 -0.2515287995 0.5909309387 0.7665076256
0.30477288 -0.42542121 1.0933793 0.6225623488 -0.02624982595 0.7821298242
0.12066703 0.036480729 1.067 -0.1631910205 0.7049813271 0.6901956201
0.36188853 -0.25456619 0.95311123 0.7899801731 0.1556429118 0.5930485725
0.15474832 0.15679798 1.169 -0.5997005105 0.6517409682 -0.4643199444
-0.055419236 0.0075387065 1.0561429 -0.1586673558 0.7548068762 0.6364678144
-0.29581144 -0.18574549 1.1824546 0.1028342247 0.5266205072 0.8438577652
0.20324612 -0.40823531 1.1930001 0.6578245759 -0.1657211781 0.7347130775
0.23180644 -0.24516608 1.1850001 0.6877362728 -0.01734334417 0.7257534266
0.032447625 0.059270997 0.98700005 0.04787877947 0.9046167135 0.423528254
-0.095882781 -0.023569183 1.0752857 -0.238626495 0.6877261996 0.685631156
-0.040868446 0.097455524 0.97799999 0.8140735626 -0.109631151 0.5703203082
-0.22519808 -0.13388856 1.1471335 -0.2226189971 0.6312289834 0.7429608107
0.065113708 0.050370984 1.001 -0.09518895298 0.7480433583 0.6567877531
0.14364183 0.11788537 1.13 -0.670340836 0.6092685461 -0.4235976934
-0.0056865863 -0.03157701 1.1186001 -0.2641880512 0.7232083082 0.6381021738
-0.24764079 -0.18057142 1.177 -0.2521415651 0.6042775512 0.7558262348
-0.43458119 -0.47034919 2.0400002 -0.1915446073 0.6975890398 0.6904203296
0.06876573 0.0306658 1.0600001 -0.1731363982 0.7661390901 0.6189140677
-0.074191794 -0.096885957 1.1615715 -0.1777940392 0.7377989888 0.6511850357
0.21145201 -0.1455363 1.2030001 0.7968831062 0.1182467565 0.5924483538
0.30209312 -0.2349298 1.0714999 0.8632369041 0.2158041894 0.4563448131
0.015067562 -0.064431205 1.1543334 -0.1868625879 0.6842270494 0.7049224973
0.21462029 0.0055788141 1.123 0.3131911457 0.2931859493 0.9033013582
0.025377747 -0.17543021 1.2654999 -0.1280754507 0.6526800394 0.7467298508
0.27475026 -0.29541409 1.1260002 0.8104045391 0.06406286359 0.582357645
-0.17550516 -0.18227163 1.2060002 -0.2752895057 0.6178218126 0.7365540862
0.015814815 -0.10738391 1.2025715 -0.1364495754 0.7276212573 0.6722714305
0.33700919 -0.31516451 1.0343335 0.8687188625 0.1817632169 0.4607490599
-0.11454447 0.034948923 1.0043 -0.1619856358 0.7561830878 0.6339935064
0.32748383 -0.35442814 1.0648571 0.8290993571 0.1155988276 0.5470203161
0.12184871 0.055629067 1.0187857 -0.3709833622 0.4313675165 0.8223705888
-0.22863115 -0.26438862 1.2360001 0.02396135405 0.3451694846 0.9382344484
-0.11522818 0.057613432 0.97724986 -0.1073752269 0.7179063559 0.6878088713
0.23304604 -0.36411622 1.1732858 0.654596746 -0.1586100161 0.7391521931
-0.065702908 -0.23399223 1.2858573 -0.2441058606 0.6109394431 0.7531037927
0.27455863 -0.11511137 1.0536251 0.9008216858 0.1739379764 0.3978264332
0.25418594 -0.2756398 1.1551816 0.8159137368 -0.02892972343 0.577449441
0.069894001 -0.35176161 1.307 0.7481936812 -0.1418844908 0.6481319666
-0.049285322 0.14174868 0.995 0.6536794305 -0.2653014064 0.7087442279
-0.18505383 -0.24932399 1.2640001 -0.5047222972 0.2117286623 0.8369147778
0.16421789 -0.29478961 1.2421999 0.7214841247 -0.1925603002 0.6651174426
-0.13068645 -0.18900934 1.2320001 -0.3794368804 0.5546327233 0.7405472398
0.2750321 -0.14462349 1.0724705 0.8926770687 0.2517468631 0.3738330901
-0.13734841 -0.071685389 1.108 -0.2739239335 0.7123265266 0.646186173
-0.024874538 -0.0078189904 1.0810001 -0.2240662277 0.7286224961 0.6472275853
0.34565037 -0.39492247 1.0448574 0.7769272327 0.201905027 0.5963375568
0.1589607 -0.22676912 1.268 0.6664389372 -0.07198689133 0.7420761585
0.18163161 -0.46192297 1.1930001 0.6652120948 -0.157621339 0.7298276424
0.15384623 0.0200669 1.09 -0.2064314187 0.6457002163 0.7351579666
-0.1455836 -0.27466318 1.2654117 -0.5271590352 0.02609928697 0.8493657708
0.065168194 -0.12299911 1.2253336 -0.1171817854 0.6852248311 0.7188430429
0.25553748 -0.11495538 1.1052727 0.9070685506 0.2134675831 0.3628473282
-0.03601785 -0.17135765 1.245 -0.2214491665 0.6613841653 0.7166109681
0.34214199 -0.24515876 0.98570609 0.9062042832 0.2356752902 0.3510711491
-0.024712045 -0.066715725 1.1438237 -0.2540815175 0.6879917383 0.6797866821
0.27924955 -0.23228791 1.1068 0.8581624627 0.1485648304 0.4914119244
-0.046515349 0.029410705 1.027 -0.1386991143 0.7882946134 0.5994615555
0.14495984 -0.45482287 1.2340001 0.7928715944 0.06124220043 0.6063035727
0.030939318 0.039129138 1.0380001 -0.1542640775 0.7654741406 0.6247014403
-0.12570183 -0.22307475 1.2589999 -0.3302463591 0.6249907017 0.7073358297
0.081663251 -0.31745154 1.312 0.7520959377 -0.3263929486 0.5725550652
0.33460507 -0.21504402 0.98593336 0.8845298886 0.1344181597 0.4466974437
0.22645564 -0.27577099 1.1875262 0.6510887742 -0.04786266387 0.7574909329
0.27256995 -0.25468785 1.1236924 0.8353928924 0.08081466705 0.5436797738
-0.1034233 -0.21755826 1.2640001 -0.2593372762 0.6215812564 0.7391758561
0.35985765 -0.22522268 0.94800007 0.7535640597 0.02900329605 0.6567344069
0.043323841 0.054898474 1.0155001 0.04215654731 0.9678224921 0.2480775565
0.12738493 0.085736237 1.0699999 -0.860237062 0.3615909219 -0.3595054746
0.096596688 -0.015662722 1.1243333 -0.1397175044 0.7500272393 0.6464813948
0.3513191 -0.35654774 1.0244546 0.8208214045 0.2140801847 0.5295487642
-0.15712936 -0.10126113 1.138 -0.1954034269 0.6951389313 0.6918087602
0.058909196 -0.31457043 1.3280001 0.5582031012 -0.2683681846 0.7851036787
0.063576959 -0.14216135 1.245 -0.07669530064 0.6576800346 0.7493829131
0.23894414 -0.13348188 1.1472857 0.886736691 0.2369803637 0.396911025
0.28189215 -0.19971344 1.09 0.8804209828 0.2190176696 0.4205831289
-0.13602588 -0.15300463 1.1954 -0.3650352359 0.629332304 0.6860685945
0.096542031 -0.31616107 1.2880001 0.6799996495 -0.2368198335 0.6939141154
-0.28428438 -0.20502833 1.1955 -0.01695277356 0.6128969193 0.7899810076
0.25660244 -0.21538253 1.1452355 0.8643988967 0.128987655 0.4859802127
-0.14504503 0.026996687 1.0064 -0.07199335098 0.7087370157 0.7017897367
0.095393397 -0.14473875 1.2507499 -0.09114848822 0.6315352321 0.7699708939
0.36227921 -0.29584539 0.9732666 0.8324802518 0.3100098968 0.4592063427
-0.056534078 -0.26463544 1.3160911 -0.3110849261 0.5886471868 0.7461371422
0.20267189 -0.34106481 1.202 0.6787118316 -0.136056602 0.7216916084
-0.055546917 -0.1236731 1.1955004 -0.2268764526 0.7116145492 0.6649299264
-0.2248078 -0.15502323 1.1678336 -0.2274427116 0.6411416531 0.7329441905
0.1051034 -0.074926242 1.1869999 -0.165404126 0.6675030589 0.7260035276
0.055506036 -0.093209021 1.1946 -0.1364626437 0.6945641637 0.7063699961
-0.20379083 -0.09943416 1.123 -0.1435029656 0.7058851719 0.6936375499
0.10420295 -0.094872572 1.2046667 -0.1422147304 0.689553678 0.7101342678
0.016453279 -0.07918141 1.1730001 -0.210633412 0.7136688828 0.6680645943
0.01555645 -0.27762279 1.365 0.09746591747 0.5322170854 0.8409788013
0.25106946 -0.47113031 1.141 0.6245545149 -0.1150643751 0.7724583149
-0.1426512 0.27836797 1.13 0.4848736227 -0.3831456602 0.7861914039
-0.17200989 -0.12926187 1.161 -0.2138961107 0.6857587695 0.6956891418
0.27560297 -0.32525048 1.1251248 0.7299141288 -0.01561008207 0.6833605766
-0.20302303 0.013976872 1.0220002 0.1367589235 0.6217693686 0.7711678147
0.10341897 -0.34484792 1.284765 0.6086229086 -0.1585880816 0.7774496675
0.27936387 -0.083718166 1.0380001 0.7985461354 0.06269083172 0.598660171
0.27089477 -0.17511609 1.1035999 0.8869397044 0.2442670465 0.3920096457
-0.063847192 0.13921949 1.0115 0.6412795186 -0.2724845707 0.7172954679
-0.16436918 -0.22639461 1.2431818 -0.2417854369 0.6723771095 0.6996061802
-0.044719208 0.065124556 0.98568743 -0.212404862 0.6691411734 0.712133646
0.10411206 -0.039084136 1.153 -0.1286013424 0.7404776216 0.6596624851
0.25096044 -0.14628352 1.13 0.9013192654 0.23300156 0.3651490808
0.24298957 0.0042613731 1.1017058 0.6754765511 -0.043083556 0.7361217141
0.11508414 -0.0054219039 1.1142272 -0.104675442 0.7708013654 0.6284172535
0.057015765 -0.039010789 1.141 -0.1213880554 0.7386236787 0.6630988121
0.013987655 0.08329013 0.96700007 0.1142192557 0.6266241074 0.7709060907
-0.10445677 -0.12487153 1.1836666 -0.228511095 0.6592386365 0.716370821
-0.014064071 -0.11674628 1.2033333 -0.229809612 0.6984294653 0.677778542
0.064108878 -0.010684813 1.108 -0.1240063533 0.7646756172 0.6323714256
0.34649459 -0.20653127 1.9470001 -0.5823352933 0.7913143635 0.1862985492
0.13620292 -0.027907904 1.1414444 -0.06447127461 0.733315587 0.6768247485
0.015836857 -0.2175982 1.3034286 -0.2045342922 0.63830477 0.7421137094
0.024740409 -0.13015607 1.2270001 -0.1292001009 0.7128475904 0.6893153787
0.161777 0.04187135 1.0855 -0.4999266863 0.3459192514 0.7939856052
0.1046214 0.0224865 1.08 -0.162776053 0.7438858747 0.6481803656
-0.034741119 0.0053974167 1.0624501 -0.2138899118 0.7688147426 0.6026400328
0.075528339 0.044589024 1.0380001 0.04949384928 0.9241802692 0.378736347
0.27958214 -0.39533895 1.1190001 0.6905200481 -0.07322571427 0.7195971608
0.2463747 -0.24513713 1.1644784 0.8187970519 0.03303798288 0.5731316209
-0.074713215 -0.048574518 1.1126002 -0.2301618755 0.6831620336 0.6930477023
0.27147168 -0.037575249 1.0715001 0.80170542 -0.236675173 0.5488654375
-0.20499858 -0.2168792 1.2233075 -0.2466302216 0.612279892 0.7511903048
-0.24536127 -0.21659414 1.2104446 -0.26714921 0.6061049104 0.74917835
