# .PCD v0.7 - Point Cloud Data file format
VERSION 0.7
FIELDS x y z normal_x normal_y normal_z
SIZE 4 4 4 4 4 4
TYPE F F F F F F
COUNT 1 1 1 1 1 1
WIDTH 512
HEIGHT 1
VIEWPOINT 0 0 0 1 0 0 0
POINTS 512
DATA ascii
0.4317145 0.1262926 1.47 0.2015846521 0.6708167195 -0.7137005925
-0.16542964 -0.38783297 2.3490002 0.08253970742 0.9917373061 0.09820518643
0.051938117 -0.4940455 1.4450001 0.7882595658 0.0316010341 0.614530921
-0.23097186 0.19776022 1.7220001 0.9816313386 -0.04361960664 0.1857344955
0.46275112 -0.26363909 2.1030002 -0.7866865396 0.616258204 -0.03674384952
-0.07337518 0.014126133 1.1970003 0.38351807 0.3930270672 0.8357293606
0.45233309 -0.3862372 1.1658889 0.4726669788 -0.2370158732 0.8487693667
0.19655795 0.43249449 1.3380002 0.5158644319 -0.4008046091 0.7571258545
0.30295205 -0.010974113 1.138 0.02747283503 0.6583791375 0.7521849275
0.15442309 -0.17219397 1.398 0.1148667037 0.7395911217 0.663182199
-0.28582841 -0.20521013 2.0900002 0.7878808379 0.5852639079 0.1915984005
0.47175887 0.0233544 1.7760001 -0.9849817157 -0.1724353582 -0.008775661699
-0.19428337 0.077968977 1.4580001 -0.05330592394 -0.5611717701 0.8259810805
-0.11289714 -0.18856223 1.3700001 -0.528156817 0.2461718321 0.8126806021
0.27496997 -0.49555358 1.3169999 0.5449544191 -0.386831373 0.7438992858
0.39468849 -0.16594028 1.3145001 0.8992719054 0.04577945173 0.4349876642
0.23365445 0.22096734 1.2060001 0.1737432033 -0.4963677824 0.8505482674
0.051832918 -0.49966931 2.365 -0.3713434935 0.9261982441 0.0652750358
0.10771078 0.079821378 1.097 0.2649044991 0.5170661211 0.8139215112
0.11351079 -0.051843874 1.245 -0.04104475677 0.7946513891 0.6056768894
0.044153605 -0.30426645 1.4960002 0.3509679139 -0.1249297559 0.9280161858
0.28466091 -0.31191689 1.3817501 0.6143786907 -0.3283656538 0.717436254
0.36970612 0.022020113 1.322 -0.2087289691 0.7802560925 -0.5896037817
-0.19792065 0.26343921 1.557 0.6668333411 -0.3216904402 0.6721968055
0.44808102 0.13620506 1.647 -0.9459762573 0.2511352897 0.2050852925
-0.18558595 -0.061861984 1.2830001 0.4199870825 0.4376997352 0.7950029969
0.25485194 -0.095781162 1.2946923 0.06148310751 0.7956801653 0.6025884748
0.16708739 -0.40648404 1.3980001 0.3611138165 -0.355553478 0.862078011
-0.02496659 -0.09305948 1.2945 -0.1193807572 0.7409650683 0.660847187
0.37699476 -0.30555454 1.2666667 0.7623061538 -0.1782262474 0.6221934557
0.37745801 -0.49495879 1.2161053 0.8007313609 -0.1115170941 0.5885518193
0.014881051 -0.19469927 1.4145833 -0.004381299019 0.7679578662 0.6404853463
0.23508796 0.10550779 1.1423916 0.4520319402 -0.4493234754 0.7705683112
0.20542826 0.32471374 1.2739999 0.5771741271 -0.4020526409 0.7107909322
0.44634518 0.22385508 1.557 -0.6551886797 0.633494556 -0.4115974307
0.17861645 -0.29769409 1.4450001 0.3408425152 -0.4466375709 0.827249229
-0.17366153 -0.020790149 1.3950001 0.6503059268 -0.337397933 0.6806356311
0.045206096 0.0078569781 1.169 0.06011731178 0.7155478597 0.6959721446
0.18754268 -0.0010248233 1.169 0.09338278323 0.8249171972 0.5574865937
0.0041185799 -0.39744297 2.3490002 -0.4060219228 0.9100466967 0.08343403041
0.36608636 -0.043385357 1.2270001 -0.8043058515 0.5939156413 -0.01887599379
0.075070724 -0.12081694 1.3380001 -0.0200580582 0.7742453814 0.6325675845
0.26513818 -0.16586271 1.381 0.06952223927 0.7505226135 0.6571776867
0.33947513 -0.40893871 1.2780001 0.782009244 -0.200367853 0.5901815891
0.072206646 -0.39143604 1.4450001 0.4545995891 -0.2402233779 0.8576898575
-0.20201206 0.16745737 1.516 0.5977109075 -0.4430675805 0.6681562662
0.17711997 -0.49839818 1.3590001 0.399948895 -0.3225087225 0.8579213619
0.43017331 -0.22754759 1.2360001 0.5931892991 -0.3333868682 0.73278898
0.26511654 -0.40546957 1.3567499 0.4228654802 -0.2646391094 0.8666896224
0.340258 -0.24135949 1.3430001 0.8125231862 -0.1811536551 0.5540663004
0.40491131 0.077807672 1.3940001 -0.05476402864 0.8125926256 -0.5802535415
0.26525381 -0.042570546 1.2173333 0.1785907894 0.8136620522 0.5532263517
-0.11473392 -0.11450563 1.3140001 0.06118009612 0.7517057061 0.6566548347
0.16550376 -0.10524047 1.3151819 0.06579529494 0.7916391492 0.6074359417
0.092475183 -0.22675422 1.4450001 0.0209957771 0.6503133774 0.7593758702
-0.094883829 -0.055260688 1.25125 0.12540856 0.7002468109 0.702799499
0.0058802906 -0.039001923 1.2320002 0.02240483835 0.8061701655 0.5912593603
0.4373329 -0.30559459 1.1967145 0.5612708926 -0.2197262347 0.7979319692
-0.035979979 -0.15178308 1.3590001 -0.09425146878 0.7206881046 0.6868226528
0.34199587 -0.10774408 1.2846667 -0.04334462807 0.827391088 0.559951067
0.1959873 0.058129136 1.087 0.04025153443 0.6760666966 0.7357401848
-0.057062235 -0.23445134 1.4150001 -0.7395760417 0.2091270089 0.6397602558
0.39200673 -0.37527707 1.2255715 0.8151544333 -0.1694696397 0.5538982749
0.19386731 -0.057519354 1.2514286 0.1111877859 0.7947419882 0.5966761708
0.10580841 -0.45795843 1.398 0.3790661395 -0.3394414485 0.8608648777
0.32313731 -0.3454735 1.3220001 0.679104507 -0.1619603783 0.7159510255
-0.0030079896 -0.24461877 1.4711667 -0.1460868865 0.7169936895 0.6816000342
0.21692766 -0.34929028 1.3980001 0.4709353745 -0.2269668728 0.8524704576
0.42355096 -0.46037975 1.1670001 0.5795359015 -0.08673898876 0.8103175163
0.1153738 -0.0039985687 1.1856315 -0.04429188371 0.8001407981 0.5981746912
0.4949441 -0.22137499 2.0530002 0.0801198855 0.7606767416 0.6441674232
0.055113405 -0.077608667 1.2830001 0.03804166242 0.8035978675 0.5939556956
0.32792592 -0.48577502 1.268 0.6743540168 -0.2842890024 0.6814883947
0.10714883 -0.32908928 1.455 0.2318431139 -0.7125509977 0.6622083187
0.24416569 -0.26783481 1.4210001 0.5370511413 -0.06971676648 0.8406638503
0.26093575 0.042568594 1.1120001 0.3272128701 0.002670584712 0.9449468851
0.075354755 -0.16748892 1.3920001 0.01362352725 0.7356367707 0.6772392392
0.047382079 0.062188979 1.126 0.2676086426 0.3289947212 0.9056202769
0.20482615 -0.14453717 1.356143 0.1661537141 0.7794476151 0.6040317416
-0.013617557 0.042554859 1.1650001 0.2492518723 0.4019942284 0.8810642362
0.41775736 0.17764656 1.5160002 -0.3626958728 0.812710762 -0.4560185373
0.37826413 -0.22921677 1.2880001 0.76020962 -0.2026728094 0.6172560453
0.42839104 0.059456408 1.7390001 -0.9461421967 0.1786593795 0.2699921429
-0.17188102 -0.12404 1.3475001 0.4045653939 0.5554017425 0.7265368104
0.21525764 -0.44492698 1.3744347 0.4536760151 -0.3577264249 0.8162168264
0.13486934 0.032801948 1.1340001 0.1307904869 0.7961056828 0.5908549428
0.22734801 0.16268624 1.177 0.6274337173 -0.3067244589 0.7157143354
0.2974565 -0.13213821 1.3280001 0.1966623515 0.7358877063 0.6479145288
0.20846695 0.26740524 1.245 0.6965406537 -0.4105607271 0.5884479284
0.29453728 -0.24646102 1.3870002 0.6340050101 -0.3302717507 0.6992554665
0.31786016 -0.052557796 1.182143 0.437946856 0.8578283191 0.2689481974
0.37462959 -0.43498251 1.2330002 0.839738965 -0.1630425453 0.5179339647
0.21944807 0.38090727 1.2970001 0.5139891505 -0.4600816965 0.723975122
-0.16731867 0.035162576 1.4222001 0.5978381634 -0.2803478539 0.7509957552
-0.14194636 -0.018420519 1.2360001 0.2442272007 0.3312526047 0.9113861918
0.025129652 -0.14479464 1.365 -0.03789202869 0.7747055888 0.63118577
0.15512441 -0.35528493 1.427 0.3809680045 -0.3669174314 0.8486666083
0.24532658 0.0027227243 1.1545384 0.1364597976 0.8324901462 0.5369719863
0.064544506 -0.032540336 1.2169166 -0.02024390921 0.7861827612 0.6176624298
0.31367615 -0.066764012 1.2416667 0.1372172982 0.8085836172 0.5721572638
0.38179711 -0.010801118 1.2746667 -0.3483408689 0.8471790552 -0.4011811316
0.029640099 -0.35954729 1.47 0.5424386859 -0.4312204719 0.7209779024
0.29595479 -0.43565768 1.3169999 0.6624500751 -0.2001754642 0.7218654156
0.13556862 -0.135573 1.3564999 0.02793919854 0.7767273188 0.6292170286
0.11616604 -0.087804124 1.2939999 -0.02926279046 0.7615174651 0.6474834681
0.16443916 -0.027360367 1.2129999 0.09537696838 0.8147925138 0.5718534589
0.32330501 -0.29405668 1.3435001 0.7379058599 -0.2571270466 0.6240037084
0.21459222 -0.18278816 1.3956001 0.1669537127 0.6054214835 0.7781974673
0.35581276 -0.35519278 1.2763333 0.7051989436 -0.1710650921 0.6880633831
0.39378989 -0.11185915 1.302 0.325061202 0.3444589078 0.8807288408
0.41285318 -0.187418 1.268 0.7061533928 -0.3962053955 0.5868293643
-0.045952242 -0.030991042 1.2190001 0.07944709808 0.7236276269 0.6856027842
0.025496973 -0.10778266 1.322 -0.04500324279 0.7680138946 0.6388500333
-0.18764728 0.12784284 1.4830002 0.2119082063 -0.4734910429 0.8549275994
0.11635734 -0.39472181 1.4150001 0.1665350497 -0.1466196626 0.9750736952
-0.066253833 -0.18530717 1.3958572 -0.2290131152 0.5637881756 0.793533802
0.40964615 -0.40964615 1.189 0.6933643222 -0.2064639479 0.6903756261
0.406964 -0.27500498 1.2353847 0.7517544031 -0.2172469199 0.622630775
0.23127607 -0.4920572 1.3460001 0.4866339564 -0.2396327406 0.8400973678
0.35576981 -0.27541441 1.303579 0.7658240795 -0.2669243217 0.585034132
-0.19679013 0.21602668 1.5360001 0.5534009337 -0.3605938256 0.7508125901
-0.065097764 -0.12438674 1.3260001 -0.06535530835 0.7653987408 0.6402292252
0.058296751 -0.44610777 1.427 0.5584666133 -0.136617437 0.8181996942
-0.13501959 -0.076738685 1.2754999 0.03989667073 0.6908677816 0.7218794823
-0.004685929 -0.0026047227 1.1876668 0.04573544487 0.6728187203 0.7383923531
0.045165338 -0.25350028 1.4890001 0.3771467209 0.7081980109 0.5968382955
0.15573342 -0.45522806 1.3870002 0.3247039914 -0.3615813553 0.8739715219
0.21455978 -0.026734531 1.2036666 0.06808064878 0.8348493576 0.5462523103
-0.075201169 -0.09191253 1.2880001 -0.05909444764 0.7660662532 0.6400393248
0.18459269 0.027639549 1.1260002 0.07742419839 0.7955928445 0.6008639336
0.27800891 -0.35581428 1.3584447 0.5996082425 -0.2859690487 0.747456789
0.42560983 -0.35447156 1.1933336 0.5960476995 -0.231800735 0.7687623501
-0.04478595 -0.062021863 1.2571818 -0.04352356866 0.7515362501 0.6582544446
0.085240066 0.02494555 1.1461669 0.03442561254 0.7534029484 0.6566573977
0.15446886 0.083395369 1.081 0.2084298581 0.5431015491 0.8133865595
0.39907357 -0.32700366 1.2270001 0.7284256816 -0.240473181 0.6415361762
0.24462622 -0.12893517 1.3330001 0.03925083205 0.7608271241 0.6477665305
-0.16256513 -0.10584098 1.3028334 0.006016283296 0.7646679282 0.6443964243
0.20501025 -0.08947961 1.2920001 0.07392545044 0.7728832364 0.630227387
0.11412447 -0.19227491 1.4150001 -0.01497579366 0.7398266196 0.6726308465
0.076722361 -0.49766961 1.4039999 0.6218211651 -0.176228255 0.7630741
0.40326372 0.10784519 1.4360002 -0.4694061279 0.6903042793 -0.5505795479
0.22518587 -0.39286458 1.381 0.4826790988 -0.2995854318 0.8229638338
0.045604203 -0.21915351 1.4450001 0.03487222269 0.7918463349 0.6097239852
0.39395431 0.0470846 1.3540001 -0.2159043103 0.7405102253 -0.6364195943
0.12400695 -0.49530405 1.3760002 0.1227792054 -0.550241828 0.8259292841
0.26113918 -0.45281392 1.3430001 0.3272057772 -0.2649785578 0.9070406556
-0.097209476 -0.017512001 1.223 0.2981736958 0.4396876693 0.8472114205
0.0055580665 -0.070031643 1.268 -0.04371184483 0.7969511151 0.602460146
0.24529938 -0.062945381 1.2540627 0.08881168813 0.8125677705 0.5760608912
-0.12938373 -0.14837584 1.3540001 -0.2817698121 0.4522940218 0.8461890221
0.36125565 -0.068404548 1.2653333 -0.4877816737 0.6188061237 0.6157499552
0.28161341 -0.019671524 1.1810001 0.2738139629 0.8390273452 0.4701691568
0.22049657 -0.31019008 1.4210001 0.4930970669 -0.3908602297 0.777228117
0.30032933 -0.38602641 1.3330001 0.6716601253 -0.2166813761 0.7084644437
0.15467206 -0.072865777 1.2758571 0.0160510689 0.8114235997 0.5842380524
-0.018627413 -0.1222424 1.3280001 -0.1669624299 0.7660037279 0.6207751632
0.1745915 -0.20157321 1.4246 0.1479122788 0.7030856609 0.6955519319
-0.085622273 -0.15221958 1.3565001 -0.04698138312 0.7352489829 0.6761669517
0.29485533 -0.092112161 1.2770909 0.1520901322 0.7685042024 0.6215061545
0.23306446 0.063017428 1.141 0.5625825524 -0.215213567 0.798238039
-0.0244064 -0.17938703 1.3920001 -0.1385082304 0.7666946054 0.6268930435
-0.025325051 -0.21616291 1.4363334 -0.2191156149 0.720559597 0.6578618288
0.066738874 -0.33561957 1.4640001 0.7251279354 -0.4037434161 0.5578357577
0.42641416 0.18784161 1.5640001 -0.6495528221 0.6470420361 -0.3992714882
0.34842053 -0.31593376 1.2970001 0.7933832407 -0.2106290311 0.5711203218
0.20530784 -0.11485583 1.3250003 0.1019327119 0.7419833541 0.6626238823
0.11428278 -0.11373986 1.3262355 -0.03239909559 0.8176931739 0.5747417808
0.39453974 -0.45601073 1.2045263 0.8083059192 -0.1269400716 0.5749154091
0.1147811 -0.16245663 1.3855 -0.02105017006 0.7118192315 0.7020472288
0.22480071 0.026866492 1.1246877 -0.1158178151 0.6487897038 0.7521024942
0.074772216 -0.1956514 1.4215002 -0.001376878819 0.7150458694 0.6990761757
0.44352901 -0.42517102 1.1635002 0.4548951685 -0.1009922698 0.8847999573
0.026267022 0.037269734 1.149 0.2946310639 0.5319828391 0.7938430905
0.35126981 -0.44435078 1.2640001 0.7320119143 -0.1209129393 0.670476377
0.039460521 -0.41242608 1.452 0.4350693226 -0.3049111366 0.8471976519
0.30737892 -0.46883813 1.2970001 0.6694553494 -0.2466643453 0.7007040977
0.04474945 -0.051298149 1.245 0.01768526807 0.826120317 0.5632162094
0.14546002 -0.3171885 1.4519998 0.1872784346 -0.1464764923 0.971324563
0.24619694 -0.32682875 1.3859092 0.4334181547 -0.3849828243 0.8148232698
0.1130637 -0.36054757 1.4330001 0.2739644051 -0.350802511 0.8954781294
0.24191178 0.14354102 1.1450001 0.7630787492 -0.2406927794 0.5998147726
0.36843538 -0.39585876 1.2559091 0.7633749843 -0.1695287377 0.6233126521
0.18500297 -0.3728902 1.4100002 0.3593230844 -0.403498292 0.8414725661
0.13226269 -0.43263501 1.4100001 0.1117974594 -0.4009324014 0.9092604518
0.15165369 0.01119591 1.161 0.1390022039 0.8208323717 0.5539969206
0.085071929 0.055102497 1.1154283 0.3000638485 0.4494514763 0.8414006829
0.38443914 -0.26454085 1.2747856 0.7892372012 -0.2465203851 0.5624343157
-0.041273467 0.018573061 1.177 0.3270070553 0.4952599704 0.8048502803
0.023964059 -0.022006588 1.2034286 0.03818759695 0.757596314 0.6516053677
0.40786538 0.15436463 1.488 -0.09929543734 0.8038479686 -0.5864885449
0.15450121 0.052787669 1.1028665 0.1883259565 0.707182467 0.6814882755
-0.17031266 0.09230686 1.483 0.0189851895 -0.5071861744 0.8616273999
0.3273561 -0.38539499 1.3045 0.7548261285 -0.2219804078 0.6172213554
0.064020775 -0.14419632 1.365 -0.03709886223 0.7614899874 0.6471141577
0.27820665 -0.27820665 1.3980001 0.5734866858 -0.3506964147 0.7403547168
0.087454081 -0.42610604 1.4150001 0.4012694359 -0.1746307313 0.8991590142
0.36296129 -0.47465581 1.2438571 0.7430910468 -0.1998334527 0.6386566162
0.43453386 -0.26960129 1.2060001 0.6746661067 -0.2515556216 0.6939347386
0.19649528 0.39583522 1.3220001 0.5528329611 -0.3916040361 0.7355419397
-0.16464968 -0.037855927 1.2576667 0.4267917275 0.3778770864 0.8216189742
-0.17835344 0.19420709 1.507 0.6931475401 -0.3045349121 0.6533031464
0.075882353 -0.0053860014 1.1842725 -0.01871095225 0.7887969613 0.6143690348
0.35257885 -0.054427851 1.194 -0.3004440367 0.9329141378 0.1985058784
0.27801257 0.0080441181 1.1190001 0.1251691431 0.5704644918 0.8117283583
0.034657083 -0.16767198 1.3920001 -0.04848674685 0.6429961324 0.7643330097
0.18446536 -0.33403412 1.4217501 0.4177277088 -0.3921535909 0.8195847273
0.12460941 -0.025193145 1.213905 -0.04659344628 0.7795372605 0.6246204376
0.27413207 -0.15066621 1.3490001 0.161678046 0.7137691379 0.6814644337
0.084525131 -0.066790164 1.2645 0.01187085267 0.7941879034 0.6075562835
0.1744457 -0.12847593 1.3445001 0.05277640745 0.7620627284 0.6453487277
0.05114824 -0.34229976 1.4960001 0.7254626751 -0.378063947 0.5751274228
0.24519238 -0.017398546 1.1844999 0.1311699897 0.7975574136 0.5888094902
0.20799968 0.23909242 1.223 0.2453223169 -0.4573961794 0.854754746
0.17510732 -0.15437904 1.3733336 0.08270377666 0.7101981044 0.6991271377
0.30591771 -0.32524857 1.3458574 0.7079616189 -0.3018862605 0.6384786963
0.15556508 -0.045922734 1.241941 0.01061536372 0.7610003948 0.6486645341
0.24593306 -0.36475295 1.376 0.544016242 -0.2419283539 0.8034407496
0.31392118 -0.26552331 1.3649999 0.7840846777 -0.2702873647 0.5587091446
0.35860944 -0.22698846 1.317 0.8098375201 -0.1339816302 0.571149826
0.40568623 -0.14630516 1.2880001 0.5862826109 -0.06300370395 0.8076528907
0.40505707 -0.24556021 1.2536523 0.7183975577 -0.206014663 0.664426744
0.075503565 -0.094953008 1.3049167 0.03712225705 0.801246345 0.5971819162
0.38188425 -0.3536225 1.2505555 0.8523126245 -0.1448469162 0.5025759339
0.2049191 -0.47417328 1.3589998 0.3564907312 -0.296146214 0.8861217499
0.22419848 0.30442226 1.2536114 0.6123728752 -0.3908456564 0.6871966124
0.01140105 -0.22168708 1.4450001 0.008010783233 0.7905476093 0.6123481393
0.39812064 0.13639356 1.454 -0.001729222131 0.6588842273 -0.7522423863
-0.086207643 -0.21281584 1.3962858 -0.4487377703 0.2621259391 0.8543561101
0.22856015 -0.17830084 1.365 0.1290680766 0.6642036438 0.736325264
0.21264076 0.19075127 1.189 0.3477684855 -0.4348923862 0.8306176662
0.31503189 -0.11870767 1.302 0.143111065 0.7491568923 0.6467481852
0.32420301 -0.032421473 1.1556667 0.08855297416 0.7924867272 0.603426218
0.024974262 -0.087414108 1.2949166 -0.03827243298 0.7923359871 0.6088833213
0.3049469 -0.045587543 1.2125293 0.09012468904 0.8337194324 0.5447838902
-0.13643125 -0.051298149 1.245 0.1058677658 0.5403764248 0.8347367048
-0.14552666 -0.13155611 1.3280001 0.1383574158 0.6360915303 0.7591078877
0.32445851 -0.43405959 1.294353 0.6744348407 -0.2389488816 0.6985993385
0.44301823 0.1952512 1.536 -0.593798995 0.683850646 -0.4239705801
0.1841117 -0.43537843 1.381667 0.4003165066 -0.2470189333 0.8824558258
0.19898142 0.34793323 1.2970001 0.5489538908 -0.3716033101 0.7487059832
0.22417183 -0.047934964 1.2333335 0.04123033211 0.8264324665 0.5615242124
0.37717354 -0.084949002 1.2920001 -0.5863733888 0.3826559782 0.7139612436
0.24669173 -0.29606509 1.398 0.4616956115 -0.4094652534 0.7868769765
0.35723683 -0.026377292 1.2538333 -0.880847156 0.4599506855 -0.1120432764
0.23844822 -0.42464542 1.3590001 0.5358498096 -0.2574944496 0.8040904999
0.21153089 0.0090656104 1.149 0.06404540688 0.8334830999 0.5488206148
0.14326048 -0.21053062 1.4210001 0.01373178139 0.6538715959 0.7564809322
0.26344711 0.072572216 1.1340001 0.2287559956 -0.211511299 0.9502282143
0.40456501 -0.48083386 1.1863333 0.7201194167 -0.0375437215 0.692833662
-0.074523687 -0.038881917 1.2320002 0.06817185879 0.6885749698 0.7219536304
-0.0048146537 -0.15407416 1.3730003 -0.1653274298 0.6953903437 0.6993561983
-0.18280925 0.0070802518 1.4250001 0.6578698754 -0.2716282308 0.7024424076
0.27564642 -0.072340146 1.2584286 0.1567033827 0.7905353904 0.5920286179
0.095902957 -0.14205945 1.3649999 0.05026210099 0.741687119 0.6688601971
0.40433007 0.1170087 1.483 0.2458279878 0.6274080276 -0.7388692498
0.11453491 0.018244136 1.1561998 0.00757688703 0.8016269207 0.5977765918
0.094942994 -0.022155704 1.2033333 -0.07770905644 0.7772406936 0.624386251
0.32482055 -0.085522078 1.2645714 0.1608631909 0.7321727276 0.661850512
0.28320837 -0.46492535 1.3240001 0.6146940589 -0.2690876722 0.7414466143
0.28364289 -0.10786419 1.302 0.2214571238 0.7644036412 0.6055111885
0.045245059 -0.12708014 1.3463335 -0.02452725358 0.7421782017 0.6697536111
0.20297988 -0.41206136 1.3920001 0.3924412131 -0.3632750511 0.844997704
0.15438911 -0.38593134 1.4210001 0.2951783538 -0.4092479646 0.8633573055
-0.033579841 -0.012592441 1.197 0.1530120522 0.6473432779 0.7466819882
0.3977353 -0.21543066 1.2679999 0.7552158237 -0.2926482856 0.5865203142
-0.17365889 -0.090750776 1.2780001 0.1550426781 0.5985300541 0.7859538794
-0.095123768 -0.1292468 1.3330001 0.002335048281 0.7667981386 0.6418840885
0.12497067 0.052816167 1.1122502 0.1534788907 0.6909290552 0.7064427137
0.38655639 -0.40569267 1.2261999 0.8433118463 -0.1302987635 0.521389842
-0.10422617 -0.078543633 1.2738333 0.02012513764 0.712141633 0.7017472982
0.21565385 -0.011350203 1.177 0.05508409813 0.8032236099 0.5931252837
0.36639583 -0.00114142 1.302 -0.2674362361 0.7778131962 -0.568756938
0.075068094 -0.048957448 1.2410001 0.01781088673 0.8040620685 0.5942785144
0.15524296 -0.0054636057 1.1865 0.1329117119 0.8314651251 0.539444387
0.056159273 -0.36590663 1.456 0.5743431449 -0.3089433908 0.7580791116
0.215653 -0.071143255 1.268 0.07963007689 0.8010626435 0.5932602286
0.0445785 -0.18822253 1.4125 -0.09488910437 0.750007987 0.6545869112
0.19529152 -0.038630318 1.224 0.15102081 0.8049633503 0.5737828612
0.33878607 -0.26776904 1.3280001 0.7733526826 -0.2682304382 0.5744371414
0.061928611 -0.28065518 1.503 0.2307711095 -0.1143884286 0.9662608504
-0.16124004 0.01107756 1.404 0.6408427358 -0.3309428096 0.6926741004
-0.17486782 0.061642814 1.4350001 0.3561967313 -0.5503196716 0.7551636696
0.063618824 -0.47570968 1.4230002 0.7014430165 -0.07522172481 0.7087449431
0.055217233 0.027318934 1.1481429 0.1024931073 0.7096523643 0.697057128
0.086056814 -0.35478383 1.4449998 0.2663897872 -0.2463684231 0.9318471551
0.015627937 0.015902653 1.1671821 0.1873976737 0.6409873962 0.7443233728
-0.015058344 -0.05595006 1.2513636 -0.05326029286 0.7938532829 0.6057724953
0.28442603 -0.41480497 1.3357778 0.6132376194 -0.2816830575 0.7379662991
0.15609437 -0.48541242 1.3760002 0.2868079543 -0.3529180586 0.890612185
0.2458113 -0.15315709 1.3585001 0.1054328606 0.7530368567 0.6494762301
0.34379008 -0.068540432 1.2410001 -0.2775883377 0.6707137823 0.6878136992
0.21550655 -0.28467941 1.4358422 0.4785903096 -0.3823306561 0.7904268503
0.41775626 -0.29671788 1.2175001 0.6603170037 -0.2090049535 0.7213171124
0.32325068 -0.24092466 1.381 0.7388162017 -0.4530951381 0.4988540709
0.33215606 -0.31477177 1.3220001 0.7726330757 -0.2801732421 0.5696851015
0.17442861 -0.088346966 1.2919999 0.07328693569 0.7716194391 0.6318484545
0.23463808 -0.10926773 1.312 0.07115104049 0.75811553 0.6482270956
0.004999869 -0.17500497 1.3941818 -0.1141452566 0.7274560332 0.6765933633
0.18564171 -0.17586336 1.395 0.1718623787 0.6955220103 0.69764781
0.23146629 -0.46174559 1.3540001 0.5236321092 -0.2855946422 0.8026487827
0.025791641 -0.23726271 1.4708751 0.0119446665 0.7926169038 0.6096029878
0.18549021 -0.015930785 1.1954001 0.1285664737 0.8388755322 0.5289220214
0.42518991 -0.38485551 1.1847419 0.6485132575 -0.1961748153 0.7354903221
-0.055443592 -0.10500293 1.3059286 -0.07110529393 0.7487947941 0.6589767933
0.33255503 -0.46077803 1.2830001 0.6735070348 -0.2306527793 0.7022731304
0.23126905 0.26246345 1.2270001 0.426564604 -0.3264346123 0.8434945345
-0.18544516 0.15396932 1.4960001 0.447965771 -0.4782390594 0.7553899884
-0.084298395 -0.11212505 1.307 -0.06998743117 0.7499322891 0.6578018665
0.0042236545 -0.13228485 1.3490001 -0.09509932995 0.7307708859 0.6759659648
0.28494394 -0.056365378 1.233778 0.1196517274 0.8477583528 0.516710043
0.22071485 0.35179931 1.2780001 0.5371387601 -0.3835849166 0.7512286901
0.31147966 -0.49723482 1.2920001 0.6735140085 -0.2367729843 0.7002267241
0.14537343 -0.11615851 1.3330001 0.07571993023 0.7799021006 0.6213044524
-0.064973719 -0.16484535 1.3725001 0.00261873845 0.7680055499 0.6404378414
0.0399497 -0.38660997 1.47 0.4292579293 -0.313914299 0.846873939
0.13432199 -0.47549498 1.3943335 0.1428102553 -0.3826826215 0.9127755761
0.12034442 -0.21915351 1.4450001 0.05538389832 0.6766301394 0.7342371941
0.11494765 -0.068075798 1.273 -0.03358092904 0.7981373668 0.6015388966
-0.045057159 -0.19632599 1.4119999 -0.1269660443 0.7139410377 0.688598454
0.13554583 -0.34456506 1.4449998 -0.0665339008 -0.3937942684 0.9167875051
-0.1244286 -0.095687002 1.2942222 0.01292371657 0.7420617342 0.670206964
-0.09093225 -0.17580587 1.383 -0.5326951742 0.3679210246 0.7621482611
0.22893099 0.12499864 1.1623334 0.7386520505 -0.2883874178 0.60928303
0.39631799 -0.30425668 1.2439475 0.7651106715 -0.2363064289 0.5989699364
0.2979027 -0.28827605 1.3730001 0.7042852044 -0.2680495083 0.6573673487
-0.032762785 -0.2352903 1.456 -0.3528078198 0.610630393 0.7089832425
-0.014585291 -0.025988847 1.2133571 -0.001307106344 0.7959703803 0.6053341627
-0.21208817 0.24613088 1.5743333 0.6668333411 -0.3216904402 0.6721968055
0.42112437 -0.33201995 1.21 0.6810566783 -0.2815802395 0.675924778
0.29754591 -0.35541296 1.3379999 0.6963335276 -0.2356873751 0.6779167056
0.41804129 -0.43469802 1.177 0.6486378908 -0.1171080321 0.7520336509
0.21493615 0.045604967 1.1034813 -0.08907918632 0.7501460314 0.6552448869
0.10128656 -0.49178895 1.3920001 0.4577279985 -0.3611722887 0.812428236
0.3412846 -0.3526988 1.302 0.7868313193 -0.1962289661 0.5851415992
-0.06132108 -0.01162986 1.2060001 0.2215332091 0.596241653 0.7716339231
0.34843817 -0.38204959 1.2780001 0.7211514711 -0.155142948 0.6751823425
0.29720053 -0.033587731 1.161 0.4069758952 0.8522555828 0.3286806941
-0.015331551 -0.1955304 1.4123077 -0.1726741493 0.7460301518 0.6431350112
0.2718333 -0.0040572132 1.1570001 0.4717038572 0.8321548104 0.2915713191
0.034811914 -0.064992353 1.2665882 0.01076906268 0.8041026592 0.5943929553
-0.16476016 -0.064082965 1.2651111 0.286719054 0.4944745898 0.8205407262
0.34762681 -0.49715549 1.245 0.6793005466 -0.2344431281 0.6954042912
0.25409481 0.014883408 1.1318183 0.4585320055 0.7133286595 0.530009985
0.25533816 -0.48548383 1.3351053 0.4019936025 -0.3173028231 0.8589063287
0.4450863 -0.33042705 1.189 0.5755737424 -0.2896292806 0.7647415996
0.084535159 -0.45419097 1.4144121 0.4356065691 -0.3022356629 0.8478800058
0.39520308 0.031291738 1.322 -0.1993431151 0.7847527862 -0.5868776441
0.18099616 -0.46308383 1.381 0.3561763465 -0.3152665496 0.8796280026
0.30711341 -0.40637216 1.3165456 0.6627987027 -0.2490104586 0.7061810493
0.42233413 -0.20579751 1.25 0.5407736897 -0.3810412288 0.7499142289
0.40490812 -0.35487506 1.213516 0.7521375418 -0.2614266872 0.6049340367
-0.075351253 -0.068702608 1.2640001 0.01204128843 0.7307381034 0.682551682
0.14421114 -0.15265098 1.3754002 0.020991778 0.7436334491 0.6682578921
0.38842642 0.06152096 1.376 -0.207698673 0.7777063251 -0.5933246613
-0.15419802 -0.15418902 1.3455715 -0.05090660974 0.4341511726 0.8994005322
-0.0041131317 -0.1048132 1.3137858 -0.1398658603 0.7745351791 0.6168733835
0.41184047 0.09365648 1.4150001 -0.2387733608 0.7819613218 -0.5757809877
0.065004833 -0.31462339 1.483 0.752771318 -0.1301664263 0.6452844143
0.397836 -0.17878155 1.2880001 0.6823832393 -0.2163142413 0.6982558966
0.40747347 -0.38491619 1.2043157 0.6898838282 -0.180872649 0.7009603381
0.13507651 -0.061600156 1.2572223 -0.009525985457 0.8006250262 0.5990899801
-0.051506795 -0.2160773 1.4330001 -0.5878391266 0.4288875461 0.6859304905
0.42708758 -0.25528565 1.22675 0.6390198469 -0.3114625216 0.703309834
0.25377765 -0.078789368 1.273 0.1031641513 0.7793616652 0.6180230975
0.059106618 -0.10778266 1.322 0.01431911252 0.7889811993 0.6142504215
0.38008058 -0.33132389 1.2640001 0.7527269721 -0.1411987245 0.643012464
-0.034094516 -0.077691443 1.2750832 -0.06112202629 0.7564062476 0.6512401104
0.14535366 -0.087442242 1.2953333 -0.008645729162 0.7818245888 0.6234385371
-0.11464997 -0.032337479 1.2354287 0.3069304526 0.5294865966 0.790846169
0.1010446 0.040615965 1.13 0.06273175776 0.7298974395 0.6806720495
0.20587407 -0.1612412 1.376 0.1158710271 0.7072382569 0.6974151731
0.035640087 -0.037204053 1.2251819 0.05811614916 0.8249278665 0.5622424483
0.20567575 -0.38563877 1.3965003 0.3709374368 -0.3592397869 0.8563598394
0.26900342 -0.33896843 1.376 0.4691328108 -0.3868375719 0.7938961387
0.16677338 -0.32421148 1.439 0.4190134108 -0.3158553541 0.8512715101
-0.11065023 -0.20792517 1.3870001 -0.5294079781 0.3460083306 0.7746001482
-0.20518382 0.23598404 1.5500001 0.6668333411 -0.3216904402 0.6721968055
0.27228302 -0.12971424 1.3330001 0.1690859348 0.7144372463 0.6789619923
0.23789753 0.083412208 1.126 0.3887195289 -0.2687577307 0.8812867999
0.36371589 -0.29426712 1.2856193 0.7356972694 -0.1883047819 0.6506080627
0.095083155 -0.036388971 1.2247778 -0.05970589072 0.7967094779 0.6014060378
0.024391931 -0.0051951269 1.1840001 0.08887559175 0.7507745624 0.6545522809
0.10501941 -0.1274419 1.346 0.02536065504 0.7709510326 0.6363893151
0.35381064 -0.09285754 1.2674286 -0.3932448924 0.6264289021 0.6730120778
0.27673388 -0.3796221 1.3490001 0.6264667511 -0.2554642558 0.7363948822
-0.12226782 -0.0046612364 1.2270001 0.3565722704 0.3234578073 0.87648803
-0.18455867 0.10190513 1.4640001 -0.02164153382 -0.4916701615 0.8705125451
0.065801315 -0.41489521 1.4371539 0.5050240755 -0.351382792 0.7883405685
0.050054159 -0.24128672 1.4640001 0.1400180459 0.7649285197 0.6287124157
0.093142949 -0.38316032 1.433 0.4356274903 -0.3874047101 0.8124938607
0.23661496 0.20221719 1.189 0.3089562356 -0.4774408638 0.8225547075
-0.024841225 -0.039961971 1.2320001 -0.03919228166 0.7956365347 0.6045051813
0.094774678 -0.1784718 1.404 0.06832544506 0.7312269807 0.6787037253
0.13474192 0.0720357 1.092 0.2488275766 0.577142477 0.7778119445
-0.094055966 0.0048282016 1.2116363 0.3964764178 0.3549560308 0.8466479182
0.055000171 -0.014668971 1.1950001 0.04180746153 0.7800083756 0.6243709326
0.035619844 -0.2704736 1.5050001 0.2050298303 0.2597355545 0.9436631799
0.29078594 -0.33147204 1.365 0.6578037143 -0.3817973733 0.6492496133
-0.13294475 -0.17330298 1.3540001 -0.3359554708 0.2371550053 0.9115324616
-0.10613366 -0.16486154 1.3649999 -0.4279761016 0.3592793941 0.8293098211
0.44425455 -0.36470035 1.1760001 0.5647335052 -0.2207195759 0.7952100039
0.094867818 0.0074769547 1.1674615 -0.05380916223 0.7828168869 0.6199212074
0.3870455 -0.28464943 1.2571819 0.7631343007 -0.1915718019 0.6171922684
0.26512295 -0.25773787 1.404 0.3236953318 0.0994432494 0.9409210086
0.16304509 0.021005809 1.141 0.1518889666 0.8174526691 0.5556085706
0.064053237 0.044202648 1.1319999 0.2211897373 0.5596032143 0.7986985445
0.18547894 0.046101466 1.1061362 0.07701131701 0.7563479543 0.6496207118
0.17844813 0.078366108 1.077 0.1463078856 0.5991308689 0.7871697545
0.3928602 -0.42538217 1.2125185 0.8274579048 -0.1185645759 0.5488678217
0.20392671 0.29668364 1.2656 0.6162287593 -0.3317835629 0.7142701149
0.38561386 -0.1350244 1.3052498 0.5047128201 0.005043292418 0.8632725477
0.1292382 -0.17601013 1.4039999 -0.08603190631 0.7173255086 0.69140625
0.09448012 -0.079858199 1.2830001 -0.01956827193 0.7969184518 0.6037698984
0.10954476 -0.42463979 1.404 0.2660999596 -0.3500292897 0.8981482387
0.2124714 0.41450167 1.3244001 0.5172302723 -0.3993057311 0.7569859624
-0.0043552802 -0.081137247 1.2880001 -0.06777448207 0.7759082913 0.6271945238
0.30124107 -0.032313056 1.189 0.5260609984 0.8052822948 0.2734597325
0.36446026 -0.42483738 1.2530001 0.719055891 -0.1708125472 0.6736332178
0.22921677 -0.091460876 1.2880001 0.1389686465 0.7533878088 0.6427242756
0.38061798 -0.46424672 1.223 0.7669891119 -0.1406148821 0.6260632277
0.24770655 -0.38651791 1.3650001 0.4554556906 -0.3140844703 0.8330132365
0.1446237 -0.40544081 1.41 0.2685353756 -0.351698637 0.8967702389
0.24641813 -0.030979061 1.2046667 0.1322369576 0.831728816 0.5392036438
0.16493165 -0.43515566 1.3972176 0.392195195 -0.2922344804 0.8722281456
0.36679515 -0.2551327 1.2959287 0.7626729012 -0.1774207354 0.6219742298
0.19837546 0.37181446 1.3050001 0.5488314629 -0.4517076612 0.7033805847
0.37232384 -0.37121573 1.2640001 0.7715923786 -0.2004555911 0.6037074924
0.34189123 -0.29089728 1.322 0.8091099858 -0.1943236291 0.5545983911
-0.015665157 0.01888603 1.169 0.1786932349 0.5152236223 0.8382203579
0.046870984 -0.45730877 1.4450001 0.7338732481 0.02735003829 0.6787355542
-0.064958021 -0.14409174 1.3472004 -0.05330949649 0.745033741 0.6648930907
-0.045277029 -0.13066997 1.3380001 -0.08593027294 0.7425640225 0.664239943
0.2236775 -0.13651171 1.3436668 0.109102346 0.7356550694 0.6685119867
0.35848972 -0.32538897 1.2774444 0.7777540684 -0.1920870095 0.5984991193
0.23394604 0.23780581 1.223 0.1451023221 -0.4002802968 0.9048320055
0.1354387 -0.038233884 1.2320001 -0.06441539526 0.7739991546 0.6299015284
0.23078251 -0.3230955 1.404 0.5985587239 -0.4013889134 0.6932635903
0.19765854 -0.30899781 1.427 0.3945930302 -0.4545432627 0.7985529304
0.22261019 0.28322646 1.2346667 0.6659969091 -0.3826616704 0.6403265595
-0.19525315 0.19471909 1.5234002 0.6712191105 -0.2420844883 0.7006139755
0.094216593 -0.40453824 1.4216002 0.3791227639 -0.3292746544 0.86477983
0.054480448 -0.15859865 1.381 -0.01041981857 0.748829484 0.6626808047
0.4069548 -0.45484245 1.1845555 0.7406865954 -0.05815288797 0.669329226
0.26566106 -0.11459226 1.3162309 0.1361211538 0.7380157113 0.6609113812
0.09449356 -0.10486934 1.3145002 0.05621083081 0.8121985793 0.5806666613
0.28381985 -0.037089195 1.2041334 0.1682578623 0.7892785668 0.5905324817
0.18486969 -0.075102158 1.2758571 0.04373626038 0.7946652174 0.6054702997
0.16547625 0.037472557 1.1169091 0.134382084 0.7621175051 0.6333390474
-0.054636929 -0.047015488 1.2423334 0.008584314957 0.7486432791 0.6629174352
0.1347993 0.0034054453 1.175154 0.06897522509 0.8189046979 0.5697697401
0.24041794 0.18263508 1.177 0.4730699658 -0.4038673341 0.7830044627
0.35782027 -0.017888822 1.2755001 -0.3158566952 0.8687722087 -0.3814044893
0.38795304 -0.23899686 1.268 0.7625792027 -0.1542590111 0.6282333732
0.26574582 -0.42583892 1.3455718 0.4877963066 -0.3100443184 0.8160436749
0.13552718 -0.10478247 1.3153335 -0.0284297131 0.8082306385 0.5881794095
0.43351406 -0.40422523 1.1750871 0.5961284637 -0.2401438057 0.7661343217
0.35513824 -0.25519818 1.3159474 0.7884507179 -0.2070180178 0.5792140961
0.044616193 -0.094272166 1.3050001 0.001105186646 0.7926006913 0.6097400188
0.10543504 -0.20570487 1.4336668 0.03468754888 0.6946206093 0.7185394764
0.24120168 0.051193826 1.123 0.5971963406 -0.1848409325 0.7805064917
0.066440232 -0.21151541 1.439 0.02060911432 0.7127791047 0.7010857463
0.084359892 -0.47463086 1.404 0.5227156281 -0.3345839381 0.7841058373
-0.1989148 0.10790803 1.483 0.06411397457 -0.4713337719 0.8796214461
-0.10513028 -0.14392857 1.3474214 -0.08912728727 0.6869844794 0.721185565
0.42595711 0.21617781 1.5640001 -0.6551886797 0.633494556 -0.4115974307
0.41882923 0.14417309 1.4640001 0.3162672818 0.6465307474 -0.6942427754
0.3875843 -0.4777033 1.2046667 0.7684549093 -0.1734253317 0.6159551144
0.2816318 -0.44406673 1.3330001 0.6254867315 -0.1632369757 0.7629679441
0.37793362 0.0353209 1.3430001 -0.1043650061 0.7695826292 -0.6299607158
0.13485816 -0.3655431 1.427 -0.01673290692 -0.5104421377 0.8597493172
0.025663665 -0.20871916 1.433 -0.009067345411 0.7455132008 0.666429162
0.15726349 -0.14177541 1.3590001 0.04930618405 0.7847272754 0.6178770065
0.13626818 -0.01214271 1.1969999 0.02986548468 0.8053956628 0.5919847488
-0.045686822 -0.17562106 1.3851252 -0.004539729096 0.7632797956 0.6460521221
0.016949473 -0.15859865 1.381 -0.1336346567 0.7144726515 0.6867827773
0.31490833 -0.10260163 1.286077 0.1344520599 0.7594058514 0.6365731955
0.1733398 0.060582925 1.09 0.1323347837 0.6633819342 0.7364861965
0.30635989 -0.30510405 1.3560588 0.7151548862 -0.2931326628 0.6345287561
0.18475272 0.015523753 1.1450002 0.09238769859 0.8320825696 0.5469032526
0.015396952 -0.054992355 1.2544376 0.009250962175 0.8040795922 0.5944496989
0.31981587 -0.36715326 1.317 0.6623228788 -0.1909194291 0.7244847417
0.26374856 -0.058282677 1.2410001 0.1568719894 0.8197390437 0.5508348942
0.20510904 -0.33494961 1.4129413 0.3710289001 -0.3911123574 0.842240274
-0.016556727 -0.14073217 1.3490001 -0.1925109923 0.7172151804 0.6697326899
0.16445479 -0.061808504 1.2589999 0.02120735124 0.7812814116 0.6238185763
-0.0050250534 -0.20728345 1.4330001 -0.1001596674 0.7670301795 0.6337450147
0.093222104 -0.15859865 1.381 0.03824482113 0.7189608216 0.6939976215
0.26658875 -0.30468446 1.3928001 0.3368614316 -0.3442863226 0.8763511181
0.005410735 0.043939922 1.153 0.3163188696 0.4770079851 0.8200035095
0.32628855 -0.26532158 1.3465298 0.7604891062 -0.2557248175 0.5968761444
-0.034505598 -0.10926773 1.312 -0.05469663814 0.7491954565 0.6600866914
0.42230088 0.16918264 1.4960001 -0.2623194456 0.795481503 -0.5462579131
0.2251296 -0.41544747 1.3740002 0.4846996069 -0.2466621101 0.8391805887
0.27219272 -0.088856302 1.2830001 0.2128738314 0.7688179612 0.6029956341
0.34798712 -0.46540013 1.2584286 0.7022236586 -0.2192933261 0.6773421168
0.40411246 -0.43474424 1.1940528 0.7961556315 -0.1047400162 0.5959578156
-0.024234183 -0.1643002 1.3746667 -0.1587194353 0.7086803913 0.6874447465
-0.11456648 -0.06114627 1.2590001 0.08112394065 0.6510924697 0.7546505928
-0.12426078 -0.12971424 1.3330001 -0.08538819104 0.7263534665 0.6819967031
0.38579008 -0.20868939 1.2867501 0.7480531931 -0.3283404708 0.5767226219
0.17496863 -0.039961971 1.2320001 0.1007929072 0.8188394904 0.5651041269
0.22497019 -0.15436785 1.365 0.1239175498 0.7574339509 0.6410446763
0.074206881 0.012505331 1.1624547 0.05372962356 0.7523682117 0.6565479636
-0.087576903 -0.1961433 1.376 -0.5893810987 0.2769756317 0.7588902116
0.1641289 -0.18851277 1.4107143 0.1312383711 0.7274342775 0.6735100746
0.2172529 0.20670836 1.2030001 0.1943685859 -0.4686741829 0.8617223501
0.18547113 -0.39504531 1.3980002 0.3009231985 -0.2731674016 0.9136874676
0.33023068 -0.059161849 1.2270001 0.1102365553 0.8265849352 0.5519105196
-0.025107149 0.0047185123 1.1823332 0.1572940946 0.6095667481 0.7769729495
0.07383725 0.071868256 1.123 0.3488762081 0.34794119 0.8701851964
0.26487169 -0.027220851 1.1941999 0.1097600386 0.8199728131 0.5617805123
