# .PCD v0.7 - Point Cloud Data file format
VERSION 0.7
FIELDS x y z normal_x normal_y normal_z
SIZE 4 4 4 4 4 4
TYPE F F F F F F
COUNT 1 1 1 1 1 1
WIDTH 512
HEIGHT 1
VIEWPOINT 0 0 0 1 0 0 0
POINTS 512
DATA ascii
0.20527512 -0.044743545 1.3360001 0.1469242722 0.7893458605 0.5961093307
0.10469767 -0.45666003 2.5410001 -0.317548573 0.9257080555 0.2054934204
-0.28641576 0.1625603 1.766 0.9854917526 -0.05388135463 0.1609436274
0.1412538 0.49616879 1.3540001 0.5894991755 -0.3899257183 0.707423985
0.42720404 0.12049345 1.7850001 0.1206347644 0.8645700812 0.4878173769
0.47225332 -0.25564125 2.2260001 0.003378188238 0.8327748775 0.5536014438
0.058302715 -0.49495286 1.4150001 0.6324936748 -0.1528370976 0.7593369484
-0.23111476 -0.26792949 2.3330002 0.3514169455 0.9174940586 0.1863084137
-0.22154734 -0.016236218 1.3040001 0.3303880095 0.5804179907 0.7442840338
0.42076465 -0.38393471 1.189 0.5426635742 -0.1400111318 0.8281987309
0.35866976 0.21105838 1.4770001 -0.5157563686 0.6995809674 -0.4945521653
-0.00134656 -0.20063744 1.536 0.4420423508 0.5577142835 0.7025334835
0.093285225 0.14137039 1.097 0.1378391832 0.602925241 0.7857999206
-0.22426537 0.18360907 1.4960001 -0.2157108337 -0.5510001779 0.8061436415
0.24710533 -0.30438948 1.3870001 0.5326039791 -0.2325768024 0.8137819171
-0.0041185799 -0.35213858 2.3490002 0.3606060147 0.9158124328 0.1767793298
0.4017995 -0.15557817 1.2640001 0.7019887567 -0.1032229364 0.7046678662
0.18274502 0.30738315 1.2320002 0.4032108784 -0.4037721157 0.8212119341
-0.0056279418 0.0159723 1.2544118 -0.07559553534 0.8461205959 0.5276032686
0.28942993 -0.49521622 1.307 0.5777509809 -0.2868169248 0.7641595602
0.24401402 0.24545789 1.6470001 -0.5257037282 0.8332905173 -0.1710627973
0.27190429 0.051108792 1.166 0.02657086961 0.6995708346 0.7140690684
-0.064676963 -0.098845921 1.3920001 -0.1206786558 0.7704654932 0.6259549856
0.34312135 0.087243065 1.3340001 -0.4101047218 0.72676754 -0.5510200262
0.086141266 -0.32556331 1.4449998 0.2972385585 -0.3765660226 0.8774093986
0.13874827 -0.13874827 1.452 0.01021844428 0.7344676256 0.6785668135
-0.26131505 0.30463463 1.5940001 0.8110874891 -0.2583677769 0.5247696638
0.30365148 -0.15911543 1.3855001 0.7827484608 -0.09597878158 0.614892602
0.39899293 0.23359221 1.6550001 -0.7032703161 0.641043365 0.307366699
0.13661009 0.039799791 1.2270001 0.07125073671 0.820253551 0.5675451159
0.35160777 -0.29357287 1.2855 0.822948575 -0.1310254186 0.5528001189
0.18494101 -0.43543887 1.3862944 0.4250281453 -0.1364876479 0.8948308229
-0.19849136 0.057427801 1.424 0.5434803963 -0.421307385 0.7260366082
0.064193048 -0.056112625 1.3560002 0.01129940897 0.8052839041 0.5927817225
-0.13284656 0.061563041 1.2320001 0.1390465051 0.4461931288 0.8840688467
0.20299391 0.18447985 1.1644286 0.5649706721 -0.3441228867 0.7499250174
0.35383418 -0.045345839 1.3229002 0.3894884586 0.4652278125 0.7948973775
-0.014848912 0.11305297 1.165 0.2948954403 0.4539015293 0.8408389091
-0.10708308 -0.27800414 2.3490002 0.3514169455 0.9174940586 0.1863084137
-0.18242498 -0.10303756 1.3720001 0.3204208314 0.4769717455 0.8184304833
-0.10565996 -0.032424975 1.3053335 -0.07804984599 0.7431165576 0.6645946503
0.16914582 -0.24839298 1.4580001 0.4603307843 -0.3544800878 0.8139038086
0.17050114 0.40988025 1.2880001 0.5222263336 -0.3526662588 0.7764703631
0.29782018 -0.38419491 1.3262857 0.717019558 -0.1062131301 0.6889134645
0.02584238 -0.13453239 1.4449999 0.01480417792 0.7838587761 0.6207626462
0.27481043 0.0011081067 1.2640001 0.05450024456 0.8174239397 0.5734525323
0.35572731 -0.4346168 1.2556254 0.6743447185 -0.01408775989 0.7382822633
-0.0734559 -0.167531 1.47 -0.168335408 0.6714024544 0.72172153
0.41698781 -0.24528915 1.2165 0.6758425832 -0.2292087823 0.7004999518
0.1750253 0.088197201 1.1468184 0.009635535069 0.7974470258 0.6033120155
0.38677394 0.27101845 1.5535001 -0.4853047132 0.7813882232 -0.3923159242
0.088672206 -0.39145532 2.467 -0.3059316278 0.9264932871 0.2191254795
0.037219759 -0.41198424 1.4640001 0.7432563901 -0.2035112828 0.637301445
0.33967239 0.14521897 1.411 -0.2194168419 0.6710372567 -0.7082127333
0.076041892 0.077476643 1.1689999 0.01961129904 0.8272089958 0.5615519881
0.34272513 -0.20468234 1.3137858 0.8045784235 -0.05173516646 0.5915885568
0.014426427 -0.30295497 1.4960001 0.4474179745 -0.4551587701 0.7698361278
0.12529959 -0.013208499 1.3047273 -0.07356747985 0.7847648859 0.6154119372
0.1731583 -0.34382513 1.4210004 0.4391257167 -0.2918532491 0.8497000933
0.23450249 -0.18802075 1.4330001 0.5856590271 -0.1240394339 0.8010104299
-0.0174632 -0.040747467 1.3280001 -0.1463029236 0.8049651384 0.575001359
0.20062692 -0.099698037 1.404 0.2440068275 0.6897962093 0.6816464067
0.11363947 -0.40486664 1.4210002 0.09372321516 -0.2684758306 0.9587161541
-0.22921239 0.26138255 1.529 0.588693738 -0.4174033105 0.6922529936
-0.054524411 0.057243075 1.2060002 0.1787903011 0.61168015 0.7706369758
0.29716811 -0.24491437 1.3649999 0.7738392353 -0.1793025434 0.6074729562
0.093568906 -0.25882512 1.4865999 0.2903175056 -0.486132592 0.8242517114
0.19539219 0.0038749699 1.2744706 0.1008075699 0.8037787676 0.586325407
0.12476807 -0.086502455 1.3930001 -0.007752188016 0.7365044951 0.6763882041
0.22434425 -0.49339908 1.3540001 0.4342719316 -0.372738272 0.8200451732
0.13498573 -0.49365413 1.3816669 0.1642738879 -0.6556888223 0.736943841
-0.23332939 0.11473954 1.4640001 0.3324105442 -0.5530582666 0.763956666
0.37697306 -0.35443631 1.244 0.8436390758 -0.109240979 0.5256800652
0.23453788 -0.37894848 1.3760002 0.499194473 -0.290661484 0.8162847161
0.28151518 -0.062167939 1.3380001 0.1567551047 0.7564211488 0.6350235343
0.2136384 0.041794207 1.21 0.07694722712 0.8069230318 0.5856230259
0.065811113 0.0087205786 1.2662858 -0.01440602448 0.7946335077 0.6069184542
-0.16456653 0.0060715433 1.2655237 0.2033408582 0.5910444856 0.7805888057
0.26316831 0.19626111 1.6960001 0.09039189667 0.8696353436 0.4853489995
0.33213919 0.044361964 1.265 -0.9380941391 0.3463796079 0.0007678543334
0.30205911 -0.31461763 1.3430002 0.711019516 -0.220481813 0.6677117944
0.0048532267 -0.082507491 1.3840001 -0.04878080636 0.7298581004 0.6818559766
0.17450336 0.2365834 1.2027498 0.4185211957 -0.4030769765 0.8138605356
0.42377502 -0.31490317 1.2026315 0.6774603128 -0.1952287555 0.7091779113
-0.075053185 0.0099335099 1.2590001 -0.02007032186 0.7661110163 0.6423948407
0.015740547 0.057865262 1.1970003 -0.006049504038 0.7652281523 0.6437307596
0.35954729 -0.11071774 1.302 0.4694836438 -0.3426445127 0.8137443066
-0.12850179 -0.13584827 1.396 -0.5933194757 0.2231514454 0.7734180093
-0.18037856 -0.29648429 2.365 0.3514169455 0.9174940586 0.1863084137
-0.11499054 -0.074549042 1.3569168 -0.08198471367 0.75652349 0.648807168
0.25590703 -0.43608615 1.3480772 0.4541005194 -0.2455533296 0.8564439416
0.22506028 -0.25507054 1.42625 0.5769503117 -0.2002570182 0.7918494344
0.37699574 -0.23455045 1.2679999 0.7113025188 -0.1329473257 0.6901983023
-0.17500712 -0.055530373 1.3238951 -0.01178704202 0.7267615199 0.6867886782
0.31186539 0.020154567 1.21 -0.08955232799 0.9407914877 0.3269430697
0.064806961 -0.096592382 1.41 -0.01671268791 0.7659744024 0.6426538229
0.040615965 0.13175423 1.13 0.3192753196 0.4753578305 0.8198159337
0.15784909 0.35238144 1.268 0.202917546 -0.4948578775 0.8449497819
0.036125358 -0.24442007 1.5159999 0.3696016669 -0.2374767959 0.8983314633
0.21629733 0.13207158 1.1370001 0.1022124588 -0.1843728572 0.9775271416
-0.035261728 -0.13475199 1.4365002 -0.08878540993 0.7961080074 0.59860605
-0.014679282 -0.16632357 1.483857 -0.1718463749 0.7085758448 0.6843895912
0.14546266 -0.050852802 1.3490001 0.03535073996 0.7461332679 0.6648575068
0.15370449 0.12524971 1.105227 0.1196925417 0.7100793123 0.6938740015
0.33874395 -0.36471438 1.2880001 0.8064117432 -0.0918430537 0.5841788054
0.14383996 -0.30295497 1.452 0.1197107583 -0.399435848 0.9089116454
0.035004966 -0.35452044 1.4705385 0.4844869077 -0.1443583965 0.8628053665
0.31373894 -0.43473428 1.3031905 0.6661043167 -0.2085855603 0.716098547
0.083936974 -0.15067585 1.4640001 0.02062526718 0.67774719 0.7350056767
0.33387995 -0.14878289 1.3363333 0.8389670253 -0.09033409506 0.5366321802
0.32765353 -0.0045339009 1.2932501 -0.4127256274 0.6126986146 0.6739866138
0.14718707 0.44851494 1.322 0.5752436519 -0.3721024394 0.7284466624
0.03477918 -0.025109423 1.3136668 0.02423067018 0.800783813 0.5984631181
0.13438757 0.071852833 1.1810001 0.1433568001 0.8264357448 0.544474721
0.075051434 0.041814368 1.223 -0.07362738997 0.8180927634 0.5703536272
0.24620196 -0.025513627 1.3030001 0.05203479901 0.7657620311 0.6410155296
0.27425349 -0.21383047 1.4040002 0.481177181 -0.2405333668 0.8429781795
0.39057165 -0.29483265 1.2410001 0.707113564 -0.1338927746 0.6943076849
0.1001241 -0.46106529 1.4100001 0.4624989629 -0.4181952178 0.7817975879
0.24149996 -0.084212378 1.3722501 0.121155113 0.6645671129 0.7373411655
0.1150136 0.10526974 1.1364446 0.08046662062 0.7586019039 0.6465665102
0.23206419 0.081022412 1.141 0.397143513 0.7053425908 0.5871702433
0.32652459 -0.26493964 1.3255 0.795132339 -0.0819895342 0.6008679271
-0.035971384 -0.010807546 1.2880001 -0.07940427214 0.7864022851 0.6125899553
0.3865667 -0.41498518 1.2178462 0.7787178159 0.03198705241 0.6265583634
-0.2482159 0.20781909 1.5359999 0.7849777937 -0.1647155583 0.5972257853
0.068542771 -0.37887752 1.439 0.4432938695 -0.1951185763 0.8748824596
-0.064351231 -0.056215774 1.3435457 -0.1312675476 0.7586461902 0.6381416917
0.19220829 -0.29396564 1.4330001 0.4168556929 -0.3441477418 0.8413047194
0.26375219 0.032164898 1.223 0.2385385484 0.8693058491 0.4329049885
0.18677838 -0.38654789 1.398 0.4146617055 -0.1474797428 0.897945106
-0.095133401 -0.13533382 1.4330002 -0.1363434047 0.7296977043 0.6700386405
0.33243275 -0.47328052 1.278 0.6827757359 -0.189598754 0.7055987716
0.12460621 -0.35388476 1.421375 0.1492172778 -0.3560727239 0.9224675894
0.067383029 -0.42666849 1.4263333 0.469764024 -0.2814896405 0.8367110491
0.41203332 -0.20492081 1.25 0.6230363846 -0.1388182342 0.7697760463
0.26804957 -0.34463516 1.3649999 0.4870870113 -0.2307707071 0.8423129916
0.37614173 0.24385272 1.5089999 -0.783000946 0.5753437877 -0.2364086062
0.36272076 -0.16526097 1.2945 0.6413521171 -0.06472981721 0.7645112872
0.35387176 0.11916266 1.3730001 -0.2430008501 0.7990657091 -0.5499495864
0.31508699 -0.19454022 1.3553637 0.8462259173 -0.02978157252 0.5319913626
0.11527029 0.013505049 1.2663332 -0.1068432629 0.7845938206 0.6107348204
0.35701111 0.18229012 1.439 -0.4092241526 0.7446700335 -0.5272591114
0.055677976 -0.28874856 1.4770001 0.4535702467 -0.4391188323 0.7755312324
0.025954153 0.09058509 1.161 0.105899483 0.7107211351 0.6954572201
0.21590637 -0.33683023 1.3979999 0.4206866026 -0.2625386119 0.8683871627
0.18423851 -0.067978486 1.3700001 0.0915517956 0.7527405024 0.651920259
0.15447217 -0.10837967 1.4210001 0.08378459513 0.7101774216 0.6990194321
0.42141366 0.14711168 1.748 0.1206347644 0.8645700812 0.4878173769
0.085762545 -0.028973833 1.322 0.001558057731 0.810680747 0.5854863524
0.19653884 -0.20544927 1.4519999 0.5114961267 0.001826548134 0.8592836261
0.10408879 -0.11521688 1.424273 0.08099444211 0.7606967688 0.6440343857
0.18188874 -0.49358115 1.3709999 0.3494938016 -0.4315787256 0.8316212296
0.14339286 -0.44248697 1.404 0.2231931239 -0.3878402114 0.8942956924
-0.091923408 0.082583055 1.2108001 0.2735158801 0.4520838857 0.8490048647
0.17720063 0.059414331 1.189 0.09957791865 0.8466814756 0.5226994753
-0.11756725 0.022386311 1.25 0.1049381718 0.6972726583 0.7090830803
0.047098041 -0.47225332 1.452 0.7710309029 0.04109500721 0.6354703307
0.32786343 -0.32589921 1.307 0.7700745463 -0.1469749212 0.6207926869
0.034660332 0.028160725 1.2355001 -0.03031282313 0.8340618014 0.550837636
0.29547754 -0.032067697 1.3063751 0.1691463143 0.7778382301 0.6052744985
0.2570917 -0.25525725 1.3965001 0.4876808226 -0.1970350444 0.8504966497
0.1748478 0.025962336 1.2426667 0.1284012944 0.8417770863 0.5243323445
-0.15502021 -0.025920525 1.2934285 0.01377428509 0.6742402911 0.7383835912
-0.0057889223 -0.11122999 1.4150001 -0.1971517354 0.7491685152 0.6323589087
0.38149202 0.28507096 1.5940001 -0.9834478498 0.07720015198 0.1639222801
0.22520076 0.017564602 1.2436666 0.03095480241 0.8352306485 0.5490278006
0.16518876 -0.024764288 1.3155295 0.1129847541 0.7962325215 0.5943468809
0.03620787 -0.16295612 1.4752501 0.0473822467 0.6653696895 0.7450087667
-0.2481703 0.27696353 1.5640001 0.7531992197 -0.3526166677 0.5552949309
0.28616634 -0.28526556 1.3730001 0.6965606809 -0.23813124 0.676828444
-0.22581601 0.074083939 1.452 0.6899181008 -0.246667847 0.6805644631
-0.054301351 0.093743637 1.1842 0.3886977434 0.3907631338 0.8343969584
0.10530519 -0.061029151 1.365 -0.01331924833 0.790578723 0.6122155786
0.21898694 -0.44874376 1.365 0.4921809435 -0.290812403 0.8204791546
0.10481427 -0.29305211 1.464 0.3233591616 -0.5158234239 0.793325305
-0.015399151 0.038577966 1.2175715 -0.04231790826 0.7634114623 0.6445247531
-0.034029279 -0.077666827 1.37 -0.1277980953 0.7465184927 0.6529760957
0.2655125 -0.47430366 1.3347391 0.3964863122 -0.278457135 0.8747915626
0.36235088 -0.39448595 1.2640001 0.7357535362 -0.1776999533 0.6535208225
-0.17108676 -0.12677652 1.404 -0.09376734495 0.5775859356 0.8109267354
-0.20369652 0.012316874 1.2774444 0.3052143157 0.4691840708 0.8286799788
0.33164519 0.056609876 1.3045001 -0.5304909348 0.7522152662 -0.3908344209
0.34861544 -0.24491768 1.2970001 0.8080383539 -0.07056809217 0.5848881602
0.025073418 -0.0020782009 1.2751428 -0.02020950243 0.8206481934 0.5710763335
-0.084738895 0.038843639 1.2270001 0.1240808442 0.668418169 0.7333628535
0.21521482 0.065076716 1.1746001 0.1211373061 0.871301055 0.4755630493
-0.13497652 -0.096866585 1.3846 -0.3904313147 0.6702809334 0.6310997009
0.1549636 0.0047183181 1.2757779 0.08064714074 0.8121262789 0.5778814554
0.024779862 -0.047202356 1.346 -0.03490700573 0.812844038 0.5814344883
0.4039526 -0.35458693 1.2109998 0.7151463628 -0.2018971294 0.6691809893
0.15405692 -0.38410416 1.4210002 0.3576216996 -0.4078507125 0.8400979042
0.075073697 0.10673983 1.1352177 0.101853922 0.7358628511 0.6694263816
0.065739378 -0.1240498 1.439 -0.06072124094 0.7357001901 0.674579978
0.13563414 -0.23792623 1.4770001 0.1939457208 -0.3268183172 0.9249728918
-0.13543682 -0.054329958 1.3280001 -0.1524940878 0.7551860809 0.6375260949
-0.15424655 -0.076856486 1.3562728 -0.1427048594 0.643748343 0.7518134117
0.37906015 -0.19342071 1.268 0.681568563 -0.06445880979 0.7289097309
0.38071179 -0.079362877 1.312 0.4718397856 -0.2242215723 0.852696836
0.26727289 -0.39263096 1.3490001 0.4943598211 -0.1845291853 0.8494452834
-0.015234337 0.074889839 1.181 0.06796038151 0.6125525832 0.7875028849
0.24368441 -0.057091665 1.3447144 0.04106822982 0.7705267072 0.6360833645
-0.063019186 -0.03093669 1.307 -0.08167740703 0.7681719661 0.6350123286
0.16780452 0.2721445 1.2270001 0.6284476519 -0.2790315151 0.7260819077
0.27497306 -0.17619029 1.4110715 0.6121874452 -0.1417293102 0.7779070139
0.3641817 -0.32438624 1.2640001 0.7073686123 -0.1470659673 0.6913763285
-0.12510911 -0.0026142197 1.278 -0.001447802875 0.6913457513 0.7225226164
0.013835115 -0.18249176 1.503 0.02996781655 0.7654181123 0.6428351402
0.045486849 -0.077656262 1.3809999 -0.003779077902 0.7270870805 0.686534822
0.23481955 -0.0022385682 1.2754999 0.002293102909 0.8229186535 0.5681545734
-0.041475099 0.02292045 1.245 0.01395983808 0.8297663331 0.5579363108
-0.16117078 0.037473116 1.245 0.3706302643 0.4852110744 0.7919617295
0.095492668 0.059814088 1.197 -0.02261590026 0.8249115944 0.5648092031
-0.24213445 0.15667523 1.4770001 -0.02445128933 -0.259729892 0.9653717279
0.095613778 -0.49520046 1.3954738 0.5077465177 -0.2479985952 0.825039506
0.20409764 -0.018762546 1.3027143 0.09196566045 0.7983524203 0.5951266289
0.17823455 0.20499904 1.1834003 0.5144638419 -0.290045172 0.8069701195
0.28590667 -0.44455421 1.3257499 0.6518083215 -0.1075433493 0.7507198453
0.18916757 0.14758113 1.1570001 0.4100698829 -0.4135800302 0.8128924966
-0.22885998 0.22356839 1.5090002 0.7397717237 -0.209861666 0.639293313
0.39627102 -0.25642148 1.2446666 0.7365286946 -0.2705025673 0.6199628115
0.32367414 -0.39493129 1.302 0.714130342 -0.1097601429 0.6913541555
0.24405189 -0.2241095 1.4218001 0.6436799169 -0.2332110852 0.7288956046
0.055616613 0.05847853 1.1970001 -0.04756638035 0.8025947213 0.594625175
-0.096415795 -0.11200645 1.4039999 -0.06570129097 0.7444998026 0.6643819809
0.21338177 -0.4134461 1.381 0.4748867154 -0.2120398432 0.8541204333
-0.20977055 -0.045199178 1.322 0.160964191 0.6251848936 0.763697803
0.033379082 -0.20962064 1.5230001 0.5324831009 0.2352663875 0.8130876422
0.24367724 0.053226974 1.1948183 0.3613092005 0.86969769 0.3362760842
0.08381635 -0.0079285735 1.2920001 -0.04781998321 0.8125790954 0.5808858871
0.037486851 -0.3193194 1.4746667 0.5695228577 -0.3123087883 0.7603334785
0.22364381 -0.29365703 1.411 0.6207590699 -0.3030638099 0.723056376
-0.0042643454 -0.017373858 1.3051819 -0.06370858103 0.7894382477 0.6105148792
0.16547568 -0.46471277 1.385667 0.3076825142 -0.3429816365 0.887521863
0.28506401 0.026317945 1.1882 0.02268997021 0.7286171913 0.6845452189
0.37293714 -0.2738775 1.2658948 0.7186110616 -0.1956221759 0.6673305631
0.38727123 -0.1264791 1.2767501 0.6374112368 -0.3326223493 0.6950318813
0.32530975 -0.22498311 1.3362353 0.8284657598 -0.1168036908 0.5477238297
0.00900249 0.12103347 1.141 0.324355036 0.5145751834 0.7937293053
0.42747808 -0.34568635 1.187 0.6145150661 -0.1254220307 0.7788713574
-0.085120194 -0.013011808 1.2852727 -0.04339817911 0.8124983311 0.5813458562
0.32852644 0.016371749 1.245 -0.8657747507 0.4937220216 0.08168625087
-0.0047655599 -0.060760889 1.3590001 -0.1163661703 0.7713901997 0.6256325245
-0.0055300132 -0.1433876 1.4559999 -0.1823087186 0.7666030526 0.6156973839
0.16459066 -0.087939605 1.3953334 0.09833236039 0.7539952397 0.6494781971
0.085115567 -0.081467755 1.3870001 -0.01470884494 0.7553238869 0.6551865935
-0.074910298 -0.080654211 1.365 -0.1129995212 0.7384707332 0.6647496819
0.29410079 -0.19485441 1.3840004 0.7756003141 -0.1610135287 0.6103432178
0.11509985 -0.041492812 1.3370001 -0.08686842769 0.8087234497 0.5817389488
0.17563491 0.38128337 1.268 0.387648344 -0.3396417499 0.8569552302
0.025251508 -0.27776659 1.5160002 0.4352325499 -0.4692865014 0.768337667
0.31349692 -0.35463974 1.322 0.7140820026 -0.1125987619 0.690947473
0.38616553 -0.32700366 1.2270001 0.7352792025 -0.1709264517 0.6558572054
0.33947513 -0.41454059 1.2780001 0.8202143312 -0.1662077457 0.5473787189
0.13660221 -0.27578178 1.4700001 0.05407259986 -0.4115370214 0.9097875953
0.12287799 -0.33063045 1.4450001 0.05058056489 -0.3678690791 0.9285008907
0.19804044 -0.23857753 1.4450001 0.5402000546 -0.2348015904 0.808116436
-0.20901924 0.10260945 1.4450001 0.5924096107 -0.3357312381 0.7323492169
0.41582423 -0.28568122 1.2159547 0.6873924136 -0.2114922553 0.6948112249
0.1781939 0.11223262 1.123 -0.5225558281 0.3745165765 0.765945673
0.036126554 -0.10837967 1.4210001 -0.07073365152 0.7410306931 0.667735219
0.37693062 -0.38558459 1.2336472 0.8776378036 -0.05706392601 0.4759155214
0.12496445 0.14143264 1.105 0.1472343653 0.6383109689 0.7555667758
-0.064517111 -0.12695038 1.4243333 -0.0273777768 0.780839026 0.6241320372
0.16247088 -0.41602388 1.4040002 0.3724766076 -0.145356819 0.916587472
-0.039786641 -0.16043 1.4640001 -0.08396589011 0.7325893044 0.6754721999
-0.18414403 -0.011910005 1.286889 0.1551550925 0.6137717962 0.7740872502
0.095875785 -0.35574958 1.4389998 0.3370635509 -0.2348864228 0.9117107391
0.33282328 -0.29482183 1.3136669 0.8118184805 -0.1355698854 0.5679538846
0.10443657 0.035191052 1.2341179 -0.06394907832 0.8030143976 0.5925186872
0.30498967 -0.46559876 1.3030001 0.7128636241 -0.1601028293 0.682782948
0.16542673 0.32537076 1.2528126 0.3938045204 -0.4150511324 0.8201527596
-0.095217839 -0.056063775 1.3362144 -0.0612167716 0.7837753296 0.6180199981
-0.18583354 -0.074470587 1.3575715 0.08039588481 0.6694046259 0.738534987
0.24052665 -0.41045094 1.365 0.6047776341 -0.1843025982 0.7747751474
0.1292382 -0.47141171 1.404 0.03154328093 -0.3395006359 0.9400767684
0.0509694 -0.0079285735 1.2920001 0.01752349734 0.8314807415 0.5552771688
0.27571911 -0.31492415 1.3728573 0.5947652459 -0.3063676953 0.743231535
0.068226583 -0.46518126 1.4150001 0.4965761602 -0.1923974454 0.8464013934
0.14472467 0.085470945 1.1544544 0.08842562884 0.8326609731 0.5466778278
0.06322708 -0.34439588 1.4549999 0.5561006069 -0.208662957 0.8044947982
0.20363075 0.097215123 1.138 0.1454099566 0.387506485 0.9103266597
0.16498315 0.04563323 1.2154583 0.1016435027 0.8339672089 0.5423718691
-0.034463521 -0.10585225 1.4040002 -0.07492722571 0.7238409519 0.6858864427
0.1445023 0.022616686 1.2525001 0.02837193385 0.8279650807 0.5600614548
0.28450617 -0.4148486 1.3350455 0.611487031 -0.2279556692 0.7577069402
0.24140891 -0.34601137 1.381 0.5941929817 -0.1283267885 0.7940194607
0.29222161 -0.34402555 1.3430002 0.7078170776 -0.1576026231 0.688590169
0.19136406 0.26220047 1.2060001 0.4959617555 -0.3491118252 0.7950741053
0.33828902 -0.17434007 1.317 0.8347805142 -0.08759730309 0.5435699224
0.18979394 -0.3188042 1.4150001 0.3883018494 -0.3452270925 0.8544237614
-0.18274292 0.031750061 1.2664001 0.2959164977 0.4290572405 0.8534303308
0.14547898 -0.071653828 1.376 0.00792569574 0.7823058963 0.6228440404
0.30529702 0.002835335 1.2653333 -0.2070737481 0.618891716 0.7576895952
-0.14837408 -0.12424821 1.376 -0.3689059019 0.4866469204 0.7918858528
0.3071236 -0.27532053 1.3465297 0.750746429 -0.1490027308 0.6435666084
0.19524784 -0.46572009 1.3734739 0.5162640214 -0.3242758214 0.7926642895
-0.21971634 0.13390996 1.483 0.5636308789 -0.157949999 0.8107848167
0.17529534 -0.042096954 1.3380002 0.08449072391 0.8161890507 0.5715739131
0.10523808 0.08343479 1.1654446 -0.03951184452 0.8680984974 0.4948169887
0.11310315 -0.43407711 1.41 0.2703336179 -0.1794949621 0.9458864927
0.24444403 0.061747137 1.1610001 0.4036551416 0.7994455099 0.4449149966
0.14780863 0.42280141 1.307 0.5052673817 -0.3445997238 0.7911737561
0.34508222 -0.33560127 1.2848424 0.8260856867 -0.09784254432 0.5549858809
0.17269282 -0.28216395 1.452 0.4279403389 -0.4333887398 0.7931212187
0.17581551 -0.2166857 1.4700001 0.503374517 -0.2234557271 0.8346745968
0.15514827 -0.32398641 1.4336669 0.4206993282 -0.2714550793 0.8656351566
0.039270282 -0.43450665 1.4450001 0.6661958098 -0.1703243852 0.726066649
0.27119508 -0.038245458 1.322 0.08546552807 0.7882862687 0.609344244
0.18437003 -0.11751512 1.4210001 0.1440255046 0.6832369566 0.715851903
0.23598906 -0.46579254 1.3479415 0.5648430586 -0.2376447767 0.7902387381
0.216115 -0.071081012 1.365 0.1575442851 0.7677545547 0.621073842
0.12460282 0.057019711 1.2045002 0.02841600776 0.8549159169 0.5179877877
0.31778258 -0.16532387 1.3567274 0.839715302 -0.1332533807 0.5264235139
0.35218716 -0.13733229 1.312 0.78730762 -0.2256205827 0.5737961531
0.15208451 0.47528496 1.3330001 0.5791644454 -0.3936481178 0.7138695121
0.33724117 -0.4444356 1.2759166 0.7848970294 -0.03918904439 0.6183856726
0.37146488 -0.41395006 1.2426001 0.7827245593 -0.08300279081 0.6168085933
0.34586889 -0.022425009 1.307 -0.1404792368 0.6822810769 0.717466414
0.045240693 0.10375172 1.1438237 0.1449008584 0.6957460642 0.703520596
0.35793948 -0.19308408 1.2880001 0.6893971562 -0.07520035654 0.7204696536
0.064172 -0.31572625 1.4640002 0.3585470617 -0.2870418727 0.8882853985
-0.0056238165 0.0011247633 1.2830001 -0.03478048742 0.8069567084 0.5895856023
0.20308861 -0.36204275 1.4040002 0.3689152896 -0.14023678 0.9188227057
0.051490143 -0.2666899 1.506 0.6410430074 -0.3071013391 0.7033865452
0.065773807 0.13449031 1.1161851 0.3250209987 0.4755148888 0.817463696
-0.035062287 -0.054789919 1.3460001 -0.132717073 0.7489847541 0.6491594911
0.39752975 -0.38484263 1.2060002 0.7237567306 -0.1211709604 0.6793333292
0.043636959 -0.38118169 1.4640001 0.5798246264 -0.08610215783 0.8101788759
0.05368356 -0.14187798 1.4580001 -0.0102160871 0.6726500392 0.7398902774
0.14535134 0.10687384 1.1253334 0.1142952219 0.7436422706 0.6587357521
0.36284137 0.16126284 1.4150001 -0.2700227797 0.6581152678 -0.7028313875
0.35496736 -0.35459998 1.2662221 0.7230196595 -0.09977246076 0.6835846901
0.21824354 -0.21824354 1.439 0.5836676359 -0.2527560592 0.7716517448
0.35479912 -0.075365096 1.3226001 0.4583187103 -0.2292006016 0.8587264419
0.28127587 -0.24092114 1.3950001 0.5897446871 -0.223751843 0.7759743929
0.014961192 0.039540295 1.2190001 0.007905372418 0.7893323898 0.6139152646
0.095156029 0.1177188 1.1190001 0.06401327997 0.7317848802 0.6785228252
0.087257475 -0.39594257 1.427 0.467695117 -0.3201566935 0.8238695264
0.095008746 -0.13149211 1.4450001 0.1001127288 0.7140369415 0.6929131746
0.28440708 -0.014197149 1.2850001 0.1365167499 0.800976336 0.58292377
0.18505381 0.34905359 1.2640001 0.2546004057 -0.5282168984 0.8100404739
0.034251194 0.073689148 1.1839333 0.06761871278 0.7759245038 0.6271912456
0.19490536 -0.26712754 1.439 0.5143923759 -0.4602012932 0.7236126661
0.085475005 0.023012497 1.25 -0.03680916131 0.7820344567 0.6221472025
0.17394318 -0.006957728 1.2919999 0.1009307429 0.8049350381 0.5847158432
-0.044896562 0.0049528163 1.2656 -0.01510864962 0.7991279364 0.6009711027
0.41081566 -0.23319682 1.243 0.695607245 -0.2774699926 0.6626771092
0.01569321 -0.098159492 1.4040002 -0.07185855508 0.7578989267 0.6484023333
0.24473244 -0.49511176 1.3357272 0.4762363136 -0.1784970313 0.8610097766
0.25512576 0.016351881 1.2436666 0.09463372827 0.8403067589 0.5337874293
-0.10259104 0.058776118 1.2190001 0.2734860778 0.46745345 0.8406501412
-0.104308 -0.095820107 1.3835002 0.003426138312 0.789393127 0.6138784289
-0.24456668 0.23519531 1.5278002 0.7658381462 -0.1770931482 0.6181666255
0.35793948 -0.2201836 1.2880001 0.7185160518 -0.1086466834 0.6869720221
-0.18514673 -0.033146475 1.3036667 0.1170900241 0.6889882684 0.7152517438
0.25614884 -0.36813951 1.3590001 0.476028949 -0.2349088937 0.8474752307
0.28335062 0.016594423 1.2436666 -0.002353486838 0.8221010566 0.5693367124
0.26472557 -0.072729737 1.3649999 0.08473180234 0.7353466153 0.6723733544
0.19778915 0.078101359 1.1570001 0.1128120497 0.7936297655 0.5978505015
0.15734127 0.38647124 1.2875001 0.5289419293 -0.3262865543 0.7834267616
0.25593153 -0.19685441 1.4137501 0.5008791685 -0.3188696802 0.8046379089
0.054425586 -0.042722818 1.3350835 0.00931314379 0.8196291924 0.5728186965
0.38336107 0.26138255 1.529 -0.4853047132 0.7813882232 -0.3923159242
-0.21460362 0.038454983 1.4150001 0.5417035818 -0.4305615425 0.7219238281
0.23482405 0.033128481 1.2247143 0.05938898027 0.8243418336 0.5629684329
-0.034505598 -0.028754666 1.312 -0.1305028051 0.7836802602 0.607300818
0.24247549 -0.27570814 1.4040002 0.5604882836 -0.3420551419 0.7542222142
0.10507895 -0.37675998 1.4256154 0.3984923065 -0.3191080093 0.8598685861
0.024784964 -0.06605684 1.37 -0.1077926233 0.7046432495 0.7013263702
-0.054916311 0.034882173 1.2260906 0.08728107065 0.7306615114 0.6771379113
-0.070727542 0.076184258 1.197 0.3773686886 0.410163343 0.83027637
0.35166258 0.18738224 1.4640001 -0.4090357423 0.7545564771 -0.5131610632
-0.066822827 -0.14251313 1.4449999 -0.1066355705 0.8038060665 0.5852560401
0.01481216 -0.22218239 1.536 0.4573246241 0.03277605399 0.8886956573
0.058030076 -0.40621051 1.439 0.487722069 -0.2079892755 0.8478606343
0.0994929 -0.4399797 2.5220001 -0.317548573 0.9257080555 0.2054934204
-0.1560721 -0.10245954 1.3590001 -0.07244574279 0.2880153656 0.9548815489
0.19899894 0.02904309 1.2270001 0.1285115629 0.8210180998 0.5562499762
-0.24644491 0.30476001 1.573 0.8110874891 -0.2583677769 0.5247696638
0.054495756 -0.45391119 1.4335457 0.6955088973 0.02226764895 0.7181723118
-0.13796541 0.0088297864 1.2590001 -0.01334795821 0.6726568341 0.7398341894
0.33802864 0.12813359 1.3920001 -0.1652839929 0.7982481122 -0.5792073011
0.21477631 -0.38196015 1.3920001 0.4463371933 -0.360005796 0.8192551136
0.33071285 -0.19281845 1.3330001 0.8237812519 -0.07632728666 0.5617460608
0.20052435 0.21183598 1.1730001 0.4683530331 -0.3145532012 0.8256523013
-0.12431484 -0.10954476 1.404 -0.3295221925 0.5032997727 0.7988144159
0.23530829 -0.042611118 1.3255001 0.07957440615 0.7711070776 0.6317133307
0.1247263 -0.1051138 1.4133334 -0.03866934776 0.747253716 0.663412869
0.3677254 -0.13813227 1.2880001 0.592692852 -0.2561657727 0.7636061311
0.1351527 -0.41491544 1.4120456 0.2119070143 -0.2729272246 0.9384061694
-0.0051531265 -0.12699515 1.4368182 -0.1972926706 0.774064064 0.6015816331
0.14436245 -0.031433761 1.3280001 0.02105670795 0.7893511653 0.6135807037
-0.098933585 -0.0011116134 1.268 0.04359162971 0.7674385905 0.6396387815
0.30634424 -0.40576607 1.3166668 0.6923975348 -0.1204952374 0.7113835812
0.095854729 -0.40738261 2.4850001 -0.3059316278 0.9264932871 0.2191254795
0.11534069 -0.255539 1.4746665 0.3170594573 -0.3749516904 0.8711397648
0.26659414 -0.27632162 1.3870001 0.4229273498 -0.3070607185 0.8525527716
-0.13075921 -0.030699991 1.2970001 -0.0878457427 0.7562319636 0.6483798027
-0.043274645 -0.17625596 1.4829999 -0.171716392 0.6541198492 0.7366415262
0.20548619 -0.08486671 1.3828752 0.2358676642 0.6400572658 0.7312271595
0.33710989 0.10089557 1.3540001 -0.4047564566 0.737382412 -0.54077667
0.065310791 -0.021770263 1.307 -0.01605533995 0.813331008 0.5815796256
0.35674444 -0.26539996 1.2853335 0.7769346833 -0.1548759788 0.6102343202
0.32385412 -0.033595882 1.3035001 -0.3083686233 0.7536450028 0.5804550052
0.33713448 -0.23553227 1.317 0.8125250936 -0.07363706082 0.5782564878
0.36243504 0.13301487 1.3920001 -0.2326243222 0.7658295631 -0.5994922519
0.15928333 0.30014613 1.2360001 0.5510770679 -0.2668779194 0.7906264663
0.085706964 -0.047930349 1.3466001 0.005425099283 0.8080884218 0.5890362859
0.13567643 -0.11934502 1.4330001 -0.03502919152 0.7293267846 0.6832681894
0.30200514 -0.21490932 1.3717144 0.735432744 -0.08292175084 0.6725047827
0.19154815 0.13069171 1.138 0.1210475191 -0.3449572921 0.9307802916
0.093943596 -0.097651899 1.4100001 0.06624475121 0.7339659929 0.6759479046
0.045099773 0.016495535 1.2547336 -0.06266346574 0.8271077871 0.5585392118
0.090939261 -0.43351868 1.4210001 0.3061339259 -0.0718492344 0.9492732286
-0.014373153 -0.096125692 1.3933847 -0.1748122722 0.7284289002 0.6624439359
0.074998103 -0.27484536 1.4835 0.2108743191 -0.5047067404 0.8371398449
-0.15451495 -0.0454132 1.3146669 -0.001845934195 0.7524477243 0.658649385
-0.024876691 0.057851635 1.1959091 0.1214415208 0.7061474919 0.6975727081
-0.13414602 0.037286885 1.2354287 0.1487618685 0.5811544657 0.8000808358
-0.075193167 -0.043924224 1.323895 -0.1283946931 0.7815262675 0.6105173826
0.22826426 -0.31558686 1.398 0.5819731951 -0.2403613925 0.7768742442
0.015117414 -0.032555364 1.3262 -0.02165714838 0.8186666965 0.5738604665
0.3107672 -0.49246225 1.2953334 0.7044808269 -0.2225472778 0.67392838
0.39734042 -0.1799069 1.2590001 0.5865023732 -0.1842651665 0.7887086272
-0.20641555 0.08631923 1.427 0.6646652818 -0.2512775362 0.7036190033
0.34193623 -0.27479717 1.303154 0.8045070171 -0.1274474561 0.580108285
0.2841416 -0.3738049 1.3434002 0.629322648 -0.199701041 0.7510476112
0.36590663 0.22426535 1.4960001 -0.4875814617 0.7043973207 -0.5158378482
0.10767658 -0.30782834 1.4450001 0.3455126286 -0.4342026412 0.8319188952
0.16571333 -0.12548134 1.4342 0.1397896707 0.6939651966 0.7063081264
0.15699045 -0.4854469 1.3760002 0.3247709274 -0.399889648 0.8570951223
0.31441885 -0.24474677 1.3448004 0.8252698183 -0.1560026258 0.5427641869
0.31476077 -0.29487148 1.3347501 0.7177420259 -0.240906775 0.6533071995
-0.21622545 -0.27800414 2.3490002 0.3514169455 0.9174940586 0.1863084137
0.063146301 -0.1610875 1.47 0.005782278255 0.6060684919 0.7953914404
0.11804254 -0.13462256 1.439 0.01475389861 0.740531683 0.6718594432
0.12540302 0.11730929 1.1170001 0.07641239464 0.7119815946 0.6980282068
0.095710561 0.094032906 1.1452223 0.01250492595 0.7550896406 0.6555022597
0.11416227 -0.0031013179 1.2861251 -0.1202552542 0.8004245162 0.5872471929
0.15431643 0.0578827 1.1956668 0.1266363263 0.8649927378 0.4855417907
0.3926039 -0.21269284 1.2645714 0.6359139085 -0.1296684444 0.7607887983
-0.23401652 0.2800082 1.5430001 0.5979765058 -0.489564389 0.6346265078
0.044797491 0.045643121 1.2138001 -0.04667063057 0.7927497625 0.6077578664
-0.094854839 0.024831586 1.2436669 0.09268125147 0.7124882936 0.6955361962
0.035244629 -0.28848383 1.4890001 0.4387798309 -0.5358552337 0.7213400006
0.25883585 0.038307704 1.1810001 0.4436356425 0.8168749213 0.3686499298
0.20473647 0.014637367 1.2550771 0.1365436465 0.8502239585 0.5084044337
-0.033306755 0.098895445 1.169 0.208845526 0.4100544751 0.8878281713
0.15122588 -0.01023333 1.2970001 0.05172325671 0.8062180281 0.5893531442
0.38680854 -0.36501521 1.225476 0.7711726427 -0.1634598821 0.61528337
0.4059023 -0.32474896 1.2142402 0.6707111001 -0.2003181428 0.7141563296
0.017514046 -0.12134732 1.427 -0.0731003806 0.7470610142 0.6607239246
-0.22142759 0.061299164 1.427 0.4595032036 -0.4837723374 0.7448631525
0.016954908 -0.32476869 1.4878001 0.4616261125 -0.2432483882 0.8530718088
0.38235703 -0.10558687 1.3035001 0.4493614435 -0.3403143585 0.8259905577
0.01540128 -0.15016247 1.4640001 0.0003088539816 0.7249591947 0.6887917519
0.12440276 -0.38454986 1.4150002 0.07518687844 -0.179513976 0.9808779955
-0.12112552 0.071188837 1.2120001 0.2033193707 0.4305091798 0.8793879151
0.1463674 -0.34760025 1.427 0.1634583622 -0.383672744 0.9088875651
0.16556299 0.076322973 1.1645292 0.06188230589 0.8359351158 0.5453284383
0.26206985 -0.0078733433 1.2830001 0.1355306357 0.8046902418 0.5780181885
0.17748713 -0.36605182 1.404 0.4464149177 -0.2872025371 0.8474835753
0.21412145 -0.0067639216 1.2855 0.09853619337 0.8023508787 0.5886625648
0.40069979 -0.27541357 1.2320001 0.6555953622 -0.1301707774 0.7438079715
0.094983913 0.0033494509 1.2746667 -0.04648261517 0.7982444167 0.6005374789
-0.24160758 0.19540638 1.506 0.6578192115 -0.4114284515 0.6308728456
0.1849947 -0.41426131 1.3958185 0.288831681 -0.3432896137 0.8937160969
0.19241902 0.2311947 1.189 0.434109062 -0.4059215784 0.8042244911
0.082476795 -0.29253489 1.47 0.2564108968 -0.4950815141 0.8301492333
0.054323811 0.084629007 1.1655 0.07498206943 0.770616293 0.6328729987
-0.15499666 -0.064663008 1.3366365 -0.06636305898 0.8035911322 0.5914704204
0.3824195 -0.15521735 1.2830001 0.6411230564 -0.05228174105 0.7656552196
0.32136217 -0.37427074 1.312 0.6825200915 -0.1782148629 0.7088058591
0.016437501 0.020820834 1.25 0.005206048954 0.8442450166 0.5359321833
-0.11492952 -0.045778658 1.3220001 -0.05731011927 0.7784116864 0.6251326799
-0.055042218 -0.070768572 1.3590001 -0.09856815636 0.7426858544 0.6623458266
0.15589833 -0.22711435 1.4770001 0.3849942684 -0.3636899292 0.8482387662
0.043595631 -0.092968993 1.398 -0.04375807941 0.7842054367 0.6189564466
0.25576854 -0.23361345 1.4039999 0.5531007051 -0.229384467 0.8009134531
0.40393493 -0.30480519 1.2252856 0.6867741942 -0.1844243407 0.7030852437
0.014745533 -0.011345818 1.2939999 -0.002495427616 0.8252649903 0.564740181
0.081582598 -0.48455122 1.41 0.6074894667 -0.2214063406 0.7628471255
0.25597543 -0.32594049 1.376 0.3537483513 -0.3529396057 0.8661961555
0.31600183 -0.31527814 1.324625 0.7354246974 -0.2275165617 0.6382685304
0.16560322 -0.060760889 1.3590001 0.02933378518 0.7834849954 0.6207179427
0.05653185 -0.48114884 1.4330001 0.7469412684 -0.09983672947 0.6573517919
0.34227291 -0.314197 1.293875 0.8055135608 -0.1782857776 0.5651213527
-0.0652759 -0.0029086045 1.2749999 -0.09368029982 0.784598887 0.6128854752
0.14523911 -0.096005522 1.4040002 -0.02743912674 0.7711371779 0.6360774636
0.28958929 0.015911499 1.21 0.3215569258 0.9263298512 0.1962503195
0.20506987 -0.43426558 1.376 0.4252792299 -0.2286934257 0.8756922483
0.20476767 0.16188589 1.149 0.426904887 -0.3488179743 0.834313035
0.27251965 -0.49421081 1.3220003 0.5183186531 -0.3583565056 0.776483357
0.01196124 -0.21131524 1.516 0.5179082155 0.4258056581 0.741930306
0.37836933 -0.31579286 1.245 0.8138527274 -0.1322712749 0.5658162832
0.21598656 -0.19635141 1.4449999 0.5341286659 -0.05001438409 0.8439224362
0.01560116 -0.16771246 1.483 0.03414861113 0.7393479347 0.672457099
0.3465004 -0.38526669 1.2770625 0.7405240536 -0.1197557524 0.6612735391
0.42195323 -0.26501763 1.2261113 0.654194355 -0.1501099914 0.7412804365
0.3473222 -0.052981351 1.3430001 0.3464926481 0.2545586228 0.9028525352
-0.044574261 -0.0426418 1.3265001 -0.09019263089 0.7956973314 0.5989415646
0.19404115 0.052236058 1.202 0.08379087597 0.8524410129 0.5160652995
0.17428634 0.010940799 1.2662858 0.09777905792 0.8061664701 0.5835537314
0.21739142 -0.47108123 1.3650001 0.3622575998 -0.2934806347 0.8846685886
0.28439179 -0.47442374 1.3227502 0.594442606 -0.2957240045 0.7477869391
0.017421294 -0.34660575 1.483 0.5365586877 -0.1667468846 0.8272244334
0.16308601 0.44380781 1.307 0.5218005776 -0.3585904539 0.7740394473
0.21544275 -0.031635217 1.317 0.1366242617 0.7681466937 0.6255273819
0.0044560959 0.08158084 1.1730002 0.1255381554 0.679584682 0.7227757573
0.21477249 -0.27471215 1.4243751 0.4925116003 -0.3173020184 0.8104022145
-0.044077702 -0.092107192 1.3870001 -0.04966600984 0.7512714267 0.6581220031
