# .PCD v0.7 - Point Cloud Data file format
VERSION 0.7
FIELDS x y z normal_x normal_y normal_z
SIZE 4 4 4 4 4 4
TYPE F F F F F F
COUNT 1 1 1 1 1 1
WIDTH 512
HEIGHT 1
VIEWPOINT 0 0 0 1 0 0 0
POINTS 512
DATA ascii
0.10538726 -0.45554757 1.3138751 0.501329124 -0.2173315436 0.8375177979
-0.4858472 -0.4858472 2.365 -0.00601488445 0.7811684608 0.6242913008
0.0044324268 0.49864799 1.2640001 0.6145310998 -0.3771460652 0.6929013729
0.49743381 -0.13358647 2.0050001 -0.05017632246 0.7590395212 0.6491081715
-0.36397183 0.007946983 1.8130001 0.09199798852 0.8644729853 0.4941889942
-0.25140169 -0.018033033 1.21 0.2593439817 0.6149044633 0.7447369695
0.32904017 0.25144991 1.6390001 0.9752970338 0.09594822675 -0.1989713758
0.058393888 -0.49526671 2.467 -0.001692839898 0.7777547836 0.6285655499
0.32208821 0.0010423567 1.189 0.5432322025 -0.0898251906 0.8347635865
0.023835691 0.15095937 1.0070001 0.1105433702 0.7052363157 0.7003012896
0.097646639 -0.24698856 2.184 0.04859215394 0.773625493 0.6317771673
-0.3205891 0.25295427 1.5430001 0.8931126595 0.01593826897 0.4495505989
0.37183115 -0.34527341 1.082 0.8605952263 0.09715159237 0.4999373853
0.044939686 -0.12299282 1.3490001 -0.08641330898 0.7244263291 0.6839146018
-0.37286386 -0.24730766 2.1700001 -0.03350496665 0.7719486952 0.6348012686
0.28540921 0.25473535 1.3460002 -0.5609266162 0.6730973125 -0.4819764495
0.4748728 0.028025281 1.7760001 0.1207053587 0.7127266526 0.690978229
-0.12224766 -0.33467802 2.286 -0.002986619482 0.7802488208 0.6254621148
0.25769001 -0.22603272 1.267 0.7664225698 -0.1041816324 0.6338317394
-0.28517178 0.048366141 1.4330001 0.3921906352 -0.4454769492 0.8048209548
-0.024227034 0.011802914 1.1810001 -0.1764909625 0.7771510482 0.6040589213
0.051073726 0.32346925 1.1423334 0.3811083734 -0.4879425764 0.785282433
-0.15949723 -0.17230357 1.3280001 -0.6803770661 -0.2158532739 0.7003530264
0.30380356 -0.089953013 1.9360001 -0.03908905387 0.7541561127 0.6555308104
0.30247015 -0.26865363 2.1430001 0.07806735486 0.7354236245 0.6730955243
-0.18515289 0.15502302 1.6630001 0.6470558047 0.672829926 -0.3586344123
0.27424577 -0.46318927 1.2035385 0.5917182565 -0.2392929643 0.769810617
0.15569712 0.069370009 1.1190001 0.05338689685 0.8048979044 0.5910069346
0.37366673 -0.15533501 1.0904001 0.6823888421 -0.1738892049 0.710005641
0.044401959 -0.30500799 1.3923751 0.6318518519 -0.2351429909 0.7385601401
0.16520444 -0.034678251 1.2568237 0.1033113524 0.7816101313 0.6151522994
0.25641695 0.14565758 1.2246667 -0.4499715269 0.66638273 -0.5945247412
0.022497896 -0.38655478 2.3330002 -0.001692839898 0.7777547836 0.6285655499
-0.11244652 0.10101128 1.087 0.2443271726 0.458191812 0.8546136618
0.31387696 0.35504627 1.4545715 -0.5219384432 0.7203198671 -0.4568583369
0.16469124 -0.32478458 1.31375 0.5817379355 -0.2908243239 0.7596065998
0.37589538 0.1132215 1.7220001 0.08094257861 0.7598202229 0.6450748444
-0.12389868 -0.05685997 1.2507143 -0.2073857039 0.7187951803 0.6635696292
0.46403018 -0.045067683 1.904 0.01430991944 0.7366473675 0.676125586
0.30149385 -0.32526353 1.193 0.7840913534 -0.03275052831 0.6197807193
-0.040935948 -0.19227491 1.4150001 -0.2197054625 0.7382528186 0.637740016
0.16915663 -0.19768278 1.3556668 0.6039555073 -0.2458426058 0.7581551075
0.30109242 -0.12492257 1.193 0.9054640532 0.04477932677 0.422054112
-0.4957366 -0.4021638 2.2710001 -0.02171817608 0.7724924684 0.6346524358
0.037530977 0.47095323 1.381 -0.8331327438 -0.5135788918 0.2052475959
0.034770004 0.08094281 1.1018 -0.02767750062 0.8633562922 0.5038351417
-0.28984001 0.14819874 1.4960001 0.8133649826 0.4850301147 -0.3212213814
0.045208573 -0.041431393 1.2578572 -0.01564871706 0.7913451195 0.6111693978
0.071010001 0.2281788 1.08 0.6313899159 -0.2774439752 0.7241351008
-0.1511312 0.019271763 1.1570001 0.1066109091 0.6906604767 0.7152777314
-0.24205753 -0.10414471 1.28425 -0.02832083218 0.7283668518 0.6846018434
-0.31463918 0.17796333 1.6240001 0.9264394641 0.252702564 0.2790184915
-0.064973719 -0.11718973 1.3235002 -0.1283405721 0.6968443394 0.7056462765
0.015068899 0.40557256 1.2034285 0.5502167344 -0.3505125344 0.7578935027
0.19622149 -0.41713122 1.2667692 0.5263120532 -0.3150135279 0.7897861004
0.3241272 -0.22512387 1.1630689 0.8391646147 0.04671187326 0.5418678522
0.12241326 0.1224059 1.0343001 0.1022620201 0.5370027423 0.8373592496
0.085021392 0.024437083 1.1827143 -0.04089045152 0.8049497604 0.5919322968
0.37438634 -0.2131498 2.0900002 0.02909558639 0.7546223998 0.6555139422
0.40150896 -0.24558087 1.04625 0.6668013334 -0.1530357301 0.7293531895
-0.22298193 -0.33447289 2.2710001 -0.00601488445 0.7811684608 0.6242913008
0.25292709 0.085309312 1.1409999 -0.840924561 0.1793498546 0.5105678439
0.24751444 -0.12738255 1.2858572 0.7858141065 0.07047390938 0.6144344211
0.34147131 -0.4129889 1.149 0.6527411938 0.1317695528 0.7460333109
0.04940455 -0.21788673 1.4450001 0.6669235229 0.1821655184 0.7225155234
0.13561799 -0.10191017 1.3260001 0.104114987 0.6901074052 0.7161786556
0.32110196 0.31834573 1.572 0.9838136435 -0.07229594141 -0.1639634967
0.20502326 0.017689908 1.1871334 -0.01931798831 0.764442265 0.6444026828
0.23818347 -0.32515687 1.2590001 0.6142783165 -0.1850143373 0.767093122
0.34329042 -0.073018149 1.1306667 0.7894878387 -0.1463214457 0.5960695744
0.086500444 -0.37522942 1.3490002 0.7408457994 -0.2051274478 0.6395859718
0.15783243 -0.49888295 1.2590001 0.5791799426 -0.2813464105 0.7651109695
0.11794761 -0.26806274 1.3590001 0.3564442098 -0.5044130087 0.7864572406
0.42742762 -0.1663212 2.0400002 0.02909558639 0.7546223998 0.6555139422
-0.035076216 0.10892992 1.0560001 0.03249115497 0.7428513765 0.6686674356
0.28006607 0.20133263 1.2830001 -0.4271145463 0.7062441111 -0.5646170378
-0.035429761 -0.056225576 1.2665454 -0.09233086556 0.791975379 0.603531301
0.00635145 -0.45942155 2.4150002 -0.001692839898 0.7777547836 0.6285655499
-0.044501271 0.058591858 1.1190002 -0.1036163568 0.763268292 0.6377187371
0.35483885 -0.26470232 1.1045452 0.8688178658 0.08152543753 0.4883739948
0.27125731 -0.38919529 1.223 0.6659488678 -0.1686779112 0.7266772985
-0.10208783 -0.2017736 1.3700001 -0.2462929636 0.008531718515 0.9691578746
0.20358305 -0.25534144 1.3120002 0.6290830374 -0.2632178962 0.7314170003
0.28924739 0.30401748 1.4039999 -0.6877529621 0.5797002912 -0.4369708002
-0.19800568 -0.059836883 1.2410001 0.03103367053 0.7001428008 0.7133281231
-0.16454887 -0.10610983 1.2945 -0.08514352888 0.7212857008 0.6873845458
-0.093784049 -0.0094837798 1.202 -0.05076175556 0.8119592071 0.5815027952
0.14448112 -0.39504486 1.3120002 0.5265283585 -0.2521201074 0.8119133711
0.49669915 -0.090464108 1.9470001 0.01430991944 0.7366473675 0.676125586
0.023577293 -0.17332685 1.3972501 -0.09049597383 0.7254639268 0.682284832
0.21054991 0.075533599 1.077 -0.1856547594 0.6610682011 0.7269946337
-0.26870447 0.11606015 1.439 0.7315710187 -0.1333381981 0.6685991287
0.22236943 -0.18441325 1.3120002 0.7658361793 -0.1630296707 0.6220259666
0.10412653 -0.014605704 1.2340002 -0.1372190118 0.7588746548 0.6366161704
0.21542923 -0.47502077 1.2342858 0.5915044546 -0.2376661003 0.7704786062
0.29369789 -0.19536668 1.2148333 0.8633385301 0.04414910451 0.502690196
0.39703006 0.17662553 1.7220001 0.7300156951 0.6311045289 0.2622674406
0.078205153 0.17198044 1.0446001 0.4907157123 -0.3063504994 0.8156883121
0.1050677 -0.058327187 1.2861819 -0.04949964955 0.7223478556 0.6897559762
0.014547719 -0.083368801 1.3052142 -0.03262494132 0.7400891781 0.6717169285
0.33820221 -0.32223988 1.138 0.8970522285 0.02179248631 0.4413869083
0.28772756 -0.26560113 1.2176363 0.7590557337 -0.08620066941 0.6452935934
0.025269916 0.04245346 1.153 -0.0370878987 0.7727477551 0.6336287856
0.33038589 -0.15549582 1.1443334 0.8546711206 0.05125946924 0.5166330934
-0.029916249 -0.15197454 1.365 -0.1455777884 0.724449873 0.6737800241
0.27355477 0.042144001 1.1854446 -0.5050728321 -0.1863480359 0.8427193165
0.054140594 0.11380363 1.0506667 0.02792704478 0.7808307409 0.6241181493
-0.15551911 -0.022445515 1.2047501 -0.03857497126 0.723552525 0.6891906261
0.10482303 0.088623106 1.087 -0.07305433601 0.8191073537 0.5689694285
0.033197962 -0.001480164 1.2060001 -0.1402239949 0.7829466462 0.606079042
-0.24926701 0.027966544 1.3870001 0.492784977 -0.4747664332 0.7292186022
-0.21393414 0.018229114 1.177 0.3321168423 0.4682804942 0.8187867999
0.14509483 0.032928303 1.1738002 0.06156709045 0.797000885 0.6008320451
-0.15181631 0.070977122 1.1245 0.3705037832 0.4772894681 0.7968197465
0.22789125 -0.016200799 1.2320001 -0.04288196936 0.7447974682 0.6659113169
-0.26544183 -0.065088704 1.2443335 0.03554260358 0.6080721021 0.7930857539
-0.085702062 0.025810674 1.1546665 -0.06578290462 0.8077716231 0.5858136415
-0.30966321 0.20068303 1.516 0.9685398936 0.2474907786 0.02605360374
0.39306706 -0.30358785 1.0468502 0.7418496013 0.01270262059 0.6704459786
0.27570814 -0.30059847 2.184 0.05619305372 0.7580210567 0.6498049498
-0.21203834 -0.14405023 1.3145 0.2407057881 0.3036124408 0.9218894839
0.016910607 0.35236183 1.1810001 0.5558931828 -0.3371805549 0.7597973347
0.04541022 0.26630229 1.1148669 0.5690690279 -0.37244156 0.7331082821
0.34871346 -0.20786819 1.108 0.8483251929 -0.01713858545 0.5291981101
0.20574066 0.053224113 1.1422309 -0.05817168579 0.7689169645 0.6366968155
0.093599148 0.057172213 1.1369091 -0.03960378468 0.8290001154 0.5578444004
-0.11991397 -0.13155611 1.3280001 -0.1387441307 0.7367249131 0.6618054509
-0.3336944 0.21551096 1.5860001 0.9122697115 0.2704612613 0.307594955
-0.015757792 -0.021132635 1.2256669 -0.1880256683 0.7825525403 0.5935131907
0.17460665 -0.073624536 1.2956363 0.1308980435 0.6677235961 0.7328103185
0.086889289 -0.31502938 1.3577501 0.6272627711 -0.2870381474 0.7239823937
0.19718689 -0.35740122 1.278 0.5789589286 -0.2984284759 0.758779943
-0.085706964 -0.079408288 1.2830001 -0.1728089154 0.6995584369 0.6933650374
0.071693793 -0.26081711 1.4100001 0.7112720013 -0.2491742671 0.6572703719
0.31788433 -0.052045066 1.1743336 0.5538880229 -0.3298595846 0.7644610405
-0.01277128 0.45125189 1.2140001 -0.6527395248 -0.4415783882 0.6155807376
0.30851915 -0.37662038 1.177 0.7612495422 -0.06740105897 0.6449466348
0.075047046 -0.091211028 1.317 0.002798383124 0.7358669639 0.6771203279
0.15267015 -0.44368011 1.2848182 0.5564898849 -0.28073892 0.7819876075
0.2772283 -0.10805355 1.245 0.8749138713 0.04163277894 0.482485652
0.15524754 0.085066959 1.0675588 0.2001646459 0.90106529 0.3847277761
0.27220556 -0.16566953 1.2537333 0.8756504655 0.0004761669261 0.4829452038
0.2358039 -0.2745252 1.2741905 0.5571053028 -0.2088755965 0.8037441373
0.31684253 -0.27535623 1.175182 0.8326633573 -0.01679766923 0.5535247326
0.1528179 -0.001602985 1.2190001 0.09104162455 0.7884999514 0.608259201
-0.025385344 0.15141611 1.0220001 0.1478997916 0.5985720158 0.7872974277
0.092142053 -0.13522145 1.365 0.02590375394 0.6493966579 0.7600085139
0.38585389 -0.19877321 1.067 0.686237812 -0.1271283925 0.7161815763
0.16483632 -0.25445268 1.3450001 0.5914790034 -0.3095155358 0.7445486784
0.058556598 -0.3545042 1.3858001 0.7305381894 -0.00446405774 0.682857275
0.26273057 0.11788565 1.183 -0.5616633296 0.7327720523 -0.3841606677
0.23793399 -0.42520681 1.2348001 0.5301668644 -0.2261147052 0.8171873689
-0.085725285 -0.15240514 1.3581668 -0.1168765053 0.7385507822 0.6639899015
-0.014148524 -0.11521304 1.3348184 -0.2080291212 0.7053012848 0.6776975393
-0.17635728 -0.34469831 2.286 -0.00601488445 0.7811684608 0.6242913008
0.30438495 -0.43403831 1.175154 0.6996654868 -0.1954871267 0.6872066259
0.34825146 -0.37375721 1.1190001 0.8459017873 0.04772791639 0.5311988592
0.49063614 0.02397245 1.8230001 0.1010261476 0.7170103192 0.6897027493
-0.10414503 0.058641803 1.1186001 0.1082707718 0.6824761629 0.722844243
-0.065193079 -0.033336606 1.2338183 -0.08717083186 0.7513917089 0.6540731788
0.23586832 -0.37534654 1.2545913 0.5398350358 -0.2545818686 0.8023504615
0.13922782 -0.22639653 1.381 0.5931455493 -0.2853867412 0.7528165579
0.1249336 -0.3440986 1.3330001 0.2597659528 -0.2240221053 0.9393272996
0.084696122 -0.42284411 1.3435457 0.5819829106 -0.1897006482 0.7907651663
-0.014122414 0.084958993 1.0932175 -0.0410072729 0.8031771779 0.5943271518
0.12500393 -0.49456421 1.2946192 0.6631929874 -0.1228718311 0.7382937074
-0.065057434 0.086001009 1.086 0.07588221878 0.7021993399 0.7079251409
0.2038776 -0.3046838 1.2919999 0.5982958674 -0.2257507294 0.7688164115
0.0088183889 -0.19526786 1.4370002 0.06478966773 0.7205554247 0.6903638244
-0.035384022 -0.086747915 1.302 -0.1377513707 0.7132690549 0.6872203946
-0.20518312 -0.021343328 1.2052001 0.0899964869 0.6867299676 0.7213200331
0.36036962 -0.10976217 1.108 0.6718235016 -0.08266423643 0.7360841036
0.2710934 -0.30673516 1.2320001 0.7556305528 -0.09127344191 0.6486074924
0.31874481 -0.10371251 1.1570001 0.8369037509 -0.01588024199 0.5471196175
-0.14612572 -0.19256568 1.3700002 -0.3457551003 0.3621583581 0.8656181097
-0.077917255 0.12180178 1.0606 0.4003930688 0.5079092383 0.7627015114
0.31129763 -0.16826124 1.1823335 0.894620955 0.0904179588 0.437581867
0.0045661731 0.12308283 1.0419376 0.07018639147 0.7375056148 0.6716839671
-0.29355529 0.084785938 1.4580001 0.5998708606 -0.2833999693 0.7482241988
-0.1809326 0.05155063 1.153 0.352570802 0.437466383 0.8272345662
0.19671844 -0.21553458 1.3263637 0.6910458803 -0.2264654487 0.68641752
0.36216775 -0.30493596 1.0924119 0.9043765068 0.01911261491 0.4263072014
0.36882591 -0.23676576 1.076 0.7976221442 -0.06818969548 0.5992904902
-0.01712393 0.038277019 1.149 -0.2000758648 0.7519538999 0.6281202435
0.27444386 0.19638471 1.2415715 -0.6739292145 0.6480874419 -0.3546859324
-0.12533528 -0.092590027 1.2880001 -0.155908823 0.7449227571 0.6486775279
0.14520761 -0.29510689 1.3358126 0.5029051304 -0.2386897504 0.8307307959
0.27625543 0.22781169 1.31575 -0.2160146236 0.7432858944 -0.633138001
0.22606817 -0.22538063 1.2941741 0.6703673601 -0.1590785682 0.7247769237
0.23526582 0.03617448 1.1658001 -0.103349641 0.7338181138 0.6714386344
-0.20431451 -0.090485327 1.268 -0.03398294747 0.7089288831 0.7044607997
0.004625428 0.064840831 1.1246154 -0.08493287116 0.816087842 0.5716528893
-0.16289169 -0.078675576 1.2640001 -0.1258042604 0.7111278176 0.6917156577
0.0083765499 -0.13761474 1.365 -0.09152793139 0.6997213364 0.7085285187
0.0044709998 -0.056560598 1.2749999 -0.1024311557 0.7661032081 0.6345027685
-0.066040911 -0.17401977 1.3865 -0.1362856179 0.5954171419 0.7917731404
0.25082222 -0.18446118 1.2830001 0.7178952098 -0.1921428442 0.6691095233
0.28863198 -0.08880984 1.2060001 0.8813041449 0.0915087387 0.4636045396
0.21081115 -0.040837765 1.2590001 0.07739987969 0.7570431232 0.6487641931
0.055771779 -0.15398036 1.383 0.04582527652 0.7219252586 0.6904519796
0.18564627 -0.45495471 1.2590001 0.496063143 -0.2429635972 0.8336006403
0.065490507 -0.063232213 1.2880001 -0.005850100424 0.7645045519 0.6445918083
0.28853726 -0.15495521 1.219 0.8428716063 -0.03051661514 0.5372487307
-0.3487713 -0.26206023 2.1980002 -0.02171817608 0.7724924684 0.6346524358
0.054797422 0.061026268 1.1305715 -0.02048884332 0.8124588132 0.5826584697
0.064803198 -0.017280852 1.2320002 -0.05683225766 0.7570284605 0.6509054899
0.27608675 -0.34526277 1.2155455 0.716098845 -0.1157272086 0.6883383393
0.012692672 0.46817827 1.2410001 0.5924978852 -0.3846024871 0.7078327537
-0.054886349 -0.0084458068 1.204 -0.06329352409 0.8118572831 0.5804151297
-0.12357073 -0.16119584 1.3580002 -0.379296124 0.2065299898 0.9019311666
-0.1774759 -0.0010318366 1.177 0.06993985921 0.6855774522 0.7246322632
0.11524133 0.0095153395 1.2060001 -0.03060535342 0.7779904604 0.6275302172
-0.12509291 0.0023546466 1.1828184 -0.1393114179 0.7960087061 0.589035213
0.077604868 -0.27784956 1.376 0.5639012456 -0.3563705981 0.7449935079
0.27155626 -0.42536744 1.21 0.6881527305 -0.1149305627 0.7164054513
0.065556206 0.092814088 1.0821052 -0.006491942797 0.8456269503 0.5337349176
0.2796663 0.27482361 1.381 -0.5958201885 0.6609230638 -0.456266433
0.10968415 -0.40987235 1.317 0.5625400543 -0.1685496271 0.8094069958
0.2787267 -0.22588262 1.2352002 0.8179317713 -0.02899708226 0.5745840669
0.33795729 -0.24581851 1.1342224 0.9173543453 0.004235538188 0.3980490863
0.30568609 -0.23507367 1.1948824 0.8425171375 -0.001839221106 0.5386663675
0.084986702 -0.040837765 1.2590001 -0.06961663812 0.7523236275 0.6551050544
0.12488978 -0.035128817 1.2583686 -0.02416372113 0.7384806871 0.6738414764
0.043592248 0.21989869 1.105 0.6928500533 -0.2059971243 0.6910310984
0.24159443 0.0094127702 1.1930001 -0.07684895396 0.8102901578 0.5809682608
0.17518005 -0.38684484 1.2870001 0.4503510594 -0.3044004738 0.8393594623
0.33879948 -0.28457329 1.135 0.8964468837 0.01512872707 0.4428928196
0.30522874 0.33105126 1.4250001 -0.5748283267 0.6818275452 -0.4524196386
0.014611403 0.10067778 1.0704286 0.004441995174 0.8118758798 0.5838131905
-0.29768971 0.1224265 1.47 0.4652795792 -0.4000593722 0.7895995378
0.37578368 -0.27508137 1.0636665 0.8550900221 -0.03697272018 0.5171596408
0.23332278 0.064219631 1.1043333 -0.4665494561 0.8497168422 0.2455869466
0.19522299 -0.0044361176 1.2154738 0.04391737282 0.7570694089 0.6518566608
-0.16387603 -0.13582934 1.3220001 -0.4443072081 0.5451624393 0.7109071612
0.33216327 -0.35488588 1.1547778 0.8343358636 -0.01096021943 0.5511474609
0.17568599 -0.28728867 1.3160911 0.5328838229 -0.3614160717 0.7651230693
-0.16457751 -0.050556488 1.2270001 -0.1083640605 0.6844278574 0.720982492
0.085917175 0.13585103 1.043087 0.4208433926 0.1080535799 0.9006748796
0.045490313 0.023261549 1.1817273 -0.1181149036 0.7899811864 0.6016465425
-0.11571145 -0.031949457 1.2250001 -0.1558547765 0.7546516061 0.6373462081
0.18637231 -0.49735403 1.2360001 0.4929505587 -0.2418133318 0.8357787132
-0.015413903 -0.1747151 1.3956001 -0.1928370595 0.685552299 0.7020199299
0.035694361 -0.26216891 1.404 0.3183797002 -0.3397064805 0.8850049973
-0.20479293 -0.11231396 1.2970001 -0.07808656991 0.755027473 0.6510269046
0.22745028 -0.14893954 1.317 0.7284456491 -0.1250265986 0.6735987663
0.025162963 -0.023000227 1.2345002 -0.04859335721 0.7508253455 0.658710897
-0.084896691 -0.054027509 1.2576668 -0.1390981674 0.7372741699 0.6611191034
0.13628197 -0.072283044 1.2970001 0.06207258254 0.7602397799 0.6466702819
0.26361847 -0.26512465 1.2537895 0.7629477978 -0.1293868572 0.6333795786
0.16487141 0.048580263 1.1485001 0.0400182642 0.8438023329 0.5351599455
-0.099684887 -0.11114293 1.307 -0.1226035878 0.7179470658 0.6852155328
0.043615043 0.35500616 1.1570001 0.5464761853 -0.366524905 0.7530094385
0.197946 -0.17524196 1.336077 0.7322822809 -0.2027527839 0.6501184106
0.095011376 -0.1114331 1.3380001 0.0229049474 0.7574471235 0.6524946094
0.33263686 -0.19529414 1.1463336 0.8844602704 0.07349392027 0.4607913494
-0.23429678 -0.044081427 1.2263846 0.2030959427 0.6235978007 0.7549025416
0.28838247 0.0065053925 1.1962001 0.1803272814 0.1720119864 0.968449235
-0.23508772 -0.075154752 1.257737 0.03536373749 0.6034030318 0.7966518402
-0.05155063 0.031334698 1.153 -0.07451634109 0.7571849227 0.6489363313
-0.052530661 0.13707605 1.0380001 0.3015008569 0.5721182227 0.7627437115
0.10355479 0.11130657 1.061 0.2091638297 0.8761858344 0.4342221618
0.12500185 0.05155063 1.153 0.03809703514 0.8325847387 0.552586019
-0.12457363 0.037869539 1.1368001 0.06084768474 0.6870619059 0.7240466475
0.080617391 0.20386007 1.057 0.5726195574 -0.3097036481 0.759072125
0.031926524 0.38510445 1.1817273 0.5105920434 -0.3726632297 0.7748664021
0.24501562 -0.47453099 1.217353 0.4872578979 -0.327393204 0.809563756
-0.065005705 0.0092865303 1.177 -0.0641644299 0.7825268507 0.6193017364
0.15374163 -0.36250052 1.3120002 0.5135644674 -0.3145735562 0.7983075976
0.34572122 -0.17503329 1.1154063 0.7980093956 -0.007310079411 0.6026006341
0.29214448 -0.40544632 1.193 0.7060331702 -0.1069378853 0.7000581622
0.11869979 0.069650292 1.1190001 0.04753366858 0.8432534337 0.535410285
-0.27268368 0.024474779 1.4100001 0.4443109334 -0.5243182182 0.7264146209
0.29507789 -0.29536593 1.2056363 0.7894510031 -0.1342971325 0.5989418626
0.11467502 -0.37487671 1.3279998 0.3665762246 -0.1752538085 0.9137330055
0.31445187 -0.13527712 1.1646 0.8733226061 -0.004744124599 0.4871192276
0.33548036 -0.12524201 1.1329679 0.8155559301 -0.02256716415 0.5782380104
0.0056622438 0.023161972 1.1743335 -0.1250471473 0.7746428847 0.6199125648
0.1158862 -0.31334686 1.3430002 0.3014084697 -0.3635134697 0.8814822435
0.054605599 0.1339725 1.0251198 -0.08346945792 0.7706375718 0.6317836642
-0.073802188 0.050522301 1.13 -0.02697013505 0.7368835211 0.6754815578
0.10532887 -0.24818872 1.381 0.3015855849 -0.4022077918 0.8644506931
-0.30841485 0.22319494 1.5430001 0.9194901586 0.01671489328 0.3927575052
0.063857347 0.0077064401 1.2032307 -0.03477805108 0.7649780512 0.643116653
0.31883526 -0.31708243 1.1672858 0.7904387116 0.01507817768 0.6123554707
0.014764356 0.43548873 1.2184117 0.2250581682 -0.4897462726 0.8423166871
0.13543659 0.085485436 1.09568 0.009999962524 0.8316441178 0.5552189946
0.042325601 0.29491729 1.1309232 0.3664064407 -0.4238280356 0.8283212781
0.04477293 -0.097422026 1.3246667 -0.03563317657 0.7281646132 0.6844754219
0.20623861 -0.38576266 1.2668234 0.6085805297 -0.1649662256 0.7761545777
0.10590497 -0.082334153 1.307 -0.07300702482 0.7273157835 0.6824088097
-0.0054864725 -0.036213636 1.2516668 -0.1198352203 0.787324965 0.6047800779
-0.2660467 0.072975196 1.427 0.5373646021 -0.3326882124 0.7749566436
0.14901054 -0.47504112 1.2780001 0.6154999137 -0.1670294106 0.770234406
0.13338523 -0.42486143 1.3024546 0.6039099693 -0.1533975601 0.7821521163
0.06591332 0.043999951 1.1546469 -0.06420609355 0.8226667047 0.5648868084
0.31107044 -0.20480658 1.1832223 0.8758348823 0.04210489243 0.4807706475
0.27583876 -0.19516031 1.2436668 0.8641500473 -0.02766899765 0.5024729967
0.02646306 0.32875264 1.161 0.4539381862 -0.488853544 0.7449579239
0.08420632 0.075829551 1.1067367 -0.05116518587 0.8598743677 0.507935226
-0.1874252 -0.16356407 1.317 -0.1912610978 0.2514565885 0.9487828016
0.31572279 -0.40500265 1.1648096 0.7660753131 -0.06008110195 0.639936626
0.17630148 0.032792304 1.1730002 0.0403052792 0.7993671298 0.5994895101
0.034889579 -0.059002917 1.2837144 -0.03237089142 0.7567730546 0.6528757215
0.21513562 -0.44496083 1.2427142 0.5888453722 -0.2658818364 0.7632613778
-0.26399589 -0.036567517 1.2320002 0.1862123311 0.5382393003 0.8219631314
0.17831399 0.068485193 1.08 0.04854834825 0.7989698648 0.5994082093
0.079749711 -0.34518859 1.3577502 0.7557986379 -0.03234550357 0.6540047526
0.26791838 -0.13524511 1.2576667 0.8336499333 -0.02442037314 0.5517531037
-0.23235202 0.0017454433 1.1956667 0.2619598508 0.4698760808 0.842967093
0.25479838 -0.29470184 1.2561542 0.6769505739 -0.2208037674 0.7021279335
0.30643797 -0.030330036 1.1930001 0.6761182547 -0.1627102792 0.7186024189
0.11544078 0.030024957 1.1810001 -0.02119883522 0.7871780992 0.61636132
-0.295086 0.1783631 1.4960001 0.9267023206 0.3688508868 -0.07191569358
0.35164222 -0.14507678 1.1133637 0.7269315124 -0.09181702882 0.6805440187
0.2546747 -0.34462798 1.2424117 0.7361815572 -0.1365227252 0.662871182
0.015134773 -0.10344868 1.3279999 -0.05466181412 0.7178217769 0.6940777898
0.39781904 -0.27509695 1.0374668 0.6906802654 -0.09678336978 0.7166545391
0.26705369 0.17729706 1.2640001 -0.6648651361 0.6518989205 -0.3646671474
0.16442023 0.013948507 1.1957692 0.06072441116 0.7963389754 0.6017946601
-0.0052687665 0.0010537533 1.202 -0.1420324892 0.7778137326 0.6122357249
0.047687531 -0.24558327 1.4261428 0.5514886379 -0.3852407336 0.7398985028
-0.12585764 0.075239614 1.1060498 0.1606007516 0.610871315 0.7752700448
0.36344704 -0.1848236 1.0932308 0.8041823506 -0.07130533457 0.5900900364
-0.045132261 -0.1283326 1.3430001 -0.1578122675 0.7412303686 0.6524360776
0.17468226 -0.017433977 1.2342223 0.1001747176 0.7812527418 0.6161242723
-0.1357335 -0.11359004 1.3065834 -0.2525440753 0.7135519385 0.6535021663
0.30277961 0.29312927 1.376 -0.6036445498 0.6295981407 -0.4891006351
0.29485792 -0.35496265 1.1944002 0.7538195848 -0.09027191252 0.6508510113
-0.094928972 0.0082546938 1.177 -0.02542598173 0.7802000046 0.6250132322
-0.09515813 0.078816012 1.0964 0.1653658301 0.6622318625 0.7308235765
0.18605971 -0.33597741 1.2965003 0.436290741 -0.2258158028 0.8710095286
-0.034860063 -0.035952687 1.2426667 -0.1021138728 0.7599245906 0.6419402957
0.3522765 -0.3348763 1.1152999 0.8965324163 0.001860346878 0.4429742694
0.18462278 -0.054962259 1.2750834 0.1425502151 0.7053245306 0.6944038272
0.16520558 -0.41406566 1.2919999 0.489875257 -0.2279513925 0.8414632678
0.13433431 0.10158556 1.0512308 0.141538918 0.701543808 0.6984289289
0.22212724 -0.40476322 1.25125 0.522924304 -0.2338378429 0.8196767569
0.25634998 -0.15480903 1.2760768 0.8700209856 0.002265649382 0.4930094779
0.036279097 -0.19640753 1.427 0.2850065529 0.6846494079 0.6708401442
0.15499513 -0.052470323 1.2776153 -0.01315571088 0.7021884918 0.7118695378
0.17385243 -0.22424124 1.3445003 0.6079850197 -0.2491002232 0.7538589239
0.30747068 -0.07918141 1.1730001 0.8629110456 -0.02437978238 0.5047674179
0.1418695 -0.2527591 1.3649999 0.5335162282 -0.3773578405 0.7569422126
0.21506488 -0.33473822 1.27575 0.6721358299 -0.1273385435 0.7293958664
0.14469647 -0.018495036 1.2410001 0.04831468686 0.7589722872 0.6493279338
0.29055625 -0.12651527 1.223 0.884860158 0.02845712751 0.4649867117
0.33398986 -0.38531044 1.1467144 0.8290137649 -0.01735766232 0.5589587092
0.066510946 -0.32576805 1.3749093 0.6797911525 -0.09214004874 0.7275947928
0.063402988 0.25457576 1.0958002 0.584191978 -0.3167286813 0.7472634315
-0.07525973 -0.096308604 1.3046668 -0.159084633 0.6960880756 0.700109601
-0.037766799 0.089696147 1.077 -0.01835305057 0.75530231 0.6551195383
-0.15554304 0.042511757 1.1409999 0.2974676788 0.5798435211 0.7584816813
0.31373337 -0.34461287 1.1740001 0.7740792036 -0.044044476 0.6315547824
0.045679264 -0.077654362 1.3026251 -0.03665500134 0.7226914763 0.6901981235
-0.11433399 0.021713279 1.1610001 -0.05935538188 0.7910908461 0.6088121533
0.12575373 -0.46564543 1.2966877 0.6110845208 -0.1352065504 0.7799326181
0.20479238 0.035846129 1.1647778 -0.03143428266 0.8111412525 0.5840049386
-0.054977428 -0.0745534 1.2853686 -0.1593423635 0.7281938791 0.6665911078
0.21442524 -0.27491242 1.2929091 0.6750888228 -0.2507003844 0.6938331723
-0.18513414 0.024845613 1.1615999 0.2558887005 0.5311956406 0.8076832294
-0.33043671 0.23308814 1.5640001 0.8871937394 0.0656285435 0.4567058384
-0.14322315 -0.14659156 1.3438572 -0.4592353702 0.5139018297 0.7245742083
0.0684589 -0.38072756 1.3700001 0.7064708471 -0.2747739553 0.6522256136
0.1828873 0.064550646 1.1248463 -0.04811951891 0.8264372945 0.5609687567
0.093892977 0.042493567 1.1610001 -0.07983288914 0.7978656292 0.597525835
0.23575996 -0.24632357 1.278 0.600133121 -0.1881011277 0.7774690986
-0.015951827 -0.07202518 1.2865715 -0.172885254 0.7415708899 0.6482154727
0.1443748 -0.32391375 1.3330001 0.4621430337 -0.2826276422 0.840562582
-0.024831241 0.12707667 1.0357393 0.04376743361 0.7127432227 0.7000582218
-0.084454566 -0.13313323 1.3380002 -0.05925888196 0.7391309142 0.6709499955
0.34836492 -0.30431718 1.1166251 0.8860434294 0.0223757755 0.4630619287
0.085013203 -0.0043333638 1.2166471 -0.03723199666 0.741332233 0.6701046824
0.23532186 -0.16521181 1.2956367 0.6353781819 -0.1328850091 0.7606813312
0.34911072 -0.23558626 1.1067998 0.890303731 -0.006851810031 0.4553155899
0.33112225 -0.027764909 1.1730001 0.5489270091 -0.1922563463 0.8134596944
0.23101132 -0.30243513 1.273 0.5539751649 -0.1909194291 0.8103464246
0.33139688 -0.26497313 1.153 0.8826040626 0.05169545487 0.4672661722
0.37689292 -0.32491085 1.0642856 0.8533932567 0.104689531 0.5106467009
-0.12493523 -0.014607021 1.2043334 -0.1407531798 0.7323485017 0.666223824
0.0048525692 -0.15764636 1.38325 -0.1363868266 0.7169912457 0.6836096644
0.24737079 -0.39630067 1.2340002 0.6494699121 -0.1844651401 0.7376730442
-0.26040506 -0.083108 1.2640001 -0.01978787966 0.6101619601 0.7920295596
0.2579197 0.062474478 1.1943334 -0.7057409286 -0.125893712 0.6971947551
0.064619102 -0.13570012 1.3649999 0.03587622568 0.6690514088 0.7423497438
0.051075477 -0.276555 1.4210001 0.3209962249 -0.3519197404 0.8792689443
-0.013808126 0.10094579 1.0704286 -0.001068368088 0.7962459922 0.6049720049
0.15330346 -0.087249875 1.3120002 0.1516356319 0.6272760034 0.763892293
0.25345939 -0.44366115 1.2229999 0.5536442399 -0.2379069328 0.7980465889
-0.19449551 -0.041677609 1.2190001 0.06707043946 0.6685807705 0.7406087518
0.20484281 0.058663905 1.097 0.1576934308 0.9375163317 0.3101547062
-0.13460138 -0.074761629 1.2674285 -0.2005937248 0.7025783062 0.6827487946
0.44980365 -0.15823132 2.0280001 0.02909558639 0.7546223998 0.6555139422
0.22728828 0.085961558 1.1482002 -0.3539912701 0.2054345906 0.9124071598
-0.18905754 -0.13291317 1.307 -0.05501465499 0.2958057523 0.9536625743
0.1752653 -0.43495211 1.2741907 0.5000885129 -0.3385214806 0.7970663309
0.0051179286 0.1425218 1.0232353 0.1288163662 0.7058166862 0.6965838671
0.047695048 -0.33263975 1.3950001 0.6514174342 0.03278073668 0.7580110431
-0.013074687 -0.095290236 1.3124547 -0.1979436278 0.6697656512 0.7157040834
-0.012189173 0.47870207 1.2640001 0.6009454131 -0.3939426243 0.6954666376
0.18146825 0.090734124 1.067 -0.07947708666 0.6331151724 0.7699666023
-0.10532536 -0.071421161 1.268 -0.1597484201 0.703915 0.6920867562
0.0045352885 -0.18449594 1.4108334 -0.166859448 0.784670949 0.5970338583
0.27524966 0.16863121 1.2410001 -0.7448865175 0.5807079673 -0.3285153508
0.23602672 -0.35126981 1.2640001 0.5547005534 -0.1586022079 0.8167940974
0.32460839 -0.076108642 1.1539412 0.7497186661 -0.178398788 0.6372564435
-0.089935482 -0.040091719 1.2360001 -0.09905169904 0.7473267913 0.657032311
0.098358594 -0.35552406 1.3374447 0.5795474052 -0.1593582332 0.7992057204
0.040335432 0.10036957 1.0700001 -0.008846760727 0.8397678137 0.542873621
0.095349327 -0.39520586 1.3355001 0.5973853469 -0.06869967282 0.7990063429
0.22565725 0.0019714979 1.2117144 -0.009294728749 0.7724562287 0.6349999905
0.30159816 0.026722262 1.1876668 0.1339064687 0.122805357 0.9833554029
-0.092648633 -0.17241327 1.3725716 -0.391220212 0.1224031374 0.9121206999
0.32761994 -0.29534671 1.1569999 0.8368791342 -0.02806827798 0.5466675758
-0.14529566 -0.18074018 1.3475001 -0.6754159927 0.2054563463 0.708237946
0.25763303 0.10447324 1.1570001 -0.756215632 0.6412645578 -0.13006787
-0.074711636 0.067919567 1.1067998 -0.0008317008615 0.7356476188 0.6773638725
0.1036348 -0.29410368 1.3540001 0.4997303188 -0.3780029416 0.7793480754
-0.2748087 0.13165253 1.4580001 0.5930487514 -0.4244410098 0.684209764
0.23353545 0.053042494 1.1470002 -0.2720451355 0.4133065343 0.8690046668
0.10403754 0.15331848 1.041 0.4090304077 0.1038977206 0.906586647
-0.054953724 -0.046638671 1.2537144 -0.07282838225 0.7674847841 0.6369169354
-0.18019181 -0.017913807 1.202 -0.01261205785 0.6926209331 0.7211915255
0.026211457 0.13105728 1.031 0.06619609147 0.76367414 0.6421992183
-0.25895768 0.048789129 1.427 0.4196179807 -0.4256613553 0.8017064333
0.065849371 -0.10670301 1.3348184 -0.006851519458 0.7478477955 0.6638348699
-0.055045903 -0.1531712 1.3649999 -0.1120963916 0.7081550956 0.6971016526
0.12537159 -0.0052632433 1.2243999 0.001858115662 0.7989116311 0.6014455557
0.29404452 0.33986965 1.452 -0.6078710556 0.6645171642 -0.4346374869
0.29365382 -0.22485062 1.2143685 0.8638324738 -0.01189534366 0.5036387444
0.38059416 -0.17604956 1.0762001 0.6499346495 -0.1653134078 0.7417927384
0.18195565 -0.26308241 1.322 0.6029221416 -0.2704904675 0.7505463362
0.25263843 0.1252026 1.2046666 -0.5498861074 0.6642626524 -0.5063401461
-0.034073226 -0.10731908 1.322 -0.1353854388 0.7057045698 0.6954508424
0.01900175 -0.21661995 1.4450001 0.3518418372 0.3086647987 0.8837043643
0.285611 -0.37573269 1.2046666 0.7308527827 -0.1297296733 0.6700928211
0.073594414 -0.40318659 1.3540001 0.6844567657 -0.1748943478 0.7077646852
-0.1220583 -0.18787405 1.365 -0.2204830199 0.308798641 0.9252192378
0.12651879 0.09913785 1.077 0.2811124325 0.9193361402 0.2753122747
0.30142167 0.2752111 1.3590001 -0.5691660047 0.6606988907 -0.4894149899
-0.13768576 -0.043026801 1.2270001 -0.2092282325 0.7072075605 0.6753377318
0.30580029 -0.26495901 1.1946001 0.8493298888 -0.007348544896 0.5278112888
0.2655035 -0.36494559 1.2257689 0.6993672848 -0.1237267107 0.7039723396
0.31784388 -0.18498431 1.1658 0.8856952786 0.07606048137 0.457994163
0.28876477 -0.45266244 1.187 0.7398587465 -0.1621795297 0.6529217958
0.035315059 -0.14488086 1.3733333 -0.04108049721 0.7580093145 0.6509487629
0.39431882 -0.22054595 1.0600001 0.6719818711 -0.2032189071 0.7121393681
-0.15504946 -0.0050307508 1.1856664 -0.006411909591 0.74233073 0.6700029969
0.31726211 -0.24515808 1.1750001 0.8531464338 -0.002131475834 0.5216671824
0.14892375 -0.22993827 1.3590001 0.7042249441 -0.156503588 0.692512691
0.063160762 -0.28402641 1.3945001 0.7182623744 -0.4823952615 0.5013920665
-0.092213929 0.11109734 1.077 0.3337691128 0.4477528632 0.8295273185
0.26151317 -0.19502679 1.2640001 0.7603074312 -0.08049432933 0.6445566416
0.024873842 0.11330637 1.0508001 0.0259194281 0.7848648429 0.619124651
0.097502872 -0.43628892 1.3280001 0.6519190073 -0.162868157 0.7405913472
0.12244578 -0.11302687 1.3430001 -0.009650420398 0.7470377088 0.6647115946
0.058701593 0.2073492 1.08 0.6670495868 -0.3005205989 0.6817127466
-0.20501682 -0.0040042899 1.1883682 0.2085110843 0.5709463358 0.7940676212
0.3417685 -0.21496741 1.13 0.9223202467 0.05325575545 0.3827390075
0.36002332 -0.35423207 1.1010001 0.8600597382 0.09714270383 0.500859797
0.20479286 -0.0216712 1.2360001 0.0911924839 0.7892529964 0.6072591543
-0.024283668 0.068965614 1.108 -0.1254311651 0.7815875411 0.6110547781
-0.29282889 0.16524231 1.5160002 0.9262971878 0.345808059 -0.1496337652
-0.30428663 0.14631654 1.4770001 0.3573207259 -0.5611908436 0.7465834022
0.13836692 -0.27555123 1.3490001 0.4752887487 -0.4164512455 0.775028348
0.14523678 0.058494121 1.1373334 0.08219234645 0.8449271917 0.5285285115
0.23749717 -0.2055047 1.2880001 0.6661049128 -0.05512909964 0.7438178658
0.37131214 -0.1353661 1.103 0.6501004696 -0.1332438141 0.7480745316
0.28417334 -0.31520531 1.2127409 0.7545965314 -0.0635952279 0.6531000733
0.36752042 -0.21521941 1.0857999 0.7918132544 -0.08702908456 0.6045309305
0.16886967 -0.47791219 1.2590001 0.5250079036 -0.2533501089 0.8125149012
-0.043408532 -0.17834105 1.3920001 -0.1971032917 0.7036972046 0.6826130152
-0.15486462 -0.062455192 1.245 -0.1279441118 0.749802053 0.6491742134
-0.10513644 -0.14412354 1.3475006 -0.1155697778 0.7150434256 0.6894610524
0.034709863 -0.23638177 1.4450001 0.6139515638 0.02840282209 0.7888325453
0.074848048 0.10280085 1.0628334 -0.1126319319 0.8288496137 0.548016727
-0.18536319 -0.074543558 1.2544446 -0.05981110036 0.7155737877 0.6959718466
0.3417685 -0.10269565 1.13 0.7686522007 -0.07041082531 0.6357799172
0.066936366 0.18514606 1.0612632 0.5763773322 -0.3220573664 0.7510447502
0.1345434 0.01735775 1.1950001 0.0494023487 0.7930962443 0.6070895195
-0.045232195 -0.023990568 1.2252223 -0.02810700797 0.7937292457 0.607621491
0.10692733 -0.48317266 1.3045001 0.605627656 -0.04387511685 0.7945376635
0.47895455 -0.14315616 2.016 -0.05017632246 0.7590395212 0.6491081715
0.27698502 -0.2845147 1.2270001 0.778853476 -0.1334652454 0.6128411889
-0.024094807 0.052580718 1.1317143 -0.1623699814 0.7554734349 0.6347408295
0.3003197 -0.17492306 1.202 0.8700649738 0.0382945165 0.4914473295
0.36562872 -0.26519933 1.0837142 0.8676661849 0.02460295334 0.4965381324
0.27067083 -0.24217917 1.25 0.8050064445 -0.04304706678 0.5917022228
0.21839011 -0.2069321 1.307 0.7220713496 -0.1757923216 0.669111371
0.18452956 -0.31312954 1.302 0.5692905188 -0.1817742586 0.8017895222
0.34307459 -0.35544404 1.1325455 0.8996976614 -0.01751194708 0.4361622036
-0.064820334 -0.06259945 1.2675556 -0.1478719264 0.7352018356 0.6615226269
-0.10551823 -0.32850015 2.2710001 -0.002986619482 0.7802488208 0.6254621148
-0.012834137 -0.13594742 1.3555001 -0.2251279205 0.6821565032 0.6956866384
0.1744353 -0.36463091 1.2939445 0.4875063896 -0.171057567 0.8561990857
0.26379251 0.21035178 1.2970001 -0.3323816359 0.7170055509 -0.6127197146
0.085363343 -0.072980024 1.2951818 -0.009356891736 0.7156589031 0.6983873248
0.16475503 -0.27511179 1.3344584 0.523263514 -0.4134643972 0.7451459169
0.12526695 -0.053690299 1.2758126 0.0244319886 0.7306864858 0.6822758317
0.0094443299 0.38406941 1.197 0.5309464931 -0.3576591313 0.7682290077
0.021889489 0.0093812095 1.189 -0.09179514647 0.7611485124 0.6420487761
0.19582926 -0.285377 1.3049544 0.592543304 -0.3467494249 0.727088213
-0.094711915 0.037883215 1.1372001 -0.03154295683 0.7211847305 0.6920242906
0.074982852 -0.30435741 1.3746666 0.5703992844 -0.2195113301 0.7914918661
-0.0185415 -0.1940677 1.4100002 -0.1765272319 0.7481271029 0.6396436691
0.23780723 0.10148907 1.135 -0.8700202703 0.4868023694 0.07802663743
-0.0032401599 0.43958169 1.2320001 -0.4454933107 -0.5395872593 0.7144097686
0.014979895 -0.12259862 1.3490001 -0.03685075045 0.7274198532 0.6852024794
0.014458264 0.084182255 1.0918947 -0.04874266684 0.8463773131 0.5303485394
-0.22592956 -0.059474234 1.2410001 0.08513910323 0.7131875753 0.6957836151
-0.1351036 0.054236457 1.1248947 0.1660481989 0.6117780805 0.7734051943
-0.066057958 -0.14140795 1.3490001 -0.1763854176 0.742176652 0.6465771794
0.064831778 0.03189997 1.1738001 -0.06159002334 0.7982627749 0.5991520286
