# .PCD v0.7 - Point Cloud Data file format
VERSION 0.7
FIELDS x y z normal_x normal_y normal_z
SIZE 4 4 4 4 4 4
TYPE F F F F F F
COUNT 1 1 1 1 1 1
WIDTH 512
HEIGHT 1
VIEWPOINT 0 0 0 1 0 0 0
POINTS 512
DATA ascii
0.29561985 -0.49539694 1.3046666 0.5991200805 -0.2713381648 0.753279984
-0.48390931 -0.47409207 2.3330002 0.07953844965 0.979221046 0.1865471154
-0.22377191 0.27521676 1.5076154 0.8520977497 -0.2883157134 0.4368105829
0.43370014 -0.43370014 2.3010001 -0.3944637179 0.9084768295 0.1380879134
0.49817461 0.089067578 1.7220001 -0.8766288161 -0.1615476161 0.4532375634
0.19670208 0.075848319 1.077 0.08515311033 0.5212689042 0.8491334915
-0.12804155 -0.20941375 1.365 -0.07094946504 0.7178868651 0.6925349832
0.24096236 0.41901335 1.3540001 0.16851601 -0.5204209685 0.8371167183
0.015572813 -0.39473698 2.3170002 0.07940588146 0.9775021076 0.1954079866
-0.035426978 0.052883748 1.7570001 0.8473433256 0.5248811245 -0.08067876101
0.37161374 -0.12971424 1.3330001 0.3083275557 0.5413722396 0.7822085619
0.0061542001 -0.48125842 1.404 0.3674763143 -0.2663511634 0.891076982
-0.07629016 0.011340559 1.1760001 0.2411163002 0.3329273462 0.9116042256
-0.22401288 -0.33889127 2.184 0.07688576728 0.9770031571 0.1988804191
0.13391742 -0.20741627 1.4210001 -0.04689224809 0.6652719975 0.7451270223
-0.2020192 0.055064563 1.3870001 0.4684868753 -0.3879327476 0.7937431931
0.38672483 0.11332759 1.5090002 0.442274034 -0.7829641104 0.437448144
0.13599467 -0.061776072 1.245 -0.05321713537 0.7798746824 0.6236693263
0.26222152 0.22863115 1.2360001 0.3577320874 -0.4565653801 0.8146016002
0.42442191 -0.32512075 1.2541202 0.4858064055 -0.2697847486 0.8313894272
-0.2280473 0.077064261 1.794 0.7159386873 0.6850961447 0.1344433427
0.33101794 -0.035868816 1.169 0.1825098544 0.7806895971 0.5976737738
0.34183687 0.18793629 1.6880001 0.07995282859 0.9830536246 -0.1649641395
0.28464401 -0.31236908 1.3816668 0.5716941953 -0.3572073281 0.7386261821
-0.01170087 -0.30422261 1.483 0.2874522209 -0.269934833 0.9189702868
-0.024607802 -0.10501696 1.2851053 -0.1757239997 0.7463417053 0.6419463754
0.13352104 -0.37519524 1.4210004 0.04883155972 -0.3499601483 0.9354909658
-0.177525 -0.087666661 1.25 0.13010858 0.7031239271 0.6990625858
0.41691285 -0.47485068 1.2060001 0.5828760862 -0.277839601 0.7635840774
0.06883762 0.018955287 1.138 0.1061999127 0.6698088646 0.7348998189
0.22518536 -0.13534944 1.3358572 0.1051882878 0.7630822659 0.6376840472
-0.15330796 -0.38125268 2.3010001 0.07821456343 0.9775595069 0.1956013888
0.1644118 -0.49561816 1.3589998 0.2470574677 -0.5341336131 0.8084948063
0.0051253438 -0.18866149 1.3920001 -0.1189568937 0.7267271876 0.6765477657
-0.19553612 0.17030565 1.439 0.3103039861 -0.4975004196 0.8100646734
0.27597028 0.1228324 1.169 0.4904573858 -0.4492610693 0.7467369437
0.21415971 -0.0051197843 1.1668825 -0.01032767538 0.8259818554 0.5636020899
0.095913954 -0.13424022 1.3357275 -0.00134448288 0.761154294 0.6485694647
0.33452538 -0.38434032 1.3032501 0.6987791657 -0.1859864593 0.6907363534
0.36514786 -0.24486354 1.3244003 0.6908454299 -0.2434191108 0.6807934642
0.22573341 0.32433349 1.2948571 0.3444447517 -0.4286685884 0.8352251649
0.40385056 0.1851564 1.594 0.09300462157 -0.7136915922 0.694258213
0.2946876 -0.083894297 1.2655385 0.1175419837 0.7772098184 0.6181656718
0.23788089 -0.41500083 1.3590001 0.5164281726 -0.2903890312 0.80559057
0.014214274 -0.038824059 1.21 -0.01205151901 0.80750525 0.5897372365
0.19549391 -0.29367572 1.4330003 0.3762175143 -0.3347786963 0.8639349341
-0.1872858 -0.033234432 1.3380002 0.5427022576 -0.3916933835 0.7430010438
0.025160693 -0.37563065 1.4224119 0.1502320915 -0.363119483 0.9195513129
-0.11450385 -0.13509324 1.3044999 -0.0992821455 0.7642655373 0.6372136474
0.29042652 0.040364362 1.123 0.3132744431 -0.1586502492 0.9363168478
-0.08531446 -0.063540854 1.2256666 -0.03514360636 0.7218830585 0.6911221147
-0.05276306 -0.24245882 1.4330001 -0.1969857216 0.7029157877 0.6834515333
0.094778188 -0.45294204 1.3920001 0.08905296773 -0.4747305214 0.8756143451
-0.15216491 -0.024691066 1.1947144 0.1566421986 0.4500233531 0.8791713119
0.39542624 -0.40453139 1.2437826 0.6888281107 -0.1829031706 0.7014715075
0.054469049 -0.081147775 1.268 -0.01229508314 0.8003240824 0.5994415879
0.22523941 -0.053876698 1.2347693 0.05048715323 0.8171547055 0.5742031336
0.055855647 -0.23137541 1.4370002 -0.03269232437 0.7042595744 0.7091894746
0.35622606 -0.47540292 1.2576821 0.5913720727 -0.1970423162 0.7819548845
0.1342165 -0.006180793 1.1746669 -0.01329785865 0.8256039023 0.564093411
0.20584123 -0.1862392 1.3976251 0.126682654 0.6959896088 0.7067884803
-0.054482076 -0.1648023 1.3468574 -0.08154401183 0.7494698167 0.6569973826
0.1250046 0.063957393 1.1053998 0.1936528385 0.5437600017 0.8165926933
-0.0074125086 0.035377882 1.153 0.197497502 0.2450687438 0.9491764903
0.16480501 -0.10415107 1.3055001 -0.001778414939 0.784240365 0.6204546094
0.36458135 -0.31469363 1.2959135 0.5924091339 -0.2458754182 0.7672005892
0.20431945 -0.36063612 1.404 0.315772742 -0.2399539351 0.9179921746
0.28344387 -0.16213951 1.3700001 0.01350546163 0.8029549718 0.5958867073
0.087408043 -0.3247188 1.4450001 0.08386962861 -0.4615877867 0.883120954
0.1690152 -0.42800969 1.3870001 0.2999276817 -0.3566244543 0.8847951293
0.01407576 -0.14193058 1.3380001 -0.09113243967 0.7544460297 0.6500046253
0.23308294 -0.48493859 1.3443847 0.469977051 -0.2187446058 0.8551446199
0.42207906 -0.25749668 1.2858572 0.4094435275 -0.3847263455 0.8272494078
0.1555645 -0.15496618 1.365 0.05422536656 0.7215288877 0.6902577281
0.075610459 -0.17669888 1.3836666 -0.04414431006 0.7087849379 0.7040420175
0.24928017 0.16866189 1.21 0.4555336237 -0.3999924064 0.7952956557
0.084861338 -0.039248366 1.21 -0.07859618962 0.8074269295 0.5847088099
0.17441414 0.026766205 1.1249287 0.05034637079 0.7536334395 0.655363977
0.30514121 -0.12427065 1.3146471 0.2110212445 0.7804527879 0.5885264874
0.28504741 -0.046241973 1.2125 0.08900428563 0.8288373947 0.5523647666
0.31483999 -0.25652197 1.3727695 0.7258630395 -0.1726328433 0.6658234
0.23454043 -0.094179258 1.2850001 -0.01347850449 0.7841238976 0.6204579473
0.28974271 -0.36661321 1.3490001 0.5686187148 -0.2649480104 0.7787652612
0.28928277 -0.43663582 1.327 0.6098696589 -0.1770528853 0.7724708915
-0.21353628 0.11773853 1.41 0.215441376 -0.3880409896 0.8961077929
-0.22295921 0.21443906 1.4735001 0.3430010974 -0.4751318395 0.8103085756
0.00128344 -0.24513704 1.4640001 -0.1242469028 0.8039423227 0.5815835595
0.34050611 -0.081679031 1.21 0.6580867171 0.7138308287 0.2395149916
0.39259863 -0.18769704 1.3280001 0.07952524722 -0.3912558854 0.9168394208
0.25553957 -0.26918489 1.4150001 0.3383782506 -0.6538129449 0.6767782569
0.27540508 -0.0069091134 1.164294 0.3115312159 0.8073403835 0.5011484623
-0.17050114 -0.14340162 1.2880001 0.09391574562 0.1476549655 0.9845699072
0.35067895 -0.097473063 1.2780001 0.009050738998 0.7808919549 0.6246005297
0.2370197 0.27146101 1.2673334 0.114849329 -0.428509146 0.8962084055
0.23361576 0.027888145 1.1190001 0.00514636701 0.775636375 0.6311590075
0.043263502 -0.43288222 1.4100001 0.368185848 -0.4008593261 0.8388986588
-0.045047518 -0.033527248 1.1950003 0.01390946284 0.7188022733 0.6950753927
-0.075388074 -0.20062955 1.3870001 -0.2020988315 0.7198781967 0.6640266776
-0.084991664 -0.10295633 1.2673333 -0.0646565482 0.7540018559 0.6536824107
0.21904218 0.37434193 1.322 0.2867940366 -0.5754645467 0.7658914924
0.053076908 -0.49819914 1.376 0.2712316513 -0.4018974304 0.8745923638
0.32525006 -0.31421855 1.3371176 0.6879850626 -0.3283127844 0.6472150087
0.14381365 -0.31664237 1.439 0.1584187448 -0.5449079871 0.8233946562
0.17444789 -0.03066054 1.2060001 0.03176663071 0.8086628318 0.5874140859
-0.0057935389 -0.42104846 1.4354001 0.4681858122 -0.2571775019 0.84537673
0.39471084 0.14384326 1.55525 0.6258755922 -0.6807295084 0.3806403279
0.43664837 -0.4070451 1.2060001 0.4661458433 -0.295381844 0.8339409828
-0.020670922 -0.068540432 1.2410001 -0.1713265926 0.7544905543 0.6335544586
0.10449221 -0.095340125 1.2865297 -0.06757481396 0.8005301356 0.5954705477
0.258863 0.063782759 1.1610001 0.6561600566 -0.3315056562 0.6779070497
0.38055485 -0.36158293 1.273 0.6283965707 -0.2403147519 0.7398422956
0.025462555 -0.0054726484 1.1658697 0.06242023408 0.7200559974 0.6911028028
0.078150451 -0.37834743 1.4150001 0.1092208028 -0.353358686 0.9290901423
-0.17649591 0.014807275 1.3590001 0.3850391209 -0.4138971865 0.8248842359
0.017101577 -0.32746348 1.4450001 0.6957885623 -0.1457850784 0.7032957673
0.18482004 -0.075335667 1.2657777 0.02208564058 0.8107204437 0.5850167274
0.33745548 -0.43510926 1.286077 0.7204024792 -0.1671970934 0.673101306
0.23637356 -0.31562769 1.3980001 0.4525259435 -0.3621244133 0.8149148226
0.027394079 -0.1084349 1.302 -0.09002833813 0.7503657341 0.6548634768
0.10251302 -0.49820527 1.3650001 0.05509312078 -0.4032571018 0.9134267569
-0.13385911 -0.17847881 1.322 -0.6956000924 0.4298796356 0.5756248832
0.24578227 -0.36490375 1.376 0.4001950026 -0.258589685 0.8791901469
-0.13514163 -0.065102845 1.2254001 -0.08167362213 0.7068003416 0.7026824951
-0.065259069 -0.13281235 1.306 -0.1180089787 0.7552367449 0.6447412968
-0.1340677 -0.1048151 1.2663528 -0.09740502387 0.7380155921 0.6677164435
0.12509534 0.02485322 1.13432 0.08363484591 0.74306494 0.6639726162
0.38528711 -0.43773457 2.3010001 -0.2948287129 0.9446907043 0.1436506957
0.19984055 -0.4571203 1.365 0.3628754318 -0.4290573001 0.8271827102
-0.10478709 -0.031331189 1.1969999 0.06732805073 0.5658665299 0.8217432499
0.12414696 -0.41491279 1.3975 -0.09232406318 -0.2938787341 0.9513735175
0.24528044 -0.027296133 1.1933635 0.09027806669 0.8092325926 0.5805105567
0.035722412 0.050611719 1.1320001 0.2445932478 0.3704944849 0.8960513473
-0.014533672 -0.21800508 1.4210001 -0.1431900263 0.7693548203 0.6225670576
-0.18148577 -0.10158638 1.302 0.6919274926 0.1689502001 0.7019203305
-0.025346324 -0.0039306507 1.1662633 0.04561376944 0.5902997255 0.8058943152
-0.0076375199 -0.36660096 1.452 0.558388114 -0.4818385243 0.6753031611
0.41933772 -0.36732686 1.2360001 0.524989903 -0.3500933647 0.7757707238
0.075582929 -0.012645915 1.1751819 -0.06263441592 0.781213522 0.6211138368
-0.18060298 -0.055570148 1.2190001 0.2065950185 0.534108758 0.8197843432
0.36845422 0.20994939 1.5860001 -0.3347845674 -0.5470266938 0.7672556043
0.03500155 -0.16522789 1.3700001 -0.1181862131 0.6776356101 0.7258387804
0.044911634 -0.1990121 1.4100002 -0.1273652315 0.730166316 0.6712937355
0.31137952 0.0047548204 1.143 0.1259372532 0.5766316652 0.8072395921
0.1451153 -0.46456015 1.3820004 0.1767847836 -0.3188697994 0.9311655164
0.3980796 -0.29414281 1.278 0.5049911737 -0.2686450779 0.8202522397
0.23482943 -0.16498828 1.3736926 0.0208125636 0.7165826559 0.697191596
0.38605812 -0.4552882 1.2338336 0.6644334793 -0.1751089543 0.7265431881
-0.094828077 -0.17722343 1.3567274 -0.1702074856 0.7130489349 0.6801401973
0.36413381 -0.40367195 1.2729999 0.6070172191 -0.2316036373 0.7601906657
-0.025512097 -0.13683473 1.3227501 -0.1688019782 0.7470596433 0.6429679394
-0.23430143 0.24507391 1.536 0.8520977497 -0.2883157134 0.4368105829
0.044738054 -0.056827281 1.2346667 -0.0001436223829 0.8231406212 0.5678375959
0.11567836 -0.16508467 1.3745003 -0.08143251389 0.7287610173 0.6799089313
0.050430249 -0.37721828 2.3010001 0.07940588146 0.9775021076 0.1954079866
0.25977826 -0.12122985 1.317 0.04219068587 0.7405061722 0.6707239151
0.085261762 0.054924458 1.1148399 0.08665303141 0.4880240858 0.8685181141
0.094283305 -0.063766547 1.2433333 -0.08853253722 0.8002974987 0.5930311084
0.1649126 0.055932011 1.096591 0.1753672361 0.5599122047 0.8097805977
0.053365912 -0.12971424 1.3330001 -0.06945809722 0.7986921668 0.5977176428
0.164479 -0.18463288 1.3961539 0.09515795857 0.7047946453 0.7030003667
0.14529552 -0.12815611 1.3330001 -0.003094487824 0.81688869 0.5767870545
0.1654533 -0.38789606 1.3980001 0.339251399 -0.3465545774 0.874533236
0.12520979 -0.031566761 1.2060002 -0.07764881104 0.7779581547 0.6234996319
0.20531885 -0.40412965 1.3817502 0.3923134804 -0.2522932589 0.8845553994
0.32552505 -0.4749777 1.2852731 0.6298291087 -0.2405997217 0.7385303378
0.35290128 -0.28394356 1.322 0.7414113283 -0.2682849467 0.6150873303
-0.013871788 -0.1655324 1.3562224 -0.2425914109 0.6967824101 0.6750138402
0.38504711 -0.49514374 1.2248945 0.6831678748 -0.2185120434 0.6968027949
-0.034516681 -0.1931017 1.3837273 -0.08745199442 0.7740727663 0.6270275116
0.094138905 -0.21377665 1.4150001 -0.02120190114 0.6480272412 0.7613220215
0.16746524 -0.34733534 1.4150001 0.3483998179 -0.4258021116 0.8350510001
0.19610278 -0.15178308 1.3590001 0.07038326561 0.7246391773 0.6855248213
0.26488081 -0.063224152 1.2434 0.1021252573 0.8174315095 0.5669004917
0.3968299 -0.2264871 1.307 0.4376656115 -0.4385052025 0.7849598527
0.01424408 -0.082539275 1.2676363 -0.05394033343 0.7723175883 0.6329423785
0.17467697 0.0016014195 1.1632859 0.05075303093 0.8239485621 0.5643872023
0.31577152 -0.063371606 1.2356668 0.1151276082 0.8370881081 0.5348168612
0.27565771 -0.40494284 1.3471056 0.5737808347 -0.2495123893 0.7800763845
0.26775891 -0.47759151 1.3268001 0.3940070271 -0.3205934167 0.86138165
0.23156361 0.060035009 1.087 0.01304970309 0.6234329343 0.7817679048
0.33577955 -0.3449024 1.3154092 0.7016453743 -0.2209447771 0.6774047613
0.085177809 -0.41485882 1.3979999 0.1723494232 -0.270588696 0.9471417069
0.055418264 -0.34511492 1.4367499 0.1294732243 -0.2463691682 0.9604889154
0.343741 -0.12260096 1.307 -0.2210286409 0.8384508491 0.4981430769
0.075623021 -0.11114293 1.307 -0.03086528368 0.8042387366 0.5935043693
0.20243284 -0.10926773 1.312 0.08056852221 0.7899858952 0.6078083515
0.18560329 -0.052710328 1.2347693 0.05336650833 0.8014585376 0.5956645012
0.1438833 -0.082565211 1.2751428 -0.06287447363 0.8071476817 0.5869918466
0.41534323 -0.43545926 1.2174616 0.4786341488 -0.2061116248 0.8534795642
0.054757264 -0.46515295 1.3932501 0.2770248055 -0.2751446068 0.9206262827
-0.22076659 0.14002909 1.439 0.4931864142 -0.3924608827 0.7763643265
-0.054791663 -0.079995833 1.25 -0.1323523968 0.7735475302 0.619763732
0.31328297 -0.29270059 1.365 0.657669425 -0.3251189291 0.6795355678
-0.18853551 0.088148393 1.3965001 0.3838310838 -0.4968656003 0.7783304453
0.26449102 0.016771713 1.1358463 -0.01211141702 0.6439944506 0.7649343014
0.044972125 -0.02823831 1.1930001 0.0330895409 0.7750460505 0.6310378313
0.25487193 -0.44507259 1.3466671 0.3382877409 -0.3369055092 0.8786672354
0.24448654 0.19580701 1.2340001 0.5195951462 -0.3663553596 0.7718838453
0.36695185 -0.16433226 1.3437501 0.1293326914 -0.0899797827 0.9875103235
0.30729926 -0.39519325 1.3250002 0.6607866287 -0.2163520306 0.718716085
0.30412105 -0.14558241 1.3438572 0.1345895976 0.7717912793 0.6214690804
0.33449435 -0.24616146 1.3435001 0.6864504814 -0.2651388645 0.6771167517
0.19599634 -0.32500669 1.4150003 0.3966437876 -0.4555220604 0.7969776392
0.11481518 -0.34445933 1.423625 0.1124005914 -0.4667121768 0.877237618
-0.085246295 -0.15302938 1.3280001 -0.08208283782 0.7814475298 0.6185483932
0.28433204 -0.27466971 1.3942859 0.5876372457 -0.3550879955 0.7270453572
0.26490697 -0.14517172 1.3447145 0.09773866087 0.7240632772 0.6827734113
0.41999346 0.17511591 1.6240001 -0.134490177 -0.736002326 0.6634854674
0.49190468 0.065893769 1.748 0.607601285 0.7794612646 0.1525150836
0.10422164 0.005963183 1.1554444 -0.119584389 0.760707438 0.637984097
0.28274429 0.085331336 1.1467501 0.5272525549 -0.332724154 0.7818563581
0.19986336 -0.49551916 1.3490001 0.2873825431 -0.2826024592 0.915176034
0.25367641 0.13744183 1.1945 0.4074023962 -0.4085587859 0.8167637587
0.39150706 -0.26366803 1.302 0.4932916462 -0.3347175717 0.8028869629
0.075057566 -0.15178308 1.3590001 -0.05240990967 0.7515603304 0.657579124
-0.096854135 -0.22760721 1.381 -0.6150701642 0.6212353706 0.4855464101
-0.0192516 -0.27337271 1.4640001 -0.5403612256 0.1856733263 0.8206918836
0.37121573 -0.43659404 1.2640001 0.5928187966 -0.1756200343 0.7859538794
0.29523641 -0.02511212 1.1864288 0.4398263097 0.8018274307 0.4045065939
0.20542787 0.045340542 1.104652 0.03596806154 0.7294850945 0.6830503941
0.2741712 -0.34534353 1.3725716 0.5424042344 -0.3200685382 0.7767585516
0.31717974 -0.053741418 1.202 0.6202412248 0.7522603869 0.2222727537
-0.21426746 0.24535771 1.4864286 0.6603308916 -0.3948591948 0.6387873888
0.12537034 -0.10926773 1.312 -0.07167992741 0.7930343747 0.604945004
0.015452206 -0.22561695 1.436273 0.0062121558 0.8016493917 0.5977621675
0.31479093 -0.10219988 1.2861819 0.08178823441 0.7623695135 0.6419528127
-0.074197233 -0.22507101 1.410625 -0.1228629947 0.7186311483 0.68445158
-0.0024809667 -0.45029545 1.4150001 0.4441064596 -0.3203850985 0.8367334604
0.24193773 0.35799542 1.3030001 0.3517216444 -0.3754626513 0.8575078249
0.3003127 -0.33434021 1.3540001 0.665599227 -0.3070474565 0.6802201867
0.20462723 0.016535217 1.1364001 0.01989768818 0.7892861366 0.6137030721
-0.0048244554 -0.023175323 1.1868182 -0.03898266703 0.7338699698 0.6781705022
-0.044847056 0.02344382 1.1626667 0.2259451598 0.3606129885 0.9049348235
0.24664365 0.30394313 1.278 0.1494506449 -0.4120540619 0.8988192081
-0.004518121 -0.33513871 1.4717501 0.5468429923 -0.2623505294 0.7950691581
-0.10530765 -0.082770482 1.2441111 -0.005719908047 0.7303104997 0.6830914021
0.3068448 -0.45583364 1.3048124 0.639230907 -0.2222222388 0.7362073064
0.22470196 -0.27713889 1.424 0.439345926 -0.3894779682 0.8094949722
0.21499686 -0.033170842 1.2049334 0.05194478482 0.812756896 0.5802826881
0.32090208 -0.42211851 1.312 0.6130731106 -0.2298341841 0.7558555007
-0.052964874 -0.058540124 1.223 -0.08980251849 0.7314048409 0.676004827
-0.22044265 0.186037 1.4535 0.3254413903 -0.3794706166 0.8660773635
0.18440457 -0.12690958 1.3330001 0.01219396014 0.7805837393 0.6249322891
0.25742528 0.094263576 1.1730001 0.5565615892 -0.3117213249 0.7701097727
0.21734817 0.39814723 1.3450001 0.1229864135 -0.5180255771 0.8464773297
0.2752876 -0.10292877 1.2949166 0.1890309006 0.7814998031 0.5945799947
0.016126283 -0.40563807 1.4150001 0.331911087 -0.2513943315 0.9091951847
-0.14566702 -0.1620909 1.2970001 -0.5801076889 0.220111087 0.7842360735
0.39171484 -0.331451 1.273 0.575391531 -0.2516943812 0.7781866789
0.13469951 -0.49309397 1.3718752 0.0397461094 -0.5167422891 0.8552178741
-0.074675344 -0.023271117 1.1885556 0.09987410158 0.5962360501 0.7965725064
-0.0011501866 -0.11846922 1.312 -0.196937412 0.7775514722 0.5971845388
0.078409068 -0.47889844 1.376 0.288718313 -0.3428914845 0.89390558
0.02489241 0.022733113 1.1428462 0.193002969 0.5043988228 0.8416244388
-0.12265063 -0.0066015921 1.189 0.1115198657 0.3999799788 0.9097138643
0.22925819 0.24571541 1.25125 0.2737811208 -0.4487732351 0.8506741524
0.10527012 -0.18616475 1.3952001 -0.03684313595 0.7498110533 0.6606254578
0.30521724 -0.02299989 1.1560767 0.318480283 0.755531013 0.572488606
0.23504499 0.0063239131 1.1466473 0.07060552388 0.8180213571 0.5708379149
-0.044087566 -0.21714157 1.41 -0.1692663133 0.7298676968 0.6623005867
0.10507069 -0.015756182 1.1846665 -0.1532723457 0.7824144363 0.6036019325
-0.024068885 -0.24364465 1.4450001 -0.24648422 0.8096527457 0.5326424241
0.35836947 -0.34372127 1.2855 0.5764075518 -0.1718420088 0.798889637
0.2174335 -0.071742013 1.2590001 0.05089848861 0.8146352172 0.5777359009
0.015251371 -0.064277202 1.2426667 -0.05059468001 0.805400908 0.590567112
0.10411269 -0.39485481 1.4119444 0.001150284312 -0.426751852 0.9043680429
-0.16325769 -0.10846427 1.2755001 0.3133621812 0.7295556068 0.6079084873
0.32486257 -0.08130762 1.2589999 0.0559861809 0.7824302316 0.6202164292
-0.0553369 -0.10480796 1.2751876 -0.1740444452 0.7310538888 0.6597490311
0.25546679 -0.081083775 1.267 0.05389563739 0.796300292 0.6024957299
-0.12304981 -0.38528711 2.3010001 0.07821456343 0.9775595069 0.1956013888
0.0013027266 -0.26835907 1.4860001 -0.03592047095 0.2320912182 0.9720305204
0.31421408 -0.35427547 1.3347648 0.6539187431 -0.1735635847 0.7363871336
-0.19984055 -0.00358995 1.365 0.4928847253 -0.4041858315 0.7705183029
0.15482211 -0.043674946 1.225 -0.009125098586 0.7963631153 0.6047499776
0.27037013 0.19128954 1.2190001 0.4700716138 -0.3780931532 0.797545135
-0.11542344 -0.15467407 1.3279999 -0.2869455516 0.6482803822 0.7052621841
-0.024151666 -0.04588135 1.2130001 -0.09446053207 0.79790169 0.5953403115
0.11602313 -0.076568455 1.2657778 -0.08272832632 0.772738874 0.6293096542
0.084381357 -0.082163386 1.2665 0.007713685278 0.7997952104 0.6002233624
0.25612137 -0.042033833 1.219 0.08332209289 0.8109017611 0.5792199373
0.35572436 -0.37464443 1.2845002 0.6087110043 -0.1953244209 0.7689728737
-0.17934583 0.072222427 1.3730001 0.5441709757 -0.3040919006 0.7819246054
0.15449788 0.013464999 1.1447897 0.07440949976 0.808424294 0.5838778615
0.13481379 -0.18212119 1.398 -0.08436892182 0.7144183517 0.6946138144
0.39811596 0.15711445 1.5860001 0.4181255698 -0.6732453108 0.6098456979
0.16544192 -0.29718739 1.4450001 0.3513173759 -0.6059636474 0.7137115598
0.11620626 -0.46763971 1.3760002 -0.06273700297 -0.4159813225 0.9072064757
0.32851461 -0.27508771 1.3467501 0.7779156566 -0.1725004464 0.6042274833
-0.17531539 -0.0062258174 1.3380001 0.4699240923 -0.4253697991 0.7734544873
0.2254483 -0.44563857 1.3559046 0.505591929 -0.2946628034 0.8108949661
0.053234708 -0.098540843 1.2920001 -0.01762314886 0.7958034873 0.6052984595
0.054422647 -0.40570843 1.4109374 0.190719232 -0.3822164536 0.9041773677
0.16319238 -0.20554765 1.4210001 0.04400185868 0.6774876714 0.7342167497
0.026962759 -0.45714137 1.3980001 0.2593057752 -0.3185152411 0.9117612243
0.33630562 -0.49521375 1.2670586 0.6617862582 -0.2298116386 0.7136004567
0.26445964 -0.38455981 1.3649999 0.4343090653 -0.3382313848 0.8348503709
-0.2034305 0.035899498 1.365 0.2907994986 -0.4831555486 0.825830698
0.12452786 -0.44365415 1.3926002 0.02429469489 -0.3546938598 0.9346668124
-0.10471286 -0.11597335 1.2843336 -0.05154869333 0.7652549744 0.6416599751
0.093777031 0.027836973 1.126 -0.01381132659 0.6309388876 0.7757096291
0.19559091 -0.091778077 1.2871667 0.0445285067 0.7592055202 0.6493259668
0.19455628 -0.01689701 1.1847894 0.08218537271 0.8384680152 0.5387178659
0.23226759 -0.34372348 1.3920001 0.5466588736 -0.2587315142 0.7963806391
0.014866623 -0.2081245 1.413125 -0.06074243411 0.7466104627 0.6624825597
-0.014411697 -0.086042382 1.2648 -0.1838387251 0.7636668086 0.6188831925
0.36839986 -0.28596473 1.2970001 0.5542391539 -0.3867492974 0.7370508313
0.12620081 -0.14592879 1.3555001 -0.1009648293 0.7462169528 0.6580017805
0.14513355 0.043023244 1.1131364 0.1545380652 0.6606119871 0.7346494198
0.39631796 0.13444692 1.5260001 0.442274034 -0.7829641104 0.437448144
0.42272604 -0.29690158 1.2590001 0.5015979409 -0.2393375635 0.8313344717
-0.10908714 -0.19354171 1.3380001 -0.7450019717 0.258110553 0.6151024103
0.052926119 0.00101781 1.161 0.00453644339 0.6969985366 0.7170582414
-0.054589156 -0.0072121029 1.1748668 0.1271701157 0.5206801891 0.8442273736
0.033355415 -0.48528051 1.3920001 0.2945303023 -0.356782347 0.8865428567
0.25552443 -0.29470757 1.396737 0.1762293577 -0.3598108292 0.9162310958
0.42182079 -0.39517948 1.2320002 0.4513255656 -0.2925406694 0.8430451751
0.39527008 -0.37491274 1.2530003 0.5914382935 -0.3226293623 0.7389932275
0.18335658 -0.17008735 1.376 0.009409410879 0.7582361698 0.6519120932
0.17460164 -0.46577698 1.3736001 0.2970421612 -0.3837506771 0.8743577003
0.0045165867 -0.10049405 1.2880001 -0.1061411798 0.7682199478 0.6313257217
0.38675728 0.18275344 1.6160001 -0.134490177 -0.736002326 0.6634854674
-0.14516285 -0.09059035 1.245 -0.1113282517 0.7062488198 0.6991556287
0.085741848 -0.34595057 1.427 0.1070895866 -0.4126697779 0.904563725
0.013709312 -0.29545838 1.4756001 0.4090841413 -0.2755178213 0.8699080944
-0.46515319 -0.46109071 2.3170002 0.07901854813 0.9785795212 0.1901006252
0.22348884 -0.3830823 1.3817501 0.3917593956 -0.3440121114 0.8533347845
0.34460428 -0.31484962 1.3150953 0.7110285163 -0.2966929376 0.6375043392
0.25497651 0.25567162 1.253 0.256890744 -0.444468081 0.8581697345
0.11624932 -0.3154557 1.4381999 0.1377520412 -0.5267399549 0.8387904763
0.24412556 -0.008843638 1.1730001 0.101405859 0.7972186208 0.5951128602
-0.19690654 0.13501456 1.4234 0.3951547742 -0.4571394026 0.7967912555
0.26450855 0.045363411 1.1414446 0.3560223877 -0.4636485577 0.8113433719
-0.13549761 -0.12157145 1.2880001 -0.1616088897 0.7196587324 0.6752583981
-0.014444431 -0.39512494 1.4371539 0.4734570384 -0.1987413615 0.8581027389
-0.13542539 -0.042963203 1.2060002 0.03055534512 0.5684021115 0.822183311
0.16492301 -0.015365726 1.1856666 0.06276977062 0.826315701 0.5596984029
0.3780506 -0.2139428 1.322 0.3452318609 -0.1742606759 0.9221974611
-0.19730259 0.14383996 1.452 0.4865467548 -0.3058196604 0.818380475
0.15344471 -0.4139725 1.4040002 0.215574652 -0.2218777686 0.950945735
-0.065416865 -0.18149191 1.3649999 -0.07308518142 0.7643298507 0.6406702995
0.07367456 -0.19429688 1.4040002 0.009738939814 0.7476103306 0.6640662551
-0.17751712 0.04169865 1.3590001 0.2134154588 -0.4049612582 0.8890783191
-0.00304291 0.0091287298 1.1570001 0.07007832825 0.5824340582 0.8098515868
0.015032787 -0.35550433 1.4370002 0.3901029527 -0.5134927034 0.7642937303
0.21779345 -0.30639938 1.4150001 0.4975050688 -0.4265479445 0.7553446889
0.43332317 -0.45374295 1.21 0.4120668769 -0.2721966207 0.8695458174
0.23718129 -0.11114293 1.307 -0.03206456453 0.7500664592 0.6605846882
0.3419973 -0.057522483 1.1930001 0.1989405304 0.7081363797 0.6774699688
-0.21137311 0.0902353 1.4100001 0.0164162498 -0.4212272763 0.9068065286
0.1062032 -0.047201484 1.2236668 -0.1009719446 0.7985842228 0.5933530927
0.16763444 -0.31650385 1.427 0.3548223972 -0.399285078 0.8453830481
0.3670449 -0.49535733 1.2446001 0.6665927172 -0.2345251739 0.7075676918
0.1866511 -0.1990121 1.4100001 0.05840467662 0.6993287802 0.7124100924
0.19381331 -0.38396043 1.3936365 0.3230274022 -0.294395566 0.899435699
0.28672367 -0.0017957641 1.138 0.2975769043 0.6342089176 0.71360147
0.28907996 0.059016325 1.141 0.4422568083 -0.2936757207 0.8474452496
0.20501432 -0.43414754 1.375625 0.340813756 -0.2817286849 0.8969252706
-0.16242617 -0.072069891 1.2270001 0.1097154841 0.6775062084 0.7272880077
-0.11007164 -0.060913429 1.2190001 0.003800955368 0.6859822273 0.7276083827
0.24118021 0.39573303 1.3355 0.1941380799 -0.5298745632 0.8255563974
0.044584345 -0.18198518 1.3870001 -0.09466808289 0.7324249744 0.6742340922
0.25444692 -0.32472339 1.3821251 0.229203254 -0.4255751967 0.8754150867
-0.14010623 -0.19191022 1.3430001 -0.1576053351 0.5790429115 0.7999186516
-0.074674465 -0.04314778 1.2045715 -0.005685068201 0.6923866868 0.7215042114
-0.039796282 -0.12166292 1.2970001 -0.1649683267 0.7535236478 0.6363863349
0.14511639 -0.34527698 1.427 0.04055694491 -0.3248444796 0.9448974729
0.061531045 0.050701577 1.123 0.1851698011 0.4654586613 0.8654827476
0.054654278 -0.045078255 1.2145 -0.01235175785 0.8361783624 0.5483185053
0.045106255 -0.14837584 1.3540001 -0.05562802032 0.7739614844 0.6307845116
0.24797744 -0.4971191 1.3280001 0.3991287649 -0.2161407471 0.8910552263
-0.090172179 -0.12898046 1.302 -0.07975436747 0.758017242 0.6473399997
0.01072251 -0.16083765 1.3590001 -0.1257764101 0.7264774442 0.6755818129
0.25089762 0.039717384 1.105 -0.1735354662 0.7123020887 0.6800817847
0.43231082 -0.34641257 1.2434 0.5348781943 -0.32755059 0.7788555026
0.064932168 -0.43492985 1.3975202 0.1761888117 -0.2257996947 0.9581085443
0.34222621 -0.40568662 1.292625 0.7081096768 -0.1497086585 0.6900492907
0.40540156 -0.34552389 1.2575265 0.4897457659 -0.2617810369 0.8316367865
-0.015087432 -0.2034691 1.3953334 -0.1573651731 0.7588369846 0.6319831014
-0.094216235 -0.0051767165 1.1809999 0.1574908644 0.3890140653 0.9076699018
0.32160956 -0.37434193 1.322 0.6619766355 -0.2613144517 0.702496767
0.36789143 -0.18860257 1.3280001 0.1002748832 -0.3921913207 0.9144019485
-0.10171525 -0.20941375 1.365 -0.6619036794 0.3784871995 0.6470170021
0.16487661 -0.065050557 1.2556523 0.00217195251 0.7929022908 0.6093448997
0.13483879 -0.097446322 1.2924999 -0.04681342468 0.7919331193 0.6088107228
0.054859001 -0.37528124 1.4222001 0.1221111491 -0.4227190018 0.897996366
0.28822696 -0.061762918 1.2360001 0.08152665198 0.8188630342 0.5681695938
0.27342972 0.15190092 1.1950001 0.4345239997 -0.3686698079 0.8217490315
0.25967306 -0.15915444 1.365 0.03376270086 0.7763725519 0.6293693185
0.13689677 -0.39509964 1.4040002 0.1888268441 -0.3391358554 0.9215916991
0.27479908 -0.45551431 1.3344285 0.4756055772 -0.2198490947 0.8517427444
-0.03510173 -0.17750306 1.3649999 -0.1137046888 0.7533910871 0.6476674676
-0.12037773 -0.22981203 1.3870001 -0.5613192916 0.616907537 0.5516754389
0.25503957 0.11722386 1.1810001 0.5434864759 -0.4158483148 0.7291725874
0.24232467 -0.39372852 1.3706666 0.4732938707 -0.3310660124 0.8163260221
-0.054844055 -0.14446124 1.3244708 -0.1571224332 0.7634202242 0.6264998317
0.2892198 -0.46702355 1.317 0.6642204523 -0.2195842713 0.7145586014
0.2863965 -0.13155611 1.3280001 0.09016577154 0.7648314834 0.6378894448
0.20748246 -0.17008735 1.376 0.09036561102 0.7388034463 0.6678349972
0.034731779 -0.090750776 1.2780001 -0.07449387759 0.7878132463 0.6113926172
-0.12205333 -0.17228751 1.3430001 -0.7370348573 0.2859466672 0.6123840213
0.30116612 0.016263921 1.1245 0.183020696 0.441881001 0.8782052994
0.39284208 -0.43425596 1.2431818 0.6772275567 -0.2621775568 0.6874778271
-0.07487382 -0.11558365 1.2850001 -0.1097129583 0.7864522338 0.6078289151
0.063714884 -0.068411306 1.25 0.02333649807 0.8113339543 0.5841169357
0.14493278 0.071848728 1.0948571 0.2280151695 0.490383178 0.8411500454
0.034690574 -0.21638009 1.4234002 -0.08857999742 0.7161080837 0.6923458576
0.015096973 -0.43435141 1.414412 0.3492631912 -0.2959074378 0.8890748024
0.21470872 -0.47440574 1.3550869 0.3370100856 -0.2368366867 0.9112258554
0.34542716 -0.45505524 1.2760001 0.7250714898 -0.1799650341 0.6647434831
0.035244334 -0.073795162 1.2563334 -0.04257956147 0.7930956483 0.607607007
0.14773631 -0.43834516 1.3870001 0.2732771635 -0.4490409493 0.8506948948
0.16483088 -0.1369666 1.3430001 0.05829234049 0.766880095 0.6391376257
0.18474121 -0.40570116 1.3956001 0.3444242477 -0.3215280175 0.8820383549
0.17481937 0.074637115 1.0860869 0.1647440195 0.4955216944 0.8528292179
0.064778656 -0.20803913 1.4210001 0.002529444871 0.6954851151 0.7185360193
0.21884844 0.35519904 1.307 0.4139288962 -0.3750323653 0.8294658661
0.14481306 -0.02203677 1.197 0.003232745221 0.7879801989 0.6156920791
0.24533179 -0.46469566 1.3377618 0.2956152856 -0.2635841668 0.9182237983
0.22542889 -0.016626276 1.1849999 0.04079296812 0.7952990532 0.6048432589
0.07581751 -0.094018452 1.2849231 0.03717282414 0.7956421375 0.6046253443
0.20530804 -0.045963783 1.2240001 0.06227345765 0.8173988461 0.5726964474
0.21416612 -0.33478847 1.4039999 0.3394495547 -0.2951059937 0.893132925
0.075290874 0.0036669872 1.1547499 0.04940838367 0.7305290103 0.6810919046
0.40767896 -0.41520858 1.2270001 0.5709485412 -0.2697972357 0.7753884196
0.025222976 -0.12674893 1.324182 -0.05033343658 0.789655149 0.6114828587
0.30227378 -0.31328297 1.365 0.6755977869 -0.3618603051 0.6423587203
0.16469553 -0.087314725 1.2843636 0.009107601829 0.7719289064 0.635643661
0.26460415 -0.018784087 1.1810001 0.08817304671 0.7904147506 0.6061930656
0.40506646 -0.24538809 1.2958891 0.3799703121 -0.3287470937 0.8646085262
0.26232848 -0.42257437 1.3540001 0.4224002361 -0.2902568579 0.8586786389
0.11478034 -0.1244434 1.3266156 -0.05548026785 0.7826574445 0.6199752092
0.013337023 0.042678472 1.1409999 0.3100206256 0.2565298676 0.9154669046
-0.0057586641 -0.053397048 1.2248183 -0.09687950462 0.7791574597 0.6192963719
0.13502558 0.0072337529 1.1555713 0.03993865103 0.804641664 0.5924159884
0.10326958 -0.14837584 1.3540001 0.0002831395832 0.7812263966 0.6242477298
0.18337096 -0.44506338 1.3810003 0.2017903477 -0.2388721555 0.949853003
0.10464243 -0.36500275 1.421 0.1274860054 -0.2939997613 0.9472652674
0.29137012 -0.41407275 1.3330001 0.5816320181 -0.2605622113 0.7705916762
-0.02316767 0.019138509 1.149 0.1560282707 0.35285303 0.922577858
0.033919111 -0.33793482 1.4330001 0.280080229 -0.1683458388 0.9451003671
0.2246511 -0.18215431 1.3852 0.05946331099 0.7081210613 0.7035827637
0.14528121 -0.16747694 1.381 -0.01186828129 0.7620934844 0.6473581791
-0.13154945 -0.14675821 1.3140001 -0.6121447086 0.49444291 0.6170940399
0.074657112 -0.056266397 1.2342001 -0.007275063545 0.8100124002 0.5863676667
0.30887744 -0.042449076 1.1810001 0.488090992 0.773245275 0.4047949314
0.30266914 -0.27603427 1.381 0.6611204743 -0.3287846744 0.6744036674
0.38201976 -0.39310083 1.2640001 0.6513248682 -0.2096465677 0.7292628288
-0.084171206 -0.087584354 1.2505555 -0.07596477121 0.7438206077 0.6640483737
0.42257184 -0.27615651 1.268 0.4552167058 -0.3819943964 0.804274857
-0.034166329 -0.01863618 1.181 0.03941298649 0.6738741398 0.7377942204
0.39465305 -0.47468838 1.2248666 0.5921475887 -0.2846571505 0.7538776994
0.22197025 -0.14837584 1.3540001 0.05856928602 0.7405096292 0.669488728
-0.035571624 -0.093153194 1.2679999 -0.1352905184 0.7553901076 0.6411569715
0.11520833 0.046714645 1.1160833 0.1306487173 0.538228631 0.8326108456
0.18847789 -0.47584119 1.3590001 0.3394221067 -0.3617362678 0.8682969213
-0.035633869 -0.15207748 1.3358573 -0.1428031325 0.7243668437 0.674462676
-0.014963199 -0.18284385 1.3734286 -0.2529637218 0.7204744816 0.6456979513
0.16457137 -0.11937219 1.322 -0.002737304429 0.7720070481 0.635608077
0.36044061 -0.11142959 1.2970001 -0.2257764488 0.8173754811 0.5300210714
-0.054631863 -0.20579301 1.3937143 -0.1090629846 0.741582334 0.6619372368
0.014475521 -0.17491253 1.3760003 -0.06102557853 0.7222274542 0.688958168
0.28193337 0.10279881 1.161 0.5643196106 -0.3376869261 0.7533332109
-0.0058871084 -0.23169978 1.439 -0.1777621061 0.7855278254 0.5927450657
0.25373763 -0.1732772 1.3822 -0.002745615086 0.7534630299 0.6574845314
0.19534744 0.0040478618 1.1552221 0.06182907149 0.8301059008 0.5541672707
0.3715103 -0.26224256 1.312 0.6173895001 -0.3301693797 0.7140157223
0.27550927 -0.49603215 1.317 0.4848173857 -0.370303005 0.7923558354
0.044009037 -0.013543749 1.1752859 -0.005307211075 0.7645266056 0.6445703506
0.023798371 -0.051124066 1.2258574 -0.02553254738 0.8140301704 0.5802611709
0.3767226 -0.4160246 1.2575884 0.5954061151 -0.2176289707 0.7733881474
0.075275704 -0.12447838 1.3247272 -0.05191092938 0.7894995213 0.6115519404
0.345238 -0.26561195 1.3357083 0.6412391663 -0.2394785136 0.7290146351
0.17623392 -0.36444053 1.4040002 0.3419846296 -0.3480447233 0.8728753328
0.3352654 -0.10873473 1.2919999 0.00820744317 0.7307690382 0.6825754642
0.40546095 -0.31486449 1.2679999 0.4648003578 -0.2795039415 0.8401417732
0.0050273547 -0.3849192 1.4348751 0.4407770336 -0.1988447011 0.8753150105
-0.17953432 -0.1185604 1.2880001 0.6661664844 0.1529923379 0.729942143
0.32476404 -0.13409506 1.317 0.1408520192 0.7856836915 0.6023801565
0.3751671 -0.47487831 1.2444003 0.7282555699 -0.1919717789 0.6578682661
0.073401108 -0.45801932 1.3840001 0.1578005999 -0.4037870169 0.9011409283
0.23902754 0.2270216 1.245 0.3425728977 -0.3602000773 0.8676979542
0.044857275 -0.11731903 1.3120002 -0.07411185652 0.7840082049 0.6163104177
0.076129556 -0.22386613 1.4330001 0.1226272583 0.6005855203 0.7901009917
0.0044560963 -0.0089121936 1.1730002 0.05378559604 0.6832872629 0.7281659245
-0.23257966 0.25384408 1.516 0.8520977497 -0.2883157134 0.4368105829
0.034880813 -0.39614642 1.4210001 0.18863222 -0.261044085 0.9467174411
0.093680598 -0.15973744 1.3700001 -0.005603946745 0.707365036 0.70682621
0.0048770723 -0.31700966 1.464 0.6291777492 -0.2920691669 0.7202992439
0.15378554 -0.37504187 1.4128948 0.2878778577 -0.4005209506 0.8698903918
0.27531329 -0.03164012 1.1950001 0.09783861786 0.7918967605 0.6027662158
0.21555901 -0.084391318 1.2766666 0.08960429579 0.7719034553 0.6293934584
-0.10600886 -0.098252125 1.2640001 -0.006781113334 0.7480832934 0.6635701656
-0.1945172 0.10416951 1.41 0.03823613748 -0.2644831538 0.9636319876
0.045241259 0.016081396 1.1468003 0.05199984461 0.6430321336 0.7640717626
0.074833333 -0.027350737 1.1947778 -0.07458201796 0.7772083282 0.624807775
0.38516107 -0.1546898 1.3367501 0.3160859048 0.105650723 0.9428296089
0.25482586 0.0013005977 1.1541427 0.06384392828 0.8081265688 0.5855385661
0.33686107 -0.29583749 1.3370001 0.7062449455 -0.2467375547 0.6635801792
0.29562953 -0.11029255 1.2970001 0.1461878121 0.7760607004 0.6134809852
0.40495324 -0.27449232 1.2841768 0.4507409632 -0.3935217857 0.8012322783
0.40698883 -0.45542192 1.2156668 0.6099640727 -0.1967411041 0.7676175833
0.24417561 0.33572629 1.2954615 0.4113843143 -0.3696704805 0.8331306577
0.20486121 -0.1377515 1.3430001 0.07958044857 0.7481067777 0.6587891579
-0.15453026 -0.05542317 1.21565 0.1084585786 0.5309923291 0.8404070139
0.24452338 -0.14837584 1.3540001 0.06345992535 0.7479894757 0.6606698036
0.024960456 -0.023922769 1.1863335 0.006295708939 0.7637730837 0.6454541683
0.094992794 -0.11597615 1.3150003 -0.03085763939 0.8187165856 0.5733681321
0.38375595 -0.31462511 1.2837144 0.5116624832 -0.2076757997 0.8337099552
0.1049179 -0.43415457 1.3942107 0.1225484014 -0.3118424118 0.9421975613
0.21959624 0.41901335 1.3540001 0.1229864135 -0.5180255771 0.8464773297
0.22714128 0.29539821 1.2763332 0.1594455242 -0.3897932172 0.906994164
