# .PCD v0.7 - Point Cloud Data file format
VERSION 0.7
FIELDS x y z normal_x normal_y normal_z
SIZE 4 4 4 4 4 4
TYPE F F F F F F
COUNT 1 1 1 1 1 1
WIDTH 512
HEIGHT 1
VIEWPOINT 0 0 0 1 0 0 0
POINTS 512
DATA ascii
0.034830406 0.098236367 1.0187 -0.01827478409 0.8111836314 0.5845059156
-0.44278097 -0.45441607 2.2120001 -0.02647474222 0.7786186934 0.6269386411
0.49669918 -0.14508395 1.9470001 0.09278306365 0.7134829164 0.6945022941
0.26396522 -0.4936834 1.202 0.7662889957 -0.1048011258 0.6338911057
-0.26829463 0.16887274 1.5535001 0.8688625693 -0.1166387573 0.4811166227
0.11823954 -0.42686477 2.286 0.02679206431 0.774122715 0.6324683428
0.33463505 0.38555095 1.383 -0.7611501217 0.5728584528 -0.3041113317
0.4364064 -0.12946437 0.97800004 0.8044873476 -0.02700546011 0.5933555365
-0.075958781 -0.2138532 1.3330001 0.1534285098 0.709595263 0.6877021194
-0.034441479 0.49481425 1.233143 0.2746182978 -0.5067905188 0.8171585798
0.22288005 -0.074514218 1.2426001 0.05823862925 0.7299157977 0.6810515523
0.27612895 0.20173152 1.6320001 -0.9911896586 0.04555529729 0.1243693531
-0.17311537 -0.33291417 2.1700001 -0.06431926042 0.8410499692 0.5371201038
0.29288709 0.1947744 1.1645555 -0.6249913573 0.6137979031 -0.4823255837
-0.17228666 -0.024777982 1.1570002 0.2546247542 0.5746856332 0.7777549028
0.16456778 -0.30468091 1.3353685 0.7860763073 -0.1058088988 0.6090061665
0.42679566 -0.3730711 1.0566251 0.8223288059 0.1357765347 0.5525758862
0.33314735 -0.38675725 2.184 0.1426612437 0.6491621137 0.7471521497
0.034572665 0.32076839 1.0955 0.7189894319 -0.2131272703 0.6615368128
-0.19570357 0.0073850402 1.404 0.6416991353 -0.2030183673 0.7395983934
0.3184737 -0.25876129 1.1950001 0.7748901248 -0.112256065 0.62204808
0.025049435 -0.048777293 1.2030001 -0.1051789671 0.7706972361 0.6284609437
0.35192207 0.0087736798 1.1120001 0.7895092964 -0.140675202 0.5973989964
0.22311026 0.10244247 1.0120771 -0.2610159814 0.4652580619 0.8458165526
0.4229522 -0.25377133 2.0530002 0.1321468651 0.67235744 0.7283355594
0.09422788 -0.15413341 1.3140002 -0.1020511091 0.6810595393 0.7250816822
0.48047206 -0.030531669 1.8330001 -0.4295443892 0.7187912464 0.5466541648
0.15475686 0.026337927 1.1350527 -0.02313050255 0.7728956938 0.6341113448
0.4099609 0.21526374 1.5640001 -0.9911896586 0.04555529729 0.1243693531
-0.18153575 -0.14192794 1.2550001 0.09088733792 0.5871785879 0.8043386936
0.36814037 -0.14181662 1.108 0.9153790474 0.1534208059 0.3722139299
0.29864308 0.28174096 1.2855 -0.7183229327 0.5927865505 -0.3641651869
-0.10008816 0.066413634 1.067 0.3165991306 0.6039938331 0.7314071655
0.15125656 -0.32740343 2.184 0.02679206431 0.774122715 0.6324683428
0.46131426 -0.26649964 0.96200007 0.7861672044 0.2369122505 0.5708009601
0.24504657 -0.36485198 1.2423333 0.7058454752 -0.1963184625 0.6806182861
0.24489331 -0.20551209 1.2941428 0.4939557612 -0.1129550338 0.8621188402
-0.25834489 -0.26933831 2.0900002 -0.02647474222 0.7786186934 0.6269386411
0.3409754 -0.39589536 1.153 0.6756177545 -0.153096959 0.7211809754
0.072359189 0.22065087 1.0190001 0.6658588052 -0.2627929151 0.698263526
0.39924651 -0.25492352 1.0754615 0.8630648851 0.1022291332 0.4946394265
-0.05524724 -0.12524873 1.2554001 -0.1505370289 0.6675896645 0.7291520238
0.0045306138 0.025561851 1.1073332 -0.1813234091 0.7161414027 0.6739905477
0.017681491 -0.38506356 2.2410002 -0.06431926042 0.8410499692 0.5371201038
-0.22624606 0.095223777 1.473182 0.3063873947 -0.4475668371 0.8401253819
-0.001366431 0.40412197 1.169 0.6754237413 -0.2519977391 0.6930367351
0.31358215 -0.14505059 1.2121499 0.8462128639 -0.03133460134 0.5319228172
0.25518101 -0.0010248233 1.169 0.1422136873 0.7232944369 0.6757369637
0.40040261 -0.044288322 1.031 0.7088089585 -0.07600397617 0.7012939453
0.12505499 0.13387375 0.9780001 0.2869305015 0.6120722294 0.7369114161
-0.067958325 -0.031443402 1.1570001 -0.1321840286 0.7443445921 0.6545826793
0.12645741 -0.2225164 1.3870001 -0.1108794808 0.2591056824 0.9594633579
0.28196755 0.08343938 1.0940001 -0.5001878142 0.3088325858 0.8089713454
0.12529999 -0.051028356 1.219 -0.06984416395 0.7399897575 0.668982029
0.021192539 -0.22016694 1.3430001 -0.4391336739 -0.08115138859 0.8947491646
0.11579095 0.077239022 1.0652145 -0.03539092839 0.8387796879 0.5433195829
-0.12471586 -0.087134406 1.21 -0.1773879677 0.6918405294 0.6999215484
0.33825219 -0.077692829 1.161 0.9146150351 0.1330305785 0.3818143904
0.36641565 -0.3148852 1.1333334 0.8093651533 -0.05988857895 0.5842443109
0.036124278 -0.10925932 1.2640001 -0.1092501208 0.6695252061 0.7347111106
0.1740851 -0.12381089 1.2936666 0.0111111002 0.6893698573 0.7243243456
-0.05336903 0.11363118 1.0126668 0.1983088851 0.6613562703 0.7233819962
0.42132863 -0.20490031 1.0118002 0.8941711187 0.1644780189 0.4164192975
0.25357801 -0.28337112 1.2645 0.5589419603 -0.2917079628 0.7762024999
0.071517587 -0.00100729 1.149 -0.1266073287 0.7335041165 0.6677891016
-0.2061657 -0.081409022 1.2060001 0.2029268593 0.5662277341 0.7988784909
0.18748903 -0.38179812 1.2961668 0.781601429 -0.04754267633 0.6219636798
0.22391528 -0.44308195 1.25 0.7317723036 -0.04471524805 0.6800807714
0.36308509 -0.21564512 1.1441114 0.8804013133 0.08336979896 0.4668436944
-0.0034374099 0.49154964 1.307 0.8503661156 0.4381645918 -0.2913576066
0.2050079 0.067027763 1.0841175 -0.0744381696 0.8090451956 0.5830135345
0.27813411 -0.41691005 1.1952223 0.6652727723 -0.2088941038 0.7167812586
0.30677518 -0.33526802 1.1948668 0.7166458964 -0.1296751052 0.6852758527
-0.11452983 -0.1661336 1.2833335 -0.1387837827 0.5294231772 0.8369290233
0.0076296297 0.14750619 0.96700007 0.1362062246 0.6732445955 0.7267665267
0.43351537 -0.30469272 1.0260433 0.910772562 0.1151506528 0.3965269625
0.31743941 -0.46599779 1.1466 0.5628256798 -0.09683515877 0.8208838105
-0.015385162 -0.16469537 1.3039231 -0.2368124276 0.712590158 0.6604052782
-0.12502144 0.014282892 1.1133635 0.1836111248 0.6270041466 0.7570685148
0.36252326 -0.064459063 1.09255 0.9201160669 0.1002585441 0.37859568
0.18762419 -0.021889489 1.189 -0.003140656045 0.7576761842 0.652623117
0.29270059 0.23909242 1.223 -0.7389218807 0.5743100643 -0.3523668945
0.46261275 -0.19364361 0.95309538 0.6308435798 -0.04718220606 0.774474144
0.38812819 -0.11510538 1.0438697 0.8761491776 0.1169894114 0.4676281214
0.3131837 0.336896 1.3355001 -0.7147740126 0.5958705544 -0.3661097586
0.11004972 -0.10226843 1.268 -0.1366819292 0.698598206 0.7023379803
0.39606422 -0.43520162 1.1322857 0.3836748898 0.3728301823 0.8448616862
0.29372793 -0.20511182 1.2435714 0.8016347289 -0.03301956132 0.5969015956
0.27698502 0.14850689 1.1145 -0.7611675262 0.5649597645 -0.318503499
-0.015083927 0.067671657 1.0536 -0.132947281 0.7505889535 0.6472566724
0.042211499 0.25889719 1.0700001 0.668510735 -0.3094874918 0.6762476563
-0.045301177 -0.0751388 1.2115651 -0.1638178676 0.7214349508 0.6728264093
0.20393695 -0.25507602 1.3120002 0.6292057037 -0.3667362928 0.6852770448
0.46999589 -0.18520284 1.9930001 0.1321468651 0.67235744 0.7283355594
0.052873518 0.059482709 1.077 -0.108053267 0.7987377644 0.5918973088
-0.0050605293 -0.016804939 1.1545999 -0.1741266698 0.7702407837 0.6135218143
-0.24262626 0.15869069 1.4960001 0.906175971 0.04324701428 0.4206837416
0.38508379 -0.37492022 1.1043749 0.7518527508 -0.02964661829 0.6586641669
0.20839067 -0.32491022 1.278 0.6950576901 -0.03859391436 0.7179173827
-0.0584912 0.010723387 1.1120001 -0.06321968138 0.7298207879 0.6807091236
0.16664259 0.10330745 1.0410001 -0.1128420755 0.7638611197 0.6354390979
0.24809316 0.040364362 1.123 0.01257469598 0.782286644 0.6227917075
0.39493105 -0.18513344 1.0636363 0.907105267 0.2011897266 0.3697062135
0.40281141 -0.3151485 1.0835713 0.8234691024 0.06078372523 0.5640956759
0.07478141 -0.19448167 1.3540001 -0.03040327691 0.7054726481 0.7080847621
0.33275986 0.069899261 1.123 -0.05338605121 0.1886221319 0.9805975556
0.0081236949 0.35273936 1.138 0.6458784938 -0.3481722772 0.6794240475
0.097485334 0.041918691 1.1120001 -0.1444007456 0.7802636623 0.6085532308
0.076999933 0.16391487 0.99387497 0.6903156042 0.03357126564 0.7227290869
0.12417895 -0.012109615 1.1755002 -0.058113195 0.7193338275 0.6922295094
0.27924201 -0.14900266 1.2590001 0.816677928 -0.04877600074 0.5750287771
0.34474397 -0.15506299 1.1643335 0.8768690228 0.04004646838 0.4790584743
-0.020043522 0.44623446 1.2033334 0.6006023288 -0.2999937236 0.7411347032
0.16554242 -0.076864667 1.2505555 0.009230916388 0.712831676 0.701274395
-0.22426367 0.045399401 1.4353079 0.5542714 -0.374081105 0.7435364723
0.094550848 0.10728163 1.0175003 -0.07330735028 0.8056972027 0.5877737999
0.074682012 -0.073601589 1.2346002 -0.07078365982 0.7289087772 0.6809417009
0.17124237 -0.24496828 1.3565001 0.7476989031 -0.1834470779 0.6381955147
-0.1229788 -0.050216343 1.169 -0.09053163975 0.7104477882 0.6979025602
0.24634159 -0.041233141 1.2060001 -0.02782471292 0.679864645 0.7328095436
0.32599258 -0.20518608 1.1944739 0.7716859579 -0.0263550207 0.6354574561
0.035384018 -0.14792801 1.302 -0.09966377914 0.6800011396 0.7264059186
0.17427169 0.11704815 0.98900002 -0.1022119522 0.6336150765 0.7668668032
0.20594983 0.011876861 1.153 -0.07353796065 0.7656829357 0.6390006542
0.38096866 -0.011287959 1.0730001 0.7938849926 -0.2563247085 0.551402092
-0.02655511 -0.22052287 1.317 -0.4233874381 -0.1680632085 0.8902234435
0.40882823 -0.15408994 1.016 0.8452397585 0.1319203824 0.5178481936
0.28498793 -0.2950426 1.2246362 0.7097017765 -0.2352829576 0.664052248
0.35398635 -0.26560488 1.1551819 0.8349832892 -0.05283973739 0.5477324724
-0.1146974 -0.12423248 1.2447897 -0.1031404808 0.6904885173 0.7159522176
0.4173229 -0.085275501 1.0046817 0.7694171071 -0.03756567463 0.6376410723
0.074330285 -0.037689999 1.1942 -0.09672791511 0.7837511897 0.6134963632
0.41906419 -0.25324094 1.028 0.9168092608 0.1648156643 0.3637259901
-0.065410785 -0.16502137 1.2948127 -0.1514321268 0.5146026611 0.8439504504
0.15446612 0.055642121 1.0944 -0.002192647196 0.8292506933 0.5588724613
-0.054826338 0.045222484 1.0741289 0.001774165314 0.6840842366 0.7294008732
0.0052288785 -0.085274689 1.2338334 -0.1550320238 0.6869217753 0.7100025415
0.14255126 -0.14950497 1.322 -0.002600006294 0.6417906284 0.7668755054
0.25869584 0.12227425 1.0756668 -0.428601414 0.6784675121 -0.5966428518
0.36171705 0.21703023 1.557 -0.9911896586 0.04555529729 0.1243693531
0.25439095 0.084064797 1.0446 -0.5725788474 0.7596404552 0.3083826005
-0.01004397 -0.12833962 1.273 -0.2714039087 0.6612357497 0.69936198
-0.16539782 -0.064784631 1.1872855 0.2036076039 0.6197582483 0.7579206228
0.34323955 -0.34430063 1.16292 0.7021478415 -0.09622844309 0.705498755
0.38157755 -0.27489617 1.114077 0.8719802499 0.04109689221 0.4878129065
-0.16536058 -0.10581429 1.2229998 0.08673792332 0.6061839461 0.7905805111
0.26560989 -0.23513398 1.2654736 0.7179893851 -0.1557872444 0.6783963442
-0.0055477149 0.11290674 1.0031923 0.04100660235 0.7391864657 0.6722512841
-0.024820928 -0.045894377 1.1834615 -0.2001869828 0.7544769049 0.6250517964
0.28145674 -0.37409702 1.21 0.6679215431 -0.2328536212 0.7068663239
0.3824074 -0.20593792 1.1019999 0.890376389 0.1479962319 0.430496186
0.054294482 0.02645961 1.1179335 -0.1867751032 0.7366343141 0.6499884129
-0.084430888 -0.061499048 1.189 -0.09019019455 0.7120255232 0.6963371038
0.055495575 0.12549309 0.98541391 -0.1157699972 0.7015551329 0.7031484246
0.056592338 -0.36882594 2.2260001 -0.06431926042 0.8410499692 0.5371201038
0.33219531 -0.11592251 1.18325 0.8356404901 0.05644260347 0.5463690758
0.35664868 -0.095924363 1.1247145 0.9280380607 0.1408123672 0.3448437452
-0.067261808 0.082478113 1.0415 0.1947610676 0.6337558627 0.7486131191
0.43743271 -0.2239995 0.97512907 0.8859512806 0.06886733323 0.4586367309
0.07483808 -0.12557952 1.2861252 -0.1653634459 0.6855043173 0.709040761
-0.10702959 -0.019005256 1.141 0.01056097727 0.7061164975 0.708016932
0.036096558 -0.022432243 1.169 -0.1298491806 0.7508924603 0.647533536
0.24605951 -0.40579647 1.227 0.6765991449 -0.1253041923 0.7256118059
0.34709531 -0.43501851 1.1344802 0.6945520043 -0.118322432 0.709645927
-0.084810317 -0.096622333 1.2246001 -0.1258656234 0.6545345187 0.7454813123
0.12086165 -0.18548074 1.365 -0.3099874258 0.6692349315 0.675301671
0.2144333 -0.40394565 1.2661818 0.7932772636 -0.03709248081 0.6077296734
0.19325502 0.038258608 1.1190001 -0.02715972811 0.7827786207 0.6217073202
0.1752274 -0.3451021 1.3155295 0.7894371748 -0.0602613613 0.6108662486
0.2053434 -0.099323705 1.273 0.03567483649 0.6950295568 0.718095541
0.37225688 -0.10515256 1.0836841 0.9250897765 0.1521141827 0.347951442
0.026776904 -0.18045306 1.3280001 -0.1225780994 0.7075195312 0.6959818006
0.28994611 -0.45503998 1.177 0.6382623315 -0.174851194 0.7496987581
0.19476266 -0.05102836 1.219 0.06930238008 0.7212759852 0.6891720891
0.43100968 -0.17519961 0.98321748 0.8363453746 0.02579914592 0.5475955009
0.33413452 -0.30492601 1.1752609 0.6628888845 -0.1176006123 0.7394243479
0.1932057 -0.29495648 1.3040833 0.6678520441 -0.2841397524 0.6879231334
0.2446119 -0.32441601 1.253696 0.5647923946 -0.197571665 0.8012334108
0.29170403 -0.25447333 1.2328891 0.7480028272 -0.1434152126 0.6480153203
0.11564342 0.014694345 1.1444786 -0.1199405864 0.7407184839 0.6610221863
0.30810642 -0.38611329 1.177 0.6697471738 -0.2209859043 0.708945632
0.23729964 -0.48001707 1.2360001 0.8168309927 0.0292614419 0.5761345029
0.37903282 -0.075593963 1.0534285 0.9077221751 0.03393378854 0.4181972146
-0.095025808 0.032383092 1.09 0.2112450004 0.6328451037 0.7449043989
0.4383575 -0.27250138 0.99575001 0.9114251733 0.2154131234 0.3505728245
0.064646415 0.084462307 1.0435002 -0.06951870024 0.8253829479 0.560276866
0.36163586 -0.17628609 1.1326667 0.8997020125 0.1483033895 0.4105391502
0.27577782 -0.33499438 1.2240369 0.6403585672 -0.2101324946 0.7387728095
0.31537309 -0.42532223 1.1658572 0.5499703288 -0.2438972294 0.7987782955
0.024977401 0.0048069097 1.1358334 -0.1296003461 0.7543982267 0.6434959769
0.29343084 0.049067616 1.1120001 -0.3191766739 0.5980206728 0.7351853848
-0.20359766 -0.1144354 1.2353334 0.1462293714 0.5763432384 0.8040183187
0.25531 -0.44467849 1.2134999 0.7057013512 -0.1863827258 0.6835547686
0.24518977 0.067907408 1.0863076 -0.01532737259 0.7373595834 0.6753265262
0.28066149 0.017452504 1.1442001 0.1141356751 0.7315773368 0.6721366644
0.23487039 -0.25623512 1.2864213 0.3984026611 -0.4017622769 0.8245376945
0.025443254 0.07499332 1.0532777 -0.1213505492 0.8211141229 0.5577147007
0.13330784 0.11349344 1.0178001 0.09668307751 0.8926118612 0.4403367341
-0.14405388 -0.1495944 1.2640001 -0.2685450912 0.6832274795 0.6790314913
0.27179271 -0.18439142 1.2758571 0.7755258083 -0.04310580343 0.6298425198
0.4077374 -0.22495681 1.0518948 0.9065202475 0.1652488112 0.3884762824
0.4414525 -0.34174046 1.034 0.836078465 0.176081419 0.5195845962
0.39429837 -0.41160902 1.097 0.7691965699 -0.02486423776 0.638528347
0.16459872 0.0025017674 1.1635455 -0.02533330023 0.7531478405 0.6573632956
0.13463093 -0.1242217 1.294353 -0.04833960906 0.7121163011 0.7003954053
0.2120394 -0.36269891 1.2729999 0.7599785924 -0.1263663024 0.6375453472
-0.092455022 -0.19898756 1.302 -0.3492898643 0.4698249996 0.8107163906
0.047729239 0.22854963 1.0470001 0.6894776821 -0.2994678319 0.6594994068
0.42593375 -0.24566303 2.016 0.1321468651 0.67235744 0.7283355594
-0.02925612 -0.10077108 1.2360001 -0.1686881483 0.6545705795 0.7369407415
-0.01051737 -0.18814406 1.3330001 -0.3791092634 0.4668453336 0.798956573
0.34392989 -0.23520081 1.1750002 0.7766816616 -0.03590709716 0.6288689971
0.015167501 0.052135956 1.0813334 -0.112624377 0.7574141026 0.6431481838
0.15515947 -0.033779718 1.2039998 -0.05141151324 0.7482352853 0.6614384055
0.31296474 0.31601655 1.3045001 -0.7175840735 0.5787587166 -0.3874422014
0.38355961 -0.1446394 1.0740868 0.9282374978 0.1816738546 0.3246070147
0.36290765 -0.36458308 1.1325264 0.8115391135 -0.05071178824 0.5820932388
-0.15399632 0.0040430697 1.1342666 0.3106417656 0.5398736596 0.7823286653
-0.024645293 0.0019703086 1.1245002 -0.1793548763 0.7637536526 0.620090425
0.22513343 -0.015323941 1.1853477 -0.06377901882 0.690648973 0.7203722596
0.29602927 0.22202197 1.189 -0.717181623 0.5690137744 -0.4023354948
0.41554335 -0.2853249 1.0512173 0.8804215193 0.1218020245 0.4582818449
0.29841411 0.26546547 1.253 -0.7587789297 0.5536554456 -0.3431037068
0.064807877 -0.17113936 1.3280001 -0.1419293731 0.7368577719 0.6609815955
0.15505078 0.077522956 1.0654445 -0.03400538489 0.8056692481 0.5913888216
0.18915749 0.089694396 1.013 0.1738334894 0.9252979755 0.3370542228
-0.084786072 -0.14302102 1.2661538 -0.1240752935 0.7115600705 0.691583395
-0.031666856 0.13272646 0.9881112 0.1616136283 0.624763608 0.763905406
0.35120106 -0.12543049 1.1446002 0.9201301336 0.1252021343 0.3710592389
0.32524464 0.36330119 1.3565001 -0.7611501217 0.5728584528 -0.3041113317
0.021153091 0.38478479 1.149 0.6333791018 -0.3282065392 0.7007933855
0.46310732 -0.23380452 0.94768423 0.6085460782 0.03263869509 0.7928470373
0.20200679 0.08988376 1.057 -0.1115227044 0.744833231 0.657864809
0.27670568 0.16674112 1.1450001 -0.6962068081 0.5890831351 -0.4102159739
0.30809486 -0.18492861 1.2181666 0.8281698227 0.01446019392 0.5602906942
0.34790024 -0.058215223 1.1332 0.9347744584 0.1007792428 0.340646863
0.35454154 0.043710601 1.108 0.5873938799 0.04802168533 0.807875216
0.36354792 -0.40534922 1.1249999 0.7290747762 -0.1379511207 0.6703875661
0.047208499 0.29363686 1.077 0.6531906128 -0.3130440712 0.6894530058
0.34739068 -0.1959369 1.1684285 0.8534356952 0.03166713193 0.5202352405
0.31155971 -0.29575345 1.202 0.7145434022 -0.1709570885 0.6783815026
0.075351253 -0.098621495 1.2640001 -0.0998480767 0.6866183281 0.7201288939
0.4046365 -0.35506776 1.0834193 0.7489145994 0.0274749957 0.6620966792
-0.034209616 0.088221267 1.026875 0.04455756769 0.7147451639 0.6979641318
-0.23619108 0.12527084 1.4885002 0.5333662629 -0.2828433812 0.7971951365
-0.25512722 0.14789337 1.5289999 0.8688625693 -0.1166387573 0.4811166227
0.11457454 -0.073747016 1.2431334 -0.08843939751 0.7006824017 0.707970798
0.38116765 -0.23883906 1.1120001 0.8800453544 0.03687462211 0.4734558463
0.04117528 -0.081266999 1.2360001 -0.1458164155 0.7237859368 0.6744416356
0.30651036 -0.22491229 1.2146844 0.7869430184 -0.09007775784 0.6104152203
-0.044688463 -0.19532445 1.3029376 -0.3950490355 0.2058427781 0.89530164
0.42140922 -0.33570218 1.0607501 0.8455404639 0.1085130274 0.5227678418
0.093750022 0.13455836 0.99328566 0.2314158976 0.3100780547 0.92211622
0.37318069 -0.044987291 1.0662677 0.9216277003 0.05947589502 0.3834905922
0.3863425 -0.33477464 1.1051537 0.8015769124 0.01440431643 0.5977181792
-0.02337528 0.032760393 1.0903636 -0.1862423271 0.6997449398 0.689688921
0.085578837 0.065526329 1.0744284 -0.118308641 0.8175039887 0.5636401772
0.14284757 -0.099323705 1.273 -0.03632823005 0.7106634974 0.702593565
-0.035055123 -0.14790636 1.2830001 -0.1485645026 0.6897639632 0.7086284757
0.44618395 -0.30461895 0.995 0.8959466815 0.23583588 0.376378715
-0.03726973 -0.021153091 1.149 -0.1076226309 0.7969785929 0.5943420529
0.40716237 -0.11479134 1.015036 0.7895525098 0.0226089377 0.6132664084
0.22452949 -0.29421821 1.2752918 0.5349737406 -0.3021056056 0.7890090942
0.30977717 -0.10889778 1.2060001 0.8023201823 0.1428055316 0.579559207
0.054914709 -0.055796333 1.2142353 -0.1178617179 0.7486822009 0.6523677111
0.0048665521 0.089220122 1.028 -0.01543543395 0.782351315 0.6226460934
0.4137516 -0.39178583 1.08 0.6855226755 -0.05028983578 0.7263123393
0.13514639 0.091993362 1.042154 -0.0549964644 0.8102065325 0.5835587382
0.17812462 -0.26660484 1.3280001 0.7563973069 -0.3468458354 0.5545818806
0.10322224 -0.1818119 1.3380001 -0.1892445683 0.6931568384 0.695499897
-0.014304435 -0.066463664 1.2122308 -0.266339004 0.6951311827 0.6677246094
0.08192084 0.19447432 1.0030001 0.6205479503 -0.257299304 0.7407545447
0.38120893 -0.17550787 1.0918182 0.9135382175 0.1328709424 0.3844389021
0.024350291 0.12157752 0.99199998 0.04130429402 0.75591892 0.6533609629
-0.092213064 -0.00098099001 1.1190001 0.1236360893 0.7139446735 0.6892004013
0.297831 -0.12782922 1.2336 0.8519676924 0.02690132894 0.5229028463
0.42758077 -0.23475377 1.0032858 0.9202362299 0.1299526244 0.3691579998
0.40750393 -0.18429634 1.0346192 0.9000093937 0.1812505424 0.3963979483
-0.015552418 0.47505951 1.215 0.2746182978 -0.5067905188 0.8171585798
0.0010318366 0.43440324 1.177 0.6452810168 -0.2834924161 0.7093972564
0.2236761 -0.22694106 1.3027143 0.611476481 -0.151637122 0.7765969038
0.39678526 -0.15502395 1.0449233 0.8953468204 0.2257841974 0.3838952482
0.016298892 0.32652473 1.123 0.7222464681 -0.2182181031 0.6563085914
0.005182561 -0.036280267 1.1823334 -0.1172734573 0.7674875855 0.6302458048
0.15561184 -0.22513819 1.3760003 0.6845748425 0.003880528267 0.7289322615
0.094363667 -0.05484879 1.2166318 -0.1374107748 0.7373375893 0.6614012122
-0.23262878 0.065187179 1.4580001 0.2787234783 -0.5700820684 0.7728645802
0.30306226 -0.48305246 1.174143 0.5979399085 -0.1027426273 0.7949288487
-0.15421596 -0.1283773 1.2410001 -0.1068349704 0.5895435214 0.8006402254
0.36561003 0.02064696 1.087 0.8012526035 -0.1391439438 0.5819219947
0.48875043 -0.16406816 1.9700001 0.1093175039 0.68919909 0.7162780762
0.094289891 -0.012753189 1.1679091 -0.1939221621 0.7373369336 0.6470923424
0.28923425 -0.174632 1.245 0.8237273097 -0.03430298716 0.5659475327
0.3981483 -0.074684985 1.026421 0.7406173944 -0.02482218482 0.6714683175
0.32527867 -0.17446466 1.1946844 0.8248628974 0.04144411907 0.5638116598
0.24461988 0.017399069 1.1468463 0.01466906257 0.7623275518 0.6470251083
0.12454218 0.060200702 1.09 -0.04212492332 0.8337216377 0.5505758524
0.10696736 0.1695824 0.99200004 0.4977098405 -0.09722370654 0.8618772626
0.39843342 -0.28513983 1.087 0.8360967636 0.07561656088 0.543345511
0.084711909 0.021700228 1.1308889 -0.1585275382 0.7174380422 0.6783448458
0.095458306 0.08739613 1.045 -0.09106948227 0.8051639795 0.5860181451
-0.14363839 -0.02379852 1.1468669 0.2040054947 0.617135942 0.7599506378
0.1350459 0.042766653 1.1138499 -0.01955735683 0.7767249346 0.6295362711
0.22321546 0.049150139 1.108 -0.004671049304 0.7955486178 0.605871737
0.044730555 -0.20490983 1.3545556 -0.2987030149 0.5794330835 0.7583098412
0.44945067 -0.16696766 0.95899999 0.6973828673 0.008012505248 0.7166539431
0.10439336 -0.13216324 1.2958889 -0.1154376268 0.6660367846 0.7369322777
0.16498801 -0.053736005 1.2244116 0.01176569983 0.7345955372 0.6784032583
0.10402153 -0.032489706 1.1955 -0.1551801115 0.7546480298 0.6375151277
0.17521147 -0.099323712 1.273 0.01509334799 0.7050101757 0.7090365291
-0.055392101 -0.05454788 1.1860907 -0.1765687168 0.702837348 0.689088583
0.06519857 0.10392275 1.0132403 -0.1124742404 0.8163645267 0.5664790273
-0.045542136 0.066226639 1.0537 0.04672291502 0.7522073388 0.6572678685
0.33578914 -0.27476338 1.177 0.7116369605 -0.08315137774 0.6976092458
-0.21333227 0.015505603 1.4263999 0.6499888897 -0.1763462424 0.7391998768
0.26529601 -0.3045733 1.2445003 0.6749993563 -0.2855269015 0.6803309917
0.0045349966 -0.14620799 1.2928332 -0.1924414635 0.6898670197 0.6978895068
0.22867236 0.080442056 1.031 -0.006669471972 0.9759519696 0.2178836763
0.35426149 -0.29489172 1.1551052 0.7911969423 -0.0491874218 0.6095801592
-0.0054886793 -0.10541089 1.2524502 -0.2303585559 0.6747535467 0.7011722922
0.31883752 -0.3549518 1.177 0.6481015086 -0.1300570071 0.7503663301
-0.094710141 -0.04369678 1.1674615 -0.105021216 0.7068399787 0.699533999
-0.065163806 -0.01183948 1.1357778 -0.0761346072 0.7729063034 0.6299359798
-0.15396106 -0.044618264 1.1675882 0.1994583905 0.5768692493 0.7921099663
0.19548351 -0.34569514 1.294778 0.7082012296 -0.1109366938 0.697240293
0.27299786 -0.26457059 1.2540002 0.7212472558 -0.2329675555 0.6523254514
0.38655496 -0.30502483 1.1053213 0.8501946926 0.03424160555 0.5253536701
-0.18277939 -0.044355296 1.1766001 0.2839903235 0.5732333064 0.7686046362
0.045772437 -0.12728076 1.2848182 -0.1088788807 0.687220335 0.7182434201
0.21502054 -0.035028841 1.2037141 -0.03616094589 0.7239301801 0.6889249086
0.1952775 -0.077365831 1.25 0.01585257053 0.7009169459 0.7130666971
0.26893812 -0.46605223 1.1960001 0.7333939672 -0.1189765036 0.6693114638
0.32863164 0.038258608 1.1190001 0.2217288762 0.1204604059 0.9676392078
0.22731675 0.08306805 1.0700001 -0.05151307955 0.7860923409 0.6159588099
0.065704413 -0.14557186 1.3043078 -0.1372240931 0.7026473284 0.6981807351
0.37046617 -0.43107015 1.115 0.4572118521 0.239558056 0.8564865589
0.06409923 -0.01953827 1.1730001 -0.08473735303 0.7429949641 0.6639112234
0.35833749 -0.010511233 1.09 0.7464753389 -0.143527329 0.6497495174
0.075006917 0.047811646 1.0958463 -0.09834586084 0.7832017541 0.6139405966
0.26492655 0.053240672 1.1042666 -0.01720911264 0.7761610746 0.6302998066
0.39355227 -0.22476821 1.0841 0.8897078633 0.1386795938 0.4349573851
0.2140336 -0.2742925 1.2925882 0.6722838283 -0.3017275035 0.6760140657
0.3280392 -0.14418608 1.1879092 0.8356049061 0.01262839139 0.5491856933
0.27150455 0.10563658 1.057 -0.9625120163 0.2521448135 0.09996778518
-0.17444791 -0.083523542 1.2060001 0.2147124261 0.6480998397 0.7306607962
-0.084996343 -0.117689 1.243 -0.1294547319 0.7046352625 0.6976608038
-0.088856302 -0.17883737 1.2830001 -0.3147678673 0.1728142351 0.9333040714
0.14504693 0.11670629 0.98722231 0.2087751925 0.8200919628 0.5327870846
0.034888841 0.14273083 0.97063166 0.01499270555 0.6637602448 0.747795105
-0.13446401 -0.071922608 1.189 -0.1497384161 0.6661593318 0.730623126
0.4210453 -0.13443962 1.0010002 0.8216042519 -0.02493364364 0.5695127249
0.38676462 -0.025270667 1.0455717 0.7964070439 -0.1943710446 0.5726741552
0.30805367 0.075063705 1.1120001 -0.4338858128 0.3136808276 0.844598949
-0.13753614 -0.11282495 1.2256668 -0.1729501486 0.6782165766 0.7142202258
0.25728238 -0.019871403 1.1930001 0.04304903373 0.7139707804 0.6988508701
-0.11461467 -0.14454387 1.2667366 -0.1348780245 0.6847957969 0.7161443233
0.43897855 -0.25206971 0.97800004 0.9052163959 0.1493879259 0.3978272378
0.03957361 0.041504029 1.1010001 -0.1522913724 0.7293205261 0.6670074463
0.42640203 -0.10525663 0.98900002 0.7843026519 -0.04225658998 0.618937552
0.031591557 0.27762103 1.092 0.6728067398 -0.3081469834 0.6725894809
0.12457108 -0.16437763 1.3353529 -0.1214200705 0.7178327441 0.6855459809
0.36594191 -0.25519362 1.1335862 0.8624685407 -0.01034027245 0.5060050488
0.22773492 -0.34620121 1.2589999 0.5962818265 -0.1697509885 0.7846226096
-0.12303068 0.034793146 1.0964 0.2388432473 0.58521384 0.7749055624
-0.055729818 -0.10288464 1.2336001 -0.1681876034 0.6568443775 0.7350295186
0.43997532 -0.19582717 0.96700007 0.7946607471 0.01384032704 0.6068959832
0.15455078 -0.015755745 1.1844997 -0.03219375014 0.7455499768 0.6656717062
0.22729862 -0.048247349 1.223 0.01297649182 0.6846519709 0.72875458
0.16546237 0.042468105 1.1144705 -0.02683517151 0.8037593365 0.5943490267
-0.11876028 -0.19158497 1.2780001 -0.1019769162 0.09568370134 0.9901744127
0.35813645 -0.038589116 1.0913334 0.8940009475 0.08146110922 0.4405977726
0.2664811 0.082135625 1.0728334 -0.4567792118 0.417486012 0.7855305076
0.17989112 -0.31738752 1.307 0.7607466578 -0.02291775309 0.6486442089
0.22701648 -0.41454613 1.2427499 0.7130375504 -0.068880409 0.6977341771
0.043221422 -0.39095739 2.2410002 -0.06431926042 0.8410499692 0.5371201038
0.27551451 0.034819633 1.1247368 0.05079369619 0.7482928634 0.6614210606
0.36668596 -0.28395852 1.1348423 0.8222270012 0.009082281031 0.5690872073
0.26148874 -0.38466835 1.223 0.6049986482 -0.2212933749 0.7648567557
0.29364851 -0.31521103 1.2106315 0.6616368294 -0.1366628408 0.7372652292
-0.25674704 0.17369513 1.528 0.8688625693 -0.1166387573 0.4811166227
-0.19830309 0.032222979 1.4137501 0.6480916739 -0.2021424919 0.7342449427
0.22495267 0.031711139 1.1304001 -0.004773919936 0.761991322 0.6475696564
0.18505117 0.021005809 1.141 0.004228140693 0.7601313591 0.6497556567
0.11767059 -0.21260481 1.3650001 -0.3874888122 0.3102590442 0.86809659
-0.064643204 0.026739646 1.0931364 0.02744354121 0.7250351906 0.6881648302
0.22533564 -0.38480598 1.253348 0.7014638186 -0.1335237324 0.70008564
-0.19407317 -0.057881262 1.1950002 0.2930170894 0.574852705 0.7639930248
0.30080655 -0.15491128 1.2337779 0.8526626825 -0.07202462852 0.5174735188
-0.012160827 0.41555285 1.189 0.657581687 -0.2607560754 0.7068186402
0.41857502 -0.31139025 1.054 0.8796235919 0.1200104803 0.4602823853
0.4181059 -0.17502764 1.0050589 0.8767831922 0.1126385555 0.4675081074
0.046017986 -0.038696945 1.1930001 -0.09560804069 0.7684956789 0.6326717734
0.24085191 -0.43526149 1.2320001 0.7097106576 -0.0886483714 0.6988935471
0.29668617 -0.35839197 1.1958572 0.6342850924 -0.1989285052 0.7470675111
-0.075847208 0.063134655 1.0608333 0.1733366102 0.6549962163 0.7354823947
0.0019403556 -0.21421523 1.3280001 -0.5457409024 -0.3041041493 0.7808248997
-0.0055872886 0.13323501 0.98288906 0.09393935651 0.6403687596 0.7623012662
0.4128553 -0.25538424 1.0522144 0.916511476 0.1579363048 0.3675089478
0.16524349 -0.13840578 1.312 0.03676867113 0.6608842611 0.7495865822
0.42924184 -0.27425024 1.0190001 0.9081477523 0.2336124778 0.3474087715
0.30435082 -0.27487108 1.2137406 0.7233126163 -0.1666374952 0.6701124907
0.32224864 0.36749253 1.3950001 -0.7611501217 0.5728584528 -0.3041113317
0.14409468 0.012017248 1.153 -0.02880786359 0.7517212033 0.6588515043
0.34206513 -0.10502523 1.1631176 0.9057683945 0.06545846909 0.4186870456
0.45245174 -0.2850439 0.97605884 0.8615533113 0.2202780396 0.4573877156
0.17512399 0.064705469 1.0838999 -0.03453454748 0.8191046119 0.5726037025
0.44409832 -0.32462141 1.0156003 0.8557232022 0.2452242374 0.4556345642
0.01453075 -0.12519194 1.2750001 -0.1510343254 0.6721476316 0.7248490453
0.14501439 -0.06369669 1.2352729 -0.06483317167 0.7222673297 0.6885684729
0.41802084 -0.22506545 1.0257059 0.9217705727 0.1496525258 0.3576913774
0.3117041 0.28730235 1.2653333 -0.7159138322 0.5945234895 -0.3660727441
-0.10534211 -0.073103674 1.1950002 -0.07162863761 0.6933909655 0.7169924974
-0.064410456 -0.20818378 1.312 0.1387017518 0.6511711478 0.7461487651
0.094698057 -0.085405894 1.2517648 -0.1312992126 0.6924120784 0.7094547749
-0.028094536 -0.18203719 1.317 -0.5519907475 0.4932371676 0.6723267436
-0.16044314 -0.15171155 1.245 -0.07280994207 0.6382924318 0.7663429379
-0.01394167 0.053467225 1.0734998 -0.1885494292 0.7500200868 0.6339707971
0.20487027 -0.0072088307 1.1743336 -0.07653159648 0.7215217352 0.6881491542
-0.12514839 -0.0056236703 1.1314996 0.1020513624 0.6226093173 0.7758499384
-0.075314432 -0.079557501 1.21 -0.1392035633 0.7167409658 0.6833043098
0.35226262 -0.32396033 1.153 0.7915967703 -0.07650530338 0.6062355042
0.3350057 -0.37537023 1.1646001 0.6204494834 -0.2240577191 0.7515587807
0.0059131165 -0.20222859 1.3490001 -0.3822394907 0.001531196875 0.9240620136
0.32460937 -0.23526442 1.1938423 0.7550728917 -0.06349828839 0.6525586843
-0.11496222 -0.10407107 1.227 -0.1252491921 0.6791887879 0.7231978774
0.057825811 0.25057852 1.0470001 0.6842074394 -0.3086843193 0.6607375741
0.2791118 -0.4844473 1.177 0.6496793032 -0.1238893792 0.7500454783
0.15658933 -0.32612965 1.3430001 0.7920544147 -0.01272767875 0.6103177667
-0.035592109 0.016185667 1.1067367 -0.1110601127 0.7478389144 0.654524684
0.28129077 0.12353987 1.0840001 -0.405066967 0.7284533381 -0.5525183678
0.11600666 0.12040359 1.0025001 0.1058697924 0.8772588968 0.4681969881
0.066056833 -0.21018083 1.3700001 -0.1457202584 0.6801122427 0.7184795737
0.39949036 -0.13430533 1.0267999 0.8367043138 0.08000677079 0.5417792797
0.3614631 -0.14604038 1.1306667 0.9191362858 0.1123863086 0.3775683343
0.36560795 -0.11552445 1.1042776 0.92905581 0.1450468153 0.3403185904
0.37094268 -0.16497245 1.1135001 0.8910832405 0.1052775532 0.4414604604
0.28338754 -0.2251744 1.2529501 0.7393101454 -0.1381551474 0.6590399742
0.032054439 0.34094268 1.108 0.716704607 -0.235784322 0.6563080549
0.1955063 -0.3954941 1.2780001 0.7685234547 -0.04504182935 0.6382342577
0.044879518 -0.002286745 1.1468183 -0.1336353868 0.7626683116 0.6328338385
0.044808619 0.11245785 1.0021999 -0.002013587859 0.7673924565 0.6411744952
0.27455622 -0.20542578 1.2651111 0.796215415 -0.1308388561 0.5906963348
0.10381559 0.15243408 0.97588247 0.4771395922 0.1579608917 0.8645150065
0.3714875 -0.33780599 1.13 0.8220130205 -0.09747781605 0.5610638857
0.16734122 -0.2678642 1.3490001 0.804528892 -0.2792016864 0.5241943002
0.42916864 -0.2020414 0.98700005 0.8921720386 0.1109417304 0.4378595054
0.32480216 -0.44515792 1.1544999 0.5127220154 -0.2460115701 0.822553575
0.044157822 -0.16492631 1.3155717 -0.1652326584 0.6622972488 0.7307944298
0.24484071 -0.23511969 1.284364 0.6003525853 -0.1728312522 0.7808368206
0.0042771106 0.0085511534 1.1255 -0.1427104473 0.7463408113 0.6500838995
0.074663877 0.11848532 0.99692863 -0.1637901366 0.7192369699 0.6751821637
0.25330058 -0.47537073 1.2119999 0.7404330969 -0.07317333668 0.668135047
0.35128614 -0.17564513 1.1536666 0.8863627315 0.1423695982 0.4405587614
0.080574431 0.14432563 1.01 -0.1827131659 -0.01616815478 0.9830332994
0.11530216 0.032765422 1.124125 -0.0711382851 0.7591559291 0.6470097303
-0.18095452 -0.12027516 1.2360001 0.1279081553 0.5826458931 0.8025978208
-0.04421819 -0.038048211 1.1730001 -0.1120065525 0.7372848988 0.6662323475
0.18479507 0.052681386 1.1026665 -0.03162031993 0.8159409761 0.5772698522
0.05494152 -0.094504401 1.2534378 -0.1369871497 0.6749889255 0.7249996066
0.31750184 -0.31416631 1.189 0.7214029431 -0.1358092874 0.6790682077
-0.0052468502 -0.051419131 1.197 -0.1567427963 0.7505592108 0.6419443488
0.36147097 -0.08493451 1.1034665 0.9356555343 0.124417983 0.3302558661
0.11593449 -0.14587732 1.3136669 -0.1058900654 0.6702313423 0.734559238
0.254756 -0.25475872 1.2745625 0.6446658373 -0.2320797294 0.72838521
0.0023091401 -0.17203093 1.317 -0.1631844491 0.7017723322 0.6934597492
0.3566356 -0.23514868 1.1548181 0.8493664265 -0.006552899722 0.5277629495
0.17502634 0.086157836 1.0541197 -0.0597615689 0.7398022413 0.670165062
0.37082767 -0.20725568 1.1240001 0.8902828097 0.1355173588 0.4347776473
0.13474919 -0.084952429 1.2568003 -0.04840412736 0.7310010791 0.6806573868
0.13360207 -0.03083114 1.1962001 -0.07589859515 0.7463784814 0.6611796618
-0.18762858 -0.099711187 1.223 0.1581296772 0.6051834822 0.780223012
0.21386458 -0.42772916 1.2640001 0.8110203147 -0.02044909261 0.5846604705
0.30232024 -0.41379222 1.1810001 0.6350010633 -0.2070816159 0.7442384362
0.026375216 -0.069261745 1.223 -0.1067816913 0.7055986524 0.7005199194
0.29336467 -0.39376757 1.193 0.6508135796 -0.2081417888 0.7301498055
0.26029286 -0.35101733 1.2320001 0.624710083 -0.208509326 0.7525032759
0.054399408 -0.18600148 1.3456668 -0.2100646645 0.6792663932 0.7031856179
0.33921653 -0.13322704 1.169 0.867097497 0.0748045072 0.4924897552
-0.02476934 0.10431616 1.0123639 0.04260944203 0.7010908723 0.7117977142
-0.084090866 0.015264018 1.1049522 0.08669477701 0.6693226099 0.737896502
0.074132465 0.14093316 0.98325002 -0.4652128518 0.1358112693 0.8747184277
0.31454986 0.30441493 1.284875 -0.7235264778 0.5834980011 -0.36883533
0.38803461 -0.25499436 1.0953637 0.8712231517 0.0506551303 0.4882666171
0.22481911 0.0060700816 1.1644285 -0.03554141521 0.7744325399 0.631657362
0.13922782 -0.20460434 1.381 -0.03054271266 0.1775276065 0.9836417437
0.27830923 -0.43883216 1.189 0.6989142299 -0.1911151409 0.6891979575
0.43279278 -0.23785719 2.0400002 0.1321468651 0.67235744 0.7283355594
0.065409854 0.072112843 1.0628 -0.05997592956 0.8251379728 0.5617385507
0.32291031 -0.095696487 1.193 0.7900822163 0.1104398295 0.6029703021
0.068227679 0.17810425 1.0107501 0.7429156303 -0.09263911098 0.6629437208
0.15484288 -0.11408114 1.2865715 -6.381650746e-05 0.6814633608 0.7318522334
0.43643385 -0.15468942 0.97515798 0.7894229293 0.01015799213 0.6137655973
0.33947426 -0.17438039 1.177 0.7974674702 0.08575315773 0.5972369909
0.094875939 0.0064155576 1.1482501 -0.1766027063 0.706152916 0.6856818199
0.380936 -0.39752164 1.1127501 0.6972808242 -0.04679483175 0.7152689695
0.0289563 0.2982499 1.1010001 0.7105932832 -0.2704017162 0.6495691538
-0.084794343 0.047316831 1.0764285 0.2176376283 0.6193605661 0.7543383241
0.38349411 -0.055215817 1.0447503 0.8319997191 0.02595498227 0.5541685224
0.2258039 -0.31490698 1.2664999 0.5596939325 -0.2090624869 0.8018949628
0.11525379 0.10202917 1.0247858 -0.08655334264 0.8055710793 0.586143136
0.19345771 0.11057099 1.0058 -0.2001553476 0.4732461572 0.8578903675
0.27484053 -0.28428173 1.2429048 0.7418590784 -0.2611083388 0.6176306009
-0.11197005 0.051935047 1.087 0.286976546 0.5482210517 0.7855558991
0.39430895 -0.094964072 1.0351788 0.7962198257 0.0544943288 0.6025482416
-0.14517307 -0.096006446 1.2122668 -0.06742575765 0.6942333579 0.7165848613
0.26460287 -0.40493053 1.2140001 0.6083556414 -0.1392773241 0.7813483477
0.38858825 -0.19506682 1.0834374 0.8985676169 0.1683229953 0.4052697718
0.37272334 -0.085181184 1.0736499 0.9337676167 0.08066797256 0.3486699462
0.29553351 -0.22529387 1.234154 0.8260885477 -0.1498757601 0.5432448983
0.0044427402 0.063903332 1.0637647 -0.1389947236 0.7824030519 0.6070633531
0.22646403 -0.460513 1.2360001 0.798918128 0.01609854028 0.6012243032
-0.094144657 -0.15716062 1.2835556 -0.1833396852 0.6054578424 0.7744722962
