# .PCD v0.7 - Point Cloud Data file format
VERSION 0.7
FIELDS x y z normal_x normal_y normal_z
SIZE 4 4 4 4 4 4
TYPE F F F F F F
COUNT 1 1 1 1 1 1
WIDTH 512
HEIGHT 1
VIEWPOINT 0 0 0 1 0 0 0
POINTS 512
DATA ascii
0.3041003 -0.041297577 1.7130001 -0.3194884658 0.6875547171 0.6520702839
0.49556562 -0.43476003 3.4680002 0.01070850436 0.8650895357 0.5015032291
-0.43686754 -0.45256338 2.9840002 -0.2939424515 0.8403852582 0.4553575516
0.49879003 0.063772239 2.598 -0.2902680933 0.78144449 0.5523486137
-0.31028214 0.062446721 2.2260001 -0.5743524432 -0.6694873571 0.4710689783
-0.14403516 -0.49573746 1.6880001 0.4330768585 0.03682870045 0.9006043077
-0.16129965 0.35515517 1.6880001 0.4394989312 -0.4165169299 0.7958356142
0.31915838 0.32289124 2.1290002 -0.6006017923 0.7991064191 0.02657881565
-0.03406376 -0.46269941 3.2380002 -0.324862957 0.769128263 0.5503687263
0.27318802 -0.49463168 1.9039999 -0.5946237445 -0.02919507399 0.8034738302
-0.10237275 -0.080533229 1.557 -0.173762247 0.4513963461 0.8752416968
0.026770771 0.047363669 2.3490002 -0.3019575477 0.8784924746 0.3702331483
0.027913943 -0.19868159 1.8730001 -0.3566288054 0.7318819165 0.5806589127
0.49216068 -0.27842233 3.2080002 -0.07415562123 0.8638800383 0.4982089698
-0.3294259 0.15873891 1.9470001 0.09223648906 0.9191846848 0.3828732967
0.12202849 0.046617627 1.5640001 -0.2774051428 -0.3096397519 0.9094886184
-0.21637887 -0.34567842 3.0100002 -0.3065439165 0.7901684046 0.5307209492
0.18627852 -0.35822791 3.2690001 -0.2754805982 0.87265414 0.4032185972
0.055628885 -0.43231589 1.8130001 -0.1162992343 -0.03861942515 0.9924631119
-0.17482443 -0.26724264 1.7570001 -0.7435301542 -0.2724834681 0.6106681824
0.3157315 0.088061169 2.45 -0.2886562645 0.7823542356 0.5519052148
-0.1076687 0.14166933 1.6160001 -0.8980962634 -0.3311684728 0.2893968523
0.24266221 -0.16012405 1.8830001 -0.1091719568 0.8759863973 0.4698184133
0.2673395 0.35626507 1.9260001 -0.8729424477 -0.3642199337 0.3245232403
0.057986241 -0.099617384 1.6960001 -0.3155090213 0.8764264584 0.3637728393
0.26785409 -0.42435312 3.4330001 -0.1628586799 0.8492853642 0.5021865964
-0.32332432 -0.3483882 2.8590002 -0.2825355232 0.8435128927 0.4567927718
0.18430515 -0.33374172 1.8940002 -0.3839666843 -0.2051639706 0.9002651572
0.38861668 -0.33017808 3.3330002 0.01070850436 0.8650895357 0.5015032291
-0.21463868 0.14371459 2.1290002 -0.8125997186 -0.5684930682 0.1284419
-0.086740911 -0.34967428 3.0920002 -0.3224942982 0.7736930847 0.5453406572
-0.08474911 -0.15909046 1.6960001 -0.3014850318 0.8408581018 0.4495157599
0.15263556 0.11632577 2.3010001 -0.2940758765 0.7812419534 0.5506182313
-0.057278518 -0.36479667 1.7390002 -0.6238648295 -0.3098219335 0.717497766
0.18500909 -0.10914763 1.766 -0.2358994931 0.8485655785 0.4735904038
-0.17367993 0.052689418 2.2260001 -0.3778785169 -0.8438048959 0.3810525835
-0.0049779522 0.01445982 1.5246364 -0.3393167853 0.08437650651 0.9368802905
0.23606881 0.043943543 1.6320001 -0.5288373232 -0.1295541823 0.8387769461
0.17100348 -0.4970288 1.8230001 -0.5831257105 -0.1680591851 0.794808507
-0.37678081 -0.49333888 3.0920002 -0.3224942982 0.7736930847 0.5453406572
-0.023369653 -0.49379772 1.7310002 -0.6840311885 -0.2493795604 0.6855006814
-0.15467906 -0.48653597 3.2080002 -0.324862957 0.769128263 0.5503687263
-0.067122862 -0.27328593 1.8230001 -0.2667177022 -0.7902671099 0.5516697764
0.061188117 -0.31568739 1.853 -0.2926402092 -0.4758929908 0.8293898702
-0.081406392 -0.0020873433 2.381 -0.2969465554 -0.8716604114 0.3899113238
-0.17098507 -0.37468031 1.6960001 0.3067258894 -0.01643401943 0.9516559839
0.15486228 -0.4558211 3.3330002 -0.2838388979 0.8251922727 0.4883576334
0.15524451 -0.042075615 1.6550001 -0.2592654228 0.7549777627 0.6023204923
-0.13716765 0.24978951 1.6470001 -0.01317417994 -0.5375243425 0.8431453109
0.21442917 0.084089868 2.398 -0.2886562645 0.7823542356 0.5519052148
0.4542194 0.10313194 2.503 -0.2902680933 0.78144449 0.5523486137
0.13483046 -0.16569525 1.853 -0.03210047632 0.8531844616 0.5206205845
0.0077194883 -0.06807185 1.6010001 -0.408608526 0.8178204298 0.4052268267
-0.101784 0.035634246 1.5719999 0.03564089537 -0.3669163883 0.9295709133
-0.0046708803 -0.16036688 1.7760001 -0.3673631847 0.8376498818 0.4042114913
0.48602399 -0.33269501 3.3000002 0.01070850436 0.8650895357 0.5015032291
0.2830897 -0.10912396 1.8040001 -0.01886452362 0.8623521924 0.505957365
0.25041983 -0.34022558 1.9700001 -0.8206067681 -0.3902186751 0.4175330997
-0.34269249 -0.43163559 2.9840002 -0.3019090891 0.8367806077 0.4567812383
0.21469107 -0.42568767 1.8730001 -0.4898563325 -0.4161115885 0.7660887241
0.094974555 -0.12922768 1.7760001 -0.2131881714 0.874414742 0.4358320832
0.18719551 -0.26963022 1.9590001 -0.4412470162 -0.6645955443 0.6030039787
0.13216397 -0.39649194 1.8430001 -0.3043009937 -0.3015089333 0.9036001563
-0.16399591 -0.17442974 1.7344286 0.4286234677 0.7492049336 0.5049493909
0.10299606 -0.20599212 1.9260001 -0.1118287295 0.8789681792 0.4635830224
0.0015815067 -0.35900202 1.8040001 -0.6209856272 -0.393309027 0.6780006289
0.085241817 -0.028413936 1.5940002 -0.4016086161 0.7900825143 0.4631200433
-0.082518883 -0.19462 1.7760001 -0.4070504606 0.8211365342 0.4000558555
-0.075828157 -0.43564022 1.6960001 -0.4903853834 -0.291859746 0.8211821318
-0.12243877 -0.12813359 1.6240001 -0.2007097304 0.8508192897 0.4856152534
-0.018952657 -0.12100542 1.6630001 -0.3668898344 0.8309758306 0.4181757867
0.12453049 -0.2772879 1.8940001 -0.2369140536 -0.3613318801 0.9018375874
0.22495484 -0.053062439 1.705 -0.1356210411 0.8019830585 0.5817474723
-0.0016507633 -0.27237594 1.8830001 -0.3260486126 -0.8332606554 0.4465075433
0.42863566 -0.31508979 3.2380002 -0.07415562123 0.8638800383 0.4982089698
0.30360261 0.025635928 1.6710002 -0.452150166 0.2199956775 0.864385426
-0.10497031 -0.30265164 1.748 -0.2743719816 -0.7221857905 0.6349548697
0.042037919 -0.49978417 1.7760001 -0.6133429408 -0.4441906512 0.6530735493
-0.0077409665 -0.42575315 1.7660002 -0.7503025532 -0.05625715479 0.6586965919
0.13615686 -0.087600917 1.7130002 -0.202490136 0.845418632 0.4942317903
-0.035508286 -0.05174065 1.5430001 0.03167168796 0.6337330937 0.7729031444
-0.033745531 -0.19765238 1.8330001 -0.483903259 0.7371940613 0.4715744853
0.25538352 -0.37556401 1.904 -0.4512164593 -0.4193226099 0.7877640724
0.19765238 -0.13819598 1.8330001 -0.254830718 0.8133707643 0.5229620337
0.17443883 0.0079931552 1.6090001 -0.3974464834 0.53322649 0.7467970252
-0.05491586 -0.10279998 1.6063334 -0.2566849291 0.8698124886 0.4213538766
0.18527824 -0.19195493 1.904 -0.2896968722 0.78978616 0.5406602621
0.067491055 -0.15908606 1.8330001 -0.2496244907 0.8541117311 0.4562682807
0.060871348 0.01623236 1.5430001 -0.1574510038 -0.07865042984 0.984389782
0.10490018 -0.48476601 1.8129998 -0.2715752125 -0.01126497332 0.9623512626
0.094307423 -0.063838869 1.6550001 -0.301484406 0.8288081884 0.4713641405
0.2237525 -0.4948687 1.863 -0.5514305234 -0.04799063876 0.8328393102
0.24490823 -0.087797292 1.7570001 -0.1454622298 0.8201536536 0.5533431768
0.43105701 -0.295086 3.3000002 0.01070850436 0.8650895357 0.5015032291
-0.17871025 -0.22457394 1.8040001 -0.9738349319 0.1763278246 -0.1433667392
-0.10853834 -0.38211444 1.6960001 -0.3711860478 -0.3005921841 0.8785586357
-0.18266402 -0.31852981 1.7220001 0.2344038486 -0.5398544669 0.808462739
0.23607944 -0.013887026 1.655 -0.3275716603 0.7163214684 0.6161009073
-0.06807141 -0.49721727 1.6880001 -0.4022746384 -0.2508515418 0.880482018
0.072311848 -0.37602162 1.8330001 -0.454513371 -0.6364748478 0.6231511235
-0.15538038 -0.43506515 1.6879998 0.1385016292 -0.07854292542 0.9872427583
0.00150962 -0.13133694 1.7220001 -0.3597946167 0.8649371862 0.3499021828
-0.04225095 -0.32079425 1.7850001 -0.599172473 -0.486220479 0.6360676289
0.11564348 -0.33496734 1.8730005 -0.4426638484 -0.3133585453 0.8401518464
0.00160693 -0.30531669 1.8330001 -0.696200192 -0.4287036359 0.5757763982
0.30960098 -0.081636079 1.7570001 -0.1480860561 0.7928906679 0.5910963416
-0.068129271 -0.026417473 1.5860001 -0.2145612538 -0.1653755307 0.962608099
0.26444474 -0.43613115 1.9040002 -0.3464003801 -0.1555772126 0.9250959754
0.023192983 -0.033765368 1.556125 -0.4032503664 0.671018362 0.622192502
-0.08343295 -0.467787 3.2080002 -0.324862957 0.769128263 0.5503687263
0.065420017 -0.27529541 1.8940001 -0.2394011021 -0.6307649612 0.7381210327
-0.14433177 0.30615833 1.6630001 -0.05277568102 -0.1206084117 0.9912962914
-0.12351882 0.19600864 1.6320001 -0.633795619 -0.3456697166 0.6919650435
0.16595514 -0.44339332 1.8430002 -0.3075307906 -0.1577470899 0.9383713007
0.14470786 -0.13363732 1.8040001 -0.1644491851 0.8347328901 0.5255258679
-0.1164941 0.08842323 1.6010001 -0.7520264983 -0.2671424747 0.6025704145
0.037540618 -0.079412848 1.6470001 -0.3216134906 0.8289574385 0.457596302
-0.14209627 -0.15088573 1.6710001 0.09479530156 0.8646347523 0.4933766723
-0.045735702 -0.163124 1.7390001 -0.3586987555 0.8589428067 0.3654482663
0.2159721 -0.3135626 1.936 -0.5810620189 -0.4714185894 0.663424015
-0.04599081 0.025397912 2.3490002 -0.2969465554 -0.8716604114 0.3899113238
0.044668797 -0.13195266 1.7570001 -0.2190859914 0.8850755692 0.4106611013
-0.17471878 -0.41323787 1.733 0.7834700942 0.02535537817 0.6209119558
0.043623809 -0.26658994 1.8430001 -0.1046036407 -0.06053274497 0.9926700592
0.3422901 -0.0059788665 1.705 -0.2955489457 0.4209718704 0.8575742245
0.01438347 -0.17100348 1.8230001 -0.1682443917 0.9066501856 0.3868840635
-0.13349354 -0.34527165 1.7220001 -0.2818052173 -0.5161767006 0.8087937832
-0.096041463 -0.028406629 1.5430001 -0.6487859488 -0.08236330748 0.7565005422
-0.072193503 -0.12850443 1.6470001 -0.2953290939 0.8353337049 0.463679105
0.26658994 -0.13733421 1.8430001 -0.1261426359 0.8163595796 0.5636001229
0.17475562 -0.37727609 1.863 -0.4839201272 -0.4712815583 0.7373703122
-0.043767583 -0.41351959 1.7324547 -0.4865398407 -0.2865199447 0.8253394961
0.11602595 -0.43549466 1.8130001 -0.2683373094 -0.3157582283 0.9101054072
0.16788167 -0.29043528 1.9150001 -0.4573580325 -0.6866444349 0.5651044846
0.083741829 -0.18390363 1.8730001 -0.3324875832 0.7737767696 0.5391859412
-0.11546051 -0.18535188 1.733 -0.1293312907 0.8782454133 0.4603894353
0.13316917 -0.021250401 1.6160001 -0.308912605 0.7745508552 0.5519456267
0.16209918 0.05310145 1.5940001 -0.599866569 -0.2942693532 0.7440199256
0.095603131 -0.10774321 1.7310001 -0.1679948121 0.8936639428 0.4161038995
0.23501189 -0.11671519 1.8040001 -0.135042429 0.8407836556 0.5242579579
0.48454505 -0.40328595 3.4330001 0.01070850436 0.8650895357 0.5015032291
0.076134115 0.048448984 1.5790001 -0.004320845008 -0.778234005 0.6279594898
0.18266402 -0.080009863 1.7220001 -0.337364912 0.7908223867 0.5106709599
0.13615334 -0.19426759 1.8940001 0.007143151015 0.7583885789 0.6517634988
0.27578181 -0.016569 1.6800002 -0.319801867 0.598300457 0.7346858382
0.20864667 -0.37556398 1.9039999 -0.4908195138 -0.2728746533 0.8274270892
0.1340064 -0.11244214 1.7570001 -0.1529728323 0.8872345686 0.4352174103
-0.093891002 -0.2754136 1.7850001 -0.4263525307 -0.6557090282 0.6231124997
0.015024314 -0.40328422 1.804 -0.5903089046 -0.2226538807 0.7758612037
0.0046445802 -0.47529539 1.7659999 -0.5413762927 -0.1901635379 0.818993032
-0.014818422 -0.37665334 1.7659999 -0.6341788173 -0.4002832472 0.6615062952
0.026389712 -0.34198913 1.8430001 -0.3851813078 -0.4400755763 0.8111528158
-0.11534728 -0.45483679 1.686857 -0.1062969938 -0.4240640402 0.8993723392
0.10542617 0.0043640467 1.5720001 -0.4750419557 0.5279259682 0.7040094733
-0.15172294 -0.20281333 1.766 0.3592962027 0.7589825988 0.5430024862
-0.14469419 -0.28786391 1.732143 -0.1510215402 -0.6012871861 0.7846312523
-0.022619754 -0.26982135 1.8430001 -0.5694627762 -0.6401881576 0.5156271458
0.19483304 -0.032228019 1.6710001 -0.2129281908 0.786629796 0.5795474052
0.26418349 -0.061894421 1.7220001 -0.1541914493 0.8174895048 0.5549197197
0.045315895 -0.047711458 1.594 -0.3220692575 0.7895592451 0.522367239
-0.055715419 -0.077371597 1.5719999 -0.09353041649 0.7301660776 0.6768379211
-0.015660772 -0.095388345 1.6240001 -0.3908719122 0.806795001 0.4430586994
-0.052836701 -0.46043411 1.7220001 -0.6204387546 -0.2920730114 0.7278386354
0.21569154 0.0064066797 1.6240001 -0.3866866827 0.6233468056 0.6796412468
-0.035683841 -0.14124854 1.6960001 -0.3751485646 0.848223865 0.3738713861
-0.03617302 -0.1819136 1.794 -0.3633553386 0.8440798521 0.3943375945
0.11027327 -0.14862919 1.8230001 -0.09445117414 0.903575778 0.4178872705
0.055045899 -0.14941029 1.794 -0.185673967 0.8976048231 0.3997884095
0.45566592 -0.32383803 3.2690001 0.01070850436 0.8650895357 0.5015032291
0.064841777 -0.47603354 1.804 -0.1269009262 -0.08613984287 0.9881680608
0.14534694 0.015226824 1.5790002 -0.338958621 0.5145213604 0.7876387835
0.21215333 -0.19178662 1.9360001 -0.3359873891 0.8471677899 0.4116056263
0.27096626 0.01684515 1.647 -0.629170537 0.219981268 0.7454882264
0.19833706 0.049584266 1.6160001 -0.3491995633 -0.2619186938 0.8996989727
0.17475562 -0.16495623 1.863 -0.1110953167 0.8329582214 0.5420686603
0.02673658 -0.45452186 1.794 -0.6905300021 -0.2906034887 0.6623578668
0.24348758 -0.46386451 1.8830001 -0.5930918455 -0.09803525358 0.79914397
-0.03905024 -0.01211904 1.536 0.3761638105 0.2720933557 0.8857008219
0.14527085 -0.46760049 1.8130001 -0.288426131 -0.3575725555 0.888229847
0.23131903 -0.34951121 1.9260001 -0.6051781178 -0.4264695346 0.6722225547
0.014464298 -0.11185144 1.6832001 -0.342893362 0.8663899302 0.36303249
0.17313816 -0.060672347 1.6880001 -0.4252659082 0.7158222198 0.5538478494
-0.095106058 -0.35476077 1.7220001 -0.3288630247 -0.4977571666 0.8025502563
0.094918892 -0.30291507 1.8830001 -0.1756379008 -0.4637101889 0.8684032559
-0.075088248 -0.32824296 1.7479999 -0.4512772858 -0.5330183506 0.7157096267
0.12518799 -0.069221601 1.6799999 -0.238759622 0.8017417789 0.5479087234
-0.092228845 -0.10201069 1.5940001 -0.2276012301 0.882001102 0.4126399755
0.088381149 -0.41619489 1.8330001 -0.5180323124 -0.3921148777 0.7601897717
0.4683767 -0.3037352 3.2380002 -0.07415562123 0.8638800383 0.4982089698
-0.10351066 -0.15016335 1.6630001 -0.1308317482 0.8401676416 0.5263092518
0.0616998 -0.020566599 1.5640001 -0.3338983953 0.7473894954 0.5743873119
0.095156901 -0.087722771 1.6960001 -0.2538422942 0.8027150631 0.5396411419
-0.10928229 -0.49543256 1.6710001 -0.2814292908 -0.01848182641 0.9594039917
-0.036374655 -0.28704348 1.804 -0.4318556488 -0.5951060057 0.6777532697
-0.080009863 -0.39099157 1.7220001 -0.6145655513 -0.3124394715 0.7243553996
0.19656006 -0.46459651 1.853 -0.5652938485 -0.216494754 0.7959729433
-0.12183563 0.23092102 1.6160001 0.7128947377 -0.05137879401 0.6993864179
-0.13601921 -0.16890298 1.705 0.226297304 0.8533018827 0.4697503448
0.026948294 -0.29479802 1.863 -0.3209987879 -0.5492869616 0.7715203166
-0.017890355 -0.45644635 1.7370002 -0.6846273541 -0.2165082693 0.6959953308
0.025701236 0.031112023 1.5430001 -0.3719287217 -0.1786115617 0.9109154344
0.037740499 -0.11925998 1.7220001 -0.3404054642 0.8626838326 0.374033004
0.10559011 -0.36550426 1.853 -0.2668585479 -0.3402139246 0.9016878605
0.066914208 -0.055524558 1.6240001 -0.4786185324 0.7414944172 0.4702237248
-0.086379714 0.0013711067 1.5640001 -0.3820757866 -0.2491630465 0.8899077773
0.15598968 -0.3464613 1.8730003 -0.168900609 -0.3797030449 0.9095593095
0.18535452 -0.011494854 1.6390001 -0.3351208866 0.7572179437 0.5606380105
0.14528558 -0.31132624 1.8940001 -0.1772247851 -0.4754894078 0.8616850972
-0.13213357 0.16501661 1.601 -0.7745049 -0.2618737221 0.5758162141
0.20634542 -0.17002863 1.883 -0.3044519722 0.8115288019 0.4987283945
-0.01029645 0.032948639 2.3490002 -0.3070856333 0.9514231086 -0.02219140157
0.45908228 -0.43476003 3.4680002 0.01070850436 0.8650895357 0.5015032291
0.0315095 -0.0045783045 1.536 -0.4072153568 0.2445542514 0.8799822927
0.4900558 -0.31237474 3.2690001 0.01070850436 0.8650895357 0.5015032291
-0.0035738193 -0.19720984 1.853 -0.389228195 0.6175606251 0.6834620237
-0.005027391 -0.054996613 1.5640001 -0.456207633 0.7241668105 0.5171624422
0.23535344 -0.40560913 1.9040002 -0.3362111747 -0.2510198951 0.9077174664
-0.18266402 -0.27022198 1.7220001 -0.7806605101 -0.4226989448 -0.4603202641
0.21419553 -0.081561998 1.7390001 -0.1640208364 0.8122501373 0.559773922
-0.111512 -0.41779828 1.6960001 -0.3691367507 -0.05308018625 0.9278580546
0.30777311 -0.0074341334 1.6960001 -0.4395931363 0.5001446605 0.7460651398
0.034966726 -0.37509763 1.8129998 -0.3799125254 -0.3891645372 0.8391766548
-0.022246294 -0.079252422 1.5860001 -0.3680766821 0.8287400603 0.4215560555
-0.066949278 -0.29737934 1.7760001 -0.4683763683 -0.6842573881 0.5589413643
0.22498816 -0.14701393 1.853 -0.1366694421 0.8655000329 0.4819036722
-0.14650153 -0.3980698 1.6880001 0.09488841891 -0.1573664546 0.9829710126
0.16229993 -0.15265834 1.8330001 -0.1106154099 0.8699210286 0.4806262553
-0.17405428 -0.30189946 1.7570001 0.4897659421 -0.4870322347 0.7231382728
-0.0062839463 -0.023340374 1.5360001 -0.4338698089 0.4868678153 0.7581007481
0.18161501 -0.41423815 1.853 -0.4650028646 -0.2058830261 0.8610368967
0.24413575 -0.034623742 1.683077 -0.191517964 0.7516927719 0.6310933828
-0.014233559 -0.3147198 1.804 -0.6759929061 -0.3243827522 0.6616716981
-0.076620668 -0.17622752 1.748 -0.3890421987 0.8459827304 0.3646359742
0.07634978 -0.34601068 1.853 -0.2476801425 -0.2052314728 0.9468551278
0.18503629 -0.12652053 1.804 -0.2572655082 0.816885829 0.5162480474
-0.064841777 -0.20085137 1.8040003 -0.3521764576 0.8228540421 0.4459630251
0.32457599 -0.053894483 1.7366003 -0.2372993231 0.7450489402 0.6233707666
0.096812055 -0.038440078 1.6240001 -0.3059623539 0.7963476777 0.5217445493
-0.10108317 0.10962541 1.6240001 -0.9024964571 -0.2823408544 0.3252442479
-0.08418595 -0.053198941 1.5640001 -0.3145342469 -0.08382982016 0.9455372691
0.27480343 -0.092639118 1.7760001 -0.1235651895 0.8220653534 0.5558239222
-0.40547585 -0.44209948 2.9840002 -0.2939424515 0.8403852582 0.4553575516
-0.076643459 -0.47973129 3.2380002 -0.324862957 0.769128263 0.5503687263
-0.044871558 -0.1124881 1.636 -0.2995931506 0.8441672921 0.4445509911
0.32858869 0.0223024 1.6960001 -0.4441302419 0.3527239561 0.823610425
-0.044897605 -0.35143986 1.7660002 -0.5812235475 -0.3021199703 0.7555810809
-0.16255549 0.33312938 1.6630001 0.5814038515 -0.3791443408 0.719874382
0.094487205 0.034635279 1.5516154 -0.3094893098 -0.4918807447 0.8137995601
-0.1790504 -0.24132881 1.7760001 -0.9940416217 -0.1087478176 -0.007429918274
0.053607289 -0.18031543 1.853 -0.2621450722 0.8135353923 0.5190762281
0.13637471 -0.37155986 1.863 -0.0419212319 -0.4880083203 0.8718317151
-0.13530123 -0.36427253 1.6960001 -0.2545319498 -0.3706726134 0.8932051063
-0.11039513 0.057293672 1.5940001 -0.3698790073 -0.4058538675 0.8357464671
-0.14512253 0.21983907 1.6390001 0.597361207 -0.06336482614 0.7994651198
0.014632883 -0.14247806 1.7570001 -0.3405807316 0.8406796455 0.4210254848
0.19868159 -0.3957212 1.8730001 -0.6778398752 -0.3415723741 0.6510463953
-0.15373787 -0.46656618 1.6960001 0.4202640951 -0.1035526991 0.9014737606
0.0057754801 -0.099627033 1.6470001 -0.3738761842 0.8087061048 0.4541046321
0.21419321 -0.10253693 1.7760001 -0.1569078714 0.8415651917 0.5168635249
-0.05596377 -0.028664369 1.557 0.7705619931 0.03741000965 0.6362662315
0.035417333 -0.06847351 1.6160001 -0.2897718251 0.837067008 0.4640593529
-0.087308988 -0.46910083 1.6880001 -0.4053069949 -0.1297263652 0.9049294591
-0.15023349 -0.3201946 1.7310001 -0.06208019331 -0.4662365913 0.8824791908
-0.016769756 -0.15092781 1.739 -0.4296236038 0.8207525611 0.3765485287
0.067063242 -0.077268526 1.6630001 -0.36099419 0.8157197237 0.4519785047
-0.11318994 0.11877956 1.5940001 -0.8869817853 -0.2427473217 0.3928575218
0.025350571 -0.15366827 1.7850001 -0.3552128077 0.8440274 0.4017980099
0.084238023 -0.44503108 1.8129998 -0.2922996879 -0.1317033023 0.9472144246
0.19518106 -0.29022574 1.9360002 -0.4228782952 -0.6532285213 0.6280656457
0.065165266 -0.39893857 1.8130001 -0.3463768661 -0.2309129834 0.9092316628
-0.056246936 -0.45278782 3.2080002 -0.324862957 0.769128263 0.5503687263
0.13733421 -0.431391 1.8430001 -0.4087988138 -0.3102146685 0.8582834005
0.11887863 -0.046685129 1.647 -0.3485627472 0.7786278725 0.5217687488
0.083819844 -0.1439171 1.8040003 -0.1924022287 0.8952026367 0.4019871354
0.27430198 -0.075088255 1.748 -0.1775536388 0.8052699566 0.5656986833
0.10460562 -0.19260718 1.8940001 -0.02327330783 0.84714818 0.5308468342
-0.15306818 0.27494237 1.6550001 -0.2997400761 -0.3002880812 0.9055290818
0.065386958 -0.1140517 1.7345557 -0.224483192 0.8426476121 0.4894407988
-0.03727534 -0.39524183 1.7570002 -0.5046963096 -0.4513858855 0.7358888388
-0.054787636 -0.13565066 1.6710001 -0.2986951768 0.8404849768 0.4520687461
0.0047944901 -0.33401614 1.8230002 -0.6832803488 -0.3246034384 0.6540340781
-0.16548648 -0.34613368 1.705 0.1528501213 -0.6657064557 0.7303915024
0.094643176 -0.26732546 1.8940001 -0.04438318685 -0.7327052355 0.6790972948
0.19334503 -0.49386463 1.8430001 -0.6004319191 -0.07319398224 0.7963191271
0.26134047 0.050535448 1.6470001 -0.5305691957 -0.1626092494 0.8318981528
0.10477788 -0.16488302 1.853 -0.09306503832 0.8853263855 0.4555613101
0.11263098 -0.014812511 1.5940001 -0.410874635 0.7423347235 0.5292647481
-0.13163263 -0.47442156 1.6710002 0.2018053383 -0.2721411288 0.9408580065
-0.034060255 -0.16875307 1.766 -0.3415539563 0.8501942158 0.4006379247
0.21198501 -0.33884218 1.904 -0.7226082087 -0.2039691508 0.660480082
0.0755485 -0.20339982 1.8940001 -0.2436647415 0.8125447035 0.5295267701
-0.12230727 -0.28641576 1.766 -0.155649215 -0.7465832233 0.6468282938
0.47705483 0.056523085 2.5790002 -0.2902680933 0.78144449 0.5523486137
-0.043944672 -0.4944523 1.7050002 -0.627306819 -0.252835393 0.736586988
0.13584389 -0.49383247 1.8230002 0.04836311936 0.01343018375 0.9987395406
0.33288348 -0.034539789 1.7129999 -0.2850095034 0.5362303257 0.7944977283
-0.058567468 -0.15768164 1.7130001 -0.3634172976 0.8664752841 0.342269659
0.045470323 -0.36445498 1.8430002 -0.4347119629 -0.519977808 0.7352880836
0.16342556 -0.18323474 1.883 -0.09657211602 0.7136387229 0.6938253641
-0.0079075331 -0.17238423 1.8040001 -0.4100925028 0.8576617241 0.3102265596
0.1627444 -0.12049345 1.7850001 -0.1693717092 0.868950665 0.4650140107
-0.023081539 -0.35522097 1.785 -0.6959638596 -0.3696925938 0.6155986786
0.26357421 -0.40123719 1.9150001 -0.1590316594 -0.228870213 0.9603787661
0.0030648266 -0.49803433 1.748 -0.7001487613 -0.2491662651 0.6691097617
0.15416026 -0.095480576 1.7342001 -0.1825779676 0.8403702974 0.5103361607
0.036134448 -0.097172357 1.6710001 -0.3545483947 0.812179625 0.4633137882
-0.11533076 -0.32474712 1.7310004 -0.2409877777 -0.3488484323 0.905665338
0.04315041 -0.17100348 1.8230001 -0.2849353552 0.8476780057 0.4474973381
0.19580789 -0.055802759 1.705 -0.2743932605 0.7384815812 0.6159166098
0.24066867 -0.32601216 1.9470001 -0.8142024875 -0.3708158731 0.4467324317
0.27208927 -0.040144321 1.6960001 -0.204660818 0.7298858166 0.6522121429
-0.095957831 -0.11702869 1.6240002 -0.1108727008 0.8338649273 0.5407185555
0.053716745 -0.29485565 1.8730001 -0.4299785197 -0.5032721162 0.7495569587
-0.087557957 -0.17058706 1.7220001 -0.3377990425 0.8766547441 0.3425906003
0.15880992 -0.018599359 1.6320001 -0.3635993898 0.7589889765 0.5401214957
0.082808182 -0.0031849302 1.557 -0.4616657495 0.4986448288 0.7336334586
0.24570249 0.0071842833 1.6390001 -0.3011324704 0.5118812323 0.8045476079
0.2474006 -0.48981997 1.8940001 -0.6303771138 -0.05713340268 0.7741837502
0.1719415 -0.4708305 1.8330001 -0.4669237435 -0.2951793671 0.8335774541
0.23743816 -0.43170574 1.8940001 -0.5429010391 -0.3755083978 0.7511669993
0.19195493 -0.30879706 1.904 -0.4501094222 -0.6187446117 0.6438606977
0.18848684 -0.08734756 1.748 -0.3031079769 0.7825699449 0.5437921286
0.12518801 -0.12910011 1.7850001 -0.1798867583 0.8537447453 0.4886313975
-0.16691004 -0.40506819 1.705 0.7272617817 -0.05527534336 0.6841307878
-0.11552275 -0.19869913 1.7570001 -0.1546222568 0.9341138005 0.3217504919
0.22048604 -0.45567116 1.863 -0.4351121485 -0.2122419178 0.8750033379
0.0016244634 -0.27778322 1.853 -0.5066866875 -0.6832921505 0.5257189274
-0.11542544 -0.16277948 1.688 -0.03596943617 0.8629530072 0.5040022731
0.022840235 -0.051909626 1.5790001 -0.4190930128 0.7733810544 0.4756498635
0.075474866 -0.12681831 1.7570001 -0.2546084523 0.8568861485 0.4482417405
-0.1627444 -0.26132995 1.7850001 -0.9044439793 -0.3470529914 0.2480630577
-0.067577846 -0.41597918 1.7129999 -0.5772362351 -0.3067907095 0.756754756
0.31526074 0.33000976 2.1030002 -0.9659326673 0.2107521445 -0.1501919925
0.23582105 -0.067073934 1.7310002 -0.1876709461 0.7896739841 0.5841186643
0.011736375 -0.42485675 1.7850001 -0.7305786014 -0.2177989185 0.647161901
0.19512022 -0.36481869 1.8830001 -0.5760723352 -0.3244067132 0.7502672672
0.10502028 -0.39584568 1.8430002 -0.2408907264 -0.329407692 0.9129415154
-0.17056865 -0.20656019 1.7850001 -0.9619194269 0.2697278261 -0.04424864054
-0.0023472749 -0.39512461 1.7850001 -0.7892029285 -0.2956515849 0.5382832885
-0.24188693 -0.35447431 3.0100002 -0.3065439165 0.7901684046 0.5307209492
-0.016514353 -0.28820214 1.8230001 -0.6524181366 -0.590108037 0.4755239785
0.22614011 -0.13344663 1.8230001 -0.06146442145 0.8223432899 0.5656621456
-0.056050561 -0.18216431 1.7760001 -0.3192040026 0.8554545045 0.4078068435
0.25410798 -0.12465674 1.8230001 -0.1792691797 0.7977892756 0.5756689906
-0.14421991 -0.19178504 1.7390001 0.2395935804 0.8143268228 0.5286461711
0.15473014 -0.41383207 1.8529999 -0.1364974827 -0.2825677693 0.9494861364
0.031506088 -0.31586871 1.8430001 -0.2911411226 -0.385396719 0.8756176233
-0.12351181 -0.11509055 1.601 -0.2496163547 0.8911394477 0.3788959086
0.4929783 -0.29427302 3.2380002 -0.07415562123 0.8638800383 0.4982089698
-0.0044604801 -0.12489344 1.6960001 -0.4160788953 0.8488788605 0.3260107636
-0.12561668 -0.14005539 1.6470001 -0.02833666839 0.8428634405 0.5373809338
0.039734915 -0.41165373 1.8130001 -0.1927274466 -0.1951752752 0.9616458416
-0.11350904 -0.10105073 1.5790001 -0.2448822111 0.8728808165 0.4220329523
-0.022593454 -0.0026580533 1.516 -0.1675662845 0.3208264709 0.9321973324
-0.11674395 0.17226851 1.6240001 -0.8226389289 -0.2874040306 0.490575254
0.20453073 0.02539002 1.6089998 -0.3429401219 0.1144875139 0.9323543906
0.11603443 -0.17678832 1.8730001 0.05570085347 0.8059036136 0.5894207358
-0.024518615 -0.43367293 1.748 -0.7357292175 -0.1501314044 0.6604264379
0.085744582 -0.32419616 1.863 -0.325512588 -0.4440580904 0.8347777724
-0.0080346502 -0.18158309 1.8330001 -0.4574767649 0.7493394613 0.478753984
0.29591444 -0.057665378 1.7310001 -0.2695103288 0.7483778596 0.6060484648
-0.083466776 -0.088988453 1.57375 -0.4256640077 0.735620141 0.5269470215
0.14643635 0.0023392388 1.6010002 -0.3070893288 0.7131926417 0.6301209927
0.17281263 0.028413936 1.5940002 -0.7309230566 0.04788363352 0.680777967
0.25315064 -0.14862393 1.863 -0.02944446169 0.8858664036 0.4630051255
0.21365419 -0.18193989 1.904 -0.3456018269 0.8392602801 0.4197636545
0.13584389 -0.14756374 1.8230001 -0.1133311614 0.8801314831 0.4610039294
0.11501028 -0.41665402 1.8330001 -0.1790802926 -0.509008646 0.8419266343
-0.13025513 -0.30188543 1.748 -0.3020377755 -0.6709301472 0.6772192121
-0.049213611 -0.43567634 1.7220001 -0.5826765299 -0.1804978997 0.7924067974
-0.082723431 -0.023308814 1.5640001 -0.5306403637 -0.08137148619 0.8436821103
0.0056948266 -0.082574986 1.6240001 -0.4117720127 0.7688992023 0.4891194403
0.12380726 -0.30539119 1.8830003 -0.3040356934 -0.3278609514 0.8944660425
0.28210303 0.034989521 1.6630001 -0.5986127257 0.05979299173 0.7988038659
0.080656841 -0.49501157 1.8040003 -0.2486279011 -0.04182691872 0.9676955342
0.28523889 0.0043947301 1.6710002 -0.5586513877 0.3825171292 0.7359274626
0.075587071 -0.10261822 1.7129999 -0.1586731374 0.9033221602 0.398537159
-0.032906562 -0.072668649 1.5640001 -0.1674316376 0.7754822969 0.6087641716
0.077225566 -0.27028948 1.9150001 -0.04033768922 -0.7125083804 0.7005031705
0.1262549 -0.45547661 1.8230002 -0.1920046806 -0.2828428745 0.9397521615
0.15373787 -0.073449232 1.6960001 -0.1998852044 0.7968087792 0.570211947
0.025851145 -0.17934233 1.8430001 -0.1895347536 0.8127202988 0.5509648919
0.042463977 -0.47654021 1.794 -0.6028032303 -0.2737656832 0.7494535446
0.020126512 -0.49542186 1.766 -0.5173463821 -0.3529211283 0.7796148658
-0.092672437 -0.40506825 1.705 -0.5537468195 -0.1209860146 0.823848784
0.1040805 -0.11684301 1.7570001 -0.202466324 0.8826730847 0.4241410494
0.050086595 -0.3360649 1.8430001 -0.2870727181 -0.2718564272 0.9185223579
0.054475188 -0.19809161 1.8830003 -0.2356604487 0.8039226532 0.5460517406
0.25288677 -0.35472038 1.9360002 -0.5109464526 -0.6062558293 0.6094157696
0.23201509 -0.36888731 1.904 -0.3365162909 -0.5218744874 0.7838391662
-0.13175248 0.14450273 1.6160001 -0.8183834553 -0.1789940596 0.5460857749
0.14502609 -0.057131488 1.6710001 -0.2297226191 0.7571603656 0.6115028262
-0.063674927 -0.47382516 1.7050002 -0.450432986 -0.1866165698 0.8730889559
0.19762082 -0.44260532 1.863 -0.4896422625 -0.302249819 0.8178603053
0.16301288 -0.32561305 1.8830003 -0.29611215 -0.4158142507 0.8598930836
0.25507057 -0.1032801 1.7850001 -0.1676381975 0.856725812 0.4877687097
0.26260987 -0.0043526501 1.6550001 -0.3926129341 0.6303607225 0.669701755
0.14534695 0.044296209 1.5790004 -0.4145200849 -0.1991583705 0.8879803419
0.15432401 -0.38499781 1.853 -0.2140719891 -0.2467932403 0.945127666
0.035683841 -0.10853834 1.6960001 -0.3318020999 0.874625802 0.353464365
-0.019921374 -0.40915436 1.748 -0.7062501907 -0.2012370974 0.6787593961
0.19493559 -0.15676071 1.853 -0.2228149772 0.8161259294 0.5331903696
-0.08203496 -0.14356118 1.6710001 -0.2936190665 0.8470963836 0.4429621994
0.03103137 -0.26948294 1.863 0.1027962193 -0.9777832031 -0.1826827526
0.069613472 0.042314071 1.557 -0.01330528408 -0.6692429185 0.742924571
-0.033211641 -0.14945237 1.7220001 -0.3888861537 0.8518419862 0.3509028554
0.055628885 -0.45615685 1.8130001 -0.1436876059 -0.07949519157 0.9864250422
0.26068383 -0.41178086 1.8940001 -0.3192612231 -0.221859321 0.9213309288
-0.061411668 -0.32150817 1.7660002 -0.498396039 -0.4956851006 0.7112648487
0.10812455 -0.097612448 1.7130001 -0.2578555942 0.8346117139 0.4867584705
0.26342693 0.34649459 1.9470001 -0.8778784871 -0.3595988154 0.3162563145
0.065392315 -0.13856944 1.7760001 -0.2186743766 0.8811361194 0.4192620814
0.0046708798 -0.44529048 1.7760004 -0.6044768691 -0.229300037 0.7629083991
-0.066344731 -0.11304231 1.6240002 -0.2581191063 0.850544095 0.458202213
0.024771534 -0.35399318 1.8230001 -0.4968781769 -0.5850809216 0.640930891
0.075943664 -0.17341146 1.8529999 -0.2405901402 0.7926728129 0.5601661801
-0.034721255 -0.47509894 1.7220001 -0.646511972 -0.2229050994 0.7296133637
0.21561792 -0.037409119 1.6800001 -0.1475084871 0.7765879035 0.6124969125
0.17700776 -0.0261159 1.6550001 -0.4070746005 0.7453283668 0.5279923081
0.20755084 -0.40015802 1.8940001 -0.6101498604 -0.3635898232 0.7039315104
0.29575664 -0.097020701 1.7850001 -0.08723209798 0.8226413131 0.5618290305
0.1254089 0.024806159 1.5720001 -0.3997454047 0.1677813679 0.9011398554
-0.13466302 -0.42470637 1.688 -0.03877962753 -0.08635673672 0.9955092669
-0.095501699 -0.13551751 1.6470002 -0.0858059451 0.8137536049 0.5748412013
0.46540567 0.096176468 2.5220001 -0.2902680933 0.78144449 0.5523486137
-0.07391879 -0.28466594 1.794 -0.4327321649 -0.6468535066 0.6279518008
0.06479232 -0.03531599 1.5860001 -0.4046352506 0.7535752058 0.5180683136
0.21504955 -0.011015902 1.6390001 -0.156444788 0.7041828036 0.6925688386
0.17006545 -0.14145631 1.8130001 -0.1208127737 0.8193113804 0.5604757667
0.12427638 -0.10425383 1.7378572 -0.1899405867 0.8711204529 0.4528484344
0.1468734 -0.45411843 1.8329999 -0.4417872727 -0.4656866193 0.7667854428
0.03479315 -0.43491432 1.8040003 -0.390166223 -0.1456051618 0.9091586471
0.097293846 -0.34414488 1.863 -0.3430283368 -0.3067909479 0.887812376
-0.011070547 -0.34002393 1.8040001 -0.7534837723 -0.2574507892 0.6049638987
0.14855643 -0.28542864 1.9039999 -0.3614435494 -0.2738025188 0.8912860155
0.13442375 -0.03341759 1.6352309 -0.2873485386 0.788975656 0.5430914164
-0.04261506 -0.37223998 1.7570001 -0.5944386125 -0.3505822122 0.7236952782
-0.010726893 -0.47504812 1.748 -0.8200112581 -0.1771410108 0.544244945
0.024392374 -0.13263352 1.7390001 -0.2989676893 0.8742964864 0.3823923767
0.13437214 -0.3430286 1.8830001 -0.04144410044 -0.3610316813 0.9316321611
0.29290485 -0.03122336 1.6960001 -0.3642788827 0.6279461384 0.6877387166
-0.076990619 -0.36834729 1.7220001 -0.5287004113 -0.2173937559 0.820497334
-0.096504055 -0.2874479 1.7660002 -0.3347435296 -0.6976071 0.6334754229
0.021459924 -0.27402669 1.8830001 -0.1154161319 -0.8814953566 0.457870096
0.08447209 -0.37362656 1.853 -0.2734752297 -0.5071498752 0.8173189759
0.20566793 -0.12429082 1.8130001 -0.2416747659 0.8240771294 0.5123380423
-0.064153589 -0.062788628 1.557 0.2140071392 0.3914575875 0.8949647546
0.09511821 -0.014435819 1.5790002 -0.4306740165 0.6746098399 0.5995176435
0.12791619 0.0027807867 1.5860001 -0.3663597107 0.6161240339 0.697260201
-0.10492911 -0.17308819 1.7050002 -0.2081749588 0.8786559701 0.4296822846
0.17315236 -0.045998175 1.6710001 -0.4711771607 0.6647552252 0.5797349215
0.0053531462 -0.0053577493 1.52675 -0.3269194961 0.3413536251 0.8812499046
0.17498092 -0.3549141 1.883 -0.4843072891 -0.2846324146 0.82730335
0.2439702 -0.1405656 1.8430001 -0.09526499361 0.8494218588 0.5190443993
0.045026738 -0.034810245 1.5755002 -0.3115920424 0.75197047 0.5809051394
0.17212881 -0.30606827 1.8940001 -0.3417041898 -0.5734556317 0.7445716262
-0.054416806 -0.30165154 1.794 -0.4157035649 -0.5924021602 0.6901088357
-0.034276541 -0.032744627 1.5290002 0.185466364 0.4132001698 0.8915536404
0.16481246 -0.10628093 1.7570001 -0.1787820607 0.8710977435 0.4574119449
0.045181207 -0.015286876 1.5500001 -0.3214595914 0.6168414354 0.7184499502
0.017869096 -0.20305791 1.853 -0.2701101899 0.6757332683 0.6858753562
-0.096187867 -0.43950453 1.6880001 -0.1741116494 -0.2723656297 0.9463097453
-0.16476403 -0.30435038 1.7365388 0.328653872 -0.6256685853 0.7074782252
-0.025430346 -0.18595941 1.8130001 -0.4422239661 0.7986586094 0.4081450105
-0.11649134 -0.35633904 1.7130002 -0.3198739588 -0.654946506 0.6846354604
0.19482383 -0.11501648 1.7850001 -0.236298278 0.8570139408 0.4579194188
-0.055669039 -0.27613109 1.8040001 -0.2512453496 -0.7396360636 0.6243510842
0.10537358 -0.13682838 1.794 -0.1138187572 0.8769379258 0.4669316113
0.093774401 -0.46569321 1.813 -0.2343848795 -0.1441185176 0.9614018798
0.0179366 -0.11808261 1.705 -0.3169512749 0.8809579611 0.3513616323
0.072759539 -0.041778717 1.6063334 -0.4790415168 0.7637566328 0.4326603711
0.0057988572 -0.38325176 1.804 -0.6199290752 -0.3126443326 0.7196815014
-0.092418201 -0.18945731 1.7570001 -0.3906907141 0.83395046 0.389727354
0.20440254 -0.071555987 1.7220001 -0.2168749273 0.7704355717 0.5994950533
0.054416806 -0.49730039 1.794 -0.3897664249 -0.5270107985 0.755209744
0.25410181 -0.052315082 1.705 -0.1053778306 0.7677021623 0.6320829988
-0.014203316 -0.046668038 1.5430001 -0.3344653547 0.6501931548 0.6821889877
0.085167289 -0.39369786 1.8329999 -0.5222152472 -0.3415784836 0.7814188004
-0.0150575 -0.10664012 1.6470002 -0.3434633315 0.8145674467 0.4674535692
0.073479354 -0.30417988 1.8730001 -0.2000645101 -0.6293783784 0.7509041429
0.084654875 -0.054527938 1.6366668 -0.3448446989 0.7537780404 0.5593754053
-0.040524792 -0.088036619 1.5940001 -0.302423656 0.8421736956 0.4464116991
-0.05597955 0.014513217 2.365 -0.2969465554 -0.8716604114 0.3899113238
0.22692394 -0.47388023 1.8730001 -0.5645393729 -0.1107691452 0.8179397583
0.022787197 0.014074444 1.5290002 -0.4148546755 -0.1072461084 0.9035452008
-0.035844523 -0.27648225 1.8230001 -0.4660677314 -0.6774787903 0.5690372586
0.061784837 -0.070405975 1.6390001 -0.3786620498 0.818220675 0.4325851798
0.021486048 -0.46553102 1.7760003 -0.6688215733 -0.2396668196 0.7037311792
0.035320316 -0.15709633 1.804 -0.2596285343 0.8501899838 0.4580065906
-0.055063844 -0.39521691 1.7352669 -0.5152077675 -0.3449106216 0.7846002579
0.26068383 -0.45661184 1.8940001 -0.5350473523 -0.1443133503 0.8324049115
-0.053910617 -0.17200054 1.7570001 -0.2999184132 0.8810441494 0.3658007681
-0.010837353 -0.40098208 1.766 -0.7772212029 -0.2327821553 0.584585011
-0.066043675 -0.092461154 1.5860001 -0.1792402714 0.8074371815 0.5620658994
0.1956611 0.0061390046 1.6160001 -0.2506241202 0.6953973174 0.6735058427
-0.17184946 -0.19507235 1.766 0.3943752944 0.7218669653 0.5686617494
-0.044251937 -0.12259964 1.6550001 -0.2640047967 0.8476639986 0.4601817131
0.33556074 0.0044332058 1.6862223 -0.4230412543 0.3252272904 0.8457323909
0.22385888 -0.15708435 1.8730001 -0.2168419957 0.8436864614 0.4910933375
0.20457454 -0.02176325 1.6550001 -0.0895158127 0.8043473363 0.587377429
-0.15022559 0.24179168 1.6320001 0.3397821784 -0.4302439988 0.8363242149
-0.095603123 -0.33536971 1.7310001 -0.3688189983 -0.438731432 0.8194432855
-0.161925 -0.28656128 1.748 0.473929435 -0.4440892041 0.7603786588
-0.16492599 -0.33324862 1.7220001 0.09023413807 -0.4847949147 0.8699607253
0.22565752 0.025270792 1.6240003 -0.5754256845 0.0817784518 0.8137552142
0.18606459 -0.17663167 1.8830003 -0.1917648017 0.7939864993 0.576898396
0.27488407 -0.11986225 1.8230001 -0.07779147476 0.8179575205 0.5699947476
-0.086036943 -0.30652037 1.7570001 -0.4701956809 -0.5496762991 0.6904867291
0.25529385 -0.016380358 1.6710002 -0.2887203097 0.7118691206 0.6402209997
0.2545954 -0.073177122 1.7390002 -0.09418912977 0.8027799726 0.5887892246
0.11448565 -0.078801811 1.6960001 -0.2647995949 0.8035950065 0.5330255628
-0.094037406 0.06877362 1.6010001 -0.3074471354 -0.3708387017 0.8763303757
