# .PCD v0.7 - Point Cloud Data file format
VERSION 0.7
FIELDS x y z normal_x normal_y normal_z
SIZE 4 4 4 4 4 4
TYPE F F F F F F
COUNT 1 1 1 1 1 1
WIDTH 512
HEIGHT 1
VIEWPOINT 0 0 0 1 0 0 0
POINTS 512
DATA ascii
0.16846465 -0.17725411 1.6710001 -0.04006749019 -0.4239260554 0.904810071
0.425271 -0.33269501 3.3000002 -0.2612746954 0.8084993362 0.52731812
-0.49334824 -0.43604466 3.0640001 -0.1210544929 0.6576501727 0.7435334921
0.46691969 0.16843221 2.4320002 -0.1422299892 0.8617480397 0.4869917333
-0.46438611 -0.0019269133 2.1980002 0.9236505032 0.1300168186 0.3605071306
-0.083674192 0.45487112 1.6021427 0.1964936256 -0.4302600026 0.8810599446
0.015296079 -0.1861023 2.9080002 -0.2195939571 0.8262322545 0.5187665224
-0.37115261 -0.080001093 1.4960001 0.2639725506 0.5550072789 0.7888506651
0.48540416 -0.064330675 2.8590002 -0.1831086129 0.8579447269 0.4800021946
-0.18235719 -0.49343711 1.748 0.5871881843 0.2357079387 0.774371922
0.12294198 0.23417521 2.2260001 0.04257564619 0.9884447455 -0.145479396
-0.004982973 0.090939261 1.4210001 -0.348123014 -0.07769680023 0.9342235327
-0.49806941 0.2212014 1.6710001 0.5383643508 -0.1574963927 0.8278639317
-0.15630615 -0.1624358 1.748 -0.419479847 0.7529295683 0.5070835352
0.2261125 -0.055945359 2.6590002 -0.147690177 0.84320122 0.5169132948
0.047614567 0.3164174 1.9260002 -0.9049014449 -0.3994054794 0.1470669061
0.14124854 -0.49511328 1.6960001 -0.006399096455 0.5543227792 0.8322771788
-0.22294685 -0.41097432 3.0640001 -0.1210544929 0.6576501727 0.7435334921
0.19115716 0.1224265 2.45 -0.2362248003 0.8473276496 0.4756402969
-0.38962486 0.099590212 1.9930001 -0.549443543 0.8076536655 0.2140264511
-0.14406219 -0.046668034 1.5430001 -0.1845142096 0.8352905512 0.5179229379
-0.015096201 -0.33513558 1.7220001 -0.1425756514 -0.06980848312 0.9873190522
0.26818374 -0.13534506 2.8590002 -0.2243792415 0.8429067731 0.4890420437
0.0027176666 0.26497248 1.5500001 -0.492056936 -0.2989051044 0.8176403046
0.095337279 -0.0055324244 1.5760837 -0.3074614406 0.8168339133 0.4881083667
-0.32209611 -0.18136041 1.6550001 -0.3295939863 0.8358919024 0.438921988
-0.43778977 0.046982318 1.6240001 0.51965487 0.6183799505 -0.5895465016
0.25390458 -0.34531021 1.6550001 0.2371718585 -0.1734670997 0.9558549523
0.10649747 -0.2902056 3.0370002 -0.2644126117 0.8189010024 0.509398818
-0.27804708 0.088298745 2.1430001 -0.1297399551 0.7787328362 -0.6137937307
0.0048578293 -0.094540827 1.705 -0.2637672424 0.8423960805 0.4698890448
-0.2321194 -0.32496718 1.785 0.6911625862 -0.531960845 0.489195168
-0.34792444 -0.34269249 2.9840002 -0.1210544929 0.6576501727 0.7435334921
-0.026465515 -0.49511328 1.6960001 0.05222004652 -0.1304965764 0.990072608
-0.18215819 0.061556902 1.4330001 0.3453695774 -0.5284448862 0.7755422592
-0.3364296 -0.47318959 3.1200001 -0.1210544929 0.6576501727 0.7435334921
0.1171928 -0.31495562 1.6710001 0.5819627047 -0.02743366361 0.8127526045
0.13543777 -0.056527242 1.7310001 0.2273769677 -0.1038026512 0.9682586193
-0.032861851 -0.19873595 1.7850001 0.4054791331 -0.7889196873 0.461727649
-0.025091661 -0.0057266792 1.5063334 -0.2065812647 0.8528988957 0.4794659913
-0.26407513 -0.10447834 1.5640001 -0.2998867929 0.7768620253 0.5536725521
0.06008235 0.13218117 1.5230001 -0.1700385511 -0.2646987736 0.9492214918
-0.13397878 -0.37551802 1.7220001 0.1401739568 -0.09363118559 0.9856898189
-0.013193834 -0.31401324 3.0100002 -0.1388431191 0.6892536283 0.7110921144
-0.26473868 -0.024618713 1.464 0.007082078606 0.5533159375 0.8329413533
0.13113444 -0.1542758 2.9330001 -0.2645418942 0.8393015862 0.4749636352
-0.11389434 -0.096483745 1.6550001 -0.266364634 0.8592054844 0.4368246794
0.062772311 -0.21534808 1.7130001 0.669468224 -0.07699238509 0.7388399839
0.065420374 -0.4148246 1.6960001 0.2685653269 0.1117449403 0.9567579031
-0.1237377 -0.26749936 1.7570001 0.2059153616 -0.406945616 0.8899405003
-0.015477549 -0.053471405 1.6050001 -0.2421302795 0.8840852976 0.399707526
-0.25260976 -0.21410216 1.7570001 -0.2123011202 0.9205861688 0.3277947307
-0.215698 -0.14170294 1.6550001 -0.3577684164 0.7747147679 0.5213624835
-0.045246523 0.36197218 1.5640001 0.0608471632 -0.2624255419 0.963031888
0.16748893 -0.40283972 1.6470001 0.08944283426 0.1919494569 0.9773204923
0.085188329 -0.075562529 1.647 -0.2376823574 0.7909249663 0.5638659596
-0.378187 -0.13764894 1.5860001 0.1774401516 0.8352815509 0.5204034448
-0.085382409 0.036145844 1.4371541 0.03198186681 0.635191083 0.771692574
0.16379201 0.16379201 2.365 -0.2770669758 0.8337460756 0.477599591
0.061351761 0.037855342 1.4890001 -0.4683679938 0.4509840608 0.7597662807
-0.4065828 0.074335486 2.2120001 0.9230391383 0.13133201 0.3615945578
0.22559616 -0.25489435 1.671 -0.1631494015 -0.1560543329 0.974181354
-0.45835727 0.13793823 1.6390001 0.2596029341 -0.1278968155 0.9572088122
0.18143055 -0.15160635 2.835 -0.2470140755 0.8365870714 0.4889847636
-0.075171188 -0.12447877 1.7358 -0.2430174351 0.8373844028 0.4896221459
-0.21453786 -0.40608954 1.748 0.5032724738 0.03321688622 0.8634890914
-0.10527076 -0.45759681 1.705 0.2614816129 -0.1287346631 0.9565849304
-0.23621871 -0.23943257 1.8330001 0.9386422038 0.3000256717 0.1701042205
-0.034164358 -0.41560379 1.7130002 0.2321773171 -0.07275671512 0.9699485302
-0.18558936 -0.013978712 1.4763001 -0.2973378897 0.753123045 0.5868524313
-0.18625435 -0.092827737 1.594 -0.4116687775 0.7833552957 0.4657073021
0.057986241 -0.49511328 1.6960001 0.1741609275 0.1067592725 0.97891289
-0.3252784 -0.39846605 3.0920002 -0.1210544929 0.6576501727 0.7435334921
-0.015175099 -0.25494167 1.7310004 0.1348795593 -0.2133024335 0.9676309228
0.049325649 -0.29445919 1.705 0.547062397 -0.09197804332 0.8320233226
0.14416346 -0.13429964 1.7310001 0.3319263458 -0.1217359304 0.9354171753
-0.44725779 -0.49062824 3.0920002 -0.1210544929 0.6576501727 0.7435334921
-0.098361999 -0.01180344 1.4960001 -0.1057258099 0.8247498274 0.5555266142
0.1249359 -0.23668759 1.6710002 0.2973691821 -0.2585175037 0.9190975428
0.015623076 0.19597799 1.5276668 0.5567035079 0.04870987311 0.8292819262
-0.069613472 -0.042314071 1.557 -0.2022445649 0.8745872974 0.4406746626
0.20446321 -0.45396605 1.684 -0.1668326706 0.5394665599 0.8253136873
-0.22243822 -0.056343891 1.5230001 -0.2446675748 0.7169005871 0.6528332829
-0.0849929 -0.32507548 1.7383848 0.02815349214 -0.2427459955 0.969681263
-0.29506022 -0.075023375 1.5066001 -0.2400134802 0.6849882603 0.6878841519
0.18515289 -0.33210886 1.6630001 0.2843093574 -0.4583081901 0.8420937061
0.023659481 -0.021384532 1.557 -0.1312346905 0.8672855496 0.4802012146
-0.16525255 -0.32412383 1.7570001 0.2436033487 -0.2661343813 0.9326466918
-0.25424734 -0.18287967 1.6960001 -0.4160143137 0.7849577665 0.4591006041
-0.01393374 -0.12230727 1.766 -0.2308473736 0.887306273 0.3992456496
-0.2374364 0.039786641 1.4640001 0.241731286 -0.1667091995 0.9559152722
-0.045923743 -0.08382906 1.6630001 -0.1434867978 0.9033609033 0.4041665196
-0.015182273 0.034185216 1.4541818 -0.2862043381 0.7048373818 0.6490696073
-0.27420589 -0.14835024 1.6240002 -0.3171137571 0.7643795013 0.5613936186
-0.32464719 -0.12039001 1.5430001 -0.1783578843 0.812054038 0.5556587577
0.019818803 -0.17379566 1.7390001 0.566783309 -0.238766849 0.7885094285
-0.33731329 -0.02503497 1.503 0.5204054713 -0.2750176489 0.8084203601
-0.11458735 -0.071267739 1.5940001 -0.1834906638 0.883497715 0.4310022295
0.23535082 -0.40572745 1.6470002 -0.01870105602 0.1155646816 0.993123889
0.12464651 -0.027222544 1.6343335 -0.2799374759 0.8030178547 0.5261153579
0.10934225 -0.37759525 1.6630001 0.3021637797 -0.0004299919819 0.9532559514
-0.10484495 -0.15804985 1.7850001 -0.291667968 0.8575672507 0.4236840308
-0.21797439 -0.26312622 1.7760001 0.8333758712 0.2675803006 0.4836170375
-0.15680937 -0.43451369 1.7310001 0.2241947502 -0.07557995617 0.9716091752
-0.16425928 -0.13170339 1.6880001 -0.3546260297 0.8221250176 0.4453659654
0.1157279 -0.44533265 1.6710001 0.3251130283 0.2102095932 0.922015965
-0.12483996 0.081144273 1.424 0.08412814885 -0.09031637013 0.9923534393
0.070251681 -0.088188283 1.705 0.02298914082 0.9089981318 0.4161657691
0.076480404 -0.16570753 2.9080002 -0.2195939571 0.8262322545 0.5187665224
0.048321865 -0.35609499 1.6960001 0.3430933356 -0.09365727007 0.9346203804
0.12224766 0.22445472 2.286 -0.3405446708 0.7931524515 0.5049143434
0.024665019 -0.068191513 1.6550001 -0.1030299067 0.9224764705 0.3720511198
-0.064985111 0.091227241 1.4255 0.05108370259 -0.395986259 0.916834414
-0.14187974 0.01900175 1.4450001 -0.09489418566 0.7484500408 0.6563670039
0.11508038 -0.17604028 1.6960001 0.3965060413 -0.2794410288 0.8744688034
0.055011708 -0.042316701 1.6090001 -0.2037178874 0.8599461913 0.4679653645
-0.076205522 -0.23412122 1.7659999 0.2022114545 -0.3163169324 0.9268517494
0.17057391 -0.27554247 1.6630001 -0.06403583288 -0.2366883755 0.9694730639
0.014947168 -0.44542554 1.705 0.1444062442 0.007432950661 0.9894905686
0.39055499 -0.28640699 3.3000002 -0.2612746954 0.8084993362 0.52731812
0.032086 0.080856718 1.4640001 -0.8194444776 -0.289300859 0.4947886169
-0.30385002 -0.20673816 1.7129999 -0.1766479164 0.8804026842 0.4400984049
-0.32326674 -0.14859091 1.594 -0.1993303746 0.8425642848 0.5003526807
-0.20273355 -0.16819376 1.7130001 -0.5442019701 0.7325093746 0.4089917541
-0.034333929 0.30649349 1.555091 0.5104469657 -0.05163431913 0.8583576083
0.10128639 0.02217949 1.5242002 -0.1387061626 0.8487881422 0.5102149248
-0.073971368 -0.37589538 1.7220001 0.004103334621 -0.07180892676 0.9974099398
-0.19662055 -0.19352417 1.766 -0.4916516244 0.7028750181 0.5140480399
-0.059523035 0.41250849 1.5790001 0.2377441674 -0.3472307324 0.9071430564
0.072334647 -0.16642025 1.7310001 0.4092502892 -0.6221264601 0.6674374938
-0.066584587 -0.069417976 1.6160001 -0.1721756607 0.9091101885 0.3793075681
-0.16523851 -0.11063796 1.6390001 -0.258605957 0.8440404534 0.4698070884
-0.49422696 0.16765814 1.6630001 0.2863370478 -0.3264622092 0.9007960558
-0.13737541 -0.49515536 1.7220001 0.414593339 -0.1455891132 0.8982851505
0.013014994 -0.39445439 1.7130002 0.2208036184 -0.09824344516 0.9703576565
0.21534176 -0.19776285 1.6710001 -0.01222853828 -0.1199622378 0.9927031398
-0.23477979 -0.11809635 1.6036668 -0.288362056 0.8424558043 0.4550994635
-0.18412858 -0.36507082 1.7331821 0.3943678439 -0.2570296824 0.8822753429
0.025092078 0.0066001727 1.5064286 -0.2047851831 0.8123592734 0.546017766
-0.0655545 -0.27593872 1.7390002 0.1332461834 -0.4123905599 0.9012100101
0.046515934 0.083728679 1.516 0.3601005673 -0.4422707856 0.8214159608
0.091687642 -0.26812443 1.6960001 0.4822006822 0.03907835484 0.8751887679
-0.11509318 -0.123065 1.705 -0.297985971 0.8756264448 0.3801088035
-0.46174964 0.084610783 1.6470001 0.840138495 0.3089613914 0.4457692206
-0.16430925 -0.2754136 1.7850001 0.3789381683 -0.61821872 0.6886301637
-0.39165959 0.116246 2.0400002 -0.4176060259 0.8504117131 0.3200079501
-0.37334427 -0.11227382 1.5430001 0.2952743471 0.7821512818 0.5486824512
0.22597401 -0.3047004 1.6630001 -0.2605196536 -0.3401041925 0.9035810232
0.17578919 -0.22559613 1.6710002 -0.08643688262 0.02645352483 0.995906055
-0.024459001 -0.0285355 1.5500001 -0.1764993817 0.8535719514 0.4901661575
-0.07525336 -0.49373546 1.7130002 0.07930508256 -0.1404895633 0.9869009256
-0.19553612 0.016399803 1.439 0.07334121317 0.4703861475 0.8794077039
-0.20486034 -0.45284918 1.7570001 0.637360692 0.1539884657 0.7550224662
0.18185718 -0.14598399 1.705 0.1507975906 -0.5722061992 0.8061266541
-0.0541883 0.014189508 1.4717501 -0.1347098202 0.7783519626 0.6132059097
0.031867709 -0.25494167 1.7310001 0.4583516717 -0.00855693128 0.8887297511
0.060595199 -0.00134656 1.536 -0.37150383 0.7785398364 0.5058266521
-0.044841498 -0.10463016 1.705 -0.1577290297 0.898285985 0.4101266265
-0.18480133 -0.067941666 1.5500001 -0.3574513495 0.7772579193 0.5177824497
-0.14362167 -0.019764449 1.5029999 -0.1535433233 0.812538743 0.5623212457
-0.10416378 -0.41514549 1.7220001 0.003919612151 -0.1695318967 0.9855169058
0.16571425 -0.46604097 1.6630001 -0.2336851507 0.4496358931 0.8621013761
0.0042141364 -0.21568719 1.748 0.3383788764 -0.3718028665 0.8644433618
0.0042504305 -0.29557675 1.7326 0.08032301068 -0.158834964 0.9840323329
-0.30480456 -0.04065787 1.4770001 0.1505936533 0.4077877998 0.9005724192
0.21513665 -0.36529911 1.6470002 -0.04840867221 0.04878251255 0.9976356626
-0.055564012 -0.45502418 1.7130002 0.1824627668 -0.2303268313 0.9558539987
-0.22349039 -0.08912193 1.5640001 -0.3195634186 0.8001335859 0.5076075792
0.14557198 -0.35514396 1.655 0.2282602489 4.438097312e-05 0.9736001492
-0.23222899 -0.36382544 1.766 0.6718848348 -0.02596571855 0.7402003407
0.09451969 -0.34175774 1.6960001 0.264577806 -0.2986884713 0.916942656
0.099147491 -0.48537877 1.6880001 0.3201294243 0.1750996411 0.9310516715
-0.12670933 -0.33552781 1.7375457 0.2739739716 -0.4002206922 0.8745065331
0.15730241 -0.094502211 1.7220001 0.350921303 -0.2317897826 0.907263875
0.02513491 0.15213235 1.5090001 -0.2349834293 -0.2998158336 0.9246043563
-0.037530102 0.058797155 1.427 -0.1004388556 0.4518087804 0.8864427805
-0.25499177 -0.052272376 1.4960002 -0.2570511401 0.7712001801 0.5823873281
0.014947168 -0.49475113 1.705 -0.06005205587 -0.1588719636 0.985471189
-0.17676054 -0.042528853 1.5159999 -0.2770280838 0.7800052762 0.5611124635
-0.26365837 0.01892285 1.439 0.1963995695 -0.05751076713 0.9788358808
0.02531877 0.037453115 1.464 -0.3572632968 0.6115100384 0.7059875727
-0.1055703 -0.033125374 1.5360001 -0.1109130383 0.8459075093 0.521669209
-0.22491673 -0.027302029 1.4829999 -0.2571198344 0.7053772211 0.6605546474
-0.0226443 -0.37589538 1.7220001 0.225737825 -0.1706678271 0.9591219425
-0.15503675 -0.07059709 1.5790001 -0.2422940731 0.8635673523 0.4422047734
-0.22336651 -0.19732201 1.7332858 -0.356911242 0.7969250083 0.4873652756
-0.11493101 -0.14353605 1.748 -0.2470132858 0.8352091908 0.491334945
-0.084285073 -0.10350627 1.6866666 -0.2436962873 0.8780214787 0.4119349122
-0.11214758 -0.23629236 1.7850002 0.4750124514 -0.5873287916 0.6552923322
-0.14240135 -0.17369835 1.7850001 -0.3984219432 0.8129140139 0.4247714281
-0.28642103 -0.13347776 1.5860001 -0.4230125546 0.8114663959 0.4032153785
0.055012587 -0.45496893 1.6960001 0.1716005355 -0.003089225385 0.9851617813
-0.44573593 0.11425509 1.6090001 0.7354448438 0.2457173467 0.6314617395
0.024908729 -0.33136159 1.7220001 0.4375194311 -0.4501304626 0.778433919
-0.2748135 -0.17276075 1.6630001 -0.2711335719 0.8214545846 0.5016961098
-0.20442025 -0.31664234 1.7570001 0.3081895411 -0.5498174429 0.7763504386
-0.33609819 -0.063616045 1.4860001 -0.1230978444 0.5355012417 0.8355150223
-0.10432535 0.013751143 1.464 -0.1293403059 0.8008319139 0.5847558379
-0.33571211 -0.093829289 1.516 -0.1618209034 0.6947640181 0.700797379
-0.054849524 -0.022299185 1.526 -0.2243904024 0.8476856351 0.4807057381
-0.034862407 -0.22564787 1.748 0.3771579862 -0.3273155987 0.8663811684
-0.34168959 -0.16799739 1.6240001 -0.2196423709 0.8253606558 0.5201317072
-0.24534744 -0.22332908 1.794 0.9247304201 0.3669510186 0.1010969952
0.12451733 -0.27540305 1.6710001 0.3720432222 -0.01509544905 0.9280926585
-0.29270324 0.0021303 1.4580001 0.295684427 0.02455957234 0.9549699426
-0.25584641 -0.079447038 1.536 -0.2351150066 0.7583375573 0.6079844832
-0.14365271 -0.088685006 1.6159999 -0.2618823946 0.851967454 0.453397274
0.11322997 -0.054914106 1.6630001 -0.302639395 0.8021510839 0.5147455931
0.075384349 0.073426314 1.4890002 -0.1342991441 -0.1718472093 0.9759263396
-0.20917442 -0.2956751 1.794 0.49119398 -0.4518651962 0.7446786761
0.13623662 -0.19776285 1.6710001 0.3843629062 -0.2444521189 0.8902293444
0.10259104 -0.21856351 1.6960001 0.4862923324 -0.01015412901 0.8737371564
0.25928906 -0.3794117 1.6710001 -0.6040341854 0.1373332441 0.7850365043
0.091686182 -0.032442804 1.6090001 -0.3262171447 0.820755899 0.4689798951
0.01676888 -0.037729979 1.5940001 -0.1377431005 0.8986883163 0.4163965881
-0.23445925 -0.0051008854 1.4534999 -0.114256531 0.4700943232 0.8751895428
0.084749117 -0.30479947 1.6960001 0.3106004596 0.09479498118 0.9458019137
0.096195757 -0.41359293 1.6710001 0.4975273013 0.0008634044207 0.8674479127
-0.20359004 -0.11816766 1.6240001 -0.3238764703 0.8474891782 0.4205544889
-0.034902733 -0.3050195 1.7310001 0.1952221841 -0.1512252539 0.9690300226
0.19535816 -0.42483109 1.6630001 0.02275502868 0.4580098987 0.8886557817
0.055414978 -0.023796337 1.575889 -0.2575519681 0.8746749163 0.4106224179
-0.057283152 -0.13624102 1.766 -0.2456336766 0.8692269325 0.429078877
-0.2439588 -0.42286193 3.0920002 -0.1210544929 0.6576501727 0.7435334921
-0.054492403 -0.34419885 1.7310002 0.08535112441 -0.2548639178 0.9632027745
0.1355844 -0.41550052 1.6630001 0.2145381123 0.1056830361 0.9709811807
-0.0022544945 0.22409676 1.5430001 0.6588433981 -0.08579080552 0.7473722696
-0.024374401 -0.071692482 1.6355001 -0.1991004199 0.8855887055 0.4196328223
-0.00585964 -0.08057005 1.6710001 -0.3096032143 0.8550892472 0.4158945382
-0.22416952 -0.16481179 1.6835556 -0.3661345541 0.7802343965 0.5071289539
-0.29399893 -0.096503466 1.5360001 -0.4039716125 0.7254441381 0.5572591424
0.0069673085 0.06270577 1.4450001 -0.3708004355 0.3287546337 0.8685778379
0.15205765 -0.3061662 1.6710001 0.1298240423 -0.02368360385 0.9912541509
-0.045882981 -0.053298414 1.5860001 -0.2099425793 0.8493713737 0.4842441678
0.42127603 -0.31524056 3.2690001 -0.2519841492 0.8280597925 0.5008202791
-0.10486084 -0.2961936 1.748 0.3011816144 -0.4330741763 0.8495506644
-0.003612451 -0.18629926 1.7660002 0.4007900953 -0.6366177201 0.6588514447
-0.0052130106 0.015635874 1.4866002 -0.2342734337 0.8139552474 0.5315945745
0.034919094 -0.2049675 1.731889 0.390573442 -0.1774698794 0.9033032656
-0.17501208 -0.40457582 1.7331821 0.2819085419 -0.04048653319 0.9585866928
-0.14492352 -0.14190428 1.7220001 -0.3459244072 0.8204086423 0.4552646875
0.055304516 -0.25559655 1.705 0.4595913589 0.02223769948 0.8878520727
0.07665433 -0.37498468 1.6880001 0.4582427144 -0.01423443295 0.8887131214
-0.2388075 -0.26411161 1.8040003 0.8874878287 0.1668473929 0.4295663536
-0.30752063 -0.16087885 1.6240001 -0.3688431978 0.79721874 0.4779089689
-0.14136338 0.048789129 1.427 0.1120818332 0.06159436703 0.9917882085
-0.018585334 -0.44381773 1.6960001 -0.1759831458 -0.2180200219 0.9599464536
0.015660772 -0.055524558 1.6240001 -0.0926149562 0.9016392827 0.4224560261
-0.025857283 -0.11255873 1.7350001 -0.1887906194 0.9007763267 0.3911010921
-0.16303895 -0.47251105 1.7220001 0.3002439141 0.1181159168 0.9465211034
0.045765504 -0.076771446 1.6840001 -0.06933938712 0.912053287 0.4041669071
-0.19456036 -0.147889 1.6813335 -0.5102803111 0.7273174524 0.4589371681
-0.11458533 -0.055040132 1.5640001 -0.2122899443 0.8299825788 0.5158119202
-0.137087 -0.30498007 1.7570001 0.1224995181 -0.2224583775 0.9672156572
-0.48080871 0.11406573 1.647 0.355887562 0.06537330896 0.9322394729
0.14422219 -0.15909046 1.6960001 0.149561286 -0.7160210013 0.68186903
-0.24690175 -0.15160635 1.647 -0.3688285649 0.7595886588 0.5357150435
-0.10108317 -0.078303866 1.6240001 -0.2293637991 0.8916913867 0.3902290761
-0.08481399 -0.057933051 1.5860001 -0.2179672122 0.8784957528 0.4251299798
-0.28518119 -0.19300993 1.688 -0.1703988314 0.8030598164 0.5710158944
-0.065137506 -0.0074317954 1.4959999 -0.0724914223 0.8463231325 0.5277140737
0.087223426 -0.45328015 1.6864001 0.4782429039 0.2002220601 0.8550993204
-0.154644 0.0012887 1.47 -0.1541139632 0.788022995 0.5960441232
-0.06491366 -0.42420322 1.7220001 0.04395787045 -0.002324924571 0.9990307093
0.022762651 -0.10470819 1.7310001 -0.176733762 0.8729116321 0.4547421336
-0.26217064 -0.20178586 1.7220001 -0.4050247073 0.7721840739 0.4895781279
-0.094881639 0.064915411 1.424 0.1936353892 -0.0143309636 0.9809688926
-0.47797856 -0.44364357 3.0920002 -0.1210544929 0.6576501727 0.7435334921
0.17615214 -0.36385524 1.6470001 0.08992564678 0.00948179327 0.9959033728
0.19441836 -0.30178371 1.655 0.04423525929 -0.07441335917 0.9962459207
0.085198849 -0.18534487 1.705 0.2678147852 -0.4866631925 0.8315252066
0.058035336 -0.059486218 1.6550001 -0.07452961057 0.8647472262 0.4966462851
0.12157438 -0.01257666 1.5940001 -0.2649158537 0.8317412734 0.4878791571
-0.13623662 -0.11377468 1.6710001 -0.2875030339 0.8570067883 0.4276463389
0.19563131 -0.17432199 1.6879998 -0.07177253813 -0.4345630705 0.8977770209
-0.025479438 0.33760259 1.557 0.1945966929 -0.1323681325 0.9719108939
-0.34643292 -0.1311692 1.5640001 0.04448835552 0.8454854488 0.5321420431
-0.073637374 -0.082300588 1.647 -0.2444856167 0.8839666843 0.3985344172
0.2050295 -0.39562035 1.6469998 0.1026367322 0.161845848 0.9814640284
-0.10508757 -0.36534053 1.7310001 0.1432581246 -0.2701075375 0.9521129131
0.25489435 -0.31495565 1.6710002 -0.1247654706 -0.3934025466 0.9108611345
-0.045604199 0.034203149 1.4450001 -0.1084944159 0.773843348 0.6240155697
-0.48639894 0.15209202 1.6366668 0.2254746258 -0.1913743019 0.955268085
0.0053112851 -0.3573736 1.7310001 0.1419773996 -0.3187718987 0.9371376038
0.0053511732 -0.0080293901 1.5260001 -0.1880610585 0.8853209019 0.4252528548
0.22424415 -0.335311 1.647 -0.2237349898 -0.1366906017 0.9650172591
-0.13435619 -0.45439562 1.7220001 0.2259600013 -0.0442661345 0.9731302857
-0.035523143 0.094762884 1.4353079 -0.06154800579 -0.467992276 0.8815866709
0.16447724 -0.43485081 1.6630001 -0.1076835692 0.2107087523 0.9715997577
-0.45212913 -0.0082435887 2.1700001 0.9230391383 0.13133201 0.3615945578
0.061640188 0.10229648 1.4960001 0.399821043 -0.2869932353 0.8705044389
-0.18599184 -0.17227113 1.7390001 -0.5094214082 0.6944508553 0.5081612468
0.0077137901 -0.2031298 2.9330001 -0.2330538929 0.8239195943 0.5165679455
-0.17570241 -0.15267588 1.7129999 -0.4107394218 0.7972567081 0.4423514903
-0.20585229 0.045181941 1.4449998 0.3397917747 -0.1733517647 0.9243866801
0.19456668 -0.25449479 1.6710002 -0.003917173948 -0.1661732644 0.9860888124
0.15453705 -0.24667612 1.6630001 0.1473585218 -0.0679404214 0.9867469668
-0.14416343 -0.40517515 1.7310001 0.207009092 -0.1373861432 0.9686445594
0.076543517 -0.046498399 1.6320001 -0.2469486445 0.8561735749 0.4538537264
0.2253384 -0.2253384 1.6800002 -0.1110677868 -0.09314276278 0.9894384146
0.10114454 -0.16152933 1.7220001 0.4216559827 -0.6318886876 0.6503252387
0.042492658 -0.39353755 1.705 0.3548620343 -0.07654031366 0.9317802787
-0.15478602 -0.35509735 1.7310004 0.1837787181 -0.4319892824 0.8829556108
0.055304516 -0.32435355 1.705 0.3087559044 -0.09956678003 0.9459155798
-0.044056885 -0.25629613 1.748 0.4040598571 -0.343234539 0.8478948474
-0.18384796 -0.29609197 1.7659999 0.3242491782 -0.499314487 0.8034597039
0.14308214 -0.38425991 1.6630001 0.3703102767 0.07765780389 0.9256562591
-0.10549654 -0.49444461 1.7130002 0.1028441712 -0.1397236586 0.9848352075
0.12459888 0.2274424 2.256 -0.3405446708 0.7931524515 0.5049143434
-0.19407822 -0.34502798 1.7570001 0.0467630811 -0.2464661598 0.9680225253
-0.11578891 0.03523488 1.4356251 -0.07090493292 0.5621839762 0.8239670396
0.090493038 0.040656295 1.4960001 -0.2434829921 0.5037710667 0.8288128376
0.040546712 -0.088602066 1.7130001 -0.1145524606 0.8410961032 0.52861619
0.16441883 -0.11808261 1.705 0.5073228478 -0.2083899528 0.8361800909
-0.093958504 -0.26493222 1.7570001 0.2790795565 -0.3601297736 0.890180409
-0.20377503 -0.036931776 1.5045002 -0.2068229318 0.8120348454 0.5457322598
-0.0094688768 0.29533878 1.5430001 0.4761609733 0.133457765 0.8691718578
0.24201085 -0.27845827 1.6630001 -0.1891169548 -0.1647959054 0.9680274129
-0.35354388 -0.15231733 1.5940002 0.05205278844 0.839900136 0.5402390957
0.078801811 -0.23640543 1.6960001 0.3511383235 -0.102939561 0.9306477904
0.11609412 -0.34462008 1.6710002 0.5006070733 -0.2734321654 0.8213570714
0.038363811 0.11773721 1.5090001 -0.007340050302 -0.1487011164 0.9888549447
-0.0049667549 -0.035605203 1.5741001 -0.2457834631 0.8753637075 0.4163278341
-0.18341726 -0.45591062 1.7354445 0.5519004464 -0.04589013755 0.8326463699
-0.084716685 -0.1426321 1.7570002 -0.2988769114 0.8339270353 0.4639377892
-0.31852368 -0.014301063 1.483 0.5086775422 0.1094535142 0.8539713621
-0.12502921 -0.0052145226 1.485625 -0.1400363892 0.8061105609 0.5749570131
-0.052638572 -0.2090061 1.766 0.3435995579 -0.5567522645 0.7562845349
-0.16549681 0.034765746 1.435625 -0.1298929751 0.3106706142 0.9416005611
-0.30392861 -0.12568478 1.5640001 -0.2764600515 0.774505794 0.5689557195
0.22237334 -0.43507829 1.6710001 0.02167232893 0.566826582 0.8235520124
-0.06525293 -0.3050195 1.7310001 0.1865517348 -0.1039103046 0.9769345522
-0.0036470587 -0.42456052 1.7130002 0.014003505 -0.1924904138 0.9811989069
-0.2068758 -0.37544125 1.748 0.3946247697 -0.1410125196 0.9079574347
0.04634016 0.073099971 1.4890001 -0.455779314 -0.6255027652 0.6332546473
-0.15390585 0.071906827 1.439 0.1642527878 -0.2593779266 0.951705873
-0.056164701 -0.39675707 1.7130001 0.1782562435 -0.1556049734 0.9716026783
-0.26246262 -0.12772244 1.6010001 -0.374368161 0.8204275966 0.4321423173
-0.066303186 0.05754615 1.427 -0.09418784827 0.4020382762 0.9107655287
-0.0032179926 -0.47390312 1.7130002 -0.3132359982 -0.1460718513 0.9383742213
0.013934617 0.092475183 1.4450001 -0.5819289684 0.03763009235 0.8123685718
-0.20493488 -0.0029824199 1.4580001 -0.1473531425 0.633081913 0.7599304914
0.12481979 -0.47534621 1.6800002 0.05641226843 0.4678851068 0.8819870353
-0.31346676 -0.19536924 1.684 -0.178584978 0.854388833 0.4879827499
-0.19422428 -0.42503709 1.7390001 0.4860254526 0.08905754983 0.8693951964
0.1356294 -0.085342325 1.7383336 0.2273769677 -0.1038026512 0.9682586193
-0.17543356 -0.12343525 1.6630001 -0.3983211517 0.8386303186 0.3715365529
-0.40472543 0.10780896 2.016 -0.4548449814 0.8436327577 0.2853064537
0.034378484 -0.42449951 1.705 0.275488615 -0.03470551968 0.9606776237
0.074159682 0.019403789 1.516 -0.2628005445 0.7955915332 0.545866251
-0.080001973 0.42667717 1.6010001 0.1964936256 -0.4302600026 0.8810599446
0.083663374 0.0033986175 1.5517501 -0.2987903655 0.8331626654 0.4653646946
-0.081519485 -0.34872222 1.7220001 0.09767534584 -0.3060819805 0.9469811916
0.025529409 -0.36492041 1.7130002 0.4186966717 -0.004541410133 0.9081147909
-0.16462456 -0.18217075 1.7660002 -0.4641321599 0.7239045501 0.5104346871
0.033913147 0.17463936 1.523 -0.1812515259 -0.2763814628 0.9438014627
-0.082209416 -0.43795198 1.705 -0.03889001161 -0.2059935033 0.9777802825
-0.025156826 -0.094708055 1.6880001 -0.1242842749 0.8831458688 0.4523347914
-0.013452451 -0.3970964 1.705 -0.02326142788 -0.0341608189 0.999145627
-0.054937951 0.38517028 1.5780003 -0.006335416809 -0.3443058431 0.9388361573
-0.24548772 -0.13362503 1.6240003 -0.3666876853 0.7919216156 0.4882625043
0.47635874 -0.05384925 2.835 -0.1831086129 0.8579447269 0.4800021946
0.034378484 -0.47531989 1.705 0.2356766164 0.05010358989 0.970539093
0.031867709 -0.28225684 1.7310001 0.4554426074 -0.08024840802 0.8866409659
0.057868768 -0.18769608 1.7220001 0.6640210152 -0.3798620701 0.6440348625
-0.22295386 0.024068883 1.4450001 0.2902133763 -0.001497774385 0.9569607973
-0.040546712 -0.47755015 1.7130001 0.2179915458 -0.118737407 0.9687007666
0.44133502 0.159904 2.4320002 -0.1422299892 0.8617480397 0.4869917333
-0.12695184 -0.1625603 1.766 -0.3390651345 0.8269337416 0.4485704005
0.034706354 0.025699956 1.4862728 -0.3431952596 0.7245783806 0.5976647735
-0.054640882 -0.49548501 1.6960001 0.1655731052 -0.3584860861 0.9187346101
0.035010561 -0.0094259195 1.536 -0.181871146 0.87297225 0.4525951445
0.074710406 -0.08057005 1.6710001 0.06223097816 0.8937498331 0.4442280829
-0.086349472 -0.11638407 1.7130001 -0.2694997787 0.8831599951 0.3839247823
0.11317562 0.0076652816 1.5430001 -0.1155069917 0.8863494396 0.4483779669
-0.29541579 -0.1677777 1.6470001 -0.2496806383 0.8475919366 0.4682387114
-0.35541469 -0.048525251 1.4960001 0.6095229983 -0.1925206929 0.7690367699
-0.21551096 -0.10149872 1.5860001 -0.3316031694 0.8137298226 0.4773710668
0.045288604 -0.2339911 1.7220001 0.4977306128 -0.3334082961 0.8006891608
-0.085057706 -0.022593454 1.516 -0.1109888405 0.8252257705 0.5537905097
0.013351633 0.23098326 1.5230001 0.6629782319 -0.01172327995 0.7485468984
-0.14553016 -0.28177118 1.766 0.3316981494 -0.4745499492 0.8153396249
-0.21507877 -0.075751014 1.5430001 -0.2657572925 0.8133069277 0.5175952911
0.2386703 -0.37650424 1.6550001 -0.2830849588 0.09939818829 0.9539302588
-0.17542627 0.0054598795 1.4545714 -0.09778238088 0.6977891326 0.7095977664
0.045380093 0.05381969 1.4712729 -0.7560884356 0.08719467372 0.6486350298
-0.36335593 -0.094892509 1.5159999 0.1421536505 0.7104079723 0.6892843246
-0.19570182 -0.054957349 1.5290002 -0.2219062895 0.7299379706 0.6464890838
-0.26766476 -0.070995092 1.5090002 -0.2924547195 0.7648491859 0.574000001
-0.10167317 -0.12898836 1.7310001 -0.2479171604 0.8303726315 0.4990173876
-0.49184945 0.20167278 1.6550001 0.5383643508 -0.1574963927 0.8278639317
0.1870456 -0.20398282 1.6800002 -0.1608764976 -0.2877123952 0.9441082478
0.10422865 -0.042782731 1.6376002 -0.3109460175 0.7472274899 0.5873360634
0.14433177 -0.45165634 1.6630001 0.1097830608 0.2844904661 0.9523722529
0.075828157 -0.47429767 1.6960001 0.1693255156 0.103239961 0.9801379442
0.15453705 -0.33240047 1.6630001 0.03773219138 -0.205028668 0.9780284166
0.26007107 -0.32616645 1.6390001 0.1068439484 -0.3123734593 0.9439317584
-0.046856079 0.33763939 1.572 0.07878033817 -0.1412331611 0.986836791
-0.045589294 -0.036677103 1.5640001 -0.1520817131 0.8651689291 0.4778639078
-0.076230548 -0.4678463 1.705 -0.04588846117 -0.1286520809 0.9906275272
-0.23502076 -0.18696538 1.7130001 -0.2846625149 0.7800126672 0.5572678447
-0.29219651 -0.022674106 1.4640001 0.2623371184 0.3710345924 0.8907932043
-0.19492245 -0.12706056 1.6470001 -0.4202920198 0.8010282516 0.4262726009
-0.01211904 0.24642049 1.5359999 -0.1773085147 -0.1828866601 0.9670130014
-0.034961175 -0.27509245 1.7336668 0.3140728474 -0.2406820059 0.9183846712
-0.46410471 0.16380166 1.6390001 0.2177203894 -0.3239970207 0.9206648469
0.047844961 0.01196124 1.516 -0.3077534437 0.7727864385 0.5550575852
0.10489608 -0.29401761 1.6853334 0.6176800728 0.05256057531 0.7846711278
0.21431081 -0.27590695 1.6630001 -0.1950832158 -0.1862344742 0.9629430175
-0.073572785 0.023387713 1.4553332 -0.1156831756 0.8286911845 0.5476205349
-0.45608175 0.10380667 1.6320001 0.6589365602 0.3828975558 0.6474503875
0.014906663 -0.23464665 1.7358001 0.3868607879 -0.1546711922 0.9090740085
0.044148058 -0.1689626 1.7363334 0.3887023926 -0.2397402376 0.8896263838
-0.28580257 -0.054528337 1.48525 -0.08411198109 0.6876428723 0.7211604714
-0.12464358 -0.47544774 1.7130001 0.3747686148 -0.3006326854 0.8770225048
-0.044439986 -0.12489168 1.748 -0.2082541585 0.8716568351 0.4436716735
0.02717316 -0.30494326 1.7220001 0.459803313 -0.1155068874 0.880476594
0.10506036 -0.24460658 1.6836364 0.5882743001 -0.2351249903 0.7737244964
-0.37431213 -0.12545626 1.5640001 0.2119329572 0.8199930191 0.5316915512
-0.024224771 -0.20514041 1.7570001 0.3088747263 -0.5856869221 0.7493779063
0.17863311 -0.4635638 1.684 -0.3775061965 0.4577602148 0.8049501181
-0.29373813 -0.14440498 1.6070001 -0.3410630226 0.8468773961 0.4080130756
-0.17566997 -0.097043499 1.6160001 -0.3791775107 0.7861549854 0.4880417883
-0.0074735833 -0.36620557 1.705 0.006933725439 -0.2722257674 0.9622084498
0.15768164 -0.14716953 1.7130001 0.4657742977 -0.6265413165 0.6249002218
-0.0452886 -0.36532801 1.7220001 0.1755476147 -0.2066931129 0.9625284076
-0.17180562 -0.019672399 1.4960001 -0.3281596005 0.753420949 0.5697965622
-0.13467704 -0.25611991 1.7760001 0.4527626336 -0.6669381261 0.5917766094
-0.00288774 -0.067861892 1.6470001 -0.2943351567 0.8771036267 0.3795471489
0.16975334 -0.30033284 1.6550001 0.1968266368 0.1263002604 0.972269237
-0.24522594 -0.16553482 1.6710001 -0.3216841519 0.8005484939 0.5056099892
-0.13218117 -0.028038429 1.5230001 -0.2389086485 0.8098263741 0.5358207822
-0.015103431 0.055388674 1.436 -0.3428794742 0.4715178609 0.8124682307
-0.025398979 0.017072206 1.4731113 -0.1483890563 0.8240923285 0.5466740727
-0.0027176666 -0.017664833 1.5500001 -0.2602175772 0.8310686946 0.4915400743
0.044447441 -0.054487031 1.6355001 -0.1872392744 0.907720983 0.3754784465
-0.32360992 -0.075631969 1.5030001 -0.2257555276 0.5975717902 0.7693779469
-0.24586993 -0.062464252 1.5160002 -0.3201727271 0.7567540407 0.5699235201
0.069551229 -0.34775612 1.6880001 0.2926131487 -0.2475235909 0.9236393571
0.12764704 -0.1546782 1.7130001 0.1913145483 -0.7712476254 0.6071044803
0.024532638 -0.082518876 1.6960001 -0.1632368416 0.8624504805 0.4790958762
-0.12650616 -0.42420322 1.7220001 0.139947921 -0.1081335172 0.984236598
-0.035417333 -0.062806733 1.6160001 -0.1794454902 0.9021283984 0.3923819959
0.070251681 -0.28250146 1.705 0.358297199 -0.1408466399 0.922922194
-0.4532133 0.065490507 1.6240002 0.5823111534 0.6033602357 -0.5448578596
-0.054219075 -0.095996507 1.6845715 -0.1889348775 0.8836153746 0.4284011126
0.045395553 0.15354377 1.5230001 -0.3542473614 -0.2728531659 0.8944607377
-0.043076769 -0.0013053566 1.4890001 -0.1418404579 0.807534337 0.572511673
0.154644 -0.47865999 1.6799999 -0.03044741973 0.6216911077 0.7826704979
-0.07621529 -0.032048129 1.536 -0.1283942461 0.8780691028 0.4609876275
-0.15478604 -0.38393006 1.7310003 0.1832657456 0.06264667213 0.9810652733
0.14481772 -0.28477582 1.6630001 0.2139445841 -0.03482342511 0.9762248993
0.11614577 -0.40189353 1.6630001 0.2580083311 0.09566774219 0.9613944888
-0.03122336 -0.4638899 1.6960001 0.2902752161 0.04419364408 0.9559221864
-0.22026338 -0.33424583 1.7570001 0.5388685465 -0.3056194186 0.7849951982
-0.31528527 -0.10286561 1.5278001 -0.2735413611 0.7227179408 0.6347076893
-0.0030350201 -0.10774321 1.7310001 -0.1484037787 0.9222053885 0.3570904434
-0.096006639 -0.043429691 1.5550001 -0.1472032219 0.8549063206 0.4974599183
-0.11473111 -0.39401078 1.7220001 0.1054511219 -0.1044936404 0.9889191985
-0.020474549 0.27981886 1.557 0.5647369027 0.1798383147 0.8054380417
0.13737541 -0.10718302 1.7220001 0.3411717713 -0.1566246301 0.9268605709
0.01217427 0.24348539 1.5430001 0.6156061888 -0.09825155884 0.7819051743
0.0042766188 -0.32433325 1.7310002 -0.06100981683 -0.1008869782 0.9930254817
0.18426217 -0.38448408 1.655 0.113992013 0.09009759873 0.9893878102
-0.023660941 -0.015626583 1.5276668 -0.1901627332 0.8745333552 0.4461273253
-0.11389412 -0.3157742 1.7380003 0.3216161728 -0.4455673099 0.8354836106
-0.14438701 -0.10323671 1.6470001 -0.3544129431 0.8317943811 0.4272114038
-0.13711067 -0.0616998 1.5640001 -0.1582731158 0.8450118303 0.5107882023
-0.3458198 -0.11221696 1.5264286 -0.1023664325 0.7496920824 0.6538217664
0.16526848 -0.20468788 1.6710002 -0.1296606064 -0.171628356 0.9765919447
0.19574751 -0.34549743 1.6470002 0.1916376948 -0.3124616146 0.9303992391
-0.11171187 -0.44231865 1.7220001 0.1955207735 -0.1009157449 0.9754935503
-0.23058525 -0.04743468 1.503 -0.2719376981 0.7970647216 0.5392009616
-0.24566187 -0.093784116 1.5544547 -0.2670487165 0.7926062942 0.5481424928
-0.065847971 -0.25299484 1.7570001 0.1014368832 -0.3388282955 0.9353640676
-0.2465739 -0.033480782 1.4770001 -0.2868671119 0.705691278 0.6478480101
0.18401524 -0.44499457 1.6710001 -0.3107093275 0.4296216369 0.8478708267
-0.32484207 -0.13661984 1.5741001 -0.1290324628 0.8428642154 0.5224275589
0.075459965 -0.02515332 1.5940001 -0.286452204 0.8326385617 0.4739812315
-0.22462304 -0.12733407 1.6320001 -0.3108128011 0.8322467208 0.4590868652
-0.16604351 -0.054107871 1.5430001 -0.3452093899 0.7944867611 0.4996210933
0.11591872 -0.19780169 1.688 0.3261927068 -0.3134895861 0.891808629
0.017239651 -0.19499961 1.748 0.5634367466 -0.2944550514 0.7719036937
-0.28664368 -0.11192754 1.557 -0.4029934406 0.6938415766 0.5968083143
0.097172357 -0.35792637 1.6710001 0.4412804842 -0.2510385811 0.8615400195
-0.085806377 0.0026001933 1.4829999 -0.06227576733 0.8033103943 0.5922956467
0.075828157 -0.43564022 1.6960001 0.4371233582 0.05372678488 0.8977953792
-0.19359489 -0.39638424 1.748 0.3415302336 0.002650012961 0.9398670197
0.063607603 -0.013376705 1.557 -0.3714844584 0.7915597558 0.4852138162
-0.21595053 -0.42728013 1.7570002 0.6094982028 0.1667401344 0.7750546336
-0.26572669 0.0051087746 1.45725 0.2045838535 0.1774090677 0.9626377821
-0.22728372 -0.24635649 1.8130001 0.9303334951 0.2425822318 0.2750154436
0.14502609 -0.22559614 1.6710001 0.2621800601 -0.1371650845 0.9552211165
-0.083848789 -0.29423296 1.7390002 0.305516392 -0.2170632184 0.9271155596
-0.10545669 -0.11195946 1.6848001 -0.2980639935 0.8555372953 0.4233364463
-0.19971256 -0.19056542 1.7390001 -0.5461575985 0.6999744773 0.4601604044
-0.1546101 -0.034997702 1.5159999 -0.2078419179 0.7897062898 0.5772050619
-0.12473959 -0.091765523 1.6355001 -0.2943324447 0.8686690331 0.3984752297
-0.054740943 -0.07442186 1.6370001 -0.1682175696 0.9163720608 0.3632700443
0.10378049 -0.31728882 1.6960001 0.4575824738 0.03508989885 0.888474524
-0.24452758 0.015284245 1.4527498 0.06181601062 -0.07188419998 0.9954955578
-0.10470819 -0.33536971 1.7310001 0.1183808222 -0.1848025769 0.9756197929
-0.10485491 -0.24644423 1.766 0.3575820029 -0.5770136118 0.734295845
0.21514526 -0.41433078 1.6550001 0.05398490652 0.4814251363 0.8748230934
-0.055855941 -0.11473111 1.7220001 -0.1689944118 0.8956267834 0.4114529788
-0.14347878 -0.1278671 1.6960001 -0.3105462492 0.8484280705 0.4286383688
0.246694 -0.26436758 1.6800001 -0.147607401 -0.1350761801 0.9797787666
-0.025378039 -0.043834794 1.5790001 -0.1661465764 0.874925375 0.4548636377
0.034606416 -0.031837903 1.5790001 -0.1743641794 0.8896329403 0.4220785797
-0.085768528 0.086910591 1.4330002 0.1918130219 -0.2643437386 0.9451614618
-0.21434148 -0.30983505 1.7760001 0.5450689197 -0.6429505348 0.5380655527
-0.16327216 -0.29573825 1.7570001 0.2754413486 -0.3764207065 0.8845561147
