# .PCD v0.7 - Point Cloud Data file format
VERSION 0.7
FIELDS x y z normal_x normal_y normal_z
SIZE 4 4 4 4 4 4
TYPE F F F F F F
COUNT 1 1 1 1 1 1
WIDTH 512
HEIGHT 1
VIEWPOINT 0 0 0 1 0 0 0
POINTS 512
DATA ascii
-0.035426978 -0.13092579 1.7570001 -0.2684801817 0.8672624826 0.4192542732
0.44334435 -0.496281 3.7740002 -0.2752853334 0.8804122806 0.3861246109
-0.35384017 -0.32098362 2.8830001 -0.313539356 0.8308346868 0.4597899318
0.48885915 0.084919192 2.618 -0.2492633164 0.8603371382 0.4446209371
-0.12647231 0.093299247 2.365 0.810328722 0.5850889087 0.03222358227
0.16748016 -0.34347624 3.2380002 -0.1756975651 0.8367192745 0.5186821818
0.27478239 0.36752146 1.9590001 0.8925552368 -0.2388357371 0.3824952841
-0.17017853 0.37439278 1.6880001 0.6871130466 -0.3378374279 0.643227458
0.25014368 -0.49189329 1.9150001 -0.3378854096 0.3414804935 0.8770544529
0.33559853 0.013791719 1.748 -0.5971312523 0.6082339883 0.5229585767
-0.15165633 -0.49362645 1.6960001 0.004184214864 -0.04210829735 0.9991042614
-0.18280253 -0.44153842 3.2080002 -0.3145431578 0.804690659 0.5035231709
-0.15022559 0.265104 2.016 0.2547754347 0.9389207959 0.2313379049
0.44542032 -0.36416119 3.4330001 -0.2968940139 0.8732806444 0.3863093257
-0.23287511 -0.11530709 2.5790002 -0.240048945 0.8733596802 0.4238152802
0.17366767 -0.19624446 1.9810001 0.9481490254 -0.05431563035 -0.3131505251
0.098282225 0.07059709 1.5790001 -0.3197495043 -0.2945002913 0.9005719423
0.14720549 0.11817905 2.365 -0.2339068055 0.8733011484 0.4273554981
0.033745531 -0.37481642 1.8330001 -0.4483344555 -0.1805116236 0.8754494786
0.32740343 0.32357416 2.184 -0.2364116013 0.8669438362 0.4387686849
-0.11162772 -0.0137812 1.572 -0.08871593326 -0.2073508948 0.9742356539
0.22571975 -0.44241071 3.4330001 -0.211423099 0.8888605833 0.4064813852
-0.19155167 -0.28962612 1.748 0.1226185411 -0.6238629818 0.7718546987
0.16513771 -0.093840152 1.794 -0.08780710399 0.8688086271 0.4873002172
-0.15310808 -0.29815784 3.0640001 -0.3145431578 0.804690659 0.5035231709
0.023599867 -0.40414771 3.3650002 -0.1732808799 0.8510425091 0.4956817627
-0.37611631 -0.48198608 3.1780002 -0.3145431578 0.804690659 0.5035231709
0.35536209 -0.30091146 3.2690001 -0.1979629546 0.8797750473 0.4322111905
-0.29422337 -0.00639616 2.4320002 0.9664440751 0.04997179657 0.2519695461
-0.087490454 -0.25256678 1.8830001 -0.05503377318 -0.9928635955 0.1057979986
-0.1584233 0.34461153 1.863 0.9856902957 0.1685661823 0.0002703574719
0.076106943 0.16977702 2.2260001 -0.1447713971 0.8548053503 0.4983463287
0.17860155 -0.33884218 1.904 -0.5690783262 -0.417767942 0.7082512379
0.044830978 -0.16438025 1.8940001 -0.1826949716 0.8939417601 0.4092562199
0.023812545 -0.051353555 1.6362002 -0.3630402386 0.817825079 0.4465019107
0.20529668 0.0060689128 1.6710002 -0.1672420949 0.7647557259 0.6222369075
0.37586206 0.10833671 2.5220001 -0.2354790121 0.8685318828 0.4361214936
-0.014889599 -0.49546424 1.7570001 -0.727278471 -0.006297118962 0.6863135695
0.11471447 -0.49601889 1.8430002 -0.09370812029 -0.08447366208 0.9920095801
-0.12850443 0.24112628 1.6470001 0.3999749124 -0.1062943786 0.9103414416
0.49470299 -0.27483499 3.3000002 -0.2342260182 0.8901135921 0.3909423947
-0.17713489 -0.14632882 1.7570001 0.608215332 0.4930004478 0.622113049
-0.075088255 -0.36471441 1.7479999 -0.6975634098 -0.4058803022 0.5904798508
-0.27179298 -0.29818064 3.0100002 -0.3098131716 0.8329954743 0.4584040642
0.24186592 -0.13559987 1.8940001 -0.03555776551 0.8294249177 0.5574854016
-0.11171801 -0.11171801 1.6550001 -0.0002805170079 0.7682007551 0.6402089596
-0.0041185799 0.076193728 2.3490002 0.8975809216 0.4408461154 0.001787763787
0.23667634 -0.37400705 3.3330002 -0.1859615892 0.8606519699 0.4740216434
0.074718297 -0.2839295 1.8940002 -0.1179085821 -0.4301993251 0.8950006366
-0.0054107867 0.024348537 1.5429999 -0.3102706075 -0.03600070253 0.9499663711
0.28941572 -0.075912319 1.8040001 -0.2566055954 0.8663167953 0.428542614
0.065453976 -0.083724879 1.7363335 -0.1922050267 0.8609924912 0.4709024727
-0.17720413 -0.39420414 1.7130001 0.4947473109 -0.2096985877 0.8433573246
-0.095064633 -0.27345753 1.785 -0.516813159 -0.6383103132 0.5704945922
0.25090989 -0.39258009 1.9470001 -0.4871847034 -0.2302417308 0.8424012065
0.11621181 -0.39631206 3.3990002 -0.21380952 0.8279623389 0.5184244514
0.14444178 -0.14361641 1.8830001 -0.1852367371 0.8604325652 0.4747032523
0.2217157 -0.29581392 1.9810001 -0.8044826388 -0.4988211989 0.3224672079
0.11433274 -0.011289589 1.6390001 -0.3606033325 0.7846298218 0.5043027401
-0.042236045 -0.17219311 1.853 -0.3661691844 0.8323212862 0.4161266088
-0.0080784829 -0.28920969 1.8430001 -0.6279165149 -0.2107343674 0.7492074966
0.18226163 -0.43512908 1.8730001 -0.6239822507 -0.1921202987 0.7574536204
0.42400157 -0.45636812 3.6920002 -0.2752853334 0.8804122806 0.3861246109
0.28425041 0.054493602 1.6800002 -0.5030329823 0.2141769677 0.8373088241
0.03496673 -0.12794644 1.8130001 -0.2856770456 0.8855382204 0.3663477898
0.22679716 -0.047504812 1.748 -0.2042169422 0.8291273713 0.5204260349
0.14566781 -0.048555937 1.7129999 -0.1681764126 0.8660815358 0.4707647562
-0.080009863 -0.4468475 1.7220001 -0.6994390488 -0.02233019844 0.7143433094
0.15196139 -0.25833437 1.9260001 -0.3145478666 -0.615067184 0.7230159044
-0.10537358 -0.17457414 1.794 -0.3062007427 0.845749557 0.43697685
0.043708406 -0.4569515 1.8130001 -0.4461243153 -0.0719576776 0.8920735121
0.17396994 0.06460122 1.6159999 -0.4851728082 0.01914928108 0.8742085695
-0.054827031 -0.06748464 1.6036667 -0.2063867748 0.8499028683 0.4848397672
0.10942641 -0.39360842 1.863 -0.3313539028 -0.2994395494 0.8947293162
-0.19136231 -0.2119219 1.8040001 0.7575677037 0.1002252027 0.6450163722
-0.02510228 -0.095989943 1.6844445 -0.3413681984 0.8315968513 0.4380803704
-0.0155696 -0.41570833 1.7760001 -0.7472304106 -0.2338018119 0.6220799088
-0.089755766 0.027135463 2.381 0.8992857933 0.4319314957 -0.06870416552
0.055268139 -0.0041711801 1.5860002 -0.3463630974 0.7160875201 0.6060126424
0.425271 -0.245905 3.3000002 -0.2124005407 0.8898100257 0.4038862884
-0.10265416 -0.1434139 1.7220001 -0.2642354071 0.8840638995 0.3855005801
-0.16104805 0.30613637 1.6550001 -0.6264253855 -0.23732391 0.7424746156
0.22657712 -0.098022729 1.8330001 -0.1664186865 0.8529836535 0.4946956038
-0.12551674 -0.31425241 1.7334001 -0.2137933522 -0.5117934346 0.8320816159
0.11541142 -0.18160325 1.9360001 -0.08234179765 0.8629303575 0.4985689521
-0.031404205 -0.34409067 1.804 -0.543556273 -0.3175984919 0.7769670486
-0.14031488 0.278979 1.8830001 0.9771739244 0.2119220495 0.01483798865
0.10388061 -0.11560047 1.8230001 -0.1993116438 0.8836858273 0.4235259891
0.01494366 -0.2474006 1.8940001 -0.3090253174 -0.5587496161 0.7696117759
0.2808235 -0.01051211 1.7130001 -0.3941394389 0.6625297666 0.6369524002
-0.1176136 -0.3036072 3.1200001 -0.3145431578 0.804690659 0.5035231709
0.1941729 -0.16715755 1.9260001 -0.1164031401 0.8576095104 0.5009553432
-0.045214523 -0.025336277 1.5535001 0.2694047391 0.6565673351 0.7045142651
0.076771453 -0.048718117 1.684 -0.3939735591 0.792004168 0.4663842022
0.23708135 0.067532264 1.6390001 -0.380651772 -0.1358650327 0.9146829844
0.18455499 -0.49813515 1.863 -0.5781031847 -0.05841844901 0.8138697743
0.11456806 -0.33332661 1.8940001 -0.1587547809 -0.2898447514 0.9438151121
0.31524876 -0.043641929 1.7570001 -0.4497309625 0.5970863104 0.6642514467
0.03674987 0.058340412 1.572 -0.2041049302 -0.6113911271 0.7645535469
-0.13445161 -0.43521541 1.6960001 -0.180422619 -0.07074377686 0.9810417891
0.035386652 -0.32392398 1.863 -0.3446949124 -0.5453551412 0.7640504837
-0.056242544 -0.25550187 1.8329999 -0.3898481429 -0.7268919945 0.5653728843
0.089953013 -0.24609786 1.9360001 -0.1771068126 -0.7817384601 0.597928226
0.12168396 -0.081636079 1.7570001 -0.1942263544 0.8922702074 0.4075904787
0.21677248 -0.34308088 1.9470001 -0.6751099229 -0.2001603246 0.7100439668
0.0023173222 -0.032905977 1.5860001 -0.4597700238 0.7271510959 0.5097674131
0.23451884 -0.43815798 1.904 -0.1860655099 -0.565912962 0.8031949401
-0.093156345 0.037540618 1.5860001 -0.128546834 -0.1770166159 0.97577703
0.015630616 -0.10696244 1.7479999 -0.2605786622 0.879512012 0.3981926739
-0.12764704 -0.36642212 1.7130001 -0.396412015 -0.3566921949 0.8459481001
-0.17754866 -0.34143975 1.7310001 0.179928571 -0.5225082636 0.8334331512
0.17611094 -0.12117725 1.8430001 -0.202022329 0.8757033944 0.4385550618
0.025156826 -0.072510853 1.6880001 -0.3193466365 0.851852715 0.415168196
0.20530832 -0.38724822 1.904 -0.695222795 -0.3482249975 0.6288120747
0.095326096 -0.44431654 1.8430002 -0.1615987271 -0.1337317824 0.9777534008
0.16511482 0.013938761 1.6351819 -0.4271664321 0.7196401954 0.5474000573
-0.14280812 -0.26735264 1.7570001 -0.1370853931 -0.4191809595 0.8974937201
-0.056526881 -0.49532312 1.7220001 -0.5566167831 -0.06638997048 0.8281123638
0.1034081 0.01676888 1.5940001 -0.444400847 0.7175632715 0.5362935662
-0.055352733 -0.15656915 1.8040003 -0.4207713604 0.8559271693 0.3005664349
0.1813385 -0.26078203 1.9700001 -0.5373113751 -0.703109026 0.4657619596
-0.16789307 -0.21102156 1.7570001 0.9220315814 0.14195849 0.3601465523
-0.065080926 -0.31544009 1.7760003 -0.6836788654 -0.4209804535 0.5961197019
0.093593813 -0.1461377 1.8730001 -0.1074876487 0.8720868826 0.4774001241
0.013970384 -0.15237467 1.853 -0.2699011266 0.8391299248 0.4722439945
0.19492455 -0.027932178 1.7130001 -0.1977277547 0.7438132167 0.6384713054
-0.1524256 -0.13590656 1.7130001 0.320735395 0.7870768905 0.5269143581
-0.10341861 -0.076973677 1.6160001 0.1018648446 0.7911513448 0.6030780077
-0.043128494 -0.45284918 1.7570001 -0.5398240089 -0.2582649589 0.8011798859
0.072842062 -0.35637078 1.8630002 -0.4125369191 -0.4200773537 0.8082996011
0.028852854 -0.18499771 1.9360001 -0.1248078793 0.9279910922 0.351077646
0.19475678 -0.29404452 1.936 -0.5594294667 -0.3862668276 0.7333734632
0.153521 -0.38462788 1.8830003 -0.3361575007 -0.3043867052 0.8912613988
0.21483156 -0.077571854 1.785 -0.1696026921 0.8113924861 0.5593542457
-0.098130554 -0.49511328 1.6960001 -0.517558217 0.15020518 0.8423609138
0.25479439 0.014727999 1.6800002 -0.3078721464 0.6193100214 0.7222671509
-0.055564009 -0.12164013 1.7130001 -0.3705079556 0.8546791673 0.3636583388
-0.056310933 -0.091926396 1.647 -0.3773690462 0.8432380557 0.3828082681
0.020445621 -0.49541309 1.794 -0.6015551686 -0.2390473634 0.7622255087
0.15548973 -0.016951101 1.6710002 -0.2282974273 0.771995604 0.5932142138
0.064476497 -0.025791826 1.6343335 -0.3460074663 0.8065804243 0.479277432
0.17438863 -0.064667843 1.7479999 -0.3446585238 0.7731502652 0.532399416
0.07667765 -0.10484495 1.7850001 -0.1839997619 0.9094568491 0.3728703558
0.014701918 -0.41443521 1.813 -0.514480114 -0.3386746049 0.7877878547
0.14457725 -0.45647418 1.853 -0.2383483052 -0.1449554861 0.960300982
0.19313931 -0.14031488 1.8830001 -0.285038799 0.7828145623 0.5531313419
-0.1340064 -0.1668662 1.7570001 -0.124307014 0.9036698937 0.4097908139
-0.031197937 -0.2512255 1.8730001 -0.3840893805 -0.8411884308 0.3806276619
-0.05597955 0.05597955 2.365 0.9966114163 0.08224031329 -0.001472331933
-0.15189478 0.32215044 1.904 0.9811777472 0.192903921 0.008846378885
-0.0082538165 -0.18323472 1.8830001 -0.2888564169 0.8436878324 0.4524962306
0.12120969 -0.28725034 1.8940001 -0.3101662993 -0.3712088764 0.8752147555
0.07271643 -0.49463156 1.8230001 -0.5242236257 -0.1940624714 0.8291739225
0.056549378 -0.41384917 1.8430002 -0.2968990505 -0.4142602086 0.8603717089
-0.18216431 -0.25222751 1.7760001 0.4400995076 -0.5224717855 0.7302983403
0.21087165 -0.47653672 1.8940001 -0.5090569258 -0.05290527269 0.8591054082
-0.059456408 -0.40704772 1.7390001 -0.6401906013 -0.2701522112 0.7191479802
-0.0016156967 -0.34252769 1.8430001 -0.6096084118 -0.3143082261 0.7277279496
0.31239578 0.028399616 1.705 -0.4084359407 0.4020258784 0.8194847703
0.2617113 0.33938044 1.9260001 0.9109528661 0.3105829656 -0.2714831829
0.43513876 -0.47439939 3.7320001 -0.2752853334 0.8804122806 0.3861246109
-0.10349283 -0.40340403 1.7220001 -0.5230204463 -0.1962808073 0.8294115067
-0.089053847 -0.052140336 1.5790001 -0.01944313571 0.6624834538 0.7488241792
-0.016334755 -0.071372591 1.6348002 -0.4166344702 0.8118312955 0.4090790749
0.27123716 -0.042907573 1.748 -0.2264232188 0.7645560503 0.6034786701
-0.14944099 0.35256463 1.6550001 0.8401121497 -0.1658240706 0.5164435506
0.22944383 -0.4141908 3.3990002 -0.211423099 0.8888605833 0.4064813852
0.14113808 0.044717014 1.5940001 -0.5499264598 0.05922168493 0.8331108093
-0.0023591099 -0.45373547 1.794 -0.7040299177 -0.211461857 0.677957058
-0.0047182199 -0.13053742 1.794 -0.3968203664 0.8439676762 0.3609046638
-0.048235953 -0.28704345 1.8040001 -0.5894485116 -0.4013353288 0.7010566592
-0.075242199 -0.15203258 1.766 -0.362368077 0.8366010189 0.4108383358
0.052043315 -0.25350133 1.9150001 -0.2824778259 -0.6647493243 0.6916028857
0.072668649 0.036105808 1.5640001 -0.3758567572 0.05647888407 0.92495507
0.20547049 0.034484558 1.6390001 -0.3502137661 0.4200996459 0.8371777534
0.16190982 -0.29544365 1.9039999 -0.517619729 -0.2792490423 0.8087581992
0.035048336 0.015228814 1.5538182 -0.4033491015 0.4972781241 0.7681301832
0.26153859 -0.11208797 1.853 -0.06039971486 0.8598914742 0.5068910122
0.10355993 -0.066121355 1.7220001 -0.2438224107 0.8500749469 0.466822505
0.2352684 -0.018235544 1.7050002 -0.1887709498 0.7294341922 0.6574886441
0.066243567 -0.13464139 1.8430001 -0.1288152784 0.8524562716 0.5066803694
-0.03425312 -0.37522736 1.7760001 -0.6503111124 -0.3468695283 0.6758527756
-0.005403948 -0.37573338 1.813 -0.713562727 -0.306832552 0.6298270226
0.034666032 -0.28558204 1.8830003 -0.2638178766 -0.2909151614 0.9196567535
-0.07315287 0.0013801656 1.5743333 0.466463089 0.01842214912 0.8843488097
-0.045721151 0.014338585 1.5430001 0.378946811 0.05501585081 0.923781693
0.075980701 -0.18235369 1.9260002 -0.02164099179 0.9107205272 0.412455827
0.15447174 -0.18348852 1.9470001 -0.167863816 0.8518916368 0.4960870445
0.25507057 -0.065723702 1.785 0.001725748996 0.8399931192 0.5425943136
-0.087308988 -0.1228245 1.6880001 -0.3382366598 0.828214407 0.446829766
-0.14588085 0.28481495 1.9810001 0.9811777472 0.192903921 0.008846378885
0.1154909 -0.037843946 1.681778 -0.2193505466 0.7956597805 0.5646333694
-0.015096201 -0.10718302 1.7220001 -0.3577773571 0.8677760363 0.3449059129
0.035063162 -0.38277283 3.3330002 -0.1732808799 0.8510425091 0.4956817627
-0.15453705 0.2667951 1.6630001 0.2521026433 -0.05111335218 0.9663496614
0.12424646 -0.098034121 1.794 -0.2397537827 0.8588163257 0.4527169764
0.14489083 -0.41740698 1.863 -0.3292227387 -0.4062119126 0.8524108529
-0.093710408 -0.25043297 1.8430001 0.05444774404 -0.9913316965 0.1195696965
0.12508367 -0.1283326 1.853 -0.05869710445 0.8206323981 0.5684338808
0.23894864 -0.39529777 3.3650002 -0.211423099 0.8888605833 0.4064813852
0.2237525 -0.12249225 1.863 -0.116866 0.8754309416 0.4690021276
-0.18216431 -0.1790504 1.7760001 0.8701605201 0.04855691642 0.490370214
0.14605705 -0.16452402 1.9150001 -0.2003195435 0.8130787611 0.5466032028
0.23433299 -0.35583898 3.3000002 -0.1751868129 0.8306647539 0.528493762
-0.015981633 -0.15182552 1.8230001 -0.3432241976 0.870054841 0.3538385928
0.10515791 -0.16524816 1.904 -0.0973379463 0.8484540582 0.5202413201
-0.10497236 -0.34536082 1.7354445 -0.5202504992 -0.2674642503 0.811050117
0.25288677 -0.43279278 1.9360001 -0.6491141915 -0.4582079351 0.6072036624
0.070605859 -0.31690535 1.8730001 -0.306374222 -0.315923661 0.8979571462
-0.097039111 -0.30960098 1.7570001 -0.6068106294 -0.3565782607 0.7103750706
0.14607212 -0.11219107 1.8230002 -0.01811376959 0.8734603524 0.4865581989
-0.0084542232 -0.014457636 1.5556 -0.5608516335 0.6199601889 0.5487210751
-0.1260033 -0.12600856 1.686 0.08071342111 0.8287446499 0.5537757874
-0.23485023 -0.29818064 3.0100002 -0.3098131716 0.8329954743 0.4584040642
-0.14455259 -0.39632192 1.6960001 -0.1469087601 -0.2745204568 0.9502927661
-0.1228245 -0.46910083 1.6880001 0.04677446932 -0.1573344916 0.9864370227
0.042037919 -0.11054416 1.7760001 -0.2973835766 0.879575789 0.3713616431
0.13458586 0.017000321 1.6160001 -0.3117683232 0.7085621357 0.6330404282
0.23732305 0.034199391 1.655 -0.5398395061 0.3904334605 0.7457446456
0.15025979 -0.49601889 1.8430001 -0.4131165743 -0.05266408995 0.9091541171
0.3047353 -0.014059492 1.7390002 -0.4529880285 0.6457543969 0.6146568656
0.26369694 -0.091095306 1.8230001 -0.1237510443 0.8424292207 0.5244031549
-0.022054654 -0.31483817 1.8230002 -0.7349606752 -0.3136149943 0.6012308002
-0.16307542 -0.4543027 1.6880001 0.006978565361 -0.05717815086 0.9983395934
0.19486003 -0.09313865 1.8130001 -0.3063204288 0.820197165 0.4831608236
0.11919598 -0.2518225 1.9150001 -0.3045541346 -0.6303782463 0.7140518427
0.22681646 -0.41142142 1.9260001 -0.6665217876 -0.4153164327 0.6190807223
0.24558677 -0.35893452 1.9590001 -0.6488128901 -0.4642308652 0.602935791
0.034929033 -0.024954952 1.6053637 -0.4302203357 0.7544232607 0.4957378209
-0.15474282 -0.29577994 1.7378572 -0.2947258353 -0.6355372667 0.7136028409
0.045777954 -0.05277586 1.6630001 -0.3128250241 0.8512428403 0.4213385284
0.12380724 -0.36481869 1.8830003 -0.2563969493 -0.3115807474 0.9149743319
0.055304516 -0.072244637 1.705 -0.3127309084 0.849998951 0.4239117801
-0.15908606 0.36155924 1.8330001 0.9785820246 0.2058491707 -0.001838888042
0.02566354 -0.087054752 1.7220001 -0.3056760728 0.8561529517 0.4166104496
-0.060721438 -0.35187295 1.7760001 -0.5675286651 -0.3426811397 0.7486526966
-0.16669203 -0.42649132 1.7130001 0.4479814172 -0.1120442972 0.8869941831
0.21554779 -0.37508708 1.936 -0.5932827592 -0.2797099948 0.7548363209
0.22573115 -0.30719802 1.9360001 -0.68591851 -0.3084917963 0.6590512991
-0.033369441 -0.048663765 1.5860001 -0.2842926979 0.8125866652 0.5088030696
0.34631491 -0.2923806 3.2380002 -0.1859615892 0.8606519699 0.4740216434
-0.13643621 -0.30449674 3.0920002 -0.3145431578 0.804690659 0.5035231709
0.20403364 0.070405975 1.6390001 -0.5828598142 -0.1676812768 0.7950832844
0.28492367 -0.054493602 1.7760001 -0.2537190616 0.6879191399 0.6799954772
0.084718265 -0.0076501435 1.6159999 -0.4204367101 0.7422638535 0.5218020082
-0.0028333867 -0.048167571 1.6160001 -0.4432580769 0.8038850427 0.3965994418
-0.19172174 -0.30947208 1.7220001 0.1676687449 -0.1887576431 0.9676041007
0.17434728 -0.46506223 1.863 -0.5671249032 0.005763133056 0.8236116767
0.0051026382 -0.067792192 1.6630001 -0.3794057965 0.8434939981 0.3802224398
0.23660356 -0.32986337 1.9700001 -0.7985805273 -0.3384258151 0.4977320135
0.33163247 -0.0233544 1.7760001 -0.6069818735 0.5152320862 0.6050693393
0.078515731 -0.39257863 1.853 -0.236331284 -0.340154469 0.9101881385
0.067812443 -0.46375999 1.8329999 -0.4073311388 -0.09248057753 0.9085860848
0.044097211 -0.14862393 1.863 -0.1813078374 0.864495337 0.4688019454
-0.083602265 -0.25398558 1.8130001 -0.2979260385 -0.7573007941 0.5811502337
0.0082099829 -0.27092946 1.8730001 -0.6348810792 -0.4466851652 0.6303954124
0.1519272 -0.32460949 1.8940001 -0.4356759191 -0.2185587436 0.8731658459
0.20312309 -0.42340371 1.8940001 -0.6190878153 -0.02971758693 0.7847592831
-0.14573638 -0.3359485 1.7220001 -0.2486831695 -0.3942759633 0.8847051263
0.15481932 -0.082054242 1.766 -0.0889454186 0.8831023574 0.4606723189
-0.16519029 -0.36492038 1.7129999 0.06159755588 -0.06234324723 0.9961521029
0.18428147 -0.012928203 1.6849999 -0.4285248518 0.7401915193 0.5181533694
-0.073885642 -0.13591787 1.7342001 -0.429915458 0.8403153419 0.3302163184
0.065165259 -0.11920475 1.8130001 -0.133916527 0.8989472985 0.4170852304
0.087797292 -0.090877898 1.7570001 -0.2686904669 0.868478477 0.4165940285
0.13823456 0.071938388 1.6090001 -0.3697724044 -0.1805126965 0.911418438
-0.13019551 -0.10158112 1.6320001 -0.01055438444 0.804436326 0.5939451456
0.28464472 0.015363877 1.6960001 -0.510158658 0.5104553103 0.6922236085
0.11397047 0.041989118 1.5790001 -0.4788721502 0.0498662889 0.8764672279
-0.054216493 -0.46559966 1.7310002 -0.5397332907 -0.337849766 0.7710677981
-0.025851145 -0.25689578 1.8430001 -0.4012501538 -0.713953495 0.5738193989
0.20313682 -0.35423031 1.9150001 -0.6646906137 -0.2507580817 0.7037803531
-0.12476458 -0.29419795 1.7570001 -0.2375958711 -0.5079352856 0.8279794455
0.087053001 -0.03046855 1.6550001 -0.3644872904 0.8179705143 0.4450542331
-0.054623347 -0.10531338 1.684 -0.3798179328 0.8350277543 0.3980790973
0.018360907 -0.17693236 1.904 -0.2844145894 0.8823949695 0.3748166263
-0.01393374 -0.46600616 1.7659999 -0.7288888097 -0.1456646025 0.6689565778
-0.065241359 -0.17644091 1.8329999 -0.4743054807 0.8036603928 0.3593942821
-0.084593512 -0.091765523 1.6355001 -0.04809118435 0.8263271451 0.5611333847
0.32255545 0.0045288601 1.7220001 -0.5123497844 0.6433864236 0.5688159466
0.21198501 -0.15189478 1.904 -0.2730013728 0.755797565 0.5951809287
0.12117725 -0.42815962 1.8430001 -0.3270646632 -0.2143980861 0.9203597903
0.17593089 -0.15656845 1.904 0.03934584185 0.8183908463 0.5733134747
0.024310216 -0.013636926 1.5780001 -0.4108447731 0.7326123714 0.5426653028
0.2551319 0.064147457 1.6630001 -0.5277251601 0.1825135201 0.829575181
0.19547124 -0.044471148 1.7382729 -0.2042771429 0.8149704933 0.5423042774
0.396341 -0.25458398 3.3000002 -0.2124005407 0.8898100257 0.4038862884
0.18264472 -0.36694986 1.8940001 -0.4685137272 -0.3005346656 0.8307670355
0.026532901 -0.35359153 1.853 -0.3662935197 -0.4114888608 0.834569335
0.027466843 -0.40230846 1.8430001 -0.4464382827 -0.3113116324 0.838914752
0.1941729 -0.32587278 1.9260004 -0.4462227821 -0.2455134839 0.8605860472
0.18631621 -0.077329017 1.7760001 -0.3553183973 0.7624338269 0.5407804847
-0.10320032 -0.15762438 1.7570001 -0.3397840858 0.8700218201 0.3572238088
0.1354067 -0.065425143 1.7354445 -0.197949335 0.8078262806 0.5551871061
-0.094167151 -0.42599425 1.705 -0.3063769937 -0.2865564525 0.9077546597
-0.0046445802 -0.11921088 1.7660002 -0.4008609951 0.854822278 0.3295290172
0.014947168 0.044841498 1.5500001 -0.2093088478 -0.3813016117 0.9004437327
-0.16743895 -0.22064385 1.7850001 0.8435810804 0.08795680106 0.5297495127
0.076378703 -0.15773863 1.8940001 -0.08846241236 0.8503394127 0.5187458992
0.042913709 -0.42754769 1.8130001 -0.4020931721 -0.3200061917 0.8578560948
-0.084096879 -0.47454667 1.7130002 -0.6323505044 -0.08979735523 0.7694603801
0.16384831 -0.033007555 1.6960001 -0.3378419578 0.7210242748 0.6049684286
-0.035991549 -0.14553104 1.7850002 -0.323720634 0.8840600848 0.3371092677
0.065440714 0.063228354 1.5748001 -0.1943224072 -0.4259180129 0.8836473823
0.24431911 -0.028073935 1.7310001 -0.2487015426 0.8061434627 0.5369173288
0.17498089 -0.40443704 1.883 -0.3618482947 -0.379301399 0.8515845537
0.15441781 -0.35366663 1.8940002 -0.3368028402 -0.2759265006 0.9002379775
0.0052795066 -0.3131153 1.8529999 -0.540240705 -0.2662032843 0.7982955575
-0.04137516 -0.48730743 1.748 -0.6595180035 -0.09230794758 0.7459994555
-0.064771645 -0.03583112 1.5720001 0.2083041668 0.4435040653 0.8717302084
0.096294522 -0.35271311 1.883 -0.2114855051 -0.388833195 0.8967065215
0.14438699 -0.0021658051 1.6470001 -0.2828291059 0.7841750979 0.5523378849
0.0087657897 -0.39446056 3.3330002 -0.170125559 0.8552649617 0.4894682467
-0.084558003 -0.1071554 1.6630001 -0.2292698324 0.8609246016 0.45414114
0.095326111 -0.41563797 1.8430002 -0.2151651829 -0.2512882352 0.9436938763
-0.036967281 -0.4143416 1.7570001 -0.5111781955 -0.1772304475 0.8410031199
0.0029894332 -0.091177717 1.705 -0.4235756695 0.8186104298 0.3878924847
-0.054526739 -0.38538393 1.7570002 -0.5595334768 -0.2493371069 0.7904133797
0.097963996 -0.30385441 1.8940001 -0.2668638229 -0.1195302382 0.9562929869
0.20207955 -0.27878964 1.9590001 -0.6836359501 -0.6240401268 0.3784386516
0.046092499 -0.49430233 1.813 -0.4426498413 -0.2893421948 0.8487297297
-0.089067578 -0.37891462 1.7220001 -0.4442965388 -0.2394163013 0.8632962704
0.098481223 -0.27207527 1.904 -0.201004371 -0.6273207068 0.7523735762
-0.01462017 -0.16569526 1.853 -0.2899262309 0.8477970362 0.444052875
-0.13139217 0.27000368 1.6470001 0.4046526551 -0.08397816867 0.9106063247
0.18152259 0.036304519 1.6240001 -0.5029637218 0.5085374713 0.6988684535
-0.057002179 -0.43551618 1.7340001 -0.7021125555 -0.1363958865 0.6988806725
0.095326096 -0.47545546 1.8430003 -0.2455229759 -0.01395736542 0.9692903161
0.24241938 -0.46325347 1.8940001 -0.1308578998 0.1954405755 0.9719460607
-0.020445621 -0.39161226 1.794 -0.75454849 -0.2956165075 0.5858902931
-0.044598483 -0.31471983 1.8040001 -0.5957601666 -0.2748348713 0.7546758056
-0.1449656 -0.2981368 3.1200001 -0.3145431578 0.804690659 0.5035231709
0.17786339 0.0029157936 1.6630001 -0.4651241004 0.6508953571 0.5999956727
-0.16612078 0.33722228 1.6710001 0.7216621041 -0.1503848583 0.6757130623
-0.097634941 -0.45744702 1.6960001 -0.531437099 -0.1549696773 0.8328018785
0.2388075 -0.077493824 1.8040001 -0.205633536 0.8316420913 0.5158355236
0.17481434 -0.27495071 1.936 -0.5151250958 -0.6050648093 0.6070771813
-0.084716685 -0.33424583 1.7570001 -0.5828593373 -0.3380087316 0.738935113
-0.14477046 -0.15508953 1.7310002 0.2067923099 0.7985144258 0.5653421283
0.1256707 -0.017786339 1.6630001 -0.3159908056 0.7717507482 0.5518610477
-0.00156485 -0.4819738 1.7850001 -0.7076064944 -0.1481905282 0.6908925772
-0.02423808 -0.0040396797 1.5360001 -0.0564570576 0.3265013099 0.9435091615
-0.032674246 -0.28335533 1.8330001 -0.5712437034 -0.4536550343 0.6840158701
0.20519347 -0.11148307 1.8430001 -0.2600226104 0.825378716 0.5011369586
0.077862024 0.01251354 1.5860001 -0.3501574695 0.7180177569 0.6015316248
0.13766296 -0.2828806 1.9150001 -0.1526642889 -0.6714797616 0.7251265645
-0.026800578 -0.060653936 1.6090001 -0.3762922585 0.8231993318 0.4251434505
0.053607285 -0.37200209 1.853 -0.3711793423 -0.4388961196 0.8182885051
0.020559587 -0.44440338 1.8040003 -0.4501082003 -0.08359096944 0.8890529871
0.21261621 -0.0074341334 1.6960001 -0.05806471407 0.7567035556 0.6511744857
-0.083829813 -0.066221729 1.601 0.03074290417 0.7607352138 0.6483339071
0.095326103 -0.13087143 1.8430001 -0.1887245923 0.8454962373 0.4995188713
0.044439986 -0.095009625 1.748 -0.2761849463 0.8550335765 0.4389071167
-0.12049345 -0.2660245 1.7850001 -0.4268825352 -0.7002276182 0.5722347498
0.20864667 -0.45234597 1.904 -0.3916428387 -0.1730044931 0.9037064314
0.16495623 -0.13392486 1.863 -0.1314739585 0.8833091855 0.4499772191
0.20590973 -0.061927736 1.7659999 -0.1802173704 0.8318045735 0.5249979496
0.18032596 -0.18376073 1.9590001 -0.09445412457 0.8808820844 0.4638158381
0.12107205 -0.052315082 1.705 -0.292485714 0.8376247287 0.4613425136
0.17511591 -0.046043411 1.7220001 -0.3994605839 0.7401384711 0.5409494042
-0.071821786 -0.29200539 1.794 -0.5641790628 -0.4578115046 0.6871030927
0.22533843 -0.4957445 1.9040002 -0.4946321249 -0.02673454769 0.8686911464
0.065080658 -0.4362815 1.8330001 -0.5055721998 -0.1469708532 0.8501742482
-0.17405428 -0.26801279 1.7570001 -0.0673590973 -0.5891156197 0.8052363396
-0.12696798 -0.4951455 1.6880001 0.07570766658 0.04725397751 0.9960097671
0.014332185 -0.0020474549 1.557 -0.3493177295 0.618513763 0.7038592696
-0.08020974 -0.16828318 1.794 -0.3648035526 0.8671046495 0.339187175
0.0015727399 -0.42621255 1.794 -0.6556523442 -0.2329570055 0.7182276845
0.30827546 -0.061029151 1.7850001 -0.2432860732 0.7615674734 0.6006886959
0.15725295 0.032583948 1.6160001 -0.4685268998 0.4749830365 0.7448984385
0.036528945 -0.26234424 1.8940001 -0.3151165843 -0.4652957022 0.8271647096
0.0063926531 -0.1390402 1.8230001 -0.3135323822 0.8738689423 0.3715514541
-0.10289641 0.014765404 1.5790001 -0.08028934896 -0.1847320497 0.9795038104
-0.027566783 -0.082700349 1.6550001 -0.3637034297 0.8825416565 0.2980603874
-0.086105496 -0.023857256 1.5640001 -0.01083737332 0.1306277066 0.9913722873
0.084600963 -0.062479157 1.7050002 -0.2387685627 0.8269916177 0.5089935064
0.10431632 -0.094974563 1.7760003 -0.2100185007 0.8586309552 0.4675950706
0.078904383 -0.26021659 1.9150001 -0.2380625904 -0.7780230641 0.5813831091
0.067681298 -0.341708 1.8830001 -0.5200020671 -0.2352123708 0.8211413026
0.051170595 -0.34682292 1.853 -0.4561261237 -0.245718956 0.8553193212
0.13501368 -0.39415285 1.863 -0.344029218 -0.4956522286 0.7974789739
-0.11406573 -0.08807607 1.6470001 -0.001498470083 0.7876374722 0.6161371469
-0.12181941 -0.40432087 1.705 -0.4756496847 -0.3041413724 0.8253819942
0.0080346502 -0.38244933 1.8330001 -0.5219832659 -0.2770494223 0.806707561
0.21436603 -0.040759739 1.7220001 -0.1137271076 0.8377237916 0.5341207385
0.045395993 -0.31281963 1.8830001 -0.1950188428 -0.5265879035 0.8274496198
0.096360572 -0.37237647 1.863 -0.2896165252 -0.5280742645 0.7982856035
-0.14141597 0.29303724 1.6630001 -0.6736865044 -0.2352942079 0.7005591393
0.24440064 -0.36829817 1.9360001 -0.4496209621 -0.3392108381 0.826303184
-0.1255562 -0.14199808 1.705 0.01293945312 0.8529896736 0.5217673779
0.027019743 -0.4784084 1.8130001 -0.5011923909 -0.2165153474 0.8378109932
0.1910879 -0.12575871 1.863 -0.3015708625 0.8474434614 0.4369148314
0.055400949 -0.17403734 1.9150001 -0.04081273824 0.9072332382 0.418643266
0.12183475 -0.46622097 1.853 -0.1819869578 -0.109984152 0.9771305919
-0.034378484 -0.10612489 1.705 -0.3028028309 0.8682717681 0.3929562271
-0.034902733 -0.11887162 1.7310001 -0.3284521997 0.8663623929 0.3762118816
-0.064841777 -0.26727462 1.8040003 -0.4614080489 -0.5647121072 0.6842535138
-0.15865125 -0.16635276 1.7570001 0.3115398884 0.7562647462 0.5753316879
0.26514873 0.035157841 1.6710001 -0.4498944283 0.2347396165 0.8616799116
-0.015481934 -0.43813872 1.766 -0.6853055954 -0.1727222055 0.7074766755
-0.081945539 -0.4127627 1.7310001 -0.4476066828 -0.2652485073 0.8539856672
0.19644083 -0.45395988 1.8830003 -0.7153245211 -0.1699389815 0.677813828
0.094093509 -0.32520038 1.8830003 -0.3070751429 -0.1955199391 0.931384325
-0.062643096 -0.078303866 1.6240001 -0.2497953326 0.824793458 0.5072652698
0.022987954 -0.16255766 1.8730001 -0.2711911201 0.8522671461 0.4473209977
0.17627575 -0.31393874 1.9150001 -0.5890036821 -0.126237601 0.7982097268
0.21639115 -0.30397803 1.9590001 -0.793874383 -0.4909880757 0.3587396741
0.18983778 -0.48037213 1.8830001 -0.6190370321 -0.02296812832 0.785025835
0.06419795 -0.014923846 1.6058 -0.3573749065 0.7695044875 0.5292882323
0.037161022 -0.13733421 1.8430001 -0.2242996246 0.8577788472 0.4624988437
0.25424734 -0.0029736534 1.6960001 -0.2904580235 0.6586602926 0.6941186786
0.18625923 0.022813145 1.6470001 -0.3066846728 0.7454535365 0.5918137431
-0.06590464 -0.055893816 1.5860001 0.03982532769 0.7546151876 0.6549579501
-0.0044289199 -0.082676679 1.6840001 -0.3960098922 0.8091326952 0.4341433942
-0.13412648 -0.11225804 1.6630001 0.08749435842 0.796202302 0.5986707211
-0.12299984 -0.17593648 1.7760001 -0.3013105989 0.8604261875 0.4109485745
-0.025267538 -0.032710683 1.5640001 -0.3173140287 0.7556904554 0.5729256272
-0.16541143 -0.14412072 1.7350001 0.4971329868 0.6736074686 0.5469111204
0.24616273 -0.054702833 1.7659999 -0.1629918069 0.8465770483 0.506696105
-0.11310023 -0.44193789 1.705 -0.4446254373 -0.3027341962 0.8430066705
0.090145878 -0.11228697 1.8040001 -0.1593284607 0.8944655061 0.4177869558
0.1368722 -0.30378956 1.904 -0.2806053758 -0.2905088663 0.9148033857
0.0015815067 -0.39695817 1.8040001 -0.6640495062 -0.3479129076 0.661811769
-0.15395582 0.37666857 1.705 0.6871130466 -0.3378374279 0.643227458
0.18219063 -0.11027327 1.8230001 -0.2990719676 0.8223928213 0.4839689732
0.495094 0.076346271 2.6390002 -0.2559821308 0.8541113138 0.4527328312
0.22548801 0.015550897 1.6630001 -0.3111426234 0.7345713973 0.6029885411
0.065024123 -0.097536176 1.766 -0.1661090106 0.9015514851 0.399515599
0.013819598 -0.35705984 1.8329999 -0.4235559106 -0.5065081716 0.7510325313
0.17368285 -0.17255138 1.9360002 -0.01523400191 0.8705676198 0.4918129146
0.2446575 -0.11904476 1.8730001 -0.0568488054 0.8544701934 0.5163805485
-0.10527714 -0.28486761 1.7660003 -0.4176417291 -0.4863939583 0.7674609423
-0.053607289 -0.24366949 1.853 -0.3477841914 -0.8302143812 0.435649246
0.26411161 -0.077493824 1.8040003 -0.01094889827 0.8825306892 0.4701273739
0.11390267 -0.15187022 1.8830001 -0.0439668186 0.8566762805 0.5139772892
0.05186886 0.04367904 1.557 -0.3579050303 -0.3628991544 0.8603535295
-0.0081223166 -0.26803645 1.853 -0.6463523507 -0.4921408594 0.583117485
0.11418547 0.0059501119 1.6159999 -0.3815050423 0.72570467 0.5725440383
-0.1442222 -0.46537673 1.6960001 -0.08485714346 0.07989011705 0.9931852221
0.01408365 -0.12049345 1.7850002 -0.2501712441 0.8937625289 0.3722941279
-0.06007183 -0.137087 1.7570001 -0.3759920299 0.8302040696 0.4115716517
-0.14795591 0.31642056 1.6710001 -0.4397544265 -0.3620561659 0.8219071627
-0.011920475 -0.35364076 1.8130001 -0.7626550794 -0.2130442858 0.6107122302
0.065289751 -0.0435265 1.6550001 -0.3983057141 0.7973526716 0.4534106553
0.015632344 -0.29514799 1.863 -0.686165452 -0.3451665044 0.6403413415
-0.1063081 -0.13307098 1.6960001 -0.2058586329 0.8564821482 0.4733503759
-0.10437944 -0.25778559 1.8040001 -0.2878742814 -0.7615727782 0.5806335211
0.3188428 -0.015403034 1.7570001 -0.6491097808 0.4622264802 0.6041548848
0.13467704 -0.086411282 1.7760001 -0.1673913747 0.8808119893 0.4428886175
0.23442453 0.0044199582 1.681778 -0.2938756645 0.6774962544 0.6742669344
0.11458734 0.065119162 1.594 -0.4672383964 -0.353123337 0.8105505109
0.1369704 -0.027983198 1.6799999 -0.2985413969 0.7363877296 0.6071294546
0.29422337 -0.032180678 1.748 -0.3103088439 0.691460371 0.6523733139
0.25568911 0.36424604 1.9470001 0.6507925987 -0.5425856113 0.5311025381
-0.041287493 -0.069761626 1.6240001 -0.2780123949 0.8503032923 0.4468707144
-0.0049522896 -0.24761449 1.8830003 -0.3204768896 -0.7344717979 0.5982021093
-0.055760145 -0.0053184973 1.5512729 0.6589752436 0.2256009132 0.7175345421
0.064037867 -0.15270568 1.8730001 -0.1493894309 0.8845694661 0.4418367147
0.29884428 0.01051211 1.7130001 -0.3973179162 0.5356766582 0.7451100945
0.045765504 -0.063976794 1.6840001 -0.2891966999 0.8542003632 0.4320960641
-0.079591691 -0.13065051 1.7130001 -0.3979585469 0.8426345587 0.3627616465
-0.084594823 -0.30412617 1.7760001 -0.4984966815 -0.4064336419 0.7657105923
-0.1156369 -0.38314158 1.7220001 -0.3920186758 -0.3268809021 0.8599245548
0.044842627 -0.036656562 1.6350001 -0.396224767 0.7658424377 0.5064496994
0.056043547 0.013321827 1.572 -0.4007552862 0.5597272515 0.7253279686
-0.18311188 -0.23388889 1.7939999 0.7063894272 -0.1246033385 0.6967697144
0.14444327 -0.12311608 1.8430001 -0.04623311386 0.8734859824 0.484649092
0.29810873 0.043117974 1.6960001 -0.5298893452 0.3373124003 0.7780987024
-0.17321531 -0.40813392 1.6960001 0.4994761348 -0.01153034065 0.8662509322
0.12556233 -0.10966837 1.8130001 -0.09307198226 0.8844707608 0.4572188258
-0.16540858 -0.31412458 1.7310001 0.001831315807 -0.2713800073 0.9624705315
0.13449293 -0.34370413 1.8940002 -0.1789442748 -0.265527904 0.9473509789
0.15516123 0.055011705 1.6089998 -0.4292362034 -0.008977861144 0.9031476378
0.055045903 -0.11166454 1.794 -0.2275164872 0.904039681 0.3618681133
-0.037556402 -0.35522097 1.7850001 -0.6547148228 -0.4544861317 0.6039791703
0.25593773 -0.018235294 1.7130002 -0.2042013407 0.7828305364 0.5877739191
0.15579769 -0.058171213 1.7310001 -0.1399499774 0.8005040884 0.5827582479
-0.027867479 -0.39633751 1.766 -0.6629716754 -0.2946125865 0.6882383227
0.1439171 -0.098053418 1.804 -0.06725563854 0.8507249951 0.5212904215
0.085576788 -0.075449139 1.7327778 -0.2227467 0.8365699649 0.500534296
0.26632303 -0.028073935 1.7310001 -0.2228373587 0.7876423597 0.574424088
0.17487621 -0.29499808 1.9260004 -0.546626091 -0.3670723438 0.7526338696
0.086555175 -0.49555725 1.8430002 -0.313955605 -0.09295471013 0.9448763728
0.15760669 -0.43525577 1.863 -0.3542073667 -0.351930052 0.8664192557
0.19220038 0.055524558 1.6240001 -0.5483795404 0.08449335396 0.8319499493
0.21625 -0.12710878 1.883 -0.1093548611 0.8592092991 0.4998008013
0.16658683 -0.24902155 1.9590001 -0.5605646372 -0.6863512993 0.4633457065
0.015830189 -0.035532393 1.6050001 -0.426394552 0.7848470211 0.4496696591
0.22200005 -0.41896251 1.904 -0.6209321618 -0.2526431978 0.7420341372
0.1942676 -0.4034788 1.8940002 -0.5274527073 -0.2550494671 0.8103970885
-0.18216431 -0.15725295 1.7760001 0.6283051372 0.3611672223 0.689050734
0.15432402 -0.47596774 1.853 -0.4816699922 -0.08293319494 0.8724196553
-0.15557064 -0.28495613 1.7570001 -0.1760780513 -0.541995585 0.8217282295
-0.052683283 -0.33383468 1.785 -0.7543479204 -0.2833679318 0.5921670794
-0.076254517 -0.49473661 1.7130002 -0.558316946 -0.1047085524 0.8229935169
0.064281456 -0.26495343 1.8940001 -0.2449328899 -0.5535117984 0.7960104346
-0.045958199 -0.16487101 1.8329999 -0.4004368782 0.8290687799 0.3902502656
-0.074993357 -0.38526082 1.7370002 -0.6747418642 -0.2369792014 0.6989737749
0.12373361 -0.1173059 1.8330001 -0.05025137588 0.8833373785 0.4660362899
0.27495074 0.35302314 1.9360001 0.9024957418 -0.2322397232 0.3627204597
0.22410493 -0.09059561 1.8130001 -0.1693104953 0.8591655493 0.4828752577
0.044249751 -0.39824775 3.3650002 -0.169463709 0.8535490036 0.492682606
0.014233559 -0.13126506 1.8040003 -0.2537570298 0.8921057582 0.3738378286
-0.15360063 -0.42557546 1.696 0.3202913105 -0.1888275445 0.9283090234
0.014879663 0.017585056 1.5430001 -0.2061743736 0.2920066416 0.9339294434
0.24461648 -0.10372772 1.8430001 -0.08552808315 0.8438520432 0.5297157168
-0.11547687 -0.42275441 1.6960001 -0.4926245809 -0.09658775479 0.8648651838
-0.023722598 -0.14602578 1.8040003 -0.3899603486 0.8687909245 0.3051774204
-0.12595333 -0.33536971 1.7310001 -0.2441305518 -0.2199016362 0.944480598
0.20672064 -0.4972918 1.8940001 -0.6017021537 -0.06792978197 0.7958266139
-0.055116385 -0.14604285 1.7760003 -0.3396314979 0.8544332385 0.3931848705
0.2170618 0.05582964 1.6470002 -0.3739127219 -0.10691569 0.9212808013
