# .PCD v0.7 - Point Cloud Data file format
VERSION 0.7
FIELDS x y z normal_x normal_y normal_z
SIZE 4 4 4 4 4 4
TYPE F F F F F F
COUNT 1 1 1 1 1 1
WIDTH 512
HEIGHT 1
VIEWPOINT 0 0 0 1 0 0 0
POINTS 512
DATA ascii
0.13568258 -0.092995919 1.739 -0.1112522706 0.8822697401 0.4574090242
0.37464789 -0.40414771 3.3650002 -0.1410519332 0.8300740719 0.5395195484
-0.40654188 -0.30069667 2.7440002 -0.3718327582 0.8079333305 0.4571477771
0.47893614 0.091332011 2.5410001 0.2876918018 0.957559526 0.01769773662
-0.23076321 0.10665526 2.2120001 0.9705218077 0.01542606484 0.2405191213
-0.25510123 0.34504369 1.6820002 0.9550990462 0.08853063732 0.2827509642
-0.21655069 -0.44716311 3.2080002 -0.2348435372 0.8218383789 0.5190666914
0.23300485 0.4065533 1.8330001 -0.9081266522 -0.2917934656 0.300270766
-0.12227922 -0.49666497 1.7220001 0.5467073917 -0.004208258819 0.8373131156
0.30417645 -0.4929029 1.8040003 -0.1618068814 0.05980024114 0.9850088358
0.47185943 -0.20503949 3.0640001 -0.1473406702 0.8347184062 0.5305995345
0.09487287 -0.2900399 3.0920002 -0.2419377565 0.8134500384 0.5289282799
-0.17367095 0.0062823957 1.5790004 0.4112303555 -0.2507604957 0.8763610721
0.32413551 0.32413551 2.1290002 -0.9658792019 -0.04618472606 0.2548418641
-0.1676397 -0.20559587 1.8040001 0.6472508311 0.3675411046 0.667817235
0.2358698 0.15655075 2.381 0.1155568436 -0.8479350209 0.517351687
-0.33145425 -0.083389126 2.398 0.9363434911 -0.3088288307 0.166989997
-0.26797858 0.19287631 1.9470001 0.9871234298 0.1561934501 0.03450920433
0.12792321 0.082140163 1.536 -0.07898532599 -0.1919827759 0.9782146811
0.082464278 -0.34634995 1.804 -0.09738101065 -0.3543933332 0.9300119877
-0.1504097 -0.31929076 3.0100002 -0.2578417361 0.8610976934 0.438210398
0.25014368 -0.20313682 1.9150001 -0.9735744596 -0.1985582262 0.1128158122
0.31043205 0.018770309 1.6470001 -0.526843369 0.608720839 0.5932073593
-0.33687758 -0.18765664 2.5790002 -0.4344092309 0.787366569 0.4374271333
0.2843442 -0.31195045 3.1490002 -0.1430107951 0.831394136 0.536965251
-0.044679757 -0.11572789 1.6710001 -0.3782612681 0.8055478334 0.4560823143
0.031225113 -0.38889459 3.2380002 -0.2371045798 0.8174162507 0.5249877572
-0.212504 0.17992005 1.6160001 0.01741845533 -0.0992103219 0.9949139953
0.035931058 -0.1747556 1.863 -0.1802780479 0.9091057777 0.3755348921
-0.016328041 -0.0047465237 1.516 -0.4729379117 0.4602270424 0.7513459921
-0.075088255 -0.33559853 1.748 -0.04827524349 -0.4463306963 0.8935649991
0.32233995 -0.33672804 1.8529999 -0.4584740996 -0.05763284862 0.8868370652
0.044439986 -0.49496952 1.748 -0.3948019445 -0.3979805112 0.8280959725
0.34840924 0.19710009 2.2710001 -0.9704772234 0.03758277372 0.238246724
0.28625271 -0.090145878 1.8040001 -0.3801372051 0.8431463838 0.3802628815
0.49470299 -0.33269501 3.3000002 -0.1410519332 0.8300740719 0.5395195484
0.24932663 -0.39261779 3.2690001 -0.1670246869 0.8220224977 0.5444095731
0.083584905 -0.03352841 1.6160001 -0.3332913518 0.7951247692 0.5066492558
-0.22334574 0.010436716 2.381 -0.2081421018 0.9602382779 0.186062783
0.43825004 0.14608335 2.4150002 0.1114370227 -0.8344729543 0.5396634936
-0.18223709 -0.14724757 1.6630001 -0.20779939 0.8226091862 0.5292764902
0.17526321 -0.44598222 1.785 -0.3012614846 -0.2307325602 0.9252048731
0.49313027 -0.27024654 3.1780002 -0.1411655247 0.8317243457 0.5369422436
-0.23311618 -0.38762343 3.0920002 -0.2476454228 0.8573826551 0.4511836767
0.19122465 -0.2844266 1.8330001 -0.5716109276 -0.4330959618 0.6969137788
-0.14629638 0.03406902 2.286 0.8236789703 0.4329923689 0.3661564589
-0.24794149 0.29063341 1.8730001 0.994710505 0.09692130238 0.03401868045
0.16641675 -0.15025979 1.8430001 -0.2127048373 0.8313359618 0.5134560466
-0.056050561 -0.17282256 1.7760001 -0.4310245514 0.7808512449 0.4522047937
0.20541878 0.013974067 1.594 -0.1426574141 0.7159714103 0.6833987236
-0.094057918 -0.077056192 1.5640001 -0.2216235548 0.8070313334 0.5473421812
0.234423 -0.052038934 1.6960001 -0.06698197126 0.8714837432 0.4858286977
-0.054792251 -0.43555197 3.1780002 -0.2348435372 0.8218383789 0.5190666914
-0.0047681895 -0.27496561 1.813 -0.458367914 -0.3218018413 0.8284578919
0.033713095 -0.12106065 1.748 -0.2984780073 0.8699107766 0.392639935
-0.034995731 -0.43518227 1.7220001 -0.2275907546 -0.1944702566 0.9541403055
0.095326103 -0.25366437 1.8430002 0.04052110389 -0.3744432926 0.9263640046
-0.15225683 -0.39404675 1.7310001 0.3642572165 -0.02590964921 0.9309378862
0.25589287 -0.39575976 1.813 -0.1756188422 -0.2425285876 0.9541162848
-0.24143399 0.19851241 2.0400002 0.8785275221 0.456277281 0.1414230168
-0.15570126 -0.30039334 1.794 0.2014605105 -0.6978382468 0.6873393655
-0.004522529 -0.05536199 1.601 -0.4218155742 0.7488844395 0.5111201406
-0.22716887 0.26422822 1.6470002 0.5025159717 -0.1392087489 0.853286922
0.041199826 0.065122306 1.516 -0.08623116463 -0.2125794739 0.9733314514
-0.18643194 0.094621547 1.6029998 -0.5082319975 -0.4728684425 0.7197886109
-0.10463646 -0.0063657956 1.5073636 0.100198783 0.1680259258 0.9806770682
-0.23485023 -0.34567842 3.0100002 -0.269828558 0.869430542 0.4138636589
0.28753 -0.2566652 1.853 -0.1633774489 -0.1195425987 0.9792943001
0.0052936636 -0.37335902 1.7760003 -0.3712930083 -0.3658175766 0.8534160852
0.15453705 -0.048110589 1.6630001 -0.1665749848 0.8607275486 0.4810414314
0.16271985 -0.23079653 1.8940001 0.01245677937 -0.9922937751 0.123279877
0.036134444 -0.082523264 1.6710001 -0.2465010583 0.8425360322 0.4789261818
-0.12529846 -0.17058706 1.7220001 -0.1811620444 0.8887351155 0.4211059511
0.26969948 0.071267739 1.5940001 -0.4548382461 0.05479662865 0.8888866901
0.085632801 -0.42505008 1.7760001 -0.1816722006 -0.1367315054 0.9738067985
0.094890401 -0.13126506 1.8040001 -0.1607290655 0.8674204946 0.4709011018
0.16370785 -0.3620646 1.8130001 -0.1562764943 -0.4277179241 0.8903005123
0.11070722 -0.36618543 3.2380002 -0.2214478105 0.8043753505 0.5513086319
0.20577778 -0.10719223 1.7850001 -0.1739223152 0.8439877033 0.5073812604
0.018802747 -0.29815784 3.0640001 -0.2429082394 0.8271862864 0.5067133307
-0.11398069 -0.11874976 1.6320001 -0.1868825555 0.8654695153 0.4647982419
0.24117362 -0.13446927 1.863 -0.2511899173 0.9051369429 0.3429733217
-0.22384229 0.055655885 2.3170002 0.8635317683 0.3724734783 0.3399651945
-0.083355218 -0.27208403 1.794 0.03618466109 -0.8845642209 0.4650126994
0.095706657 0.014409157 1.5507001 -0.2364376336 0.7563384771 0.6099584699
0.11552643 -0.49480191 1.7760005 -0.06171416491 -0.0951243788 0.993550539
0.20065059 0.083263166 1.557 -0.3885362744 -0.2203225791 0.8947052956
-0.16179058 -0.10557521 1.5640001 -0.3986828327 0.5798600316 0.7105028629
0.29894948 -0.05007783 1.7310001 -0.3520856798 0.7668312788 0.5366613865
0.23351039 -0.49536195 1.7850001 -0.3001430929 -0.003540358972 0.9538876414
0.32229626 -0.42404604 1.8230001 -0.2207800299 -0.141377598 0.9650225639
0.25389495 -0.31736866 1.8330001 -0.1170183718 -0.3906307518 0.9130795598
-0.055012587 -0.49660009 1.6960001 -0.1974158585 -0.4871450365 0.8507153988
0.0047445195 -0.15656915 1.804 -0.356358707 0.6828143597 0.6377876401
0.4622488 -0.2434328 3.1200001 -0.1473406702 0.8347184062 0.5305995345
0.031535454 -0.01233996 1.5640001 -0.3223088682 0.7776885033 0.5397384763
0.22255148 -0.22904932 1.853 -0.1598067284 -0.4834908843 0.8606383801
0.24570248 -0.012931711 1.6390001 -0.1971726567 0.7633373141 0.6151739955
0.1531712 -0.28719601 3.1200001 -0.186851114 0.8342981339 0.5186842084
0.14113808 -0.0013974067 1.5940001 -0.1915928721 0.8078333139 0.5574024916
-0.084538728 -0.39401087 1.7220001 -0.1183532625 -0.08368127048 0.9894391894
0.022591116 -0.43590584 1.7570001 -0.5710226893 -0.2675046623 0.7761277556
-0.025211707 -0.13700704 1.7326 -0.3951233327 0.8402730823 0.3712394834
0.034925964 -0.24285726 1.853 -0.003133411752 -0.7778571844 0.6284332871
0.12705398 -0.30285195 1.8230001 0.03484699875 -0.3823541999 0.9233585
0.094708055 -0.072510853 1.6880001 -0.1945717335 0.8690260053 0.4549017549
-0.053834349 -0.089251682 1.6160001 -0.3463615477 0.8129245639 0.4681744576
-0.13638479 -0.33406606 1.748 0.3103582561 -0.5063197017 0.8045608401
0.19453818 -0.076500565 1.7336668 -0.1485314965 0.8566299677 0.4940885603
-0.14670841 -0.045246519 1.5640001 0.4714525938 -0.006838198751 0.8818649054
0.055231534 -0.29443574 1.813 -0.3478072584 -0.2257485688 0.909982264
-0.11365808 -0.19150607 1.7760001 -0.2947160602 0.9011033773 0.3180489838
-0.044841498 -0.047559168 1.5500001 -0.3406841159 0.7503939867 0.5664302111
0.10559011 -0.16244633 1.853 -0.06684824824 0.8148159385 0.5758526325
0.16477139 0.037634175 1.557 -0.3748568594 0.5495094657 0.7466737628
-0.022108832 -0.31544009 1.7760003 -0.5834252238 -0.3487375379 0.7334828973
0.27736682 -0.49803433 1.748 -0.1328853965 -0.7586954236 0.6377481818
0.28719601 -0.026510399 1.6800001 -0.3641452789 0.6669978499 0.6500093341
0.25476617 -0.083484441 1.7570002 -0.2276437283 0.8586364388 0.4592622817
0.27208403 -0.44823089 1.794 -0.286139518 -0.1064608321 0.9522553682
-0.094259202 -0.139916 1.6800001 -0.3709201217 0.8029574156 0.4665593207
-0.035341226 -0.37544852 1.7390002 -0.4021060765 -0.3422600329 0.8492165804
0.20185338 -0.40688556 1.8130001 -0.1376834065 -0.1063492075 0.9847502708
-0.16789307 -0.17713489 1.7570001 0.3288482726 0.8496855497 0.4121810794
-0.01196124 0.051832039 1.516 -0.06261066347 -0.2878209651 0.9556353688
-0.085598618 -0.45502418 1.7130002 -0.1565628499 -0.1375730932 0.9780397415
0.13511266 -0.40390825 1.7940001 -0.2074653953 -0.365934521 0.9072210789
-0.013050586 -0.4834787 1.7310002 -0.4308382273 -0.1243320405 0.8938232064
0.14626481 -0.12110098 1.794 -0.04665661976 0.8774425387 0.4774072766
-0.14114946 -0.44533789 1.7220001 0.4376861155 0.1168736815 0.8914995193
0.15510687 -0.2439702 1.8430003 -0.06695051491 -0.6319020987 0.7721511722
0.23335552 -0.15277232 1.9150001 -0.9733578563 -0.2287376672 0.01592421718
0.21615796 -0.35443544 1.8130001 0.07338258624 -0.2441020161 0.9669690728
0.084716685 -0.10936154 1.7570001 -0.1358595788 0.905659914 0.4016494453
0.18492055 -0.016095599 1.6320001 -0.2148005813 0.7831418514 0.5835662484
-0.23671314 0.21992499 1.9150001 0.9825950265 0.1740256101 0.06497762352
0.25673798 -0.26778045 3.1490002 -0.1440507919 0.8296076059 0.539444685
0.30524915 -0.37556839 1.8230002 -0.3658855855 -0.5560081601 0.7463127375
-0.16950876 0.05650292 1.572 -0.78960675 -0.3105477989 0.529227078
0.18349886 -0.49578056 1.7760001 -0.2508030832 -0.08609925956 0.9642016292
-0.073750988 -0.15812454 1.7310002 -0.3442819417 0.8575334549 0.3822385371
0.054493602 -0.38456911 1.7760001 -0.1002069116 -0.16547288 0.9811102152
-0.064292453 0.023547441 1.5090001 0.04668482393 -0.1074576601 0.9931129813
0.024174457 -0.33279419 1.804 -0.2942966521 -0.3402132988 0.8931093812
-0.18432443 -0.37678081 3.0920002 -0.2476454228 0.8573826551 0.4511836767
-0.01299483 -0.086150907 1.647 -0.4495560229 0.7853922248 0.4255096316
-0.23823854 0.20791727 1.6470001 0.0436998643 -0.3718743324 0.927253902
-0.1439171 -0.24829654 1.8040001 0.2014777362 -0.169244796 0.9647605419
0.25476614 0.025611954 1.602846 -0.3732154667 0.5355755687 0.7575414181
0.055935718 -0.15374331 1.8230002 -0.1922977716 0.8521146774 0.48674649
-0.10320032 -0.29727855 1.7570001 0.02099770308 -0.557190001 0.8301194906
0.05706574 -0.097612448 1.7130001 -0.256481111 0.8742111921 0.4122769237
0.0044604801 -0.10853835 1.6960001 -0.3067127466 0.8675926924 0.3914208114
0.024032939 0.020027449 1.5230001 -0.1825695634 0.5516727567 0.8138338327
0.22287937 -0.44553515 1.785 -0.0776064992 -0.02671931684 0.9966259599
0.044761095 -0.056615632 1.6320001 -0.2804197967 0.815228343 0.506722331
-0.08591982 -0.045239683 1.5265999 -0.1879787147 0.646658957 0.739253819
0.085595526 0.054832432 1.5255002 -0.2701365352 -0.09109365195 0.9585031271
0.24715117 -0.11364186 1.8130001 -0.1317213178 0.8918141127 0.4328013957
0.23684676 -0.27323475 1.853 -0.1758160293 -0.2763162553 0.9448481798
-0.24492665 0.3047004 1.6630001 0.5749469995 -0.1470301747 0.8048714995
0.20568705 -0.13016133 1.8330001 -0.1323905736 0.873532176 0.4684167206
-0.046346735 -0.26050061 1.8230001 0.07953902334 -0.8345887661 0.545100987
0.12922768 -0.44477156 1.7760001 0.1120548919 -0.1096970215 0.9876285791
-0.1355844 -0.1438458 1.6630001 0.04172366112 0.8533934355 0.5195947886
0.075668253 -0.47487277 1.7760003 -0.2295044512 -0.1000512987 0.9681515694
0.18659675 -0.054269172 1.6960001 -0.3347473145 0.7868997455 0.5183945894
0.12447263 -0.02718368 1.6320001 -0.2233424187 0.758148253 0.6126413345
-0.12576661 -0.099215873 1.5940001 -0.04375755042 0.8608538508 0.5069673657
-0.2041105 0.13513465 1.6056666 -0.4858109057 -0.4051986337 0.77446872
0.29402784 -0.30377463 1.853 -0.1496606916 -0.352836132 0.9236386418
0.072811902 -0.013565714 1.5790001 -0.2527053654 0.7675545216 0.5890671611
0.22520791 0.055263791 1.5790004 -0.3586319387 0.2024178505 0.9112684131
0.0563346 -0.12988254 1.7850001 -0.2642583549 0.8551459312 0.4459741116
0.09593714 -0.38584554 1.794 -0.4270052314 -0.3332620859 0.8405967951
0.14422219 -0.072854504 1.6960001 -0.1269700676 0.8690171838 0.478213042
0.21489397 -0.034114785 1.6630001 -0.1955080181 0.8410084248 0.5044615269
0.12493902 -0.34793147 1.804 0.07555975765 -0.322437346 0.9435703158
-0.0051416503 -0.035305995 1.5640001 -0.4582002163 0.7183570862 0.5234650373
0.1741998 -0.32123083 1.8230001 -0.1895254105 -0.1878428459 0.9637402296
-0.11533076 -0.36571991 1.7310003 0.09484663606 -0.3426984251 0.9346453547
0.29608893 0.042500805 1.6160001 -0.4695957005 0.436039418 0.7676910162
-0.16292411 -0.16591355 1.705 0.04436577111 0.902322948 0.4287714958
0.26369694 -0.35639042 1.8230002 -0.2219484895 -0.24318856 0.944244802
-0.11980965 -0.32215482 3.0370002 -0.2578417361 0.8610976934 0.438210398
-0.0045972397 -0.40762195 1.748 -0.6392449141 -0.3161350787 0.7010168433
0.15417147 -0.27496561 1.8130001 0.04385541752 -0.3891798556 0.920117259
0.17369834 -0.3974719 1.7850001 -0.1228518933 -0.2697454989 0.9550626874
-0.0030963868 -0.1377892 1.766 -0.3631284535 0.8638083935 0.3492459953
0.33301499 -0.37525102 1.853 -0.7572601438 -0.3931055367 0.5215602517
-0.054157838 -0.017609604 1.5159999 -0.1677434742 0.5149457455 0.8406503797
-0.076525107 -0.11502831 1.647 -0.3151733875 0.8468112946 0.4284581244
-0.056251023 -0.29776919 1.7660002 -0.2963693738 -0.4965729117 0.8158311844
0.26217213 -0.23371087 1.8730001 -0.07841136307 -0.7457535863 0.6615914702
0.12785307 -0.14223653 1.8230001 -0.0256663803 0.8189296126 0.5733197331
0.21575205 -0.3148382 1.8230002 -0.09549359232 -0.2904181182 0.9521230459
0.12253696 0.03905024 1.536 -0.2715275586 0.3811654747 0.8837339282
-0.15233661 -0.11816765 1.6240001 -0.009544646367 0.9088432789 0.4170284867
-0.044492587 -0.066043682 1.5860001 -0.3565026224 0.8088645339 0.4675938785
0.17405428 -0.10011972 1.7570001 -0.2319884747 0.8133140802 0.5335743427
-0.11638408 -0.41673008 1.7130001 0.02384293452 -0.1682302952 0.9854593277
0.1044636 -0.054408122 1.6550001 -0.2426889837 0.8449901938 0.4765434563
-0.12657663 -0.02827776 1.536 0.7885112166 0.1217041537 0.6028583646
0.029474409 -0.037895668 1.6010001 -0.3659668863 0.7370955944 0.5681182742
0.26463878 -0.48446819 1.804 -0.294942528 0.2021470368 0.9338873029
0.26904899 -0.402127 3.3000002 -0.1440313011 0.8298879862 0.5390184522
0.26478735 -0.063705966 1.7220001 -0.09882582724 0.8556402326 0.5080484748
0.09661568 -0.089067578 1.7220001 -0.2216408402 0.8604137897 0.458871901
0.30516416 -0.45615682 1.8129998 -0.3411556184 -0.1481793374 0.9282541275
0.055074085 0.01372021 1.5430001 -0.2805777192 0.7275184393 0.6260935068
-0.057297472 -0.1370157 1.705 -0.3538558781 0.8309208155 0.4293676615
0.16467044 0.074848332 1.5523334 -0.3132874072 -0.02877706662 0.9492222667
-0.03617302 -0.28152046 1.794 -0.1443860084 -0.7023202181 0.6970645785
0.059456408 -0.26353651 1.8330001 -0.3081408143 -0.5217922926 0.7954759598
0.094291642 -0.28607124 1.8230002 0.1166760772 -0.302828759 0.9458760023
0.35939738 -0.39446056 3.3330002 -0.1410519332 0.8300740719 0.5395195484
0.14707837 -0.47529534 1.7660002 -0.07714643329 -0.01043977402 0.9969651103
0.0474452 -0.36216503 1.8040001 -0.2909557819 -0.6027747989 0.7429719567
0.48310909 -0.25121671 3.1490002 -0.1473406702 0.8347184062 0.5305995345
0.12427144 -0.22823709 1.853 -0.08434557915 -0.4889438152 0.8682279587
0.19226789 -0.24558589 1.8430001 -0.2204513401 -0.3364121318 0.915547967
0.27899039 0.01001504 1.6320001 -0.4929294288 0.6346486807 0.5951820016
0.13505401 0.017138835 1.5640001 -0.1791932285 0.778919518 0.6009776592
-0.02772546 -0.34502798 1.7570001 -0.4747062922 -0.2235141397 0.8512904048
-0.083355218 -0.18715605 1.794 -0.3085312843 0.8673989177 0.3904196918
0.11428086 -0.11428086 1.7760003 -0.1518064737 0.9026677608 0.4026731551
-0.020662157 -0.17960182 1.8130001 -0.3372573853 0.7330114841 0.5907212496
-0.13231179 -0.081580848 1.5640001 0.06326571852 0.6696244478 0.7400003672
0.2876808 -0.4227795 1.8130001 -0.3413156569 -0.3063869178 0.8886116743
0.1048055 -0.012576659 1.5940002 -0.2641626 0.8040980697 0.5325828195
-0.21640341 0.22352195 1.6240001 -0.1999445111 -0.3777350485 0.9040676951
0.22026338 -0.090877898 1.7570001 -0.08759108186 0.8769845963 0.4724677503
-0.1684252 0.036492124 1.6010001 -0.6665620208 -0.2565503418 0.6999121308
-0.091230318 -0.099651575 1.6010001 -0.3137356341 0.8407227397 0.4413108528
-0.08559861 -0.49256742 1.7130001 0.008362852968 -0.2046463639 0.9788002372
0.067063242 -0.068521142 1.6630001 -0.2862408459 0.8257567883 0.4859957993
0.054493599 -0.44061968 1.7760001 -0.1663187295 -0.1437454224 0.9755384922
-0.052245703 -0.40474159 1.7310001 -0.1697946936 -0.2319690436 0.9577891827
-0.13485238 -0.19155167 1.748 0.0330680497 0.9164498448 0.3987808228
-0.10524944 -0.32458213 1.7350003 -0.3343683183 -0.5024029613 0.7973638773
0.25460136 -0.033985913 1.6710002 -0.1318605244 0.8156704903 0.5632889867
-0.16379884 -0.32295313 1.766 0.2632284462 -0.6241583228 0.7356202602
0.00160693 -0.24746722 1.8330001 -0.2036060691 -0.8583705425 0.470897615
0.19762082 -0.14535747 1.863 -0.2838259339 0.8505936265 0.4426435232
0.076643459 -0.37186271 3.2380002 -0.2214478105 0.8043753505 0.5513086319
0.17415248 -0.12692468 1.813 -0.201534465 0.8686102629 0.4526589513
-0.0048507559 -0.44557658 1.7390002 -0.4347938895 -0.1868404299 0.8809341192
0.2276265 -0.068287946 1.7310001 -0.1810973287 0.8258799911 0.5339719653
0.19881046 0.039762095 1.5640001 -0.3185923696 0.5957095623 0.7373120189
-0.023472751 -0.15804985 1.7850002 -0.3976483345 0.7781975865 0.4860908389
0.31252816 -0.0038292799 1.6800001 -0.4450820088 0.62899369 0.6373922825
0.12480489 -0.26728603 1.8330001 0.1300710291 -0.4797047973 0.8677354455
-0.13507988 -0.30460706 1.7659999 0.3329924345 -0.6097659469 0.7192367911
0.28759402 -0.34333554 1.8430001 -0.4456630647 -0.3764777184 0.8121877313
0.23182186 -0.41425973 1.794 -0.2909037173 -0.2555402815 0.9219946861
0.066602997 -0.1640708 1.853 -0.1667548865 0.8872548938 0.4300831854
0.28656128 -0.078153081 1.748 -0.1799286902 0.8917370439 0.4152477682
0.17548095 0.0052972911 1.6053075 -0.2093391716 0.7489181757 0.6287277937
0.0062224045 -0.0089277979 1.5430001 -0.3972510993 0.7347640991 0.5498301983
0.018607879 -0.47439137 1.748 -0.5139461756 -0.1146614477 0.8501247764
-0.16007495 -0.35521397 1.739 0.3213418424 -0.3383767009 0.8844437003
0.0047445199 -0.3052308 1.804 -0.460196346 -0.3136443794 0.8305699825
0.062345028 -0.29546121 3.0920002 -0.2419377565 0.8134500384 0.5289282799
0.02531112 -0.37685445 3.2080002 -0.2371045798 0.8174162507 0.5249877572
0.024348855 -0.40435994 1.766 -0.3563353121 -0.3745227456 0.8560127616
0.22468758 -0.0025500481 1.6159999 -0.2204130292 0.7405638099 0.6348096728
-0.11497921 -0.063125849 1.5430001 0.2956965268 0.6836480498 0.6672248244
-0.022667093 -0.077918135 1.6160001 -0.3771441281 0.821791172 0.4271084368
0.24224491 0.083055399 1.5790001 -0.3273608983 -0.04927316681 0.9436137676
-0.045652591 -0.46463522 1.7130001 -0.3200311661 -0.1662736982 0.9327020645
0.027317809 -0.16551378 1.8330001 -0.3742479384 0.8550246954 0.3589864671
-0.074471362 -0.36475763 1.7336669 -0.3143236637 -0.4311047196 0.8457832932
-0.14791121 -0.20084783 1.7760001 0.1442089528 0.861853838 0.4862219095
0.26289481 -0.10171525 1.7850001 -0.287923038 0.8406257629 0.4587468505
-0.024681324 -0.12221716 1.6960001 -0.3780958056 0.8149133325 0.4392719567
0.16530338 -0.082274288 1.7220001 -0.2338794768 0.8761795163 0.4214378297
0.086561188 -0.23028544 1.863 0.04929883778 -0.5346904397 0.8436087966
-0.1042041 -0.17929237 1.748 -0.3310285509 0.860104382 0.3881243765
0.085970752 -0.14703408 1.8330001 -0.1942219883 0.8407344222 0.5054141283
-0.0237226 -0.24829654 1.8040001 -0.01152880676 -0.6188847423 0.7853972316
0.093774408 -0.31628996 1.813 -0.03219538927 -0.2644079328 0.9638733864
0.20499536 -0.4741495 1.7850001 -0.03077618405 -0.05689489841 0.9979057312
0.023472751 -0.13927165 1.7850001 -0.2390222549 0.8885189295 0.3916662037
-0.025064778 0.025068281 1.5050001 -0.1242301911 -0.07208295912 0.9896317124
0.013403502 -0.071313761 1.6378335 -0.2990433872 0.8472895026 0.4389459789
0.0045688944 -0.12482154 1.7363334 -0.3265255094 0.8662314415 0.3781853318
0.058807675 -0.32582632 1.8130001 -0.146831125 -0.2093741298 0.9667487144
-0.15159319 -0.01515932 1.572 0.3011316061 -0.1281112134 0.944937706
0.14442432 -0.10594065 1.7659999 -0.08643212169 0.8836870193 0.460029006
0.45810041 -0.23040554 3.0920002 -0.1473406702 0.8347184062 0.5305995345
-0.12739193 -0.28781143 1.794 0.4218298495 -0.5584388971 0.7142867446
-0.24064939 0.33033237 1.705 0.9550990462 0.08853063732 0.2827509642
0.15518402 -0.018508187 1.6240001 -0.1883724034 0.8010404706 0.5681988597
-0.075525708 -0.2619296 1.8330001 0.03946081176 -0.9009383917 0.4321491718
0.26478752 -0.29402784 1.853 -0.2238906622 -0.2317951769 0.9466488361
0.096582547 0.07764478 1.5430001 -0.1707326919 -0.3189917505 0.9322524667
-0.024507392 -0.026661888 1.536 -0.4331870079 0.7201084495 0.5420265794
-0.19144471 0.065678112 1.5940001 -0.3939823508 -0.3362963796 0.8553845286
-0.035426978 -0.15249003 1.7570001 -0.3700148463 0.8630511761 0.3438483775
0.032696161 -0.35965776 1.7760001 -0.2347072065 -0.5516198277 0.8003924489
-0.0046945494 -0.34583187 1.7850001 -0.578199327 -0.3933933377 0.7147917151
0.27421695 -0.014508834 1.6550001 -0.4343103766 0.7200371027 0.5412217975
0.1446351 -0.32582632 1.813 0.003582264297 -0.1910005212 0.9815834165
-0.24282877 0.23708135 1.6390001 0.2626728714 -0.3526314497 0.8981391788
-0.17393385 -0.035885584 1.574625 0.2698615491 -0.1215019003 0.9552026391
0.16195802 0.015226823 1.5790001 -0.3431901932 0.7585804462 0.553873837
-0.11775035 -0.46496296 1.7220001 0.5876850486 -0.02925845236 0.8085605502
-0.073971368 -0.42420325 1.7220001 -0.1567824036 -0.2066149116 0.9657792449
-0.11448565 -0.1561168 1.6960001 -0.2368510067 0.8815419674 0.4083936214
-0.17238422 -0.2356445 1.8040003 0.2855225801 -0.03075793386 0.9578782916
-0.23695686 -0.35942894 3.0370002 -0.269828558 0.869430542 0.4138636589
0.17578481 -0.11527729 1.7850002 -0.120755218 0.8857169747 0.4482449889
0.22410491 -0.38622338 1.813 0.003800227307 -0.2876078784 0.9577407241
-0.065813124 -0.064442009 1.5640001 -0.3353570104 0.8115441203 0.4784682095
-0.23369128 -0.37605494 3.0640001 -0.2589606345 0.8625201583 0.4347394705
-0.16453278 -0.075410865 1.5640001 -0.003385545453 0.03949566558 0.9992139935
0.23743816 -0.22083409 1.8940001 -0.2132586241 -0.7873908281 0.5783912539
0.17312238 -0.23028544 1.863 0.02281553484 -0.9524146914 0.3039501607
0.10431631 -0.46553102 1.7760001 -0.09834138304 -0.1256145239 0.9871929884
-0.01611401 -0.10400861 1.6710001 -0.3682098091 0.8184076548 0.4411693513
0.074678957 -0.051699996 1.6381251 -0.2656578124 0.819852531 0.5072156787
0.21955152 -0.14691794 1.8830001 -0.3133032322 0.789706707 0.5274507999
0.15674977 -0.42411557 1.794 -0.09246337414 -0.3531855047 0.9309728742
0.023840949 -0.28450203 1.813 -0.1078004315 -0.2294262201 0.9673379064
0.11365808 -0.4157083 1.7760001 -0.08546875417 -0.3298175335 0.9401677847
-0.18508185 0.11532024 1.6240002 -0.7452067137 -0.2870835364 0.6018720865
0.19973798 -0.42935801 1.794 0.1566264033 -0.5988157392 0.7854220867
0.19549578 -0.37509763 1.8129998 -0.2944807708 -0.3108024597 0.9037051201
-0.16356495 -0.26736581 1.794 0.3240433335 -0.03107667528 0.9455316663
0.28549087 -0.052315082 1.705 -0.3379229009 0.7965262532 0.501352191
0.18457866 -0.039552569 1.6710001 -0.2017124891 0.8388843536 0.5055541992
0.066243559 -0.2358917 1.8430001 0.04045220092 -0.5350495577 0.8438516259
-0.041872229 -0.099627033 1.6470001 -0.3371968269 0.842102468 0.4209058285
-0.16104805 -0.12912862 1.6550001 -0.05455990136 0.8453931808 0.5313507318
0.064187124 0.034764215 1.5252501 -0.2736307681 0.4256395102 0.8625295758
0.24332534 -0.46395826 1.7939999 -0.2633144855 0.2066151798 0.9423245788
0.02717316 -0.11020226 1.7220001 -0.2749656141 0.8880411386 0.368479073
-0.15231733 -0.11039513 1.5940001 -0.3232380152 0.8440775275 0.4278438389
0.29115152 -0.085632801 1.7760001 -0.2816373408 0.9017072916 0.3280309737
0.23380832 -0.29487166 1.8330001 -0.2715868652 -0.3407790661 0.9000612497
0.14626481 -0.37745762 1.794 -0.006812473293 -0.1306402534 0.9914064407
0.23522429 -0.17212881 1.8940001 -0.9633181095 -0.1107926667 0.2444241345
-0.22067453 0.15376031 1.6240001 0.3851158619 -0.02184537798 0.9226096272
0.045284655 -0.46561915 1.7659999 -0.3387454748 -0.217322737 0.9154356122
-0.078555472 -0.17097367 1.7570001 -0.3633532822 0.8303771615 0.4224312603
-0.085150629 -0.27557841 1.766 -0.05349281058 -0.7037443519 0.7084366083
0.2347275 -0.10171525 1.7850001 -0.1315796822 0.8756363988 0.4647017717
0.18595941 -0.34489909 1.813 -0.2274614424 -0.1344063431 0.9644668102
-0.088188283 -0.15096638 1.705 -0.3611294031 0.8376364112 0.4098179936
0.034940425 -0.095900312 1.6960001 -0.3010732234 0.8467750549 0.4385509193
0.16743895 -0.47258469 1.7850001 -0.1808678061 -0.1400473118 0.973485291
0.14473854 0.054107871 1.5430001 -0.3304210007 0.1423598528 0.9330357313
0.074591182 -0.36773977 1.7850002 -0.2674294412 -0.6926107407 0.6699043512
-0.12227922 -0.39099157 1.7220001 0.1975909024 -0.07143100351 0.977678597
0.014358923 0.055103756 1.5237501 -0.06390761584 -0.1643315703 0.9843327403
-0.1605352 -0.14875279 1.6800001 -0.09219235927 0.8357959986 0.5412445664
0.05543996 -0.028772637 1.6010001 -0.2239148021 0.7499591112 0.6224334836
0.25501794 -0.4250299 1.804 -0.1884514093 -0.3269906044 0.9260470867
0.25444198 0.047273371 1.5860001 -0.472568512 0.325071305 0.8191505671
-0.15350462 -0.1768105 1.7336668 0.1742572486 0.9131224751 0.3685672283
0.24854289 -0.24854289 1.853 -0.04423701391 -0.3816124797 0.9232632518
-0.014302817 -0.37341356 1.7570001 -0.6048916578 -0.3365629017 0.721686542
-0.22437739 0.29137295 1.6470001 0.5188908577 -0.02791512012 0.8543846011
0.1719415 -0.26514342 1.8330001 -0.2896636426 -0.5213035345 0.8027064204
0.284502 -0.39575979 1.813 -0.1427909136 -0.1694462597 0.9751403332
0.30378076 -0.27601588 1.863 -0.2008349597 -0.1706516147 0.9646467566
0.23453048 -0.33441567 1.8230001 -0.2500805557 -0.3284145892 0.910825789
0.2155285 -0.02155285 1.6390001 -0.09710500389 0.8409987688 0.5322515368
-0.10359307 -0.12854828 1.6550001 -0.2957583666 0.8261740804 0.4795449078
-0.04651716 -0.32562011 1.7570002 -0.2435183823 -0.3284585178 0.9125863314
-0.070910059 -0.079252422 1.5860001 -0.3952078223 0.7789952755 0.486803025
0.11509318 -0.079219982 1.705 -0.1244471297 0.9054731727 0.4057477713
-0.11030921 -0.041199826 1.516 0.3659946322 0.4321261346 0.824205637
-0.082399651 -0.018606372 1.516 -0.05834891647 0.3887201548 0.9195064306
0.21605362 -0.25504074 1.853 -0.05863564089 -0.3425347209 0.9376736283
-0.13809341 -0.42035025 1.7310001 0.4355173409 -0.1417086571 0.8889563084
0.20530795 -0.063716263 1.7130002 -0.1001289412 0.8067601323 0.5823335052
0.00396867 0.03174936 1.5090001 -0.1514950842 0.1006854624 0.9833166599
-0.21658051 0.23679467 1.6470001 -0.08278036118 -0.4453531802 0.8915200233
0.21774735 0.41483253 1.8130001 -0.9084020853 -0.28134498 0.3092744648
-0.025797671 -0.40517521 1.7310001 -0.2989113033 -0.2560577989 0.9192858338
-0.055166882 -0.35398746 1.7479998 -0.2907122076 -0.4935488105 0.8196926117
0.11516062 0.0058432538 1.5768465 -0.2348418981 0.7913395762 0.5644741058
0.23497647 0.029198259 1.5860001 -0.3218527138 0.6180227399 0.7172577977
0.046189811 -0.41467035 1.7760001 -0.262938112 -0.1600032747 0.9514528513
-0.05007783 -0.14719847 1.7310001 -0.3762735724 0.8448389173 0.3803490102
0.32282901 -0.39474633 1.8230001 -0.4436941445 -0.1479814649 0.8838760853
-0.074710406 -0.12549396 1.6710001 -0.3178786635 0.8328905106 0.4530414939
0.012451734 -0.09302178 1.6710001 -0.2874524593 0.7990018725 0.5281733871
0.1237849 -0.060793761 1.6710001 -0.1735899746 0.8255130053 0.5370239615
-0.098125301 -0.43326095 1.7220001 0.1354107708 -0.2876679003 0.9481092095
-0.24006639 0.324016 1.6800001 0.9550990462 0.08853063732 0.2827509642
0.017000321 -0.058084425 1.6160001 -0.3357467949 0.7998842001 0.4974528253
0.033745531 -0.2619296 1.8330001 -0.1482251734 -0.7753561139 0.6138828993
-0.044967405 0.0052892594 1.5086251 -0.05486925691 0.1497744024 0.9871965051
0.06410607 -0.081827357 1.6847999 -0.2919582725 0.8535722494 0.4314797819
0.15456523 -0.30433598 1.8230001 0.002247016644 -0.272767514 0.9620773792
-0.025314625 -0.052935667 1.5751112 -0.3804479837 0.81446594 0.4380691051
0.073547952 -0.39903674 1.7850001 -0.2780580819 -0.08627869934 0.9566816092
0.19833706 0.0014166933 1.6160001 -0.04071364552 0.8235428333 0.5657911301
-0.24288559 0.27612561 1.6630001 0.4958908558 -0.07669819891 0.8649911284
0.26217711 -0.048074063 1.6960001 -0.1839332879 0.8396166563 0.5110894442
-0.073558174 -0.10298145 1.6240001 -0.342723459 0.8486564159 0.4028932452
-0.065896116 -0.25673124 1.8040003 -0.06487268209 -0.8191570044 0.5698888898
0.21520431 -0.11793323 1.8130001 -0.1245050952 0.8969855905 0.4241642654
-0.044282183 -0.17871025 1.8040001 -0.3874612451 0.7576702237 0.5251757503
0.27422908 0.045252923 1.6016153 -0.4387428463 0.3695615232 0.8191025257
-0.13506453 -0.13075395 1.6390001 0.0006557705346 0.8654692173 0.5009617209
0.1064098 -0.43815798 1.7850001 -0.2211901546 -0.03902101889 0.9744497538
-0.036792386 -0.49331832 1.7130001 -0.3716348112 -0.2759673595 0.8864138722
0.0015981633 -0.17260164 1.8230001 -0.3895066082 0.7234549522 0.5699978471
-0.21603872 0.19887008 1.6320001 -0.05218415707 -0.2540030181 0.9657946229
0.12483426 -0.013400288 1.6090001 -0.2112846375 0.8167188764 0.5369628072
0.074529819 -0.10343265 1.7350001 -0.2136140168 0.8957433701 0.389888227
0.10596094 -0.36532804 1.804 -0.07463109493 -0.2941246927 0.9528487921
0.045231085 -0.1420193 1.8040001 -0.182703197 0.8448021412 0.5029203892
0.085150629 -0.4954218 1.7659999 -0.2596178055 -0.173496455 0.9499987364
-0.26316831 0.32561505 1.6960001 0.9433841109 0.0294160936 0.3303954601
0.066892296 0.070903048 1.526 -0.2156018913 -0.2617411017 0.9407483339
-0.042528853 0.038541771 1.516 -0.008421383798 -0.1962140203 0.9805249572
0.1240007 -0.25287476 1.853 -0.0009285354172 -0.413500905 0.9105032086
0.11493101 -0.10267169 1.748 -0.1766929328 0.8799515367 0.4409817755
0.069097988 -0.29085433 1.8330001 -0.3473775387 -0.3740648329 0.859886229
0.16425928 -0.060672347 1.6880001 -0.3308078349 0.7932540774 0.5111889243
-0.10463017 -0.47681466 1.705 0.3185364604 -0.07875371724 0.9446334839
0.24612854 -0.43748733 1.785 -0.1367499381 -0.4266192615 0.8940332532
0.15438259 -0.13712241 1.8230002 -0.1525525749 0.8195958734 0.5522592664
0.11602595 -0.32582632 1.813 0.08078777045 -0.1789822131 0.9805297852
0.05545092 -0.11552275 1.7570001 -0.2922577262 0.8690758944 0.3991146684
0.12493902 -0.12652053 1.804 -0.05153720826 0.8482005596 0.5271619558
0.21396439 -0.28551668 1.8430002 0.01347672474 -0.4069482684 0.9133517742
0.18450163 0.027487382 1.5790002 -0.1853125989 0.7179752588 0.6709476709
0.2431777 -0.36397183 1.8130001 -0.2344607562 -0.2661158741 0.9349922538
0.19443853 -0.31013748 1.8330001 -0.376602143 -0.2970756292 0.8774490952
0.205137 -0.045753986 1.6834286 -0.05489934236 0.8917961717 0.4490942657
0.055758338 -0.0059414618 1.5640001 -0.2706896067 0.7607524991 0.5899006724
0.19762082 -0.2335519 1.863 -0.06514813751 -0.3982013166 0.9149816632
0.021686688 -0.032760743 1.5790001 -0.4380638897 0.7334895134 0.5197048783
0.1891382 -0.29721716 1.8130001 -0.4135993123 -0.2782726586 0.8668909669
-0.084716685 -0.31576219 1.7570001 -0.1792128682 -0.3250432611 0.9285631776
0.1666908 -0.38493875 1.8040001 0.08833567053 -0.207421422 0.9742552042
0.033817418 -0.0013526967 1.5430001 -0.3474449217 0.747004807 0.5668031573
0.14271986 -0.15241407 1.8430001 -0.1250911802 0.8364735842 0.5335392356
0.1732644 -0.03032127 1.6470001 -0.3291223645 0.7790683508 0.5336018801
0.30407411 -0.32540131 1.8430001 -0.3859767318 -0.1332127303 0.9128397107
0.23943257 -0.12373361 1.8330001 -0.1819725037 0.9070090055 0.3797639608
-0.061941758 -0.03905024 1.536 -0.297065407 0.7114337087 0.6368784904
-0.11158214 -0.28596166 1.7760001 0.2529276907 -0.7818590999 0.5698454976
0.23480552 -0.23152153 1.8730001 -0.2483326793 -0.8044101 0.5396807194
-0.0013351634 0.01201647 1.5230001 -0.3865432739 0.4327892363 0.8144186735
-0.18492229 0.04402912 1.5860001 -0.5287508965 -0.0183747299 0.848578155
-0.14603907 -0.093437321 1.5790001 -0.3358554244 0.6993267536 0.6309859157
0.19561853 -0.090877898 1.7570001 -0.1705203205 0.8460611105 0.5050776601
0.14535747 -0.23028544 1.863 -0.1104125679 -0.8991149068 0.4235580564
-0.13499685 -0.15479547 1.6847999 -0.03333790973 0.8825849891 0.4689694047
-0.063072659 -0.44901726 1.7130001 -0.2083304524 -0.2786271572 0.9375315309
0.076781973 0.0041133198 1.5640001 -0.2341876775 0.7737005353 0.5886795521
0.15413904 -0.49511325 1.7760004 -0.108285822 -0.01101338863 0.9940587878
0.27628413 -0.31506088 1.8430002 -0.2126042098 -0.419444263 0.8825338483
0.18563592 0.065518558 1.5569998 -0.2286756039 0.009211694822 0.9734591246
0.29053348 0.061755907 1.6010001 -0.4378104806 0.3490867615 0.8285290599
0.28625274 -0.47603354 1.804 -0.1836772561 0.1765527129 0.9670014381
-0.084623538 0.0052889297 1.5082501 0.02111863159 0.1146906167 0.9931767583
0.13427991 -0.041872229 1.647 -0.1194349602 0.8230361342 0.5552898645
-0.0036697267 -0.32450867 1.794 -0.6471275091 -0.2846853137 0.7072342634
0.01524523 -0.49547005 1.7390002 -0.4030604064 -0.1113784313 0.9083706141
0.08510258 0.034202624 1.5360001 -0.2479427159 0.4895198941 0.8359991908
-0.085896239 -0.061547697 1.5430001 -0.2838306129 0.7595520616 0.5852527618
0.036556125 -0.31549522 1.813 -0.1170193627 -0.2400724292 0.9636761546
0.29743108 0.0014508833 1.6550001 -0.513327539 0.6442728639 0.5669279695
0.26478752 -0.26478752 1.853 -0.1003768966 -0.2254598588 0.9690677524
0.15413903 -0.44529057 1.7760004 -0.1884308606 -0.1561573744 0.9695920348
0.26835731 -0.33584836 1.8330001 -0.3339879513 -0.4283646345 0.8396164775
-0.19599694 0.14616722 1.6240002 -0.1615229249 -0.3394357562 0.9266572595
0.075732313 -0.087191813 1.705 -0.25722 0.8595497608 0.4416016936
0.24075897 -0.14777619 1.8940001 -0.2245744318 0.8240920305 0.5200371742
0.10583963 0.055478267 1.5360001 -0.2117128223 -0.1617455631 0.9638547897
0.074734084 -0.11988592 1.7760001 -0.1810783744 0.8756774664 0.4476601183
0.26208827 0.0085001597 1.6160001 -0.3152380884 0.6862689853 0.6554844379
-0.13542368 -0.35604823 1.7356669 0.1830957085 -0.3679984808 0.9116210938
0.31344515 -0.36837882 1.8430001 -0.607367456 -0.5652948618 0.5581635237
0.2158637 0.074794337 1.5720001 -0.4688599408 -0.08935106546 0.8787415624
-0.01179555 -0.29331601 1.794 -0.5986343026 -0.4294539988 0.6761702299
-0.064158849 -0.28010815 1.7850002 -0.252052784 -0.7914169431 0.5568918586
0.12611376 -0.4748728 1.7760001 0.07509583235 -0.06057054177 0.9953350425
-0.095750406 -0.3450008 1.7336668 -0.3359674811 -0.3473758399 0.8754746914
-0.072083041 -0.4745467 1.7130002 -0.08907948434 -0.1226340532 0.9884461164
0.1048353 -0.026208825 1.6160001 -0.2837674022 0.8106248975 0.5122141242
0.11271304 -0.4020972 1.794 -0.02606599592 -0.550955534 0.8341274261
0.072582446 -0.1425159 1.8130001 -0.250838846 0.8317198157 0.4952999353
-0.0060069198 -0.11863667 1.7130001 -0.3889619112 0.8448246717 0.3673960865
0.2349107 0.015470147 1.6045556 -0.278406471 0.6971700191 0.6606389284
-0.035420839 -0.2946547 1.7760001 -0.2124177814 -0.6128721833 0.7610955238
0.27488407 -0.37556839 1.8230001 -0.06545448303 -0.4016024768 0.9134720564
0.21605362 -0.13807938 1.853 -0.2279295027 0.8887671232 0.3976696432
0.024911361 -0.38456908 1.7760004 -0.2260052562 -0.2332117409 0.9457980394
-0.095106058 -0.36683765 1.7220001 -0.01410309691 -0.3157896698 0.9487243891
0.27787429 0.025298093 1.6160001 -0.4471802711 0.5227794051 0.7257627249
-0.034539789 -0.13265282 1.7129999 -0.3352145255 0.8522990942 0.4015189409
0.14668974 -0.26422518 1.8330001 0.1712328345 -0.5539048314 0.8147814274
0.21495529 0.035397418 1.5790002 -0.2812269032 0.555285275 0.7826682925
0.10490017 -0.34489909 1.8129998 0.008248372003 -0.312533915 0.9498707652
0.0046445802 -0.39440227 1.7659999 -0.4753614664 -0.3430582881 0.8101496696
0.18170933 -0.070581309 1.7130001 -0.341955632 0.7954269648 0.5003622174
0.33401614 -0.44269124 1.8230001 -0.2178226411 -0.1582957655 0.9630658031
0.12424646 -0.37745762 1.794 0.1826772839 -0.3477226794 0.9196292162
0.10388061 -0.1390402 1.8230001 -0.08426226676 0.8510187864 0.5183308721
-0.05545092 -0.16173185 1.7570001 -0.3756572902 0.8438709378 0.3830972016
0.047042809 -0.10774321 1.7310001 -0.2668297291 0.8908099532 0.3677765131
-0.02566354 -0.46496299 1.7220001 -0.3915515244 -0.1408172697 0.909317255
0.039734915 -0.26860803 1.8130001 -0.1979777813 -0.5296452641 0.8247913122
0.20499536 -0.49605745 1.7850001 -0.1196915209 -0.02284929343 0.9925481677
