# .PCD v0.7 - Point Cloud Data file format
VERSION 0.7
FIELDS x y z normal_x normal_y normal_z
SIZE 4 4 4 4 4 4
TYPE F F F F F F
COUNT 1 1 1 1 1 1
WIDTH 512
HEIGHT 1
VIEWPOINT 0 0 0 1 0 0 0
POINTS 512
DATA ascii
0.32144704 -0.44241437 1.2920001 0.6622818112 -0.1934345514 0.7238548994
-0.49275827 -0.48446497 2.365 0.5882287621 0.7085139751 0.3898651898
-0.22869165 0.18683958 1.705 0.9873386621 0.05563155934 0.1485513002
0.44806564 0.19611691 1.5535001 -0.5305517316 0.7947651744 -0.2947255373
-0.016318098 0.025988081 1.149 0.2302650064 0.4122713208 0.8814819455
0.050780915 -0.4935905 2.3170002 0.499468863 0.8003123403 0.3317092359
-0.01145628 -0.25585693 1.452 -0.1627362669 0.6867830157 0.7084109187
-0.30397803 -0.12193469 1.9590001 0.09034618735 0.7816900611 0.6170885563
0.19457133 0.42493096 1.3330001 0.4870056808 -0.3905494809 0.7812148333
0.36572778 -0.050556488 1.2270001 -0.693359971 0.2183273882 0.6867205501
-0.18239628 0.023268662 1.427 0.5940594077 -0.2945765257 0.7485439777
-0.2023259 -0.3487713 2.1980002 0.5882287621 0.7085139751 0.3898651898
0.21599422 0.18478294 1.1868824 0.4046826363 -0.4200226068 0.8122887015
0.45826524 0.017030127 1.766 -0.8135259151 0.404455781 0.4178410172
0.079049915 -0.49697268 1.3980001 0.6665016413 -0.1333974153 0.733471632
0.22424324 -0.19215626 1.3843334 0.1195884123 0.7004628181 0.7035982013
-0.026185157 0.047749404 1.7570001 0.8117113709 0.5094980597 0.2855457366
0.43735322 -0.26678193 1.2060002 0.5504795909 -0.3746607006 0.7460573316
-0.084912568 -0.12251728 1.2953334 -0.02968034707 0.7236629725 0.6895150542
0.38032955 0.066465363 1.404 -0.4340266287 0.6836357117 -0.5867393613
0.15478195 -0.057369065 1.2346668 -0.01059949584 0.7795535326 0.6262459159
-0.19625294 0.22371948 1.5160002 0.8037293553 0.01993016154 0.5946611762
-0.23493001 -0.0047944901 1.8230001 0.2535896599 0.7721130848 0.5826951861
0.44524539 -0.44605118 1.1482002 0.6761773825 -0.3142338097 0.6663642526
0.25510219 0.024248634 1.1064397 0.3385459483 0.3780513704 0.8616634011
0.19447269 -0.36432865 1.4039999 0.3292580247 -0.2622577548 0.9070887566
-0.1002179 -0.41927898 2.3330002 0.4943244457 0.8035477996 0.3315934837
0.064030603 -0.15086897 1.3490001 -0.02213194966 0.7719715834 0.6352716684
0.33617973 -0.2850551 1.3254738 0.7898429036 -0.1773544848 0.5871061683
0.11498652 0.072304547 1.09 0.2345001996 0.4746992588 0.8483338356
0.20588686 0.30403334 1.2589999 0.2900219262 -0.4765537679 0.8299300075
0.20527229 -0.49430054 1.3457004 0.396263957 -0.3871575296 0.8325166106
0.059827238 -0.37296557 1.452 0.6152398586 -0.3649591506 0.6987737417
0.40453166 -0.16498752 1.2850457 0.4692792594 -0.1607098877 0.8683025241
-0.11501428 -0.21913247 1.381 0.1119447574 0.7054046988 0.6999089718
0.26760775 -0.11178551 1.2880001 0.1899432093 0.7450414896 0.6394018531
0.023713173 -0.071949348 1.2435 -0.009474934079 0.7992244959 0.6009579301
-0.12339638 -0.027566003 1.2145555 0.2278911322 0.4497731924 0.8635795712
0.45265719 0.1025437 1.6710001 -0.7309638262 0.489045471 0.4759479165
0.11557622 -0.23240872 1.4330001 -0.01758342981 0.6994719505 0.7144436836
0.39085546 -0.37534142 1.2252223 0.8417531848 -0.1385027319 0.5217936635
-0.20192263 0.1146452 1.4860001 0.2202127427 -0.5004387498 0.837297678
0.25569645 -0.041275218 1.197 0.1110889092 0.8100033998 0.575807035
0.37825286 -0.49533257 1.2165556 0.7850852013 -0.1411787122 0.6030835509
0.084769189 -0.0066622035 1.1633532 -0.03739497811 0.8020495772 0.596085608
0.16526675 -0.12818024 1.322 0.007373864762 0.7750527263 0.6318535209
0.36680147 0.010381267 1.3157501 -0.398117125 0.7472462058 -0.5320957303
0.39912969 0.13521005 1.483 -0.5055573583 0.6410474181 -0.5774686337
-0.18462162 -0.086153828 1.2763335 0.1949534863 0.5896649957 0.7837654948
0.26739997 -0.28463176 1.4040002 0.3205999434 -0.5560733676 0.7668103576
0.2836946 -0.3715331 1.3540001 0.6231015921 -0.3508230746 0.6990476251
-0.024050649 -0.18688834 1.3718001 -0.1492113769 0.7196191549 0.6781476736
0.23868723 0.11312471 1.126 0.5241147876 -0.3557967544 0.7737650871
0.17478058 0.0031617316 1.1453078 0.09074579179 0.826403141 0.5557184815
-0.16148025 -0.15444237 1.3380002 0.3068266213 0.6005604267 0.738366127
0.1292382 -0.42587063 1.404 0.05226188153 -0.2839859426 0.9574030638
0.45373669 -0.35643399 1.1683333 0.5348473191 -0.2008950859 0.8207189441
0.072132133 -0.30033198 1.4960001 0.2821573019 -0.279735744 0.9176792502
0.32636195 -0.041298889 1.149 -0.0790329352 0.6094393134 0.7888836861
-0.1640559 -0.042220265 1.376 0.6210550666 -0.3981046081 0.6751320958
-0.22498247 0.2082136 1.5940001 0.9287732244 -0.09565404803 0.3580929935
0.094758466 -0.10265481 1.2867501 0.02052347548 0.8080994487 0.5886883736
0.38707519 -0.24508484 1.2675556 0.801433742 -0.2146356702 0.5582432151
-0.042290401 -0.041233141 1.2060001 0.09906577319 0.7242199779 0.682415843
-0.0042886534 -0.12566794 1.3129092 -0.1677402407 0.7744838595 0.6099491119
0.34138173 -0.36494091 1.2920001 0.7928906679 -0.2042663395 0.5741076469
0.1452812 -0.17796947 1.381 0.04777937755 0.7316507697 0.6800031066
0.044310238 -0.21047364 1.404 -0.1053777859 0.7418139577 0.6622745395
0.19166651 0.062315222 1.077 -0.02752716839 0.6114732027 0.7907862067
0.1270909 -0.33749577 1.4354001 0.1605054885 -0.5276926756 0.834133327
0.34129685 -0.11191877 1.2640001 0.07140683383 0.7632884979 0.6420994997
0.046979249 0.051220272 1.1165 0.2971130311 0.4666562378 0.8330401182
0.26019728 -0.44268861 1.3430001 0.4283464551 -0.2599817812 0.865406692
0.28138983 -0.16129878 1.3430001 0.115997009 0.7460650802 0.6556916833
0.048008896 -0.46339023 2.381 0.0005888318992 0.8941851258 0.447696954
0.2046176 0.36442539 1.2958889 0.5436102152 -0.4779288769 0.6899796724
0.37857711 -0.31456116 1.2590001 0.7828477621 -0.1329686046 0.6078393459
0.2220246 0.25162786 1.2060001 0.7277430892 -0.2392908335 0.6427518129
0.084423877 -0.050583083 1.219 -0.06244841963 0.7980992794 0.599281013
0.053340781 -0.43540964 1.4150001 0.3646988273 -0.4184318185 0.8318110108
0.20564847 -0.090040676 1.268 0.09161455929 0.7684853673 0.6332748532
0.19566077 -0.43450689 1.376 0.338501811 -0.2378331721 0.9104130268
0.27693355 -0.49613285 1.3050001 0.5245692134 -0.2914755642 0.7999182343
0.14475521 -0.48492986 1.376 0.3107151091 -0.4709033966 0.8256549835
-0.094329335 -0.16625896 1.3450001 -0.08812005073 0.7092971802 0.6993799806
0.39876062 -0.43548852 1.1970001 0.8279628158 -0.07472544909 0.5557820797
0.024932399 -0.02493766 1.1850002 0.06720771641 0.7559093833 0.651217401
-0.045536969 -0.082341194 1.2574615 -0.05057673529 0.7538571954 0.6550887823
0.20504935 -0.29723436 1.4210001 0.3731088638 -0.4038717747 0.835270822
-0.038593497 -0.40827855 2.3170002 0.4961902797 0.8025345802 0.3312604129
0.30584884 -0.072069891 1.2270001 0.09741167724 0.7988709211 0.593562305
-0.11568868 -0.079369642 1.25 0.07608606666 0.7053214908 0.7047924995
-0.06223632 -0.25016561 1.3920001 -0.5263471007 0.1562636644 0.8357872963
0.31106764 -0.25101596 1.3700001 0.7689417005 -0.1845968515 0.6120887995
-0.2036124 0.16355751 1.5230001 0.6571894884 -0.2882328928 0.6964364648
0.22169322 -0.15131442 1.3380001 0.1080816835 0.7614995241 0.6390906572
0.19560917 -0.033710029 1.1953335 0.1087721214 0.8083600998 0.5785521269
0.36331373 -0.42478117 1.2520626 0.7029198408 -0.1237375811 0.7004232407
0.052571509 -0.25399005 1.4450001 0.1321389377 0.646381557 0.7514853477
0.41738743 -0.32513475 1.2049333 0.693215549 -0.2069274485 0.6903862953
0.33553186 -0.49557176 1.2590002 0.6457716227 -0.1872578114 0.7402117848
0.24438432 -0.33400041 1.3814003 0.4559914172 -0.3820414245 0.8038135171
0.39617881 0.054400671 1.3490001 -0.397685945 0.8012926579 -0.4469630122
-0.16197118 -0.38053471 2.2260001 0.4908538759 0.8051898479 0.3327638805
0.42400137 -0.21584217 1.2331113 0.7135312557 -0.2253937572 0.6633782983
0.11555531 0.025474688 1.1245788 0.06943758577 0.7606412768 0.6454481483
0.13432375 -0.023951543 1.1877694 0.05148494244 0.796091795 0.602981925
0.4107981 0.10929491 1.4330001 -0.3435813785 0.8272556067 -0.4445221722
0.29512146 -0.31535316 1.3574375 0.700353682 -0.3613391221 0.6155800223
0.23490986 -0.0081021544 1.155 0.0631820038 0.8141768575 0.5771690607
-0.17884526 0.075102277 1.452 0.5933864117 -0.4936416745 0.6357755065
-0.062942035 0.0092865303 1.177 0.3024259508 0.435959667 0.84763062
0.35695761 -0.23294961 1.322 0.7941942811 -0.2249390632 0.5644979477
0.39205673 -0.10863274 1.2863334 0.3152994215 0.3770328164 0.8708803058
0.17305401 -0.2163175 1.4100001 0.1418150514 0.6323363185 0.7616030574
0.23383194 -0.39495522 1.3700001 0.5694305897 -0.27352795 0.7751975656
0.41526115 -0.48327452 1.1754001 0.7815924287 0.04277938977 0.6223207712
-0.14451109 -0.12594728 1.2942727 -0.1162585169 0.6788212657 0.7250418067
0.426034 0.17490929 1.5076666 -0.5078154206 0.7753944993 -0.3753489256
0.25490725 -0.074359976 1.2436665 0.1346117705 0.8050383329 0.5777481794
0.095159717 -0.19594972 1.3952001 0.001234810334 0.715305388 0.698810935
0.3693949 -0.021203937 1.273 -0.2551201284 0.8679548502 -0.4261081219
0.11452247 -0.13789441 1.3330001 -0.04456879944 0.7602346539 0.6481179595
-0.044462193 -0.1532805 1.3346667 -0.08114280552 0.697384119 0.7120893598
0.15417129 -0.092205159 1.2774444 0.01658094488 0.7717437148 0.6357174516
0.31455001 -0.13459964 1.3027143 0.1949080974 0.7592254281 0.6209570169
0.28431177 -0.016840765 1.13 0.3308480978 0.7825186849 0.5274505615
0.034035705 -0.10113927 1.2880001 -0.005886354949 0.7595872879 0.6503787637
-0.024809666 -0.22328699 1.4150001 -0.08050397784 0.7569006681 0.6485526562
0.42197639 -0.39357835 1.1810001 0.7135257721 -0.1632645726 0.6813410521
0.30754551 -0.39525011 1.316375 0.6506158113 -0.176947549 0.7385043502
0.10462113 -0.38556314 1.421706 0.4111649692 -0.356534183 0.8389438391
0.034449317 0.0086626951 1.149 0.1409423649 0.6647835374 0.7336198688
0.014639749 -0.15787189 1.3540001 -0.1214694306 0.6940594912 0.7095960975
0.2402841 0.14621778 1.1663333 0.3364314735 -0.4580945969 0.8227777481
0.16530587 0.032988243 1.1055216 0.0981913805 0.7826662064 0.6146479249
0.22857067 0.06278336 1.1190001 0.5446238518 -0.1689102203 0.8214951158
-0.16349921 -0.05653711 1.245 0.2063106149 0.5415700078 0.8149465322
0.39983365 -0.27847493 1.2360001 0.7831298709 -0.197396785 0.5896966457
-0.066390142 -0.20111592 1.3870001 -0.2807458937 0.5566793084 0.7818502784
0.11543168 -0.074759796 1.2540003 -0.0775583908 0.7674018145 0.6364582777
-0.084543988 -0.053856071 1.2258887 0.1041198969 0.6874389052 0.718739748
0.32250515 -0.33451611 1.3220001 0.6896893978 -0.2289488018 0.6869577765
0.15073495 -0.38368893 1.4210001 0.3234266639 -0.4585268199 0.8277368546
0.20629019 -0.059402931 1.2320001 0.09338054061 0.8078741431 0.581910193
0.034871671 -0.27468434 1.4890002 0.1231124103 0.6335369349 0.7638548613
-0.13389924 -0.19250482 1.3490001 -0.1451037824 0.5323682427 0.833983779
0.20739038 -0.12030935 1.307 0.09798453003 0.7504812479 0.6535877585
0.175677 -0.15787189 1.3540001 0.04466663301 0.7295809984 0.6824342012
0.067327119 -0.0805718 1.2590001 0.02575718611 0.8207341433 0.5707293749
-0.21157034 0.23340988 1.557 0.902308166 0.01110925339 0.4309484661
-0.017541224 -0.013413876 1.177 0.06947633624 0.630256176 0.7732723951
0.06459368 -0.12360834 1.3139234 -0.01751407795 0.7666046023 0.6418805718
0.35186481 -0.31393796 1.2941428 0.7618701458 -0.2350620031 0.6035724878
0.1718896 -0.3223933 1.4354001 0.4414459467 -0.3364365101 0.8318268657
0.096744016 -0.45541081 1.4040002 0.4586589038 -0.3854368329 0.800668776
0.30292565 -0.042833578 1.1858 0.511826694 0.8031956553 0.3048116863
0.073156081 -0.32984409 1.4640001 0.2694146633 -0.3521088362 0.8963454366
0.10602319 -0.16585568 1.365 -0.05977922678 0.7186281681 0.6928203106
0.21520104 0.015504488 1.1246365 0.02731059678 0.804900825 0.5927805901
-0.1681096 -0.013597101 1.41 0.6243773699 -0.3345835805 0.7058376074
0.3371768 -0.067987539 1.1810001 0.3397084773 0.9148777127 0.2181672156
-0.036132693 -0.11178552 1.2880001 -0.1005296037 0.7377147079 0.6675857902
0.24478662 -0.48455518 1.3330001 0.3877103031 -0.3200275898 0.864443779
0.45538679 -0.40504548 1.1534284 0.5743447542 -0.2816652656 0.768630445
-0.014040694 -0.058538891 1.2320001 -0.02988905832 0.7811052203 0.6236836314
-0.0044464534 -0.090040676 1.268 -0.1146233231 0.7873747945 0.6057246923
0.073604211 0.023519728 1.1318825 0.1067924574 0.6946544051 0.7113723755
0.37655964 -0.45524749 1.2261999 0.7928423285 -0.1163550615 0.5982161164
0.36282256 -0.26465973 1.2963752 0.7868207097 -0.2382915467 0.5693244338
0.13443597 0.002021593 1.153 0.06795468181 0.8122620583 0.5793207288
0.3408033 -0.4049148 1.2830001 0.755295217 -0.2103680074 0.6207047701
0.37247175 -0.35459721 1.2651764 0.7456457019 -0.1689940244 0.6445568204
0.20543076 0.26668772 1.2427778 0.6005958915 -0.3944037557 0.6955072284
0.051870614 -0.18215029 1.376 -0.1242724955 0.7270095944 0.6752876639
-0.11467922 -0.1423661 1.316 -0.02086804621 0.7321797609 0.680791676
-0.089569032 -0.0094837798 1.202 0.2690807283 0.4387405515 0.8573810458
0.22413585 -0.45611414 1.3546668 0.5639864206 -0.269946456 0.7804154158
0.30389825 -0.097790413 1.2640001 0.1145544127 0.771576643 0.6257370114
0.014225191 -0.19310169 1.3837274 -0.02238771506 0.7213069797 0.6922535896
0.28687939 -0.45536074 1.3163334 0.5872746706 -0.2341080457 0.7747914791
0.064000703 -0.030645287 1.189 -0.02223098837 0.7647045255 0.6439974904
0.17422053 -0.40492642 1.3973336 0.3074267805 -0.3338136971 0.8910988569
0.40265533 -0.20300387 1.2746667 0.6913858652 -0.3230455518 0.6462407708
0.18428935 -0.18308043 1.3830003 0.09265740216 0.7530359626 0.6514226198
0.18195654 -0.47380763 1.3700001 0.3600943685 -0.446139425 0.8193238974
0.045260798 -0.05105456 1.2168572 0.03783026338 0.8040136695 0.5934062004
0.30825704 -0.47988734 1.2880001 0.6603311896 -0.2155625522 0.7193716168
0.075458832 -0.22210085 1.4244287 0.06587308645 0.6925179958 0.7183867693
0.20816667 0.21560521 1.2115 0.5456132293 -0.3925762773 0.7403985858
0.021079449 0.045170251 1.1450001 0.4450167418 0.2652303874 0.8553437591
0.34348854 -0.081266999 1.2360001 -0.04994379729 0.7345160842 0.6767508984
0.01125903 -0.23143561 1.427 -0.1116205454 0.7401797771 0.6630797386
0.15464738 0.072909258 1.0717499 0.2111562788 0.4990144074 0.8404746652
0.15609312 -0.44607586 1.3848574 0.3345963955 -0.3464498222 0.8763662577
-0.21237338 0.19749372 1.5430001 0.7597366571 -0.1561911851 0.6311929822
0.25395215 -0.13712446 1.3227501 0.05829828605 0.7434543371 0.666240871
0.053462639 -0.42515528 1.452 0.5619528294 -0.2484693378 0.7889689207
-0.084993996 -0.095237754 1.2664443 0.001190319541 0.7323715687 0.68090415
0.27567747 -0.022289906 1.169 0.07556697726 0.7620202899 0.6431288123
0.18542394 0.39186105 1.317 0.4977389574 -0.3497405946 0.7936859727
0.13597101 -0.2089009 1.4100001 -0.08629567921 0.7247998118 0.6835337281
0.12524253 -0.11456299 1.3053335 -0.04477136582 0.7978816032 0.601149261
0.26697171 -0.40459618 1.3475003 0.4767063558 -0.2521447837 0.8421247005
0.24542636 -0.17156017 1.3590001 0.05981078371 0.7393400669 0.6706705093
0.45027441 -0.41888273 1.1190001 0.9667918682 -0.2232753932 0.1243443713
0.08454603 0.054897159 1.1029258 0.2099550515 0.5078676343 0.8354575634
0.34240493 -0.45543182 1.2640001 0.7164534926 -0.1776339263 0.6746410728
-0.0052746106 -0.036924616 1.2033334 0.0001074309839 0.7578334212 0.6524481177
0.10796325 -0.48794562 1.376 0.3115133941 -0.4376760125 0.8434448242
0.19458406 0.32955566 1.2830001 0.5108298659 -0.4207728207 0.7496686578
0.39378741 -0.3343845 1.2320002 0.8250781298 -0.1949610859 0.5303171277
0.12499199 -0.044961832 1.2164212 -0.04079531878 0.7719553709 0.6343663335
0.093741968 -0.35343254 1.4450001 0.4378669858 -0.5314792395 0.725122273
-0.13895166 -0.10115682 1.268 -0.001312847598 0.6888265014 0.7249250412
0.38568756 -0.41507941 1.2251817 0.83408463 -0.09145659953 0.5440022945
0.08310654 -0.41595232 1.4220003 0.5268837214 -0.3030139208 0.7940882444
0.21262158 0.037909895 1.0963334 -0.2425901145 0.6640930176 0.7071990967
0.21219717 -0.33086276 1.4100002 0.4245272279 -0.4252363741 0.799343884
0.058549937 -0.47836542 1.4210001 0.6038902402 -0.07647015899 0.7933907509
0.44331533 -0.30343112 1.1930001 0.6542962193 -0.2419257164 0.7164973021
0.37016723 -0.087817453 1.268 -0.5698855519 0.5007892251 0.6514911056
0.3129741 -0.28527728 1.3540001 0.7117078304 -0.2968077362 0.6366923451
0.34067091 -0.24096236 1.3540001 0.7482124567 -0.3026484847 0.5904083252
0.42264363 0.18645735 1.5755 -0.5305424333 0.797493875 -0.2872773409
0.42148292 -0.36082286 1.1930001 0.690595448 -0.2086596787 0.6924875379
0.035057902 -0.139063 1.3330001 -0.05159824714 0.7856283188 0.6165434122
0.21870905 0.12150775 1.155 0.5117387772 -0.4762780666 0.7150403261
0.22506504 -0.3652342 1.3855006 0.4962118566 -0.3091114759 0.8113099933
0.16496289 -0.016065795 1.1746001 0.07991965115 0.8147764802 0.5742405057
0.23640017 -0.10195458 1.2780001 -0.004637102131 0.7943583131 0.6074317694
0.17525208 -0.075032189 1.2556319 0.06008457392 0.792981863 0.6062752008
0.2345224 -0.30591112 1.404 0.596935153 -0.3756234348 0.7089256048
0.4183841 -0.44656676 1.169 0.6714937091 -0.1155577525 0.7319443822
-0.075002484 -0.14527717 1.3224618 -0.08452419192 0.7596651316 0.6447981
0.41843563 -0.24847977 1.2270001 0.6498531103 -0.3501470983 0.6746020913
-0.064237528 -0.17526589 1.3569168 -0.003438812215 0.741650641 0.6707775593
0.37781003 -0.13468756 1.302 0.3158172369 0.1063884348 0.9428366423
0.29315671 -0.284509 1.3809999 0.6978290081 -0.2893690765 0.6552100778
0.3777262 -0.27723637 1.268 0.8309373856 -0.2062107176 0.5167399645
-0.10410855 -0.19122466 1.365 -0.5351587534 0.2335921973 0.8118126392
0.40576693 0.093543835 1.4040002 -0.3240193129 0.7472035885 -0.5802571177
0.13593896 0.046933334 1.0956 0.2018725127 0.6893425584 0.6957401037
0.3764047 -0.22674656 1.29325 0.8338568211 -0.09751949459 0.5432980061
0.14436594 -0.14578508 1.3454001 0.05077673495 0.7550179958 0.6537351012
-0.185127 0.13769233 1.503 0.2834152579 -0.5390390754 0.7931662202
0.20780186 0.15252686 1.1676668 0.2240930349 -0.4077020288 0.8851900101
0.10275323 -0.031455677 1.1960001 -0.113960743 0.7803862095 0.6148254275
0.41798326 0.18261404 1.5430001 -0.51941818 0.7700201869 -0.3705045879
0.37273753 -0.38486964 1.2511765 0.8102174997 -0.124216333 0.5728157759
0.3623302 -0.48441482 1.2434 0.7196720243 -0.2345580459 0.6534941792
0.1644381 -0.35379103 1.4210001 0.3901583254 -0.3171599209 0.8643992543
0.27505544 -0.31362015 1.3834003 0.4512303174 -0.3686641157 0.812697947
-0.067493692 -0.41927898 2.3330002 0.4961902797 0.8025345802 0.3312604129
0.16424651 -0.036048286 1.2042859 0.09393033385 0.8450601101 0.5263559222
0.0192516 -0.26053831 1.4640001 -0.03940146044 0.7868563533 0.6158770919
0.20481227 -0.40400994 1.3831824 0.478664875 -0.2882728875 0.8293242455
-0.2027076 0.084960915 1.4728001 0.440938592 -0.4458462596 0.7789700031
-0.11510978 -0.11447019 1.2855002 0.0222044494 0.7089170814 0.7049422264
0.20486835 -0.014761118 1.1652224 0.05582443997 0.8303667903 0.5544137955
0.29321522 -0.42408779 1.3220003 0.57692945 -0.2299549431 0.7837557793
0.037855342 -0.30675879 1.489 0.3138357401 -0.1480865777 0.9378579259
0.28519952 -0.1349296 1.3154616 0.1399224848 0.7590420842 0.6358276606
0.2365513 -0.42474422 1.3586667 0.5278480649 -0.3793321848 0.7599233985
-0.084585771 -0.22786291 1.3850002 -0.2784814835 0.2953020334 0.9139172435
0.25614884 -0.35622561 1.3590001 0.3946888149 -0.2514298856 0.8837441802
0.17442141 -0.11074737 1.2970001 0.005895303562 0.8050328493 0.593200922
0.20730186 -0.17036878 1.3590001 0.09481550753 0.715942502 0.6916909218
-0.055142336 -0.06422694 1.2333336 -0.02140329778 0.7496933341 0.66143924
0.29764366 -0.34573588 1.3380002 0.7159840465 -0.2355298251 0.6571853161
0.22507176 -0.043294523 1.2044617 0.05422918126 0.8340131044 0.5490731597
-0.11991397 -0.17346779 1.3280001 -0.3141404688 0.509468317 0.8010978699
0.39117569 0.031433761 1.3280001 -0.3991954327 0.7475001216 -0.5309299231
0.12478545 -0.46443236 1.393059 0.1594474763 -0.3725527525 0.9142105579
0.31827649 -0.36522898 1.317 0.5922102332 -0.1964109838 0.7814791799
0.41498953 -0.2949945 1.214148 0.678022325 -0.2407192886 0.6945070028
-0.014146131 -0.14563641 1.3348184 -0.2360311151 0.6970211267 0.6770899892
0.27785075 -0.060913429 1.2190001 0.101605922 0.8168621659 0.5678137541
-0.17224394 -0.11424244 1.2865715 0.1160145551 0.6358463168 0.7630466223
0.14747672 0.017965704 1.126 0.1299000531 0.796328187 0.5907515287
-0.1349467 -0.054733902 1.2333336 0.1916927248 0.5347235203 0.8229973912
0.25778267 -0.001658069 1.1353334 0.4994026721 0.8136327863 0.2976553142
-0.057522487 -0.017779674 1.193 0.2486594468 0.5202254653 0.8170275092
0.38283682 -0.0011326533 1.2920001 -0.3884539902 0.7492818236 -0.5363582969
0.0038409468 0.0032119043 1.1625385 0.2017817944 0.5981096029 0.7755959034
0.026454292 -0.11846922 1.312 -0.0208169017 0.7858915329 0.6180138588
-0.049269542 -0.13176738 1.307 -0.1189066172 0.7581521869 0.6411446929
0.19437659 -0.13867347 1.3330001 0.1112823188 0.7603513002 0.6399079561
0.094823971 -0.12396675 1.3145001 0.01578831673 0.791308105 0.6112136841
0.10558134 0.0080425385 1.1470001 -0.03037955984 0.786739707 0.6165368557
0.40241978 -0.39397684 1.2038462 0.7685208321 -0.1597098857 0.619571209
0.39691499 -0.46546164 1.1953532 0.8106456399 -0.08073008806 0.5799450874
0.064899512 -0.10129469 1.2858572 0.03515638039 0.8016774654 0.596722126
-0.033624113 -0.2447855 1.4337502 -0.11829748 0.7010300159 0.7032514811
0.1136876 -0.0083408989 1.1730002 -0.0352794379 0.8142718673 0.5794106722
0.32139915 -0.057524234 1.204 0.3630798757 0.880538404 0.3046721816
0.2525371 0.055280697 1.1029998 0.4545353353 -0.08108413965 0.8870304227
0.44002092 -0.33338058 1.1810001 0.6570942402 -0.1491063982 0.7389143705
0.40399832 -0.22476292 1.252926 0.7797749639 -0.1983047128 0.5938234329
-0.00123084 -0.20801196 1.404 -0.1167469695 0.7306975722 0.6726449132
0.40207177 0.067101441 1.3844287 -0.3867226541 0.7437785864 -0.5451962948
0.40383941 -0.13536444 1.2867501 0.4338256121 0.0776425153 0.8976452351
0.054203536 -0.0070076645 1.1636668 0.01333527826 0.7609856725 0.6486316323
0.23295224 -0.027954271 1.1810001 0.09269547462 0.7839627266 0.6138484478
-0.18825802 0.18825802 1.5230001 0.6800161004 -0.3326029181 0.6534166932
0.14496581 -0.07504607 1.2555295 0.001060311683 0.7837790251 0.6210389137
0.2855961 -0.082222566 1.245 0.1518044919 0.7833084464 0.6028128266
0.12531891 -0.092873193 1.2763332 -0.07445800304 0.7868193388 0.6126755476
0.0049836743 -0.10805514 1.2919999 -0.1008981094 0.7518270612 0.6515946388
0.18638811 0.01863881 1.1190001 0.08277002722 0.7982478142 0.5966150761
0.014961192 -0.050226863 1.2190001 -0.00265736063 0.8060947657 0.5917805433
0.058030076 -0.39990288 1.439 0.3517425954 -0.1902841628 0.9165528417
0.37163872 -0.028923424 1.245 -0.1090682223 0.8520333767 -0.5119992495
0.045476731 -0.22889118 1.4330001 -0.004757378716 0.703574419 0.7106056809
-0.035057902 -0.20546 1.3950001 -0.05454487354 0.756534934 0.6516745687
0.12457434 -0.36500272 1.421 0.0841082409 -0.4183391631 0.9043882489
0.27557138 -0.33557487 1.3649999 0.6125212908 -0.3848541975 0.690438211
-0.013452742 -0.16736794 1.3540001 -0.1868512183 0.686760366 0.702457726
0.29870224 -0.038478654 1.155 0.2768011391 0.9133073688 0.2987487912
0.064666443 -0.064170107 1.234154 -0.005818292964 0.7974035144 0.6034184098
0.23513252 -0.1198491 1.302 0.009457030334 0.7306191325 0.6827197075
0.16441181 -0.49561816 1.3589998 0.330968678 -0.4653832912 0.8209007978
0.22404532 -0.077060089 1.25125 0.0294753015 0.7789418697 0.6264030337
0.26574132 -0.093302757 1.2670001 0.1841223538 0.7788824439 0.5995340943
0.19731838 -0.20283349 1.3980001 0.1305508614 0.6162236333 0.7766755819
-0.035176661 0.014129341 1.1659414 0.2919197679 0.4583894908 0.8394414186
0.28555489 -0.25992817 1.3920001 0.6767936349 -0.3360907435 0.6549758315
0.40773943 0.1214271 1.4580001 -0.4847574234 0.7147234082 -0.5041633844
0.23437157 -0.059402931 1.2320001 0.02590269409 0.8234497309 0.5667976737
0.0567028 -0.3518151 1.47 0.3195772469 -0.4245677292 0.8471201658
0.22417471 0.095961168 1.1426001 0.4721386731 -0.4037764072 0.783613205
0.31728712 -0.30712715 1.3371668 0.6944322586 -0.2900448143 0.6585118175
0.3211956 -0.41479206 1.302 0.6705724001 -0.2124233097 0.710780561
-0.052118462 -0.22490945 1.4107143 -0.5169366598 0.4651862085 0.7185946703
-0.14502749 -0.14410384 1.3149999 0.01995027624 0.8235254884 0.5669283271
0.30501792 -0.11619075 1.2846667 0.1825473309 0.7545160651 0.6303824186
0.43520042 -0.42500961 1.1626 0.5597743392 -0.1161066592 0.8204705715
0.10415623 -0.21326944 1.4143751 -0.04069632292 0.7467734218 0.6638322473
0.35721362 -0.33481714 1.2773334 0.7625786066 -0.1029927284 0.6386442184
0.27464637 0.0048853471 1.1148798 0.2110125124 0.5771591067 0.7888986468
-0.17605631 0.055813987 1.433 0.6302915215 -0.2989857793 0.7164775729
0.44099927 0.18631884 1.529 -0.4129096866 0.8276761174 -0.3800760508
0.24864897 0.088166364 1.13 0.4231844842 -0.3859609067 0.819724977
0.034738291 -0.084707297 1.2665713 -0.00592888752 0.8252847195 0.5646857023
-0.16445477 -0.081675515 1.2589999 0.2503190935 0.5633965135 0.7873529792
0.18648599 -0.33699793 1.4150001 0.4734661281 -0.3647439778 0.8017429113
0.39643845 -0.30508792 1.234316 0.7982550859 -0.1940951347 0.5701893568
0.10529643 -0.057878707 1.2340002 -0.06379663199 0.7855896354 0.6154502034
0.41137174 0.1560677 1.4959999 -0.5254827142 0.687535584 -0.5011614561
-0.065911129 -0.10865214 1.2830001 -0.04418225586 0.731761694 0.6801270247
0.065122947 -0.19602439 1.3961055 -0.02966682985 0.6871418357 0.7259173393
0.087045111 -0.24095096 1.439 0.03296530992 0.6584160328 0.7519319057
0.25967306 -0.38173136 1.365 0.4117341936 -0.3927563727 0.8223243952
0.40412319 -0.35451758 1.2118843 0.7728363872 -0.2284597903 0.592055738
-0.085063845 -0.073070168 1.244 0.0413813591 0.7116669416 0.7012972236
0.073663384 -0.16854501 1.37 0.01423863508 0.7090726495 0.7049916387
0.33131003 -0.26302296 1.3430001 0.7620462179 -0.2985599637 0.5745846629
0.04311692 0.031192854 1.1332 0.233290419 0.5465108752 0.8043018579
0.41831115 -0.18873669 1.2590001 0.6348970532 -0.3985804319 0.6618454456
0.39561254 -0.49215457 1.1970003 0.7353948355 -0.04494778439 0.6761465669
0.14523914 -0.40494639 1.4039998 0.2223983705 -0.247597754 0.9429922104
0.18523383 -0.050583083 1.219 0.1357691139 0.8061083555 0.5759826899
0.11453371 -0.18310386 1.383182 -0.1053126082 0.6805907488 0.7250555158
0.094718561 -0.085677877 1.2668571 -0.01441392209 0.7851276994 0.6191661358
0.051548 -0.2680496 1.47 0.3537130952 0.7360424399 0.5771728754
0.20776737 0.24432844 1.2265557 0.7218239903 -0.2784337699 0.6335966587
0.26556516 -0.46649814 1.3262354 0.489192903 -0.3104984462 0.8150343895
0.072253108 -0.45220482 1.4210001 0.3098988533 -0.1986649483 0.9297822118
-0.2103395 0.14287212 1.5090001 0.3970953226 -0.4578513801 0.7954165339
0.42729434 -0.46627843 1.155 0.7339476943 -0.2177120745 0.6433678865
0.33997396 -0.33656287 1.2970001 0.8012160659 -0.1005245075 0.5898708105
0.024430823 -0.24412724 1.4449999 -0.07118527591 0.7123869061 0.6981672645
0.3286036 -0.38659245 1.2970001 0.7313399911 -0.2002934217 0.6519389153
0.16519317 -0.19434409 1.3958182 0.06281412393 0.6871254444 0.7238183618
0.40299273 -0.25478125 1.25 0.7857570052 -0.2559969425 0.5630732775
0.23212349 -0.28693619 1.4210001 0.5394667983 -0.5214127302 0.6611387134
-0.094546109 -0.035060424 1.2117598 0.2401629835 0.5067225695 0.8279818892
0.084969901 -0.13739704 1.3338333 0.01378819346 0.7791445255 0.6266926527
0.43725792 -0.37576854 1.1689999 0.5744605064 -0.1746350229 0.7996860147
0.18429461 0.042776618 1.0918462 0.01269765757 0.7137147784 0.7003213763
0.29307726 -0.38520363 1.3348184 0.6603037119 -0.235198155 0.7132186294
0.3635608 -0.2939167 1.2839377 0.7559910417 -0.2007423937 0.6230409741
0.34037897 -0.4318907 1.273 0.7565588951 -0.1767341942 0.6295900941
0.38707024 0.094142608 1.4210002 -0.3907506168 0.7551288605 -0.5263975263
0.19896212 -0.45868516 1.3590001 0.4141975641 -0.4171959758 0.8089424372
0.35432127 -0.38499287 1.2753811 0.7078111172 -0.1307490319 0.6941959858
-0.17998229 0.094523072 1.4770001 0.4625693262 -0.4267036021 0.7771445513
0.42101625 0.14393346 1.4746667 -0.5267333984 0.6248109937 -0.5763359666
0.15914042 0.048599768 1.087 0.1758785546 0.6740854383 0.7174088955
0.322175 -0.088762499 1.25 0.1565330625 0.7614490986 0.6290410757
0.34880841 -0.25567311 1.317 0.7775847912 -0.2249821275 0.5871498585
0.085783578 -0.37593395 1.4389998 0.3410707712 -0.2966603935 0.8919996023
0.17280678 -0.37404388 1.4100001 0.4062516689 -0.4034066498 0.81989187
0.085351393 -0.071380831 1.245 -0.03551124781 0.7946882248 0.6059781909
0.14781477 -0.11029255 1.2970001 0.0217066016 0.7913543582 0.6109722853
0.1340248 -0.16334273 1.365 -0.007596053649 0.7596434951 0.6502953768
0.044974968 -0.16232689 1.3590001 -0.08499569446 0.6816763878 0.7267001271
0.095012687 0.034689106 1.1154799 0.07709354907 0.6826431751 0.7266739011
-0.2236284 0.22441414 1.576 0.9101894498 -0.02739656344 0.4132850766
0.023780463 -0.17559107 1.3700002 -0.0384664014 0.6726362109 0.7389728427
0.33415562 -0.31463343 1.3146471 0.7940785289 -0.2368067205 0.559787333
0.40729773 -0.4148289 1.1877694 0.7556143999 -0.1102222949 0.6456763744
-0.015351309 -0.076769695 1.251 -0.09087249637 0.7725815773 0.6283787489
0.20419933 0.0015718633 1.1409999 0.05248383433 0.8003278375 0.5972610712
0.13111076 -0.061762918 1.2360001 -0.03660996258 0.7935018539 0.6074656248
-0.14499837 -0.17423263 1.3380001 0.2110347301 0.4355458021 0.8750795126
0.11196436 0.05115613 1.1010001 0.1634532362 0.5826625228 0.7961076498
0.15438041 -0.22179608 1.4240001 0.07235789299 0.6656956077 0.7427070141
0.17946593 0.40702406 1.3380001 0.5030955672 -0.3897062838 0.7713779211
-0.064871579 -0.044670634 1.2131001 0.1164427325 0.6506246924 0.750418961
0.17448682 -0.42531523 1.3822002 0.3697556853 -0.3688898087 0.8527608514
0.080004603 -0.47387338 1.4039999 0.5964516401 -0.283714503 0.750833869
0.44317603 -0.25708511 1.2270001 0.521918416 -0.3083361387 0.7953175306
0.1020681 -0.42559209 1.41125 0.4814402163 -0.2204027325 0.8483147621
-0.092142053 -0.21180704 1.365 -0.4576291442 0.3733418286 0.8069643378
0.35488442 -0.095701419 1.2515556 -0.4022264779 0.6751909256 0.6183292866
0.36162499 -0.45477086 1.25 0.7293233871 -0.1355613917 0.6706045866
-0.10462717 -0.063674301 1.2340001 0.07101558149 0.6471236944 0.7590702772
0.15534227 -0.42558265 1.398 0.3741009235 -0.3460664451 0.8603990674
0.13443859 -0.12864383 1.322 0.03037356213 0.7789027095 0.626408875
0.054814752 -0.31809822 1.4770001 0.2598125935 -0.4255267382 0.8668473959
0.34708428 -0.28532854 1.3045001 0.7929337025 -0.2178485245 0.5690326691
0.065714642 0.0075415247 1.1473335 0.07453890145 0.7134399414 0.6967405677
0.3263483 -0.46671405 1.2770625 0.688659966 -0.2701384723 0.6728838682
0.18119794 -0.45238951 1.381 0.3159352243 -0.337569505 0.8866971135
0.38298967 -0.35478735 1.2441429 0.874378562 -0.1459987462 0.4627597034
-0.12133242 -0.23408578 1.3980001 0.09010709077 0.7170248032 0.6911990643
0.13080305 -0.39614639 1.4210001 0.157786563 -0.3346777856 0.9290286303
0.1949632 -0.10142814 1.2855 0.06112585962 0.7807462811 0.6218511462
0.2352372 0.0059513403 1.1322002 0.1768935621 0.8242185116 0.5379335284
0.23736832 0.13304128 1.1467779 0.5461549759 -0.5121038556 0.6629210711
-0.11454114 -0.095334098 1.2670587 -0.01866877824 0.7287607193 0.6845138669
0.2350741 0.034926645 1.1119999 0.16514121 -0.06693527102 0.9839959741
0.36887264 -0.10604006 1.2867501 -0.3795210719 0.3617427945 0.8515315056
0.025347222 -0.0056690844 1.1650001 0.1319404989 0.7120919228 0.6895772815
0.42136019 -0.27125731 1.223 0.6091606021 -0.234889552 0.757463038
0.45726231 0.087308988 1.6880001 -0.7309638262 0.489045471 0.4759479165
0.095201179 -0.15167145 1.3490001 0.0508620739 0.7474800944 0.6623342037
-0.025449341 -0.02823831 1.1930001 0.03857184201 0.6953694224 0.7176166177
-0.084565021 -0.25124389 1.3980001 -0.1386769712 0.2810825109 0.9496111274
0.20396702 -0.38228732 1.3932002 0.4344489872 -0.4045792222 0.8047171831
0.24558516 -0.15297966 1.3371668 0.07948249578 0.754904151 0.651000917
0.30428964 -0.14589936 1.322 0.1917597353 0.7370907664 0.6480165124
0.29462311 -0.052158162 1.2060002 0.07835573703 0.8254988194 0.5589383245
0.13468669 0.031589068 1.1126926 0.1402670145 0.7506628036 0.6456241012
0.22450341 0.20482527 1.1940666 0.4215264022 -0.4455889463 0.7897885442
0.13506238 0.065161273 1.0807407 0.2547214031 0.4929204285 0.8319534063
0.27466139 -0.42462021 1.3353808 0.5757037997 -0.2802889347 0.768116653
0.14371683 -0.35318279 1.4346367 0.2204492837 -0.5061773062 0.8337785006
0.21033074 0.34642708 1.2830001 0.553961277 -0.3961099386 0.7322730422
0.28931534 -0.47608128 1.307 0.5956619978 -0.2691438496 0.7568014264
0.18863063 0.36614275 1.3120002 0.55367589 -0.4308206141 0.7126265764
0.25899452 -0.29790449 1.3870001 0.2990909219 -0.4091071188 0.8620765805
-0.071819164 -0.15894406 1.3430001 -0.05623702705 0.7272315621 0.6840845346
0.20281683 0.40563366 1.322 0.4817823172 -0.396289885 0.7815626264
0.34998989 -0.036841039 1.2360001 -0.4563600719 0.7179967165 -0.5255627632
-0.045839146 -0.19180064 1.376 -0.01044239104 0.7719876766 0.6355516911
-0.044004798 -0.0035810804 1.177 0.2887133062 0.4803465009 0.8281979561
-0.02540054 -0.13277555 1.317 -0.1489909142 0.7380428314 0.6580991149
0.4272356 0.20429051 1.557 -0.5318468809 0.7961345911 -0.2886323333
0.22558512 0.16447191 1.1750002 0.1822344512 -0.4027132094 0.8970020413
0.22513914 -0.345056 1.3957502 0.5408376455 -0.2775829136 0.7940040231
-0.115005 -0.045143254 1.226 0.1705842763 0.5219838619 0.8357235193
0.1891271 0.34641719 1.2970001 0.5621333122 -0.4571490586 0.689217627
-0.035451755 -0.056079376 1.2254001 -0.02917479351 0.7785309553 0.6269277334
0.078289837 -0.35422945 1.4640001 0.5125194192 -0.3858143687 0.7671186924
0.15328078 -0.33063045 1.4450001 0.403825134 -0.4254261851 0.8098998666
-0.035689101 -0.17464182 1.3570001 -0.09577349573 0.7263829708 0.6805844903
0.31746253 -0.050557543 1.1674001 0.3814673722 0.6794559956 0.6267552972
0.33292994 -0.12034968 1.2830001 0.2167326063 0.7412231565 0.6353071928
-0.19491455 0.21376638 1.5360001 0.770396471 0.07842813432 0.6327229738
0.25483319 -0.017331043 1.16275 0.04559076205 0.7877913117 0.6142526269
0.38630095 -0.21830453 1.2751428 0.766749084 -0.2019988745 0.6093375683
0.28472656 -0.10460497 1.2756667 0.1695074439 0.7828698158 0.5986502171
0.21498497 -0.42516583 1.3700004 0.4311672449 -0.319406867 0.843844831
0.37731561 0.035373501 1.3450001 -0.3696702719 0.7864192724 -0.4948622286
0.1560578 -0.0015939053 1.1570002 0.08359767497 0.8212803006 0.5643669963
0.054824978 -0.28456774 1.4890002 0.3818144202 0.3590735793 0.8516360521
0.28539619 -0.12166293 1.2970001 0.1512192935 0.7725870013 0.6166377068
-0.15274514 -0.043026801 1.2270001 0.184965238 0.4968901277 0.8478726745
0.26230976 -0.49255517 1.322 0.4775448442 -0.3613356352 0.8008667231
0.36323738 -0.4017995 1.2640001 0.7009679079 -0.2751657665 0.657972455
-0.14352567 -0.071489975 1.245 0.134335205 0.5835025311 0.8009237647
0.34009844 -0.048001882 1.1650001 -0.02525802888 0.5900434852 0.8069763184
-0.025057938 -0.096875876 1.2759999 -0.1019108444 0.7513709664 0.6519630551
-0.075365275 -0.026878603 1.2023333 0.227433905 0.490693301 0.8411265612
0.17662029 -0.061762918 1.2360001 0.09694491327 0.7945071459 0.5994664431
0.18530038 -0.12368157 1.3138751 0.08543174714 0.7770091295 0.623665154
0.45502856 -0.37496701 1.156 0.4140793979 -0.2122899145 0.8851391077
-0.15986192 -0.02318608 1.3920001 0.6210550666 -0.3981046081 0.6751320958
0.37393078 -0.40594661 1.2450001 0.7851655483 -0.1966795027 0.5872241855
0.024780443 -0.21435378 1.4133334 -0.05538902432 0.7707657814 0.6347063184
0.22533357 -0.13258313 1.3170002 0.09534884244 0.7589224577 0.6441624761
0.38635185 -0.43527448 1.2151155 0.7970008254 -0.1007395163 0.5955176353
0.25542626 -0.062044982 1.2255001 0.1672531217 0.8292200565 0.5333108306
0.22523636 -0.49513122 1.3366112 0.4244353473 -0.4267441928 0.7985887527
0.014649799 0.024183286 1.1448002 0.3571183085 0.3314132988 0.8732878566
0.11888126 -0.20222069 1.3980001 -0.05994589254 0.700555563 0.7110754848
0.084898151 -0.019671524 1.1810001 -0.05273514986 0.7485924959 0.6609299183
0.16213951 -0.16934569 1.3700001 0.1072868705 0.7463942766 0.6567991376
0.12299283 -0.15019317 1.3490001 -0.06334215403 0.7672368288 0.6382282972
0.034796305 -0.037961066 1.2028 0.02318737842 0.8090113997 0.5873354077
0.006310422 -0.13812813 1.3330001 -0.09038304538 0.754658699 0.6498624086
0.046932351 -0.07094425 1.245 0.004477493931 0.8112780452 0.5846434236
-0.21800596 0.20703711 1.5640001 0.9195395112 -0.09031583369 0.3824789226
0.30356118 -0.45448548 1.30225 0.6383650303 -0.2303166538 0.7344687581
-0.10501064 -0.12783903 1.302 -0.006798701361 0.7353451252 0.6776587367
0.23600359 -0.46520385 1.3380002 0.4187803566 -0.2523468435 0.8723210692
0.18422361 -0.0091602895 1.161 0.117233783 0.8319552541 0.5423160791
0.24512196 -0.086515434 1.2652 0.0394702591 0.7921774387 0.6090131998
0.18589909 -0.30799702 1.427 0.4042314291 -0.3472355306 0.8461822867
0.345566 -0.4749065 1.2548215 0.5853121877 -0.2065584362 0.7840556502
