# .PCD v0.7 - Point Cloud Data file format
VERSION 0.7
FIELDS x y z normal_x normal_y normal_z
SIZE 4 4 4 4 4 4
TYPE F F F F F F
COUNT 1 1 1 1 1 1
WIDTH 512
HEIGHT 1
VIEWPOINT 0 0 0 1 0 0 0
POINTS 512
DATA ascii
-0.3121354 0.0013114933 1.4960001 -0.06890939921 0.7264896035 0.6837136149
0.4707621 -0.28501925 3.6530001 -0.3455398381 0.879889369 0.3261854649
-0.39157018 -0.1944885 2.9580002 -0.200500384 0.7430427074 0.6385037899
0.48746786 0.49795106 1.9930001 -0.4247099459 0.850687921 0.3097603917
0.45746481 0.037911449 2.8830001 -0.2174962759 0.8468756676 0.4852802753
-0.14742728 0.22870129 2.1560001 0.2206303328 0.738774538 -0.636815846
0.21700393 -0.35661486 1.7310001 -0.3445704877 0.2877850831 0.8935608268
-0.0042711198 0.49972105 1.6240001 0.08766875416 -0.2306685299 0.9690749049
-0.24002957 -0.39552045 1.7220001 0.3025361896 0.1373041719 0.9431963563
-0.49858925 0.38076702 1.6390001 -0.8298841715 -0.4448795617 0.3367112577
0.11408802 0.061956413 1.601 0.001099543995 0.8280369043 0.5606725216
0.31508979 -0.17883474 3.2380002 -0.2628124058 0.861111939 0.4352192879
0.19407207 0.20254068 2.4150002 -0.5326732993 0.8376528025 0.1208179221
0.059139058 -0.048854005 2.9330001 -0.1588229686 0.7395607829 0.6540833712
-0.42260945 0.18839216 1.9360001 -0.9120300412 -0.4089507461 -0.03099251539
-0.13856944 -0.084075838 1.7760001 -0.2491529584 0.8366872668 0.4877265692
-0.41512096 -0.36497211 3.1780002 -0.200500384 0.7430427074 0.6385037899
0.041510165 0.46657428 1.8940001 0.8873038888 0.4403464794 -0.1370647699
-0.085740849 0.15319552 1.4382501 0.05990714207 -0.1214054823 0.9907935262
-0.14236365 -0.22563297 3.0640001 -0.1458708048 0.6857818365 0.7130392194
-0.0045618811 -0.47288918 1.7363335 -0.2895662785 0.3568987548 0.88812989
0.095603123 -0.14416346 1.7310001 0.1894926429 -0.1051607728 0.9762344956
0.062106133 0.28459626 1.557 -0.001235720236 -0.09571190923 0.9954082966
0.47978565 -0.051502414 3.0920002 -0.2448684424 0.8650313616 0.4379042983
-0.42578119 0.17615214 1.5860003 0.2403469682 -0.2078206241 0.948179245
0.24604964 0.062133748 2.835 -0.1910966635 0.7930224538 0.5784440041
-0.095023654 0.01257666 1.5940001 -0.2338541597 0.8691000342 0.4358639717
-0.3225432 -0.1075144 1.6800001 -0.2919843793 0.8210446835 0.4905413091
-0.064029977 -0.27593872 1.7390001 -0.043113105 -0.146338746 0.9882946014
0.16653863 -0.13161923 3.0640001 -0.2457690388 0.8014944792 0.5451643467
-0.24444272 -0.22264528 1.7760001 0.3376519382 -0.7263282537 0.5986972451
0.32215482 -0.071885787 3.0370002 -0.2565488517 0.8575286865 0.4459004402
-0.10632038 -0.10632038 2.9580002 -0.1491442323 0.6715030074 0.7258372307
0.48540857 -0.1220618 3.2380002 -0.2572056055 0.8613668084 0.4380553663
-0.00301924 -0.016605821 1.7220001 -0.2205193937 0.8826858997 0.415014267
0.073439792 0.14428607 1.4761251 -0.5658203959 0.37967363 0.7319120765
0.0026861066 -0.19071357 3.0640001 -0.1681911498 0.687749207 0.7061960101
0.073971376 -0.32456827 1.7220001 0.3438222706 -0.04341494292 0.9380306005
0.37464789 -0.22124875 3.3650002 -0.3240465224 0.8853416443 0.3334127367
-0.25153846 -0.15299761 2.9580002 -0.1539223492 0.6930295825 0.7042853832
-0.22417435 0.1131084 1.4561999 0.2893281579 -0.3463350236 0.8923795819
-0.27377599 -0.27648664 3.0920002 -0.200500384 0.7430427074 0.6385037899
0.13234159 -0.0155696 1.7760001 -0.06816639006 0.3667884469 0.9278036356
-0.22428858 -0.03551048 1.604 -0.3107534647 0.8585200906 0.4078916311
0.22003895 -0.20182882 1.7310001 -0.6493478417 -0.2409703583 0.7213048339
-0.13665745 -0.47484702 1.7130001 -0.166241318 0.2684219182 0.9488484859
-0.035426978 -0.15557064 1.7570001 0.1397375017 -0.2238577455 0.9645522833
-0.01594832 0.067780361 1.516 -0.2456121445 0.8546512723 0.4574339986
-0.40085584 0.058429834 1.5500001 0.2160713822 -0.06287365407 0.9743511081
0.014812511 0.38596374 1.594 0.1441740841 -0.1167290956 0.9826434255
-0.12983784 0.064263172 1.4960001 -0.1717186868 0.7855508327 0.5944935679
-0.17468975 -0.30533123 1.7327778 -0.1927936971 -0.1566243619 0.9686585665
-0.45513961 0.28352192 1.6090001 0.07326363772 -0.02232488617 0.9970626831
-0.073971383 -0.38495308 1.7220001 -0.04103952274 0.006595585495 0.9991357327
0.12392998 -0.42136192 1.7310001 -0.05418306217 0.6657164693 0.7442350388
-0.34620795 -0.058396518 1.5860001 -0.0667232275 0.8697815537 0.4889049828
0.015660774 0.024203012 1.6240001 -0.1624891311 0.8948512077 0.4157385826
-0.13462251 -0.19746688 1.7570002 -0.01004441641 -0.3641931415 0.9312692881
-0.21822864 -0.082209416 1.705 -0.2905690372 0.8826996684 0.3693385124
-0.29885653 -0.14543286 1.8230001 0.7234076262 0.1065008044 0.6821576357
-0.1163173 -0.032038074 1.6866666 -0.2408773303 0.878964901 0.4115808606
0.2843442 -0.14079179 3.1490002 -0.2613970637 0.857488811 0.4431529045
0.035025075 -0.22387427 1.7372224 0.1282024086 -0.2189772576 0.9672709703
0.13452451 -0.24513355 1.705 0.0797945708 -0.08823012561 0.992898941
-0.21556814 0.018872177 1.516 -0.3448704183 0.771435678 0.5347442031
0.094708055 0.0073990668 1.6880001 -0.191999495 0.8650010824 0.463583082
0.425271 -0.170687 3.3000002 -0.2572056055 0.8613668084 0.4380553663
-0.35831121 -0.31454799 3.1200001 -0.200500384 0.7430427074 0.6385037899
-0.26612911 -0.31210151 1.748 0.6609321237 0.06150338426 0.7479211688
-0.46128097 0.20678112 2.016 -0.3100517988 0.8694535494 0.3846016228
0.069300503 0.19703083 1.5500001 0.169601962 -0.008505358361 0.9854759574
0.032861851 -0.10797465 1.7850001 0.3032948673 -0.7710266709 0.5599375367
0.18173446 -0.125034 1.7323333 -0.4726856053 -0.3102053106 0.8248278499
0.016605821 -0.38797233 1.7220001 0.0002069681359 -0.1512001902 0.9885031581
-0.0051054871 0.12512949 1.4565001 -0.3191746473 0.5501965284 0.7716289759
0.06598144 0.075856209 1.5359999 -0.2980338335 0.8115515709 0.5025532842
-0.15549086 -0.39401081 1.7220001 0.01986315288 -0.1746177375 0.9844359159
0.45899287 0.00777954 2.9580002 -0.2022957951 0.8535168171 0.4801931381
-0.065206178 -0.051856879 1.7570001 -0.1268832684 0.8741967082 0.468701154
-0.29262432 0.074439526 1.4640001 0.3345226049 -0.1727251709 0.9264235497
-0.26493219 -0.11860336 1.7570001 -0.275236249 0.9403445721 0.1999928504
0.2252595 -0.2808235 1.7130001 -0.2145071626 0.009519271553 0.9766760468
0.14389178 -0.34610021 1.6960001 0.06403446198 -0.09097606689 0.9937921762
0.44483876 -0.10494109 3.1780002 -0.2528888285 0.8595207334 0.4441524148
-0.055133566 -0.0043526501 1.6550001 -0.1822116375 0.9199338555 0.3471607864
-0.20994063 -0.45819157 1.748 0.2841893137 0.4481055737 0.8476071358
0.0045735701 -0.30490467 1.7390002 0.003158487612 -0.0950280726 0.9954695702
-0.15518403 -0.017369222 1.6240002 -0.2997066975 0.8836123943 0.3597291708
-0.10912396 -0.14708012 1.8040001 0.3460344076 -0.7575219274 0.553552866
-0.15415813 0.12590003 1.4389998 -0.06949627399 -0.2252100408 0.9718285203
-0.3139168 -0.18050216 2.9840002 -0.2107666582 0.7372529507 0.6418998837
0.35294598 -0.196724 3.3000002 -0.2693446279 0.8623319268 0.4287623465
-0.27398756 -0.027672566 1.5523334 -0.2983717024 0.8539896607 0.4262346923
0.11176448 0.13330944 1.536 -0.5068272352 -0.2823603451 0.8144929409
-0.37289336 -0.0076652816 1.5430001 0.7176907659 0.1828710586 0.6719212532
-0.27815187 -0.070255622 1.6355001 -0.3877579868 0.8078688979 0.4438373148
-0.15587957 0.017198622 1.557 -0.2214212865 0.8543411493 0.4701849222
0.12922768 -0.085632801 1.7760001 0.1352912784 -0.4168348014 0.8988576531
0.18872879 -0.1668472 3.1200001 -0.2841604054 0.8128358722 0.5084788203
0.062505454 -0.45278344 1.7390001 0.04777996615 0.3229451776 0.9452108145
-0.063674055 0.092502058 1.4723334 -0.1613007635 0.8264499307 0.5394094586
-0.081217907 -0.49496952 1.748 -0.04880012199 0.5100858212 0.8587380052
-0.035371747 0.033534255 1.572 -0.168092072 0.8874352574 0.4291896224
0.49967283 -0.080058075 3.1490002 -0.2484878302 0.8634328246 0.4390188754
-0.0046945498 -0.04851035 1.7850001 -0.1945982724 0.9024415016 0.384357661
-0.10718302 -0.32305866 1.7220001 -0.03118628077 -0.04663725942 0.9984249473
-0.42128918 0.10984107 1.5860001 0.6293618083 0.05882309377 0.7748829126
-0.18534984 -0.24422365 1.7570001 -0.1941978931 -0.2668676376 0.9439644217
-0.064832769 -0.21382213 1.7570001 0.1093598828 -0.2492663562 0.9622404575
0.1546782 -0.18433736 1.7130002 0.1264520288 -0.3935516775 0.910564065
-0.16152933 -0.058875181 1.7220001 -0.2696011961 0.8431115746 0.465272069
-0.076404132 0.057638202 1.5289999 -0.134524554 0.8874710202 0.440792799
-0.18404528 0.065968812 1.4640001 -0.2041673362 0.763530314 0.6126476526
0.035064038 -0.15550138 1.7390002 0.3344375193 -0.2196884602 0.9164543152
0.076230548 -0.38414219 1.705 0.1168583184 0.03383675218 0.9925720096
-0.12368765 -0.26423183 1.748 -0.1692626178 -0.2651211917 0.9492422938
0.42454863 -0.27563977 3.6140001 -0.3455398381 0.879889369 0.3261854649
0.050569639 -0.029115854 1.748 -0.0282678809 0.8617489934 0.5065467358
-0.19441836 -0.050780915 1.6550001 -0.451944679 0.7921925187 0.4100939631
0.0056141731 0.44492325 1.601 0.1381382346 -0.1381058097 0.9807367921
-0.055855945 -0.44533789 1.7220001 -0.03365366533 0.1299761087 0.990945816
-0.18621714 -0.18621714 1.7850001 0.03678442165 -0.6717150807 0.739895761
0.16272396 -0.10643025 3.0100002 -0.2064169794 0.7736859918 0.5990008712
0.035347197 0.0014728 1.6800001 -0.1173468754 0.8991425633 0.4216306508
0.024806159 0.05099044 1.572 -0.162598893 0.8592163324 0.485086441
0.093579777 -0.20284049 1.7310001 0.3894245028 -0.1362343729 0.9109274149
-0.45399225 0.22532271 1.601 0.2954753637 -0.0187131539 0.9551670551
0.080428027 -0.26708177 1.7310001 0.4606508017 0.04132348672 0.8866189718
-0.19407822 -0.093958504 1.7570001 -0.4067216814 0.8278093338 0.3864054978
0.074874341 0.031952746 1.6320001 -0.164702937 0.861364603 0.480545491
-0.053771228 -0.12652053 1.8040001 0.3700596094 -0.8620601892 0.3462774754
0.035512175 0.33517817 1.5745456 0.09984077513 -0.1036384702 0.9895913005
-0.24407978 0.043042578 1.47 -0.3115191758 0.6781744361 0.6656089425
-0.044007789 -0.33536971 1.7310001 -0.04041188955 -0.1013847068 0.9940261841
0.16591355 -0.29445922 1.705 -0.03167530149 -0.09305290878 0.9951571822
-0.21486925 -0.34469661 1.7220001 0.1188752428 -0.2249385566 0.9670942426
0.030893439 0.097031511 1.489 -0.211429894 0.8062276244 0.5525345206
-0.23359084 -0.26746914 1.7390002 0.3717114329 -0.3176963031 0.8722956181
-0.26911563 -0.10407786 1.6960001 -0.2746879756 0.8671102524 0.4155313671
-0.48548397 0.32887623 1.6240001 0.01952495053 -0.3580639958 0.9334928989
-0.055304516 -0.028399616 1.705 -0.1365597993 0.9155122638 0.3784028292
-0.11120867 -0.42621604 1.7220001 -0.289421469 0.1070266813 0.9511995316
-0.015245232 -0.24544825 1.7390002 0.01183504146 -0.1286322474 0.9916217327
0.17189242 -0.39161575 1.705 -0.2459881902 0.118411079 0.9620128274
-0.26535383 -0.16475634 1.785 0.6938385367 -0.04513343796 0.7187148929
-0.32511944 -0.033364762 1.5360001 0.07013205439 0.8261449933 0.5590759516
-0.20507838 -0.007639023 1.5640001 -0.3516192734 0.8257476687 0.4410268962
-0.11487839 0.095728487 1.456 -0.1235835701 0.7728082538 0.6224905849
0.092995919 -0.092995919 1.7390001 0.02101732232 -0.6620900631 0.7491295338
0.18471278 -0.23577163 1.7130002 -0.204120487 -0.00384143088 0.9789382219
-0.10632739 -0.010057997 1.6390001 -0.239782691 0.8917250633 0.3838367164
-0.33499271 0.043469518 1.4770001 0.3342816532 0.03828004003 0.9416955113
-0.0030806067 -0.19561853 1.7570001 0.03068095632 -0.01552406605 0.9994086623
0.097348571 -0.012168134 1.7350001 -0.3864189982 0.8645191193 0.3213830888
0.11509318 -0.29445919 1.705 0.347370863 -0.0367019549 0.9370093346
0.11387023 0.084519431 1.5499998 -0.1580719352 0.7321101427 0.6625918746
-0.27588806 -0.2641218 1.766 0.439358741 -0.08863258362 0.8939285278
-0.19672664 -0.42498958 1.7130002 -0.1507491022 0.2982884347 0.9424960017
-0.32555425 -0.082100414 1.6240002 -0.234893173 0.8914599419 0.3874588907
-0.2641249 0.0047125844 1.5064288 -0.2952035964 0.7535873652 0.5873337388
0.03439426 0.16304685 1.4530001 -0.3713918626 -0.0414381586 0.9275510311
-0.17554724 -0.099634923 1.8040003 -0.2940385044 0.9009516239 0.3191043139
-0.033430368 0.16084422 1.439 -0.04698934779 -0.1667442471 0.9848798513
-0.11490583 -0.05148375 1.7344286 -0.272490561 0.8727766871 0.4049811661
-0.085150629 -0.16565669 1.7659999 0.22135593 -0.3863598108 0.8953924775
0.1218742 0.03046855 1.6550001 -0.1985698193 0.9092750549 0.3657716215
-0.089646183 -0.070773296 1.794 -0.3216906786 0.8895049095 0.3244937062
-0.29429993 -0.0546888 1.5860001 -0.347221911 0.8568997979 0.3809983134
-0.035417333 0.015583627 1.6160001 -0.1459732056 0.9077962637 0.3931892514
-0.17447446 0.04328765 1.5046364 -0.2994112372 0.7773678899 0.553219676
0.13521211 -0.11545993 1.7330002 -0.06026960537 -0.411110729 0.9095908403
-0.15624566 -0.34721261 1.7220001 -0.1741511673 -0.3612588346 0.9160586596
-0.0155696 -0.11832896 1.7760001 0.08141789585 -0.7875754833 0.6108158231
-0.43937919 0.22750464 1.9810001 -0.2878883779 0.8660581708 0.4087340534
-0.23472136 -0.072408862 1.6630001 -0.3225628138 0.811953783 0.486502111
-0.02566354 -0.40608779 1.7220001 -0.1391961873 -0.03888918087 0.9895009398
0.082888387 0.10633156 1.5067501 -0.6596207023 0.4653045833 0.5902475715
-0.12388352 0.04174336 1.536 -0.3037035465 0.8301730156 0.4675220847
0.077103712 0.24406512 1.5430001 0.3149663508 -0.3293837905 0.890113771
0.033211641 -0.34570298 1.7220001 0.1791304052 -0.1031235307 0.9784057736
-0.38372663 -0.35059917 3.1490002 -0.200500384 0.7430427074 0.6385037899
-0.29262432 0.02951912 1.4640001 0.08212249726 0.5766429305 0.8128584623
0.074191593 0.055608328 1.575182 -0.2674239576 0.86262393 0.4293766916
-0.35579252 0.01538813 1.5050001 0.8004778028 0.3467744887 0.4888586402
-0.11473112 -0.36744151 1.7220001 -0.0167978853 -0.2632855177 0.9645717144
0.055166882 -0.11697421 1.748 0.2941766977 -0.5863841772 0.7547275424
-0.38901645 0.10237275 1.557 0.5558504462 -0.1201500371 0.8225534558
0.12406148 -0.38414216 1.705 -0.001182485721 0.1253064275 0.9921174049
-0.055759333 0.11934011 1.439 -0.08449762315 0.5210348368 0.8493425846
-0.14866075 -0.16430925 1.7850001 0.3893424571 -0.787625432 0.4775548279
-0.0043736901 0.0043736901 1.6630001 -0.1876019686 0.9035071135 0.3853316009
0.18471278 -0.33488578 1.7130002 -0.2785071433 -0.02104993351 0.9602034688
-0.24955632 0.077273786 1.4450001 0.1040336862 0.04599213973 0.9935097694
0.034971304 -0.27523506 1.7345557 0.1912225485 -0.01632189564 0.9814109802
0.015175101 -0.43552542 1.7310003 -0.1601790637 0.1537639648 0.9750381112
-0.15528046 -0.038820114 1.6710001 -0.346011281 0.8547133803 0.3869641721
-0.24978337 -0.35092264 1.748 0.713873744 -0.06023839861 0.6976787448
-0.095106058 -0.46496296 1.7220001 -0.08122824878 0.3013070822 0.9500610828
0.19365077 -0.16502617 1.7366002 -0.4377913475 -0.5253144503 0.7296460867
-0.36990687 0.03139431 1.557 0.5898682475 -0.02949777059 0.8069605231
0.054346323 -0.41514549 1.7220001 0.3408055604 0.5018292665 0.794996202
0.024064496 0.073526897 1.5250001 -0.1829462349 0.8261405826 0.5329375267
-0.014301063 0.09230686 1.4830002 -0.2693516612 0.8010229468 0.5346137881
-0.07595931 0.033180781 1.5640001 -0.1372089088 0.8840300441 0.4468384087
-0.15467818 -0.43399996 1.7130002 0.2283112109 -0.1739148796 0.9579288363
-0.026051028 -0.038310334 1.748 -0.2019536644 0.8783344626 0.4332934916
-0.18551837 0.096497692 1.4369999 -0.05894626305 0.2340870947 0.9704269767
-0.13415104 0.0013974067 1.5940001 -0.2668716311 0.8694210052 0.4157964587
-0.21548641 -0.30501953 1.7310001 0.2540274858 -0.0008163768798 0.9671966434
0.034759831 0.29615378 1.5860001 0.6316102147 0.04800284281 0.7737985849
0.22333522 -0.24232163 1.733 -0.5103667974 -0.0807062313 0.856161356
-0.10474063 -0.22488433 1.7570001 0.03225272149 -0.05000303686 0.9982281327
0.43233255 -0.29782909 3.6530001 -0.3455398381 0.879889369 0.3261854649
-0.0045618806 -0.34553611 1.7363335 -0.08613330871 -0.1666224599 0.9822515249
-0.23582684 -0.26293337 3.0920002 -0.200500384 0.7430427074 0.6385037899
0.10463015 -0.34527954 1.705 0.1047571227 -0.113699168 0.9879769683
0.077103712 0.15826552 1.5430001 0.1104361191 -0.3726119697 0.9213925004
-0.21410216 -0.20486034 1.7570001 0.140321359 -0.4600023031 0.8767598271
0.055564005 -0.01051211 1.7129999 -0.05128999054 0.8844934702 0.463724792
-0.3726368 -0.045044009 1.557 0.3774338067 0.6664330363 0.642970264
0.48477212 -0.10308372 3.1780002 -0.2528888285 0.8595207334 0.4441524148
0.36395955 -0.17481522 3.2690001 -0.2693446279 0.8623319268 0.4287623465
0.0027867481 -0.15265186 1.766 0.1930493116 -0.2114593238 0.958131969
-0.23421991 -0.10441287 1.7332858 -0.4438468814 0.8173369765 0.3673693836
-0.40620086 0.14504713 1.572 0.4466908872 -0.01155476086 0.8946137428
-0.17481402 -0.47311491 1.7220001 0.3299768269 0.09536194056 0.9391599298
0.11563321 -0.17269893 1.7129999 0.379131943 -0.151849404 0.9127982855
0.091605529 -0.43399996 1.7130001 -0.130444929 0.5905977488 0.7963532209
-0.19672664 -0.3859446 1.7130002 -0.109186843 -0.07979914546 0.9908129573
0.48082623 0.028283896 2.9330001 -0.2022957951 0.8535168171 0.4801931381
-0.18026546 -0.0055896267 1.5940001 -0.42531991 0.7930653691 0.4360623062
0.15167473 -0.14566781 1.7130001 -0.006184035912 -0.4065912962 0.9135892391
-0.29135665 -0.12227922 1.7220001 -0.2354071587 0.8876827359 0.3957307935
-0.27676368 -0.19610682 1.8040001 0.493994087 0.01481395215 0.8693390489
0.036519703 0.12542708 1.464 -0.3949773312 0.4518039227 0.799916327
-0.47671729 0.25287977 1.6160001 0.1651816815 -0.2471888363 0.9547840953
-0.24141939 -0.0086059449 1.5500001 -0.3760540783 0.804199338 0.4602681398
-0.14864409 -0.23139441 1.748 -0.07936998457 -0.1754264086 0.9812878966
-0.12556672 -0.12556672 2.9840002 -0.1613361537 0.6741173863 0.7207887173
-0.045791805 -0.48156878 1.7220001 0.009801074862 0.2221817523 0.974955976
-0.094236962 0.076691195 1.4873638 -0.08903806657 0.8158432245 0.5713773966
0.046316929 0.040702756 1.6010001 -0.201761812 0.9288805723 0.310601145
0.053746678 0.24668348 1.572 0.08882708102 -0.2559783161 0.9625927806
-0.15077791 0.081188098 1.47 -0.2389646769 0.8064798117 0.5408198833
-0.00419222 0.033071954 1.5940002 -0.2173538059 0.9035034776 0.3693761528
-0.25727156 -0.052017599 1.6036667 -0.3258940279 0.8719978929 0.3652571738
0.065605342 0.013850018 1.6630001 -0.1696838737 0.904769063 0.3906409442
-0.075456448 0.0042711198 1.6240001 -0.2186548561 0.8927835226 0.3938625157
0.22484994 -0.32560232 1.7130001 -0.1407548785 0.06384417415 0.9879838228
-0.12363805 0.14517337 1.4449999 0.1992079616 -0.3048503101 0.9313337207
0.06525293 -0.17451364 1.7310001 0.1562902629 -0.0164728649 0.9875738025
0.14168335 -0.051379681 1.7760001 0.6299593449 0.0150632197 0.776481986
0.12764704 -0.20874047 1.7130001 0.05137201771 0.01651197113 0.9985430837
-0.025916897 -0.28508586 1.7390002 0.1764692962 -0.1614306718 0.97097826
0.43560511 -0.15475446 3.2690001 -0.2572056055 0.8613668084 0.4380553663
-0.29449511 -0.091847487 1.6630001 -0.1267411113 0.893878758 0.4300203025
-0.20588641 0.044861156 1.4864286 -0.2604291141 0.7589763403 0.5967676044
-0.13562058 -0.30454895 1.7346364 0.03326645121 -0.3024680316 0.9525788426
-0.18792927 -0.032745253 1.6240001 -0.376010716 0.835434556 0.4008303881
-0.28532431 -0.12883931 1.7850002 0.5083993077 0.6102758646 0.6075306535
-0.19505745 -0.27552351 1.7346364 -0.422613889 -0.4545161128 0.7840998769
-0.18717183 0.0094259195 1.536 -0.3353737593 0.7714375854 0.5407480597
-0.054736875 0.072539344 1.5045002 -0.0421567075 0.8016209006 0.596344471
0.46684957 -0.11530621 3.2080002 -0.2572056055 0.8613668084 0.4380553663
0.038897701 -0.064829499 2.9580002 -0.1547031552 0.7355655432 0.659553051
-0.18585332 -0.061951112 1.6960001 -0.5723606348 0.7489275336 0.3339323699
-0.0044983784 0.054111507 1.5521538 -0.2007500529 0.8398116827 0.5043964386
0.012259306 -0.035245508 1.748 -0.1334718913 0.8857629895 0.4445325434
-0.074357986 -0.31412458 1.7310001 0.002043010667 -0.2474052608 0.9689099193
-0.084100559 -0.25353393 1.7570002 0.1444696933 -0.1769208461 0.9735643268
-0.084085837 -0.015528046 1.6710001 -0.1823959798 0.8837521076 0.4309453368
-0.015453004 0.47479394 1.6023332 0.08766875416 -0.2306685299 0.9690749049
-0.47734061 0.35836819 1.6550001 -0.8298841715 -0.4448795617 0.3367112577
0.0012615233 0.16147497 1.439 -0.2456320375 0.03304708749 0.9687996507
-0.044638991 0.050049778 1.5430001 -0.07841405272 0.8533118367 0.5154707432
0.49155751 -0.034919385 3.0640001 -0.2461311221 0.8647937179 0.4376657605
-0.025528533 -0.012451673 1.6845714 -0.1874977201 0.87990731 0.4365864396
-0.083463043 -0.037937749 1.7310001 -0.2136479765 0.9080210924 0.3603502214
-0.083029106 -0.34751454 1.7220001 0.05926155671 -0.2130804807 0.9752357602
0.36524126 -0.21330088 3.3330002 -0.3011204898 0.8886880875 0.345774442
-0.22596855 -0.051396511 1.6376002 -0.2813671231 0.8318867087 0.4783273339
-0.21257764 0.080193959 1.452 0.0781211704 0.5572165847 0.8266841769
0.19172086 -0.19622605 1.7130002 -0.3046573102 -0.1718047261 0.9368388653
-0.15389816 -0.27579609 1.7381113 -0.1293845773 -0.1448380202 0.9809595346
-0.34649625 -0.016517904 1.5159999 0.3667038679 0.7417239547 0.561581552
0.16090339 -0.099606864 1.748 0.1084489301 -0.7218217254 0.6835292578
0.086048335 -0.2343685 1.7220001 0.4318128526 -0.2179689407 0.8752297759
-0.41685411 -0.3450779 3.1490002 -0.200500384 0.7430427074 0.6385037899
-0.16565669 -0.20590971 1.7659999 0.2351595461 -0.4708585441 0.850289464
-0.035023183 -0.3662338 1.7220001 0.02111758664 -0.2107437104 0.9773132205
-0.29477811 -0.018872177 1.516 -0.2078624815 0.7785338163 0.5921809673
0.026051026 -0.46738607 1.748 -0.1417460293 0.3831258118 0.912755549
-0.095663846 -0.28546697 1.7390002 -0.02791589312 -0.3308208883 0.9432805777
0.044007789 -0.31412455 1.7310001 0.2051028311 -0.06865480542 0.9763295054
-0.087408043 0.11021015 1.4450001 -0.0563493818 0.548897326 0.8339883089
-0.22526476 -0.23445924 1.748 0.1900000125 -0.3752044141 0.9072605371
-0.01597462 -0.189033 3.0370002 -0.1681911498 0.687749207 0.7061960101
-0.0150962 -0.44533786 1.7220001 -0.2158666253 0.131020233 0.9675925374
0.04722954 -0.37675804 1.7220001 0.5223461986 -0.1610884219 0.8373798132
-0.054105975 -0.2448325 1.7479998 0.07471464574 -0.1855266392 0.9797946811
-0.0845019 -0.1377068 1.7850001 0.3350453377 -0.7751713395 0.5355876088
-0.1247707 0.023308814 1.5640001 -0.2738556266 0.8095299006 0.5192922354
-0.10527715 -0.065798216 1.7659999 -0.29348737 0.8718287349 0.3921477199
-0.2513732 -0.029004954 1.5755 -0.3899973631 0.7998608351 0.456206888
-0.035426978 -0.19561853 1.7570001 0.1751509756 -0.2057015598 0.9628130794
0.14199808 -0.41104707 1.705 -0.04328101873 0.5503612161 0.8338040709
0.18870249 -0.36985689 1.7220001 -0.3990985453 0.1624610573 0.9024005532
0.10479625 -0.26390052 1.705 0.2720626295 0.0883872956 0.9582116604
-0.34606007 -0.30449674 3.0920002 -0.200500384 0.7430427074 0.6385037899
0.025304984 -0.12476457 1.7570001 0.4743617177 -0.4579010606 0.7518693805
-0.42777768 0.21458404 1.5860001 0.5143232346 -0.03916638345 0.8567015529
0.12101506 0.038440078 1.6240001 0.05846499279 0.9263285995 0.3721521199
0.084986523 0.045865618 1.6050001 -0.3045146167 0.871461153 0.3844818473
-0.48592582 0.36267349 1.6160001 0.1161133796 -0.2819701135 0.9523710012
-0.16396822 -0.077131473 1.748 -0.3364409506 0.8388518691 0.4279427528
-0.18513621 -0.33536971 1.7310003 -0.1899351776 -0.1309423447 0.9730255604
0.19522488 -0.26580623 1.7129999 -0.1944266409 0.03957149759 0.9801185727
0.19772778 -0.30585232 1.7130002 -0.1960674822 -0.04188282788 0.9796955585
-0.079591691 -0.42649132 1.7130001 -0.1317775846 -0.1239034384 0.983505249
-0.25106946 -0.16789307 1.7570001 0.7767649889 0.2262981236 0.5877289772
0.03513417 0.01491999 1.647 -0.1350402385 0.9141872525 0.3821332753
-0.1158366 -0.49015573 1.7310001 -0.1954060197 0.2904792428 0.9367167354
-0.10476109 -0.19378217 1.7660002 -0.007652949542 -0.2723226249 0.9621755481
-0.11490364 -0.16566055 1.7760003 -0.0167451892 -0.7396855354 0.6727442741
0.12252907 0.10511671 1.5275 -0.2316451967 0.4014877379 0.8860858083
-0.32495227 -0.052102048 1.5640001 0.02328782715 0.8776678443 0.4787032902
-0.065119155 0.021520063 1.5940001 -0.1517819762 0.8967516422 0.4156907201
-0.1049931 0.056084923 1.516 -0.1878863424 0.831631422 0.5225780606
-0.13493215 -0.02176325 1.6550001 -0.2055851817 0.9027582407 0.3778389692
-0.3353627 0.0090638567 1.4770001 0.2043357491 0.4933958948 0.8454627991
0.083728679 0.1448639 1.516 -0.7452706099 -0.3133994937 0.588517189
-0.2651487 -0.086429693 1.6710001 -0.2781997025 0.8507738113 0.4458574355
-0.26493222 -0.23566644 1.7570001 0.3819746971 -0.44151932 0.8118842244
0.025284819 -0.18772064 1.748 0.3655773401 0.1443868876 0.9195138216
-0.15374893 0.033422917 1.5250001 -0.2365143597 0.8219292164 0.5181634426
0.016221255 0.35640416 1.5860001 0.2861800492 -0.2689090967 0.9196677804
-0.19172174 -0.076990619 1.7220001 -0.5554317832 0.7525736094 0.3537350297
-0.11863667 -0.39795846 1.7130001 -0.03665068001 -0.2634055614 0.9639887214
0.06525293 -0.21396892 1.7310001 0.203389138 -0.03532653302 0.9784604907
-0.47817871 0.30326968 1.6090001 0.06202928722 -0.08301663399 0.9946157932
-0.42591271 0.20780419 1.9590001 -0.1940843612 0.9458224773 0.2602904737
0.065382279 -0.14445801 1.7345557 0.2728112638 -0.2275429815 0.9347717166
0.04651593 0.091702841 1.5160002 -0.1736395061 0.7701820135 0.6137336493
0.11808261 -0.0014947166 1.705 -0.2127472907 0.8999164701 0.3806428313
-0.14415771 0.097366661 1.439 -0.1002813429 0.5939490795 0.7982281446
-0.055116385 -0.14292893 1.7760003 0.341855824 -0.6627399921 0.6662659645
0.025529411 -0.01351557 1.7130001 -0.06063064188 0.9270747304 0.3699410558
0.073918492 -0.35524255 1.7130002 0.3615019917 -0.3280621171 0.8727494478
0.055242769 0.11419822 1.4851428 -0.4076161981 0.5698424578 0.7135325074
0.10482074 -0.40576744 1.7129998 0.06054547802 0.4804851711 0.8749104142
-0.15272936 0.14246184 1.4640001 0.1484574974 -0.595482111 0.789532423
-0.26521972 0.023401739 1.4829999 -0.2532843649 0.7350747585 0.6288975477
-0.26701862 -0.15417148 1.8130001 0.5891782641 -0.1588273346 0.7922391295
-0.034652881 0.10331692 1.464 -0.03834646568 0.7568312883 0.652484417
0.16591355 -0.26456487 1.705 -0.155405581 -0.04324196279 0.9869038463
0.0035756312 -0.22424315 1.748 0.1713405848 -0.3482540846 0.9216080904
-0.24495108 -0.29464304 1.7354445 0.3470118046 -0.1451391876 0.9265621305
0.15545052 -0.2152392 1.705 0.1153777316 -0.00486551784 0.9933097959
0.045316529 0.063207045 1.5530001 -0.1536333412 0.8817565441 0.4459845722
0.14498751 -0.31538522 1.705 -0.03970620409 -0.06719958782 0.9969491363
-0.084749125 -0.031223362 1.6960001 -0.2032538205 0.9048005342 0.3741976917
-0.055734958 -0.17494585 1.766 0.2255358547 -0.09732631594 0.969361186
-0.25194085 -0.19560625 1.7850002 0.5088025928 -0.03153978288 0.8603052497
0.1641836 -0.11803469 3.0369999 -0.2202091664 0.7802850008 0.5853744745
0.022079024 0.41447082 1.5940001 -0.06683591753 -0.1366598159 0.9883607626
-0.13515571 -0.04955709 1.7130001 -0.2493668944 0.8871321082 0.3883461654
-0.44714648 0.25531074 1.6090001 0.1809249967 -0.2622726262 0.9478814602
0.074474581 -0.29538229 1.7220001 0.229612112 -0.2067529261 0.9510686398
-0.2106104 -0.069221601 1.6800001 -0.3629119694 0.841448009 0.4003250897
-0.18817124 -0.44614792 1.7310001 0.1196089238 0.2002079934 0.9724250436
-0.28022298 -0.29415673 1.766 0.5489057899 -0.1370522678 0.8245720863
0.054630365 -0.24431913 1.7310003 0.1058600619 -0.06574600935 0.9922052026
0.0045735701 -0.27593872 1.7390002 0.02635045722 -0.08574724197 0.9959684014
-0.033406612 -0.22465181 1.7479999 0.2287081033 -0.05997441337 0.9716458321
-0.29736531 -0.111512 1.6960001 -0.2532815635 0.8683466315 0.4264065921
0.0151751 -0.24431914 1.7310003 0.2103161812 -0.04768270999 0.9764698744
-0.31636795 -0.16855671 2.9580002 -0.2107666582 0.7372529507 0.6418998837
0.095346436 0.023034768 1.6630001 -0.3013091981 0.8791503906 0.3691982627
0.11736375 -0.039121252 1.7850001 0.2212434709 0.2221509516 0.9495790005
0.10497338 0.071359359 1.5755001 -0.4424884915 0.8092377782 0.3864429295
-0.32354695 -0.09389288 1.655 -0.2770255208 0.8724634647 0.4025722444
0.0056375246 0.082887799 1.5051818 -0.2395507544 0.8093314171 0.5362817049
0.47162914 0.038240198 2.9080002 -0.2174962759 0.8468756676 0.4852802753
-0.24002957 -0.35777995 1.7220001 0.4638974369 -0.1098411903 0.879052937
0.11398245 -0.10011972 1.7570001 0.1079378352 -0.8583177328 0.5016374588
-0.18368359 0.12360185 1.4449999 0.2143823951 -0.0740467608 0.9739390612
0.040321406 0.37123501 1.5860001 0.134943381 -0.3588650227 0.9235833287
-0.26510891 0.055606838 1.4558573 0.01881882548 0.3318860829 0.9431317449
-0.23539521 -0.32499611 1.7323335 0.4040143788 -0.172726512 0.8982972503
-0.26640916 -0.013739338 1.5290002 -0.3516289294 0.8051644564 0.4775638878
0.21324567 -0.22525948 1.7130002 -0.4498094022 -0.1032697931 0.8871340752
-0.093877152 0.038687125 1.5430001 -0.1525461227 0.8177355528 0.5550119281
-0.29756346 -0.042314071 1.557 -0.3748509586 0.8112818599 0.4486741126
-0.26217064 -0.11221508 1.7220001 -0.2692774534 0.8644692898 0.4244791567
-0.31465203 -0.067895204 1.6023334 -0.2128217965 0.8708235025 0.4431402385
0.10053175 0.16487207 1.5289999 -0.09594927728 -0.3757759929 0.9217299819
-0.23410156 0.025574122 1.4960001 -0.3689834476 0.7333225608 0.5710422397
0.057199869 0.22607875 1.5535001 0.460855335 -0.2198240757 0.859819591
0.12529846 -0.14492352 1.7220001 0.01730564237 -0.3153062165 0.9488321543
-0.033211641 -0.02868278 1.7220001 -0.2325508147 0.9143716693 0.3314280212
-0.22292055 -0.4221904 1.7220001 0.5339952707 0.1415379792 0.8335562348
-0.055855937 -0.41514552 1.7220001 -0.01208841987 -0.1210754812 0.992569685
-0.025824167 -0.31444716 1.7327778 -0.03672471642 -0.1802669168 0.9829319119
-0.17278312 -0.03513417 1.647 -0.3739299476 0.8454437852 0.3813150823
-0.16503775 -0.091860637 1.7760001 -0.2864793241 0.8929042816 0.3473492563
-0.42963153 0.14877209 1.5860001 0.3903706968 0.01779068634 0.9204858541
-0.16455717 0.064933129 1.4874002 -0.4236465693 0.7405335903 0.5216642022
0.13452452 -0.27502787 1.705 0.06412728876 -0.0002603279427 0.9979416728
0.16618532 -0.36484674 1.705 -0.23133035 0.1514603496 0.9610130191
-0.014314104 0.01145113 1.6328751 -0.2302848697 0.8912684321 0.3906526268
0.45511362 0.017998843 2.9330001 -0.2174962759 0.8468756676 0.4852802753
0.11552275 -0.005647779 1.7570001 -0.7287558913 0.3659967482 0.578758359
-0.19372316 -0.316865 1.7129999 -0.2398492843 -0.0251461491 0.9704844356
-0.24513353 -0.094914503 1.705 -0.4133939147 0.8233606815 0.3888220787
-0.31415233 0.060761184 1.4746667 0.5194135904 -0.1029460356 0.8482992649
-0.12595335 -0.34447479 1.7310001 -0.002628650283 -0.1216210127 0.9925731421
-0.25402451 -0.058137555 1.6334002 -0.346326232 0.8296998143 0.4377858043
-0.17317498 -0.41514555 1.7220001 0.08153494447 0.02684770711 0.9963088036
-0.0075480998 -0.37589538 1.7220001 -0.2089284509 -0.09521933645 0.9732842445
-0.13485238 -0.063595146 1.748 -0.2871810794 0.8392370939 0.4617446363
0.095603123 -0.17451365 1.7310001 0.3129897714 -0.06639065593 0.9474331737
0.11635119 0.022092 1.6799999 -0.2019589692 0.8368139267 0.5088762641
-0.44763178 0.20372312 1.9930003 -0.2292627841 0.9233813882 0.3079047799
0.076230548 -0.41104707 1.705 -0.07509708405 0.2929879725 0.9531623721
-0.22441414 -0.021910904 1.5760002 -0.2802823186 0.8422023654 0.4605833292
-0.02417496 -0.19071357 3.0640001 -0.1681911498 0.687749207 0.7061960101
-0.23455955 0.0032485512 1.5264285 -0.3713332415 0.8233309984 0.4292291999
-0.010726893 -0.16703305 1.748 0.02360347472 -0.147216469 0.988822639
-0.025541306 0.13545816 1.4364287 -0.2113459706 0.1604097784 0.9641584754
0.0059473068 -0.0074341334 1.6960001 -0.1741894633 0.9250906706 0.3374393284
0.052771389 0.31491029 1.57375 0.5872657895 0.01749809273 0.8092049956
-0.11606015 0.11606016 1.4389998 -0.02081838064 0.2492204458 0.9682229757
-0.34578308 -0.037904058 1.552 0.1081987396 0.7546567917 0.6471369267
0.17570241 -0.16819376 1.7130002 -0.15727669 -0.3414586484 0.9266445041
-0.11616886 -0.0014166933 1.6160001 -0.2313084304 0.8903327584 0.3921784759
-0.17570241 -0.3626678 1.7130001 -0.07253984362 -0.02578156069 0.9970322251
0.01782088 0.14256704 1.452 -0.2678315639 0.2522259057 0.9298647046
-0.078555472 -0.18945731 1.7570001 0.1426995844 -0.212791279 0.9666212797
-0.44492322 0.20070669 1.6010001 0.3830283284 -0.1584964246 0.9100374579
-0.21638799 0.057241421 1.4640001 -0.2444667667 0.7634189129 0.5978524685
0.08559861 -0.0045051901 1.7129999 -0.2258689255 0.8474332094 0.4804582894
-0.095106058 -0.40457818 1.7220001 -0.1269514114 -0.117733404 0.9848970175
-0.15462998 -0.046091627 1.6960001 -0.248162359 0.901627183 0.3542370498
0.098298877 0.100992 1.536 -0.406092912 0.647423625 0.6449272633
0.08380527 0.067789897 1.5543751 -0.3307383955 0.7911356091 0.5145061612
0.075410865 0.25913915 1.5640001 0.2285488397 -0.2218598425 0.9479154348
-0.31575066 0.02587986 1.4761249 0.1268602461 0.3721195161 0.9194746017
-0.22796489 -0.11244214 1.7570001 -0.3543851972 0.8966931105 0.2652406991
-0.034539789 -0.43099651 1.7130001 -0.00794233568 0.004927751143 0.9999563098
0.0051666899 0.10588779 1.4730624 -0.2282902896 0.7282879949 0.6461270452
-0.3774024 0.066282131 1.5430001 0.1311534196 -0.06728130579 0.9890763164
-0.0030350201 -0.41428021 1.7310001 -0.1835012883 -0.003630779218 0.9830127358
-0.28535098 0.0086153541 1.4890001 -0.2129218727 0.7295506597 0.6499385238
0.092997886 0.18498126 1.5430001 0.4475333691 -0.07704936713 0.8909417987
-0.25076523 0.1018336 1.452 0.1860554814 -0.2120403796 0.9593864083
0.10812455 -0.2252595 1.7130002 0.4660453498 0.02238458581 0.8844776154
0.044134904 0.029897841 1.6240001 -0.185796693 0.8813741803 0.4343490899
-0.17520592 -0.26612914 1.748 0.1682149172 -0.3667542338 0.9149836302
-0.28577879 -0.061218161 1.609 -0.312784493 0.8510047793 0.4218491912
0.057518099 0.15210342 1.4580001 -0.4295991063 0.1204171404 0.8949549198
-0.013422644 -0.13488656 1.7570001 -0.04419700801 -0.3954066634 0.9174422026
0.033081718 -0.40517515 1.7310002 0.1772809625 0.08689866215 0.9803163409
-0.30428377 -0.08181338 1.6372501 -0.206977725 0.9018172622 0.3793229163
-0.054630361 -0.037937749 1.7310001 -0.1150851771 0.9263798594 0.358574599
-0.21507877 0.0013526967 1.5430001 -0.2742814124 0.8186285496 0.5045958757
-0.1395478 0.051832039 1.516 -0.2162982672 0.7643640041 0.6074230075
0.10562769 -0.11521041 1.7390002 0.08951891959 -0.4641684294 0.8812116981
-0.15549086 -0.45741487 1.7220001 0.1824624687 0.1775312722 0.9670522809
-0.12227922 -0.44835714 1.7220001 -0.2425349653 0.1959898621 0.9501393437
-0.4636538 0.31653747 1.6240001 -0.2644745708 -0.3738689125 0.8889742494
-0.074357986 -0.47498062 1.7310001 0.03549310192 0.4245215356 0.9047219157
-0.20533724 -0.094306536 1.7350001 -0.390034169 0.8568506837 0.3371650577
-0.055407148 0.14402632 1.4385999 -0.05194047093 -0.004010077566 0.9986421466
-0.10962629 -0.040546712 1.7130001 -0.2675035894 0.8991219997 0.3464410901
0.095209688 -0.31596398 1.7130001 0.4637264311 -0.1462584436 0.8738228083
0.084881708 0.21474059 1.5430001 0.1173921525 -0.0472840704 0.9919593334
-0.044315714 0.086018749 1.4867501 -0.06004970148 0.8391659856 0.5405501127
0.044007789 -0.43552539 1.7310001 0.07260373235 0.2835630774 0.9562011957
-0.13284656 -0.15340614 1.8040001 0.2594138682 -0.9043832421 0.3388146758
0.074357986 -0.019727631 1.7310001 -0.1589126438 0.8878986239 0.431720823
-0.20733517 -0.24849731 1.7390001 -0.1138142273 -0.3545386493 0.9280887246
0.06839402 0.0014868267 1.6960001 -0.1657557487 0.8978728056 0.407859534
0.22135501 -0.25619513 1.7130001 -0.4817740321 -0.08220663667 0.8724309802
-0.039121252 -0.1220583 1.7850001 0.5119445324 -0.7285650969 0.455088675
-0.05418 -0.017079469 1.6834286 -0.2043024302 0.8729001284 0.4430642128
-0.19768132 -0.22526477 1.748 -0.265134424 -0.3128530383 0.9120453596
-0.19743586 -0.0208559 1.5860001 -0.4173617363 0.7919762731 0.4456262887
-0.16420668 0.092923157 1.4519999 -0.2016994655 0.6153561473 0.7620066404
-0.19270886 0.027023541 1.5160002 -0.2926081419 0.7761156559 0.5585919619
-0.15478602 -0.32474717 1.7310004 -0.02656482346 -0.1342526823 0.9905909896
-0.077968977 -0.00288774 1.6470001 -0.1626844257 0.9204844832 0.3553056419
-0.13474613 -0.41597921 1.7130001 0.136632517 -0.2426887006 0.9604341388
-0.23581532 -0.08381635 1.6857145 -0.3933285475 0.8425691128 0.3679264784
-0.035608448 -0.051090378 1.7660002 -0.2127108723 0.8650820255 0.454298526
0.0151751 -0.36571991 1.7310003 -0.03209072351 -0.004761358257 0.9994736314
-0.13469283 -0.17494583 1.7659999 0.1582179368 -0.4117815793 0.8974424601
-0.27623153 -0.04281684 1.5755 -0.3277983665 0.8432992697 0.425904423
-0.094498821 -0.054145265 1.748 -0.2601252198 0.8650367856 0.4290060997
-0.038310334 -0.26663992 1.748 0.2033730447 -0.02245623805 0.9788437486
-0.031919435 0.0014508833 1.6550001 -0.1445725113 0.9290211797 0.3406147659
-0.026664821 -0.46544197 1.7310001 -0.1586059332 0.2649636567 0.9511248469
0.15120688 -0.087214887 1.7660002 0.4675777853 -0.358697325 0.8079029918
0.098719679 0.041490879 1.6320001 -0.1634909809 0.8861014843 0.4336990714
-0.17595868 0.0063984976 1.5640001 -0.3787895441 0.841553092 0.3851062357
0.22553723 -0.30282977 1.7220001 -0.1110016033 -0.1211499348 0.9864082932
0.054630365 -0.33536971 1.7310003 0.2335053086 -0.0907580927 0.9681106806
-0.034935165 0.024454616 1.5940001 -0.187992692 0.9158754349 0.3547265828
-0.1261171 0.077949166 1.4770001 -0.1747307181 0.8072366118 0.5637714267
-0.25438061 -0.27430198 1.748 0.4445082843 -0.2147373259 0.8696552515
-0.32295346 -0.018163364 1.5160002 0.03271236271 0.7831360102 0.6209894419
-0.22493339 -0.37589538 1.7220001 0.2832228243 -0.01224807836 0.9589759111
-0.15850484 -0.0013903934 1.5860001 -0.1255463213 0.8712140322 0.4745779932
