# .PCD v0.7 - Point Cloud Data file format
VERSION 0.7
FIELDS x y z normal_x normal_y normal_z
SIZE 4 4 4 4 4 4
TYPE F F F F F F
COUNT 1 1 1 1 1 1
WIDTH 512
HEIGHT 1
VIEWPOINT 0 0 0 1 0 0 0
POINTS 512
DATA ascii
-0.095490448 0.0037728813 1.1746001 0.1545801908 0.6597985625 0.735371232
0.24485299 -0.46178415 2.45 0.04855556041 0.8028976917 0.5941359997
0.49440056 0.11850516 1.7220001 0.02205418237 0.7456409931 0.6659827828
-0.4957366 -0.41211838 2.2710001 -0.06787359715 0.8374838829 0.5422304869
0.44051623 -0.36598203 1.09 0.7701351643 0.1419234574 0.6218919158
0.02334388 0.49911439 1.268 0.8556551337 -0.1215840131 0.5030622482
0.46538725 -0.21253906 2.0900002 0.01537905913 0.7449420691 0.6669518948
-0.23312263 0.21643789 1.5860001 0.9723361731 0.190073207 0.1357739121
0.32158908 0.17094094 1.177 -0.5398368239 0.6484721303 -0.5367123485
0.15757644 -0.26494005 1.3970002 0.5093125105 -0.3984004557 0.7628091574
0.15014933 0.26107046 1.5430001 -0.06077378243 0.8789337873 0.4730559886
0.49247187 0.39819515 1.4150001 -0.2821121812 0.8902658224 0.3575465083
0.048445478 -0.3351365 2.2710001 0.04855556041 0.8028976917 0.5941359997
0.34290352 -0.11564285 1.22425 0.8639051318 0.01343886182 0.5034752488
0.082989864 0.1530944 1.004375 -0.1204037815 0.6251426935 0.7711676359
0.24388851 -0.49410188 1.2531874 0.6636090279 -0.1744509488 0.7274544239
-0.074518681 -0.1834822 1.3365002 -0.1040183306 0.6461003423 0.7561312914
0.49741364 -0.051744372 1.904 0.02590587549 0.7367911339 0.6756239533
0.14472027 0.014513968 1.1950001 -0.03966567665 0.7503240108 0.6598792076
0.44790304 -0.13968806 1.028 0.7624821663 -0.1070356816 0.638094306
0.0802413 0.33978724 1.13 0.6642116904 -0.3355986774 0.6679793
0.33878607 0.30269545 1.3280001 -0.6750115752 0.6086785197 -0.4169770479
-0.035400968 0.21613224 1.594 0.1467579901 -0.7620079517 0.6307185888
0.30888036 -0.30888036 1.245 0.7422625422 -0.2378087938 0.6264928579
0.37426302 -0.3316009 2.2120001 -0.006417643279 0.7324851155 0.6807527542
-0.19643734 0.085461855 1.455 0.5456887484 -0.3317891061 0.769506216
0.094802387 -0.10731908 1.322 -0.06146748364 0.719302237 0.6919726133
0.39918754 0.21863629 1.6090001 -0.01059347857 0.7700705528 0.6378707886
0.2345697 0.089294203 1.0555 -0.1365027726 0.5071095824 0.851003468
0.38459745 0.024157817 1.1481112 0.6273608208 -0.1487141997 0.7643968463
-0.19240642 -0.084838539 1.265 0.2343209982 0.610796392 0.7563209534
-0.052315373 0.11058039 1.072 0.3739013672 0.5291864872 0.7616819739
0.39327455 -0.23574027 1.1455002 0.9273369908 0.007436960936 0.3741534352
0.25825986 -0.17879529 1.3330001 0.5423657894 -0.08167867362 0.8361626267
0.40262845 0.3160699 1.4960001 -0.9412320256 -0.007600923534 0.3376751244
0.36217466 -0.45091262 1.177 0.5972200036 0.0318367891 0.801445365
0.18505248 -0.39469853 1.3359998 0.8252471685 -0.05468189344 0.5621182919
-0.02502708 -0.075213723 1.2657777 -0.190117389 0.6938369274 0.694583118
0.21511297 -0.06274128 1.278 0.02320562117 0.7338341475 0.6789322495
0.074795261 0.074790224 1.1056248 -0.07006472349 0.8259179592 0.5594198108
0.465132 -0.26443562 1.0044137 0.7364370823 -0.0012529823 0.67650491
-0.48515609 -0.49552271 2.365 -0.06787359715 0.8374838829 0.5422304869
0.041669719 -0.19241606 1.3980001 -0.2232400775 0.585868299 0.7790520787
0.26382378 0.032792304 1.1730002 0.04679465294 0.7589270473 0.649492085
0.025364012 -0.0010423567 1.189 -0.1039233655 0.8094160557 0.5779667497
0.36480898 0.38676175 1.410625 -0.7305038571 0.6202754378 -0.2856964767
0.38842633 -0.094683021 1.1185555 0.8998304009 0.07798336446 0.4292130172
0.49743381 -0.14237505 2.0050001 0.03219376877 0.7334061265 0.6790280342
0.1059291 0.24467741 1.0666189 0.6291744113 -0.2671593428 0.7299078107
0.05515172 0.42501086 1.1938002 0.7413704395 -0.2139696032 0.6360715032
0.22515696 -0.29545665 1.3156842 0.5514994264 -0.2750674784 0.7875190377
0.37825429 -0.33547705 1.1674 0.8181908131 -0.08478741348 0.5686605573
0.3279466 0.23701349 1.2528 -0.6221703887 0.646086812 -0.4421265423
0.2888771 -0.40590158 1.2360001 0.6216217279 -0.2402122319 0.7455766201
0.31787229 -0.20529252 1.2589999 0.803036809 -0.04283258691 0.5943880677
-0.23150575 0.15742391 1.5090001 0.2448670864 -0.6037751436 0.7586143017
0.41143456 -0.27616844 2.1430001 -0.006417643279 0.7324851155 0.6807527542
0.16774929 0.069650292 1.1190001 0.04008613527 0.8287935257 0.5581168532
0.085474998 -0.038354166 1.25 -0.05581212416 0.7971252799 0.601229012
0.004296056 -0.13388959 1.3357779 -0.1394554228 0.733923614 0.6647619009
0.30512911 0.10820872 1.1120001 -0.9949778914 0.07974138856 0.06050037593
-0.015509986 0.046886519 1.1249093 -0.1519797742 0.7218872309 0.6751155257
-0.10307145 -0.10986737 1.2920001 -0.04984596744 0.7072705626 0.7051834464
0.13025075 -0.18359154 1.4150001 0.1803604066 0.7247513533 0.6649854183
0.18369907 -0.121686 1.3346667 0.08717665821 0.651571393 0.7535614967
0.16519104 0.12679473 1.0185502 0.1952773631 0.6672275066 0.7188005447
0.42782348 -0.21494026 1.0659999 0.9105276465 0.08080350608 0.4054752886
-0.17078343 -0.016972266 1.21 0.3308954537 0.521386981 0.7865518332
0.00269575 0.15006341 1.0250001 0.298322022 0.5856322646 0.7536835074
0.27378765 -0.022467213 1.2333335 0.03454423323 0.675550282 0.7365042567
-0.09560401 -0.054228846 1.2340002 -0.05934418365 0.7105580568 0.7011315823
-0.093628183 0.063666865 1.1242001 0.3189677 0.5545892715 0.768563807
0.41641754 -0.2923578 1.097 0.8706738353 0.09221772105 0.4831386507
0.24421144 -0.36401594 1.2848185 0.5199329853 -0.2689262331 0.8107702732
0.3534039 -0.25472122 1.2114998 0.7912216783 -0.1127196997 0.6010511518
0.37666643 -0.15476929 1.164667 0.9002754688 0.1101679951 0.4211497605
0.42846909 -0.16178708 2.0280001 0.0265404284 0.7341094017 0.6785123348
0.16102 -0.34020016 1.381 0.8306547999 -0.02567199245 0.5561956167
0.30241844 -0.13478574 1.2919999 0.7878174186 -0.04081073031 0.6145552993
0.29920459 -0.47470975 1.2060001 0.6389675736 -0.05547023937 0.7672310472
0.21428567 -0.23512259 1.3557649 0.650996387 -0.2537078559 0.7154271603
0.42675519 -0.056072474 1.9150002 0.02980845049 0.7381334305 0.6739959121
0.14437641 -0.065685682 1.2857274 -0.0212062858 0.7550222874 0.6553561091
0.40273228 -0.028642455 1.0964 0.7493584156 -0.2255563885 0.6225642562
0.39624342 -0.40437761 1.1356668 0.8046666384 -0.06798066199 0.5898222327
0.21472813 -0.44474998 1.2954618 0.8240407705 -0.06451516598 0.5628451109
0.084879532 0.033897851 1.163 -0.1485036612 0.754165113 0.6396731138
0.2727994 -0.24540533 1.302 0.7140402794 -0.1422688961 0.6854969263
0.2057022 -0.0090368045 1.2230002 -0.008226953447 0.7298105359 0.6835999489
-0.034951724 -0.025862642 1.2122222 -0.1359996647 0.7634012699 0.6314448714
0.015070944 0.095127396 1.074423 -0.01183827966 0.7779471278 0.628218174
0.36493009 -0.066083245 1.1755002 0.9122518301 0.08292229474 0.4011489451
0.34395611 -0.38391942 1.2031111 0.5961843133 -0.2235834599 0.7710866928
0.34096634 0.074300133 1.161 -0.3291446269 0.1381152123 0.9341241717
0.40583962 -0.15480958 1.0933044 0.8883827329 0.1028524786 0.4474343359
0.03514966 -0.087306641 1.2933334 -0.1127856448 0.7082194686 0.6969251037
0.10540449 0.1138702 1.0539168 0.001756628626 0.836299181 0.5482705235
0.23472661 0.068378538 1.1250001 -0.02169858851 0.8133955002 0.5813062191
-0.46921566 -0.45296577 2.3170002 -0.06787359715 0.8374838829 0.5422304869
0.43215632 -0.088863313 1.067 0.6702122092 -0.09958795458 0.7354575396
0.44734538 -0.31502056 1.0427145 0.894108057 0.1803153455 0.4099477232
-0.01316315 -0.20223385 1.365 -0.4178748429 -0.1126898155 0.9014885426
0.09441711 -0.1535802 1.3710003 -0.03152554482 0.7007738352 0.7126865983
0.4662137 -0.19642381 1.00625 0.7046750188 -0.140454933 0.6954894066
0.12156692 0.19507951 1.031 0.5855253935 -0.2654497921 0.7659611106
0.40305537 0.17613724 1.6550001 -0.004518785514 0.7559652328 0.6545961499
0.19549173 0.037587076 1.1667501 0.007027609274 0.7576123476 0.6526669264
0.018495036 -0.038078018 1.2410001 -0.09794951975 0.7623087764 0.6397587061
0.3613883 0.34583184 1.3649999 -0.6021150947 0.6567118764 -0.4540781081
0.35356066 -0.18536542 1.2118948 0.8182859421 0.03301980346 0.573862195
0.084159963 0.28582373 1.1034999 0.6546070576 -0.2673305869 0.7071236968
-0.045450199 -0.12069129 1.307 -0.08316424489 0.7545623183 0.6509373188
0.45811707 -0.021345956 1.8730001 0.02503650077 0.7425534725 0.669318676
0.17536503 0.10256498 1.0722777 -0.01711622439 0.8178293705 0.5752062201
0.14539707 -0.027774116 1.2423334 -0.02254092693 0.7558695078 0.6543341279
0.18339252 -0.29319066 1.3540001 0.6156243086 -0.1876814812 0.7653641701
-0.12632591 -0.15182288 1.322 0.1449617147 0.5019771457 0.8526459336
0.048001882 0.37686583 1.1650001 0.6694076657 -0.2909767628 0.6835392118
-0.036239825 0.0079841539 1.1677999 -0.07330343127 0.7997201681 0.5958811045
0.4949441 -0.18321928 2.0530002 0.0190718174 0.7449798584 0.6668142676
0.042574733 0.47190997 1.2243334 0.8130350709 -0.1301113963 0.5674901009
-0.13615032 -0.08223182 1.2581111 -0.0728328079 0.7045738697 0.7058832049
0.085448697 -0.0031671044 1.2033333 -0.09225081652 0.7784506083 0.6208900809
0.05293138 0.12137713 1.041 0.01741070487 0.7912985682 0.6111819744
0.38151044 -0.28073409 1.1730001 0.8246060014 0.0397631675 0.5643082261
0.29484463 0.057905391 1.1366668 -0.1146079376 0.7647373676 0.6340676546
0.036438651 0.04186872 1.1409999 -0.1072041616 0.7362143397 0.6682033539
0.20281681 -0.34589493 1.3220001 0.7079771161 -0.1207395196 0.6958379149
0.26489565 -0.31476301 1.2848185 0.6028422117 -0.2863348722 0.7447104454
0.15012917 -0.14292297 1.3700001 -0.04270851612 0.7025694847 0.7103323936
0.34904686 -0.30705851 1.2060002 0.6995725036 -0.1624154598 0.6958588362
0.43733236 -0.26491097 1.054125 0.9404926896 0.09109470248 0.3273763359
0.40678081 -0.34465528 1.1248751 0.8514664769 0.02725401148 0.5237003565
0.2476186 -0.41541168 1.2658666 0.535530448 -0.1852809936 0.8239405751
0.13445516 0.046135377 1.1555454 -0.04818930477 0.7610579133 0.6468915343
-0.15328287 -0.12256765 1.2848182 -0.1692577302 0.6579213142 0.7338196635
0.12552235 0.086528495 1.0955 0.01399562228 0.8372327089 0.5466676354
0.31414387 0.19835022 1.223 -0.640794456 0.6173008084 -0.4564232528
0.28520766 -0.35568711 1.2561306 0.6011298299 -0.208828032 0.7713842988
0.054567799 -0.13583463 1.3451819 -0.1032075286 0.7112852931 0.6952851415
0.32851419 0.26727492 1.2936667 -0.5810858607 0.6518602967 -0.4872548878
0.30566368 -0.25500986 1.2653333 0.7487609982 -0.1791634858 0.6381672025
0.084618494 -0.073339306 1.2870001 -0.0940399766 0.7257351875 0.6815166473
0.28767028 -0.19557029 1.2970001 0.7771737576 -0.07063458115 0.6253092885
0.27133304 -0.45410752 1.2410001 0.6526097655 -0.2930978835 0.6987088919
0.2836358 0.086087845 1.0743999 -0.5044766665 0.7581406832 0.413190037
-0.22499853 0.19569011 1.5430001 0.4963110983 -0.5525027514 0.6696386933
-0.14287737 0.011388777 1.1810001 0.1954928786 0.5937891006 0.7805107832
-0.20717387 0.13077851 1.4770001 0.5847321153 -0.3766635954 0.7184795737
0.41281047 -0.24442145 1.1024998 0.8796488047 0.0962805599 0.4657768011
0.32403851 -0.15455861 1.2546192 0.857606709 -0.06943972409 0.509596765
0.39708173 -0.19398472 1.1239376 0.9333995581 0.1283727884 0.3350906372
-0.03567104 -0.15568812 1.3474003 -0.2302750349 0.5682399869 0.7899852395
0.46447435 -0.074112229 1.9360002 0.03008856997 0.7373760343 0.6748120189
0.31823525 -0.42607579 1.2060001 0.6550890207 -0.1723666787 0.7356276512
-0.12470057 -0.024430195 1.2040001 0.02517120168 0.6803116202 0.7324905992
0.37619135 -0.20510289 1.1756668 0.8549188972 0.04732914269 0.5165981054
0.38217637 -0.046254143 1.1336923 0.9130218625 -0.1023052409 0.3948731124
0.014446591 -0.16490452 1.3730001 -0.1124731228 0.7092863321 0.6958898306
-0.16497464 -0.055715669 1.2340002 0.2396804243 0.6085352898 0.7564641833
0.15877835 -0.21785867 1.404 0.7334684134 -0.0743304193 0.6756471395
-0.075048231 -0.084195264 1.2665881 -0.1308173388 0.722009182 0.6794038415
0.21278453 -0.093165122 1.312 0.1087017357 0.7094374299 0.6963350177
-0.065402471 0.032913323 1.1427143 0.1249719113 0.7127699852 0.6901745796
-0.045813724 0.07134673 1.1014444 0.197488904 0.6928297281 0.6935308576
0.36536047 -0.11521505 1.1839999 0.8993958235 0.001070849248 0.4371338189
0.24530691 0.0063954382 1.2045882 0.09113492817 0.8050536513 0.5861595869
0.32481101 -0.3451421 1.2235712 0.7328919768 -0.1447198838 0.6647747755
0.37122712 -0.40721866 1.1730001 0.6786201 -0.1849073917 0.7108333707
0.14476986 -0.10315148 1.3241427 -0.01065949444 0.7087416649 0.7053875923
0.20420097 0.11388784 1.0348184 -0.2199285775 0.4939880073 0.841193974
0.08664272 -0.19159023 1.3920001 -0.06201763079 0.6331648827 0.7715283632
0.44706142 -0.24300849 2.1160002 -0.02094589174 0.7340528369 0.6787692308
0.29265174 0.0082315244 1.1952858 0.02829149924 0.814866066 0.5789584517
0.023555154 0.068237104 1.1079999 -0.1167125553 0.7881976366 0.6042538285
0.31330329 0.13913593 1.1417999 -0.01151503436 0.8135342598 -0.5814029574
0.21575414 -0.39492834 1.2965459 0.7035329342 -0.09904853255 0.7037263513
0.25275263 -0.051874995 1.2590001 0.08430536836 0.7170930505 0.691859901
-0.0079592569 -0.10119626 1.2970001 -0.2543315589 0.6674695015 0.6998571157
0.31824023 -0.10779697 1.2590001 0.8150801659 0.06626920402 0.5755455494
-0.085977823 -0.13650928 1.3233335 -0.1547290981 0.592659831 0.7904512882
0.43232736 -0.1744148 1.0521429 0.8324127793 -0.0005072354688 0.5541558862
0.03564176 0.42770112 1.2320001 0.8154314756 -0.1300031394 0.5640662313
0.12137713 0.15149325 1.041 0.4655501842 0.143589735 0.873295486
0.21588805 0.092832334 1.0932 -0.1317945123 0.7671913505 0.6277321577
-0.054315887 -0.055097494 1.2427143 -0.1418739259 0.7225650549 0.6765881777
0.3983883 -0.30479264 1.1357778 0.8853273988 0.002309028059 0.4649624527
0.23827565 -0.25573885 1.3280001 0.4323928058 -0.3506720662 0.830701828
-0.015911499 0.1219005 1.0500001 0.2444808036 0.6085069776 0.7549492717
0.18539424 -0.035501786 1.2523333 0.01186097134 0.7474551201 0.6642064452
0.054769747 -0.021480087 1.225 -0.06700256467 0.7603514194 0.6460467577
0.035101734 0.16059043 1.001 0.195994705 0.6053982973 0.7714136243
-0.11500308 0.037403662 1.1483848 0.2402158231 0.6316382885 0.7371088266
0.10472422 0.061606552 1.1318182 -0.1269867569 0.7930321097 0.5957973599
0.044836782 -0.056455187 1.2664615 -0.1009845883 0.7116110921 0.6952782273
-0.075844817 -0.027049549 1.21 -0.1117939427 0.7166429758 0.6884220839
0.42506737 -0.13488834 1.0639062 0.7981035709 -0.04985849559 0.6004538536
0.44744346 -0.2349624 1.0255216 0.8173001409 -0.03946207091 0.5748593211
0.38768628 -0.13458876 1.1243848 0.9249508977 0.08869874477 0.3695922196
0.055327348 0.096230157 1.0751499 -0.04846938699 0.8395864964 0.5410593152
-0.24159969 0.24296466 1.557 0.9723361731 0.190073207 0.1357739121
0.0081424797 0.02137401 1.161 -0.1336266398 0.7829315066 0.6075872183
0.432928 -0.32526559 1.0822608 0.8823364377 0.08944700658 0.4620407522
0.45534858 -0.18177946 2.0530002 0.01477334928 0.7442128062 0.6677792072
0.27198407 0.081887677 1.1120001 -0.03438837454 0.8376567364 0.5451133847
0.22653505 -0.45942155 2.4150002 0.04855556041 0.8028976917 0.5941359997
0.32832697 -0.27562305 1.2338183 0.7641090751 -0.1630812287 0.624132812
0.21897796 -0.48242903 1.28425 0.7600422502 -0.1104907691 0.6404120326
0.148467 -0.30299398 1.3825001 0.7820546031 -0.1527317315 0.6042049527
0.17560428 -0.083954968 1.3046666 0.03463473171 0.7397072911 0.6720368862
0.34687069 -0.079557501 1.21 0.8746608496 0.09278072417 0.4757731557
0.17612262 -0.35657981 1.3483334 0.6480625868 -0.196408242 0.735825181
0.12882143 -0.21503811 1.4378 0.4511676133 0.4204592705 0.787185967
0.27694076 -0.49871287 1.2340001 0.5726979971 -0.04990116134 0.8182462454
0.24540532 -0.21502177 1.3330001 0.4639058709 -0.1481609792 0.8734069467
0.054972511 -0.16388357 1.3760002 -0.1105240956 0.7517337799 0.6501390338
0.35683051 0.033112228 1.1730001 0.1940342784 -0.05609719455 0.9793894887
0.40670866 -0.064727344 1.0846784 0.7425596118 -0.1571619958 0.6510800719
0.18540838 0.014034438 1.1948668 -0.02789384499 0.7856891751 0.6179922819
0.14483829 0.114592 1.0537367 -0.04810852557 0.8076122403 0.5877482891
0.11454134 -0.014114275 1.2256668 -0.1404952407 0.7465843558 0.6502867341
0.35563633 -0.34555605 1.1956669 0.764526844 -0.1443289667 0.6282259822
0.33182272 -0.23499575 1.2410001 0.7807443738 -0.1075424477 0.6155264974
0.28179574 -0.15872577 1.312 0.773471117 0.0109974267 0.6337361336
0.11471447 -0.13127118 1.3490001 -0.133784622 0.6918563843 0.7095324993
0.38483229 -0.3747068 1.1551998 0.7942152023 -0.03942152485 0.606356442
0.28697732 -0.28441647 1.278 0.6900212169 -0.2185144573 0.6900160313
0.40245259 -0.11554296 1.0913531 0.8420023322 0.02371614985 0.5389523506
0.24233443 -0.45543182 1.2640001 0.6617320776 -0.1610006988 0.7322496176
0.18395776 -0.25423372 1.3649999 0.6385016441 -0.3885347247 0.6643466353
0.37255508 -0.24526304 1.1813636 0.82817173 -0.0333327353 0.559482336
0.2248387 -0.031652048 1.245 -0.02553804405 0.7344750762 0.6781549454
0.1897808 -0.42211851 1.312 0.4547944367 -0.04071673751 0.8896651864
0.41751689 -0.39039281 1.105 0.7930654287 -0.01622057147 0.608920455
0.37657678 -0.094966009 1.1554999 0.9484134912 0.07906385511 0.3070191443
0.054625396 0.017519018 1.1756668 -0.1341315508 0.7711954117 0.6223073006
0.37974831 -0.012087479 1.149 0.7603812814 -0.1504497081 0.6318110824
0.3568933 -0.14470305 1.2038946 0.8614669442 0.05798926577 0.5044917464
0.11417856 -0.051928222 1.268 -0.07608553767 0.7478151321 0.659532845
0.23506355 0.045437485 1.1548823 0.03288394213 0.8201929331 0.5711411238
0.30246216 0.028797876 1.1672858 0.1365190744 0.7562844753 0.6398409009
0.14337304 0.16474654 1.0157999 0.470872134 0.1532568187 0.8687875271
0.11527631 -0.084511541 1.3042728 -0.1794111878 0.6908131838 0.7004204392
0.2652986 -0.38473305 1.2653333 0.5666034222 -0.2216931731 0.7936074138
-0.024233697 0.089696147 1.077 0.08135478944 0.7018521428 0.7076616287
0.024972824 -0.11334375 1.3147779 -0.0641265735 0.7099888921 0.7012870312
0.4156715 -0.18824664 1.09 0.8609759212 0.1479692906 0.4866473079
0.19563869 0.058127087 1.1366667 -0.01021088753 0.8451373577 0.5344516635
0.31484523 -0.38506252 1.2253636 0.6585296988 -0.1735591292 0.7322676182
0.3003118 -0.22495267 1.2830001 0.769818604 -0.1206249371 0.6267606616
0.46982846 -0.23010221 0.99800003 0.75075984 -0.04078000411 0.6593152881
0.16552752 -0.0045253537 1.2166668 -0.03184670955 0.7605544925 0.6484926343
-0.1939625 -0.045659721 1.25 0.4122719765 0.5091970563 0.7554801106
-0.014884533 -0.046833381 1.2423334 -0.2188165039 0.7253061533 0.6527253389
0.30668059 -0.17516631 1.27675 0.7927313447 -0.0661797151 0.6059679985
0.22463906 0.024724316 1.1840588 -0.000821652764 0.782794714 0.6222795248
0.0053155217 -0.015948905 1.2126669 -0.09454105794 0.7750325203 0.6248092055
0.4935782 -0.024761448 1.8830003 0.03204533458 0.7395842671 0.6723006368
0.25649625 -0.27581123 1.307 0.491763413 -0.3611808717 0.7922860384
0.24218881 -0.071633309 1.2970001 -0.02175995894 0.7394126058 0.6729008555
0.33564836 -0.46488613 1.1933076 0.5050173998 -0.04931890965 0.8616989255
0.083557613 0.1281506 1.027625 -0.08736393601 0.8026587367 0.590005517
0.44902951 -0.28320631 1.028 0.844371438 0.1573625654 0.5121268034
0.2074042 -0.27543703 1.3380002 0.613160193 -0.3595749438 0.7033779025
0.22854437 -0.33656284 1.2970001 0.488853097 -0.1973736733 0.8497448564
-0.045055188 -0.094622038 1.2848752 -0.1107698306 0.6882895827 0.7169291973
0.12476479 -0.16383541 1.38175 -0.1739373654 0.7368708849 0.6532741189
0.095294259 0.094023235 1.0824999 -0.09508043528 0.8095242381 0.5793360472
0.4015367 -0.26416886 1.13 0.8844869137 0.05297371 0.463547945
0.27985567 0.12405973 1.097 -0.7638837695 0.5897239447 -0.2621207535
0.065248333 -0.093869291 1.3057498 -0.1026676297 0.7106459737 0.6960183978
0.20216723 -0.3120153 1.3330001 0.6736428738 -0.260697186 0.6915506124
-0.065206222 -0.0057623298 1.1840907 -0.06849820912 0.7880141735 0.6118347049
0.39381531 -0.25196716 2.1290002 -0.03117046691 0.7356485128 0.676645875
0.11511773 0.022814371 1.183 -0.107554093 0.756896317 0.6446239948
-0.043919247 -0.20060413 1.3540001 -0.1086566448 0.5443813205 0.8317708373
-0.070460327 0.092660159 1.1010001 0.3820257783 0.5162200332 0.7665332556
-0.10556819 -0.17086409 1.3380002 -0.07786411047 0.4623627067 0.8832654953
0.13586055 0.071868256 1.123 0.0008875168278 0.8384441137 0.5449869037
0.16721013 0.049357209 1.149 -0.03258936852 0.8222020268 0.5682620406
0.059637003 0.34872484 1.153 0.6794919372 -0.2652062476 0.6840733886
-0.01254773 0.071839198 1.101 -0.09680993855 0.742310524 0.6630256176
0.071868256 0.30814746 1.123 0.6290663481 -0.2788364887 0.725620985
0.1735045 -0.32365626 1.3545556 0.7829502225 -0.1021223441 0.6136448383
0.17498067 -0.055640724 1.2749445 0.05559087917 0.7552171946 0.6531130672
0.46547931 -0.17624944 1.031 0.7185572386 -0.1072364673 0.6871504784
0.10549624 0.21530809 1.0540833 0.6515727043 -0.337289691 0.679476738
0.44333363 -0.20462103 1.0341741 0.8460828662 -0.007900102064 0.5329928398
0.35824028 -0.22388338 1.2054287 0.8545723557 0.01959880069 0.5189624429
-0.13402145 -0.046703685 1.2246666 -0.05060344562 0.6639743447 0.7460411191
0.0047682412 -0.064220682 1.2668234 -0.1582332999 0.7013881207 0.6949942112
0.16541542 0.028960876 1.1752224 -0.01114298403 0.7519390583 0.6591384411
0.064630456 0.054679241 1.1341598 -0.09874777496 0.763204217 0.6385672688
0.014297555 0.12283729 1.0410001 0.1171242222 0.7119521499 0.6923915148
0.26438162 0.053074274 1.1423334 0.04667988792 0.8183441162 0.5728297234
-0.0051844311 0.0031090688 1.1833999 -0.1298774332 0.8046592474 0.5793576837
0.29504934 -0.43565238 1.2247142 0.6401600242 -0.238040477 0.7304326892
0.34460145 -0.41502437 1.193522 0.5937125087 -0.1721569002 0.7860454917
0.43743658 -0.29411614 1.0650625 0.9130395651 0.1573444158 0.3762997389
0.35511312 0.35999441 1.3920001 -0.7580602169 0.5688630342 -0.3189663291
0.42504838 -0.26496166 1.0828947 0.9029045701 0.07481317222 0.4232804179
0.35557336 0.01410206 1.149 0.5150308609 -0.1056586429 0.8506347537
0.33427575 -0.19540575 1.2334287 0.826179564 -0.02199918777 0.5629771948
-0.1055956 -0.081335604 1.258 -0.05230463296 0.714174211 0.6980110407
-0.014958126 -0.17171927 1.365 -0.5241869688 0.02651280537 0.8511903882
-0.075333722 -0.11756626 1.302 -0.06546282768 0.7464062572 0.6622630358
0.34072703 0.26414493 1.266 -0.6030018926 0.6310762167 -0.4879872203
0.1553856 -0.12414818 1.3466924 0.06449405849 0.728156805 0.6823695302
-0.025384279 0.025653262 1.1457275 -0.1116962731 0.757787466 0.6428702474
0.3380293 -0.16430859 1.2270001 0.8061444759 0.02584989555 0.5911538601
0.36804703 -0.17513649 1.1852221 0.8749261498 0.04494944587 0.4821657538
0.24554612 -0.013788134 1.2270001 0.04020823166 0.7108666897 0.7021765113
0.085318953 -0.12656349 1.3442001 -0.09745027125 0.6974384785 0.7099880576
0.38036376 -0.43107891 1.1570001 0.7540739179 -0.1199224368 0.6457484961
0.39069235 -0.16635041 1.1340001 0.9459893703 0.1274340153 0.2981018424
-0.02556579 -0.13363601 1.3255001 -0.1509556472 0.7630601525 0.6284517646
-0.12496439 -0.12591109 1.3049412 0.01284422167 0.7242566943 0.6894108057
-0.045286849 0.050209329 1.123 0.07667920738 0.6969135404 0.7130440474
0.27869877 0.10891297 1.126 -0.4891077578 0.3623611331 -0.7933902144
0.0056271474 -0.18229792 1.3956001 -0.5148546696 0.003963140305 0.8572683334
0.37761936 -0.12474865 1.1553332 0.9304404259 0.06545967609 0.3605491221
0.2875199 -0.32615024 1.2590001 0.6483020782 -0.1885209233 0.7376749516
0.045154188 0.13749309 1.0172273 0.1057163626 0.7130186558 0.6931294799
0.15466531 0.091051862 1.09 -0.02836422063 0.8359882236 0.5480138063
0.18537118 0.087401561 1.0956 -0.01123978291 0.8326283097 0.5537181497
0.063145638 0.40284917 1.1760001 0.6689863801 -0.3717250228 0.6436440945
-0.072996527 -0.1542346 1.3430001 -0.5854236484 -0.01007548999 0.8106648922
0.10151152 0.27532503 1.0822001 0.5825662017 -0.3307441771 0.7424452305
0.034814186 0.49936599 1.2410001 0.8590266705 -0.1134660766 0.4991979599
0.26538566 -0.34544641 1.2768095 0.6179432869 -0.2540908158 0.7440322042
0.064925231 -0.11379346 1.3272001 -0.1461968869 0.6981993914 0.7008167505
0.21755303 -0.36574683 1.2970001 0.6117127538 -0.2115010172 0.7622826695
0.36630201 -0.31058285 1.177 0.7579916716 -0.07987580448 0.6473549604
0.40270218 -0.37567213 1.1320953 0.8217411637 -0.02626647614 0.5692552924
0.40745708 -0.21472946 1.1062104 0.8890475631 0.1353663057 0.4373447299
0.26901481 -0.20897716 1.317 0.7009488344 -0.1763313115 0.6910701394
-0.16533078 -0.09830524 1.2742499 0.06292992085 0.6193316579 0.7826033831
0.38951001 -0.06702292 1.108 0.8661786914 -0.03905632347 0.4982058108
0.36217991 -0.37547114 1.1821764 0.7407611609 -0.07591494173 0.6674652696
0.19785132 -0.37397572 1.3170002 0.7578601837 -0.07457205653 0.6481412053
0.29270059 -0.0032164899 1.223 -0.01124524977 0.7493106127 0.6621232033
0.056403641 -0.0018363975 1.197 -0.07848286629 0.7870810628 0.6118364334
0.084950924 -0.021506738 1.2266001 -0.08655866235 0.7571002841 0.6475390196
0.38360098 -0.18522263 1.1545384 0.9050990939 0.06836289167 0.4196690917
0.46455255 -0.054441623 1.9150001 0.03008856997 0.7373760343 0.6748120189
0.20514174 0.074060023 1.1148888 -0.02923171781 0.8169855475 0.5759167671
0.14466947 -0.046417356 1.2640001 -0.0477193594 0.7369459867 0.6742651463
0.24469101 0.085597001 1.1045183 -0.1038405895 0.7365677953 0.6683449745
0.26255885 0.094684914 1.0568001 -0.176239863 0.6629023552 0.7276675105
0.47611329 -0.20094515 2.0650001 0.0190718174 0.7449798584 0.6668142676
0.2715475 -0.42364916 1.25 0.6230103374 -0.1594707966 0.7657853365
0.39465141 -0.015141684 1.1249412 0.8045990467 -0.2904389799 0.5179436207
0.072524875 0.37370458 1.149 0.6651529074 -0.2171047777 0.7144488096
0.14009571 0.13105728 1.031 0.2863096595 0.7193590999 0.6328896284
0.36259326 -0.27469105 1.1936666 0.8201913238 -0.04162158072 0.5705732703
0.31614223 0.075152248 1.143 -0.6184279323 0.4051366746 0.6733581424
0.043360222 0.44512662 1.2113334 0.8239965439 -0.1382215321 0.5494765639
0.1150895 0.0042202729 1.2043999 -0.1472512335 0.7728454471 0.6172738075
0.034550309 -0.15130652 1.3590001 -0.05275012925 0.7642815709 0.642721653
0.014057641 -0.19794841 1.3740001 -0.4754527509 -0.2874241769 0.8314638138
0.34711879 0.32354787 1.3445001 -0.6348206997 0.6480794549 -0.4207085669
-0.064195663 0.013244388 1.1623334 0.03088662028 0.7347189784 0.6776680946
0.31335899 -0.28387222 1.2561669 0.7328337431 -0.1295202821 0.6679664254
0.32320595 0.19518282 1.197 -0.638417542 0.6053540707 -0.4753625095
0.11345206 0.13667847 1.0190001 -0.1860710233 0.4559029937 0.8703620434
-0.24268588 0.19881046 1.5640001 0.9650745988 0.2545949817 0.06174500659
0.052389599 -0.040383648 1.245 -0.09198412299 0.778219223 0.6212195754
0.41286945 -0.31531882 1.1148181 0.8457405567 0.02678458393 0.5329216719
0.073935919 0.1081707 1.0530001 -0.1320372373 0.8146226406 0.5647619963
0.37251845 0.051908311 1.161 0.4605139792 0.2774503529 0.8431774378
-0.18354593 -0.035034932 1.2258002 0.4184106886 0.5170716047 0.7467057705
0.10814559 0.17123052 1.028 0.736964643 0.006647476926 0.6758986115
-0.21707582 0.17585811 1.5266001 0.03298796713 -0.659742415 0.7507674098
0.44341269 -0.34319085 1.0651333 0.865944922 0.1685041338 0.4708989263
0.32659489 -0.30480516 1.2252855 0.7535510659 -0.1611357927 0.6373351216
0.37843773 -0.07270021 1.136 0.9329862595 0.02892288379 0.3587479591
0.085338488 0.014071879 1.183 -0.1438295096 0.7329437137 0.6649109721
-0.095333114 -0.016765367 1.1950004 -0.0202147793 0.7472476959 0.6642380953
0.42333117 -0.34464705 1.1039999 0.8153856993 0.03715614602 0.5777244568
0.33596021 0.046506114 1.1634001 -0.2394818664 0.2018367201 0.9496896267
0.44064358 -0.1159293 1.05375 0.7287780046 -0.1097285748 0.6759011149
0.12524424 0.10216966 1.0741667 -0.01843668707 0.8455310464 0.5336077809
0.1660742 -0.27729428 1.3752501 0.7544407248 -0.4147571623 0.5087196827
-0.49562174 -0.45296577 2.3170002 -0.06787359715 0.8374838829 0.5422304869
0.24611276 -0.30455306 1.3024545 0.3514932692 -0.3431343734 0.8710403442
0.074143209 -0.054298487 1.2677143 -0.07266715914 0.7250199914 0.6848835349
0.24294889 -0.39029288 1.2830001 0.5247680545 -0.2735224366 0.8061041832
-0.050249655 -0.139063 1.3330001 -0.1573202163 0.7183849812 0.6776233315
0.3069815 0.15225182 1.1655715 -0.4791206121 0.7152896523 -0.5087279677
-0.16523695 -0.075096838 1.2517859 0.1523188502 0.6545591354 0.7405074835
0.044449851 0.079045519 1.0962501 -0.07896845043 0.8274099231 0.5560187101
0.11023645 -0.031652048 1.245 -0.1090627164 0.7681280375 0.6309395432
0.43397895 -0.26301751 2.1429999 -0.03662283719 0.7358908653 0.6761090159
0.21449362 0.006267135 1.2038823 -0.05317040533 0.7767580152 0.6275507212
0.34366658 0.28516588 1.3048573 -0.5780457854 0.6376237273 -0.5092141628
0.035414189 0.10830644 1.0548824 0.03395359218 0.7744989991 0.6316632628
0.39464581 -0.33479923 1.1454803 0.8614553809 -0.05208691955 0.5051549673
0.19255106 -0.069091856 1.2920001 0.05838811025 0.7419419885 0.667916894
0.29039583 -0.38025415 1.25 0.6441497803 -0.2496181875 0.7230226994
0.26076451 -0.23294961 1.322 0.6057692766 -0.1988178641 0.7703992724
-0.011870067 -0.14837584 1.3540001 -0.2168974876 0.7120543122 0.6677830219
0.11802826 -0.10867949 1.3330001 -0.1599494219 0.71863693 0.6767401099
-0.11514753 0.018678917 1.1675 0.1986942291 0.6198444963 0.7591530681
-0.21711615 0.10790803 1.483 0.5660774708 -0.3349023163 0.7532573938
0.0049882331 0.038908221 1.138 -0.1525446028 0.7183392048 0.6787627935
0.27618948 -0.47467056 1.2255183 0.5875619054 -0.1285374612 0.7989049554
-0.124803 -0.064856239 1.2433335 -0.02754733525 0.72032094 0.6930937171
0.17896098 0.10936505 1.031 0.1639210135 0.858556509 0.4858092666
-0.025100719 -0.0094127702 1.1930001 -0.1517718583 0.7638320923 0.6273164153
0.22684777 -0.42524317 1.2766842 0.6364451647 -0.1249419004 0.7611353993
0.10490545 0.078679077 1.1079999 -0.1024255753 0.841126442 0.5310510993
-0.13507758 -0.10497314 1.2845793 -0.193203792 0.6877666712 0.6997494698
0.30479866 -0.34520325 1.2440478 0.6889790297 -0.1927518547 0.6986806393
0.044972122 0.39847392 1.1930001 0.7107459307 -0.335795939 0.6181272864
0.33399859 -0.099002846 1.2410001 0.8343682885 0.07522544265 0.5460500717
0.41762403 -0.16446862 1.0733157 0.8179286122 0.09418331832 0.5675581694
0.30871993 -0.44933549 1.2060001 0.6018525362 -0.2278454453 0.7654149532
-0.013243805 -0.02756503 1.2250001 -0.2071059048 0.7509444952 0.627048254
0.20262189 0.10397763 1.075 0.1762731522 0.9433884025 0.2809734046
-0.22295386 0.13508381 1.4960001 0.5253655314 -0.3919295371 0.7552365661
-0.15005991 -0.01154307 1.197 0.2659998536 0.5385606885 0.7994976044
0.30181792 0.074228249 1.1190001 -0.4669561386 0.42099002 0.7776370645
0.4329527 -0.23462847 1.0515239 0.9338870645 0.04546331987 0.3546660542
0.39084256 -0.26629364 1.155 0.8966785669 0.03519537672 0.4412809312
0.14699772 -0.23170826 1.4210001 0.7141414881 -0.2230503559 0.66351372
0.14397232 -0.20465782 1.4210002 0.5695399046 0.3586626053 0.7395846248
0.18498895 -0.017310658 1.2340001 -0.005081980489 0.7450763583 0.6669597626
-0.094213232 0.024744671 1.1555712 0.1846925616 0.6718548536 0.7172863483
-0.054354206 -0.03835265 1.2244545 -0.1168070808 0.7242402434 0.6795823574
0.13521424 -0.0053347838 1.2153043 -0.01716705598 0.7741313577 0.6327921152
0.055646181 0.033385281 1.1540666 -0.1561309099 0.759383738 0.6316323876
0.35828316 0.36702436 1.424 -0.7305038571 0.6202754378 -0.2856964767
0.28530216 0.045689631 1.1559089 0.0658044219 0.7909497619 0.6083323359
0.35961306 -0.091727391 1.189 0.9129398465 0.09939237684 0.3958054781
0.090335242 0.31471631 1.108 0.6225206852 -0.2787947357 0.7312602401
0.33256668 -0.13482034 1.2425385 0.8765828609 -0.04415739328 0.4792208076
0.31604585 -0.13470058 1.266857 0.8416818976 0.03036469221 0.5391192436
0.17035562 -0.24389042 1.3980001 0.6035987139 -0.185400635 0.775432229
0.28732035 -0.2561802 1.2852727 0.707592845 -0.2019400746 0.6771503091
0.27586618 -0.18533926 1.3166429 0.7384974957 -0.09673562646 0.6672807932
-0.15412462 -0.034546223 1.2143333 0.2226018608 0.5608430505 0.7974355817
0.10831392 -0.184626 1.404 -0.4109085798 0.6370674372 0.6521496773
-0.10501137 -0.034856156 1.2142174 -0.01086065825 0.7359957099 0.6768990755
0.037126835 -0.0095469002 1.21 -0.09603419155 0.8060456514 0.5840101242
0.039248366 0.41582051 1.21 0.8387050033 -0.1592431813 0.5207836032
0.26503897 -0.0030484207 1.2155714 0.03392155096 0.7542819977 0.6556736827
-0.12478386 -0.0037209485 1.1875715 0.1181083173 0.5896137357 0.7990031838
0.21540792 -0.32484621 1.3140001 0.62263906 -0.1928097308 0.7583831549
0.055243444 -0.075538285 1.286 -0.1255716085 0.711274147 0.6916074157
0.41361773 -0.095410019 1.0814545 0.7572493553 -0.04215068743 0.6517643332
0.034557074 -0.12637539 1.3330001 -0.07427747548 0.7325205803 0.6766804457
0.1912273 -0.098511033 1.322 0.07615968585 0.6793359518 0.7298645973
-0.054924041 -0.16944651 1.3330001 -0.5965596437 0.1239351556 0.7929417491
0.088210449 0.25502807 1.0802857 0.604624033 -0.3002070785 0.737770617
0.33459648 -0.43674743 1.189 0.5943590403 -0.14253667 0.7914673686
0.31906724 -0.25612691 1.245 0.7710383534 -0.1445431411 0.620167017
-0.0046635736 0.10443746 1.0637331 0.04938943684 0.7136271 0.6987825632
-0.065864548 0.064745933 1.1134287 0.2128673196 0.5799958706 0.7863156796
0.34404966 -0.21594095 1.2234443 0.7765585184 0.004946891684 0.6300256848
0.39922348 -0.17581375 1.108 0.9047509432 0.1222923398 0.4080077708
0.39180019 -0.20643061 1.1440002 0.9329681396 0.1199358478 0.3393903971
0.014621924 -0.079858199 1.2830001 -0.1156035885 0.6997588277 0.7049633861
0.18650381 -0.33547226 1.3380002 0.7145923376 -0.07677032799 0.6953158379
0.34491676 -0.28483069 1.2143334 0.69968611 -0.1247575358 0.7034734488
0.33624959 -0.32569861 1.2143043 0.6287613511 -0.09734668583 0.7714809179
0.074126691 -0.14409448 1.3565001 -0.1614437997 0.7245242 0.6700750589
0.23665792 -0.47544789 2.4320002 0.04855556041 0.8028976917 0.5941359997
0.18218273 -0.39988536 1.307 0.7651660442 -0.1948935837 0.6136264801
0.25623131 -0.47549358 1.2443335 0.646440506 -0.1741856486 0.7428149581
0.28250146 -0.22200619 1.302 0.7248402238 -0.1868685633 0.6630888581
0.30434623 0.16629227 1.1930001 -0.5643664002 0.6399942636 -0.5214383006
-0.084744446 -0.068306945 1.25 -0.119503051 0.7074421644 0.6965950131
-0.11488076 -0.095435746 1.2760768 -0.03064971976 0.7433485985 0.668201685
-0.086010419 -0.16503689 1.32575 0.0339027904 0.2499914914 0.9676542878
0.42233974 -0.23504756 1.082826 0.8917108178 0.1145892143 0.437859714
0.03406902 -0.34670237 2.286 0.04855556041 0.8028976917 0.5941359997
0.0044124094 0.058316011 1.1180001 -0.1192486882 0.7673151493 0.6300851107
0.064942323 -0.18379679 1.3977003 0.00227276329 0.5129336715 0.8584252596
0.10463036 0.044211566 1.1549999 -0.1192956641 0.7491984963 0.6515137553
-0.055848397 -0.072183505 1.2590001 -0.1198633835 0.7014665008 0.7025507092
0.38461623 -0.30502054 1.1631334 0.8339505792 -0.06865188479 0.5475521684
0.054896124 0.066635996 1.11625 -0.09903576225 0.7892222404 0.6060694456
0.099617824 0.19558126 1.0425 0.645565927 -0.3264098763 0.6904355288
0.32603055 0.24984474 1.2780001 -0.6008661985 0.6383544803 -0.4811064601
0.1172717 -0.1483846 1.365 -0.09135922045 0.6852662563 0.7225397229
0.4018887 -0.23542199 1.1236001 0.908408761 0.08104726672 0.4101521969
0.14451587 -0.082090959 1.3025556 0.01014152635 0.7185357213 0.6954160929
0.23222111 0.11106227 1.0470001 -0.1703958362 0.4857542515 0.8573260903
0.035690207 0.023450308 1.1631334 -0.140187189 0.76828444 0.624569118
0.37221974 -0.056336693 1.1554614 0.9286562204 0.06481317431 0.3652353287
-0.025886314 -0.18488343 1.3490001 -0.4028718472 -0.06122787297 0.9132061005
-0.074692585 0.046394955 1.126 0.1795925796 0.657963872 0.7313207388
0.035017982 -0.1750997 1.3838003 -0.1373583376 0.6183582544 0.7737995386
0.45614082 -0.21490401 1.0163752 0.7420889735 -0.0351421684 0.6693795919
0.26484093 0.013606508 1.1940668 0.007378606126 0.7907448411 0.6121014357
0.29453614 -0.30456349 1.2641904 0.6618088484 -0.2675165236 0.7003170252
0.38361147 -0.22513716 1.1638001 0.8855046034 0.03637252375 0.4632047415
0.44577211 -0.16477662 1.035278 0.7010112405 -0.004378663842 0.7131367922
0.2519342 -0.33503053 1.2925555 0.4751523137 -0.239908874 0.8465660214
0.1658992 -0.30449304 1.3649999 0.7019623518 -0.08146611601 0.7075394392
0.21197362 -0.41821823 1.307 0.7411770225 -0.017235443 0.6710883379
-0.012663012 -0.11685681 1.3132502 -0.2798999548 0.7064622641 0.6500515938
0.061494663 0.15747467 0.99733341 0.03844736144 0.6386104226 0.7685691714
-0.24943972 0.2273898 1.572 0.9723361731 0.190073207 0.1357739121
0.25539929 -0.033834945 1.245 0.09838405252 0.6898757219 0.7172113061
0.47653669 -0.035532702 1.8940001 0.02632647753 0.7387343645 0.6734823585
0.39905784 -0.08515773 1.0959091 0.8308518529 0.01936635934 0.5561565757
0.35752594 -0.42537701 1.1759092 0.6301971078 -0.1375177801 0.7641599774
0.33745816 -0.35495096 1.2060002 0.6111549735 -0.08872061223 0.7865228653
0.40838808 -0.28499138 1.1171335 0.8821854591 0.05477033183 0.4677061439
-0.046222731 0.092184119 1.0840908 0.3098050654 0.5642345548 0.7652843595
-0.064655922 -0.13162099 1.317 -0.09609112144 0.7227322459 0.6844155192
