# .PCD v0.7 - Point Cloud Data file format
VERSION 0.7
FIELDS x y z normal_x normal_y normal_z
SIZE 4 4 4 4 4 4
TYPE F F F F F F
COUNT 1 1 1 1 1 1
WIDTH 512
HEIGHT 1
VIEWPOINT 0 0 0 1 0 0 0
POINTS 512
DATA ascii
-0.1832961 -0.15249003 1.7570001 -0.1193883345 0.7371462584 0.6651028395
-0.2354376 -0.34530848 2.9840002 0.7152667642 0.6433833838 0.2728576958
0.49198884 -0.49198884 1.572 0.3269098103 -0.05008369312 0.9437274933
0.35262513 0.14644541 2.1980002 0.1400556713 0.9133021832 0.3824442327
-0.46265557 -0.049037226 2.4320002 -0.1614143103 0.829344511 0.5349141359
0.024390619 0.47445723 1.6860001 -0.6135290265 0.1776200831 0.7694369555
0.22209577 -0.026709229 1.3724 0.04574002326 -0.2168218791 0.9751390219
-0.31475842 0.27720201 2.0400002 -0.303058207 0.9056933522 0.2964375615
0.25272477 -0.12430642 1.8040001 0.5315616727 -0.5970852971 0.6007755995
0.050086599 -0.49601889 1.8430001 0.8738204837 0.2534988225 0.4149410427
-0.093461439 0.14019215 1.5230001 0.5225707889 -0.6494287848 0.5524147153
0.33004132 0.3464613 1.8730001 0.2061171085 0.9010744691 -0.3815501928
-0.43685088 -0.23632917 2.723 -0.1573432833 0.8320525289 0.5319132805
-0.028062977 0.21955152 1.8830001 0.4011290073 -0.1101683825 0.9093725681
0.24784243 -0.37176365 1.6630001 0.569896698 -0.09303000569 0.8164331913
0.02560305 -0.21506561 1.9470001 0.3385020792 0.06680181623 0.9385914207
0.25358811 0.089251682 1.6160001 -0.7605056167 0.2523758709 0.5982789397
0.3726368 -0.1637964 1.557 -0.05820597336 0.8783969879 0.4743740559
0.034197014 -0.023789227 1.6960001 -0.1316443235 0.813801229 0.5660364628
-0.27505854 0.0098738968 1.6090001 0.5172060728 0.3493835628 0.7812995315
-0.13638479 -0.38157091 1.748 -0.162517935 0.8311120272 0.5318277478
0.11631438 0.15210342 1.4580001 -0.3882288039 -0.2393873036 0.8899281621
0.14761752 0.28307828 1.9810001 0.1613267809 0.9235520959 -0.3478868008
-0.24558589 0.27305272 1.8430001 -0.1657839268 -0.3697965145 0.9142025113
-0.26492167 -0.27342182 1.6160001 0.5353763103 0.1561821997 0.8300477862
0.15821818 -0.29566023 1.8230001 -0.2393042892 -0.06544324011 0.9687366486
0.43961763 -0.32354698 1.6550001 -0.08194100857 -0.3073427081 0.9480643868
0.38466701 -0.49565685 1.7343334 0.3280184865 0.3289360702 0.8855534792
-0.15211219 0.23187833 2.1160002 0.294793427 0.9468377829 0.1288216859
0.36317495 -0.038383972 1.6840001 -0.5899413228 -0.3415091634 0.7316697836
-0.49877161 -0.33334985 2.8590002 0.7099613547 0.6359950304 0.3024321795
0.021585286 0.39019558 1.8940001 -0.9975082278 0.01817355305 0.06816963851
-0.4014248 0.046395831 2.3010001 -0.234016642 0.8664174676 0.4410861731
-0.4842689 -0.10787033 2.618 -0.1573432833 0.8320525289 0.5319132805
0.30653176 0.30367032 2.0400002 -0.2082215697 0.8975884318 0.3885599375
-0.038189352 -0.36196864 1.8940001 0.8743299842 -0.06254207343 0.4812853038
0.024039779 0.3143886 1.7358001 0.2811243534 0.6998382807 0.6566547751
-0.023840949 -0.13191992 1.8130001 -0.1661852151 0.7900997996 0.5900209546
-0.11191877 0.0014166933 1.6160001 -0.2083369344 0.887286067 0.4114840925
0.16228414 -0.49741977 1.7220001 0.393037349 0.1004907712 0.9140149355
0.31538522 -0.23317581 1.705 0.4022129774 -0.86947155 0.2867819667
0.14301677 0.22657713 1.8330001 0.1982560456 0.7585585117 -0.6207121015
-0.33362079 -0.27548987 2.8830001 0.6560682058 0.6627822518 0.3609628975
0.035648771 0.0616998 1.5640001 -0.1678691208 0.8871963024 0.4297705591
0.22816828 0.19663283 2.1160002 0.7739899755 0.5763937831 -0.2621253431
0.18396193 -0.026280275 1.7130001 0.02989754267 0.8636169434 0.5032613277
-0.11456806 -0.22304797 1.8940001 -0.1271237433 0.8816136718 0.454529345
0.11595934 -0.13392486 1.863 0.01683613099 0.7445132136 0.6673953533
0.25360265 -0.12460748 1.4714 -0.1189644113 0.8092771769 0.5752546787
-0.29290485 -0.099617384 1.6960001 0.3897497952 0.6965878606 0.6023789644
-0.39393017 0.18872003 2.0900002 -0.25372082 0.8772087693 0.4075911343
-0.092086822 -0.067932896 1.7220001 -0.2197286487 0.752802372 0.6204900742
0.096504055 -0.39685357 1.7660002 0.6553326845 -0.5366888642 0.5315111876
0.17140454 0.066954099 1.5275002 0.1341053098 0.7628599405 0.6325033307
-0.19332604 0.082951948 1.5640001 0.5184729695 -0.2837370038 0.8066468239
-0.15021946 0.21625 1.883 -0.07638130337 -0.0322595872 0.9965566993
-0.16182654 -0.3047004 1.6630001 -0.5644279718 0.5033562779 0.6542580128
0.27506292 -0.48024502 1.6960001 -0.3535403907 0.7424668074 0.5689923167
0.036691129 0.33196735 1.9930001 -0.4078986347 -0.4603976309 0.7884495854
0.36126995 -0.41495264 1.6550001 -0.1815442145 0.7934857011 0.5808804631
0.12504491 0.031189695 1.6320002 -0.1369960904 0.7991961837 0.58525002
0.25320274 0.26751322 1.8430002 -0.4526645839 0.5096009374 -0.7317114472
0.33433962 -0.30458906 1.6159998 0.4013670683 -0.1316597313 0.9064050913
0.0059562484 0.16548012 1.4770001 0.2378081083 -0.5853209496 0.7751430273
0.053896591 -0.30541402 1.863 0.4026229084 -0.395827204 0.8253578544
-0.19244236 -0.059773762 1.6630001 -0.4258211553 0.6537973881 0.6254800558
-0.062173203 -0.28496051 1.9700001 0.8201934695 0.006606546696 0.572048068
0.08524356 -0.07668028 1.7760001 -0.01793795638 0.7601629496 0.6494848132
0.22139196 -0.2938318 1.7336668 0.7497076392 -0.6167641878 0.2398758829
0.40572748 -0.21802437 1.647 0.3067685366 0.2057991624 0.9292684197
0.26711595 -0.011550959 1.6470001 -0.269465059 0.6645015478 0.6970123649
-0.30561125 0.29548049 1.9260001 0.3359532654 0.8948979974 0.2937567234
-0.025037602 0.38440078 1.6800002 0.6561342478 0.5535096526 0.5129472613
0.19873595 -0.20812505 1.7850001 0.6037937403 -0.1403652728 0.7846850753
0.48490012 -0.38987646 1.5940001 0.4945823252 0.130542621 0.8592711687
0.16617478 0.026019759 1.436 0.6472132206 -0.5114555359 0.5652683377
0.40789196 -0.49758548 1.6240001 0.8659252524 -0.02862000093 0.4993538857
0.41444597 -0.12283151 1.6800001 0.4086956084 0.3397496939 0.8470761776
-0.26032528 -0.34120303 2.8830001 0.7152667642 0.6433833838 0.2728576958
-0.064349718 0.046184931 1.5430001 -0.07052280754 0.6937457323 0.7167589664
-0.22583722 0.16984452 2.1290002 0.2338388115 0.9554379582 0.180160284
0.027168777 0.2700896 1.8230001 -0.3975841105 0.8153610229 0.42084831
0.034333557 -0.39624962 1.8430002 0.2937074304 -0.008900866844 0.9558539391
-0.10966837 -0.17006545 1.8130001 -0.4435993135 0.6782209873 0.5858634114
0.17542939 -0.40505755 1.7130001 0.3963410556 -0.17265746 0.901722312
0.10559011 -0.22580041 1.853 0.5768765807 -0.3947450817 0.7151151896
-0.015304847 0.015304848 1.6240003 -0.2188852876 0.7489550114 0.6254243255
0.17614688 -0.077064261 1.794 -0.2384937704 0.828882277 0.5060384274
-0.2418548 0.2473515 2.0900002 0.1598534435 0.9369319677 0.3108140826
0.31576219 -0.05083001 1.7570001 0.7168198824 0.6311508417 0.2963407934
0.028062977 -0.15682252 1.8830001 -0.3204058707 0.745153904 0.5848809481
0.29415902 -0.15513879 1.7350003 0.6289793849 -0.1002040133 0.7709371448
0.084716685 -0.48519555 1.7570001 0.7657250762 -0.09057936072 0.636757791
0.23552151 0.27403772 2.0780001 0.0414034389 0.9320065379 0.3600688279
0.053519621 0.097901747 1.4890001 0.1299681067 0.8021261096 0.5828396082
0.19474347 -0.085222192 1.4246923 0.237635538 0.7389309406 0.630484283
-0.0046209102 -0.073934563 1.7570001 -0.4214631617 0.6931573153 0.584723711
-0.1955099 -0.0039381464 1.594 0.03190146387 0.731063962 0.6815627217
0.33156061 -0.13967316 1.4890001 0.1422800869 0.8122125268 0.5657448173
-0.016135342 -0.27430084 1.9040002 0.5141573548 -0.5939285159 0.6187819839
0.27247328 -0.29444692 1.6710001 0.6847091913 -0.02585014328 0.7283577919
0.27406353 -0.067270137 1.4210001 -0.1868392378 0.5678457022 0.8016497493
-0.0336782 0.094246745 1.4890002 0.02234870754 0.5941198468 0.8040660024
-0.044803053 -0.19445933 1.8730001 -0.3655508161 0.6835264564 0.6317944527
-0.23417521 -0.32843441 1.6800001 0.1829138547 0.8422244787 0.5071492791
0.16481246 -0.34194735 1.7570001 0.5825678706 -0.7395487428 0.3371680379
0.19272113 -0.12739193 1.863 0.4095256925 -0.02310566232 0.9120059609
0.10445046 -0.35513154 1.8330001 0.5993052125 -0.355730325 0.7171396017
-0.46173593 -0.16811924 2.7010002 -0.1573432833 0.8320525289 0.5319132805
0.10662283 -0.03153633 1.7130001 0.04938111827 0.8021329045 0.595100224
-0.0456568 -0.027983198 1.6799999 -0.1172512919 0.8088392615 0.5762214661
-0.27391487 0.33541515 1.8730004 -0.4222322702 0.1963533014 0.8849662542
0.11124725 0.2523818 1.8940001 -0.3861127496 0.8818219304 -0.2707527578
-0.26386726 -0.053784154 1.6470002 0.1000002101 0.6134819388 0.7833517194
0.22454502 0.11023119 1.5523334 -0.5394210219 0.5480030179 0.6393103004
0.10831743 0.05758648 1.5640001 0.289382875 0.8731330037 0.3922962546
-0.13662237 0.039228205 1.5430001 0.01295601763 0.7904118299 0.6124388576
-0.0038517814 -0.44295481 1.883 0.7870044708 0.3888735473 0.4789586067
0.046346739 -0.11773136 1.8230001 -0.2620021105 0.7916372418 0.5519649982
-0.16152933 -0.087557957 1.7220001 -0.6411520839 0.4973191321 0.5844635963
0.38888231 -0.35629839 1.6160001 -0.5521359444 0.2608445883 0.7919002771
0.42487472 -0.42609504 1.6240003 0.6673932076 -0.1028714031 0.7375661135
-0.25284821 -0.13944961 1.748 0.08628530055 0.8224992156 0.5621832013
0.29721716 0.3274157 1.8130001 -0.06943046302 0.1397961527 -0.9877430797
0.38380641 -0.28272763 1.6710001 0.01528636087 -0.4165792465 0.9089708924
0.083940834 -0.18634863 1.9150001 0.5901602507 -0.1879502982 0.7851022482
0.2567887 -0.22482692 1.748 0.5390757322 0.02733366564 0.8418136239
0.054385137 0.01603766 1.6364547 -0.1441306025 0.8647435904 0.4810872376
-0.094974555 -0.11262011 1.7760001 -0.3579759002 0.7431662083 0.5652939677
0.24053805 0.029198259 1.5860001 -0.4936943054 0.1736734509 0.8521170616
0.34843731 -0.18515289 1.6630001 0.7236850262 0.07798337191 0.6857103109
0.055208523 -0.2444949 1.8940001 0.4846399724 -0.5128777623 0.7085763812
0.29598022 -0.43091235 1.6550001 -0.05450920016 0.4846543968 0.8730056286
-0.20173152 -0.25752959 1.6320001 -0.6863358021 -0.353181541 0.6357719302
-0.21625 0.22780535 1.8830001 -0.0607425943 0.2299351394 0.9713084698
0.31554741 -0.36493596 1.6376001 0.6228467226 0.08058086038 0.7781829238
0.15426528 -0.18479694 1.8330001 0.4664153159 -0.5205318332 0.7151946425
0.21504562 -0.45403057 1.6847999 0.3947722018 -0.04123846069 0.917853117
0.021004057 0.431391 1.8430001 -0.9826716781 0.1409781277 0.1203391105
-0.059402931 -0.2291256 1.9360001 -0.1536150426 0.9093261957 0.3866888583
0.33571336 -0.45828015 1.7050002 -0.1270522177 0.6391550899 0.7585107088
0.1230571 0.094790161 1.4880003 -0.1953470856 0.7363786101 0.6477546096
-0.13037699 -0.02783329 1.6710001 -0.252633363 0.8003852963 0.5436540246
0.3137064 0.0191464 1.6800001 -0.1643356532 0.7333934903 0.6596421599
0.053454924 -0.4437708 1.8040001 0.9506017566 -0.1615935862 0.2650355399
-0.22451083 -0.10457347 1.6960001 -0.1409555376 0.7418637276 0.6555683017
0.2123199 -0.27522948 1.794 0.6171497703 0.1171462834 0.7780764103
-0.4633157 -0.27410823 2.7670002 0.4403063655 0.7732260227 0.4563461542
0.17240877 0.043102194 1.5860001 0.06742804497 0.9103692174 0.4082662761
0.19114518 0.26262155 1.853 -0.2115645111 0.03196774796 -0.9768410921
0.3342559 -0.24666111 1.647 -0.1501795053 -0.5979458094 0.7873416543
0.28250146 -0.028399616 1.705 -0.3559963703 0.768437922 0.531760931
-0.12705092 -0.33780599 1.705 -0.03064581193 0.5742933154 0.8180758357
-0.090791985 0.23275763 1.8830001 0.004083007574 -0.2588474751 0.9659096003
0.17700776 0.0072544166 1.6550001 0.2341637164 0.8373883963 0.4939109385
-0.14300469 0.10422374 1.536 0.5480561256 -0.4121975005 0.7278239131
0.1242998 -0.44495276 1.7340773 0.5161560178 -0.05943349376 0.8544299603
-0.1518755 -0.20196208 1.8430001 -0.1955765188 0.817525804 0.5416653752
0.39473283 -0.45445839 1.6864001 0.9485980272 0.2230749428 0.2244980335
0.20776562 -0.34527954 1.705 0.6070481539 -0.2579858899 0.7516220808
0.38695717 -0.079412848 1.6470001 0.4743824601 0.8310108781 0.2904861569
-0.017757758 0.32555893 1.6880001 -0.4373704493 0.4545294642 0.7759575248
-0.022525949 0.44901726 1.7130001 -0.3803561032 0.5819340944 0.7188059092
-0.23616172 0.051704045 1.5940001 0.5941598415 -0.1269414127 0.7942669392
-0.02423545 -0.3893829 1.8430001 0.4999427497 -0.1203563064 0.8576546907
0.1449663 -0.058538191 1.7479999 -0.1411832571 0.766287446 0.6267940402
0.053247605 0.25450948 1.8730001 -0.4763388038 0.274489522 0.8353184462
0.0073495349 -0.34379491 1.863 0.4130604267 -0.3513691425 0.8401909471
0.31314358 -0.093896255 1.454 -0.3694257438 0.5203422308 0.7699146271
0.12556233 -0.096953191 1.8130001 -0.146835357 0.8746696115 0.4619441628
0.30628103 0.1655059 2.1700001 0.4391016066 0.8894224167 0.1269550771
-0.095248081 0.084664971 1.5090002 0.2711594999 0.3733392954 0.8871811032
0.25144905 -0.17515799 1.7760001 0.5916864872 -0.2979915738 0.7490715384
-0.18585332 -0.35460815 1.6960001 -0.1275687218 0.7244429588 0.6774279475
0.057518099 0.14954706 1.4580001 0.2912045717 -0.08834015578 0.9525732994
-0.0046708803 0.28648064 1.7760001 0.1064275429 0.82741642 0.551412046
0.28306076 0.043310966 1.6390001 -0.7341646552 -0.4280387163 0.527053237
0.34389618 -0.082595147 1.7130001 0.8930023909 0.05180524662 0.447060287
0.1741998 -0.24132267 1.8230001 0.3356840909 -0.1026579365 0.9363639951
-0.064746507 0.02282431 1.5940002 -0.2186558843 0.8897054791 0.4007664323
-0.01821012 0.36268488 1.7310001 -0.3604833186 0.4876375496 0.7951486707
0.1784707 -0.023548361 1.4137501 0.6077266932 -0.5739971995 0.5488128066
0.46578178 -0.4449259 1.5860003 0.5592603087 -0.1452718526 0.8161641955
0.20741627 -0.15496618 1.8130001 0.578012526 -0.4720195532 0.6656568646
0.10178889 -0.28597832 1.8430001 0.5225189328 -0.0640392378 0.8502193689
-0.015193072 0.041432578 1.5755001 -0.289560467 0.8998453617 0.326240778
-0.062473021 -0.3174305 1.9260001 0.8594181538 -0.2472287416 0.4475246966
-0.005808501 0.068361588 1.5289999 -0.2259637415 0.8517525792 0.4727134109
0.20691408 -0.051856879 1.7570001 -0.1305964887 0.8553232551 0.5013647676
-0.29063341 0.27585542 1.8730001 -0.02553010732 -0.6256612539 0.7796769738
0.022092 0.4109112 1.6800001 -0.5716702938 0.1361550242 0.8091074824
0.44562018 -0.36873999 1.6240001 -0.08422907442 -0.4024223387 0.9115710258
0.05419939 -0.052679073 1.7366002 -0.1031445339 0.8578924537 0.5033703446
-0.098585546 -0.38964763 1.7850001 -0.2223328203 0.8193492293 0.5284268856
0.3164416 -0.16024064 1.536 -0.006952716038 0.9204264283 0.3908539414
-0.053519621 0.15011601 1.4890001 0.4421223402 -0.431483835 0.7863520384
0.12451734 -0.0048830337 1.6710001 -0.08917471766 0.8811262846 0.4643967152
-0.30689865 -0.035157841 1.6710001 0.7155004144 0.3034307957 0.6292765141
0.42444745 -0.27616385 1.6390002 0.5123016834 0.02583766356 0.8584167957
-0.01510935 -0.20985208 1.9150001 -0.3484365046 0.7900872827 0.5043352842
-0.0081661502 0.26295003 1.863 0.8577613831 0.2337627113 0.4578213394
0.21535251 -0.09469118 1.8230001 0.09137485921 0.6125118136 0.7851623297
-0.20588104 -0.31467158 1.6390001 -0.2428595722 0.4029747844 0.8824004531
-0.057849482 -0.16390686 1.8330001 -0.2637923956 0.509149909 0.8192557096
-0.16262518 -0.026229866 1.6320001 -0.4142250121 0.7926388979 0.447371453
-0.045151841 -0.10431632 1.7760001 -0.2299042493 0.8300833702 0.5080409646
-0.13420995 -0.14604285 1.7760003 -0.498090893 0.5922139287 0.6333941221
0.086725295 0.18205017 1.4854 -0.1773929 -0.8164259195 0.5495274663
0.035991549 -0.082937047 1.7850002 -0.2003673166 0.7177497149 0.666849494
-0.096493125 -0.19720984 1.853 -0.3327355385 0.7890816927 0.516369164
-0.043024167 -0.058120374 1.7220001 -0.2548705041 0.7644651532 0.5921436548
0.12314975 -0.18226163 1.8730001 0.7302556038 -0.4809297323 0.4852147102
-0.22433548 -0.033965573 1.6240003 0.001671314589 0.7023683786 0.7118116617
0.13796937 -0.38494214 1.7390001 0.5140519142 -0.2403175831 0.8234063983
0.26605958 -0.25858599 1.705 0.6449608207 -0.7297796607 0.2268196493
0.1439171 -0.34634992 1.804 0.4103995264 -0.7785775065 0.4747518003
0.28228053 0.3549141 1.883 -0.001121768495 0.9754070044 -0.2204085439
0.44717014 -0.49468195 1.594 0.6301590204 -0.03441314399 0.7757031322
0.30805454 -0.49167323 1.7310001 0.1668891162 0.3255068064 0.9306950569
0.48024237 -0.35256463 1.6550001 -0.5921503901 -0.5071709752 0.6262072325
0.075063705 0.079084978 1.529 0.1268228441 0.9076443911 0.4001220465
-0.43155056 0.024543159 2.3330002 -0.2341989726 0.8431996107 0.4839062691
-0.06456241 -0.001434811 1.6366668 -0.09316199273 0.8889049888 0.4485184252
0.21499753 -0.40515807 1.6824616 0.467051208 0.1352677345 0.8738225102
-0.012995707 -0.15757294 1.853 -0.3654716313 0.7687569261 0.5248269439
0.28720564 -0.24638453 1.6630001 0.5618224144 -0.5172848105 0.6455788016
0.084238023 -0.39655447 1.8130001 0.6877719164 -0.6500893235 0.3230381012
0.034113731 -0.44525063 1.8530002 0.4636253119 -0.0077986666 0.885997057
0.16632119 0.11505374 1.4960002 -0.336283803 0.5985585451 0.7270768881
0.084352873 0.043577638 1.6036667 0.02760095149 0.810643971 0.5848885179
0.02566354 0.44231865 1.7220001 0.1325051636 -0.4792930782 0.8675946593
-0.18154101 0.028664369 1.557 0.220771119 0.6082222462 0.762447238
0.076585598 -0.0073639997 1.6800001 -0.06297084689 0.8474676609 0.5270988345
0.32644877 -0.027566783 1.6550001 -0.6737200022 -0.4344612658 0.5977832079
0.31837463 -0.18534487 1.705 0.8222399354 0.02191553824 0.5687189102
0.27529791 -0.33545911 1.647 0.4632724226 -0.2531594932 0.8492873311
-0.0043736896 -0.011663172 1.6630001 -0.160212785 0.8455573916 0.5092784762
0.35591 -0.0015017299 1.7130001 0.4114007652 0.6850568652 0.6012041569
-0.31612116 0.31612116 1.8830001 0.4921636879 0.5618575811 0.66489923
0.024761448 -0.49357823 1.883 0.5958358049 0.5528176427 0.5825567842
0.02531229 0.035158131 1.6043333 0.0007180455141 0.8105300665 0.585696578
0.20874047 -0.49707264 1.7130001 0.2431492656 0.3447186649 0.906668365
0.28588769 -0.14404422 1.5043334 -0.02359187976 0.8348222971 0.5500137806
-0.02476145 -0.31529576 1.8830003 0.4473481774 -0.1855064631 0.874909699
0.38012967 -0.30894434 1.6240001 -0.7241963744 -0.488440007 0.4867915213
-0.026115898 0.42365795 1.6550001 -0.3006926477 0.01950269938 0.9535216689
0.074284345 -0.15187022 1.8830003 -0.0820967555 0.7952190042 0.600738585
0.23522019 -0.066335604 1.396 -0.278462261 0.6448963881 0.711735487
0.053607289 -0.35575747 1.853 0.0268622078 -0.2444950938 0.9692783952
0.26497424 0.31182945 1.8430001 -0.6816744208 -0.2682907879 -0.6806908846
-0.16513771 -0.17457414 1.794 -0.2088114917 0.7087949514 0.6738007665
0.17470126 -0.45452359 1.7130002 0.4313799739 -0.0222010836 0.9018971324
-0.1370414 0.0096897967 1.5790001 -0.1450063735 0.8004901409 0.5815399289
0.35275665 -0.38392389 1.6160001 0.1186587065 0.4055176675 0.9063528776
0.0051793461 0.11450054 1.477 -0.06932783127 0.6286469698 0.7745944858
0.20062692 0.014770079 1.404 0.3351803124 -0.1891431957 0.9229729176
0.1469907 0.26295003 1.863 -0.1607351303 0.5425850153 -0.8244791031
0.15389511 -0.11511838 1.8430002 -0.09816426039 0.6570746899 0.7474066019
0.011894614 0.36427256 1.6960001 -0.1045201048 0.4700530171 0.8764278293
0.25396213 -0.42442438 1.6710002 0.4384715855 0.1713174582 0.8822658658
0.02476145 -0.27567747 1.8830003 0.1629884243 -0.4267158806 0.8895776272
0.2456467 -0.26474103 1.7659999 0.8345440626 -0.2882131934 0.4695416391
0.18621714 -0.31453481 1.7850002 0.6732288003 -0.7285417914 0.126450792
0.23642471 -0.097464286 1.4345002 -0.09358251095 0.8112217784 0.5772014856
-0.0045051896 -0.037543248 1.7129999 -0.2949581146 0.8246734142 0.4826110601
-0.2124514 -0.12898836 1.7310001 -0.2241357267 0.7668715119 0.601391077
0.37062222 -0.23878033 1.6710001 0.5265209079 0.1170614436 0.842064321
0.035255149 -0.18634865 1.9150001 -0.2841229439 0.7526534796 0.5939586163
0.13176826 -0.25550187 1.8330001 0.6939540505 -0.08963108808 0.7144187093
0.016788166 -0.24678604 1.9150001 0.3898861706 -0.750742197 0.5332682133
-0.049219575 -0.35811484 1.9360001 0.8643303514 0.2475985587 0.4377533197
0.23937909 -0.30777311 1.6960001 0.674859345 -0.3079988658 0.6705979109
0.087797292 -0.43898645 1.7570001 0.661506474 -0.1334836632 0.7379642725
0.39406079 -0.4951396 1.6710001 0.9892709851 -0.002954741241 0.1460624486
-0.18681328 0.23879611 1.853 -0.419429481 -0.2830780149 0.8625229001
0.10825168 0.25043297 1.8430001 -0.2568401098 0.7916059494 -0.5544305444
0.37550718 -0.10441941 1.6824 0.2095957994 0.399584353 0.8924135566
-0.2687369 0.29878202 1.904 0.8118234873 -0.1126385555 0.5729355812
-0.23658778 -0.23800446 1.6160001 0.04357174039 -0.308657378 0.9501748085
0.33966449 -0.040759739 1.7220001 0.8097218275 0.5830278993 0.06655101478
0.084707044 0.11679304 1.4640001 0.06718946993 0.4878090322 0.8703607917
0.38288942 -0.18306027 1.5940001 0.3135030866 0.9247230291 0.2158777118
-0.11487051 0.20306492 1.863 -0.03396695107 -0.2731970549 0.9613581896
0.26783744 -0.13624102 1.766 0.7943106294 -0.2614228725 0.5483874083
0.30610046 -0.28444239 1.6470002 0.5238617063 -0.07477162033 0.8485152125
-0.25845271 -0.30176884 1.6470001 0.2478697747 0.779553473 0.5752016902
0.35913351 -0.33118537 1.5940001 0.2700078189 -0.0460684672 0.9617553949
-0.091021672 -0.24558677 1.9590001 -0.3507521749 0.6839460731 0.6396800876
-0.12518799 0.24536848 1.904 -0.1603094786 -0.3523703814 0.9220281839
-0.12489344 -0.062446725 1.6960001 -0.0977056101 0.6627449989 0.7424437404
0.08730986 -0.1162346 1.8330001 -0.1068093553 0.8537452817 0.5096182823
0.064482339 -0.48597667 1.794 0.8895192742 0.2312592268 0.3940490186
-0.063695967 0.20742022 1.863 0.08136112988 -0.282980144 0.9556686878
0.28449762 -0.39369875 1.6390001 0.0927234292 0.1348668486 0.9865157604
-0.15538672 -0.1222866 1.7479999 -0.4784704149 0.5590472221 0.6771500707
0.19433594 -0.055829637 1.3920001 0.3925997019 0.5365069509 0.7470112443
-0.084306501 -0.045851618 1.6871111 -0.0693115592 0.757933557 0.6486390829
-0.042430665 -0.26816183 1.9360001 0.8132533431 -0.3924338818 0.4296680987
0.3971563 -0.39214265 1.6355001 0.4238284528 0.4919326901 0.760507524
0.13002107 0.068361588 1.529 -0.05104053766 0.8743682504 0.4825712442
-0.07515125 0.11468492 1.4890002 0.4653824866 0.04170141742 0.8841267824
-0.082118832 -0.13721792 1.8130001 -0.4469515085 0.6059263945 0.6580939293
0.29437152 -0.20499711 1.732143 0.6342725158 -0.0306769833 0.7725006342
-0.23579527 0.0014035433 1.6010001 0.2681423724 0.6020125747 0.7521173954
-0.012322427 0.3219234 1.7570001 0.3163285553 0.6612771153 0.6801829338
0.034399841 0.076453216 1.5251819 -0.1900147945 0.8485121131 0.4938842058
-0.094606355 0.02879324 1.5640001 -0.01523574442 0.8780105114 0.4783988297
0.40630502 -0.46405983 1.6470001 0.9053871632 -0.1200790703 0.407253176
0.34718367 -0.077640228 1.6710001 0.7950037122 0.3849958777 0.4687720537
0.21939285 0.062883303 1.5940001 -0.6012657285 0.1082903072 0.791677177
0.14498752 -0.018434839 1.705 -0.02721007727 0.8004169464 0.5988258123
0.02870382 0.36639583 1.9260001 -0.9978320599 0.005885576829 0.0655477345
-0.12562071 -0.095435157 1.7390001 -0.153626889 0.719344914 0.6774523258
0.17883386 0.077016041 1.4890001 0.1954180151 0.7901870608 0.5808753371
0.12531687 -0.49576166 1.7383848 0.2784733772 0.03886405006 0.9596573114
0.04209432 0.18182738 1.485 0.1646099538 -0.745151639 0.6462605
0.32545242 -0.40645799 1.6383002 0.192799896 0.5252335072 0.8288292885
-0.074718297 -0.21751328 1.8940001 -0.1756163388 0.858761251 0.4813398421
0.17738035 -0.36532801 1.7220001 0.7056378722 -0.3521041572 0.6148965955
0.15189038 -0.15189038 1.863 0.4569841325 -0.1641910523 0.874189198
0.19574814 -0.32523328 1.737667 0.6595696807 -0.5292753577 0.5336998105
0.4152157 -0.3541607 1.6470002 0.115655385 -0.3650794625 0.9237644672
0.11166454 -0.37273937 1.794 0.7242957354 -0.6730763316 0.1495458037
-0.23472138 -0.075810634 1.6630001 -0.09412263334 0.7191727757 0.6884267926
0.35730147 -0.14725177 1.5242002 -0.2188180536 0.8912439346 0.3972441256
-0.0049812198 -0.1760031 1.8940001 -0.3542009294 0.6293647885 0.6916947365
0.29659575 0.35337594 1.8430002 -0.1780021936 0.8169152141 -0.5486025214
0.21415389 0.25091165 1.8230001 -0.2925777137 0.53044945 -0.7956265807
-0.00156485 -0.10171525 1.7850001 -0.2049370855 0.7987914085 0.5656262636
-0.065893777 -0.085815139 1.748 -0.1085604504 0.7696818709 0.6291298866
0.095295422 0.01010709 1.6470001 0.1186801493 0.8578467965 0.5000139475
-0.30592161 -0.28807616 2.9080002 0.6560682058 0.6627822518 0.3609628975
-0.22525424 -0.28475535 1.6160001 -0.1697536558 0.5051762462 0.8461564183
0.08236146 -0.25595048 1.863 0.711969018 -0.3053620756 0.6323401928
0.10573652 -0.056699295 1.748 0.0514973253 0.7811018229 0.6222764254
0.27615875 -0.1064098 1.4450001 -0.08372888714 0.8097838163 0.5807233453
-0.29168192 -0.018679136 1.6390001 0.6151502132 0.3544417024 0.7042452097
0.0081223166 -0.4743433 1.853 0.5894376636 0.4148196876 0.6931723356
-0.24204503 0.23554718 1.853 -0.1215613186 0.5532197356 0.824118197
0.34570298 -0.49515533 1.7220001 -0.266256243 0.3544027507 0.8963851333
0.0080346502 0.23782563 1.8330001 0.2957081795 0.7862553596 0.5425487757
-0.016499743 -0.23156536 1.9470001 0.151995331 -0.5194869041 0.8408512473
-0.053538032 -0.24610224 1.9700001 0.3857963085 0.3034818769 0.8712404966
0.034989521 -0.0043736901 1.6630001 -0.2447624505 0.8191044927 0.5188055038
-0.16454858 -0.37287614 1.7220001 -0.1474649608 0.7805774808 0.6074149013
0.43279982 -0.46255037 1.6160001 0.5290284157 -0.1388054043 0.8371750116
0.12579829 -0.3157514 1.8230001 0.504662931 -0.08681561053 0.8589403033
0.1262324 0.042388003 1.5940002 0.1937771142 0.927886188 0.3185555637
0.39899293 -0.32064521 1.6550001 -0.3224928379 -0.3683969676 0.8719415069
-0.04554937 0.065363951 1.5159999 -0.008754597977 0.7610780001 0.6486012936
0.29495171 -0.12401284 1.4735001 0.05617579073 0.8679533601 0.49345842
0.38262555 -0.1877031 1.6470001 0.3363907635 0.3584787846 0.8708238602
-0.16728348 0.065380335 1.5430001 0.5844911933 -0.1076067835 0.8042330742
0.35437945 -0.27633333 1.6351112 -0.5312414169 -0.6772691011 0.5090079904
-0.1605352 -0.048602398 1.6800001 -0.3626223207 0.7419757247 0.5638945699
0.39754203 -0.42510882 1.6550001 0.7942929268 0.1710014939 0.582972765
0.16230255 0.022779306 1.6240001 0.2352815717 0.9128900766 0.3335780203
0.12715174 -0.076291047 1.7760001 -0.007710835896 0.8296655416 0.5582075119
0.08447209 -0.32489267 1.853 0.3310973048 -0.009814566933 0.9435455799
0.23003295 -0.23629235 1.7850001 0.5152098536 -0.01475867443 0.8569369912
-0.094763279 -0.018952657 1.6630001 -0.03863759711 0.7454909682 0.6653949022
0.085132219 -0.21672167 1.8830003 0.6645308733 -0.4890858233 0.5649724007
0.31115398 -0.3255927 1.6470001 0.5868079066 -0.06144391 0.8073915243
0.25075471 0.0099168532 1.6160001 -0.6006315351 0.5697143674 0.560952127
0.24792133 0.049584266 1.6160001 -0.7087815404 -0.2847720981 0.6453940868
0.18257372 -0.16318536 1.8430001 0.6222109795 -0.5195903182 0.5855590701
0.014856869 -0.31364501 1.8830001 0.2656947672 -0.2988397479 0.9165703058
0.01446237 -0.13337518 1.8330001 -0.1969915777 0.8219067454 0.5344750285
0.31737816 -0.016441884 1.705 -0.4660585523 0.7279404998 0.5028837323
0.18754882 -0.1859594 1.8130001 0.6057475209 -0.2952759266 0.738838315
0.30336171 -0.45430267 1.6880001 -0.3437407911 0.7540252805 0.5597214699
0.2123199 -0.070773296 1.794 -0.08652063459 0.8490834236 0.521125257
0.24756978 -0.33546439 1.6710001 0.6217884421 -0.2258137316 0.7499248981
-0.25379238 -0.11863667 1.7129999 0.0569957979 0.8351396322 0.5470770001
0.13314462 -0.36072904 1.766 0.607421279 -0.7300801277 0.3130852282
0.49473995 -0.42504823 1.575889 0.2266884297 -0.3686032593 0.9015231729
-0.27615875 0.24854289 1.853 0.0467386283 -0.2254677117 0.9731288552
0.14781389 -0.21456854 1.8130001 0.3714542985 -0.2835170329 0.8841039538
-0.10412171 -0.23694722 1.9260001 -0.2106245756 0.9080691338 0.3620052338
0.30610043 0.0057754801 1.6470001 -0.1261062622 0.4258042276 0.8959843516
-0.18659675 -0.091439836 1.6960001 -0.3718683422 0.6537544131 0.6590288877
0.067577846 -0.02853287 1.7130001 -0.1597869545 0.822208643 0.5462975502
0.30049592 0.29728204 1.8330001 0.06361813098 -0.4165299535 -0.9068933129
0.14514144 0.052297924 1.5640001 0.0990575254 0.8737179041 0.4762400985
0.0048996904 -0.38184914 1.8630002 0.1409750432 -0.1974506676 0.9701233506
0.053607289 -0.13645492 1.853 -0.1920458823 0.8130126595 0.5496624112
0.28371149 -0.24377258 1.7332858 0.7173246741 -0.5645350218 0.408344835
0.0044213221 0.44496146 1.6806669 -0.1957139075 -0.03679113463 0.979970634
0.33399948 -0.43214846 1.6710001 -0.2539904416 0.7789677978 0.5733218789
0.063459262 -0.21589582 1.9150002 0.7024728656 -0.4156161845 0.5777499676
-0.15834002 -0.33295798 1.6880001 -0.3901855946 0.5386359096 0.7467439771
-0.021345956 -0.40885717 1.8730001 0.7547825575 0.4549994469 0.4725239277
-0.10233856 0.049822718 1.536 -0.009414140135 0.6783585548 0.7346706986
0.074330814 -0.099634923 1.8040003 -0.01871493645 0.7923730016 0.6097497344
0.029415673 0.28177118 1.766 0.03319562972 0.7689329386 0.6384670734
-0.27979782 -0.077640228 1.6710001 0.2758500576 0.6604694724 0.6983457804
0.14171053 0.1547115 1.483 -0.5040206313 -0.532782793 0.6797835827
0.0058016549 -0.4235208 1.8529999 0.36478737 0.1815212071 0.913225174
0.24449293 -0.49603242 1.705 -0.0245548971 0.8198020458 0.5721203089
0.15129746 -0.26200292 1.8040003 0.05796378851 0.02609703876 0.9979775548
-0.17817023 -0.28449762 1.6390001 -0.5708715916 0.06939789653 0.8181011677
0.1526712 -0.42427561 1.7318889 0.3915395141 -0.1981213242 0.8985792994
-0.22166955 0.26107746 1.8730001 0.05021306127 0.5482983589 0.8347739577
0.21751414 -0.17682804 1.7850002 0.6401183009 -0.2202125192 0.7360400558
0.45192516 -0.40234089 1.6160001 0.6088816524 -0.4801891148 0.6314123273
0.074418485 0.062015399 1.572 -0.008178552613 0.8848772645 0.4657524228
0.015245233 -0.050309271 1.7390001 -0.1115792096 0.8182923198 0.5638685822
0.067288548 -0.41781494 1.7850001 0.7634097934 -0.5167705417 0.3874966502
-0.25779349 0.2873494 1.8730001 0.3813364804 -0.3433842957 0.8582946658
0.0052711773 0.092279464 1.5037501 -0.02946629748 0.7635258436 0.6451046467
-0.10671663 -0.36588562 1.7390001 -0.3601920009 0.7744629979 0.5200661421
0.34411299 -0.21472086 1.6807275 0.737351954 0.06893363595 0.6719822884
-0.12528282 0.074324094 1.5230001 0.3439824581 0.3292064667 0.8793743253
-0.31074676 -0.069880851 1.6960001 0.6776353717 0.4832644165 0.5543156266
0.37393078 -0.46203223 1.7129999 0.05766421929 0.6857107282 0.7255864143
0.40189469 -0.25535545 1.6550001 0.3093752265 -0.04919715226 0.9496665597
0.053832155 -0.42503297 1.8330001 0.7885109186 -0.3563657105 0.5012524128
0.33433962 -0.34567311 1.6159997 0.552180469 0.1441275924 0.8211723566
-0.058114234 0.23411734 1.8940001 0.02500701323 -0.2837425172 0.9585743546
-0.21525817 0.024647884 1.5860003 0.3354780078 0.316452533 0.8873062134
0.24192843 0.10149872 1.5860001 -0.6637772918 0.4285387695 0.6129879951
-0.012580167 0.32658115 1.7220001 -0.4901822209 0.7083869576 0.5078477859
-0.025876407 0.13454603 1.4756874 0.3662492335 -0.160381943 0.9165910482
-0.005403948 0.27305835 1.8130001 0.2381860316 0.8281295896 0.5074138045
-0.2548435 -0.018508187 1.6240001 0.2573339045 0.5108139515 0.8202733397
0.32459986 0.32299292 1.8330001 0.6630442739 0.2766831219 -0.6955708265
-0.15402722 -0.0062648994 1.603909 -0.2188548595 0.8201614618 0.5286186934
0.17526525 -0.094824351 1.8230001 -0.006498075556 0.8058575988 0.5920737386
0.19847979 -0.24440379 1.794 0.7025641799 0.06349577755 0.7087819576
0.2666136 -0.45558703 1.6710001 0.1916241497 0.4962372482 0.8467755318
0.2090061 -0.2988013 1.766 0.6419327259 -0.7627379894 0.07844176143
0.17420068 -0.01255036 1.6840001 0.2721467316 0.8274213076 0.4912332594
-0.17138833 0.10831743 1.5640001 0.5814474225 -0.3523855507 0.733309865
0.066243567 -0.38615149 1.8430002 0.2803353071 -0.1914912909 0.9406079054
0.026096612 0.13711417 1.4640001 0.1009593979 0.1913257837 0.9763204455
0.20178674 -0.42599425 1.705 0.4783550501 0.1035207137 0.87204355
0.1343727 0.12465128 1.4705385 -0.3242630363 0.3064843416 0.8949418068
0.10824116 -0.41619486 1.7390001 0.5862412453 -0.3244889081 0.7423127294
-0.11243565 0.11376469 1.5159999 0.5707581639 -0.3520849049 0.741802752
0.17475562 0.23551175 1.8630002 0.01282954402 -0.03937890381 -0.9991419911
0.33987752 -0.17062125 1.557 -0.1375943422 0.8671787381 0.4786113501
0.23599064 -0.2044066 1.7760001 0.6898201704 -0.09366688877 0.7178959846
0.23733558 -0.14657427 1.785 0.5476731062 -0.4914415181 0.6771553755
0.22255148 0.27453431 1.853 -0.1280789673 0.5845384002 -0.8011932969
0.10555442 -0.16390586 1.8940001 0.4797308445 0.3624489903 0.7990550995
-0.25449157 -0.096294992 1.6850909 0.05585244671 0.6638057232 0.745816648
0.17284688 -0.32542899 1.813 0.6811539531 -0.4098639488 0.6066637039
0.066170797 -0.45541081 1.7760001 0.7511487603 0.04882182553 0.6583251357
0.26388156 -0.18664794 1.7479999 0.5221850872 -0.1756031364 0.8345575333
0.17494585 -0.060379539 1.7660002 -0.1917988807 0.839964509 0.507614851
0.22577451 -0.36589196 1.6872727 0.6138135791 -0.2923939228 0.733306706
0.22494149 -0.12585536 1.8230001 0.6371018291 -0.4795965254 0.6033973694
0.30720767 -0.043024167 1.7220001 -0.3993971646 0.7410091758 0.5398030877
0.1859594 -0.27496561 1.813 0.4709172547 0.1466638744 0.8699003458
0.29298198 -0.01171928 1.6710001 -0.2907078564 0.8098483682 0.5095434785
0.046855204 0.2439702 1.8430001 -0.7028209567 0.1303087324 0.6993299127
-0.026885614 0.16721541 1.4960001 0.2841835916 -0.4511918724 0.8459702134
0.062729001 -0.27402669 1.8830001 0.4423726797 -0.4448469877 0.7787281871
0.015446208 0.0046697841 1.6390001 -0.05770742148 0.7057319283 0.7061248422
-0.15406804 0.24117362 1.863 -0.1590902656 0.3232011199 0.9328619242
0.24103598 -0.2712284 1.7220001 0.6539065242 -0.7299100161 0.1990918368
0.33539662 -0.0044194018 1.681143 -0.5197084546 -0.6727930903 0.5265477896
0.36317143 -0.43403766 1.6840001 -0.03823874891 0.7810012698 0.6233577132
0.15396546 0.087886706 1.5074999 -0.1865033656 0.7312691212 0.6560959816
0.15954544 -0.0050250534 1.4330001 0.5621929765 0.0570723787 0.8250344396
0.083935574 0.091804534 1.4960002 0.1078377888 0.853783071 0.5093383193
0.12764004 -0.20519347 1.8430001 0.5996851325 -0.4246397614 0.67827636
0.3324846 -0.1134056 1.47 -0.2969127893 0.558793962 0.7743332982
-0.034859147 -0.0059817475 1.6470002 0.006393353455 0.7995483279 0.6005677581
-0.044368725 -0.29379293 1.9150001 0.8118961453 -0.3253859878 0.4847149551
-0.18210119 -0.11988329 1.7310001 -0.2932294309 0.7338089347 0.6128140092
0.049543064 -0.47145817 1.8230001 0.926094234 0.217016235 0.3086314797
-0.045067679 -0.2130978 1.9039999 -0.339307189 0.837116003 0.4290774465
-0.10663178 -0.14500663 1.794 -0.5398935676 0.410036087 0.7351090908
0.39609993 -0.49325651 1.705 0.9788716435 0.03969370201 0.2005859166
0.016519031 0.33488578 1.7130001 0.1038502157 0.7889112234 0.6056684256
-0.077103704 0.15826552 1.5430001 0.5350347161 -0.6929529309 0.4832743406
-0.13664296 -0.1829897 1.8230001 -0.200763464 0.821367681 0.5338999629
0.054498862 0.046114419 1.5940002 -0.1070610285 0.8182330132 0.5648298264
-0.031253166 0.050276835 1.5500001 -0.1934077442 0.8545310497 0.4820478261
0.024117976 -0.10635632 1.804 -0.2351551801 0.6794093847 0.6950575113
0.14498751 -0.44841498 1.705 0.1495102495 -0.1749663353 0.9731564522
-0.13876933 -0.30707529 1.684 -0.3626931608 0.5228129029 0.7714404464
-0.1944796 -0.035557162 1.6331668 -0.1383194923 0.7509340048 0.6457289457
0.058421068 -0.16858651 1.904 -0.06039589643 0.7265818715 0.6844202876
-0.20065059 0.053233832 1.557 0.5201455355 0.0364305377 0.853300333
-0.1940414 -0.16743895 1.7850001 -0.08869536966 0.8056494594 0.5857149959
0.31495562 -0.23487391 1.6710001 0.2915663123 -0.8995559216 0.3252509832
0.2440169 -0.4743548 1.6811429 0.1149000078 0.4166234136 0.9017887115
0.26414844 0.28600898 2.0780001 -0.02729489654 0.8880577683 0.4589209259
-0.054957353 -0.1253344 1.804 -0.04465419054 0.7917680144 0.6091874838
-0.02449845 -0.36584353 1.863 0.5788410902 -0.2750951052 0.7676364183
-0.18806867 -0.32219517 1.6630001 -0.2613984048 0.7911996841 0.5528778434
0.05462911 -0.067456998 1.7659999 0.023926422 0.7760342956 0.6302367449
0.27626047 -0.49666497 1.7220001 -0.283785373 0.7445320487 0.6042664051
0.46566397 -0.47535378 1.5790002 0.4980604351 -0.1377171278 0.8561365604
-0.094185218 0.013135624 1.5940001 -0.1900782138 0.8714159727 0.4522217512
-0.12333939 -0.11817876 1.7660002 -0.3856830001 0.6033867598 0.6979777813
0.10847698 0.078050509 1.5090001 0.07246537507 0.8486533761 0.5239620209
0.18446732 -0.041924391 1.7390001 -0.1082570031 0.8556438684 0.506116569
0.49373305 -0.45532149 1.575182 0.2171381861 -0.1323044002 0.9671331644
0.19580787 -0.38414216 1.705 0.6792783737 -0.08708408475 0.7286955714
0.21603461 -0.31686503 1.7130002 0.703797698 -0.4220091403 0.5714692473
-0.083776236 0.19685352 1.8830003 0.1804690063 0.07679530978 0.9805781245
-0.035858475 -0.082443841 1.7479999 -0.2164053023 0.7516274452 0.6230769753
0.14508834 0.010156184 1.6550001 -0.1482557803 0.8326026201 0.5336601138
-0.045050852 0.017283659 1.6159999 -0.2164307982 0.8575084209 0.4667301178
0.11409992 0.17574011 1.4960001 -0.3502803743 -0.7236393094 0.5946846008
-0.095316105 -0.091638312 1.7479999 -0.222445786 0.7863904238 0.5762880445
-0.048406027 -0.33216548 1.904 0.8411014676 0.09741920978 0.5320317745
-0.13467996 -0.015764512 1.6343335 -0.2476211637 0.8837928176 0.3969811797
-0.00146491 0.47316593 1.6710001 0.1866875142 0.1661398858 0.9682692289
