# .PCD v0.7 - Point Cloud Data file format
VERSION 0.7
FIELDS x y z normal_x normal_y normal_z
SIZE 4 4 4 4 4 4
TYPE F F F F F F
COUNT 1 1 1 1 1 1
WIDTH 512
HEIGHT 1
VIEWPOINT 0 0 0 1 0 0 0
POINTS 512
DATA ascii
-0.12473494 0.13463515 1.5266001 0.6393252611 -0.2498137653 0.7272250652
-0.4996509 -0.38454807 2.9840002 -0.176194191 0.8400261402 0.5131390095
0.46921566 0.13406162 2.3170002 -0.03935530782 0.9444777966 0.3262098134
0.49390876 -0.49529099 1.5766668 0.5987781882 -0.1387269646 0.7888089418
-0.40291688 0.038860004 2.3330002 -0.2490520775 0.8348020315 0.4909976125
-0.0039601955 -0.3468 1.9360002 0.8527253866 0.4154711962 0.3166118562
0.29599649 0.40591049 1.8329999 0.0879496336 -0.7324432731 0.6751234531
0.32034716 -0.05653185 1.4330001 -0.2285718322 0.6195359826 0.7509527802
-0.24472807 0.30655411 1.9590001 0.5086036921 0.8438175321 -0.1711557657
-0.23206419 -0.24203014 1.6240001 0.4465525448 0.1895485073 0.8744496703
0.24132267 -0.052739389 1.8230001 0.4350443482 0.6858691573 0.5833694339
-0.44639868 -0.12452173 2.6800001 -0.1167813465 0.8522657156 0.5099070668
-0.033531625 0.49131116 1.6630001 0.6590017676 -0.3478066921 0.666893661
0.2138921 0.28556278 2.1290002 -0.192048043 0.958855629 0.2090776563
0.20518257 -0.49395365 1.7336669 0.304594636 0.5354645252 0.7877181172
0.45340586 -0.20264764 1.6630001 -0.4263077676 0.01295704674 0.9044854045
-0.04367378 -0.055933084 1.748 -0.164018333 0.7659719586 0.6215987206
0.1534114 0.17551304 1.483 -0.552651763 -0.02323308587 0.833088398
0.014462369 0.26835731 1.8330001 0.3669282794 0.7505654097 0.5495591164
-0.29324764 -0.22808149 2.8590002 -0.176194191 0.8400261402 0.5131390095
-0.29012144 0.0029157933 1.6630001 0.7105557323 0.2271181643 0.6659788489
-0.27028334 0.17199849 2.1560001 -0.4194799364 0.8430258632 0.3366659582
0.30323461 0.095758304 1.6550001 -0.4391971827 0.3016893268 0.8462206721
0.23449431 -0.26418349 1.7220001 0.8156681061 -0.3081249297 0.4896371663
0.075980701 -0.14689602 1.9260001 0.01256428659 0.5450003743 0.8383416533
-0.11398245 -0.35272947 1.7570001 -0.4150462151 0.6231539249 0.6628844738
0.094851017 0.055537242 1.6373847 0.006740145385 0.834969759 0.5502545238
0.38414219 -0.39908934 1.705 -0.168204248 0.4599806964 0.8718515038
0.0048733898 0.47921669 1.853 0.9567190409 0.09607507288 -0.2746966779
0.48953417 0.23626167 2.1560001 0.1531172544 0.9003348351 0.4073724747
0.08483649 -0.494241 1.8730001 0.7524062395 0.3666200936 0.5472426414
-0.093593806 -0.18390363 1.8730001 -0.3102084994 0.7931214571 0.5241460204
-0.20332004 -0.12168396 1.7570001 -0.04341524094 0.7483661175 0.6618635058
0.085097156 0.31781182 1.9810001 0.3889532387 -0.8690525889 0.3057171702
0.18378878 0.27967858 1.8230001 0.34255898 -0.6963416338 0.6306834817
0.40717134 -0.041872229 1.6470001 0.9078652859 0.3245637715 0.2654033899
0.16888545 0.013761037 1.427 0.638482511 -0.2488336116 0.7283006907
0.12440865 -0.29567251 1.8430002 0.5192236304 -0.03221331164 0.854031086
0.33371457 0.38613045 1.9930001 -0.2729332745 0.9376255274 0.2153272182
-0.45324543 -0.077383369 2.5220001 -0.05363930389 0.8561475277 0.5139399171
-0.13234159 0.0107304 1.6320001 -0.288990587 0.8735412359 0.3916760683
-0.34792444 -0.31130081 2.9840002 -0.176194191 0.8400261402 0.5131390095
0.49480903 -0.3370291 1.594 0.526132822 -0.370041132 0.7656721473
-0.12120969 0.23079653 1.8940001 -0.007411288098 -0.1541800648 0.9880149961
-0.15470923 0.26304278 2.1160002 0.236518681 0.9437224865 0.2311855555
0.0049603553 0.20285241 1.4890001 0.3362880349 -0.7518046498 0.5671861768
0.33123273 0.20869575 2.184 -0.015635686 0.9539929628 0.2994209826
0.31551057 -0.13435617 1.7220001 0.6033456922 0.09301943332 0.7920362353
0.10594065 -0.028088648 1.7659999 -0.01138201356 0.7296708226 0.6837038398
0.34992325 -0.29042214 1.6160001 0.4538528025 0.2541339993 0.8540688157
0.0045288601 0.36721504 1.7220001 0.2380300462 0.7927095294 0.5612069964
-0.41965243 -0.23044498 2.7670002 -0.176194191 0.8400261402 0.5131390095
0.16780715 -0.16780715 1.8230001 0.6276315451 -0.2095563263 0.7497764826
0.40078658 -0.10187218 1.529 -0.1673630029 0.760904789 0.6269078851
-0.0063156663 0.085812919 1.5538182 -0.2994490862 0.8538591862 0.4257402718
0.11572745 -0.40407848 1.7659999 0.6874492168 -0.3026636243 0.6601577997
0.33789712 0.0038310331 1.748 -0.4382353127 -0.3904411495 0.809632957
0.25404781 -0.38490131 1.682182 0.5390797257 0.1556827873 0.8277414441
-0.026481176 -0.22509001 1.9700001 -0.04321086034 -0.08911051601 0.9950839877
-0.22009681 0.081671141 1.5790001 0.699986577 0.02240397036 0.7138044834
0.19281845 0.034378484 1.705 -0.2241781354 0.6261178255 0.7468069196
-0.12304017 0.28650782 2.0050001 0.1523621529 0.9883129001 0.004832838196
-0.31033736 0.35302928 1.8730001 0.2036558241 0.1970106959 0.9590156674
-0.017410601 0.018861484 1.6550001 -0.1807905287 0.8690101504 0.4605823457
0.025175236 -0.095880158 1.8330001 -0.1949785352 0.7695313096 0.6081158519
0.32271591 -0.49293414 1.7336668 0.639182508 -0.3444693387 0.6875947714
0.17250447 0.085795708 1.5535001 0.1729181707 0.903990984 0.3910238445
-0.14422219 -0.26019466 1.6960001 -0.8121619225 -0.4746961892 0.3391997814
-0.24854289 0.25828966 1.853 -0.1778847128 0.2957408428 0.938559711
0.39850813 -0.49380353 1.6470001 0.829048872 -0.4793734252 0.2878873348
-0.44986328 -0.014924373 2.4320002 -0.1540499032 0.8503088951 0.5032328963
0.034005724 -0.24794464 1.8830001 0.226498574 -0.5116049647 0.8288297653
0.053607285 -0.38499781 1.853 0.49453336 0.02682952397 0.8687444329
-0.19588239 -0.055966403 1.6800002 -0.2434892356 0.6071667075 0.756347537
0.1283326 -0.079598702 1.853 -0.05760565773 0.8449090123 0.5317991376
0.3547107 -0.18722183 1.6470002 0.00666369684 -0.7877901793 0.6159076691
-0.10797465 -0.1220583 1.7850001 -0.5089403391 0.5870248675 0.6295883656
0.073440999 0.11918196 1.5050001 0.06736370176 0.8735283613 0.4820895791
-0.026885614 -0.3574205 1.8040001 -0.1895927191 0.7552022934 0.6274743676
0.25191611 -0.18527824 1.7760003 0.7191631794 -0.02399154566 0.6944268942
0.17442977 -0.32460451 1.7659999 0.7848216295 -0.4249359965 0.451092422
0.25346935 -0.0058088908 1.3863333 -0.3464479744 0.4799567461 0.8059871793
0.44846758 -0.41572234 1.6240001 0.8820046782 -0.09179933369 0.4622127116
0.12675285 -0.49762231 1.7850001 0.87402457 0.3620348871 0.3240552545
-0.094606362 0.05758648 1.5640001 -0.1428169757 0.8521433473 0.5034431815
0.2619296 0.32299292 1.8330001 -0.08309301734 0.7811786532 0.6187531352
-0.49727601 -0.18678172 2.7670002 -0.176194191 0.8400261402 0.5131390095
0.42075792 -0.13458587 1.6160001 0.658259809 0.545538187 0.5187312365
0.23838407 0.13541344 1.6090001 -0.5110517144 -0.4304787517 0.7439853549
-0.0049812198 -0.16438024 1.8940001 -0.5224665403 0.6538271308 0.5473014116
0.20503217 -0.25589284 1.813 0.3916391134 -0.1383383125 0.9096599817
0.10670435 0.2950702 1.863 0.3319686055 -0.02658568323 0.9429157376
0.43393072 -0.28449762 1.6390001 -0.572270155 -0.2545909584 0.7795449495
0.35232505 0.022840381 1.6630001 -0.713337779 -0.4286580384 0.554437995
0.034721259 -0.0075480998 1.7220001 -0.0857886523 0.899353385 0.4287233949
0.07664039 0.18389471 1.4449998 0.1100762933 -0.09694042802 0.9891843796
-0.21628183 0.0023611553 1.6160001 0.1466607004 0.6659622788 0.7314265966
-0.1147195 -0.03475216 1.705 -0.158839941 0.6794496179 0.7163226604
-0.044098608 0.12550588 1.4882003 0.1099718362 0.5129024982 0.8513737321
-0.044415876 0.2743822 1.8940001 0.3403882682 -0.4163916111 0.8430621624
0.29409751 -0.24452902 1.6630001 0.469381094 -0.1314314753 0.8731592894
0.40821019 -0.49015573 1.7310001 -0.6018369198 -0.2089038938 0.7708122134
0.31623119 -0.10145751 1.503 -0.07142879814 0.8100554943 0.5819863081
-0.27506292 -0.075828157 1.6960001 0.249076128 0.6242616177 0.740444839
0.25783819 0.038250718 1.6160001 -0.4000385404 0.596209228 0.6960629821
0.10559011 -0.21605362 1.853 0.5922574401 -0.2921347022 0.7509250641
0.23743376 -0.071607009 1.4330001 -0.03522663563 0.8525150418 0.5215143561
0.33642173 -0.36529911 1.6470002 0.3196065426 0.3645633161 0.8746114969
0.19197598 -0.020126512 1.766 -0.2520373762 0.8475928903 0.4669726491
0.18870251 -0.41514549 1.7220001 0.7075642347 -0.1610383391 0.6880548596
-0.20801723 -0.30177146 1.6710001 0.07327762991 0.8072222471 0.5856813788
-0.045432296 -0.133083 1.8330001 -0.3142438233 0.4864171445 0.8152601719
0.17431433 0.061608922 1.6343335 0.2888576984 0.8928149939 0.3456047773
-0.043214846 0.41456953 1.6710001 0.5303596258 0.5088974237 0.6780428886
-0.17219311 0.27128538 1.853 -0.3969194889 0.04852741212 0.9165697098
0.021797441 0.31761983 1.7760001 0.1267594546 0.8626858592 0.4895969033
-0.40727478 -0.19653377 2.7010002 -0.176194191 0.8400261402 0.5131390095
0.27480343 -0.10198088 1.7760001 0.5840786099 -0.4036606252 0.7042089701
-0.033576332 -0.27532595 1.9150001 0.7402475476 -0.2397536635 0.6281335354
0.31570286 -0.42771044 1.6960001 -0.3809244931 0.7085113525 0.5940607786
-0.05007783 0.46587557 1.7310001 0.9415252805 -0.1995266378 0.2715129852
0.11509318 0.01345245 1.705 -0.07352016866 0.7662069798 0.6383742094
0.064865738 0.093849212 1.5743333 -0.0939854309 0.9052784443 0.4142917991
0.27540308 -0.31495562 1.6710001 0.4903118312 -0.02550337836 0.8711738586
0.41496819 -0.35432571 1.6470001 -0.113401942 0.7020662427 0.7030242085
0.38145518 -0.12813359 1.6800001 0.1797924787 -0.8065268397 0.563195467
0.035420842 -0.054104362 1.7760001 -0.2864278257 0.6727954149 0.682133019
0.2943759 -0.20480512 1.7220001 0.619325757 -0.7446987033 0.2487155795
0.054013405 -0.31392753 1.8529999 0.291115284 -0.3913003504 0.8730039597
0.19449256 -0.10529476 1.8530002 0.5638086796 -0.3832160234 0.7316182256
-0.16461158 0.037958901 1.5746253 -0.06451050192 0.792730689 0.606148839
0.13276854 -0.14314476 1.8830003 0.6039372683 -0.4764663875 0.6389362812
0.4000493 0.0226443 1.7220001 0.8851813674 -0.4354819059 0.1637360752
0.23135759 0.32973012 2.0780001 -0.2485298365 0.9255185723 0.2857417464
0.11240416 -0.36491394 1.8230001 0.7606551051 -0.5968387127 0.255318284
0.22175546 -0.33288348 1.7129999 0.4902603924 -0.2606763542 0.8316805959
-0.18072483 0.23018636 2.1700001 0.3604270518 0.9030705094 0.2335722744
0.022667093 0.058084425 1.6160001 -0.05355551466 0.8095326424 0.5846270323
0.49437046 -0.4248125 1.5743335 0.7380766273 -0.1172865927 0.664444685
-0.26053831 0.052677147 1.6240001 0.6311696768 0.02030372061 0.7753790021
0.19278952 0.12328038 1.4960001 0.01488959882 0.5022668242 0.8645845056
0.18431698 0.076006994 1.4450001 0.5752318501 -0.5329561234 0.6205369234
-0.14460413 -0.0852459 1.7363335 -0.4136110246 0.5480407476 0.7270331979
0.24470648 -0.44606614 1.705 0.2029308677 0.3817294836 0.9017214775
0.36427251 -0.034692623 1.6960001 0.8961951137 -0.0311293751 0.4425667524
-0.30879706 0.29544368 1.904 0.204056859 -0.36837551 0.9070062041
-0.072609037 0.035592668 1.6240001 -0.2645551562 0.9260551333 0.2691327333
0.39294302 -0.23633531 1.6240001 -0.6461302042 -0.6148776412 0.4521518052
0.29686972 0.015363876 1.6960001 -0.3936909437 0.7663418651 0.5076687336
0.073889852 -0.11001378 1.8730001 -0.2172466666 0.829957068 0.5137851834
0.38447559 -0.05771476 1.485 -0.3204853237 0.7434108257 0.5870515108
0.051472608 -0.44332859 1.8940001 0.8890283108 0.3272667229 0.3201954365
0.025773998 0.14433441 1.4699999 0.05755009875 0.6120693684 0.7887071967
0.21861085 -0.12739193 1.794 0.6705077887 -0.3572165668 0.6502427459
0.023761174 -0.20536441 1.936 0.4219698608 -0.2728250325 0.8645853996
0.0941661 -0.4457624 1.8329999 0.7816202641 0.3869956434 0.489187181
0.14470589 -0.46603271 1.733 0.188030228 0.1264246851 0.9739925265
-0.054640878 -0.016726801 1.6960001 -0.1739842445 0.7621733546 0.6235553622
0.43255785 -0.43402714 1.6840001 0.9997752309 0.008408424444 -0.01946219988
-0.16289519 -0.14708012 1.8040001 -0.08823730797 0.7800804973 0.6194260716
-0.15694526 -0.32136407 1.705 -0.2080917656 0.8235737085 0.5276591778
-0.17413056 0.12294257 1.5640001 0.6164088249 -0.3245127499 0.7174479961
0.045412213 0.026368381 1.6710001 -0.2166806459 0.7947529554 0.5669367313
0.19201103 -0.041848559 1.404 -0.007458081469 0.7038956881 0.7102642059
0.16529724 -0.049271297 1.8130001 -0.2371897548 0.8446857333 0.4798406065
-0.17438938 -0.2576381 1.6372501 -0.8564925194 -0.06232816726 0.5123823881
-0.062473021 -0.2026152 1.9260001 -0.3107663393 0.8653163314 0.3932581544
-0.056991223 -0.33116522 1.7570001 -0.05497602001 0.6786795855 0.7323739529
0.08423803 -0.067072548 1.8130001 -0.09877795726 0.8195297718 0.5644589663
-0.44376916 0.017116215 2.381 -0.2295419872 0.8396585584 0.4922234714
0.13556071 0.11562532 1.516 -0.07828937471 0.8685952425 0.4892986119
0.21325092 0.042895298 1.3980001 0.4644249976 -0.3136031032 0.8282285333
0.18455499 0.32501277 1.863 0.3682308197 -0.2778779864 0.8872372508
0.12576661 0.083844401 1.5940001 0.0406671837 0.9588304758 0.2810522318
0.32850191 0.39783397 1.8830001 -0.07823947817 -0.8506774306 0.5198331475
-0.065483056 0.17726725 1.5090001 0.4785471559 -0.5659279227 0.6713555455
-0.24584413 -0.035949662 1.655 0.1070386916 0.5993979573 0.7932621241
-0.14273536 0.079447038 1.536 0.1483388245 0.4497527182 0.8807486296
0.44555005 -0.47388393 1.6160001 0.6839139462 -0.1900615543 0.7043708563
0.49465901 -0.28648141 1.6240003 -0.04915106669 -0.4901988506 0.870223701
0.36328128 -0.47330651 1.6960001 0.3640173376 -0.3436289132 0.8656850457
0.26587373 -0.49496949 1.748 -0.2581039667 0.816131711 0.5170215964
0.15502185 -0.22534102 1.8230002 0.3525344431 -0.06584241241 0.9334796667
0.014372658 0.4970957 1.6960001 -0.120136261 -0.8056595922 0.5800688267
0.40217367 -0.30267829 1.5940001 -0.2830313742 0.384660691 0.8785951138
-0.014783757 -0.081467927 1.794 -0.3495201468 0.7658247948 0.5397666693
0.30563581 0.36539993 1.794 0.3624720573 -0.3088690639 0.8793258071
0.22698173 0.084466405 1.5860002 -0.6416149139 -0.06675250083 0.7641167641
0.011622846 -0.302194 1.8940001 0.4689230025 -0.06734517962 0.8806678653
-0.07343398 0.092126273 1.5230001 0.03227520734 0.7602988482 0.6487711668
0.33670661 -0.23562346 1.6240001 0.7347685099 -0.08060058951 0.6735122204
0.30164698 0.3561686 2.0280001 -0.63081038 0.7685543299 0.1067824662
-0.10519299 -0.30442774 1.6960001 -0.6031129956 0.4915044606 0.6282340884
0.018264472 -0.37525192 1.8940001 0.8439380527 0.06422053277 0.5325826406
-0.094985373 -0.074447997 1.7570001 -0.3358714581 0.693020463 0.6378973126
-0.1134696 -0.17526525 1.8230001 -0.3781812489 0.6461509466 0.6629237533
0.0014578967 0.44465849 1.6630001 -0.4262925088 0.1959635168 0.8831042051
-0.02934554 0.057293672 1.5940001 -0.3419637084 0.8653746247 0.3663161993
-0.22626065 -0.092606694 1.7130002 -0.1262535155 0.7952284813 0.5930191875
-0.15528047 -0.019043829 1.6710001 -0.5187519789 0.7268972397 0.4500187039
0.06696973 -0.20644391 1.8940001 0.5094184875 -0.5232475996 0.6831579804
0.24257438 -0.24381995 1.7760003 0.8258863091 -0.3928061724 0.4044936299
0.0034181233 0.38722456 1.6710001 0.2945406139 0.7016429305 0.6488012075
0.10622569 0.1439662 1.47 -0.1341955513 0.6482554078 0.749504149
0.2823568 -0.078289837 1.4640001 0.1084612608 0.8529720306 0.5105632544
0.17356053 -0.3033314 1.8230002 0.4929555357 -0.4793860614 0.7260742784
-0.074311972 0.24253465 1.863 0.1349817514 -0.5407100916 0.8303086758
0.16396822 -0.37544128 1.748 0.3946490288 -0.2904815078 0.8717067242
0.085472375 -0.26621649 1.863 0.5474980474 -0.2561611235 0.7966350317
0.20401436 -0.20401436 1.804 0.6001033783 0.02400675602 0.7995621562
0.33602282 -0.18287967 1.6960001 0.6598479748 -0.736862421 0.1470863819
-0.099050179 0.27364713 1.9150001 0.06935916096 -0.8339654207 0.5474404097
0.40572745 -0.17470826 1.6470002 0.4009010494 0.149831593 0.9037858248
0.45664749 -0.36456242 1.6160001 0.8067585826 -0.0631403327 0.5874979496
0.14502609 0.039552569 1.6710001 -0.1730201989 0.8553287983 0.4883406758
-0.077064261 -0.36487567 1.794 -0.1841233075 0.7875272632 0.588132143
-0.064482346 -0.095937148 1.794 -0.297509104 0.5858748555 0.753816247
0.0013228899 0.10979987 1.5090001 -0.1765028685 0.8150061369 0.5519164205
-0.27207527 0.33884218 1.904 -0.946857214 -0.02591682039 0.3206084669
0.43153039 -0.072167203 1.6800001 -0.225751698 0.53991431 0.8108814359
0.40821019 -0.43552536 1.7310001 -0.1437878311 -0.1096601263 0.9835139513
0.37407893 -0.33492699 1.6240003 0.1596316844 0.4454061091 0.8809830546
0.3045536 0.045241177 1.655 -0.1762841195 0.5946801901 0.7843974829
0.21415389 0.33561432 1.8230001 -0.2134149373 0.8549427986 0.4727862775
0.20177974 -0.28341582 1.7570001 0.7125239968 -0.6578140259 0.244111225
-0.093265928 0.0034181233 1.6710001 -0.0354606472 0.7618657351 0.6467636228
0.12728149 -0.35615462 1.7760001 0.6498349905 -0.5519371629 0.5225704312
0.27430201 -0.14557928 1.748 0.7111914158 -0.1232968569 0.6921016574
0.14482972 -0.012196186 1.7390002 -0.1311478466 0.833319366 0.5370093584
0.46403018 -0.24560694 1.6320001 0.09332317859 -0.2591248751 0.9613246322
0.33691967 -0.44058725 1.7390001 0.1413236856 0.2726228535 0.9516850114
0.27490073 -0.04210411 1.4125 -0.1951840967 0.656919241 0.728258431
-0.26436147 0.3004854 1.8730001 -0.01016574912 -0.5538314581 0.8325667381
0.035698742 -0.13698354 1.8940001 -0.3647991121 0.6515917778 0.6650938392
-0.02181848 0.16171344 1.4640001 0.3117520213 0.1004138291 0.9448426962
0.266945 0.086846106 1.6240001 -0.7493467331 0.1152356192 0.6520738006
0.20506987 -0.0048251734 1.376 0.1866657585 0.1780240983 0.9661590457
-0.014190428 -0.019021211 1.7220001 -0.4558734596 0.6860579848 0.5670130849
-0.011125777 0.30357477 1.8130001 0.3388192058 0.885058701 0.319175005
0.40103292 -0.12265268 1.572 -0.1431564391 0.9076526165 0.3945541382
0.42408222 -0.38395756 1.6832001 0.7279430628 0.3985723555 0.5578879714
0.31647003 -0.31436986 1.6470001 0.5057190657 0.1250130981 0.8535923958
0.4128679 -0.019237572 1.6880001 -0.473908335 -0.4589567482 0.7515115738
-0.00163323 -0.12902518 1.863 -0.5442410111 0.6613854766 0.5161113739
0.33968991 -0.11517384 1.6630001 0.869584322 0.2822520733 0.4051627815
-0.017470652 0.32739687 1.733 -0.2484405041 0.6587305665 0.7101770043
0.11262011 -0.45411333 1.7760001 0.8329354525 0.316542387 0.4538936615
-0.2624366 0.0061693955 1.6240003 0.441558063 0.4942890108 0.7488023043
-0.15481934 -0.11921088 1.766 -0.2003939748 0.6796534657 0.7056298256
0.10536517 0.098282047 1.5528001 0.1552525014 0.9420252442 0.2974645197
0.31261232 -0.096542038 1.748 0.5315147042 -0.2834565639 0.7982133627
-0.29444692 -0.042482391 1.6710001 0.5774769783 0.4750139117 0.6639895439
0.12794511 0.17861645 1.4450001 -0.45766747 0.07081609964 0.8862987757
-0.21481577 0.036845423 1.5860001 0.3304935694 0.4672641754 0.8200232983
0.10686085 -0.49493444 1.8330001 0.8909239173 0.1788180321 0.4174670279
-0.19533499 -0.023720721 1.6470002 -0.1876585633 0.692946732 0.69613868
0.35648862 -0.11081856 1.5230001 -0.3053682148 0.7072502375 0.6376106739
0.26689327 0.37237206 1.8230001 0.2270324826 -0.1612730324 0.9604411721
0.26556134 -0.23566699 1.705 0.7429932952 -0.5469676852 0.3857295811
0.29498112 -0.37467945 1.6630001 0.2157474309 0.1805447638 0.9596127272
-0.044333909 -0.17240965 1.8730001 -0.2785372436 0.7831711769 0.5559315681
-0.16415916 -0.29362041 1.6630001 -0.4759696424 0.6396664977 0.6035558581
-0.1353626 0.27237594 1.8830001 -0.2852919698 -0.2333622277 0.9295970201
0.20776561 -0.37517387 1.705 0.4607958496 -0.1237345934 0.8788384199
-0.085944727 0.13366185 1.5036001 0.5472994447 0.214752987 0.8089156151
-0.15585817 -0.055032745 1.705 -0.6084371805 0.5303256512 0.5903887749
0.093774408 -0.40450147 1.8130001 0.9174050689 -0.2388762534 0.3182861209
0.34576333 -0.077077553 1.4735001 -0.4313739836 0.7149819136 0.5501976013
0.085503452 -0.0048380047 1.7331818 -0.07645118982 0.8066530228 0.5860598087
0.11060114 -0.18323472 1.8830001 0.7044103742 -0.4702542424 0.5316643715
0.09584333 -0.3362639 1.853 0.3161741197 -0.09668449312 0.9437616467
0.27749744 0.39900517 1.8730001 0.2025494128 -0.7860231996 0.5840730071
-0.021118023 0.28753 1.853 0.6753718853 0.5205189586 0.5224297047
0.22494149 -0.093892097 1.8230001 0.6602725983 -0.482396543 0.5756159425
0.048298195 0.21146777 1.4890001 0.3031365573 -0.7689120173 0.5629232526
-0.0057705706 -0.24406119 1.9360001 0.7285292745 -0.459141463 0.5083642602
0.31520444 -0.20493728 1.655 0.7637840509 -0.1822235733 0.6192160845
0.15477376 -0.42447853 1.748 0.1501084417 -0.05895713344 0.9869101048
0.14145631 -0.33377331 1.8130001 0.7306169271 -0.6199185848 0.2861815095
0.25896734 -0.27672508 1.6880001 0.8098587394 -0.190650776 0.5547802448
0.34463519 -0.39912879 1.6800001 -0.1874102056 0.7788213491 0.5985939503
-0.18266402 -0.10114454 1.7220001 -0.177691713 0.7447155118 0.6432918906
0.035010558 0.10368513 1.536 -0.2397074848 0.8956993222 0.3745170236
0.28531817 -0.46586871 1.7220001 -0.4623954594 0.6491184831 0.6040162444
0.16342556 -0.11060114 1.8830001 0.5692642927 -0.0397150293 0.821194768
-0.12576661 0.040524792 1.5940001 -0.1835234016 0.8001635671 0.5710144043
-0.19542478 0.27101362 2.1030002 0.2407845259 0.9379544258 0.2495282441
0.3627857 0.049065281 1.6960001 -0.8205139637 -0.2257390022 0.5251654387
-0.21395314 0.28254879 1.863 0.350741744 -0.2787394226 0.8940271735
0.010358693 0.0073990668 1.6880001 -0.1100578979 0.8818227649 0.4585584104
0.14425862 0.28690156 1.8430002 0.4694446623 0.1839122623 0.8635959625
0.4861742 -0.38421202 1.5860001 0.6499989629 -0.03646902367 0.7590594888
-0.02194998 -0.18741906 1.9260001 -0.3574297428 0.8821524978 0.3066772819
0.064039275 0.068553053 1.609 -0.1089586914 0.7858964801 0.6086828113
0.42305395 -0.45481905 1.6470002 0.7866046429 -0.2817823291 0.5494104028
0.45468283 -0.32505956 1.6320002 0.4804881811 0.07522138208 0.8737693429
0.38380641 -0.37062222 1.6710001 -0.2145033181 0.7803344131 0.5874236822
0.27535114 -0.42476317 1.6829091 0.2024521232 0.4830687642 0.8518554568
0.056856215 -0.4337317 1.853 0.7930458784 -0.02329473011 0.6087163091
-0.0046209102 -0.043128494 1.7570001 -0.366728723 0.7421495914 0.5610027313
0.036422495 -0.16426304 1.9260004 -0.233561784 0.6638983488 0.7104138732
0.12493902 -0.056934237 1.804 -0.1220894679 0.8342728019 0.5376644731
-0.045044009 0.069613472 1.557 -0.1741465926 0.8577142954 0.4837346375
0.12440864 -0.25366437 1.8430002 0.5656818151 -0.04567226395 0.8233578205
-0.17472552 0.0080279289 1.6160001 -0.1774380058 0.8015607595 0.5709781647
0.13604167 -0.18645141 1.8430001 0.5390626192 -0.2941145003 0.7892453074
0.20519347 -0.059780777 1.8430001 0.00662001688 0.6558701992 0.7548446655
0.22345181 -0.4128679 1.6880001 0.4135563374 0.1019262224 0.9047553539
0.20533724 0.0045630499 1.7350001 -0.215314582 0.8382128477 0.5010378361
0.18525544 -0.45555353 1.7321432 0.5239809155 0.2078836411 0.8259711862
-0.087898985 -0.14223653 1.8230001 -0.4412629008 0.6312343478 0.6378324628
-0.18526365 0.074825175 1.557 0.4125632644 0.1522383243 0.8981174827
0.2338596 -0.03815604 1.404 -0.02858587913 0.6909347177 0.7223517895
-0.19408698 -0.22667092 1.6160001 0.07175700366 -0.0509541072 0.9961197972
0.20338175 -0.035109449 1.8040001 -0.08297871053 0.8512491584 0.5181596875
0.17327842 0.076857366 1.5940001 0.2468794733 0.9308065772 0.269536078
0.036747675 0.18246019 1.4580001 0.2125810981 -0.1322771013 0.9681487679
-0.20086625 0.24907415 1.8330001 -0.03929514065 -0.9991354346 -0.0135757206
0.15336056 -0.035031602 1.7760001 -0.1915740371 0.7905763984 0.5816255808
0.15258208 -0.26542923 1.8130001 0.1977432966 0.1458503008 0.9693427086
0.012715174 0.47205082 1.8130001 -0.6890575886 0.7008844018 0.1842841804
0.36341864 0.0030034599 1.7130001 0.7936713696 -0.3567450643 0.4927663505
0.37450498 -0.26550725 1.594 0.2971062064 -0.01889263839 0.954657495
0.37759525 -0.06560535 1.6630001 0.5491904616 0.06816691905 0.8329124451
0.030198537 0.30198538 1.8130001 -0.06043553725 0.7151489258 0.6963544488
0.38738585 -0.21037808 1.6550001 -0.3099945784 -0.3936498165 0.8654150367
0.065024123 -0.027867477 1.7659999 0.007293716539 0.7757461667 0.631002903
0.38158235 -0.0043526501 1.6550001 -0.5123928785 -0.2108068615 0.832474649
0.4745194 -0.45555457 1.594 0.6732785702 -0.1190042347 0.7297492027
-0.29234818 0.27274939 1.863 0.3814765215 -0.2220827192 0.8973042369
0.32294556 -0.27433529 1.6470002 0.6399923563 -0.004600733053 0.7683675289
0.085453086 0.032716319 1.6710002 -0.08927667141 0.8193461895 0.5663051605
-0.022063946 -0.31059247 1.9360001 0.8025133014 0.205163449 0.5602502823
0.26449451 -0.22465178 1.7479999 0.6441833973 -0.5682309866 0.5119973421
-0.073971376 -0.040759739 1.7220001 -0.1493119895 0.762001574 0.6301265955
0.13386244 0.064777777 1.6348002 -0.2103303671 0.745365262 0.6326071024
0.026271947 -0.33496732 1.8730001 0.6597157717 -0.09167136997 0.7459031343
0.16472057 -0.13677981 1.853 0.46755144 -0.5657992363 0.679166317
-0.1469907 0.24008481 1.863 -0.1969247758 -0.006215390284 0.9803988934
-0.031076079 0.37735239 1.6880001 0.1696112305 0.6487954259 0.7418197393
0.15634736 0.01883343 1.7050002 -0.1207630783 0.829061389 0.545961082
0.42401648 -0.24425466 1.647 -0.06742054224 -0.2245506197 0.9721273184
-0.23417521 -0.064803205 1.6800002 -0.01942090876 0.6134287119 0.7895112634
-0.055267535 0.012855997 1.6630001 -0.1210445538 0.6435631514 0.7557609677
-0.042482391 0.4541221 1.6710001 0.7710711956 -0.202513203 0.6036866903
0.34539786 -0.14521167 1.6873332 0.8828450441 0.1170832813 0.4548363984
0.19506241 -0.34593296 1.7383336 0.5566856861 -0.3520506918 0.7524369359
0.36844763 -0.43570989 1.705 0.2572999001 0.029368788 0.965885222
-0.01446237 -0.10766431 1.8330001 -0.3976948857 0.6510446668 0.6465134025
0.064706765 0.14415732 1.472 0.0893143937 0.7074077129 0.7011399269
-0.23823854 -0.27289143 1.6470001 0.2948442101 0.6240969896 0.7235812545
-0.10434174 -0.32431218 1.7321428 -0.348292172 0.7606062293 0.5478783846
0.16706303 -0.073998906 1.8430001 -0.1728689224 0.7227689028 0.6691198945
0.19377729 -0.13464527 1.8230001 0.6504383087 -0.4332995415 0.6238441467
0.44038033 -0.38551331 1.647 0.8249769211 -0.0622224845 0.5617308021
-0.034452461 0.096610002 1.516 -0.104132019 0.7986690998 0.5926923156
0.3258754 -0.00750865 1.7130001 -0.6935096383 -0.3938095272 0.6032896638
0.21280469 0.30052572 1.853 0.1389283389 -0.001124705421 0.9903017879
0.21113114 -0.1660582 1.8040001 0.7304149866 -0.09064634144 0.67696172
0.3201946 -0.17147863 1.7310001 0.6433007717 -0.09083219618 0.7602063417
0.053738438 0.046841525 1.6390002 -0.1731052548 0.8503336906 0.4969579577
0.25504863 -0.3450706 1.6833334 0.7395754457 -0.1381186098 0.6587498784
0.065020174 0.011210375 1.705 -0.1856715083 0.7827308178 0.5940189958
0.15168245 0.1375846 1.4890001 -0.1878680736 0.6690547466 0.7190767527
0.025256453 0.085036471 1.5755002 -0.2191167474 0.8732139468 0.4352990091
0.017326441 0.036096748 1.6470001 -0.2197566926 0.7838969827 0.5807000399
0.11060114 -0.10729962 1.8830001 -0.01926058345 0.7245762348 0.6889255047
0.27043763 -0.068004787 1.8040001 0.5738329887 -0.6015831828 0.5557097197
0.23577161 -0.48205534 1.7129999 0.003648686456 0.4322984219 0.901723206
0.24513353 0.34634995 1.8040001 -0.01379637141 0.1420787275 0.9897592068
-0.14297909 -0.34222877 1.7350001 -0.1880376041 0.7366992831 0.6495506167
0.019818803 0.32472348 1.7390001 0.4564419985 0.7182681561 0.5251204967
-0.0042934753 -0.19578245 1.9590001 0.3227971494 0.6212875247 0.7140054703
0.0016691734 -0.26206023 1.904 0.7095572352 -0.4783640206 0.5173938274
0.29444692 -0.28272763 1.6710001 0.5933285356 -0.05864689872 0.8028211594
0.42485288 -0.2052501 1.6372501 0.1475713998 0.1564448029 0.9766000509
0.045403793 -0.27732247 1.8630002 0.372793138 -0.1153701991 0.9207143784
-0.097466923 0.16422509 1.5230001 0.6030646563 -0.4160454571 0.6806020737
0.067859262 -0.088863313 1.8430001 -0.2689111233 0.7683697343 0.5807707906
0.37850022 -0.14500581 1.6470002 0.3400843143 -0.04067620263 0.9395148158
0.29352936 0.345736 1.8230001 0.1493588984 0.2364616543 0.9600926042
0.034297828 -0.11704815 1.863 -0.2990622222 0.8172118664 0.4926728606
0.28155464 -0.34219718 1.6470001 0.3012527525 -0.06872638315 0.9510644078
0.4162918 -0.32574409 1.6240003 -0.4817739427 0.4725479186 0.7379649878
-0.1077248 0.09021952 1.536 0.1604938209 0.6239238977 0.7648272514
-0.301799 0.31362137 1.8730001 0.02685797773 0.09017534554 0.9955636859
0.24363883 -0.30492219 1.705 0.6016105413 -0.141347006 0.7861843109
0.20776561 -0.44692028 1.705 0.3857454062 0.1935811937 0.9020680785
0.10515792 -0.15356395 1.904 0.804539144 -0.0756488964 0.5890619755
0.25378448 -0.13545552 1.7760001 0.5719649196 -0.1451144069 0.8073400259
0.17410249 0.099676996 1.516 0.1532338709 0.7531625628 0.6397386789
0.16464852 -0.49547008 1.7390002 0.1453041881 0.2224887908 0.9640463591
0.023722602 -0.073427089 1.804 -0.106839709 0.8019347191 0.5877805948
0.27430198 -0.185422 1.748 0.5082986355 0.180294618 0.8420963883
0.33839419 0.057131488 1.6710001 -0.6089603901 0.1163019687 0.7846280336
-0.066738874 0.052834947 1.5860001 -0.2309104651 0.833951056 0.5012045503
-0.034982428 0.18487172 1.4879093 0.4479403794 -0.5983892083 0.664288938
-0.032906558 0.041490879 1.6320001 -0.1224883348 0.7466554642 0.6538365483
0.37589014 -0.083728679 1.508 -0.3405143023 0.6790789366 0.6503089666
0.083940834 -0.18299101 1.9150001 0.5539759398 -0.6582038999 0.5097826123
0.41225776 -0.26775503 1.6160001 -0.7419243455 -0.4374532104 0.5081170797
-0.49529737 -0.36045203 2.9580002 -0.176194191 0.8400261402 0.5131390095
0.28742465 -0.21593352 1.6848001 0.6458733678 -0.6225656271 0.4418818951
0.19030154 -0.29095688 1.794 0.6684730053 -0.7213693261 0.1810251325
0.024342842 -0.23419493 1.9150001 0.497089833 -0.6953852773 0.5189807415
0.26271245 0.068472929 1.5940001 -0.6596315503 0.2695365548 0.7015954852
0.2448232 -0.096985638 1.794 0.6720588207 -0.5035906434 0.5428935289
0.22003895 -0.30198449 1.7310001 0.6651121974 -0.3771075904 0.6445274353
-0.06010865 -0.21467374 1.9590001 -0.4134238958 0.6630720496 0.6240321398
0.19666351 0.041162129 1.7390001 -0.5631284714 0.5577584505 0.6097473502
-0.09914311 0.018679136 1.6390001 -0.3152766824 0.8661147356 0.3878735304
-0.15485439 0.11580416 1.5360001 0.364787966 -0.1777342409 0.9139695168
-0.11533076 -0.057665378 1.7310001 -0.197983548 0.7183277011 0.6669391394
-0.12810203 -0.15024313 1.8040001 -0.2286697626 0.6446720362 0.7294573784
0.4313831 -0.16657367 1.6240001 0.4721639156 0.3681957424 0.8009326458
0.085631929 -0.37645733 1.8430002 0.3766450882 -0.4204103053 0.8254657388
0.36460534 -0.21675406 1.6159999 -0.1089392081 -0.590323329 0.7997816205
0.0027819555 -0.33550382 1.9039999 0.80909127 0.3815236092 0.4470022619
0.2033779 0.3133119 2.0900002 -0.1520466805 0.9645907283 0.2155146301
0.034098826 0.12328037 1.4960002 -0.09542994946 0.8311955333 0.547729075
0.39495501 -0.46403456 1.7130002 -0.4339872897 0.1189235523 0.8930354118
-0.040144321 0.48470551 1.6960001 0.878487289 -0.2854949832 0.3830831945
-0.066416264 -0.19094677 1.8940001 -0.2766271532 0.8210065961 0.499425292
-0.012455679 0.31761983 1.7760001 -0.2283640951 0.7713230252 0.5940628052
0.46813121 -0.41502976 1.5940002 0.6310465336 -0.1484672874 0.7614051104
0.095455848 -0.42407432 1.7850002 0.9318860173 -0.03049400449 0.3614671826
-0.13476019 0.054256648 1.564 -0.05091153458 0.7372041345 0.6737492681
-0.12230727 -0.097536176 1.766 -0.4348290265 0.4571312666 0.775857389
0.074332744 0.21374694 1.467 0.291444242 -0.5599790812 0.7755538225
0.42198613 -0.40997228 1.7130001 0.4577750564 0.6947775483 0.5547307134
-0.20503174 -0.27242282 1.6355001 0.1791828871 0.702477932 0.6887803078
-0.0052191252 0.13565221 1.4878752 -0.04479271919 0.5493596792 0.8343845606
-0.097395033 0.25751907 1.8830001 0.1684124023 -0.4548440874 0.874502182
-0.16651143 -0.25489435 1.6710001 -0.6175275445 -0.6897819042 0.377969116
0.080028273 -0.4622041 1.863 0.6032275558 0.4665088058 0.646905005
0.2258004 0.34601068 1.853 0.05971040204 0.6714926958 0.7386015654
0.18063278 0.044846758 1.4210001 0.5391583443 -0.2149099559 0.8143230677
-0.12537912 -0.0029157931 1.6630001 -0.2999999225 0.8066026568 0.5093055964
0.46505696 -0.4938435 1.594 0.5746719837 -0.2730409205 0.7714925408
0.17854807 0.0024458999 1.3950001 0.8548675776 -0.2517545223 0.4536750615
0.02772546 -0.02772546 1.7570001 -0.3638287187 0.7137520909 0.5984869599
-0.045151841 -0.075512558 1.7760001 -0.04053718224 0.8552333117 0.5166553259
0.27722305 0.064974152 1.6470001 -0.6600759029 -0.04190842062 0.7500290275
0.082400531 -0.41361833 1.8430001 0.7700666189 -0.02491942048 0.6374766231
-0.019921374 0.3570523 1.748 -0.3584259748 0.5585739613 0.7480146885
0.27845827 0.026242141 1.6630001 -0.4590778649 0.7307771444 0.5051853657
-0.025991414 -0.15107509 1.853 -0.4439866245 0.6587734222 0.6073660254
0.086066753 -0.046632528 1.7850001 -0.05169880018 0.8148688674 0.5773352385
0.41163972 -0.47463083 1.6710001 0.9392613173 -0.312658906 0.1415366679
-0.02574875 -0.0026636641 1.6880001 -0.3098903298 0.7531777024 0.5802510977
0.083741836 -0.23480552 1.8730003 0.6314826608 -0.2088495046 0.7467339039
-0.27749744 0.35631332 1.8730001 -0.2132404447 0.1909106374 0.9581657648
0.10491946 0.12328037 1.4960002 0.01866515726 0.8487250805 0.5285047889
0.054754343 -0.19369049 1.9260004 0.3614348769 -0.4764072597 0.8014991879
-0.26646459 0.31568414 1.936 0.4289859831 0.888577342 -0.1624847949
0.074958503 0.10817365 1.5359999 0.0891205892 0.9294551611 0.358009249
0.089345485 -0.29727679 1.853 0.405931592 -0.01571152918 0.9137684107
-0.21721959 0.24988419 1.863 0.4782878757 0.1365343332 0.8675246835
0.21751414 -0.26758936 1.7850001 0.7213660479 -0.6823863983 0.1182365492
-0.1790504 -0.14168335 1.7760001 -0.2094353735 0.8368599415 0.5057689548
0.33548647 0.023727335 1.7130001 -0.286098212 0.8084326982 0.5143777132
0.18223709 0.048110589 1.6630001 -0.06036102399 0.8853200078 0.4610477984
-0.13405986 -0.29324248 1.6857144 -0.293940872 0.5066890121 0.8104720712
0.47747344 -0.31384885 1.6090001 0.5135301948 -0.1846051812 0.8379783034
0.22534102 0.30205286 1.8230001 -0.0700468123 0.006810436025 0.9975204468
0.28594834 -0.11523749 1.7479999 0.6732046604 -0.2836063802 0.6829077005
0.14473854 0.098746859 1.5430001 0.02579811774 0.8519260287 0.5230263472
0.064978532 -0.34601068 1.8530002 0.1168952063 -0.06448899955 0.9910482764
-0.054391377 0.15587677 1.4841999 0.3424652815 -0.05872150511 0.9376935959
0.24579877 0.10449954 1.6036667 -0.6586456299 -0.2218735069 0.7189979553
0.11228696 -0.47603348 1.8040003 0.9243183136 0.2811164856 0.2580876052
0.094505258 0.080937669 1.601 -0.02278841101 0.8338423371 0.5515320301
0.13807938 -0.15594848 1.853 0.7026952505 -0.4193674922 0.5747610927
0.23095345 0.01076985 1.365 -0.006615013815 -0.04620402679 0.9989101291
-0.076349773 -0.16569525 1.853 -0.3406575024 0.7673603296 0.5432408452
0.045975909 -0.40885717 1.8730001 0.6483393312 0.5061094165 0.5687788129
0.3475098 -0.022762651 1.7310001 0.188959524 -0.6853758693 0.7032455206
0.17381757 0.29402784 1.853 0.3248694539 -0.4243087769 0.8452348113
0.34480354 -0.32477343 1.6320001 0.5851787329 0.1128460839 0.8030140996
0.33673832 -0.49475119 1.705 0.5131283402 -0.3575631976 0.7802870274
-0.42621779 -0.13733685 2.7010002 -0.176194191 0.8400261402 0.5131390095
-0.24355178 0.025750488 1.6075455 0.6001688242 0.2570880353 0.7574319243
0.2347275 -0.21438445 1.785 0.5265955329 0.1561783552 0.8356467485
0.33788925 -0.46403456 1.7130001 0.4206662476 -0.2539407909 0.8709500432
0.1077327 -0.37667125 1.794 0.8727305532 -0.3743319809 0.3133957982
0.31392941 -0.076749712 1.4640001 -0.1622097641 0.8280947804 0.5366069078
0.0046445802 0.34215072 1.766 -0.04791681096 0.7002237439 0.712313652
0.33750966 -0.11597247 1.6960001 0.8631801605 0.1381586641 0.4856255651
0.31337854 -0.46661985 1.748 0.111624524 0.3487235904 0.9305545688
0.13248712 -0.33283353 1.8430001 0.5568740964 -0.1914985925 0.8082199693
0.4346846 -0.41524282 1.655 0.9274057746 -0.07390257716 0.3666836321
0.17514093 -0.0045720115 1.7372223 -0.04823914543 0.8039414287 0.5927488208
0.39161575 -0.49549857 1.705 -0.4552727342 -0.5884063244 0.6682100892
0.12500115 -0.43411082 1.748 0.711311996 0.01101798192 0.7027900219
-0.094908558 0.033908591 1.6021429 -0.0850481689 0.8654489517 0.4937255979
-0.0046610772 0.47423133 1.6710002 -0.3010769188 -0.3258601427 0.8961963654
-0.24169016 0.062036615 1.6010001 0.668502748 -0.009066396393 0.7436543703
-0.15279926 0.024890561 1.6017272 -0.1748721451 0.7634236813 0.6217749119
-0.02576085 -0.25417373 1.9590001 0.7410970926 -0.2787914276 0.6107785106
-0.10289349 0.23028544 1.863 0.3164064586 -0.3114873469 0.8960260153
0.10056068 0.20239428 1.452 0.04007072374 -0.2604585588 0.9646531343
-0.23513821 -0.014342486 1.6355001 0.1541906595 0.6638815999 0.731769383
-0.31713766 0.33042091 1.8940001 0.6040799618 0.274220556 0.7482582927
-0.084749125 -0.023789227 1.6960001 -0.06779103726 0.7575868964 0.6492044926
0.3408927 -0.42198613 1.7130001 -0.2531196177 0.6590152383 0.7082580328
0.13092579 -0.48519555 1.7570001 0.7575513124 0.3970885873 0.5181087852
0.11517383 0.039363209 1.6630001 0.003789445153 0.9127116799 0.4085865915
-0.085537679 -0.34486005 1.7659999 -0.2885602415 0.5045787692 0.8137156963
0.37891462 0.0452886 1.7220001 -0.2746451199 0.717410624 0.6402280927
0.27501208 -0.061814643 1.439 0.02379088476 0.8042322993 0.5938386917
0.13555808 0.30868047 1.863 0.2984637022 -0.09361068904 0.9498191476
0.36183277 -0.16553482 1.6710001 0.7866026759 -0.09012624621 0.6108465791
