# .PCD v0.7 - Point Cloud Data file format
VERSION 0.7
FIELDS x y z normal_x normal_y normal_z
SIZE 4 4 4 4 4 4
TYPE F F F F F F
COUNT 1 1 1 1 1 1
WIDTH 512
HEIGHT 1
VIEWPOINT 0 0 0 1 0 0 0
POINTS 512
DATA ascii
0.21558592 -0.26435399 1.7659999 0.7080723643 -0.1079687923 0.6978368163
-0.43306106 -0.35267246 2.9580002 0.8106176853 0.4779915512 0.3382647932
-0.46300712 0.23936594 1.9930001 -0.1285730153 0.9606227875 0.2463184893
0.49959216 -0.043254733 2.467 -0.8817925453 -0.02916517667 0.4707348943
0.31781182 0.33865196 1.9810001 0.3875726759 -0.8938926458 -0.2252629101
-0.15150905 0.11163824 1.516 0.4884926677 -0.3513061404 0.7987232804
-0.2437484 -0.33225229 1.6550001 -0.099787049 -0.7322875857 -0.6736449003
-0.49470037 -0.022960776 2.381 -0.2305313945 0.8107584715 0.5380761623
0.22089516 -0.055122465 1.3870001 0.3782304227 -0.367996484 -0.8494235277
0.0014798134 0.46318159 1.6880001 -0.5267199874 0.1105367169 0.8428213
0.46131381 -0.49584967 1.5755001 0.5878532529 -0.3478588164 0.7303580046
-0.12490776 0.19534032 1.883 0.1660719365 0.4086694717 0.8974460363
-0.096713871 -0.2745983 1.9700001 0.1034919545 0.2828606665 0.9535613656
-0.035445169 -0.07432051 1.7390002 -0.2111847103 0.7309396267 0.6489440203
-0.48541471 -0.18706225 2.7010002 -0.1316199303 0.8194765449 0.5577942133
0.35952362 0.10608894 2.2410002 0.2240538299 -0.7790920138 -0.5855044723
0.031102963 -0.4950116 1.8040003 0.875880599 0.2862226069 0.3884710371
0.2449766 0.063048989 1.647 -0.6660664678 -0.2494591326 0.7029407024
-0.32198301 -0.067861892 1.6470001 -0.1573143303 0.5457835793 0.8230264187
0.12694746 0.23621871 1.8330001 -0.2964976728 0.08172849566 -0.9515301585
-0.21703812 0.23558839 2.1160002 0.2272095233 0.9630963802 0.1442955732
0.091124237 0.15016247 1.4640001 -0.3767978847 -0.4269249141 0.8220453262
0.37400705 -0.15300289 1.6160001 0.9605610967 -0.2301248759 -0.156092599
0.27163428 -0.49926078 1.7310001 -0.1356676072 0.7328820229 0.6666920185
-0.30704725 0.32174632 1.863 -0.1689791083 0.1760353893 0.9697719216
0.075382456 -0.16637275 1.8940001 0.1632775068 0.3278934658 0.9304978848
0.0017471967 0.32323137 1.9930001 -0.01021562703 -0.6989341974 0.7151130438
-0.19136231 -0.19452532 1.8040001 -0.2907862365 0.8091044426 0.5106793046
0.20344014 0.17731021 2.1290002 0.2812790871 -0.8427585959 -0.4589553177
0.3257792 -0.34550774 1.6069999 0.4335252643 0.1610309482 0.8866368532
-0.25021556 -0.35131276 2.8830001 0.4244921803 0.874661684 0.2340369523
0.15557064 -0.06315244 1.7570001 -0.180678457 0.8514796495 0.4922781289
0.0055896267 0.040524792 1.5940001 -0.1237501577 0.8239105344 0.5530437231
-0.035426978 0.29458302 1.7570001 0.0969504118 0.6921147108 0.7152466774
-0.41434073 0.064277202 2.256 -0.1559711844 0.7725740671 0.6154692173
0.024366949 -0.32489267 1.8529999 0.2714763284 -0.2230806649 0.9362348318
-0.16087885 -0.018508187 1.6240001 -0.3650468588 0.862749517 0.349862963
0.13452451 -0.40506819 1.705 0.3251547515 -0.05151547119 0.9442566037
0.26529509 0.33081982 1.8230001 0.1153295785 0.4580878913 -0.8813935518
0.31302923 -0.054450642 1.732143 0.7580776811 -0.03230744973 0.6513635516
0.2595731 -0.15152745 1.503 -0.02240571938 -0.8833338618 -0.4682085812
0.1709763 0.28496051 1.9700001 0.1084005535 -0.9927554131 0.05182638764
-0.0081223166 0.40611583 1.853 0.9825428128 0.1007046923 -0.1564230025
0.14358337 0.043935612 1.5500001 0.02324607596 0.80080688 0.5984713435
-0.063695967 -0.17802207 1.863 -0.2902851701 0.7107800841 0.6407231688
0.45639968 -0.37341791 1.6320001 -0.2698509395 -0.5411267877 0.7964686155
-0.20321424 0.26193336 1.9700001 -0.2798259854 -0.8565651774 0.4335822165
-0.24611714 0.20935939 1.8230001 -0.7974724174 -0.3862339258 0.4635310769
-0.26162452 0.051217496 1.5790001 0.4525394142 0.350255698 0.820078671
-0.21299712 -0.10836696 1.705 -0.3789178729 0.641626358 0.6668859124
-0.036975771 0.15474313 1.47 0.2696039975 -0.5896863937 0.7613039017
-0.34873798 0.27004841 2.0400002 -0.02691298723 0.9601692557 0.2781199813
0.28511721 -0.17488185 1.705 0.6691904068 0.1521692723 0.7273436189
0.36997524 -0.46428269 1.6550001 0.8798956275 -0.001439583255 0.4751648903
0.094763279 -0.0058315867 1.6630001 0.01619742811 0.8782826066 0.4778674245
0.1741998 -0.16461082 1.8230002 0.5580396652 -0.4259430468 0.7121546268
-0.041870914 -0.42445612 1.8730001 0.7620126605 0.3302980363 0.5569918156
0.22546296 -0.33519804 1.6710002 0.5009875894 -0.2245606482 0.8358133435
0.13126506 -0.34002393 1.8040001 0.5877416134 -0.5595828295 0.5843174458
0.14666662 0.022210641 1.434 -0.6164708138 0.5526337624 -0.5608561635
0.22407074 0.27872214 2.0780001 0.4931795895 -0.8229074478 -0.282129854
0.39217421 -0.25221613 1.6630001 0.2239474803 -0.1941871047 0.9550596476
-0.026389711 0.22565897 1.8430001 0.4337655306 0.7709124088 0.4664134681
0.00168846 -0.24144977 1.9260001 0.1917607188 -0.6824060678 0.7053720951
0.055045903 -0.1022281 1.794 0.07511401176 0.8155789375 0.5737498403
0.26567209 -0.43171713 1.6470001 0.2409470975 0.481518507 0.8426650763
-0.11485998 -0.12487502 1.7850001 -0.3131802082 0.7814487815 0.539681375
-0.051026382 0.37759525 1.6630001 0.545630455 0.4691042006 0.6944268346
0.28449762 -0.25432363 1.6390001 0.1858019829 -0.4562079906 0.8702596426
-0.074944653 -0.32718128 1.8830001 0.4953949451 -0.1568196416 0.8543953896
0.097219266 -0.24666375 1.8330001 0.6150258183 -0.219005987 0.7574824095
-0.084678814 0.038146045 1.5430001 -0.06535219401 0.7932441235 0.6053865552
-0.34120303 -0.30329162 2.8830001 0.8112562895 0.4738111794 0.342587471
-0.054263037 -0.018281132 1.6550001 -0.06823648512 0.8541967273 0.515452981
-0.26834592 -0.26278433 1.5860001 -0.4348816574 -0.5653370023 -0.7009080052
0.025084937 0.08449138 1.5060002 -0.01763920672 0.8168616891 0.5765638351
-0.28331938 -0.14398198 1.766 0.217575863 0.8674354553 0.4474555254
0.17488185 -0.49512491 1.705 0.3232615888 0.2563786507 0.9109181762
0.05760752 -0.39702481 1.7760001 0.671056211 -0.5369271636 0.5112658739
-0.12406149 -0.070251681 1.705 -0.08848876506 0.8041681051 0.5877783298
-0.13283253 -0.23245694 1.8940001 -0.1958769709 0.8816524148 0.4293265045
-0.17528951 0.031253166 1.5500001 0.03522221372 0.6844448447 0.7282133102
0.36011711 -0.49496952 1.748 0.08645629138 0.895858407 0.4358474612
0.24463998 -0.02343856 1.6710001 -0.2197418958 0.7875465751 0.5757463574
0.085157938 -0.4948597 1.7326003 0.4576101005 -0.2138815373 0.8630455732
0.20522387 0.27236834 1.853 -0.6318620443 0.102006413 -0.7683391571
-0.24579629 -0.033292294 1.6160001 -0.103953667 0.657818079 0.7459685206
0.3442705 -0.16203605 1.5359999 0.06398368627 -0.9304956794 -0.3606714308
0.046043411 -0.044533785 1.7220001 -0.1248982176 0.8441451192 0.5213630795
0.49613023 0.00630674 2.398 -0.8660076857 -0.05148283392 0.4973732829
0.36329767 -0.089359507 1.6710001 0.4067836106 0.1346366853 0.9035485983
0.20648569 -0.1140105 1.4450001 0.1568393856 -0.8505279422 -0.5019996166
-0.026885614 -0.13126506 1.8040001 -0.1600516737 0.7684437037 0.6195787191
0.24132881 -0.14791121 1.7760001 0.6540519595 -0.3194269538 0.6856985092
-0.063735418 0.42338529 1.7310001 0.9542503953 -0.07571806014 0.289262861
-0.46921566 0.01828113 2.3170002 -0.19290106 0.7821311355 0.59250319
0.1738392 -0.32356682 1.7310001 0.6757743955 -0.5172422528 0.5251566172
-0.18760404 -0.30044857 1.6090001 -0.1079899669 -0.8777083755 -0.4668684304
-0.29313716 0.24889004 2.1030002 0.03088998422 0.9560666084 0.2915174365
0.4164272 -0.42900383 1.5940001 0.5043056011 -0.2119109333 0.8371198177
0.2068162 0.0209611 1.5940001 -0.8164131641 0.06614745408 0.5736671686
0.11309877 -0.11794586 1.8430001 -0.1044568345 0.7817510366 0.6147797108
0.030698236 -0.42331254 1.8430001 0.5021206141 -0.3629486859 0.7849478126
0.081405513 0.040702756 1.6010001 0.1455182284 0.8834893703 0.44527632
0.10510682 0.081125222 1.4960002 -0.006751194596 0.8137846589 0.5811273456
-0.065267831 0.087458894 1.4890001 0.04306909442 0.617423296 0.7854511738
0.38230777 -0.33442861 1.6550001 0.1829050928 -0.3404134214 0.9223147035
-0.1881417 -0.28505594 1.6822859 0.778083384 0.1750283688 -0.6032838225
-0.30296415 0.24743435 1.863 0.3911105692 0.1749643087 0.9035596251
0.14696138 -0.055611726 1.3920001 -0.8193504214 -0.190860346 -0.5405896902
0.3373304 -0.20384911 1.6550001 0.5439760089 0.378282994 0.7489939928
-0.28547069 -0.11597247 1.6960001 -0.02304470539 0.8080030084 0.5887275338
0.2658062 -0.24478197 1.7129999 0.6202835441 -0.76626724 0.1675793529
0.2017736 -0.41827521 1.6800001 0.5391020179 0.1622506827 0.8264645934
0.021868451 -0.0072894832 1.6630001 -0.1659476757 0.8461489081 0.5064517856
0.29126197 -0.10559899 1.4562857 0.3645874858 -0.6843188405 -0.6314932108
0.0049259895 -0.15598968 1.8730001 -0.3398374021 0.8008745909 0.4930622578
0.27912715 0.30046171 2.0280001 0.3875065148 -0.8856416345 -0.2558858693
0.31672806 -0.035353996 1.6630001 0.7013912797 0.3119111657 -0.64090693
0.076485366 0.24486323 1.883 -0.5018954873 0.5544882417 -0.6638100147
0.15507217 -0.23433825 1.794 0.2711910605 -0.08803015202 0.9584915638
0.31520724 -0.44753483 1.6960001 -0.2660597265 0.7537503242 0.600893259
-0.066313259 -0.22496144 1.9150001 -0.2321334034 0.8353934884 0.4982286692
0.31408688 0.13681084 2.1980002 0.2240538299 -0.7790920138 -0.5855044723
-0.20155267 0.10831743 1.5640001 0.5967897773 -0.509090066 0.6202170849
-0.12437638 -0.19251022 1.8329999 -0.3243728578 0.5441462994 0.7737486959
-0.095235713 0.00734598 1.6054444 -0.2294145823 0.8812233806 0.4132968187
0.18442805 -0.096209429 1.8230002 0.1758913845 0.6917891502 0.7003498673
0.14797695 -0.0179366 1.705 -0.3544505835 0.6882132888 0.6330302358
-0.015919741 -0.48506474 1.853 0.6491200924 0.2521083355 0.7176938653
-0.014947167 0.33705863 1.705 -0.2939591408 0.7219001055 0.6264569163
-0.31179175 0.038440078 1.6240001 0.5946930051 0.04282049835 0.8028117418
-0.34415743 0.29715055 1.9150001 -0.508801043 -0.6043590903 0.6130836606
-0.17405428 -0.14478852 1.7570002 -0.5141484141 0.5067409873 0.6920006871
0.043239247 -0.25341481 1.8730001 0.6831997633 -0.5122640133 0.5204072595
0.14025263 0.0099168532 1.6160001 0.3929975033 0.8494545221 0.3521078825
0.35490358 -0.40088305 1.6390001 -0.183716923 0.664219141 0.7246109843
0.028235681 0.1732644 1.4640001 0.1813103855 -0.4489922225 0.8749471307
0.39323759 -0.1516984 1.6800001 0.6487829089 0.2370249182 -0.723118186
0.073597386 -0.36413032 1.8329999 0.6525771618 -0.3073671758 0.6925809979
0.0053473162 0.25824392 1.794 -0.1661486179 0.7731262445 0.6121032834
-0.089953013 -0.36320651 1.9360001 0.9350171685 0.1598905772 0.3165089786
-0.034666032 -0.27567747 1.8830003 0.374255091 -0.6171823144 0.6921120286
0.402264 -0.49501181 1.603 0.6935249567 -0.07528863102 0.7164878249
-0.20556343 -0.059773762 1.6630001 -0.3522544801 0.7600378394 0.546131134
0.22526476 -0.20381097 1.748 0.5229871273 -0.08955287933 0.8476229906
-0.30598032 -0.32140791 2.9330001 0.2911121249 0.8372697234 0.4628532231
0.23459601 -0.47655603 1.6800002 0.003324856516 0.6578338742 0.7531557083
-0.025991414 -0.3663165 1.853 0.34725824 -0.2055105567 0.914973855
0.1088031 0.27287126 1.9700001 -0.06897503138 -0.8931509852 0.4444364905
0.11370508 -0.36379492 1.7479999 0.7067560554 -0.5621271729 0.4295450449
-0.024815176 0.056747884 1.5360001 -0.2791778743 0.8285474777 0.4853543341
0.11686873 -0.18795937 1.8430001 0.6763036251 -0.5478211045 0.4924484789
0.33930945 -0.29021788 1.6470001 -0.6758160591 -0.5971240997 0.4321058691
-0.076378703 0.23245694 1.8940001 -0.002885212423 0.4435827732 0.8962287903
0.068987526 0.058165956 1.5430001 0.1492855251 0.9234810472 0.3534071743
0.19720791 0.20486648 2.184 0.0560420081 -0.812872231 -0.5797396302
0.27495572 -0.36490673 1.636 0.4520022571 0.09176635742 0.8872839808
0.17396575 -0.29574174 1.804 0.7128722668 0.0380223766 0.7002624273
0.094574623 -0.06746529 1.7570002 0.1197797358 0.810782373 0.57296139
0.21573745 -0.28549087 1.705 0.715343833 -0.5500100255 0.4310130179
-0.29043615 -0.29615903 1.6320001 -0.4668118358 -0.6355953813 -0.6149026155
0.29063341 0.3546713 1.8730001 -0.1607123911 0.8444651961 -0.5109306574
-0.23139441 -0.17009787 1.748 -0.1879156828 0.6339865327 0.7501658201
-0.11475728 -0.025617328 1.6630001 -0.06468155235 0.6914854646 0.7194887996
0.085629635 -0.43449375 1.737154 0.4956989288 -0.170451805 0.8516036272
0.082400531 -0.30375099 1.8430001 0.5026355386 -0.2657988369 0.8226229548
0.4758012 -0.43088779 1.6010001 -0.2624163032 -0.04235522449 0.9640247226
0.16288993 0.093461439 1.5230001 -0.7093551755 0.3391064107 0.6179175377
-0.098822251 0.13571589 1.503 0.5328202248 -0.4199284911 0.734685421
-0.016355094 -0.037170667 1.6960001 -0.1242383495 0.8723431826 0.4728448391
-0.20557956 -0.0037739247 1.5860002 -0.03373590112 0.7882015109 0.6144918799
-0.26577547 -0.075050242 1.655 -0.09283478558 0.5792017579 0.8098808527
0.15211131 0.050703771 1.483 -0.9080050588 0.2665709853 -0.3232131898
0.0059038242 0.11781979 1.4640001 -0.06150750443 0.4995817542 0.8640803695
-0.044923905 0.43507826 1.6710001 0.514569521 -0.4106954634 0.7526934743
0.054933686 -0.13087143 1.8430001 -0.2222978175 0.8269706964 0.5164330602
0.01393374 -0.075861469 1.7659999 -0.1210449114 0.7561024427 0.6431618929
-0.30411685 -0.01652809 1.6160001 0.3093422651 0.4906243682 0.8146134615
0.31711906 -0.13455921 1.4960001 0.3155011833 -0.6303995252 -0.70926404
-0.13290265 0.059806198 1.516 -0.08267042786 0.619099617 0.7809489369
-0.22593015 0.24117362 1.863 -0.3734022081 0.3607280552 0.8546614051
0.26422822 -0.30465657 1.6470002 0.6421977282 -0.09515910596 0.7606095076
-0.069226861 -0.29210359 1.9260001 0.7588214874 -0.4283443093 0.4906231761
0.40432429 -0.37769046 1.6159999 0.3189883828 -0.2284310609 0.9198182821
0.01510935 -0.18970628 1.9150001 0.02792727016 0.7796185017 0.6256317496
0.17871657 -0.36486727 1.6960001 0.6641905904 -0.09342996031 0.741701901
-0.23995507 -0.27731332 1.6390001 0.4266386032 -0.6928483248 -0.5813267231
-0.085048944 -0.094243415 1.748 -0.1667720377 0.7760924697 0.6081673503
0.12550172 -0.46446365 1.7130002 0.404135704 -0.2405278236 0.8825081587
-0.17381757 -0.20955577 1.853 -0.06394578516 0.772454977 0.6318419576
0.25662312 -0.077236086 1.4210001 0.3652035296 -0.5244008303 -0.7691749334
-0.083903566 -0.1478301 1.8230001 -0.3118392527 0.7311826348 0.6067357659
0.25570613 0.2780804 1.8230001 -0.2247610539 -0.2842920721 -0.9320195913
0.045671701 -0.45555589 1.7659999 0.7520517111 -0.118444778 0.6483741999
-0.16237357 -0.097120643 1.7310001 -0.4694188237 0.6647055745 0.5812163949
-0.075828157 -0.049065281 1.6960001 -0.1469521374 0.7656721473 0.6262197495
0.063575856 0.10481426 1.4700001 0.1253642738 0.687433362 0.7153455019
-0.045882981 0.029198259 1.5860001 -0.2017255574 0.9144595861 0.3508140445
0.12267372 -0.092791662 1.794 -0.1757429838 0.8560172915 0.4861571491
0.37021983 -0.49660009 1.6960001 0.9649557471 0.2450463623 0.09387572855
0.32843441 -0.25184879 1.6800001 -0.2255543172 -0.3166414201 0.9213378429
-0.0073639997 0.39912879 1.6800001 -0.6893440485 -0.04358926043 0.7231215239
0.17354845 -0.01312896 1.4040002 -0.6345136762 0.4326058328 -0.6405034065
0.094608985 -0.032737713 1.7130001 0.08517269045 0.8271193504 0.555535078
0.13301225 -0.025335666 1.4450001 -0.6969061494 0.1510587484 -0.7010728121
0.12556234 -0.284502 1.813 0.3030400872 0.005998655222 0.9529589415
0.18621714 -0.19560625 1.7850001 0.4145381749 -0.2686876953 0.8694624901
0.13130976 0.12220909 1.483 -0.8044264913 0.1596193016 0.5722059608
-0.06807667 -0.38023314 1.8940001 0.8528203964 0.1497584134 0.500269711
-0.00170687 0.34308088 1.9470001 -0.1791685969 -0.5618641376 0.8075935245
0.25288677 0.014368567 1.6390001 -0.781170845 0.1384853125 0.6087642908
-0.14671418 -0.16423897 1.7939999 -0.3785080612 0.5873076916 0.7154029012
0.30578053 -0.40227625 1.6240003 0.2058102787 0.4570676684 0.8652926087
0.18474633 -0.085122742 1.4109091 -0.1197930723 -0.6717960835 -0.7309854031
-0.015660772 0.0071185338 1.6240003 -0.1637037098 0.7711526155 0.6152436137
0.24610488 -0.26514873 1.6710001 0.6680610776 -0.4280790091 0.6086401343
0.038440078 0.018508187 1.6240001 -0.1086242944 0.8533523083 0.5098927617
0.22778869 -0.38448408 1.6550001 0.6034254432 -0.1795498133 0.7769424319
-0.18363799 0.075063705 1.5290002 0.4359145463 -0.02406464331 0.8996662498
-0.13520558 0.015173129 1.5737501 -0.1773107797 0.8060725927 0.5646306872
0.073233053 -0.21444476 1.8730001 0.6670935154 -0.5324969888 0.5209925771
0.26880968 -0.045051903 1.7130001 -0.2174053192 0.8950459957 0.3893938661
0.2126613 -0.13446295 1.8130001 0.6827794313 -0.3392499387 0.6470870972
-0.0083020329 0.38023314 1.8940001 0.9589182138 -0.2825940847 -0.02482783608
0.17189242 -0.44692028 1.705 0.3769798875 0.04555904493 0.9251002669
-0.21829174 -0.27112669 1.5860001 0.05647563189 -0.6549785733 -0.7535340786
-0.12276606 -0.25401828 1.9360002 -0.3126196861 0.781950295 0.5392798185
-0.25472006 0.004727337 1.5860002 0.1971768886 0.41266945 0.8892835379
0.024235448 -0.37645733 1.8430002 0.1212902814 -0.1605291665 0.9795504212
-0.026271947 -0.32347333 1.8730001 0.2627300918 -0.270085603 0.926297307
0.17219311 0.23879611 1.853 0.1965239644 0.4969303906 -0.8452446461
0.31651697 -0.48660088 1.7220001 -0.2152743191 0.3088857234 0.9264159799
-0.22467406 0.027572393 1.557 0.2706853151 0.4014840126 0.8749514818
-0.034868538 -0.1975884 1.8940001 -0.3376235366 0.773553133 0.5363076329
-0.020890091 -0.412981 1.8330001 0.2125891298 0.1844771057 0.9595697522
0.21901938 -0.12983784 1.4960001 -0.2126182318 -0.8839066625 -0.416536361
-0.096877806 -0.21181756 1.8730001 -0.3234380186 0.7358443737 0.5949124694
0.1640708 -0.12508367 1.853 -0.06906792521 0.3136048913 0.9470383525
0.30600575 -0.30458906 1.6160001 0.4489484131 -0.08272778243 0.8897198439
0.4220624 -0.33621919 1.6320001 0.2404731512 -0.3551479578 0.9033507705
-0.067288548 -0.12049345 1.7850001 -0.1370993406 0.8264514208 0.5460602641
-0.33168331 0.28406546 1.8730001 0.5057942867 0.0538161248 0.860973835
0.30342749 -0.21673392 1.705 0.6554701924 0.1408663243 0.7419673204
-0.25437096 -0.13662061 1.7220001 -0.06876865774 0.7815548778 0.6200345755
-0.016969636 0.087458886 1.489 -0.1268479973 0.7533083558 0.6453186274
-0.16495359 -0.048602398 1.6800001 -0.2993922532 0.7455357313 0.5954332352
-0.26514345 0.24907415 1.8330001 0.3175204098 0.423833549 0.8482605219
0.094364405 -0.37273937 1.794 0.5358636975 -0.802187562 0.2633347511
0.025423186 0.062191468 1.5535001 -0.1296012551 0.9377330542 0.3222735822
0.40399486 -0.29252806 1.6470001 0.4233520031 0.08230730891 0.9022186995
0.011493976 -0.2873494 1.8730001 0.2182620168 -0.495229423 0.840898037
-0.052315082 0.36321616 1.705 0.4852637053 0.4428741634 0.7539108992
0.015448912 -0.12732033 1.8230001 -0.1634393334 0.7994192243 0.5781146288
0.2139107 0.062286288 1.6074002 -0.8091599345 -0.2859014273 0.5133425593
0.29221228 -0.16487207 1.5290002 0.02581567317 -0.8926085234 -0.4500927925
-0.30212036 0.30212036 1.904 0.653239727 -0.5913732648 0.4728165865
-0.32042605 0.24801338 2.0650001 0.03088998422 0.9560666084 0.2915174365
0.28425041 -0.0073639997 1.6800001 0.06217173487 0.9351258278 0.3488185108
0.27506292 -0.47281086 1.6960001 -0.3488480151 0.7506588101 0.5610850453
0.11001378 -0.14942169 1.8730001 0.4465298951 0.5136799812 0.7326281071
0.39058656 -0.42492384 1.6320001 0.7121766806 0.04010547698 0.7008537054
-0.10883904 0.22255148 1.853 -0.2963960767 0.4871048331 0.8215097189
-0.17622752 0.22074817 2.1160002 0.2522330284 0.9676163197 -0.009855383076
0.35174146 -0.037740499 1.7220001 0.76123631 -0.566388607 0.3157898486
0.041729335 -0.22200005 1.904 0.6706939936 -0.57180655 0.4724477232
0.25611991 -0.16464852 1.7390002 0.7882954478 -0.1073783413 0.6058549285
-0.10936329 0.093551733 1.503 0.3350278139 0.3701080084 0.8664735556
0.026885614 -0.44756639 1.8040001 0.8987548947 -0.3181408942 0.3017052412
0.34425384 -0.42775372 1.6710001 0.17077218 0.7644682527 0.6216310263
-0.22385508 0.072343409 1.557 0.5216424465 -0.1774943769 0.8344967961
-0.067250676 -0.25364089 1.9470001 0.7221856117 -0.2938594818 0.6261745095
0.25180146 -0.1214271 1.4580001 0.09801842272 -0.8268504143 -0.5538147092
0.32435352 -0.085198849 1.705 0.8242387176 0.003775516758 0.5662299395
-0.034575909 -0.15478374 1.8430001 -0.2262035161 0.7827071548 0.5798287988
-0.36033192 0.29002324 2.0050001 -0.09708082676 0.9581144452 0.2694291472
0.14542672 -0.35509619 1.7220001 0.5405962467 -0.4183312356 0.7299004793
0.27163428 -0.20486385 1.7310001 0.7000910044 0.1035138816 0.7065107822
0.44711491 -0.45660695 1.5790002 0.2774253786 -0.317181319 0.9068799019
-0.15270568 0.22495353 1.8730001 0.2725017369 0.583253324 0.7652178407
-0.20936115 -0.30465659 1.647 0.1091384217 0.1321087331 -0.9852086306
0.1042041 0.044560961 1.5640001 0.2653754354 0.88640517 0.3792910576
-0.03617302 0.26264757 1.794 0.4816329181 0.6532146931 0.5842433572
0.18581475 0.26232672 2.0780001 0.1233165115 -0.9881967306 -0.09088572115
0.13631333 -0.0043736901 1.6630001 -0.02385466173 0.880533278 0.4733836353
0.35743803 -0.13037699 1.6710001 0.2266502976 0.2470014393 0.9421358109
-0.20562391 -0.028270748 1.6240003 -0.2210241556 0.8012735248 0.5559757948
0.11920475 -0.21615794 1.8130001 0.5664550662 -0.2693580687 0.7788291574
-0.25672132 -0.30044857 1.6090001 -0.09836791456 -0.8306635618 -0.5480161905
0.3644689 -0.35450295 1.6240002 -0.7503048182 -0.1433767378 0.6453570724
0.052370314 -0.49751797 1.7570001 0.7941691875 -0.05807773024 0.6049150825
0.10444256 0.0214608 1.6320001 0.01473141275 0.8477122784 0.5302517414
0.37685007 -0.21802437 1.6470001 -8.844608965e-05 0.1239296794 0.9922909737
0.35535157 -0.45794261 1.6960001 0.5274653435 0.6794188619 0.510068953
-0.25712338 0.23513661 2.0900002 0.1047668979 0.95592314 0.2742896378
0.14016761 -0.33424583 1.7570001 0.6185228229 -0.776394546 0.1210003495
-0.0064978539 -0.44510299 1.8529999 0.2560403347 0.218520686 0.9416432977
0.18733139 -0.2988013 1.766 0.7055068612 -0.7042093277 0.07968227565
-0.34599215 0.32441163 1.8730001 0.4181143939 0.1697061807 0.8924013376
-0.014635424 -0.10244796 1.7760003 -0.3576957583 0.6939591765 0.624879539
-0.055524558 0.012813359 1.6240001 -0.1346969306 0.7589643002 0.6370478272
0.054526739 -0.068081409 1.7570002 0.001348017249 0.7993901968 0.6008107066
0.064989932 0.08247219 1.5052501 0.09731283039 0.8585125208 0.5034744143
0.39294302 -0.26196203 1.6240001 0.7042848468 0.1618409753 0.6912238002
-0.3107608 -0.0898408 1.6800001 0.01845054328 0.7259773016 0.6874711514
-0.20469879 -0.13610789 1.7332859 -0.2730919719 0.7058460712 0.6536069512
-0.29205799 0.015371474 1.5940002 0.5007584691 0.1779454947 0.8470988274
0.14543286 -0.10707694 1.8230001 -0.1295651048 0.8062574267 0.5772017241
-0.0642239 0.12508121 1.4770001 0.3812639713 0.03003324196 0.9239782691
-0.12719031 -0.10267169 1.748 -0.1987286955 0.7765499353 0.5978938937
0.22826296 -0.49707264 1.7130001 -0.1389399469 0.8412376642 0.5225082636
0.47720474 -0.47018701 1.6010001 -0.5613023639 -0.1021246314 0.821285665
0.043565657 0.045882981 1.5860001 -0.04442195967 0.8592290282 0.5096588135
-0.24408315 -0.09599977 1.6800002 -0.2085358649 0.6359263062 0.7430413961
0.054342497 -0.014363945 1.6836364 -0.06752105802 0.8444060087 0.5314314365
0.20298252 -0.32375562 1.7050002 0.6800813675 -0.2797060609 0.6776826978
0.04584682 0.1349979 1.4527498 0.2365861386 0.2845987678 0.9289943576
-0.035255149 -0.2535013 1.9150001 0.3978665173 -0.6535561681 0.6438684464
0.20296673 0.24771531 1.8230001 -0.6884793043 0.2686078548 -0.6736809611
0.17338714 -0.4058156 1.705 0.5805643797 -0.1300363392 0.8037633896
0.3149384 -0.18709235 1.6826668 0.6827337742 0.1930185854 0.704711616
0.0048392792 -0.055166006 1.7346367 -0.1381712407 0.8386259079 0.5268921256
0.10942641 0.25315064 1.863 -0.6265435219 0.4118972719 -0.6616523862
0.093774401 -0.3377468 1.8130001 0.4677982926 -0.3058269024 0.8292374015
0.044333912 -0.15270568 1.8730001 -0.03002218343 0.8336811066 0.5514294505
-0.28471327 -0.045783039 1.6320001 0.184713617 0.6492568254 0.7377983928
0.30468547 -0.42510882 1.6550001 -0.3298640549 0.7012776136 0.6319805384
0.19247656 -0.2347275 1.7850001 0.6016417146 -0.005325305741 0.7987483144
0.183504 -0.048600018 1.3809999 -0.08362127095 -0.2896360457 -0.953477025
0.44492328 -0.40422049 1.601 0.04719047248 -0.5858789682 0.8090234399
0.086581357 -0.39766127 1.748 0.6691333652 -0.4068160653 0.6219012737
0.1529543 -0.19497716 1.804 0.3532239497 -0.4448238015 0.8230216503
-0.26839411 0.22593015 1.863 0.272239089 0.7001223564 0.6600868106
-0.18510991 -0.076571569 1.6960001 -0.4082702398 0.6590047479 0.6316867471
-0.042555738 0.32372287 1.7336668 0.1393654197 0.8566051126 0.496794641
-0.014578966 -0.01749476 1.6630001 -0.2405131906 0.812318027 0.5313124061
0.12951085 0.070763655 1.5230001 -0.1126893833 0.8423335552 0.527043879
0.12541482 -0.055216219 1.7355716 0.0128065832 0.7900046706 0.6129670739
0.23409262 -0.43566424 1.6710001 0.2641840875 0.3234840333 0.9086059928
0.052450091 -0.40211734 1.8130001 0.7901376486 -0.5956056714 0.1446940303
0.16513769 -0.081782475 1.794 -0.2220629305 0.8554775119 0.4678101242
0.23858789 -0.24468601 1.7390001 0.6443949938 -0.2925137877 0.7065343261
-0.024904786 -0.21485655 1.9260004 -0.2663086057 0.5146149993 0.8150160313
-0.20396177 -0.17282255 1.7760001 -0.1595734358 0.7659696937 0.6227573156
0.3935532 -0.46514532 1.6240003 0.7912111282 -0.2334596664 0.5652269721
-0.12433705 -0.0071185329 1.6240002 -0.2378542572 0.883194387 0.4042190909
-0.084867842 0.063983142 1.5159999 -0.07067926973 0.7660317421 0.6389051676
0.29591182 -0.23585051 1.6710001 -0.07674691081 -0.9533812404 0.2918460369
-0.051982824 -0.3947446 1.853 0.7614015937 -0.07701791078 0.6436892152
0.16540858 -0.037937749 1.7310001 -0.2462989241 0.697609961 0.6728128791
0.33631477 -0.065870106 1.6550001 0.5169040561 0.308093071 -0.7986794114
0.34183687 -0.04883384 1.6880001 0.8436491489 0.3943096399 -0.3643844128
0.25450948 0.3464613 1.8730001 -0.3479744196 0.8093715906 -0.4731082916
0.20373733 -0.4560771 1.6800002 0.521027565 0.1820267439 0.8339043856
0.012855439 -0.47324091 1.8330001 0.8605117202 0.02609491162 0.5087618828
0.0064277202 0.23943257 1.8330001 0.01417675335 0.805695951 0.5921596885
0.093774401 -0.10839685 1.8130001 -0.1589099914 0.8568933606 0.4903889596
-0.0046945498 0.29262695 1.7850001 -0.08801713586 0.6411450505 0.762355566
0.083542824 0.17622314 1.4890001 -0.3030947745 -0.63797158 0.7079023719
0.04386051 -0.28428105 1.853 0.5071101785 -0.1933656037 0.83991009
0.12930658 0.029198259 1.5860001 0.3039387167 0.9008401036 0.3100135624
0.1445151 -0.15636355 1.8430002 0.5549448133 -0.5470402837 0.626724124
0.37176362 -0.28428984 1.6630001 0.4440820217 -0.03486573696 0.8953074813
-0.1358494 0.035363354 1.5430001 -0.08799607307 0.8154215217 0.5721402168
0.21579465 -0.17624788 1.7760003 0.5493702888 -0.3572919071 0.7553375363
-0.092334919 -0.32736924 1.9150001 0.9824725389 0.02957176231 0.1840466708
-0.046796903 0.23398453 1.8730001 0.4970631003 0.743671298 0.4470808804
0.37708265 -0.4952293 1.6355002 0.8765553832 -0.1332242638 0.4624953866
0.096877806 -0.18718761 1.8730001 0.5766028762 -0.4870488346 0.6559821367
0.28192198 -0.3357563 1.6160001 0.3282857239 -0.3113705814 0.8917829394
-0.11602595 -0.16052906 1.8130001 -0.4051049948 0.6294576526 0.6630784869
-0.2958878 0.28340864 1.8730001 0.5012836456 -0.2972046137 0.8126401901
-0.33064622 -0.033209011 1.6470001 0.302000761 0.3473502398 0.8877744079
-0.18048374 -0.038984489 1.6470001 -0.2901507616 0.8518092036 0.4361578524
-0.0076138498 0.30454874 1.737 -0.05360711738 0.7740319371 0.6308730841
0.22414613 -0.086939037 1.41 0.05228180811 -0.7120597959 -0.7001696229
0.014469258 -0.25309342 1.8940001 0.3343256414 -0.689322412 0.6426982284
-0.057986241 0.41333783 1.6960001 0.9358881116 -0.1409878284 0.3228557706
0.2225728 0.0033219822 1.6240001 -0.5388293266 0.5072746873 0.6725587845
-0.15502185 -0.21255572 1.8230001 -0.115337126 0.6456906796 0.7548382878
-0.1654568 0.0013903934 1.5860001 -0.08917238563 0.8465673923 0.5247588754
-0.084529072 -0.01002936 1.6343335 -0.02340442501 0.8366863132 0.5471821427
-0.095493704 0.024464894 1.5745456 -0.1905378848 0.8705729246 0.4536496997
-0.028780965 0.11512386 1.4700001 0.1922896355 0.4675000906 0.8628258109
0.3436898 -0.31648928 1.6159999 -0.6300100684 -0.5703322887 0.5270752907
0.33481184 -0.38329425 1.6160001 0.06323055923 0.4822630286 0.8737415075
-0.015091073 0.36489785 1.683077 0.0743201226 0.6041173935 0.7934221625
0.06569609 0.0057754801 1.6470001 0.04737916589 0.8742598295 0.483140707
0.07310085 -0.26478752 1.853 0.4601478577 -0.1426089406 0.8763142228
0.11690525 -0.0221972 1.6880001 -0.005669700913 0.8457336426 0.5335751772
0.025870785 -0.03241282 1.6960001 -0.1821744293 0.774074614 0.6063175201
0.088153213 -0.088153221 1.7850002 -0.1211985424 0.7585192919 0.6402807236
-0.044978261 0.066144496 1.5089999 -0.06074953824 0.7996916175 0.5973297358
-0.17314517 0.11633191 1.5430001 0.5733503103 -0.54512465 0.6116440892
-0.067932896 -0.07095214 1.7220001 -0.2395102829 0.7562254071 0.6088989377
0.10524207 0.1090924 1.4640001 -0.2474627495 0.3898845911 0.8869905472
-0.09486448 -0.17703421 1.8430002 -0.4804449975 0.5553841591 0.6787644029
-0.054185886 -0.35631326 1.8730003 0.6635527611 -0.0225047525 0.7477909327
0.23576051 0.30463436 1.8130001 -0.09405564517 -0.3418003023 -0.9350540638
-0.02783329 0.47023609 1.6710001 0.1505294442 -0.2280595601 0.9619405866
0.43424413 -0.48490012 1.594 0.344909966 0.007820857689 0.9386031628
0.12328563 -0.4976714 1.7220001 0.3163811266 0.3900107145 0.8647512197
0.24772681 -0.34549743 1.6470002 0.6492493153 -0.1064839438 0.7530846596
-0.031919435 0.40769821 1.6550001 0.09109589458 -0.01794814691 0.9956803918
-0.056453828 -0.30053359 1.8940001 0.7543081045 -0.3433959782 0.5595520139
-0.23535083 -0.054867059 1.647 -0.2117072493 0.682277143 0.6997699142
-0.27319652 -0.34337541 2.8590002 0.42121768 0.8760018349 0.234939307
0.35836819 -0.25390458 1.6550001 0.506998837 0.1988480389 0.8386963606
-0.052122507 -0.096504055 1.7660002 -0.1912007779 0.7516567111 0.6312325001
-0.0034836228 0.15199597 1.464 0.1083653197 -0.4830332398 0.8688704371
0.31794018 -0.26365066 1.6470001 -0.5214337707 -0.678876102 0.5169467926
0.17490815 0.021088216 1.4150001 -0.4645758271 0.3850694299 -0.7974275947
-0.0059414622 0.051645022 1.5640001 -0.2572581172 0.8880900741 0.3809387386
0.014154661 -0.1022281 1.794 -0.1428427249 0.7549853921 0.6399945021
0.28492498 -0.44753003 1.6710001 -0.2600436807 0.7315743566 0.6302191615
0.11153698 -0.4135215 1.7310001 0.5588872433 -0.1348215044 0.8182103634
0.19808839 -0.28927457 1.7336668 0.6628476381 -0.7291929722 0.1700311303
0.28592125 -0.13611011 1.4829999 0.1433878094 -0.7723041773 -0.6188588142
0.17995775 -0.2660245 1.7850001 0.5849226117 0.01427663025 0.8109634519
0.17312238 0.27274939 1.863 -0.03711194918 0.07380288839 -0.9965820909
-0.14359492 -0.1257907 1.7659999 -0.3574059904 0.6169286966 0.70118469
0.054933682 -0.33444926 1.8430003 0.4427608848 0.000538158929 0.8966395855
-0.031197937 -0.16912566 1.8730001 -0.3217779994 0.6949934959 0.6429952979
-0.065480284 -0.20524491 1.8830003 -0.3110712171 0.6922453642 0.6511766911
0.1627444 -0.32079425 1.7850001 0.5495678186 -0.8236724734 0.13978149
-0.0036622752 0.43507826 1.6710001 -0.5358576775 0.1336457133 0.8336638212
-0.13229163 -0.22048604 1.863 -0.3617550135 0.8066653013 0.467358917
-0.096812055 -0.23201509 1.904 -0.2511122823 0.8789282441 0.4054969251
0.25576049 -0.39226186 1.6390001 0.3065170944 0.1022632942 0.9463558793
0.20596632 -0.36534852 1.6710001 0.5300881863 -0.1563836932 0.8333970308
0.095730022 -0.21529157 1.8430002 0.6324675679 -0.3852048516 0.672013402
0.24171014 -0.30323637 1.6710001 0.6486831307 -0.2007614672 0.7341014743
0.12617776 -0.075861476 1.766 -0.06544617563 0.878351748 0.473513484
0.086502679 -0.13442434 1.8529999 0.03511677682 0.7831187844 0.6208798289
0.33591759 -0.11246581 1.6880001 0.6365128756 -0.003386408323 0.7712585926
-0.092982769 0.20423003 1.8940001 -0.425078243 0.0391805321 0.9043082595
0.22321014 0.27435139 1.8230001 0.3227513134 -0.3249682188 -0.8889472485
0.14941029 -0.27208403 1.794 0.2518031597 0.3182188869 0.9139649272
-0.031197937 -0.46468505 1.8730001 0.8209296465 0.2459944338 0.5153263807
-0.14595887 -0.022343602 1.6550001 -0.2440352738 0.8137417436 0.5275141597
0.16166084 0.0445522 1.452 -0.7176862359 0.5667489767 -0.404625833
0.074701644 -0.46497959 1.7390002 0.5002739429 -0.1702307612 0.8489684463
0.14303273 -0.43564019 1.6960001 0.1200396344 -0.1625564694 0.9793701172
-0.046203841 -0.03312698 1.6845715 -0.1363545507 0.8353591561 0.5325247049
-0.049065281 0.45496896 1.6960001 0.7816181183 -0.3127877116 0.5396637321
0.094945982 0.065523997 1.5254002 0.1170077622 0.8859446645 0.4487886429
-0.04315041 0.244519 1.8230001 0.4298305809 0.788384974 0.4401076734
0.12126053 0.13658117 1.456 -0.3309722543 0.14589715 0.9322935939
-0.0048470902 -0.14218129 1.8430001 -0.272047013 0.825638473 0.4942787588
0.0053616934 0.067467965 1.5290002 -0.1331516802 0.9020476937 0.4105857015
0.35536456 -0.47673798 1.7220001 0.3042376339 0.7090843916 0.6361122727
-0.055417784 0.039038144 1.557 -0.2424233109 0.8559356332 0.4567330778
-0.27466545 -0.015184218 1.6034 0.2733079791 0.5310457945 0.8020555377
0.14460485 0.26093501 1.8430001 0.1504227817 0.3772501647 -0.913813591
0.28541198 -0.057082396 1.748 0.4506533146 0.7912992835 0.4132276177
0.43961763 -0.34966287 1.6550001 -0.3335414529 -0.4674097002 0.8187052608
0.044511288 -0.18416546 1.9040002 0.1233212724 0.5430448055 0.830598712
0.30426648 -0.36507908 1.6240004 0.3158013821 0.1132170632 0.9420464039
0.21751414 -0.12049345 1.7850001 0.8096397519 -0.1796560735 0.5587550402
0.22808762 0.035417333 1.6160001 -0.7644728422 -0.2205495238 0.6057550311
0.18586822 -0.1360534 1.8330001 0.6526985765 -0.5058164001 0.5640339851
0.15009849 -0.031012082 1.4150001 -0.6468298435 0.4733713567 -0.5979387164
0.074626833 -0.053306885 1.7372223 -0.04556715116 0.8043897748 0.5923518538
0.13191992 -0.24476708 1.8130001 0.5504121184 -0.08508495986 0.8305462599
-0.2151971 -0.084018566 1.6813334 -0.3315770328 0.5395532846 0.7739114165
0.24064939 -0.2615754 1.705 0.5933436751 -0.7948007584 0.1274169087
0.28281969 0.30692363 1.8330001 0.05056216568 -0.0718524009 -0.9961328506
0.15475622 0.080001093 1.4960001 0.5465926528 0.7311595082 -0.4082183242
-0.20063744 0.049822718 1.536 0.5061543584 0.1965495497 0.8397476077
0.24854289 0.28265661 1.853 -0.2242618501 -0.02296566777 -0.9742583036
0.044128768 -0.42344841 1.7850001 0.8521386981 -0.3220523596 0.4124826193
0.39273262 -0.36241138 1.6470001 0.3153987527 -0.3955335915 0.8625988364
0.23568329 -0.10657135 1.4362727 0.04913840443 -0.7910155058 -0.6098195314
0.2237566 -0.27247122 1.7363335 0.6317679286 -0.7640917301 0.1305109113
0.38502538 -0.39518735 1.6373847 0.4761506915 0.2013688385 0.8559971452
-0.10500986 -0.045851618 1.687111 -0.1865133941 0.757471323 0.6256596446
-0.21134533 -0.33418679 1.6550001 0.2336399555 -0.5942550898 -0.7695929408
-0.2648671 -0.31424701 1.6351112 -0.3009510934 -0.7926994562 -0.5301471353
-0.08455801 -0.030615829 1.6630001 -0.085930489 0.784755826 0.6138193607
0.22271869 -0.23466189 1.7659999 0.5947783589 0.005690947641 0.8038695455
0.40944016 -0.46673381 1.5940001 0.6550269723 -0.06986803561 0.752368331
-0.0043854625 -0.38707477 1.8430002 -0.1997083724 -0.2459222376 0.9484929442
-0.15604842 -0.075632669 1.7050002 -0.2133352309 0.712672472 0.6682709455
-0.02566354 -0.049817462 1.7220001 -0.1752875298 0.8045754433 0.5673910379
-0.006206274 -0.34395823 1.8630002 0.0758407861 -0.2534821332 0.9643625021
-0.055628881 -0.13509871 1.8130001 -0.07725693285 0.8232773542 0.5623573661
0.28371257 -0.28432837 1.6345001 0.4838000238 -0.1591553986 0.8605853319
0.05331799 -0.38507438 1.8430001 0.5229894519 -0.257605046 0.8124787211
0.3248997 -0.21561792 1.6800001 0.6210722923 0.2706219554 0.7355494499
-0.18598518 -0.11382534 1.7220001 -0.373796314 0.5679420233 0.7332926989
-0.12549809 0.12701699 1.5159999 0.4971983731 -0.5207480192 0.693985045
-0.24548166 -0.28441268 1.5860002 0.06498718262 -0.7946617603 -0.6035638452
0.057518099 0.16232885 1.4580001 0.07056570053 -0.6290041208 0.7741926908
-0.17526318 -0.17369837 1.785 -0.4140889943 0.6992977262 0.5826774836
0.097467802 0.22742486 1.853 -0.5109786391 0.2658381462 -0.8174539208
0.3566359 -0.31476367 1.6470001 -0.7291415334 -0.3571680486 0.5837667584
0.20369525 -0.49436986 1.6960001 0.1053338423 0.644204855 0.7575650811
-0.04510041 0.33552721 1.6960001 0.4532314539 0.5390726924 0.7099168301
0.095889799 -0.27488407 1.8230001 0.6972430944 -0.08056849986 0.7122926712
-0.19576356 0.014472793 1.5640001 0.1364056766 0.629553616 0.7648893595
-0.095044695 -0.24270341 1.9360001 -0.2043424547 0.8164767623 0.540009141
0.07488697 0.022494566 1.6240002 -0.01830433495 0.8179517984 0.5749955177
-0.19732013 -0.27711871 1.6550001 -0.2130083889 0.8598137498 -0.4640557468
0.37722969 -0.14944099 1.6550001 0.8090764284 0.5109564662 -0.2903771102
0.19973798 -0.15884674 1.794 0.5635977387 -0.5290307999 0.6344162226
-0.015099268 0.24397239 1.8130001 0.119511798 0.8034359813 0.5832731724
0.024366951 -0.14349426 1.853 -0.1557903141 0.8808616996 0.4470033646
-0.24728662 -0.3671059 2.9080002 0.1537277997 0.961697042 0.2269506454
-0.16370785 -0.18595941 1.8130001 -0.340731591 0.790571034 0.5088216662
0.36593208 -0.49422696 1.6630001 0.983343482 0.03280934319 0.1787713021
0.11602595 -0.31628993 1.813 0.4283967614 -0.004065341316 0.9035816193
0.056991223 -0.42974463 1.7570001 0.6340054274 -0.3058373332 0.7102820873
