# .PCD v0.7 - Point Cloud Data file format
VERSION 0.7
FIELDS x y z normal_x normal_y normal_z
SIZE 4 4 4 4 4 4
TYPE F F F F F F
COUNT 1 1 1 1 1 1
WIDTH 512
HEIGHT 1
VIEWPOINT 0 0 0 1 0 0 0
POINTS 512
DATA ascii
0.23602672 -0.40335083 1.2640001 0.6571825147 -0.1636811495 0.7357442379
0.24004447 -0.44877881 2.381 -0.1491533518 0.9458125234 0.2884302139
-0.01191916 0.49410337 1.2360001 0.4143414497 -0.4833878577 0.7711402774
-0.33938044 -0.12325758 1.9260001 0.9799990654 0.1885472983 0.06365308166
0.49751797 0.072394259 1.7570001 0.1182570457 0.753164947 0.6471150517
-0.19624183 -0.037126832 1.21 0.2820150852 0.5957128406 0.7520596385
0.30125597 0.091558188 1.123 -0.5443644524 0.2912969887 0.7866469026
-0.26597714 0.1998274 1.572 0.7654931545 -0.2750374079 0.5816997886
0.35325107 0.39140713 1.404 -0.1774673909 0.7782007456 -0.6024192572
0.4373506 -0.19437805 2.0530002 0.04956279695 0.7603901625 0.6475726366
0.46127045 -0.24778281 0.97800004 0.7187490463 0.1340040714 0.6822336316
-0.16571455 -0.30637923 2.1980002 -0.06275025755 0.8327649832 0.5500589609
-0.0131237 0.15398476 0.99800003 0.1499395072 0.6798921227 0.7178195119
0.11214554 -0.10413807 1.3053334 -0.1142860949 0.7083878517 0.6965093613
0.3432942 -0.1643786 1.19525 0.7948869467 0.09009262174 0.6000316739
0.12604713 -0.30251312 2.2120001 -0.1486418843 0.9438947439 0.2949038148
0.42128918 0.2294149 1.5860001 -0.9395470023 -0.08821897209 0.330860734
-0.20473936 0.034810305 1.4252857 0.7972576022 -0.1891412586 0.5732415915
0.054395411 0.33220056 1.1079999 0.6676959991 -0.3043333292 0.67938447
0.0055441372 0.012104917 1.1614445 -0.1219118536 0.790175736 0.6006328464
-0.083694488 -0.18541586 1.3260001 -0.5130508542 -0.03308470175 0.8577203751
0.391415 -0.40122491 1.1190001 0.7480955124 -0.05880149081 0.6609807014
0.30833462 0.26413089 1.245 -0.7645144463 0.5506949425 -0.335041374
-0.21174394 0.079591691 1.7130001 0.9445535541 0.3277712166 0.01961021498
0.41276255 -0.066164851 1.0444739 0.7943362594 -0.1344244182 0.5924187303
0.16102 -0.26513818 1.381 0.69526577 -0.3108950257 0.6480353475
0.4964616 -0.046491385 1.8940001 0.1311064959 0.7460770011 0.6528248191
0.16539112 0.12775989 1.0059999 -0.04195633531 0.6198250651 0.7836176157
0.27268893 -0.20219791 2.1160002 -0.01822075807 0.7724841237 0.6347726583
0.24466863 -0.028557792 1.2325716 -0.001898522722 0.6907542348 0.723087132
0.3065528 -0.39357424 2.256 -0.2771736979 0.870066762 0.4076255858
0.15504289 0.051014114 1.141 0.005132079124 0.7918929458 0.6106383801
0.26777083 -0.25880778 1.2780001 0.6640102267 -0.2155589163 0.7159782052
0.02404872 -0.37676328 2.286 -0.1486418843 0.9438947439 0.2949038148
0.36639583 -0.092865296 1.9260001 0.1078323498 0.752055347 0.6502191424
-0.12503107 0.050209329 1.123 0.1739623249 0.5713869929 0.8020311594
0.042711198 -0.1891496 1.3920001 -0.06878674775 0.6870666146 0.7233310342
0.40190327 -0.25555265 1.1023332 0.8770615458 0.07000813633 0.4752493501
-0.064630494 -0.076556206 1.2439334 -0.1834561527 0.7148213983 0.6748142242
0.090694666 0.23083158 1.0380001 0.5728807449 -0.3560452163 0.7382678986
0.33459648 -0.31270701 1.189 0.6485937238 -0.03145466 0.7604845762
0.35478961 -0.049529035 1.153 0.9343323112 0.120804362 0.3353049457
0.054031868 0.087245531 1.0754615 -0.06821243465 0.8397572637 0.5386602283
0.1033287 -0.022423282 1.217889 -0.1778017431 0.7317420244 0.6579818726
0.30436972 -0.46187025 1.1882 0.6611085534 -0.06444898248 0.7475171089
-0.22556676 0.13651015 1.4829999 0.4564185739 -0.4789716005 0.7498455048
0.39381531 -0.27063137 2.1290002 0.0177455321 0.7633247972 0.6457711458
0.27615109 -0.14462046 1.2849231 0.7932519317 0.03431404382 0.6079259515
0.42583644 0.0048207901 1.8330001 -0.7841835618 0.5565955639 0.274331063
0.0042207604 -0.12695797 1.3125558 -0.1521034688 0.7321584821 0.6639341116
0.2932874 0.18595123 1.1747779 -0.6894218922 0.532376349 -0.4911952913
-0.16406421 -0.12194039 1.2645 0.0007280615391 0.6332755089 0.7739260793
0.016131835 0.40488103 1.1746668 0.6247819662 -0.3886763453 0.6771839857
0.32059437 0.32872808 1.325 -0.5894161463 0.6509322524 -0.4784096777
0.41881275 -0.17421401 1.0372001 0.8514692783 0.07393235713 0.5191666484
-0.045674186 0.08195971 1.0705 0.1338878423 0.6969246268 0.7045353651
0.1736955 -0.35207528 1.3342501 0.8116772175 -0.01519693807 0.5839084983
0.44136718 -0.33233437 1.054 0.8370016217 0.1960654408 0.5108685493
0.21557578 0.095067732 1.0840398 -0.1249689162 0.757419765 0.6408572793
0.20412886 -0.085296467 1.2931764 0.01330287661 0.7241712809 0.6894918084
-0.10765496 -0.02235646 1.177 0.01486074645 0.6915910244 0.7221363783
0.3762694 -0.13455416 1.1160526 0.9226253629 0.1802369505 0.3409941792
0.37297344 0.036653429 1.13 0.6916969419 -0.112035282 0.7134447694
0.026573956 -0.056983329 1.25 -0.1431283355 0.7089567184 0.6905755997
0.2450534 0.03452678 1.1639473 0.03578335047 0.7743635178 0.6317283511
0.075023822 0.13716713 1.0035908 -0.1461899877 0.7342297435 0.6629745364
0.2150218 -0.21619038 1.3330001 0.6304641366 -0.1781315207 0.7555025816
0.13169987 -0.18708768 1.404 0.3878371119 0.5474873781 0.741511941
0.2459721 -0.48406738 1.2445555 0.7496734262 -0.02013050765 0.6615017056
0.27629581 -0.33528569 1.2438574 0.7285771966 -0.2272267491 0.6461758614
0.31617072 -0.096744552 1.233 0.8599663973 0.0271227248 0.5096293688
0.21358055 -0.24004185 2.1560001 -0.02257975005 0.7734853029 0.6334119439
0.13510306 0.095854305 1.0724782 0.005977315363 0.828623414 0.5597744584
0.32118949 -0.23388478 1.2230002 0.758143127 -0.06151801348 0.6491799355
0.078021578 0.041011345 1.141 -0.1460092962 0.7599756718 0.6333389878
0.17457181 0.0010537533 1.202 -0.006067072041 0.7425282001 0.6697872877
0.33741057 -0.3872827 1.177 0.6243734956 -0.1769521683 0.7608190775
0.38377747 -0.32512167 1.134143 0.8443244696 -0.06296314299 0.5321201086
0.3663367 -0.23495097 1.1648337 0.8374023438 0.01802521944 0.5462896228
-0.014062072 -0.196117 1.3457693 -0.410664469 0.04268394411 0.9107868671
0.19743147 -0.28517875 1.317 0.6371705532 -0.2376858592 0.7331569195
-0.053490985 0.030847562 1.123 0.002575713908 0.7356471419 0.6773600578
0.14540584 -0.05653033 1.2643636 -0.06300827861 0.7210616469 0.6900000572
0.38616553 -0.0084975297 1.077 0.8078817725 -0.2221654505 0.5458658934
0.086651482 -0.14837584 1.3540001 -0.1312588006 0.7162929177 0.6853434443
-0.1342811 -0.066821121 1.2254002 -0.09556639194 0.6702058911 0.7359966636
-0.064096093 -0.12649651 1.2940832 -0.1129679978 0.7147737741 0.6901714802
-0.033983544 -0.027661026 1.202 -0.1534134746 0.7466906905 0.6472381949
0.43166453 -0.24731731 1.041 0.9225356579 0.1489660889 0.3560014665
0.21847411 -0.33947513 1.2780001 0.6395143867 -0.1928828657 0.7441892028
0.28553689 -0.40540388 1.2155174 0.5811191201 -0.2199479192 0.7835326791
0.0041597211 0.057252903 1.1069285 -0.1684844792 0.7444546819 0.6460651755
0.46123388 -0.18166257 0.9883334 0.5574153662 -0.01584407873 0.8300825357
0.15154381 -0.13501514 1.3470001 0.05679477751 0.7107700109 0.7011278868
0.12153259 0.18156321 1.0070001 0.4037145674 -0.1104377657 0.9081949592
0.27335781 0.10193003 1.057 -0.7499546409 0.39795959 0.5283901691
0.0054756599 0.11042581 1.041 0.003774797311 0.7864205837 0.617679894
0.062299442 0.27665496 1.08 0.6656998992 -0.2128410041 0.7152218819
0.39623272 -0.19486153 1.0928 0.898905158 0.1709978729 0.4033971429
0.37746117 -0.074496195 1.0936501 0.9028596282 0.06596881151 0.424844265
0.084806308 -0.065337293 1.2664616 -0.09367455542 0.7070601583 0.7009215355
-0.12529464 -0.14450604 1.3058888 -0.03945308924 0.5026586652 0.8635842204
0.28708526 0.15056428 1.1176667 -0.6617203951 0.6929596066 -0.2862396538
-0.16350447 0.001542495 1.1730001 0.3234358728 0.4909087718 0.8089485765
0.34920302 -0.10509993 1.177 0.9000535607 0.03140428662 0.434646219
-0.20901924 0.092475183 1.4450001 0.5764276385 -0.2388135791 0.7814725041
0.04499675 -0.016599763 1.2038183 -0.04765481874 0.7730962038 0.6324960589
0.43383738 -0.1156358 1.0183685 0.7978505492 -0.0510084033 0.6006934047
0.30742511 -0.17475326 1.245 0.8482239246 -0.01575512812 0.5294033289
0.021075066 0.45627519 1.202 0.4860733151 -0.3664803505 0.7933630347
-0.21368749 -0.0756125 1.25 0.3156671822 0.5901246667 0.7430390716
0.35439688 -0.44100451 1.1650001 0.5761307478 0.1448377818 0.8044223785
0.39625782 -0.12474475 1.0633702 0.8797425628 0.07856176049 0.4689148366
0.12426261 0.019015277 1.177 -0.09195933491 0.7442933917 0.661491394
-0.24967554 0.17624156 1.5230001 0.3303046525 -0.5184544325 0.7887356281
0.27070415 -0.20047964 1.2920001 0.7152576447 -0.1303074062 0.6866050363
-0.016229555 -0.091374621 1.268 -0.2482450902 0.6544238329 0.714215517
0.054522969 -0.10223578 1.29575 -0.1533947885 0.6449688673 0.7486556172
0.21461606 0.1140912 1.0315001 -0.169896543 0.493810147 0.8528110385
0.2983537 -0.28506741 1.2337143 0.719927609 -0.2302830815 0.6547319889
0.45113352 -0.29216114 1.015 0.8070874214 0.3086428344 0.5033383965
0.36866814 -0.18030491 1.149 0.8957353234 0.1013556197 0.432880193
0.44562018 0.19789523 1.6240001 0.1345929205 0.7600893378 0.6357271075
0.19624078 -0.39270809 1.306 0.8047938347 0.01156218071 0.593441844
0.42259607 -0.36633024 1.0916002 0.7398842573 0.1346483231 0.6591215134
-0.052720442 0.12255545 1.0355386 0.2475034595 0.6331453323 0.7333955169
0.32620677 0.36641422 1.365 -0.4162986279 0.7012303472 -0.5787671804
-0.10514022 -0.10409373 1.2652631 -0.04643049836 0.7170041203 0.6955208778
0.29452878 0.225041 1.2120001 -0.7125357985 0.5632304549 -0.4184066951
0.20486015 0.062880188 1.1246667 -0.06522434205 0.8053926826 0.5891421437
0.038021419 0.37367406 1.138 0.6260323524 -0.2618240118 0.7345282435
0.034591734 -0.15226278 1.3490001 -0.08187662065 0.7304471135 0.6780436635
0.32130739 0.29731247 1.2830001 -0.6569345593 0.6121726036 -0.4400928617
0.31186539 -0.35429606 1.21 0.7340929508 -0.1764888763 0.6557127833
0.095141746 0.074186325 1.1041174 -0.1523532271 0.8188858628 0.5533664227
0.19423972 -0.036236886 1.2410001 0.05201856419 0.7207540274 0.6912363768
0.11464913 0.12201464 1.0320715 -0.07574775815 0.8144056201 0.5753309727
0.25571141 0.069323294 1.1190001 0.02809327841 0.7950670719 0.6058705449
0.2918179 0.0475097 1.146143 -0.2001763284 0.7658596039 0.6110551953
-0.043988768 -0.1560683 1.3345001 -0.3026323915 0.5019772053 0.8102052212
-0.095409289 0.073706105 1.0902354 0.2213268131 0.6157650352 0.756206274
0.40761024 -0.30436665 1.0931305 0.8476063609 0.08816438168 0.5232499242
0.1611955 -0.30790955 1.3540001 0.7678436637 0.02975959145 0.6399456859
-0.095257714 0.01403473 1.1438003 0.0861305669 0.7223557234 0.6861367822
0.19498357 0.033684276 1.1644667 -0.02853409946 0.7541139722 0.6561233997
0.16043702 -0.2159265 1.376 0.8387953639 -0.01416304149 0.5442625284
0.032465376 0.16168189 0.98100001 0.05743890256 0.6457598805 0.7613770366
-0.04546218 0.0013570799 1.1610001 -0.0711524263 0.7984887958 0.5977900624
0.15987594 -0.097765863 1.312 -0.005995259155 0.6895445585 0.7242184281
0.23542091 -0.29491106 1.2864376 0.3656151593 -0.3225188553 0.8731020093
0.37150064 -0.28702241 1.161 0.7881954312 -0.03453901783 0.6144550443
0.34454125 0.072797872 1.1438 0.02821019478 0.1715202779 0.9847766161
-0.084549241 -0.046100389 1.2116001 -0.146449402 0.7006300688 0.6983337402
0.37312424 -0.010829464 1.123 0.8253564835 -0.08188350499 0.558642745
0.27171528 0.0077393884 1.1930001 0.008031294681 0.7651661634 0.6437827945
0.075324073 0.0082546938 1.177 -0.1354383528 0.7272696495 0.6728560925
0.34315091 -0.26433572 1.1947501 0.725277245 -0.1002466157 0.6811193228
0.21964094 -0.44700795 1.2590001 0.6735616922 -0.07804659754 0.7349988818
0.26823282 -0.44883579 1.2190001 0.6487084031 -0.2425378114 0.7213548422
0.3679966 -0.36614993 1.149 0.8002346754 -0.04376998171 0.5980874896
0.22477412 0.002639059 1.2046667 -0.04744782299 0.740552187 0.670321703
0.42685071 0.17936073 1.5860001 0.0007628413732 0.7535214424 0.6574228406
0.034940425 -0.34347096 2.256 -0.1486418843 0.9438947439 0.2949038148
0.17924239 -0.24485038 1.3363333 0.5833882093 -0.2943437099 0.7569808364
0.36472085 -0.094127871 1.1336191 0.9446718097 0.1093352959 0.3092586398
-0.015395076 -0.053848647 1.234154 -0.2009435445 0.7277812362 0.6557104588
0.17458278 0.10839133 1.0553846 0.07525029033 0.8988361955 0.4317764342
0.16566436 0.074832849 1.1050831 -0.0002617443388 0.847491622 0.5308087468
-0.15463562 -0.035629991 1.1952858 0.1751590073 0.6018555164 0.7791593671
0.40900883 0.25138417 1.5500001 -0.9285495281 -0.0475788191 0.3681467772
0.05468256 0.11490484 1.0354829 -0.02145826444 0.7971892953 0.6033480167
0.29677486 -0.21513627 1.2584667 0.7727478147 -0.1466599256 0.6175367832
0.22466864 -0.05789857 1.2640001 0.02188905701 0.7421337962 0.669894278
0.03464679 0.03640322 1.1368238 -0.1174638644 0.7276777625 0.6757864952
0.25828442 0.12189718 1.1018 -0.5279070139 0.3620322943 -0.7682752013
0.064363465 -0.040525146 1.2360001 -0.1123302057 0.7638112903 0.6355897188
0.23612273 -0.24627802 1.305125 0.4708235264 -0.2894027233 0.8334094286
0.43890435 -0.21430992 1.006 0.8478725553 0.03317486122 0.5291612148
0.097183764 0.16075611 1.036 0.9080119133 0.2280188948 0.3514565527
0.00490112 0.082934134 1.0731578 -0.06818841398 0.8040552139 0.590631485
0.094632849 0.10245885 1.0635002 -0.1108089015 0.8152825832 0.568362236
0.14452097 -0.022029027 1.2256669 -0.04291610792 0.7498303652 0.6602367759
0.024832131 0.13302575 1.0116252 0.06392882764 0.7600577474 0.6467034221
-0.1751197 -0.077191971 1.2343334 0.153238818 0.6567558646 0.7383695841
0.24685706 -0.18427359 1.322 0.546292007 -0.1232938096 0.8284707069
0.42916742 -0.29270512 1.0546 0.8847166896 0.1758209616 0.4316982031
0.25867364 -0.37436736 1.245 0.6249370575 -0.2119230181 0.7513602972
0.34495744 -0.21435045 1.1953639 0.779509306 -0.0193036031 0.6260931492
0.30456644 -0.1351845 1.2546668 0.796456039 0.01020366605 0.6046103239
0.094432779 -0.17796947 1.381 -0.2653240263 0.7380812168 0.620354116
0.27148613 -0.3002969 1.2640001 0.6674759388 -0.2859069109 0.6875559092
0.38654497 -0.22492205 1.124154 0.9065884352 0.06044603512 0.4176645279
0.32166275 -0.42462373 1.1823335 0.5732472539 -0.2287695855 0.7867985964
0.0055396566 -0.013774187 1.1952857 -0.1156812012 0.7942562103 0.5964687467
0.055119321 0.061457179 1.1127501 -0.105545111 0.7659524679 0.6341742873
0.3611939 -0.13566776 1.1540909 0.9136192799 0.147310093 0.378945291
0.41589928 -0.21534579 1.0648421 0.9212312102 0.1584218293 0.3552964926
0.11525381 0.053477842 1.1344445 -0.08858399093 0.8097225428 0.5800881386
-0.0051888144 -0.15734431 1.3454001 -0.1698258966 0.671701014 0.7210942507
-0.014214274 0.031846572 1.1313334 -0.225116238 0.7264724374 0.6492768526
0.064903527 -0.12735803 1.3246667 -0.172666803 0.6870225072 0.7058230639
0.33794788 -0.068187006 1.1861429 0.8234068155 0.1951688379 0.5328323841
0.19248757 -0.32437488 1.3133639 0.7002803683 -0.1462287307 0.6987307072
-0.13452619 0.0162849 1.1468669 0.178302899 0.6919552684 0.6995755434
0.33220169 -0.12488526 1.2106668 0.8373328447 -0.002736683236 0.5466865301
0.38829154 -0.28474846 1.1248751 0.8918311596 0.0316544883 0.4512595832
0.4389593 -0.15492295 1.0056363 0.7997052073 0.0421265699 0.5989131331
0.02128722 -0.090750776 1.2780001 -0.1728122234 0.6670389771 0.7247033715
0.084776312 0.1951488 1.022923 0.6030282378 -0.2363471389 0.7619035244
0.13872373 0.14999503 0.98900002 0.1816053092 0.4585055709 0.8699380159
0.23779583 0.088674836 1.0500001 -0.2940256298 0.5450029969 0.7851882577
0.36712229 -0.40638942 1.1485001 0.7473091483 -0.1702301204 0.6423011422
0.34937987 -0.34731621 1.177 0.7379044294 -0.1428374648 0.6596169472
0.39115989 -0.045963634 1.0700001 0.7625891566 -0.08374816924 0.6414390206
-0.22148809 0.05600848 1.452 0.7106456161 -0.1215680763 0.6929675341
0.20827827 -0.42400107 1.2870001 0.7574807405 -0.09127028286 0.646446228
0.027934108 0.33720458 1.138 0.6294539571 -0.2985389829 0.7173995972
0.40054026 -0.16509385 1.0700001 0.9046469927 0.1875189692 0.3826884627
0.014892815 -0.17703232 1.37 -0.4407849908 0.1218676418 0.8893013597
-0.24664168 0.21327518 1.5430001 0.7417148352 -0.2816053331 0.6087343693
-0.025597965 -0.11847554 1.2920001 -0.1616459936 0.7044720054 0.6910787225
-0.035572767 0.057686161 1.0967001 -0.07421595603 0.7376359105 0.6711075306
-0.050626624 -0.20132913 1.3430001 -0.2662648559 0.1889925599 0.9451903701
0.39517859 -0.36475793 1.1160645 0.7631449699 -0.01690511592 0.6460061669
0.25680369 -0.41517016 1.2360001 0.6520822048 -0.07809033245 0.7541158199
0.11576486 -0.1266776 1.3338333 -0.1633813977 0.7509863377 0.6397858858
0.12564825 -0.1531712 1.365 -0.1568319947 0.7594282031 0.6314052343
0.21735375 -0.37532729 1.278 0.7335631847 -0.09169446677 0.6734071374
-0.085690029 0.043686684 1.1141816 0.1123298705 0.6760848761 0.7282109857
0.36656284 -0.044963524 1.1150384 0.9188289046 0.05400067195 0.3909441531
0.47390252 -0.21563977 0.98680019 0.5754985809 -0.08442830294 0.8134329915
-0.055580664 -0.10115682 1.268 -0.173325181 0.673617661 0.7184689045
0.29346046 -0.25462669 1.253762 0.7425801754 -0.1368842423 0.6556198597
-0.075980701 0.10036957 1.0700001 0.3025904298 0.585549891 0.7520440817
0.17477927 -0.07058394 1.2780001 0.03708556294 0.7273529768 0.6852607727
0.11570198 -0.076176204 1.2841113 -0.1210965738 0.6791196465 0.723969698
-0.077933475 -0.15182595 1.317 -0.329654932 0.4221473634 0.8444638848
-0.065329731 -0.017630994 1.1828668 -0.1225985587 0.7694144845 0.6268739104
0.080388576 0.26149389 1.054 0.7316282988 -0.2295959294 0.6418767571
0.30750594 -0.31552088 1.219 0.6394318938 -0.147128433 0.7546390295
0.14523911 -0.23016708 1.404 0.7273026705 -0.1576784104 0.6679583192
-0.10117873 -0.079419866 1.2410001 -0.1210240945 0.7041335106 0.6996779442
0.11496607 -0.040747467 1.245 -0.1269960403 0.7264951468 0.6753345728
0.015129115 -0.036217567 1.2248182 -0.133830905 0.7650578618 0.6299013495
-0.23320824 0.10374209 1.467 0.5956975818 -0.3080291152 0.7417967916
-0.051463842 -0.048247349 1.223 -0.1634139717 0.688269496 0.7068104148
0.26396346 0.088623106 1.087 -0.2515452802 0.9124374986 0.3227736354
-0.023698121 0.12796183 1.0185385 0.1301469654 0.6636686325 0.736617744
-0.14484285 -0.096928656 1.2516667 -0.09535067528 0.6935913563 0.7140303254
0.41827413 -0.26433516 1.0739999 0.8898092508 0.08322770894 0.4486787915
0.035048384 0.0041208346 1.1758573 -0.1272363216 0.7953497171 0.5926463604
-0.19147657 -0.10364363 1.2576667 0.1476243585 0.60614568 0.7815334201
0.42165264 -0.33444884 1.0812501 0.7856105566 0.1191291586 0.6071443558
0.29422247 0.059626482 1.115 -0.3868273795 0.628801465 0.6745170951
0.32252625 -0.1948413 1.2229999 0.7992751598 0.001048383419 0.6009643078
0.41236383 -0.10493175 1.0418825 0.7964864373 -0.002331625437 0.6046518683
0.38698635 -0.16505957 1.1045908 0.9218685031 0.09232943505 0.376342535
0.057649598 -0.16934569 1.3700001 -0.1249236092 0.6383655071 0.7595285177
0.3235454 -0.28481671 1.2118638 0.7319741845 -0.1375112087 0.6673113704
0.441006 -0.25574657 1.0104287 0.8662391901 0.1673040539 0.4707855284
0.28457505 -0.17535163 1.2759411 0.8073778152 -0.09740345925 0.5819395781
0.14463851 0.11535131 1.0438128 -0.06222661585 0.8078431487 0.5861034989
0.38140228 0.014160558 1.1034545 0.8185089827 -0.1185774654 0.5621231198
-0.024239833 0.1003345 1.0500001 -0.03287254274 0.7208467126 0.6923145652
0.30417338 0.26759472 1.2771667 -0.6883197427 0.6109344959 -0.3911201954
0.2426894 -0.21508491 1.3120002 0.5619493127 -0.1392060518 0.8153739572
0.15429287 0.028808922 1.169 -0.005663536955 0.7784429193 0.6276898384
0.28603387 -0.3650693 1.2265999 0.5917782187 -0.1854745299 0.7844728827
0.32164904 -0.15546368 1.2229999 0.8534155488 -0.001716426923 0.5212283731
0.29368654 0.16724901 1.1446668 -0.6687321663 0.6642637253 -0.3339926004
0.055128898 -0.077665508 1.2746665 -0.08619731665 0.7122615576 0.6966013908
0.1960434 -0.35502064 1.304143 0.7097971439 -0.1034587994 0.6967670321
0.24594446 -0.32598057 1.268 0.4759503007 -0.2461014539 0.844337225
0.29389998 -0.43432653 1.2043635 0.6425212622 -0.2443689853 0.7262576818
0.10593639 0.14477974 1.0070001 0.2232534438 0.4107737243 0.8839812279
-0.095511086 -0.13075921 1.2970001 -0.09655798972 0.6302688122 0.7703491449
-0.1154342 -0.044276316 1.2041175 -0.1320235729 0.7259007096 0.6750095487
0.17179139 -0.2746281 1.3445002 0.7231901288 -0.2640964091 0.6381607652
0.13171917 0.0010537533 1.202 -0.06866135448 0.7672521472 0.6376596093
0.0052687665 0.42887759 1.202 0.5186647773 -0.3251630068 0.7907311916
0.38167155 -0.10477218 1.1015 0.9179159999 0.1025992632 0.383280009
0.38265097 -0.25480172 1.1335 0.890686214 0.06351180375 0.4501603544
0.062440377 0.30632311 1.0906155 0.6828059554 -0.2669562697 0.6800811887
0.35843754 -0.31495738 1.1685556 0.7943557501 -0.009235422127 0.6073825955
0.3608807 -0.19669808 1.1747143 0.8848035336 0.06680978835 0.4611498713
0.39922348 -0.3331719 1.108 0.8079316616 0.03530782461 0.5882174969
0.39233083 -0.095030144 1.0719999 0.8626471758 0.0568352975 0.5026028156
-0.13502556 -0.1171457 1.2748181 -0.2412037253 0.698976934 0.6732399464
0.18470876 0.091404773 1.0816 -0.03077700362 0.8048896194 0.592625916
0.13550462 0.071164295 1.1120001 -0.004539865535 0.8398836851 0.542747438
0.21845745 0.02174221 1.1810001 -0.09011448175 0.7406079769 0.6658672094
0.40241426 -0.22528109 1.0925264 0.8866089582 0.1257009953 0.4451110363
0.20646456 -0.25512007 1.3255999 0.6087142825 -0.3383456767 0.7176274657
0.42476979 -0.20453298 1.0355502 0.903978467 0.1439565569 0.4026157856
0.23859447 -0.2273223 2.1430001 -0.02257975005 0.7734853029 0.6334119439
0.30956414 -0.39980996 1.197 0.6622350812 -0.2215795368 0.7157843113
-0.01657673 -0.0044039753 1.1751819 -0.1858723015 0.78450495 0.5916109085
0.33312631 -0.094636865 1.2048001 0.8365890384 0.1271400005 0.5328735709
-0.1803277 -0.019804776 1.189 0.2286546379 0.5657535195 0.7922373414
0.4171381 -0.13475907 1.0361202 0.8012577295 0.0179260429 0.5980507135
0.31397364 0.067982487 1.138 -0.3130314946 0.4873031974 0.8151974678
0.034834791 -0.13353519 1.3245001 -0.1156306788 0.7508518696 0.6502699256
0.084990822 -0.09474048 1.294647 -0.06362499297 0.7059361339 0.7054119706
0.26195085 -0.23344725 1.2947778 0.6344585419 -0.1692438275 0.7542008162
0.10143033 0.029414797 1.1570001 -0.1988990009 0.7357683182 0.6473670602
-0.10492285 -0.1741621 1.307 -0.1502407491 0.1743934751 0.9731467962
0.34607631 -0.13469106 1.1851816 0.8444224 0.07148941606 0.5308861136
-0.064812526 0.06515561 1.0916061 0.09752546251 0.6681233048 0.7376313806
0.27479094 0.028938549 1.1684999 0.004624502733 0.7418220043 0.670580864
0.23513484 0.052529428 1.1413332 0.008857499808 0.7747707367 0.6321802735
0.24543875 -0.4450264 1.2428181 0.7002280951 -0.1424493045 0.6995633245
0.38253686 -0.19471836 1.1243638 0.8988766074 0.1668435782 0.4051963389
0.3131164 0.248997 1.2190001 -0.7449098229 0.5579896569 -0.3657279015
0.2152258 -0.022209812 1.2242306 -0.02262060158 0.7018559575 0.7119596601
0.28287929 0.11727609 1.0810001 -0.8935492635 0.3883374333 -0.2253080755
-0.19974586 0.064069428 1.4330001 0.760235846 -0.1371455938 0.6350059509
0.2251984 0.076701611 1.1056665 -0.04908652604 0.8040708899 0.5925036073
0.43411344 -0.1851082 1.0138686 0.836522758 0.03135327995 0.5470344424
0.055906788 0.024788849 1.1542499 -0.1814289093 0.7596362829 0.6245288253
0.1858537 0.11390208 1.0237499 0.05059472844 0.8221101165 0.5670759678
0.0746077 -0.013397221 1.2038462 -0.1180579588 0.7890410423 0.6028901935
-0.084688909 -0.0051081264 1.16388 -0.03806767613 0.7499353886 0.6604148149
0.21422811 -0.31433442 1.293591 0.6535682082 -0.1949993521 0.7313165069
0.024899051 0.072783314 1.0924584 -0.1313141137 0.8186103106 0.5591366887
-0.034715515 -0.07637763 1.2505555 -0.1445102543 0.6826362014 0.7163271904
0.16481741 -0.036123779 1.2423334 0.03836696967 0.7420464158 0.6692496538
0.38975111 -0.14103463 1.087 0.9025456905 0.1623595357 0.3988116086
-0.034536283 -0.138155 1.3132501 -0.1199344844 0.7403125167 0.6614779234
0.25968358 -0.47982684 1.2190001 0.7054659724 -0.01003992464 0.7086727023
0.22094628 -0.2747561 1.302 0.5818575025 -0.2935627103 0.7584607601
0.25779775 -0.16530108 1.3026251 0.6476947665 -0.02780311555 0.7613924146
-0.065122947 0.013022534 1.1428666 -0.02137145028 0.7701576948 0.6374953985
-0.0023510449 0.47255999 1.2190001 0.4143414497 -0.4833878577 0.7711402774
0.14415438 -0.08016941 1.2880001 -0.04002464935 0.7059944272 0.7070854902
-0.23453817 0.15548031 1.5030001 0.2392354906 -0.5721186399 0.784504056
0.26359585 -0.012807809 1.2173334 0.05171917006 0.7185544968 0.6935449243
0.083408348 0.11654623 1.0348668 -0.1165977716 0.8380454183 0.5329961181
0.036116213 0.09909384 1.0564001 -0.0280804392 0.8136830926 0.5806301236
0.3486439 0.037808005 1.145 0.4485399127 -0.009701102041 0.8937101364
0.17690694 -0.018226776 1.223 -0.0141347032 0.7673660517 0.6410534978
0.14596149 -0.29795444 1.376 0.8197855949 -0.1934108734 0.5390211344
0.016817797 0.38105211 1.1554 0.6666610837 -0.293153435 0.6852912307
0.18113248 -0.30734089 1.3330001 0.6856350303 -0.1521587819 0.7118653655
-0.13520049 -0.016014546 1.1748184 0.04045937955 0.63313061 0.7729868293
0.13580458 0.12830074 1.0070001 0.2894442976 0.8059965372 0.5163250566
0.18505117 0.051014114 1.141 0.003118899651 0.817910254 0.5753373504
0.33201647 0.34967691 1.3430001 -0.4662330747 0.6915593147 -0.5516995788
0.02458787 0.4340232 1.1820909 0.6274589896 -0.3362453878 0.7023063898
0.10447226 -0.0024465818 1.1956668 -0.1770511121 0.7572892904 0.6286221743
0.24119787 -0.36308965 1.2640001 0.5076818466 -0.2047420889 0.8368631005
0.30680031 0.21437803 1.189 -0.7523552179 0.4923419356 -0.4376768768
0.24520628 0.014760436 1.1861999 0.06046397611 0.7672436833 0.6384992003
0.024256781 -0.11105058 1.2970001 -0.1326510161 0.6639086008 0.7359545827
-0.175118 -0.055093098 1.212158 0.2231287658 0.5780088902 0.7849326134
0.33486822 0.3846173 1.3840002 -0.1774673909 0.7782007456 -0.6024192572
0.44434196 -0.31155184 1.0361001 0.8231993914 0.2936879396 0.4858910441
0.43458706 -0.27461126 1.0345001 0.9236422181 0.1661591381 0.3453638852
0.068376496 0.23284967 1.054 0.6609470844 -0.3414515555 0.6682513356
-0.037642896 -0.18200535 1.3280001 -0.3139068484 -0.02865862101 0.9490211606
0.2644358 0.046559352 1.1463335 -0.009796160273 0.7842518091 0.6203653216
-0.11552143 0.0025445251 1.1610001 0.05038927495 0.7146525979 0.6976622343
0.28501016 -0.47215393 1.2044616 0.6192969084 -0.04897466674 0.7836279869
0.3607356 -0.26244593 1.174 0.824965775 -0.04446678609 0.5634307265
0.0055186166 -0.071742013 1.2590001 -0.1452809423 0.6804513335 0.7182474732
0.051779281 0.35348105 1.1260002 0.6213797331 -0.2866020799 0.7292094827
0.29048088 -0.31006384 1.2410001 0.7063990235 -0.2631494701 0.6570789814
0.35733986 0.0148069 1.126 0.7533692122 -0.1300983429 0.6446000934
-0.18831852 0.033232681 1.404 0.7927841544 -0.2076034993 0.5730567575
0.092716262 -0.11937219 1.322 -0.0753384456 0.7205582261 0.6892894506
0.28075287 -0.23579416 1.2729999 0.7213021517 -0.1553990692 0.674962461
0.045818105 0.30707881 1.1120001 0.6832293272 -0.3146948516 0.6589118838
0.19208117 -0.10006624 1.312 0.03464367613 0.6798104644 0.7325691581
0.37397277 -0.1546912 1.1335558 0.9150266647 0.1212767139 0.3847312927
0.36840603 -0.33626917 1.1558572 0.8150458932 -0.09932065755 0.5708201528
-0.20413008 -0.058322877 1.2320001 0.3486162722 0.5909610987 0.7274830937
0.34570208 -0.41580212 1.1662803 0.6338832974 -0.1720298082 0.7540541887
0.01068306 -0.20179114 1.3540001 -0.5535475016 -0.07183697075 0.829713583
0.30871728 -0.25708511 1.2270001 0.7673271298 -0.1029805243 0.6329329014
0.19400433 -0.058122996 1.2645714 0.05687268451 0.7209131718 0.6906878352
0.10514516 0.08701124 1.0831817 -0.09365359694 0.8298021555 0.5501430631
0.35234955 -0.07455612 1.1650001 0.9146146178 0.1110406965 0.3887802064
0.14649187 -0.24334602 1.381 0.7688854933 -0.09419749677 0.6324096322
0.14453419 -0.11450304 1.3250002 0.01355852839 0.7174037695 0.6965256333
0.35766292 -0.16527373 1.1673332 0.8854278326 0.04594065994 0.4625008106
0.19486991 0.075647347 1.1043332 -0.06136133894 0.831304431 0.5524199009
0.37656507 -0.035453275 1.0930001 0.88206321 -0.06495973468 0.4666312039
0.31772706 -0.37522489 1.1955713 0.6557334661 -0.1689689755 0.7358417511
0.11542543 -0.05771447 1.266 -0.112907961 0.7246738672 0.6797790527
0.41114736 -0.18752307 1.062875 0.9067819715 0.2044745386 0.3686957955
0.07875973 0.060054295 1.123 -0.1446359009 0.7670418024 0.6250818968
0.37602878 -0.21541871 1.1456959 0.8913244605 0.1228007823 0.4364179969
0.034486312 0.40132603 1.1570001 0.6401372552 -0.3692563772 0.6737017035
0.22534892 -0.041628517 1.243 -0.01014661323 0.7171289921 0.6968666315
0.1159304 -0.16962448 1.3920001 -0.05495740101 0.762347877 0.6448297501
-0.023248322 0.011118763 1.153 -0.1872691512 0.7937454581 0.5787041187
0.06437885 0.15466008 0.98835003 -0.07874115556 0.6785584092 0.7303138375
0.42086664 -0.08381284 1.028 0.7956902981 0.01252500433 0.605574131
0.33684778 -0.1888866 1.197 0.7493682504 0.04151228815 0.6608509421
0.36179772 -0.064607695 1.1338 0.9512796402 0.1002249047 0.2915853858
0.13472475 0.042020261 1.153 -0.01301760133 0.7631810308 0.6460536122
0.27924201 -0.27482709 1.2590001 0.7141681314 -0.2019441873 0.6702107191
0.069694996 0.10129007 1.0600001 -0.1470742673 0.8057267666 0.5737364888
0.28413242 0.084216915 1.1061537 -0.4733140469 0.3844794333 0.7925587296
0.15450811 0.087847263 1.0862499 -0.0308912266 0.822086513 0.568524003
0.19481577 0.014437385 1.1851999 -0.03127441928 0.7712525129 0.6357605457
0.14699003 -0.20578896 1.3972501 0.7365208268 0.249564454 0.6286928058
0.015045164 -0.14560439 1.3347858 -0.1187341735 0.7668485045 0.6307500005
0.32527778 0.31556371 1.3041875 -0.5680004954 0.6662300825 -0.4832317233
0.15452936 0.0085994415 1.189 -0.005170902237 0.7475671768 0.6641660929
0.25806084 -0.28457651 1.278 0.6196030974 -0.2199348509 0.7534723878
0.35095611 -0.28460357 1.1826668 0.7340401411 -0.06063938886 0.6763933301
0.045412868 0.14194264 1.001 0.002585671144 0.7396514416 0.6729851961
-0.0047356952 -0.10352504 1.2863336 -0.22688739 0.6610620022 0.7152056694
-0.11140241 0.061997868 1.105 0.2994556129 0.5770574808 0.7598229647
0.17036878 -0.2490005 1.3590001 0.8135079145 -0.2900960147 0.5040329695
0.32600325 -0.33520117 1.1943916 0.6203953624 -0.1318196803 0.7731320262
0.44826239 -0.23429529 0.995 0.8073964715 -0.0007056110189 0.5900088549
0.31365848 -0.12491018 1.2342224 0.8708789945 0.001810799236 0.4914941788
0.42776918 -0.31475928 1.0654 0.8630391955 0.1755086333 0.4736666381
-0.085274376 -0.093240179 1.2557693 -0.09933140874 0.7022205591 0.704996109
0.30365947 -0.23488146 1.2435457 0.7914545536 -0.1245828122 0.5983968973
0.2153362 0.043369427 1.1549999 -0.01950806007 0.8088653684 0.587670207
-0.056097899 0.10498218 1.0521817 0.3178221881 0.6466068625 0.6934612989
0.2926138 -0.15495239 1.2651764 0.7981203198 -0.04314816743 0.6009510159
0.094007693 0.17455162 1.0136001 0.7508465648 0.167674318 0.6388385892
-0.11446099 0.026471477 1.1353335 0.1435450464 0.6732352972 0.7253613472
-0.063992999 -0.035596009 1.2038181 -0.1317389309 0.7270175219 0.6738622785
0.45547986 -0.27069816 0.99800003 0.7547211647 0.288243413 0.5893315077
-0.085533865 -0.11271428 1.2765714 -0.0828826949 0.743306756 0.6637963057
0.064789467 -0.14724347 1.3436668 -0.1466210485 0.7346266508 0.6624393463
0.4054043 -0.38379404 1.1053077 0.6962682605 -0.005401085597 0.7177613378
0.055147052 -0.055656195 1.2523078 -0.08432646096 0.7393681407 0.6679998636
0.16182858 -0.33196619 1.3540001 0.8004770875 0.06151946262 0.5961977243
-0.12519373 -0.085784867 1.2434616 -0.1214158386 0.7529228926 0.6468116641
0.37724584 -0.38415837 1.1361177 0.7977769375 -0.03783774748 0.6017642617
-0.0053094444 -0.027617807 1.2116001 -0.1805496514 0.7531995177 0.6325284839
0.093145825 -0.049312498 1.25 -0.1178548634 0.747222662 0.6540401578
0.073376127 0.079093739 1.087 -0.1034165099 0.8409277797 0.5311737061
0.33781385 -0.36082286 1.1930001 0.5936968327 -0.1214141771 0.795476377
0.01197176 0.028931754 1.138 -0.1325093061 0.7314684987 0.6688760519
0.24322632 0.10691085 1.0355386 -0.3292195201 0.4929356575 0.8053750396
0.02256277 0.048068509 1.1190001 -0.1200759485 0.7505117059 0.6498568654
0.3104265 -0.20634659 1.2410001 0.8397747278 -0.06142988801 0.5394486189
0.40845212 -0.15512003 1.0470001 0.8651741147 0.09987467527 0.4914253354
0.13481648 -0.097116046 1.3032501 -0.08142419904 0.687604785 0.7215052247
0.27201915 -0.39483663 1.2320002 0.5905913711 -0.2099072635 0.7791923881
0.19466148 -0.008607503 1.2104446 -0.02243722789 0.73697716 0.675545156
-0.2181848 0.1219268 1.4640001 0.5329630375 -0.3880027831 0.7519336939
0.055121001 -0.003122394 1.1863333 -0.0636812821 0.7732714415 0.6308692098
0.29561359 -0.3347441 1.2261997 0.5923261046 -0.1216656566 0.796459198
0.2431208 -0.27333754 1.2925555 0.4119485617 -0.2931729555 0.8627560735
0.41837659 -0.29201677 1.0756668 0.846300602 0.1175437048 0.5195755363
-0.015649443 -0.14425376 1.326154 -0.1913108826 0.7682330012 0.6109158397
0.35822093 -0.10394023 1.1551818 0.9265829325 0.07823152095 0.3678640127
0.2227084 -0.42473125 1.2661818 0.7328987122 -0.1526594907 0.66298908
0.043540526 -0.12030935 1.307 -0.1595685631 0.7035316825 0.6925178766
-0.0759423 -0.061743457 1.2270001 -0.118655242 0.6951851249 0.7089700699
0.39527127 -0.30523652 1.1156129 0.8320363164 0.02474155463 0.5541691184
0.2360521 -0.46485466 1.2538002 0.6786282063 -0.04737281427 0.7329525948
0.40882561 -0.24170752 1.077 0.872192204 0.1151661947 0.4754129648
0.10094553 0.21171764 1.0190001 0.5675076842 -0.3081192672 0.7635427713
0.1418885 -0.040383648 1.245 -0.09650614113 0.7294537425 0.677188158
0.15473497 -0.28567058 1.3577499 0.7811406255 -0.2638915181 0.5658450723
0.27354464 -0.42521995 1.2229998 0.6595991254 -0.1268691421 0.740832746
0.10831392 -0.18831852 1.404 -0.03547954932 0.5833064318 0.8114769459
-0.016962273 0.068039678 1.087 -0.179899618 0.7468341589 0.6402147412
-0.034550637 0.042118572 1.1141249 -0.1099424288 0.7314439416 0.6729802489
-0.11524929 -0.12464955 1.2860557 -0.134416163 0.7268359661 0.6735293269
0.42509088 -0.15496258 1.0255805 0.8246026635 0.0447198227 0.5639420152
-0.14248697 0.031736504 1.1313334 0.1598422676 0.6491302252 0.743693769
0.41050005 -0.045405198 1.057 0.6636956334 -0.1819223315 0.7255428433
0.38205925 -0.30449915 1.1447145 0.8512217402 -0.0502830483 0.5223917961
0.17036614 -0.11589533 1.322 0.02510436065 0.7024356723 0.7113043666
0.12481686 0.10818686 1.0535001 -0.0339650698 0.8441176414 0.5350810885
0.014639164 0.15175448 0.99199992 0.1418423057 0.6857632995 0.7138693333
0.35397691 -0.23505504 1.1843845 0.8106107712 -0.00405014772 0.5855713487
0.14440805 -0.30247629 2.2260001 -0.1486418843 0.9438947439 0.2949038148
0.37160408 -0.25515851 1.1549999 0.8476787806 -0.02517622523 0.5299121141
-0.14158167 -0.13591839 1.2920001 -0.2196469754 0.6645306945 0.7142507434
-0.00105726 0.45145002 1.2060001 0.4761621058 -0.3444643021 0.8090822101
-0.034114968 -0.10346895 1.2759166 -0.1426074207 0.6793831587 0.7197927833
-0.09583848 -0.034395225 1.1953639 -0.1208942682 0.7515816689 0.6484671235
0.33547223 -0.23530293 1.2050908 0.7258599997 -0.05220324919 0.6858586669
0.045453701 -0.034003269 1.2247778 -0.06636086851 0.7670493126 0.6381469965
-0.055516597 0.046084929 1.1057271 0.01890034415 0.7028993964 0.7110381126
0.17457248 0.0627518 1.1243333 0.04021431506 0.8125923276 0.5814434886
0.43337259 0.19417407 1.605 0.1345929205 0.7600893378 0.6357271075
0.43964919 -0.13250904 1.001 0.8098755479 -0.007942266762 0.5865479708
0.36745572 -0.12454674 1.1346318 0.9191534519 0.1120521724 0.3776257634
0.32896829 -0.44169885 1.169 0.4288916588 -0.1331718266 0.8934859633
-0.24051788 0.1183088 1.483 0.4859143198 -0.4491838217 0.7497473955
0.25594115 -0.34644642 1.2590002 0.5567979217 -0.245352447 0.7935856581
0.055165596 0.12808283 1.0162307 0.0007485129754 0.7964158058 0.6047489643
0.37150255 -0.084600292 1.1131539 0.9173753262 0.1141162887 0.3813135624
0.35734686 -0.43062305 1.1450001 0.7083440423 -0.1690794975 0.6853180528
0.06458807 0.25554174 1.0719333 0.7627235055 -0.2153324783 0.609823525
0.1253614 0.083207384 1.0927857 0.004890714306 0.8445829153 0.5354024768
0.093977608 0.12881723 1.0190001 -0.1381408572 0.7358356714 0.6629199982
0.36200109 -0.38439295 1.1610001 0.7283536196 -0.05668736249 0.6828525066
0.24360062 0.087317914 1.0967274 -0.03173336759 0.7949973345 0.60578233
0.44969609 -0.20403947 0.98900002 0.7369557619 0.03580408171 0.6749920845
0.22918215 -0.19743147 1.317 0.5731506348 -0.1561124474 0.8044422269
0.28223914 0.13430096 1.0958 -0.4769199789 0.7200995684 -0.5039880872
0.32790646 -0.17506799 1.2135557 0.790517509 0.04394502938 0.6108608246
0.23495182 -0.012671215 1.219 -0.0002907389426 0.6987229586 0.7153922915
0.24994205 -0.39510489 1.245 0.6650239229 -0.2397579551 0.707290113
0.12510656 -0.014541269 1.2171251 -0.08149725199 0.7323629856 0.6760197282
-0.10144646 -0.15251476 1.312 -0.139149487 0.1946819723 0.9709461331
0.18649828 -0.37442699 1.3146471 0.785402298 0.01316811703 0.6188455224
0.0052498789 -0.05517206 1.2428182 -0.1687783599 0.7126517892 0.6809120774
0.069008566 -0.18523353 1.381 -0.1034703553 0.6904255152 0.7159653902
0.17559208 0.024082564 1.1740668 -0.004694619216 0.7525399923 0.6585298181
