# .PCD v0.7 - Point Cloud Data file format
VERSION 0.7
FIELDS x y z normal_x normal_y normal_z
SIZE 4 4 4 4 4 4
TYPE F F F F F F
COUNT 1 1 1 1 1 1
WIDTH 512
HEIGHT 1
VIEWPOINT 0 0 0 1 0 0 0
POINTS 512
DATA ascii
0.37354341 -0.2447549 1.293923 0.7710437775 -0.1172144562 0.6259012222
-0.49613023 -0.49613023 2.398 -0.008044878952 0.7171369195 0.6968858838
-0.21587566 0.20228907 1.7220001 0.9926894307 -0.119263269 0.01854617707
0.21035178 0.38090727 1.2970001 0.5601987839 -0.4149512053 0.7169329524
0.49077728 0.10063256 1.766 -0.2020456642 0.8479195833 0.4901121557
0.044883579 -0.3941949 2.2260001 0.1295856684 0.9667285681 0.2205524594
-0.13569726 -0.044894408 1.2348237 0.1598104239 0.4390599132 0.8841306567
-0.26541522 -0.18456025 2.0050001 0.005054565612 0.7128238678 0.7013248205
0.071007371 -0.49206862 1.4210001 0.6526821852 -0.2382281572 0.7192032337
0.21118417 0.05291472 1.0925001 -0.1984906197 0.6417526603 0.7407799959
0.40435481 0.095471561 1.41125 -0.5815231204 0.662871778 -0.4716267884
0.086280838 -0.18457237 1.398 0.01966043189 0.7002558708 0.7136211991
-0.18866567 0.096258 1.4640001 -0.02465025894 -0.5913411975 0.8060446382
0.40756145 -0.49094999 1.189 0.7631848454 0.0427310504 0.6447658539
-0.19566937 -0.36108059 2.3010001 -0.008044878952 0.7171369195 0.6968858838
0.37110615 -0.0322701 1.2270001 -0.8032787442 0.5779651403 -0.143873468
0.26453057 -0.42507154 1.3438185 0.4927439094 -0.3898356557 0.7779663205
0.081004001 -0.048602398 1.2320001 0.004399772268 0.8075675368 0.5897586346
0.3061662 0.11572789 1.6710001 -0.2639119625 0.8436527252 0.4675473869
-0.11199066 -0.20134491 1.3590001 -0.4349361062 0.2572319806 0.8629381657
0.042342998 -0.45518726 2.4150002 0.1295856684 0.9667285681 0.2205524594
0.2132141 0.20897104 1.21 0.5374911427 -0.3766014874 0.7545028925
0.44311666 0.21269752 1.55525 -0.624294579 0.7029973865 -0.3406625092
0.23463808 -0.11731904 1.3120002 0.01570584439 0.7488258481 0.6625806689
-0.20471044 0.24560308 1.5546665 0.8439795971 -0.08649609238 0.5293551683
0.22768261 -0.27897373 1.427 0.4686150551 -0.449341327 0.7605867982
0.056972813 -0.33147821 1.4770001 0.7066201568 -0.2139395177 0.6744759679
0.45212245 -0.33283612 1.1730001 0.7285221815 -0.1307369471 0.6724308729
0.05493544 0.061802369 1.1190001 0.3396416903 0.4445058405 0.828889668
-0.15928771 -0.030398417 1.3870001 0.4242118299 -0.5115565062 0.7472310662
-0.063403159 -0.3906453 2.3330002 0.1264632642 0.9668141603 0.2219852507
-0.012007328 -0.11662648 1.3134288 -0.2007331252 0.7746132016 0.5997337699
0.21462002 -0.03398177 1.2045882 0.07972701639 0.8213337064 0.5648491383
0.36468184 -0.38444921 1.2654544 0.7494775057 -0.1639807671 0.6413998604
0.15657267 -0.39266777 1.41 0.2752886713 -0.4744274616 0.8361427784
-0.021445896 -0.24095096 1.439 -0.2347163409 0.666443646 0.7076447606
-0.04436351 0.015474885 1.1768401 0.2976888716 0.4785217345 0.8260740042
0.41103876 -0.12677959 1.2970001 0.3980291188 0.23025693 0.8880059719
0.30168554 -0.0079408465 1.132 -0.01816640794 0.6032993793 0.7973079085
0.17632572 -0.49800104 1.3590001 0.3088058233 -0.4088524282 0.8587657809
0.32444879 -0.49526253 1.2759411 0.6887863278 -0.2100125998 0.6938790083
0.38448146 0.024685619 1.325 -0.1255188286 0.8187740445 -0.5602267981
0.31200129 -0.3249523 1.3430001 0.6636941433 -0.3324389458 0.670070529
0.11524002 -0.11408764 1.3145002 -0.02157213166 0.803463459 0.5949631333
0.1952512 -0.17938703 1.3920001 0.1032759771 0.741592586 0.6628533006
-0.15461794 -0.12453642 1.3032501 -0.08500422537 0.7517758012 0.6539170146
0.24260201 0.13331693 1.1472224 0.5427083969 -0.4524224997 0.7076591253
0.13527119 0.0078377975 1.1569999 0.08673521876 0.8270721436 0.5553635359
0.43607613 -0.2456021 1.2169999 0.5806667209 -0.2612145543 0.7710986137
0.19784173 0.29456764 1.2537501 0.5622884035 -0.3860676885 0.7312889099
-0.035466954 -0.05809617 1.2410001 -0.05063314736 0.781869173 0.6213830113
0.40720463 0.1569844 1.4839998 0.02205946296 0.7530286312 -0.657617867
0.32439309 -0.098632991 1.2748749 0.1710996628 0.7643418312 0.6216964722
0.45791402 -0.42366615 1.149 0.5495975018 -0.1061175093 0.8286625743
0.29540512 -0.24625163 1.3810002 0.6242409945 -0.02566482499 0.7808101177
0.23641287 -0.35540086 1.3870002 0.5727823377 -0.227060616 0.7876318097
-0.026538454 -0.18215029 1.376 -0.1508406699 0.7580977082 0.6344563961
-0.19802497 0.16435631 1.5160002 -0.1915923804 -0.5989801884 0.7775056958
0.075610518 -0.4057838 1.4374999 0.4541412592 -0.2951990664 0.8406029344
0.15656915 -0.31950292 1.452 0.3102705181 -0.2545167208 0.9159440398
0.17517202 -0.074362956 1.2659999 0.04407005012 0.7927417755 0.6079624295
0.1346305 0.081675366 1.0821818 0.2599202693 0.5269603133 0.8091688752
0.42672244 0.058348883 1.7363334 -0.229047969 0.844892025 0.483419627
0.035143327 -0.0053822459 1.1752224 0.07411381602 0.7210399508 0.6889184117
0.38964763 -0.30778891 1.245 0.8310065269 -0.1510448605 0.5353630185
0.063646004 -0.24058188 1.452 0.04434178025 0.6869193316 0.7253796458
0.29442623 -0.044064935 1.2045455 0.07236465067 0.8070399165 0.5860460401
0.40122437 -0.41495052 1.2043999 0.8321661949 -0.1351872981 0.5377953649
0.26485851 -0.16314328 1.3649999 0.07041155547 0.7888482809 0.6105412245
-0.18312281 0.024726676 1.434 0.6362549067 -0.3401456773 0.6924453974
0.24495928 -0.49620205 1.3268001 0.4053100348 -0.3032619953 0.8624128699
-0.085112035 -0.10444919 1.2863336 -0.01919084415 0.7256501317 0.6877961755
0.42307934 -0.19432545 1.2666668 0.6113287807 -0.3963845968 0.6849498749
0.054569624 -0.14174584 1.3490001 -0.03313312307 0.7502753139 0.6602947116
0.25528991 -0.074428037 1.2572106 0.1365635395 0.7884243131 0.5997812152
0.22620386 0.0065504024 1.1450001 0.04944171757 0.8425956368 0.5362724066
0.12461072 -0.45444822 1.3935002 0.1140503734 -0.2643838227 0.9576500654
0.055415533 -0.087582193 1.2852727 0.01146842632 0.7760121822 0.630613625
0.18873405 0.41663933 1.3540001 0.5930570364 -0.4519442916 0.6663555503
0.14454365 -0.21389379 1.4242308 -0.004663426895 0.6690627933 0.7431912422
0.26729801 0.066082552 1.1306667 -0.1583658457 -0.3306609392 0.9303674698
0.32188046 -0.43145674 1.302 0.6394132376 -0.2922112942 0.7111703753
0.17346488 -0.1369666 1.3430001 0.05345935747 0.7604514956 0.6471905708
0.20506988 -0.43426567 1.376 0.3180345595 -0.2434525043 0.9162886739
-0.083676085 -0.24336442 1.4119999 -0.1491894573 0.703994453 0.6943588853
0.14503777 -0.033063337 1.2165 -0.01485075895 0.813626349 0.5811984539
0.36887479 -0.46391848 1.2360001 0.7992928028 -0.169475019 0.5765494108
-0.074783072 -0.14710008 1.3352224 -0.08070465177 0.7482120395 0.6585328579
-0.28301284 -0.20456578 2.0650001 -0.008044878952 0.7171369195 0.6968858838
0.024784619 -0.20518446 1.4135716 -0.05804027244 0.7533926368 0.6550045013
-0.18119298 -0.07447809 1.268 0.4001833498 0.5576197505 0.7272643447
-0.0020452633 -0.40496212 2.3330002 0.1276236326 0.9668926597 0.2209770083
0.35185036 -0.32512528 1.2942222 0.7380650043 -0.1567191482 0.6562767625
0.27352601 -0.30385968 1.3920001 0.3988162875 -0.3550685942 0.845500946
0.30171418 -0.13714282 1.322 0.1936494559 0.7465435266 0.6365317106
-0.085497789 -0.017608726 1.21 0.2854420543 0.4800057411 0.8295283914
0.037377559 -0.27344635 1.4960001 -0.01656866632 0.3620845079 0.9319980145
0.33637443 -0.26621768 1.3369286 0.759231329 -0.2008580267 0.6190507412
0.0058387751 0.042477481 1.1482002 0.328434974 0.3648591042 0.8712108135
0.1130637 -0.36054757 1.4330001 0.3075446486 -0.3713003099 0.8761006594
0.40446767 -0.35479075 1.2132258 0.7812551856 -0.2135152519 0.5865590572
0.02292045 -0.060029749 1.245 0.01761224121 0.7868533731 0.6168886423
0.36779761 -0.012372397 1.2830001 -0.2634384334 0.8676152825 -0.4217154384
0.32478893 -0.37475893 1.3153332 0.6763059497 -0.2331488729 0.6987501979
0.34910473 -0.051935781 1.177 0.1158432513 0.8600414395 0.4968994856
0.11318205 -0.15130652 1.3590001 -0.03750224411 0.7496883273 0.6607276201
0.11116134 -0.081147775 1.268 -0.04983369634 0.7845429778 0.6180686951
0.28321978 -0.37248272 1.3540001 0.5712074041 -0.2981088161 0.7647569776
0.39561248 0.061986469 1.365 -0.2840962708 0.7029163241 -0.652072072
0.16536163 0.033457689 1.1148572 0.1035042703 0.7750965953 0.6233074069
0.094764955 -0.014801266 1.1853809 -0.08355745673 0.7847473621 0.6141577363
-0.012659066 -0.026375392 1.2033334 -0.009244995192 0.7497264147 0.661683321
-0.15187986 -0.16129878 1.3430001 0.07860914618 0.4437542856 0.8926941156
0.20056468 -0.33385921 1.4210001 0.3685637116 -0.4027062953 0.8378474712
0.43173203 -0.30019698 1.21 0.5887935162 -0.3527769148 0.7272349
0.38204959 -0.086269259 1.2780001 -0.1964389384 0.6946867704 0.6919696331
0.075578868 0.015808562 1.1462634 0.04963418096 0.7459557056 0.6641434431
0.29297265 -0.47447273 1.3133638 0.6221486926 -0.2552547157 0.7401189208
0.33265644 -0.068043359 1.2320001 0.1179561913 0.7968357801 0.5925698876
0.43497655 -0.38489896 1.1754 0.6224626303 -0.2273722142 0.7488939762
0.1048668 0.045858968 1.1152173 0.1195562482 0.6903255582 0.7135522962
-0.16975686 -0.39269054 2.3330002 -0.008044878952 0.7171369195 0.6968858838
0.22193781 0.25839135 1.223 0.6519625783 -0.3417489827 0.6768695712
-0.084817499 -0.068599164 1.25 0.03404166922 0.7003840804 0.7129539251
0.22052813 0.16772562 1.1810001 0.3228341043 -0.4317082763 0.8422625065
-0.072609037 -0.19647151 1.3920001 -0.3390580118 0.3094953299 0.8883987069
0.18492262 -0.10561855 1.3047779 0.02436719276 0.7821121216 0.6226611137
0.41687167 0.1782763 1.529 -0.528760314 0.7710363269 -0.3548457026
0.18465866 -0.0083735446 1.1730002 0.08485455811 0.8286591768 0.5532844663
-0.22218765 0.21939285 1.5940001 0.8853322864 -0.1262224168 0.4474982619
0.26468563 -0.016481861 1.1748002 0.04972846061 0.7903661132 0.6106131673
0.14399776 -0.17572609 1.3920001 0.02291683108 0.7256551981 0.6876767874
0.024125867 -0.17008735 1.376 -0.04699070007 0.6781103611 0.7334563732
-0.1339196 -0.088163733 1.273 -0.01185718738 0.6926825643 0.7211450934
-0.034731779 -0.090750776 1.2780001 -0.05659973994 0.7523586154 0.6563177705
0.40282878 -0.2546486 1.2520626 0.7835077643 -0.2699239254 0.5596933365
0.26262549 0.021251801 1.1120001 0.3584857881 0.5580890775 0.7483478785
0.21194498 0.33598569 1.2746667 0.6487168074 -0.322693944 0.6892279387
0.44499773 -0.46250743 1.1750001 0.3357756138 0.05235262588 0.9404860139
0.19819768 -0.38788378 1.3870001 0.4634534717 -0.3525795043 0.8129566908
0.41170457 0.13047868 1.4450001 0.2674326599 0.6779947281 -0.6846918464
0.2146713 -0.15430425 1.3562222 0.08891697973 0.7423681021 0.6640657783
0.22506487 0.084646113 1.126 0.4706615508 -0.2797496617 0.836790204
0.10977269 -0.49458024 1.376 0.3016299307 -0.446377635 0.842476368
0.2752876 -0.1051992 1.2949166 0.2101654708 0.7713894248 0.6006569862
0.21847411 -0.090750776 1.2780001 0.1254836172 0.764247179 0.6325979233
0.075104907 -0.29910201 1.503 0.3193913698 -0.2859525681 0.9034491181
0.21470872 -0.47440568 1.3550869 0.3586488068 -0.2962206602 0.885225594
-0.025061021 -0.14817958 1.3430002 -0.1813861281 0.7398418188 0.6478681564
0.11454128 -0.41473544 1.4118181 0.1854426265 -0.3853072822 0.9039631486
0.16503713 -0.43473837 1.3962501 0.4086693525 -0.3593175411 0.8389757276
0.034891833 -0.11471672 1.3141431 -0.04162689671 0.7814708352 0.62255162
0.35186565 -0.43477786 1.2649231 0.6798336506 -0.1546534449 0.7168741226
0.21476002 -0.059401702 1.2410001 0.06091776118 0.8076824546 0.5864623189
-0.20966798 0.19749372 1.5430001 0.7639863491 -0.3202809691 0.5601294041
0.39529601 -0.17103066 1.2920001 0.3637326956 -0.4465436935 0.8174945116
0.015829094 -0.25198206 1.4640001 -0.0966385603 0.7778333426 0.6209962368
0.083238304 -0.4456363 1.4210004 0.4206451774 -0.1494490057 0.8948310614
0.30717084 -0.28507885 1.3649999 0.7575116754 -0.2934913635 0.5831285715
0.096732281 -0.21984608 1.4330001 0.00828178972 0.7087743282 0.7053866982
-0.035037935 -0.20733507 1.4105555 -0.1762524992 0.6771008372 0.714471519
-0.11517101 -0.13709392 1.324 0.004395535681 0.7636570334 0.6456071734
0.25517488 -0.048247349 1.223 0.1302997619 0.8164276481 0.5625547767
-0.20171882 0.13535076 1.4845002 -0.5831881166 -0.4009632468 0.7064843178
0.24218266 -0.39482525 1.3709999 0.5375354886 -0.26874125 0.7992707491
0.19255108 -0.29769409 1.4450001 0.3504602611 -0.4148812294 0.8396732807
0.17467144 0.067980245 1.0769999 0.09964384139 0.6224143505 0.7763191462
0.30945894 -0.041873984 1.1650001 0.4386147559 0.8258367181 0.3544161618
0.36787599 -0.2865774 1.2880001 0.7415165305 -0.2256094664 0.6318652034
0.045475505 -0.037827466 1.212 0.0224745702 0.7955570221 0.6054617763
0.26582071 -0.26788375 1.4125 0.4741333723 -0.182916522 0.8612427711
0.057627905 -0.36583629 1.45275 0.4834424853 -0.4433037341 0.7548279166
0.34761763 -0.22779903 1.3244001 0.7970597148 -0.0494456999 0.6018728614
-0.004609732 0.0067835362 1.1682501 0.154378742 0.5935546756 0.7898481488
0.37831464 -0.3461273 1.2574 0.834708333 -0.08414316922 0.5442259908
0.23300751 -0.31481102 1.404 0.5534309149 -0.3410774469 0.7598555088
0.14535578 -0.095471099 1.2933333 -0.00665426068 0.7712845802 0.6364556551
0.16452357 -0.3539758 1.4217501 0.3681716323 -0.3333973289 0.8679261804
-0.19086115 -0.092576295 1.3036667 0.5155752897 0.6330391765 0.5774456263
0.01412836 -0.1377515 1.3430001 -0.0234840475 0.7377989888 0.6746118665
-0.16124004 0.0086158803 1.404 0.4855288565 -0.3634779751 0.7950757742
-0.054998562 -0.12145516 1.307 -0.125012666 0.7380045652 0.6631147265
0.2967242 -0.40739775 1.3273335 0.6353542209 -0.3181914985 0.7036186457
0.29484743 -0.071879782 1.245 0.1069470868 0.8175952435 0.5657740831
0.074931331 -0.11297778 1.3150003 0.03971168771 0.8145834208 0.5786854625
0.015384185 -0.088539094 1.2838334 -0.0300711114 0.7888216972 0.6138860583
0.23213843 0.045679204 1.13 0.3599099219 -0.08106798679 0.9294583797
0.39716932 -0.45567757 1.2040001 0.8349763751 -0.09682749212 0.5417000055
0.1353398 -0.060029749 1.245 -0.03215380013 0.7865849137 0.6166443825
-0.17948171 0.059827238 1.452 0.6236905456 -0.3045118749 0.7199184895
0.37816247 -0.406335 1.2360001 0.8354084492 -0.114754118 0.5375167131
0.34817255 -0.4977012 1.245 0.6454658508 -0.2919632196 0.7057842016
-0.084962144 -0.17112094 1.365 -0.2327350676 0.6861168742 0.6892590523
0.42484063 -0.42473462 1.1748949 0.6894290447 -0.1417255551 0.7103530765
0.26485077 -0.13739705 1.3338333 0.09208310395 0.7497965097 0.6552296281
0.23204637 -0.18200505 1.381 0.05355511978 0.7567499876 0.6515069604
0.15802443 -0.46924812 1.376 0.3657707572 -0.350728929 0.8620910645
0.17445315 -0.050927319 1.2360001 0.07653661817 0.7860402465 0.6134190559
0.27822113 -0.33685696 1.365 0.6421494484 -0.3820482492 0.6645925045
0.25391802 -0.46113396 1.3430001 0.354480952 -0.3501064181 0.8670459986
0.39104271 -0.2133301 1.2830001 0.7576491237 -0.2627640963 0.5974301696
0.33828902 -0.29787907 1.317 0.7879205346 -0.3089196682 0.5326817632
0.4433873 -0.22334398 1.2550001 0.6853689551 -0.2200925201 0.6941388249
0.051938117 -0.43323988 1.4450001 0.6102082133 -0.1249885634 0.7823194861
0.37702805 -0.11396404 1.3032501 0.4026741982 0.3269572556 0.8549575806
0.18454249 0.011767716 1.1425 0.0944911018 0.8317497969 0.5470499992
0.065541938 -0.16365381 1.3760002 -0.06430609524 0.7377099991 0.6720480919
0.064698681 -0.20657334 1.4223335 0.01125229988 0.7250191569 0.6886367202
0.18659149 0.39983889 1.322 0.5930570364 -0.4519442916 0.6663555503
0.075492643 -0.072655499 1.2584286 0.01927025989 0.8116109371 0.5838804245
-0.065360218 -0.045903146 1.22475 0.05261820927 0.6708567142 0.7397179008
0.087408043 -0.33823118 1.4450001 0.5271764994 -0.325209856 0.7850627303
0.38061798 -0.49533945 1.223 0.7916354537 -0.07038193196 0.6069263816
0.33987314 -0.39745963 1.2880001 0.7250919342 -0.2126439065 0.6549994349
0.13456176 -0.013370481 1.1883334 0.007340522017 0.7836268544 0.6211884618
0.33059496 -0.23665047 1.3565001 0.7803512812 -0.1629433334 0.6037395
0.35542381 -0.085700661 1.25325 -0.2689627409 0.7582312226 0.5939229131
0.086745635 0.070589021 1.097 0.2250207663 0.5269391537 0.8195735216
0.26328421 0.0036083602 1.1453999 0.4054106474 0.8655229211 0.2941297591
0.03568764 0.018235736 1.1485556 0.1751280427 0.65148139 0.7381749153
0.2253819 -0.01256912 1.1750001 0.06196513399 0.7962979674 0.6017224193
0.1268826 -0.32788473 1.4330001 -0.0981554687 -0.3300174475 0.9388577938
-0.1158639 -0.16552223 1.3486253 -0.2819805145 0.3916472793 0.8758420944
0.17649993 -0.20305791 1.4135715 0.08569343388 0.6770398021 0.7309403419
-0.12147064 -0.016742287 1.2190001 0.2483575642 0.4466496706 0.8595479131
0.20425895 0.027859092 1.1178571 0.02501312271 0.7758107781 0.6304696798
-0.045032438 -0.015713196 1.1946002 0.2060774267 0.6021899581 0.7712972164
0.13489269 -0.13020077 1.3380001 0.0003148655233 0.8114504218 0.5844212174
0.11507696 -0.19798771 1.4115 -0.02601902746 0.7068057656 0.706929028
0.42092973 0.18784161 1.5640001 -0.6495592594 0.7004235387 -0.2957695723
-0.056410491 -0.23246419 1.3945714 -0.6316879392 0.4677105844 0.6182371378
0.16454157 -0.15973744 1.3700001 0.08456417918 0.7520983219 0.6536030769
0.42663375 -0.33581397 1.1957203 0.6679103971 -0.2399336398 0.7045051455
-0.0055186166 -0.071742013 1.2590001 -0.06294829398 0.7767897248 0.6266061664
0.0296664 -0.39357424 2.256 0.1295856684 0.9667285681 0.2205524594
-0.22451082 0.18287967 1.6960001 0.9978235364 -0.0591602698 0.02912536822
0.095801257 -0.13330264 1.3367501 0.01260946132 0.7613433599 0.6482263207
0.41063854 -0.32272115 1.223 0.7218310833 -0.1999180317 0.6625652313
0.4115003 -0.28513408 1.2320001 0.7439695597 -0.1727597713 0.6454946399
0.17484212 -0.026710866 1.2026666 0.0792023018 0.8180673718 0.569642663
-0.10165081 -0.042488966 1.2270001 0.2454443574 0.6114334464 0.7522673607
0.20450442 -0.12971424 1.3330001 0.1295513213 0.7610000968 0.635684967
0.11453498 -0.043257996 1.2251819 -0.08810082078 0.7609574199 0.6427923441
0.18988512 0.35475543 1.2970001 0.667732954 -0.3064524531 0.6783948541
0.014712512 -0.22486822 1.4383334 -0.02153671533 0.7589762211 0.6507620811
0.38747913 -0.37481663 1.233143 0.8815523386 -0.1584107876 0.4447150826
-0.00490232 -0.19364165 1.398 -0.1370365769 0.7139332891 0.6866733432
0.28516996 -0.44486666 1.3253335 0.6073137522 -0.1889436394 0.7716671824
0.08723902 -0.47519076 1.3979999 0.5422717333 -0.2457768023 0.8034520149
-0.11506963 -0.1130809 1.296375 0.0379373543 0.6872289777 0.7254496217
-0.17967458 0.11409992 1.4960001 -0.5056203008 -0.372702837 0.7781006694
0.34037897 -0.46425462 1.273 0.6793349385 -0.2340551913 0.6955013871
-0.16437501 -0.048216663 1.25 0.2951754332 0.4905751348 0.8198826313
0.23575926 -0.43427235 1.3559444 0.5256664157 -0.3276901543 0.7850439548
0.134002 0.052505612 1.1023332 0.172728613 0.6937589049 0.699187696
0.095451787 -0.096481472 1.2919999 0.005270401016 0.7895066738 0.6137193441
0.3478964 -0.36453533 1.2849231 0.7367992401 -0.1179116145 0.6657505035
0.31635678 -0.12211418 1.29575 0.1195000708 0.7621956468 0.6362212896
-0.054682959 -0.16428979 1.3560002 -0.04413657635 0.7255193591 0.6867849827
0.4317145 0.1262926 1.47 0.1806668788 0.7058716416 -0.6849122047
0.19477405 -0.36359 1.41 0.4011563361 -0.3025713265 0.8645948172
0.014319998 -0.042105071 1.2190001 0.01454014424 0.8107521534 0.5852089524
0.3280628 -0.33499023 1.317 0.743530333 -0.1966780126 0.6391247511
-0.0043877163 -0.15915444 1.3650001 -0.2107927203 0.6658343077 0.7157031894
0.12402012 -0.38446519 1.4146878 0.18185018 -0.1910353601 0.9645910859
-0.1817067 -0.014833201 1.4100001 0.3542128801 -0.4669745266 0.8102271557
0.30523387 -0.35476515 1.3351053 0.6618937254 -0.1870916039 0.7258743048
0.085783578 -0.37593389 1.4389998 0.3610104322 -0.2245599926 0.9051211476
0.13622348 0.028626673 1.126 0.1298457831 0.7857493162 0.6047628522
-0.2736252 -0.187782 2.0400002 0.005054565612 0.7128238678 0.7013248205
0.381212 -0.014730279 1.2546 -0.2703948617 0.899521172 -0.3431447446
0.38529566 -0.43508908 1.2254345 0.8218539357 -0.1397078037 0.5523023009
0.044127095 -0.1855226 1.3947273 -0.1457601786 0.7380955219 0.6587632298
-0.091195248 -0.22130047 1.3870001 -0.0881563127 0.6513265371 0.7536592484
0.41201755 -0.3856737 1.202 0.743037641 -0.154692173 0.6511262059
0.24597724 -0.031219676 1.1950001 0.08811254799 0.8234043717 0.5605724454
0.10669249 0.017460572 1.147182 0.002494135406 0.7825362682 0.622600019
0.42603374 -0.20706165 1.2350001 0.6584448218 -0.2446840107 0.7117444277
0.199607 0.26505473 1.2442 0.6563414931 -0.2824927866 0.699581027
0.4221293 -0.15373577 1.2863334 0.2317748666 -0.3073761761 0.9229303002
-0.16618378 -0.097010843 1.2830001 0.2705032825 0.608068049 0.7463787794
0.075016364 -0.03169746 1.2052001 -0.0285073854 0.7849407196 0.6189147234
0.2862404 -0.09059649 1.268 0.1751352996 0.764274478 0.620654583
-0.085276 -0.12676381 1.3145001 -0.03971898183 0.7544115782 0.6551988721
0.23390444 0.20507693 1.1874617 0.5838190913 -0.3535249233 0.7308730483
-0.1156104 -0.06739375 1.25 0.1065904051 0.6677780151 0.7366892099
0.28713474 -0.27532282 1.3870001 0.6565662622 -0.159373641 0.7372386456
0.076214328 -0.30743781 1.4735 0.4248408377 -0.5485694408 0.7201262712
-0.02130037 0.031443402 1.1570001 0.2895693183 0.3904200792 0.8739117384
0.41547981 -0.45501864 1.1765001 0.7275385857 -0.1171877235 0.6759842038
0.37843946 0.042574439 1.3490001 -0.3304090202 0.6890530586 -0.6450083256
0.25580695 -0.36516237 1.3649999 0.4735932052 -0.2902334929 0.8315491676
0.24382028 0.11154531 1.126 0.4271235168 -0.4476552308 0.7856018543
0.11492112 -0.17364338 1.3838003 -0.05234106258 0.7103667259 0.7018828392
-0.073804505 0.0047555184 1.1933639 0.2783490717 0.4800896645 0.8318868279
0.064550079 -0.0030742364 1.1687334 0.007150592748 0.7514230609 0.6597819328
-0.055557519 -0.073416799 1.2573999 -0.07276310772 0.7679460645 0.6363680959
0.15492885 -0.11396126 1.3150771 0.007070922293 0.798784852 0.6015751958
0.25371936 0.054173689 1.10675 0.1475789398 -0.2485363483 0.9573140144
0.034811176 0.044760991 1.1346402 0.336240083 0.3983641565 0.8533748388
0.4614892 -0.39408234 1.1650001 0.4594573975 -0.2318417132 0.8574079275
0.17639147 -0.31525284 1.427 0.4971425831 -0.382584691 0.7787671089
-0.4759143 -0.4821763 2.381 -0.008044878952 0.7171369195 0.6968858838
0.3855119 -0.27464214 1.2659047 0.8336881399 -0.2560340762 0.4892960787
0.2545163 -0.32481048 1.3825002 0.2879970372 -0.425244689 0.858035326
0.075541556 0.037065782 1.1253573 0.1256442368 0.6395326853 0.7584270239
0.23483059 -0.14239977 1.3380001 0.01448389515 0.7625219822 0.6468001604
0.35506696 -0.25514629 1.3156842 0.7924903035 -0.1428786665 0.5929121375
0.18787405 -0.46669349 1.365 0.4766734242 -0.3585100472 0.8026537299
-0.10338005 -0.090040676 1.268 0.05501683056 0.741417408 0.668784976
0.24578577 -0.098540843 1.2920001 0.00408337079 0.7840915322 0.6206317544
0.43086502 0.1805153 1.503 -0.4875352383 0.7992550135 -0.3514267802
0.015718574 -0.024105586 1.1954001 0.07242766768 0.7609957457 0.6447012424
0.39734915 0.12414477 1.4699999 0.3234084249 0.6247018576 -0.7107422352
0.045988474 -0.072109915 1.2589999 -0.008047521114 0.8112421036 0.5846549869
0.40595943 -0.22553423 1.2549568 0.743906498 -0.1629970521 0.648101151
0.24616802 -0.28801656 1.4040002 0.4593227804 -0.4254710078 0.7797416449
0.31424385 -0.46457833 1.2956959 0.6593204141 -0.1883004904 0.7279007435
0.23153993 0.23153993 1.2060001 0.4997518063 -0.3572902381 0.789044857
0.14459661 -0.49524134 1.3745002 0.2400595248 -0.530788362 0.8127946258
0.18502489 -0.41341344 1.3956668 0.384326756 -0.3510728776 0.853838861
0.04940455 -0.3952364 1.4450001 0.2965795994 -0.2287349999 0.9272113442
-0.014674718 -0.045695078 1.2247778 -0.06016338989 0.8088450432 0.5849359035
0.21477379 -0.30467966 1.4243751 0.4216510952 -0.3737684488 0.8261401057
0.37215996 -0.31433138 1.27675 0.7286515832 -0.2081671506 0.6524823904
0.21842203 0.12600487 1.161 0.4182074368 -0.4210610092 0.8048665524
0.38420194 0.0075333724 1.302 -0.2750637829 0.7838782668 -0.55666399
0.045209825 -0.22351706 1.4381428 -0.02805577219 0.7130933404 0.7005075216
0.3235223 -0.2941691 1.3434619 0.7212351561 -0.2460504025 0.6475176215
0.32243672 -0.026437633 1.1450001 0.01430287492 0.7448403835 0.6670893431
0.45225954 -0.36258915 1.1730001 0.5139735341 -0.1183013096 0.8496093154
0.38922423 -0.14381891 1.302 0.4035503268 -0.03011184745 0.9144617915
0.048525255 -0.30470362 1.4959999 -0.02136845887 -0.24098441 0.9702937007
0.21934725 -0.4985165 1.3380001 0.4364900887 -0.3596423864 0.8247022033
0.04259051 -0.25255859 1.4723334 0.02613111213 0.8111491203 0.5842553377
0.3214123 -0.048795268 1.21 0.3899210095 0.8572649956 0.3362415433
-0.011704084 -0.097785741 1.2920001 -0.1723334342 0.7390416861 0.6512438655
0.21640904 -0.40579706 1.3760002 0.3873214722 -0.2113397419 0.8973948956
-0.15385903 -0.072183505 1.2590001 0.1690103114 0.5952016115 0.7856020331
-0.19519071 0.21976016 1.557 0.808724165 -0.1799658388 0.5599799156
0.063962474 -0.27804098 1.4890001 0.02752295882 0.09448454529 0.9951457977
0.22085249 0.28612912 1.2410001 0.587630868 -0.3064625859 0.7488462329
0.44099927 0.19168054 1.529 -0.4856950939 0.7957222462 -0.3618374765
0.14487208 -0.075089425 1.2657777 -0.009640203789 0.789260745 0.6139824986
0.38904274 0.14541534 1.455 0.1630926579 0.7150623798 -0.679769516
0.11170574 -0.0010248233 1.169 -0.04332154244 0.8069502115 0.5890285373
0.39758703 -0.18378673 1.268 0.5619676709 -0.3210271299 0.7623214126
0.15631355 -0.0051486632 1.174143 0.1087090075 0.8410171866 0.5299739838
0.27540174 -0.49506527 1.3163477 0.5367004871 -0.2544161379 0.804502964
0.31692919 -0.40515605 1.307 0.6379352808 -0.1968158334 0.7445147038
0.29774117 -0.49558559 1.2970001 0.6495342255 -0.236553669 0.7225978374
0.11588188 -0.025121175 1.2038666 -0.0500854291 0.8048046827 0.5914227366
0.29128391 -0.31054252 1.3730001 0.7085648775 -0.3317560554 0.622795105
0.10150485 -0.060029749 1.245 -0.08400512487 0.8084159493 0.5825862885
-0.14319824 -0.14086981 1.3280001 0.109747842 0.7154697776 0.6899698377
0.14548531 -0.41627014 1.4039999 0.2757073939 -0.1983486563 0.940554738
0.44366786 -0.30931959 1.1880001 0.7289912105 -0.2332653999 0.6435519457
0.43796885 -0.27480167 1.2051111 0.6241822839 -0.1689603478 0.7627902031
-0.053076908 -0.18215029 1.376 -0.008054969832 0.7661875486 0.6425665617
0.35871008 -0.40948135 1.2590001 0.6911797523 -0.2062006295 0.6926411986
0.34326059 -0.11178552 1.2880001 -0.119547084 0.8305751085 0.5439241529
0.38899803 -0.33482003 1.2360001 0.8565105796 -0.1513291746 0.4934461713
0.18576746 0.046624176 1.0959412 0.0301561784 0.727439642 0.685508728
0.29422745 -0.025979612 1.1853077 0.4133815169 0.8137788177 0.4085092545
-0.0049946206 -0.21472509 1.424 -0.1317268014 0.7616907954 0.6344093084
0.22032036 -0.34340438 1.4039999 0.4534809291 -0.3324473798 0.8269424438
-0.056589633 -0.10246661 1.2867501 -0.1004811674 0.7252762318 0.681085825
0.26766708 -0.39302516 1.3490001 0.4780668318 -0.110528253 0.8713412881
-0.0347686 -0.12864383 1.322 -0.07691290975 0.7531871796 0.6532943249
0.14427255 -0.34329832 1.4449999 0.1045119464 -0.4653307199 0.8789451718
0.27508667 -0.12314267 1.3145001 0.1660361141 0.7455489635 0.6454368234
0.20795849 0.2351588 1.2165 0.4782194793 -0.3667529821 0.7979964614
0.21386847 0.31457707 1.2584286 0.5466563106 -0.4748034775 0.6897307634
0.40402853 0.077654257 1.3840001 -0.5213258862 0.7200638056 -0.4579601288
0.055483833 -0.053323723 1.2335387 -0.004834066145 0.8220676184 0.5693693161
0.38795304 -0.23899686 1.268 0.7917221189 -0.1439719796 0.5936734676
-0.045206964 -0.035886444 1.2117778 0.1097906679 0.6905460954 0.7149070501
0.28277496 -0.15317206 1.344 0.18301256 0.7373101711 0.6502923369
0.14508219 -0.14508657 1.3565 0.07559771091 0.7285011411 0.6808605194
0.19323434 -0.088406399 1.2830001 0.02695243992 0.7697033286 0.6378325224
0.23946939 -0.16083765 1.3590001 0.02465809323 0.7373265624 0.6750862598
0.067632899 -0.46594113 1.4234 0.5307716131 -0.2604800761 0.8064934015
-0.02509702 -0.0056438819 1.1818889 0.1807095408 0.5871217251 0.7890704274
0.19608799 0.31892827 1.2855 0.5787426233 -0.4315912127 0.6919436455
0.28514048 -0.057063792 1.2245383 0.1256958395 0.8049887419 0.5798220634
0.094872572 -0.39572966 1.4240001 0.4466356635 -0.384356916 0.8079519272
0.22708245 0.10680794 1.1447145 0.5372239947 -0.4677377641 0.7018630505
0.29711986 -0.032121066 1.1450001 0.01254191995 0.737138629 0.6756251454
0.21440198 0.18930127 1.1930001 0.5348767042 -0.4016411602 0.7433648109
-0.21636485 0.20809612 1.572 0.8680465817 -0.1399506181 0.4763495922
0.31810114 -0.25853163 1.3590001 0.7806904316 -0.20190458 0.5914025307
0.085471325 -0.14620106 1.3558183 -0.00870261807 0.7823930979 0.6227241158
0.37203541 -0.43230626 1.25 0.7607520223 -0.1211069003 0.6376436949
0.41933769 -0.23513253 1.2360001 0.6953579187 -0.2319146991 0.6802153587
0.18585683 -0.15249792 1.3590001 0.09503464401 0.7219804525 0.6853558421
0.20371497 0.42421857 1.3355001 0.5930570364 -0.4519442916 0.6663555503
0.35495442 -0.47493857 1.2535458 0.6496697068 -0.2038581967 0.7323735952
-0.20151499 0.11050822 1.483 -0.5285478234 -0.4204919934 0.7374440432
0.27393618 0.0017228691 1.123 0.2511387765 0.6541532874 0.7134513259
0.42252883 -0.3650063 1.193 0.6943131089 -0.1609954387 0.7014341354
0.19804776 -0.021889489 1.189 0.1378860176 0.8251250386 0.5478650331
0.40074801 0.10678238 1.4330001 -0.4087406397 0.7112728357 -0.5718583465
0.20635438 -0.0019159062 1.1570001 0.02915034629 0.8267632127 0.5617943406
0.067554176 -0.42659211 1.427 0.5204696655 -0.2448378354 0.8180255294
-0.21684657 0.23479587 1.5755 0.8748750687 -0.08368530124 0.4770643413
0.15868105 0.04904687 1.097 0.1656786352 0.7238316536 0.6697897911
0.39449555 -0.10571636 1.2880001 0.4137300551 0.3952891827 0.8201060295
0.22376528 -0.38263607 1.3818572 0.4477899373 -0.3811908364 0.8088125587
0.24000941 0.15013355 1.1650001 0.3568446338 -0.4195829034 0.8346329331
-0.16959555 0.045225479 1.4330001 0.6542796493 -0.3151221573 0.6874708533
0.20464985 -0.075281888 1.2648889 0.06491673738 0.7973447442 0.6000226736
0.06520769 -0.12644215 1.3330001 -0.0118834991 0.7433712482 0.6687735319
0.025317039 -0.15249792 1.3590001 -0.07103126496 0.7491070628 0.658629775
0.23632552 0.022333667 1.1240001 0.1512731165 0.6273077726 0.7639381289
0.35795614 -0.02195831 1.2525001 -0.3332149982 0.8522360325 -0.4033131897
0.15463524 0.017957641 1.1380001 0.1114986241 0.8193849921 0.5622955561
0.18402289 -0.44552898 1.3810003 0.3282260597 -0.2611241639 0.9077895284
0.21623729 -0.44855833 1.3590001 0.5066434741 -0.3807370365 0.7735319734
0.014465773 -0.10542995 1.3046468 -0.05754614249 0.7820312381 0.6205767989
0.10831392 -0.43694821 1.4040002 0.4339890778 -0.1928703338 0.8800309896
0.23526625 -0.47589469 1.3380001 0.434642911 -0.2861068547 0.8539487123
0.31458238 -0.084003352 1.2581581 0.1542819887 0.7784682512 0.6084277034
0.094090879 -0.16405591 1.3760002 0.03482178226 0.7232314348 0.6897273064
-0.074914671 -0.085045874 1.266 -0.06705363095 0.7434693575 0.6653999686
0.22339743 0.037337817 1.1063333 -0.5077067614 0.5164299607 0.6895896792
0.21433198 -0.10757552 1.3034286 0.1224020347 0.7487934828 0.6514031887
0.054714642 -0.1053484 1.304143 -0.02513322979 0.8042157888 0.5938057303
0.26466241 -0.47516799 1.3244708 0.4949139655 -0.2841960192 0.8211533427
0.26440966 -0.090750776 1.2780001 0.1621848196 0.7955802083 0.5837364197
0.19727403 -0.042105071 1.2190001 0.1146837771 0.8078171015 0.5781688094
0.24406196 -0.059474234 1.2410001 0.08526326716 0.8177576661 0.5692121983
0.43490836 -0.44472519 1.1626295 0.405615896 0.04162289947 0.9130954146
0.24456157 0.075330183 1.1158845 0.1165244803 -0.3196800351 0.9403333068
0.41843563 -0.25816077 1.2270001 0.6455209851 -0.3211482465 0.6929404736
0.2138637 -0.19302885 1.3980001 0.1652180851 0.7060427666 0.6886265874
0.071872637 -0.35037911 1.4640001 0.6469268203 -0.3608351648 0.6717764735
0.13532208 -0.36581433 1.4263334 0.0219773259 -0.4806776047 0.8766219616
0.1403368 -0.47226384 1.3920001 0.293585211 -0.3381248116 0.8941360712
0.40905055 -0.4355562 1.189 0.7693402767 -0.1420449764 0.622847259
-0.18666424 0.14801377 1.5029999 -0.7474567294 -0.4486586154 0.4899120927
0.11502995 0.074489288 1.0934708 0.2058291137 0.5486984849 0.8102865815
0.054671042 0.027734578 1.1380001 0.1244982034 0.6504290104 0.749294579
0.19306706 0.37479657 1.3120002 0.5189421177 -0.3980205357 0.756491065
0.33669159 -0.3554343 1.3036667 0.7985669971 -0.1603509635 0.5801537633
0.29559097 -0.38473749 1.3379999 0.6152710915 -0.1546631008 0.7729946971
0.14834428 -0.44868064 1.3870001 0.3355011344 -0.3407356143 0.8782586455
0.035057902 -0.12893517 1.3330001 -0.05040783063 0.766135335 0.6406993866
0.36538675 -0.22471912 1.303389 0.7624835968 -0.1202256754 0.6357393265
0.16518663 -0.3350431 1.4358238 0.4521771073 -0.4974893928 0.7402973175
-0.0056161014 -0.24408872 1.4562 -0.1572891176 0.7267405391 0.6686615944
-0.13363643 -0.18094139 1.3490001 -0.1825526655 0.3183146417 0.9302420616
0.33347294 -0.44495985 1.2845627 0.6878780723 -0.2117222995 0.6942602992
0.41711798 0.14374527 1.4640001 0.2378295958 0.6637096405 -0.7091732025
0.03515755 -0.096402653 1.2936666 -0.006121595856 0.7790583968 0.6269214749
0.35868168 -0.34491703 1.278 0.6645707488 -0.08405375481 0.7424827814
-0.1569847 -0.0135971 1.4100001 0.4434732497 -0.4454570711 0.7777528167
0.32690436 -0.056435917 1.1827145 0.2952422798 0.9266789556 0.2325899154
0.17438385 -0.37493071 1.4107692 0.436076194 -0.3905823529 0.8107299209
-0.18078007 -0.37984127 2.3170002 -0.008044878952 0.7171369195 0.6968858838
0.29410589 -0.11832721 1.302 0.2203619927 0.7559042573 0.6164814234
-0.19533235 0.18546051 1.5253079 0.4559451044 -0.4937989712 0.740457058
0.17483754 -0.12297042 1.3246667 0.05138410255 0.7649999261 0.6419772506
0.21570209 -0.36522284 1.3980001 0.4487870634 -0.2839383781 0.8473306298
0.24463665 -0.0069039576 1.1635882 0.09234439582 0.8161161542 0.5704620481
-0.089748748 -0.20223385 1.365 -0.5736259818 0.1948082745 0.7956148386
0.15499562 0.08266291 1.0715001 0.204176411 0.5591585636 0.8035258055
0.3322289 -0.039107222 1.1636667 -0.04382617399 0.7739306688 0.6317520142
-0.060311161 -0.21170448 1.404 -0.7100428343 -0.09508183599 0.6977095604
0.22453339 -0.047482673 1.224 0.05097366124 0.8210753798 0.5685392618
0.22608663 -0.073283054 1.257 0.04742118344 0.7985011935 0.6001225114
0.035442926 -0.23639178 1.4543999 0.04572609812 0.7437627912 0.6668778658
-0.042892423 -0.23563911 1.433 -0.4369232357 0.560505867 0.7035135031
0.41763717 -0.40602121 1.1859412 0.7144146562 -0.1958612353 0.6717514992
0.11450669 -0.47490788 1.3920001 0.2095167041 -0.4262651801 0.8800004125
0.0046568532 -0.12340662 1.3280001 -0.1115026698 0.7685734034 0.6299698949
0.055031873 -0.016618965 1.1843998 0.02694410086 0.7692369223 0.6383953094
0.064003676 -0.19139563 1.404 -0.02789576538 0.7021355629 0.7114966512
0.39535442 -0.39555347 1.214606 0.8108477592 -0.1156068817 0.5737255216
0.13582863 -0.16188458 1.376 -0.005140682682 0.7699546814 0.6380778551
0.20357163 -0.49409148 1.3540001 0.409930855 -0.2820473313 0.8674134016
0.15441716 -0.19694938 1.4129167 0.04570023343 0.6672454476 0.743434608
0.42204136 0.19614102 1.5430001 -0.6312542558 0.6971989274 -0.3397524655
0.16492923 0.0060700397 1.1542 0.08122403175 0.8365452886 0.5418437123
0.084896795 -0.083678544 1.2757272 0.04514943436 0.8087118864 0.5864696503
0.26510611 -0.038024541 1.2048001 0.1201292202 0.8210852742 0.5580214262
0.38594922 -0.47551519 1.2136956 0.8103108406 -0.07722251117 0.5808898211
-0.094914593 -0.15748423 1.3466001 -0.1159555614 0.7541701794 0.6463603377
0.37621766 -0.26562703 1.2858949 0.7844817042 -0.1682559848 0.5968906283
-0.14453103 -0.10420746 1.284667 -0.05573017523 0.684540391 0.7268415093
0.30334085 -0.43454319 1.3143334 0.6295202971 -0.2215817422 0.7447185516
0.42108551 -0.1738015 1.2763333 0.2159575075 -0.4851457775 0.8473464251
0.16466838 -0.18343957 1.3960001 0.06638117135 0.7316029072 0.6784914732
0.30542332 -0.10565329 1.2844707 0.1302133352 0.757965982 0.639165163
0.16473497 -0.088142596 1.284875 0.03135643899 0.7659178972 0.6421733499
0.35723156 -0.27589521 1.3044999 0.7692430019 -0.2405799776 0.5919345021
-0.063989513 -0.021872023 1.2056925 0.186861828 0.5874070525 0.7874233723
0.11194157 0.030709634 1.13 0.1133113503 0.7536196709 0.6474704146
0.093863234 -0.20385274 1.4150001 -0.004374450073 0.7013875246 0.7127667069
0.43542156 -0.40511322 1.1660438 0.5823025107 -0.1668671221 0.7956627011
0.014263464 0.02234984 1.153 0.2756877244 0.4911885262 0.8262748122
-0.035698406 -0.10587679 1.2943077 -0.07335808873 0.731677115 0.6776925921
-0.044351842 -0.19485956 1.3947273 -0.1216910332 0.7347306609 0.6673545837
0.025313031 -0.076751359 1.2654544 -0.02323279902 0.8126593828 0.5822756886
-0.0049624201 -0.056776538 1.2427778 -0.05100721121 0.7930983305 0.6069540977
0.094723523 -0.036192875 1.2140501 -0.1038430855 0.769542098 0.6300964952
0.3284131 -0.31473887 1.3272501 0.7581902742 -0.2936273217 0.5821774006
0.20352139 -0.16626482 1.3709999 0.1380969584 0.7791572809 0.6114271283
0.28138983 -0.41089979 1.3430001 0.5836126208 -0.3547813892 0.7304289937
0.0048532262 -0.17714539 1.3840001 -0.1198153421 0.7039973736 0.7000228763
-0.05565713 -0.13499251 1.3247694 -0.1226414517 0.7604783773 0.6376767755
0.094359428 -0.42399713 1.4150003 0.4470021725 -0.1765949279 0.8769283295
0.25647944 -0.34515607 1.3743999 0.3757348061 -0.3547276855 0.8561493158
