# .PCD v0.7 - Point Cloud Data file format
VERSION 0.7
FIELDS x y z normal_x normal_y normal_z
SIZE 4 4 4 4 4 4
TYPE F F F F F F
COUNT 1 1 1 1 1 1
WIDTH 512
HEIGHT 1
VIEWPOINT 0 0 0 1 0 0 0
POINTS 512
DATA ascii
0.17488186 0.082209416 1.705 -0.5272869468 0.1052921489 0.8431382179
0.47470975 -0.49596539 4.0410004 -0.1856696159 0.9506605864 0.248538211
-0.45553529 -0.26363996 2.9580002 -0.4395245612 0.8151135445 0.3773699105
0.49626523 0.04762141 2.8590002 -0.2357721031 0.8381355405 0.4918743074
-0.49833503 0.12878321 2.1290002 0.9257992506 0.3778344691 0.01170101017
0.021281959 -0.38611555 3.4680002 -0.3275151253 0.6279211044 0.7060091496
-0.19155167 -0.49803433 1.748 -0.4198438525 0.4777324796 0.7716882825
0.25618568 0.31266755 2.3010001 -0.5127123594 0.8466220498 0.14267838
0.47043073 -0.19576931 3.3330002 -0.2114207745 0.8727781177 0.439954102
0.13215311 -0.29146099 2.0650001 -0.7994891405 -0.398734808 0.449252367
-0.17429037 0.42548558 1.7354445 0.941044867 0.08101082593 0.3284384012
-0.27696618 0.043809664 2.5410001 -0.2720194757 0.8625712395 0.426586777
-0.2088597 -0.089946873 1.7390001 0.1634743512 0.8351765275 0.5251250863
-0.16237883 0.28182992 2.1290002 -0.2338817418 0.8789862394 0.4155509174
0.22167218 -0.43341875 3.7740002 -0.1994642913 0.9272637963 0.316852957
-0.31264651 -0.35939738 3.3330002 -0.2759334445 0.78484869 0.5548632741
0.11756802 0.13791633 2.5790002 -0.2798439562 0.8772746325 0.389969945
0.21423453 0.38846678 2.0280001 -0.7667917013 0.411539644 -0.4926110506
0.035491411 -0.091617376 1.8830001 -0.1209089905 0.912794888 0.3901108205
-0.13716765 0.16508247 1.647 0.6525986195 0.2215529084 -0.7245891094
-0.42563921 0.2687369 1.904 0.7243472338 -0.2660308778 0.6360414028
0.031714294 -0.49574447 1.9039999 -0.5853759646 -0.2068555653 0.7839297056
0.48591879 -0.31036103 3.5760002 -0.2485493422 0.8732774854 0.4190580547
0.022497896 0.17793791 2.3330002 -0.5138363242 0.8462005854 0.1411267221
-0.42252791 -0.078776389 2.723 -0.4336842 0.8269277811 0.3579224348
-0.2352272 -0.2270216 3.1200001 -0.2945730388 0.823865056 0.4842242301
-0.10697657 -0.29643124 1.863 -0.7903314829 -0.3191975355 0.5229618549
-0.049180999 -0.25747699 3.3000002 -0.3740360737 0.6210120916 0.6887967587
0.25315064 -0.05063013 1.863 -0.03597118333 0.8227362633 0.567283988
-0.016036863 -0.013607035 1.6630001 -0.4187759757 0.7893656492 0.4489193261
0.27434844 -0.26254851 3.3650002 -0.1277568489 0.8684313297 0.4790670574
0.44318041 -0.40258375 3.8590002 -0.1856696159 0.9506605864 0.248538211
0.45550284 -0.10490368 3.1490002 -0.1175109819 0.8625769019 0.492089659
0.31202847 0.17992882 2.598 -0.2923367918 0.8634845614 0.4110153615
-0.25154635 -0.31405181 1.7390001 0.08709756285 -0.1654010415 0.98237288
-0.39840466 -0.30367908 3.1780002 -0.38239187 0.8061418533 0.4515659213
-0.085197389 0.093788721 2.45 -0.3908921778 0.8465695977 -0.3612800241
-0.0052100294 -0.22634685 1.9810001 -0.5412558317 -0.6708951592 0.5068942904
0.49255079 0.013312183 3.0370002 0.2046071589 0.8501350284 0.4851869345
0.32603586 -0.35425049 3.5760002 -0.1596639603 0.8924988508 0.4218450189
-0.12643375 -0.13464373 1.8730001 -0.3341929913 0.8833856583 0.3285495639
0.14501733 -0.13802853 1.9930001 0.06429409236 0.8526335359 0.5185386539
-0.39016575 0.010660267 2.4320002 -0.2702291608 0.8641825914 0.4244580567
0.15109088 -0.42548576 1.9810001 0.3171209395 -0.1749066114 0.9321169257
0.39296934 0.11643536 2.7670002 -0.340891242 0.8046668768 0.4861114621
-0.14317457 -0.36524126 3.3330002 -0.2677338123 0.6310043335 0.7281154394
-0.085167289 -0.44511965 1.8329999 -0.6662409306 -0.2589893043 0.6993193626
0.091343403 -0.020126512 1.766 -0.2836875319 0.8191047311 0.4985868335
-0.30769861 -0.062465131 2.6390002 -0.3175906241 0.8755751252 0.3640115559
0.03564176 -0.35472038 1.936 -0.3452523649 -0.2496329993 0.9047011733
0.080454327 -0.27712047 3.3990002 -0.3023410738 0.691177547 0.6564019322
0.38606298 -0.41550845 3.7320001 -0.2145037204 0.9150273204 0.3416331112
-0.37336883 -0.22831906 3.0640001 -0.4510238469 0.8043370247 0.3868067861
-0.16129965 0.29744247 1.6880001 0.1071773246 0.2376119643 -0.9654292464
-0.14457294 -0.035783682 1.6327778 -0.4374894798 0.7480581403 0.4990110099
-0.054493599 -0.073177122 1.7760001 -0.2664300799 0.9279980659 0.2604507804
-0.19452532 -0.21982943 1.8040003 -0.64277035 -0.3032598197 0.7034769058
0.066095412 0.083337687 1.6390001 -0.4747846127 -0.221353814 0.8518110514
0.26508561 0.044128768 1.7850001 -0.5469553471 0.2116670609 0.8099610209
0.49556562 -0.25234324 3.4680002 -0.2121420056 0.8723595142 0.4404368699
-0.15565297 -0.37549639 1.7660002 -0.6639518142 -0.2961975336 0.6866112947
0.36875317 -0.49054322 3.8590002 -0.1495893747 0.9577447772 0.2456583381
0.14526717 -0.077585876 1.8830001 -0.07875968516 0.8368027806 0.5418099761
-0.40831891 -0.16626158 2.789 -0.4232201576 0.831686914 0.3594183624
-0.10861287 0.064885601 1.6090001 0.5578476191 -0.04233673215 0.8288628459
0.40691623 0.10362463 2.8830001 -0.2494619489 0.8339834213 0.492179215
0.028742393 0.13929006 2.5220001 -0.2946929634 0.8628197908 0.4107287526
-0.25456458 -0.13584387 1.8230001 0.8846287131 -0.2682009935 0.381444931
-0.042430665 -0.13747536 1.9360001 -0.2629557252 0.7340487242 0.6261203885
-0.31508979 -0.31508979 3.2380002 -0.2545233667 0.81935817 0.5136827826
0.45340148 -0.45340148 3.9480002 -0.1856696159 0.9506605864 0.248538211
-0.053636219 -0.37247375 3.3990002 -0.42015329 0.6214715838 0.6612445116
0.38054785 -0.23304868 3.3650002 -0.2114207745 0.8727781177 0.439954102
-0.38889459 -0.3832173 3.2380002 -0.3161584139 0.8151348233 0.4853854477
-0.23637231 -0.40877089 1.7130001 0.1259916723 -0.09946145862 0.9870327115
-0.092865296 -0.22118826 1.9260001 -0.4041965306 -0.7282645106 0.5534040332
0.04689027 -0.14414416 1.9810001 -0.1515391618 0.7653751969 0.6254891157
0.1836174 -0.014547845 1.7939999 -0.3221204281 0.7639721632 0.5590929389
-0.015371474 0.054498862 1.594 -0.3529561758 0.02776159532 0.9352279305
0.23343091 -0.47362792 3.8590002 -0.1491693258 0.958978951 0.2410556823
-0.046221372 -0.37472329 1.8830003 -0.5734314322 -0.2775415778 0.7708093524
0.073964655 -0.27547467 1.9930001 -0.6068985462 -0.3937698007 0.6903763413
-0.12464359 -0.072583616 1.7129999 -0.1694178581 0.8928868175 0.4171938002
-0.035255149 -0.29379293 1.9150001 -0.4226978421 -0.2375389934 0.8745866418
0.10561948 -0.4971844 1.9590001 -0.7835404277 0.1289115846 0.6078209281
0.28521296 0.21225151 2.5220001 -0.2810635865 0.8732783198 0.3979802132
0.10556469 0.031223362 1.6960001 -0.3371593654 0.8191024065 0.4641065001
0.22403392 -0.086558558 1.9360001 -0.3827810287 0.8319482207 0.4016725123
-0.14311934 -0.10851906 1.794 -0.3142287135 0.8825740814 0.3497475386
-0.44735512 -0.22494127 2.8830001 -0.3835633695 0.8551114202 0.3488031626
0.023722598 -0.057461407 1.8040003 -0.1731471717 0.8728061318 0.4563217163
0.12230377 -0.34769213 1.9930001 -0.4313231409 -0.7168419957 0.5478119254
-0.04386051 -0.1023412 1.853 -0.2103658915 0.8901327252 0.404239893
-0.17697446 -0.2953034 1.7760001 -0.7258222699 -0.2405579984 0.6444485188
0.035063162 -0.26589563 3.3330002 -0.2707150877 0.7404970527 0.6151239276
-0.091449484 -0.30974826 3.3650002 -0.4152207077 0.6459792852 0.6405486465
0.076375209 -0.42600387 1.936 -0.4406922162 -0.2961718738 0.847391665
-0.12850004 -0.45207244 1.766 -0.6159572005 0.07024740428 0.7846413851
-0.14209101 -0.21721959 1.863 -0.7077872157 -0.4284082353 0.5616970658
0.016384218 -0.026514981 1.7336668 -0.3585647047 0.8235244155 0.4395895004
-0.11087817 -0.37280774 1.8330001 -0.7288356423 -0.2615503371 0.632763803
-0.034706138 -0.4944604 1.863 -0.5661852956 -0.113314338 0.8164521456
-0.14650153 0.37143314 1.6880001 0.9533352852 0.126247853 -0.2742504478
0.10268221 -0.11286557 1.9360001 -0.1264525205 0.8660903573 0.4836292863
0.0083458666 -0.42397004 1.904 -0.7014949918 -0.2265664488 0.6757014394
-0.13503297 0.2267814 1.688 0.9397906661 0.09153209627 -0.3292649686
-0.32548881 -0.232492 3.1200001 -0.4476872385 0.7967917323 0.405831337
0.094808869 -0.057849482 1.8330001 -0.1219908819 0.8810010552 0.4571163952
-0.077918135 -0.0014166933 1.6160001 0.05441915244 0.6034294963 0.7955572605
-0.25390372 -0.24616276 1.7659999 0.05113650486 -0.6446402073 0.762773931
-0.0254058 0.11220895 2.4150002 -0.3599098325 0.8371187449 -0.4119431376
0.080477998 -0.1663212 2.0400002 -0.1332786232 0.9372475743 0.3221859038
0.20512448 0.035245508 1.748 -0.4099492431 0.5943918228 0.6918381453
0.44153842 -0.13780499 3.2080002 -0.2438869476 0.856913805 0.4541121423
-0.055564012 -0.04755478 1.7129999 -0.3686407208 0.8412716389 0.395431459
0.016437877 -0.29367369 1.9589999 -0.5495843291 -0.1300873309 0.8252480626
0.044679757 0.018311374 1.6710001 -0.4257828891 0.7893364429 0.4423312843
0.07379166 -0.24657214 2.0530002 -0.5131755471 -0.7772796154 0.3639880121
-0.18801081 -0.13658905 1.8330001 -0.2427194715 0.9170612097 0.3163637519
0.28287491 -0.0047944901 1.8230001 -0.4953407645 0.5861170292 0.6411741376
-0.14607212 -0.26561472 1.8230002 -0.7887917161 -0.3006103039 0.5361353159
0.14482972 0.0076226168 1.739 -0.2705331743 0.6996212602 0.6613183022
-0.20509821 -0.35550466 1.7330002 -0.585796833 -0.3505448401 0.7307258844
-0.1256707 0.10584329 1.6630001 0.9770655632 -0.01857441477 0.212127015
0.16463098 -0.10522806 1.936 0.03258455172 0.8650417924 0.5006405711
0.42184761 -0.17404902 3.3650002 -0.2114207745 0.8727781177 0.439954102
0.1297528 0.088931695 1.6630001 -0.5119728446 0.182384789 0.8394162059
-0.17583965 -0.42493898 1.7355716 -0.6396331787 -0.1361474544 0.7565271258
0.19266136 -0.051657934 1.853 -0.3683167994 0.7859709859 0.4965806901
-0.10469574 -0.49501157 1.8040001 -0.6898283958 -0.006229361054 0.7239460945
-0.042691913 -0.43512914 1.8730001 -0.4603551328 -0.1908601969 0.8669749498
-0.094034329 -0.038634259 1.6630001 -0.1217276677 0.8762428761 0.4662411213
0.44842991 -0.25581571 3.4330001 -0.2114207745 0.8727781177 0.439954102
0.014596149 -0.12525532 1.9360001 -0.260104388 0.8522993326 0.4537968338
-0.1439171 -0.33369792 1.804 -0.5554525256 -0.2068981677 0.8053978086
0.073571622 -0.32848173 1.97 -0.3282216787 -0.3838151395 0.8631086349
-0.094291635 -0.10174973 1.8230001 -0.3259190023 0.8801628351 0.3450944126
0.48669553 -0.4656871 3.9940002 -0.1856696159 0.9506605864 0.248538211
-0.22175546 -0.46503571 1.7129999 0.09988438338 0.1215562448 0.9875460267
-0.038187601 -0.23676312 1.9360001 -0.6316091418 -0.5712838769 0.524122715
0.40375233 -0.49613634 3.9030001 -0.1856696159 0.9506605864 0.248538211
-0.21438447 -0.12299721 1.7850001 0.2426831871 0.8003429174 0.5482299924
0.47560656 -0.42770374 3.9030001 -0.1856696159 0.9506605864 0.248538211
-0.24377467 -0.19501978 1.7940001 0.1321694404 -0.3218561709 0.937517941
-0.09734945 -0.36874792 3.3650002 -0.3991324902 0.6417852044 0.6548320055
0.09237349 -0.33075669 3.3990002 -0.3055945039 0.6840706468 0.6623136401
0.39140713 -0.46500504 3.8160002 -0.1491693258 0.958978951 0.2410556823
0.0777165 -0.38340139 1.9700001 -0.5661441684 -0.3129764199 0.7625789046
0.21953136 0.079404958 1.7760001 -0.759145081 -0.2306994647 0.6086677909
-0.01510935 -0.34415743 1.9150001 -0.529697299 -0.2329125553 0.8155810833
0.06491366 -0.0035224466 1.7220001 -0.3680926561 0.7785032988 0.5083703399
-0.07305789 -0.12120969 1.8940001 -0.2706630826 0.8862145543 0.3759856522
0.13442808 -0.033211641 1.804 -0.2474088669 0.7535701394 0.6090326905
-0.065323062 -0.32520035 1.8830003 -0.6649839878 -0.2293023914 0.710785985
0.42499486 0.091957949 2.835 -0.2494619489 0.8339834213 0.492179215
-0.10434823 -0.087627746 1.766 -0.2993746698 0.8907699585 0.3419118822
-0.28925267 -0.036441281 2.598 -0.3082754016 0.8754960895 0.3721194863
0.0043010241 0.024354286 1.6343334 -0.3831685483 0.6905013323 0.6135061383
-0.014943659 -0.11456806 1.8940001 -0.2165928632 0.8761744499 0.4305878282
0.23413092 -0.021575205 1.8230001 -0.1497725546 0.7898343801 0.5947518945
0.086341143 -0.088001549 1.8940001 -0.1214146689 0.8686264157 0.4803609252
-0.10399809 -0.24596374 1.8830003 -0.5521432161 -0.3236349821 0.7683737874
-0.11454626 -0.41548443 1.804 -0.688069582 -0.1199632511 0.7156599164
0.11437345 -0.29514912 2.016 -0.626963675 -0.463139832 0.6264327765
0.018508187 0.078303866 1.6240001 -0.5165811181 -0.1083587334 0.8493540287
0.0091208396 -0.33747107 3.4680002 -0.3275151253 0.6279211044 0.7060091496
0.094348624 -0.1520061 1.9930001 -0.1402958184 0.8763391376 0.4608110487
-0.12447264 0.02432224 1.6320001 -0.5192237496 -0.3125627339 0.7954314947
0.07555858 -0.47403514 1.9260004 -0.3273884356 -0.11442931 0.9379353523
-0.15477374 -0.096542038 1.748 -0.2050133049 0.8880437016 0.4115190506
-0.1720318 -0.062689558 1.6630001 -0.3401560783 0.8807710409 0.3294483125
0.0048470898 -0.079169139 1.8430001 -0.1774184555 0.9065451026 0.3830126822
0.19205372 -0.082466863 1.8940001 -0.3218811452 0.7167673111 0.6185767055
-0.062184598 0.043319605 1.594 0.3303404748 -0.03336879984 0.9432718158
-0.021067176 -0.38221878 3.4330001 -0.3592914343 0.5872371197 0.7253015041
0.23316264 0.0078242496 1.7850002 -0.2697269619 0.6751976013 0.6865534186
0.11277527 -0.44709387 1.9590001 -0.6434301734 -0.1744222045 0.7453687191
0.40033334 -0.43341875 3.7740002 -0.1994642913 0.9272637963 0.316852957
-0.22026338 -0.28341582 1.7570001 -0.245626986 -0.3636169136 0.8985822797
-0.0077409665 -0.051090378 1.766 -0.3670769334 0.8748867512 0.3159552515
-0.0066416264 -0.46740448 1.8940001 -0.6111485958 -0.02050138824 0.7912503481
-0.072189115 -0.26525304 1.9150001 -0.5195162296 -0.1649059951 0.8383966088
0.052671708 -0.073998906 1.8430001 -0.2701631784 0.8599327207 0.4330445528
0.045427114 -0.23936594 1.9930001 -0.532869637 -0.5681400299 0.6271099448
-0.075943664 -0.40489751 1.8529999 -0.77248317 -0.2668680251 0.576238811
0.22413912 -0.45162359 3.8160002 -0.1692776829 0.9430121183 0.2864842713
0.14444327 -0.055256825 1.8430001 -0.106490843 0.871604681 0.4785028994
0.13278694 -0.48397347 1.9930001 -0.7092571259 0.2012157291 0.6756231189
0.033769198 -0.45419574 1.9260002 -0.2538534701 -0.01954009198 0.9670453072
-0.14294985 -0.4949058 1.7659999 -0.6275475025 0.009157877415 0.7785244584
0.055719178 -0.10974989 1.9260001 -0.09365984052 0.8702061772 0.4837034941
0.14237505 -0.38845539 2.0050001 -0.9880139828 0.006018050946 0.1542469114
0.047993992 -0.029415673 1.766 -0.2172606587 0.8327717185 0.5092043877
-0.17570241 -0.076588228 1.7129999 -0.06308255345 0.8609721065 0.5047252774
-0.066598319 -0.49618429 1.8329999 -0.6272745132 -0.1972967684 0.753392756
-0.035417333 0.0089723906 1.6160001 -0.2955130637 0.7578466535 0.5816704035
0.14045252 -0.32890779 2.0280001 -0.553088963 -0.3330995739 0.7636342645
0.04437482 0.044372093 1.6327778 -0.3716312647 0.4786881208 0.7954545021
-0.0028783886 -0.14564647 1.9700001 -0.3449068367 0.7773154974 0.5261366963
0.14132217 0.055493001 1.6880001 -0.5601667166 0.3239997327 0.7623893023
-0.021613926 -0.076439492 1.8040003 -0.3644664288 0.8526172638 0.3744435608
0.088202745 0.053213224 1.6630001 -0.5481191874 0.3539637923 0.757809341
0.16454858 0.041766152 1.7220001 -0.3342663944 0.7429380417 0.5799215436
-0.19717109 -0.25820026 1.7850001 -0.6345956326 -0.5485630035 0.5443959832
-0.17223738 0.38317126 1.7310001 0.9582199454 0.1283516437 0.2556176186
-0.14623064 -0.12534054 1.8330001 -0.3287678659 0.8773393631 0.349552989
-0.021824617 -0.38780665 1.9150001 -0.4569574594 -0.475399673 0.7517879009
-0.17583051 -0.3364003 1.7659999 -0.5604295135 -0.3748613596 0.7385104895
-0.0577548 -0.02165805 1.6470001 -0.3493390381 0.7973918915 0.4920654595
-0.092865296 -0.14014217 1.9260001 -0.2110690624 0.8259139657 0.5227962732
0.48521221 -0.27331573 3.5030003 -0.2107616365 0.8725693226 0.4406838417
-0.16447912 -0.46531835 1.7390002 -0.6148099303 0.07035841048 0.7855306864
-0.0816615 -0.36421028 1.863 -0.6678132415 -0.3601374626 0.6514034867
-0.0084861331 -0.26646459 1.9360001 -0.7307522893 -0.3855606914 0.5633329749
0.045106001 -0.39437604 1.9260004 -0.4075398445 -0.3269938529 0.8526349068
0.025276056 -0.010407787 1.6960001 -0.3627175987 0.8434343934 0.3963007927
-0.095353276 -0.33373648 3.3990002 -0.429887265 0.6231241822 0.6533859372
-0.013950688 -0.025410183 1.705 -0.3619440198 0.8460232019 0.3914603591
0.064841777 -0.052189719 1.8040003 -0.2835761309 0.8546404839 0.4349416494
-0.13272084 -0.052443773 1.6710001 -0.05366598815 0.8412385583 0.5379941463
-0.11148307 -0.33283353 1.8430001 -0.7788212299 -0.2682691813 0.5669825077
-0.29546121 -0.23582684 3.0920002 -0.4476872385 0.7967917323 0.405831337
-0.44297615 0.24949232 1.9360001 -0.4159645736 0.9025830626 0.1109833792
0.11225717 -0.40757984 1.9700001 -0.5317453742 -0.2291251719 0.8153210878
-0.11816766 0.11532024 1.6240001 0.85557127 -0.1316779852 0.5006582737
-0.34029394 -0.30373344 3.2080002 -0.2829750776 0.8175645471 0.5015110373
-0.14417449 -0.41508549 1.7760003 -0.7789802551 -0.215038389 0.5890231729
-0.15295933 0.33498263 1.705 0.6091723442 0.3349663019 -0.7188230753
-0.085843198 0.037198719 1.6320001 0.4711118639 -0.4259339571 0.772420764
-0.085508093 -0.065369532 1.7340001 -0.3130021393 0.8872138858 0.3389412761
0.10470819 0.010622571 1.7310001 -0.2997386754 0.7684054375 0.565428853
0.20570701 0.074661896 1.7381113 -0.5794761777 0.1205414385 0.8060255051
-0.13678806 0.26614198 1.6960001 0.8353355527 0.172328949 -0.5220318437
0.39446056 -0.21330088 3.3330002 -0.2114207745 0.8727781177 0.439954102
-0.24377657 -0.36576524 1.7332858 0.6036103964 -0.1834462732 0.7758878469
-0.17354845 -0.23621871 1.8330001 -0.5505809188 -0.5165097117 0.6558035612
0.13567381 -0.11849991 1.9590001 0.02452089079 0.8776990771 0.4785844088
0.056049682 -0.27434844 3.3650002 -0.2871640027 0.7090147138 0.6440768838
0.17571993 0.01161145 1.766 -0.3030545712 0.77034688 0.5610023737
0.073847771 -0.12674339 1.959 -0.07618946582 0.8923434615 0.4448800981
0.23535345 -0.068436109 1.9039999 -0.1232833266 0.8204033971 0.5583363771
-0.11228696 -0.45389238 1.8040003 -0.7195427418 -0.1211574972 0.6837975383
-0.21343327 -0.31862536 1.7390001 -0.3833895028 -0.2691737115 0.8834919333
-0.2707848 -0.2434328 3.1200001 -0.3874086142 0.8152853847 0.4303769469
-0.061360531 -0.27173948 3.3330002 -0.3726564646 0.6186007857 0.6917082071
-0.1333752 -0.30370978 1.8329999 -0.6998450756 -0.2989116907 0.6487439275
-0.17593648 -0.11365808 1.7760001 -0.1274691075 0.8828055263 0.4521128535
-0.36969119 -0.39261779 3.2690001 -0.1755129248 0.8257457018 0.5360403061
-0.095156901 -0.056499414 1.6960001 -0.309560895 0.8730955124 0.3766646385
-0.11330573 -0.015029208 1.6325835 -0.09699733555 0.5825821161 0.8069632053
-0.076485366 -0.28778306 1.883 -0.5840220451 -0.3514415324 0.7317152023
0.10246392 -0.30739176 1.9810001 -0.3868017495 -0.3285327852 0.8616557717
-0.17649403 0.40407848 1.766 0.9518326521 0.03847429901 0.3041945398
0.014305196 -0.32417029 1.936 -0.39196226 -0.250463903 0.88523072
0.1741998 -0.039954085 1.8230001 -0.2184669971 0.7928424478 0.5689226389
0.45805833 -0.18418765 3.3000002 -0.258126229 0.8486087322 0.4617727697
0.087894604 0.089359507 1.6710001 -0.4829854965 -0.1604619026 0.8608002067
-0.18533847 -0.38613996 1.7390002 -0.6889395118 -0.1031528562 0.7174412012
0.45604199 -0.26450437 3.4680002 -0.211410448 0.8726125956 0.4402872026
-0.13328971 -0.38492814 1.7939999 -0.7630265355 -0.2632604241 0.5903257132
-0.01485687 -0.40443698 1.8830003 -0.5832966566 -0.2281500846 0.779559195
0.053538032 -0.29532269 1.9700001 -0.4355926812 -0.1095948145 0.8934472203
0.13682356 -0.093174331 1.9150001 -0.02390186302 0.8942316771 0.4469657838
0.14417449 -0.012144288 1.7760003 -0.1530246288 0.8259682655 0.5425494909
-0.10399809 -0.20964694 1.883 -0.7197374701 -0.0977024585 0.6873370409
0.015543299 -0.25387388 1.9700001 -0.2346858978 -0.52871418 0.8157106638
0.11595932 -0.071045503 1.863 -0.1235063598 0.8646846414 0.4868949354
-0.14287387 0.19681604 1.6630001 0.8171146512 0.283918798 -0.5017108321
0.23480932 0.045413669 1.7659999 -0.7284006476 0.2200017869 0.6488695145
0.069880851 0.0223024 1.6960001 -0.3048093319 0.8072978258 0.505333066
-0.1283326 -0.25828966 1.853 -0.838224113 -0.278565228 0.4688088298
-0.22377355 -0.22690324 1.7850002 -0.3131287992 -0.5272123814 0.789935112
-0.059132043 -0.091095306 1.8230001 -0.1609224528 0.8965544701 0.4126669765
0.093670078 -0.25744542 2.016 -0.5353888273 -0.61858356 0.5750766397
-0.09057983 -0.29511493 3.3330002 -0.3587500155 0.6147676706 0.7023953199
-0.057011008 -0.46370491 1.8430002 -0.6317260861 -0.05767524987 0.7730431557
-0.079598702 -0.11208797 1.853 -0.2744376659 0.893456161 0.3555559218
-0.20573699 -0.42498961 1.7130002 -0.3319846392 -0.06495769322 0.9410455227
-0.15656917 -0.29574174 1.804 -0.6786266565 -0.2220549285 0.7001125216
-0.21174394 -0.38294116 1.7130001 -0.1950887293 -0.08312281221 0.9772568941
0.013121069 0.0072894827 1.6630001 -0.3443193436 0.7845234871 0.5157199502
0.028123466 -0.15995221 2.0050001 -0.1158043817 0.8660902381 0.4862890244
-0.31237474 -0.32956967 3.2690001 -0.2492642999 0.8135390878 0.5253774524
-0.025418293 -0.044387165 1.7310001 -0.3183066249 0.8135274053 0.486676544
-0.23999889 -0.16688664 1.8130001 0.4007332623 -0.4548054338 0.7953394651
0.23577335 0.37975711 2.0530002 -0.7757669091 0.358189851 -0.5195052624
0.28132319 0.033377331 1.8130001 -0.7134500146 0.3730614781 0.5931392908
0.09594474 -0.038483333 1.804 -0.1494872272 0.8446424007 0.5140357614
-0.13305695 0.070105277 1.6320001 0.4605894685 -0.06618513912 0.8851422668
-0.25415006 -0.28457105 1.7570001 0.1094027534 -0.336340189 0.9353642464
-0.036267702 -0.21933323 1.9700001 -0.5375139713 -0.6539264321 0.5324085951
0.011751717 -0.38612783 1.9150001 -0.4806216955 -0.2780059576 0.8316943645
0.13515569 0.02853287 1.7130001 -0.3081673682 0.818503201 0.4848560393
0.11841312 -0.15022559 2.016 -0.1706183702 0.8964401484 0.4090042412
0.083294727 -0.076761812 1.863 -0.12505126 0.8764412403 0.46498698
-0.19575877 -0.45525298 1.7310003 -0.480145961 -0.09888978302 0.8715966344
0.0033015267 -0.49687976 1.8830001 -0.5368990302 -0.1267148256 0.8340759873
-0.045799404 -0.032506797 1.6853334 -0.3543113768 0.8731308579 0.3348222077
0.26400486 -0.022942893 1.8430001 -0.2306756824 0.7337165475 0.6390999556
0.015857147 -0.10766168 1.904 -0.2257134616 0.8364760876 0.4993607402
-0.084927961 -0.089646183 1.794 -0.3593819141 0.89243716 0.2727645934
-0.25209075 -0.22498423 3.0920002 -0.3874086142 0.8152853847 0.4303769469
0.43740931 -0.1253721 3.1780002 -0.2438869476 0.856913805 0.4541121423
0.10465822 -0.12745506 1.97 -0.1805263311 0.8376760483 0.5154697299
-0.13427991 0.13283604 1.6470001 0.9406480789 0.07977695763 0.3298739791
0.037046555 -0.32409602 1.9589999 -0.5450270176 -0.3457530439 0.7638064623
-0.11471447 -0.11686873 1.8430001 -0.3498651385 0.8695291877 0.3485877216
0.20964694 -0.057776716 1.8830001 -0.30198434 0.8031078577 0.5136373043
0.0049259895 -0.09195181 1.8730001 -0.2698548436 0.8757926822 0.4002068341
0.11635733 -0.37685883 1.9810001 -0.3418205082 -0.1326648295 0.9303541183
0.2258004 -0.037362657 1.853 -0.1575162411 0.8260415196 0.5411506295
-0.06379503 -0.22831908 1.9150001 -0.2597584724 -0.5456826091 0.7967157364
0.2609486 0.0079075331 1.8040001 -0.3975785971 0.647451818 0.6501826048
-0.031197937 -0.46468505 1.8730001 -0.442304492 -0.08237492293 0.893073976
0.014166933 0.048167571 1.6160001 -0.4962838888 0.3994824588 0.7707892656
-0.044113867 -0.33502692 1.9040002 -0.5743356943 -0.3553932607 0.7374511361
0.17139551 -0.12536947 1.959 0.09908816963 0.8371536732 0.5379174948
0.056673869 -0.35206494 1.9590001 -0.5938558578 -0.3618265986 0.7186214328
-0.0084423004 -0.30561125 1.9260001 -0.6353647709 -0.1250685602 0.7620167136
-0.015196141 -0.12663449 1.9260001 -0.1335956156 0.8585244417 0.4950636029
0.20821096 -0.007946983 1.8130001 -0.28907004 0.7779772282 0.5578440428
-0.024103951 -0.086774215 1.8330001 -0.3468030393 0.8791271448 0.3268993199
0.014061732 -0.22674544 2.0050001 -0.2800658047 -0.7877132297 0.548699379
-0.10394146 -0.13449293 1.8940001 -0.3286691904 0.8682129979 0.3717293739
-0.45779532 -0.27990913 2.9840002 -0.425905019 0.8332710266 0.3525114655
-0.35942894 -0.22364467 3.0370002 -0.428587079 0.8280780911 0.3613859117
0.47967255 0.057163049 2.835 -0.250320673 0.8334089518 0.4927159846
-0.047504812 -0.062828943 1.748 -0.3198830783 0.8758502007 0.3613326252
-0.17449291 -0.12599336 1.8040003 -0.2713462412 0.8922486305 0.3609205186
-0.14502609 0.25049961 1.6710001 0.8464596272 0.1461131424 -0.5120127797
-0.20281333 -0.30809048 1.766 -0.6383887529 -0.09427647293 0.7639186382
0.03545766 -0.42380345 1.9260004 -0.187397778 -0.1638457775 0.9685229063
0.16577286 -0.063695967 1.863 -0.1395928413 0.8432978392 0.5190015435
-0.15557064 -0.43590587 1.7570001 -0.6315429211 -0.1838084012 0.75323838
-0.092499137 -0.33442003 1.8730003 -0.6073535085 -0.2058618069 0.7672956586
-0.11402365 -0.098296247 1.794 -0.326483041 0.8885636926 0.3222784996
-0.043899957 -0.26508823 1.9260002 -0.4254136086 -0.133041203 0.8951666355
-0.14623062 -0.21532862 1.8330001 -0.4330852926 -0.5395330787 0.7220395803
-0.14945237 0.36532801 1.7220001 0.9553223252 0.04951692373 0.2913885713
0.20344277 0.0046708803 1.7760001 -0.3676746786 0.6941472292 0.6188497543
0.39581764 -0.477011 3.8590002 -0.1653271019 0.9569103718 0.2387248129
-0.097487964 -0.39794266 1.8230001 -0.7926262021 -0.3254694045 0.5155709386
-0.22139165 -0.10063256 1.766 0.3140233457 0.7528771162 0.5784162879
-0.2388075 -0.118613 1.8040001 0.2956101298 0.7061087489 0.6434477568
0.16524816 -0.091804534 1.9039999 -0.0548337698 0.8808371425 0.4702331722
0.024688939 -0.045596685 1.7760001 -0.2664647996 0.854908824 0.4451150596
-0.12365506 -0.3537997 1.8130001 -0.7536539435 -0.1386928409 0.6424717903
-0.053775389 -0.40516266 1.8730001 -0.3921859264 -0.2564407289 0.88341856
-0.045067683 -0.1185113 1.9039999 -0.1583773196 0.9030871391 0.3991870284
0.068140671 -0.30750662 1.9930001 -0.5564781427 -0.2247695625 0.7998816967
-0.16645357 -0.25501794 1.804 -0.4075471461 -0.5704202056 0.7131101489
0.05065643 -0.27712047 3.3990002 -0.2719080448 0.7240493894 0.6338915229
-0.16481246 -0.40509981 1.7570001 -0.5745906234 -0.1848099828 0.7973022461
0.11613888 -0.0064692744 1.7570002 -0.1609378755 0.8589493036 0.4861122072
-0.12612692 -0.47477549 1.7850001 -0.7475792766 -0.02049675025 0.6638562083
-0.22448805 -0.25545189 1.7659999 -0.3971594274 -0.5600102544 0.7270852327
-0.25163841 -0.23119278 1.794 -0.2235934734 -0.5303595066 0.8177559376
-0.25106946 -0.34964886 1.7570001 0.6100689173 -0.1608499289 0.775849998
-0.17142867 -0.31926623 1.794 -0.6852524281 -0.2284282595 0.6915559173
0.043175831 -0.26769015 1.9700001 -0.4291289151 -0.3808861375 0.8190080523
0.095517218 -0.35601872 1.9810001 -0.4980483651 -0.1348317116 0.8566027284
0.12305857 -0.052739389 1.8230001 -0.1479964703 0.886251688 0.4389247894
0.0073546488 -0.36264074 1.9360002 -0.4199047685 -0.2567745149 0.8704865575
0.11572789 0.064456038 1.6710001 -0.4334369004 0.2093694806 0.8765254617
0.20568705 -0.030531669 1.8330001 -0.2971350253 0.8170279264 0.4941418171
-0.12719031 -0.08734756 1.748 -0.3126094639 0.8861315846 0.3421200514
-0.073811829 -0.039860278 1.684 -0.3202288449 0.8670203686 0.3817448616
-0.15446478 -0.066576794 1.6960001 -0.1184683815 0.8745059967 0.4703237712
0.047839697 -0.48233673 1.9260001 -0.3073042333 -0.2060860842 0.9290277958
-0.072324999 -0.27483499 3.3000002 -0.3726564646 0.6186007857 0.6917082071
-0.087416813 -0.4736402 1.8130001 -0.8029792309 0.01278994605 0.59586972
0.065885179 -0.39633518 1.9470001 -0.6321370602 -0.4240677655 0.6485131383
0.11423404 -0.025037602 1.785 -0.22794725 0.7949484587 0.5622250438
-0.013166656 -0.24329692 1.9590001 -0.6743529439 -0.4637776911 0.5745940804
-0.036053091 0.027668651 1.5940001 -0.1954301745 0.4459291399 0.8734725118
0.45868427 -0.4726899 3.9940002 -0.1856696159 0.9506605864 0.248538211
0.068550952 -0.15643679 2.0050001 -0.1420654058 0.9037414789 0.4038177729
0.14354189 0.085829169 1.6880001 -0.5826494098 0.2157271802 0.7835696936
-0.084692717 -0.024406109 1.6374445 -0.1763275564 0.7532287836 0.6336836815
-0.018775569 -0.15191142 1.9470001 -0.2768273354 0.8203254342 0.5004325509
-0.016750032 0.0052633607 1.6378335 -0.5204895735 0.7231218219 0.4540764391
0.19079597 -0.099619143 1.9260001 -0.1961937398 0.8536032438 0.4825656116
0.47551626 -0.24678694 3.4330001 -0.2114207745 0.8727781177 0.439954102
-0.23368919 -0.43567634 1.7220001 0.156771943 0.07827582955 0.9845280647
-0.062812582 -0.4337317 1.853 -0.6209552884 -0.2776462138 0.7330260277
0.086441964 -0.41274607 1.9590001 -0.5731316209 -0.4758672416 0.6671360135
0.021699253 -0.46736854 1.904 -0.632856369 -0.1950966269 0.7492864132
-0.15700048 0.40759742 1.7220001 0.9328247905 0.08156468719 0.3509774208
0.1347086 -0.46111789 1.9700001 -0.5905669928 0.1543425024 0.7920915484
0.11456806 -0.088001549 1.8940001 -0.06893954426 0.8907751441 0.449184835
0.065240875 0.036811892 1.6630001 -0.3876254559 0.7347720861 0.5566475987
0.44823352 -0.43454701 3.9030001 -0.1856696159 0.9506605864 0.248538211
-0.01485687 -0.4325 1.8830003 -0.5305142403 -0.1462459266 0.8349651098
0.11214232 -0.32447451 2.0050001 -0.6945451498 -0.07934796065 0.7150601149
0.043730106 -0.016355313 1.7350001 -0.281481564 0.8698476553 0.4051335752
-0.0031454801 -0.058191381 1.794 -0.3414972425 0.8609226942 0.3770831525
-0.15536724 -0.35522094 1.785 -0.7907401323 -0.2955681086 0.5360686183
0.18847474 0.052505843 1.7310002 -0.5766509771 0.3585058451 0.7341302037
0.12538806 -0.43590584 1.9810002 -0.2183516622 -0.2541969717 0.942181766
-0.040702756 0.063159451 1.6010001 0.06539064646 -0.1374303102 0.9883506298
0.17455792 0.017532017 1.7390001 -0.3733098805 0.6925939322 0.6172142029
-0.22493339 -0.33966449 1.7220001 0.03882225603 -0.3742729127 0.9265056252
0.10013637 -0.46673733 1.9360001 -0.649854362 -0.04691329598 0.7586095929
0.046085488 -0.12460151 1.9470001 -0.1308924705 0.8805392385 0.4555412531
-0.20379868 -0.48372537 1.7220001 -0.3895650804 0.3334339261 0.8585224748
-0.17622752 -0.3570523 1.748 -0.5190971494 -0.5226564407 0.6762901545
-0.031714294 -0.36554897 1.9039999 -0.6292814016 -0.2285395563 0.7428153157
-0.12414477 -0.43398502 1.785 -0.8011082411 -0.2991716862 0.5183839202
0.14237505 -0.36033192 2.0050001 -0.816067338 -0.3457221389 0.4631525576
0.075112797 -0.036773976 1.7850001 -0.3167902231 0.8191543221 0.4781529009
0.073758639 0.057953212 1.6390001 -0.4958718717 0.2591921985 0.8288127184
-0.058421068 -0.28709781 1.904 -0.5656270385 -0.4065448642 0.7174867988
-0.15477374 0.4030247 1.748 0.942535162 0.08901087195 0.3220318854
0.12518801 -0.28614402 2.0400002 -0.7367647886 -0.461153239 0.494484961
-0.11588832 0.090135358 1.6320001 0.7721443772 -0.0813524574 0.6302180886
0.13719745 -0.39769897 1.9810001 -0.5651174784 -0.6713133454 0.4795629382
-0.19356479 -0.10114659 1.7570001 0.1102303788 0.8485905528 0.5174391866
0.068927042 -0.24919775 2.016 -0.4634090364 -0.7146037221 0.5240167975
-0.075474866 -0.072394259 1.7570001 -0.2201389521 0.9024606347 0.3702750206
-0.081789494 -0.24369931 1.904 -0.6225141883 -0.3018523157 0.7220534682
-0.0056422269 0.073348947 1.6090001 -0.413416177 -0.1032035723 0.9046745896
0.065893769 -0.019921374 1.748 -0.2339015603 0.850287497 0.471488297
0.46684957 -0.13218029 3.2080002 -0.2438869476 0.856913805 0.4541121423
0.0336903 0.025508368 1.6470002 -0.4145290554 0.7143506408 0.5637985468
-0.13671967 0.30521852 1.6860001 0.1732114106 0.2216279954 -0.9596243501
0.049499229 -0.37380454 1.9470001 -0.5610638857 -0.1384764165 0.8161075711
-0.062473021 -0.15027294 1.9260001 -0.1519525945 0.7880448103 0.596570015
0.094196081 -0.49474156 1.9360001 -0.6422297955 0.1669768691 0.7481040359
0.065097757 -0.098481216 1.9039999 -0.1107499748 0.8745706677 0.4720811546
-0.14718795 -0.080764674 1.7220001 -0.1370627731 0.8494433165 0.509568274
-0.070605859 -0.38586918 1.8730001 -0.6325357556 -0.1562083364 0.7586154938
0.41355434 0.097749211 2.8590002 -0.2494619489 0.8339834213 0.492179215
-0.12643375 -0.23480555 1.8730003 -0.6870812774 -0.3362021446 0.6441175938
0.095692553 -0.099050187 1.9150001 -0.1369192749 0.8548110127 0.5005509853
0.031963266 -0.071917348 1.8230001 -0.1373571157 0.8699561357 0.4736130834
-0.064694665 -0.34843168 1.8730001 -0.4851285815 -0.2488245517 0.8382938504
0.23605914 -0.054475188 1.883 -0.03777880594 0.864130497 0.5018478036
-0.1168772 0.0063751196 1.6160001 -0.2509603798 -0.02672572061 0.9676283598
0.11163035 -0.47228226 1.9590001 -0.7783865929 0.1169834137 0.6167894006
0.093158983 -0.28650782 2.0050001 -0.5277216434 -0.4375967681 0.7280240059
-0.0646419 0.015454758 1.603 0.1678651571 0.51730299 0.8391774893
0.074677095 -0.14206016 1.9810002 -0.09087650478 0.7801986933 0.6188953519
-0.12419561 -0.035111375 1.655 -0.1835727096 0.7817391157 0.5959740281
-0.006649767 0.036069948 1.6090001 -0.5316252112 0.5584346652 0.636808753
-0.096422523 -0.42511144 1.8230001 -0.8050562143 -0.03541250899 0.592140615
-0.15017475 -0.46445799 1.766 -0.6636384726 0.01505090017 0.7479020357
-0.094574802 0.015254 1.6240003 0.4929756522 -0.2439646572 0.8351384401
0.041287493 0.068337917 1.6240001 -0.4736023545 -0.02206644975 0.8804622889
-0.19768132 -0.33713093 1.748 -0.7455118895 -0.2577000856 0.6146565676
0.11485104 -0.26703757 2.0280001 -0.6468121409 -0.4708228409 0.5999665856
-0.11165577 -0.27421343 1.8730001 -0.647973299 -0.3269444108 0.6879229546
0.25474724 -0.0067122863 1.8230002 -0.3512510955 0.6552950144 0.6687384844
-0.09195181 -0.11986575 1.8730001 -0.2927435935 0.9017298222 0.318095088
-0.24280161 -0.39303508 1.7310001 0.2357509583 -0.1612602472 0.9583405852
0.0036925203 -0.011074053 1.6840001 -0.3116151094 0.8567042351 0.4110399783
-0.19894284 -0.27480432 1.766 -0.6504542828 -0.3964959383 0.6478427649
-0.098557495 -0.35383755 1.8430001 -0.7218827605 -0.3112481534 0.6180694699
-0.044065978 -0.0046613463 1.6346251 -0.2508254945 0.8121899366 0.5267201066
0.086895198 0.031910665 1.6799999 -0.2495418638 0.8127641082 0.5264440179
-0.13733421 -0.2358917 1.8430001 -0.7906221151 -0.2859444916 0.5414355397
0.084597461 0.012514417 1.7130002 -0.3338065147 0.7838265896 0.5236306787
0.048329171 0.0024911945 1.705 -0.4323906302 0.7524129152 0.4969035983
0.13475978 -0.1055675 1.9360001 -0.04506907985 0.8601170182 0.5081018806
-0.023808952 -0.10590878 1.8730001 -0.3066918254 0.8600349426 0.4077744186
-0.20296003 -0.24407919 1.804 -0.6150643826 -0.3687373996 0.6969422698
0.0034347801 -0.273065 1.9590001 -0.5361044407 -0.4223003089 0.7309271693
0.077054098 -0.11575086 1.9360001 -0.1176896989 0.8740593791 0.4713484645
-0.01518847 -0.48397854 1.8730001 -0.5803869963 0.01274285838 0.8142411113
-0.12397294 -0.10966837 1.8130001 -0.3437529504 0.8876622915 0.3064140975
-0.045231085 -0.081922039 1.8040001 -0.1066369414 0.919279635 0.3788846433
0.055719178 -0.44406497 1.9260004 -0.3918348253 -0.0267794244 0.9196457863
0.17002863 -0.0808874 1.8830001 -0.1414415091 0.8104931712 0.5684145689
-0.08724761 -0.37645733 1.8430001 -0.7117121816 -0.2717849612 0.6477644444
-0.0033944533 -0.34114257 1.9360001 -0.5933445096 -0.1849516183 0.7834125161
-0.17457414 -0.27522948 1.794 -0.5542842746 -0.3530680537 0.753731966
0.21738377 0.055823624 1.748 -0.5602742434 0.1954371929 0.8049205542
-0.1153902 -0.38558763 1.8130001 -0.6798875332 -0.4532901645 0.5764381289
0.026596313 -0.13781726 1.97 -0.1614825428 0.8259741664 0.5400834084
0.17288889 0.056300994 1.705 -0.5410974026 0.290912509 0.7890396118
-0.16425927 0.32111949 1.6880001 0.1815489233 0.3073155582 -0.9341290593
0.0033208132 -0.44498897 1.8940001 -0.6813493371 -0.1167101786 0.7225938439
-0.11633016 -0.28759402 1.8430001 -0.697288692 -0.3079088628 0.6472870708
-0.054185886 -0.11001378 1.8730001 -0.1803052425 0.9356232882 0.303478241
-0.10181957 -0.22200005 1.904 -0.7384981513 -0.4699821472 0.4834638238
0.11356778 -0.13802853 1.9930001 -0.1817398667 0.8218867779 0.5398821831
-0.065473847 -0.12926888 1.9150001 -0.1906557977 0.8060852289 0.5602471828
0.064379774 -0.087490462 1.883 -0.1528232992 0.8887075782 0.4322544634
-0.11838506 -0.060672347 1.6880001 -0.1698125899 0.8740778565 0.4551390409
-0.16481246 -0.49443737 1.7570001 -0.4545785785 0.3657949865 0.8121283054
-0.17576869 -0.09412998 1.7374003 0.03583406657 0.879370153 0.4747884274
0.21656735 -0.078904383 1.9150001 -0.3586004376 0.7799372077 0.5129363537
0.00750865 -0.01952249 1.7130001 -0.3150699437 0.8751054406 0.3673164248
0.15412852 -0.023591099 1.794 -0.1584830582 0.8421682715 0.5153986216
0.054861974 -0.26173007 1.9930003 -0.5216781497 -0.5556378365 0.6473935843
0.084745854 -0.0042900085 1.7346364 -0.3624938428 0.7766759992 0.5151432753
-0.13234159 -0.098088481 1.7760001 -0.335834384 0.8867784739 0.3175518215
0.09558472 -0.43354496 1.9470001 -0.6449247599 -0.3135481775 0.6969645619
-0.11614845 0.053977158 1.6320001 0.152118966 0.02744691074 0.9879810214
0.02605015 -0.23445135 1.9810001 -0.2499766797 -0.6825345755 0.686773777
-0.075525716 -0.47404432 1.8329999 -0.6930439472 -0.04566138983 0.7194477916
-0.024392374 -0.06383536 1.7760001 -0.3743878305 0.8546059132 0.3598367572
-0.091322362 -0.26234424 1.8940001 -0.6847596169 -0.222078979 0.6941075325
-0.12753344 -0.3237879 1.8230002 -0.7950037122 -0.3350072205 0.5057066679
-0.20401436 -0.13126506 1.8040001 0.01677087322 0.9330244064 0.3594220579
0.0030648266 -0.04137516 1.748 -0.3858477473 0.8419028521 0.3772547245
-0.11988592 -0.49511328 1.7760001 -0.7109584808 -0.09074525535 0.6973544955
0.1782088 -0.12389755 1.9360001 0.03438901156 0.8436642885 0.5357685685
-0.0047944901 -0.072982788 1.8230001 -0.311814636 0.8851393461 0.3453982174
0.133341 -0.30401745 2.0280001 -0.740624249 -0.3366752863 0.5814855695
0.072311848 -0.062670268 1.8330001 -0.2115520835 0.8801330924 0.4249840677
-0.040509012 0.10873472 2.4320002 -0.3599098325 0.8371187449 -0.4119431376
0.24599968 0.028025279 1.7760001 -0.4174310565 0.4096351862 0.8111413717
