# .PCD v0.7 - Point Cloud Data file format
VERSION 0.7
FIELDS x y z normal_x normal_y normal_z
SIZE 4 4 4 4 4 4
TYPE F F F F F F
COUNT 1 1 1 1 1 1
WIDTH 512
HEIGHT 1
VIEWPOINT 0 0 0 1 0 0 0
POINTS 512
DATA ascii
0.14426427 0.1193459 1.4960001 0.0508746095 0.8270674944 0.5597956181
-0.19798727 -0.29569528 2.9330001 0.8003599644 0.4488772452 0.3974080086
-0.49808693 -0.48024502 1.6960001 -0.1252446324 0.4068794847 0.9048551917
-0.39393017 0.18872003 2.0900002 -0.3234204352 0.8976960778 0.2992339432
0.48205534 -0.49106571 1.7130001 -0.8034451008 -0.1156800538 0.5840326548
0.28556189 0.32877192 2.1430001 -0.465610832 0.8644685149 0.189474836
0.029359566 -0.22278731 1.9700001 -0.5757735968 0.4564212263 0.6783542037
-0.35418999 -0.046779811 2.5410001 -0.05459213629 0.8265466094 0.5602146387
0.00750865 0.47454667 1.7130001 -0.4506401122 0.5865830183 -0.6729367375
-0.22413123 -0.034181233 1.6710001 0.6209477186 0.4012577534 0.6733618379
0.49568486 -0.06560535 1.6630001 -0.2349287719 -0.05297626182 0.9705678821
0.36148036 0.34896156 1.7850001 -0.5743153095 0.2313989997 -0.7852492332
0.17446736 -0.49741068 1.853 0.6838229895 0.5751004815 0.4490496516
-0.065581679 0.22224903 2.0780001 0.6210896373 0.7428205609 0.2499305904
-0.081775464 -0.34048331 1.6960001 -0.00220005936 0.7831041217 0.6218867302
0.19462 -0.037367042 1.7760001 -0.012052292 0.7771405578 0.6292116046
-0.2446575 0.32018936 1.8730001 0.4534881413 -0.04806528986 0.8899652958
0.36098066 -0.044657402 1.4150001 -0.3578775823 0.6189239025 0.6991829872
0.28983387 -0.28983387 1.7130001 0.6410397291 -0.3110743463 0.7016415596
0.074725315 0.26153859 1.853 0.2433042377 -0.9673324227 -0.07121124119
-0.090630673 0.12039001 1.5430001 0.6496589184 -0.1931378096 0.7352830172
0.48427567 -0.28503108 1.5783002 -0.4903846085 0.1936511844 0.8497188687
-0.27704155 -0.20126952 2.7010002 -0.05459213629 0.8265466094 0.5602146387
0.33908063 0.10301184 1.6320001 -0.5687001348 -0.3949016929 0.7215489149
-0.034920387 -0.11632715 1.7760001 -0.525678575 0.581726253 0.620690465
0.49804309 0.35893452 1.9590001 0.2789407074 0.956971705 0.0799824819
-0.31095278 0.01441503 2.3490002 -0.01205314975 0.8249460459 0.5650829673
0.051979318 0.018770309 1.6470001 -0.1235348657 0.8327352405 0.5397139788
0.19272113 -0.21395314 1.863 0.6022435427 -0.3513506055 0.7168371081
0.29614118 -0.47544774 1.7130001 0.06335549057 0.2106386572 0.9755088091
0.030531669 -0.38566321 1.8330001 -0.2677234113 0.8055047393 0.5286646485
0.2331495 0.32640931 1.9700001 -0.2615715861 0.9601479173 0.09846949577
0.34709162 -0.12489168 1.748 0.70932585 -0.2300943285 0.6662683487
0.02870382 0.41704962 1.9260001 0.7481011152 -0.1900659353 0.6357826591
-0.093593806 0.22823755 1.8730001 -0.2738218009 0.01116737444 0.961715579
-0.17438363 0.15535994 2.1700001 -0.2353046983 0.9013053179 0.3637037873
0.42685953 -0.11176448 1.536 -0.1605143994 0.8721745014 0.4621112347
0.24247548 0.05046444 1.404 0.2605079412 -0.3169801831 0.9119535089
0.39601412 -0.38525078 1.6470001 0.1460459232 0.4130384326 0.8989270329
0.19504781 0.061931245 1.6240001 -0.0746525228 0.8522712588 0.5177457929
0.20829396 -0.35639039 1.8230001 0.7668858171 -0.6322097778 0.1104395613
0.064645924 0.34265375 1.7310002 -0.2060312331 -0.8510422111 -0.4829889536
-0.36886626 -0.082231335 2.6800001 -0.05459213629 0.8265466094 0.5602146387
-0.087557964 -0.0021355599 1.6240001 -0.1940273643 0.8020554185 0.5648544431
0.07414864 -0.13751796 1.8630002 -0.3826141953 0.7051558495 0.5969603062
0.38733551 -0.20505998 1.6390001 0.7678391337 -0.2283926457 0.5985481143
-0.15165631 -0.23893024 1.6320001 0.4377660453 -0.6344604492 0.6370406747
0.23943257 0.30531669 1.8330001 -0.2366851717 -0.405667752 -0.8828441501
0.02754136 0.18492055 1.4959999 0.4831276536 -0.5678220391 0.666457653
0.39595616 0.014516724 1.7130002 -0.2543611825 0.371599108 0.8928686976
-0.1625603 -0.14553016 1.766 -0.2633216977 0.7840538621 0.5620687008
-0.078350328 -0.30076417 2.8830001 0.7047261596 0.6418649554 0.3022753298
0.37790909 0.37087822 2.0050001 -0.1560991108 0.9287605286 0.3362097144
0.4991512 -0.4977608 1.5860001 0.9337219596 -0.03741031885 0.3560389578
0.36021969 0.22770365 2.1290002 -0.4114051461 0.9061872959 0.09782838821
0.076375201 -0.33265644 1.9360001 0.8679115772 0.2097563595 0.4502574205
-0.13453414 0.27780426 1.9930001 0.4610990584 0.886384964 0.04134396091
0.074322045 -0.045206193 1.748 -0.3179574609 0.7142633796 0.6234828234
-0.18251938 0.25626457 2.1030002 0.05546209961 0.9679731131 0.2448509037
0.26012716 -0.11309877 1.8430001 0.767177701 -0.3072271049 0.563071847
0.024717458 0.076857761 1.5430001 -0.1727457345 0.8160438538 0.5515717268
0.49584267 -0.17566997 1.6160001 0.4427348673 0.1789067537 0.8786228895
-0.44640568 -0.097935937 2.598 -0.05459213629 0.8265466094 0.5602146387
0.25065917 0.14074445 1.529 -0.7456942201 0.292465508 0.5986685753
0.19869913 -0.44514766 1.7570001 0.8204197884 0.08940286189 0.5647286773
-0.021345956 -0.19211361 1.8730001 -0.3289701641 0.8024181724 0.4978992641
0.2616815 0.011894614 1.6960001 -0.06336621195 0.7777608037 0.6253581643
0.27697846 -0.20499535 1.7850002 0.4504027665 0.06627751887 0.8903620839
-0.025410183 -0.037367918 1.705 -0.1765020043 0.7680541873 0.6155808568
-0.12529895 -0.07555782 1.6960002 -0.2649272084 0.6359828711 0.7248029709
0.33332533 0.39900517 1.8730001 -0.2726116478 0.9401699901 -0.2043607533
0.01372071 -0.33387062 1.7390001 -0.4038720727 0.5788940191 0.7083566189
0.49523649 -0.3923569 1.6834285 0.05207007378 0.7123445868 0.6998956203
0.12479175 -0.40885717 1.8730001 0.6944925189 0.4857932627 0.5307400823
0.12050309 -0.19348384 1.9360001 0.4564785361 0.01021822914 0.8896757364
-0.16234319 0.061288059 1.6010002 0.6827238798 -0.2829393148 0.6736716032
0.28059909 0.26611656 2.0650001 -0.5027416945 0.8512179852 0.1505945623
0.14223975 0.0064429156 1.6960001 -0.3173961639 0.7613013387 0.5654025078
0.13514978 -0.29520631 1.863 0.4921509326 -0.3003791273 0.817043364
0.4086152 -0.10829025 1.6470001 0.8435818553 0.3015090525 0.4443669319
0.16407079 -0.097467802 1.853 -0.262655586 0.7901343703 0.5538047552
0.3814818 -0.48622242 1.7570001 0.2933042347 0.7400662303 0.6052061915
0.29095688 -0.03617302 1.794 -0.3149544895 0.5974971056 0.737428546
0.26483789 -0.044699352 1.4107143 -0.04581718892 0.7550253272 0.6540929079
0.2597993 -0.3859446 1.7129999 0.6599437594 -0.09844081104 0.7448379993
-0.0048470898 0.21165626 1.8430001 0.4624487758 -0.6022962332 0.6506768465
0.36522692 -0.29479316 1.655 0.59605515 -0.009703583084 0.8028848767
0.1048055 0.074062556 1.5940001 -0.1304523647 0.8335052729 0.5368902683
0.055400074 0.41258475 1.6630001 0.01426134165 -0.3925010264 -0.9196410179
0.34721261 -0.21738528 1.7220001 0.7272803783 -0.6855361462 0.03321847692
-0.18983778 0.24596374 1.8830001 -0.05144453049 -0.01960939169 0.9984833002
0.11165928 0.20150007 1.4640001 -0.01600862667 -0.714876771 0.699067235
0.27254632 -0.29574174 1.8040003 0.6724629402 -0.5020490289 0.5438201427
0.43348575 -0.00430005 1.6350001 -0.7925622463 -0.5673360825 -0.2235505432
0.066602997 0.44185403 1.853 0.9917058945 -0.02133765444 0.126744166
0.36446044 -0.093173593 1.4830002 0.2466712445 0.9346959591 0.2559233606
-0.05484426 0.045246515 1.5640001 0.02352427877 0.7800188661 0.6253136396
0.40381232 0.091275729 1.6848001 -0.613969326 -0.6010340452 0.5116636753
-0.022191063 0.12139817 1.4890001 0.4670631588 0.1291403472 0.8747426867
-0.1546405 -0.30706125 1.6880001 0.190680176 0.8141022921 0.5485240221
0.42498958 -0.43550172 1.7130002 0.09303092957 0.1520428807 0.9839859009
-0.09120021 -0.16394953 1.8040003 0.07996910065 0.6735617518 0.7347921729
0.20663384 0.15529624 1.4640001 -0.28202492 0.4321432412 0.8565711379
0.28654113 0.078902632 1.5790001 -0.4850290418 0.01629547216 0.8743461967
0.066573195 0.1174821 1.4890002 0.004802834243 0.7325492501 0.6806970835
0.035320316 -0.097526252 1.804 -0.1881594658 0.7453888655 0.6395244002
0.16731972 0.28428108 1.853 -0.195211336 -0.7700386643 -0.6073985696
-0.16514996 -0.015660772 1.6240004 0.1662819088 0.5452593565 0.8216097355
0.20196997 -0.14187974 1.904 0.4215988219 -0.05025553703 0.9053887725
0.46555209 -0.34474039 1.6240003 -0.1453636736 0.7504139543 0.6447854638
0.34579384 0.024665019 1.6550001 -0.1448363662 0.7748174667 0.6153700948
0.19540024 0.091585368 1.5500001 0.1022967622 0.9296201468 0.3540363908
0.32555893 -0.3551552 1.6879998 0.451669395 -0.03024803475 0.891672492
-0.19580789 -0.10014602 1.705 0.04244945571 0.6326304078 0.7732896209
0.42128918 -0.24517268 1.5860001 0.2191834152 0.04339839518 0.9747180343
0.35502896 -0.43560377 1.6832001 0.03785531223 0.4875557423 0.8722708225
0.078231983 -0.25720873 1.9260001 0.798515141 -0.3750030696 0.4708994627
0.046180468 -0.1947369 1.9040002 -0.2330964953 0.8003740907 0.5523290038
0.08020974 0.30511156 1.794 0.4969978631 -0.6236373782 -0.603381753
0.2055974 -0.28597832 1.8430002 0.7205812931 -0.1184656844 0.6831752658
0.10754246 -0.077493824 1.8040001 -0.1990798116 0.659789145 0.7246002555
0.1741998 -0.42670959 1.8230001 0.9552827477 0.004701604601 0.2956565917
-0.016230255 0.022494566 1.6240002 -0.3722371757 0.8694176078 0.324888438
-0.36669037 -0.088825621 2.598 -0.05459213629 0.8265466094 0.5602146387
0.43247545 -0.071216017 1.4770001 -0.2772904038 0.5194846392 0.8082361817
0.31273329 0.0086527001 1.4100002 -0.6280887127 -0.4158715904 0.6576894522
0.39273682 -0.16553986 1.705 0.7639575601 0.04598303884 0.6436259747
0.30364928 0.31155682 1.8040001 -0.1903714687 -0.2318356782 -0.9539449215
0.49972105 -0.43850166 1.6240001 0.8934108019 -0.03079693019 0.4481838048
0.015892463 0.25404218 1.8940001 0.05025999993 -0.4678109288 0.8823983669
0.23720671 -0.33732644 1.7570001 0.667398572 -0.6067806482 0.4317364395
-0.11538265 0.25339666 2.1160002 0.4761610031 0.8618441224 0.174629271
-0.10267169 -0.11799583 1.748 -0.2038050741 0.7576137781 0.6200684309
0.46186745 0.0269049 1.705 -0.7684003115 0.1551775634 -0.620871067
0.28558511 -0.13653317 1.785 0.6769940853 -0.4188377261 0.6051892042
-0.097209185 -0.27131519 1.6550001 -0.6891354322 0.2350210547 0.6854614615
0.22773826 -0.1741998 1.8230001 0.6982478499 -0.2430870831 0.6733191013
0.13449293 -0.14445536 1.8940002 -0.2203187495 0.6371827126 0.7385511994
0.20917442 -0.49855858 1.794 0.8852337003 0.425017029 0.1890020967
0.44376305 -0.16602251 1.655 0.4441823661 0.03503149748 0.8952512741
0.34701827 -0.064105667 1.8130001 0.1391101927 -0.4660310745 0.8737639189
0.23449932 -0.49429932 1.7339092 0.4105080366 0.1135824099 0.9047552943
0.47792098 -0.49813515 1.6470001 0.7947083116 0.1861966848 0.5777279139
0.0048207901 -0.14623062 1.8330001 -0.5567111373 0.54839468 0.6239679456
0.47409433 -0.23562345 1.6240001 -0.4742117226 -0.6230524778 0.6220360398
0.14379701 -0.35545328 1.8430001 0.1428656727 -0.04794516414 0.9885801077
0.4150911 -0.30458906 1.6160001 0.4308609664 0.2205130607 0.8750616312
0.1155096 0.036818683 1.6470002 -0.2658510804 0.7819806933 0.5637636185
0.42551726 -0.49573904 1.6849231 0.742216289 0.03148540482 0.6694203615
0.051271848 0.49220976 1.6710001 0.3877983689 -0.3153901696 -0.8661070466
0.0052370313 -0.068081409 1.7570002 -0.2651407421 0.7981939316 0.5409129858
-0.2110575 0.31574202 1.9260001 -0.7070795894 0.5983003974 0.3769285083
0.03437848 -0.0179366 1.705 -0.2764284611 0.7331266403 0.6213796139
0.13485236 -0.029115854 1.748 -0.20058617 0.7953543663 0.5719935298
0.26924625 0.0083765499 1.365 0.1374264508 0.2823478878 0.9494175315
0.13371184 -0.23605916 1.8830003 0.386872232 -0.4766106009 0.7894125581
0.31273505 -0.25235552 1.766 0.7432665229 -0.6469036937 0.1705008298
0.21575205 -0.071917348 1.8230001 -0.07899388671 0.8087565303 0.5828145742
-0.041588191 -0.35426977 1.7570001 -0.2325558513 0.7276271582 0.6453499198
0.48125842 -0.11517296 1.5640001 -0.2950884104 0.7770393491 0.555997014
0.23492998 -0.23493001 1.8230002 0.4374043047 0.07721711695 0.8959436417
0.43712705 -0.028249707 1.6960001 -0.7437662482 -0.4819996357 -0.4631285965
0.19588239 0.0309288 1.6799999 0.01794001088 0.8719902635 0.4891943336
0.39071888 -0.10433122 1.7050002 0.8669250011 -0.1207898408 0.4835813046
0.25591302 -0.018388962 1.748 -0.1844829619 0.8524324894 0.4892084002
0.37762854 0.39369786 1.8330001 0.4527925551 0.7031310201 -0.5482569933
0.10503168 0.098298877 1.536 -0.1546984315 0.9161920547 0.3696761727
-0.11551574 0.057243705 1.5640001 0.3875389099 0.4152334929 0.8230399489
0.025036504 0.3837685 1.705 -0.1467780322 -0.6559670568 -0.7403805852
0.03508858 0.051931102 1.6010002 -0.3457458317 0.8535150886 0.3898355663
-0.043170571 0.25404221 1.8940001 -0.06942882389 -0.1364175379 0.9882155061
0.31197205 -0.072444521 1.4330001 0.02208809182 0.7101489305 0.7037048936
-0.064645931 -0.076179005 1.7310002 -0.3143393695 0.5161802769 0.7967112064
-0.03153633 -0.30785465 1.7130001 -0.431152612 0.297547698 0.8518056273
0.2067944 -0.38594249 1.7659999 0.7815928459 -0.32399261 0.5330491662
0.096074417 -0.34434921 1.8830001 0.7052887678 0.1894100308 0.6831483245
0.3235724 -0.17494586 1.7659999 0.5901323557 0.09632764757 0.8015390038
-0.085201152 -0.036635734 1.6836364 -0.37446329 0.7622697949 0.5279412866
0.40380231 0.042834807 1.647 -0.4683102071 -0.4233424962 0.7755428553
0.38802668 -0.035508506 1.4640001 0.2613569498 0.9432538152 0.2048529536
-0.044436481 0.15216129 1.536 0.6516135931 -0.4497684538 0.6108256578
-0.046295416 0.084202804 1.5246364 0.2391196042 0.5177305341 0.8214480281
0.16088149 0.18115002 1.4450001 0.1393738538 0.3926246762 0.9090768695
-0.23503433 0.26693186 1.9150001 0.79522717 0.2978234291 0.5281239748
-0.16474232 -0.055191804 1.6630001 -0.2272950709 0.6367091537 0.7368435264
0.20486385 -0.0060700402 1.7310001 0.1428488046 0.8420709968 0.5201064348
0.30256924 -0.41556805 1.6960001 0.4207622707 0.2245941162 0.8789291978
0.35231087 -0.23658296 1.6710001 0.8853547573 -0.1483687311 0.4406060874
0.49591017 -0.43099651 1.7220001 0.09499422461 -0.2594278455 0.9610792398
0.034948315 -0.35417771 1.7850002 -0.246194765 0.8380419612 0.4869022667
-0.045194797 -0.0058315867 1.6630001 -0.3200721443 0.8391171694 0.4398137629
0.24346875 0.051026382 1.6630001 -0.2592797577 0.7526268363 0.6052494049
0.32634494 0.36534017 1.8230002 -0.9904149771 0.09286952019 -0.1022420526
0.0073245498 0.43507826 1.6710001 -0.5208362937 0.0008115282981 -0.8536561728
0.077968977 0.1597725 1.4580001 0.1157117262 0.2311009616 0.9660243988
0.037367038 0.33163247 1.7760001 -0.07036084682 -0.5956324339 -0.8001695871
-0.19600864 0.02718368 1.6320001 0.5965870619 0.06852094084 0.7996178865
0.094608985 -0.01051211 1.7129999 -0.01306204591 0.9040412307 0.4272456169
0.44611639 -0.37759525 1.6630001 -0.3439170718 0.7605401278 0.5507265925
0.32300606 0.055251036 1.6160001 -0.7147484422 0.02050894313 0.6990808845
0.4712469 -0.12955731 1.6240001 0.5693083405 0.1819538772 0.8017361164
0.205725 0.11604725 1.5042858 -0.1180562302 0.7579811811 0.6415039301
0.29642245 -0.085032716 1.8130001 0.472778976 -0.2268673629 0.8514758945
0.15572405 0.08481399 1.5860001 0.02849985287 0.917992115 0.395573318
0.081170566 -0.21415213 1.9700001 0.5432260633 0.2564841807 0.7994506359
0.16591582 -0.18527824 1.904 0.3413402438 -0.522375524 0.7814157605
0.38663802 -0.25525028 1.6240003 0.7166087031 0.04204590619 0.6962069273
0.2566354 -0.44231865 1.7220001 0.6496777534 0.1743351519 0.7399500608
-0.13275363 0.018166287 1.5940001 0.06669881195 0.5566309094 0.8280780911
-0.039954085 -0.17100348 1.8230001 -0.4002353847 0.6892443895 0.6039485335
0.23117086 0.067828573 1.5790001 0.2477960587 0.9349309802 0.253970921
0.47556585 -0.017786339 1.6630001 -0.06069217995 -0.302111268 0.9513386488
-0.13650139 -0.30030304 1.6390001 0.1323242337 0.6724462509 0.7282213569
-0.14031488 0.25916985 1.8830001 -0.1328281909 0.2221309096 0.9659267664
0.43322483 -0.19748704 1.6159999 -0.3463259935 -0.666988194 0.6596855521
0.21395314 -0.10289349 1.863 0.08924136311 0.6601498723 0.7458137274
0.36417174 -0.34531024 1.6550001 0.5723295212 0.03502707556 0.8192753196
0.30882686 0.12157438 1.5940001 -0.7176430225 -0.08478920907 0.6912302375
0.0039761844 0.003557639 1.6710002 -0.1412858069 0.722946465 0.6763037443
0.091322362 -0.29389197 1.8940001 0.8484510183 -0.01121976413 0.5291549563
0.15491489 -0.063695967 1.794 -0.1127777547 0.7978140712 0.592261672
0.07305789 0.41344127 1.8940001 0.9528263807 0.1752200425 0.2478301823
0.11363733 -0.11363733 1.8430001 -0.3027024269 0.7827105522 0.5438156724
0.35143989 -0.078957863 1.766 0.6304282546 -0.5791876912 0.5168190002
0.18292177 -0.32501277 1.863 0.3426687419 -0.01113768481 0.9393902421
0.34419334 -0.48156878 1.7220001 -0.4293795228 0.7415653467 0.5154746175
0.28182468 -0.34189388 1.7129999 0.6699026823 -0.3274644613 0.6663313508
0.2123199 0.26948294 1.863 -0.494251281 -0.638389945 -0.5900626779
0.032664601 -0.17148915 1.863 -0.4125620723 0.6502820253 0.6379073858
-0.0061197593 0.047201108 1.577 -0.3017866313 0.8365938663 0.4572039843
0.099619143 -0.37314966 1.9260001 0.8981608152 0.3164497912 0.3052321076
0.27507874 0.31151298 2.0780001 -0.5836105347 0.7847833037 0.208599925
-0.1218742 -0.027566783 1.6550001 -0.2033266872 0.7265177369 0.6563766003
0.32999837 -0.28856361 1.6880001 0.713969171 -0.164970234 0.6804651618
0.26801279 -0.29419795 1.7570001 0.8008309603 -0.5875095725 0.1161992773
-0.1552196 -0.1146804 1.7310003 -0.2704733908 0.7452061176 0.6095178127
0.092917316 -0.17303765 1.9039999 -0.4314597845 0.6952536702 0.574860692
0.12468173 0.15303314 1.4700001 -0.07568547875 0.5988103151 0.7973066568
0.38200223 0.084412478 1.6320001 -0.601994276 0.07520592213 0.7949509621
-0.12181459 0.10105073 1.5790001 0.7183581591 -0.325181365 0.6149947643
0.02239971 0.11199855 1.503 0.01708439551 0.7068799734 0.7071272135
-0.21613078 0.28472641 1.863 0.7522018552 0.2188162506 0.6215398908
0.069926441 0.08089529 1.5640001 -0.2586033046 0.867592454 0.4247442186
0.2437747 -0.048754942 1.794 -0.1222962663 0.8754252195 0.4676262438
0.15107509 -0.45322526 1.853 0.8405218124 0.2663208246 0.4718011618
0.36183277 0.11279807 1.6710001 -0.4230102003 -0.826048255 0.372433424
0.23722599 -0.32579035 1.8040001 0.7397992611 -0.6197602749 0.2619050741
0.1747556 -0.25641713 1.863 0.1019680426 -0.2580662966 0.9607311487
0.064574391 0.47905186 1.7130001 0.5515197515 -0.2560959756 -0.7938770652
0.31484887 -0.036679029 1.404 -0.06720499694 0.694673717 0.7161787152
0.39765599 -0.41974801 1.6800001 -0.3733655512 0.6758912802 0.6354283094
0.43300319 0.054493602 1.6800002 -0.6862464547 -0.4984209836 0.5297569036
0.0084423004 -0.20768058 1.9260001 -0.1102797613 0.9366135597 0.3325558901
0.17772663 -0.38615152 1.8430001 0.75115484 -0.3941418827 0.5295456052
0.20742022 -0.1682227 1.863 0.7480345368 -0.4275636971 0.5075761676
0.39545557 -0.47704956 1.7130002 0.4786815643 -0.1152371988 0.8703932166
0.14460792 0.06243971 1.6240003 -0.08844872564 0.8148722649 0.5728524923
0.35510197 -0.39467344 1.6630001 0.5295934081 0.25184834 0.8100020289
0.45771992 -0.093925193 1.5090001 -0.2829901278 0.843464911 0.4565999806
-0.0046708798 -0.37211344 1.7760001 -0.453554064 0.7230447531 0.5210517645
0.074744597 0.049117882 1.6240001 -0.1091511771 0.8180648088 0.5646733046
0.32392398 -0.11423405 1.7850001 0.2815299928 -0.2683968842 0.921251297
0.3163732 -0.25555709 1.7220001 0.7252578735 -0.5460903645 0.4192687571
-0.05473819 0.02105315 1.6010002 -0.1561681032 0.8442355394 0.5127161741
0.075113676 -0.10547879 1.8230001 -0.1780161858 0.7946697474 0.5803535581
0.27518216 -0.24481723 1.8040001 0.5505282879 0.03889688477 0.8339098692
0.035888866 0.14469524 1.4727999 0.2838620842 0.3178740144 0.9046427011
0.15350784 0.10368512 1.536 0.198762536 0.9149207473 0.3513025641
-0.16082187 0.23229825 1.853 0.03544305265 -0.0671120435 0.9971157312
0.24748388 0.082913384 1.4330001 0.1440371275 -0.5369862318 0.8312034011
-0.014426428 0.16393667 1.4959999 0.4889771342 -0.4194881618 0.7648078203
0.41657653 -0.35421818 1.6240003 0.1972004622 0.3527010083 0.9147207141
0.36847353 -0.1997748 1.6880001 0.6515353918 -0.7583790421 0.01904822513
0.066754662 -0.3719188 1.8130001 -0.1680441499 0.8107792735 0.5607121587
0.40525147 -0.10098498 1.4959999 -0.3358757496 0.720859468 0.6062582731
0.072805412 0.1976147 1.483 0.451510042 -0.6251654625 0.6366370916
-0.35767037 -0.026331559 2.503 -0.05459213629 0.8265466094 0.5602146387
-0.10210712 -0.30336174 1.6880001 0.3860712051 0.7935519814 0.4703448117
0.22410493 -0.41467032 1.7390002 0.4127009511 -0.08563683182 0.9068319798
0.4109112 -0.1354976 1.6800001 0.78476125 0.08279866725 0.6142427325
0.062748879 -0.25272253 1.9700001 0.4581620395 -0.5877530575 0.666808784
0.32157668 -0.21516688 1.7850001 0.5274070501 -0.001742583001 0.8496109843
0.054281738 -0.29155448 1.9150001 0.4732395709 0.331838578 0.8160437942
0.35311586 -0.07759048 1.4449999 -0.2264811844 0.7179726362 0.658195734
0.18754882 -0.46569324 1.8130001 0.7935960889 0.5393773913 0.2815622091
0.23710765 -0.023102796 1.3870001 0.3959677517 0.3110835552 0.8639656305
0.084964782 0.0073245498 1.6710001 -0.09765898436 0.8397375941 0.5341380835
0.45695204 -0.31321874 1.594 0.257334739 0.4722428322 0.8430691361
0.35584763 -0.16497388 1.7378575 0.6396924853 0.08274120092 0.7641645074
-0.1220583 -0.14240135 1.7850001 -0.04285826162 0.8510353565 0.5233564973
0.45134306 -0.41434771 1.6880001 -0.082898736 0.3458221853 0.9346308708
-0.073177122 -0.13856944 1.7760001 -0.1137289628 0.7788490057 0.6168143153
0.16394982 0.042075615 1.6550001 -0.01426638104 0.8739356399 0.4858323038
0.49631488 -0.27153289 1.6160001 -0.8088715672 -0.385237813 0.4442056417
0.063653722 0.095477954 1.5254 -0.1607107818 0.8316075206 0.5316022635
-0.0047445199 -0.10912397 1.8040003 -0.4874578416 0.5443324447 0.6827057004
-0.33188757 -0.0020873433 2.381 -0.01205314975 0.8249460459 0.5650829673
0.45282286 -0.46466139 1.6880001 -0.4458502531 -0.3699817657 0.8150650263
0.055935722 0.28287491 1.8230001 -0.1529575586 -0.8813052177 -0.4471074343
0.4721455 -0.19492245 1.6470001 0.3117184639 0.2182700038 0.9247647524
0.48894769 -0.35836819 1.6550001 -0.06164046377 0.7525990605 0.6555876136
-0.14209627 -0.22999087 1.6710001 0.3151984513 -0.7935642004 0.5204861164
0.051548 0.4521496 1.6800001 0.376419425 0.3448093235 -0.8598924279
0.044897605 -0.07276509 1.7660002 -0.2327959985 0.774787724 0.5878010392
-0.085465834 0.075382091 1.5430001 0.3765002489 0.3911692202 0.839782238
0.16514997 0.14450163 1.4717499 0.01328610163 0.5526252389 0.8333239555
0.26600942 -0.1666908 1.8040001 0.7545564175 -0.1559072733 0.6374461055
0.33906221 0.40655327 1.8330001 -0.4979587793 0.7228896022 -0.4790278375
0.10643697 -0.22529721 1.9150002 0.5600020885 -0.695007503 0.4509570301
-0.024761448 0.21955152 1.883 0.1952302158 -0.3793236315 0.9044328332
0.10123659 0.2844266 1.8330001 0.6288989186 -0.5984738469 -0.496301502
0.18660837 -0.41507646 1.785 0.7772516608 -0.1898510009 0.599863708
-0.1617735 -0.2734915 1.6550001 0.5056592226 0.5252673626 0.6843996644
-0.014879663 0.066282138 1.5430001 -0.2448844165 0.7534335852 0.6102207899
0.24229708 0.014326049 1.4210001 0.422731638 -0.3628082871 0.830462575
0.24387972 -0.27552336 1.8230002 0.3876936734 0.03498134017 0.9211242795
-0.095010206 0.026726451 1.5860002 0.05191680416 0.7301242948 0.6813392043
0.37615314 0.02444848 1.6800001 -0.2964044809 0.8750661016 0.3826273382
-0.22123209 -0.075470477 1.6880001 0.3901061118 0.4776477516 0.787191093
0.23401652 0.09198337 1.5430001 0.05304022878 0.8167027831 0.5746157765
0.17663167 -0.12050572 1.883 -0.1545317173 0.7725192904 0.6159008741
0.10491946 0.12196888 1.4960001 -0.1196184456 0.8099665642 0.5741477013
0.11521503 -0.048265759 1.7760001 -0.1940416247 0.6948304176 0.6925016642
0.46022019 -0.2488804 1.5860001 -0.237333715 -0.4972538352 0.834512651
0.16598085 -0.0049406742 1.733 -0.08760336787 0.8029487729 0.5895751715
0.26329741 -0.065924242 1.8230001 0.2925339639 0.6642320156 0.6879097223
-0.19781019 -0.018770309 1.6470001 0.4720349014 0.4085748792 0.7811847329
0.4947902 -0.31472185 1.6018889 -0.4052670896 0.5007555485 0.7648545504
0.037161022 -0.12764004 1.8430001 -0.3351768553 0.5888482332 0.7354687452
0.30672112 0.33786032 1.7760001 -0.9073811173 0.384834379 -0.1690030694
0.42189407 0.00292982 1.6710001 -0.9902228713 0.02798270807 -0.1366590261
0.22904932 -0.13807938 1.853 0.7212403417 -0.400941819 0.5648522377
0.026303506 -0.045019466 1.7310001 -0.1894299388 0.7108758688 0.6773269176
0.06449461 -0.20536442 1.9360001 -0.1695940346 0.8652123213 0.4718532562
0.27157116 0.32620677 1.8330001 -0.5510994792 -0.1448622644 -0.8217689991
0.19465508 0.078557223 1.5860001 0.1301520318 0.9395661354 0.3166637719
0.060959894 0.39400902 1.6960001 0.03122185543 -0.6074157953 -0.7937702537
0.37293079 -0.089808941 1.7363334 0.7517294288 -0.3674357533 0.5476256609
-0.025797669 -0.06525293 1.7310001 -0.26262483 0.6565197706 0.7071138024
0.075861476 0.33286157 1.766 0.05110990629 -0.8158775568 -0.5759614706
0.24058889 -0.37390885 1.748 0.5497184396 -0.3130844831 0.7744596601
0.40636605 -0.17491025 1.6710001 0.6865084767 -0.7002773881 0.1957489997
0.35583901 0.38114309 1.8040003 -0.04606580734 0.5780720711 -0.8146843314
0.028832689 0.35661483 1.7310001 -0.3435764909 -0.7346981168 -0.5849562883
0.17483906 -0.077031478 1.8230002 -0.2837929726 0.7794036269 0.5585620403
-0.16206411 -0.08623594 1.6960001 -0.2304259837 0.6933361888 0.6827802062
0.32524335 -0.45459723 1.6960001 0.332139194 0.4429781139 0.8327388167
0.23432107 0.062617846 1.6159999 0.1646513492 0.9302989244 0.3277709782
0.31359157 -0.32375559 1.7050002 0.719429493 -0.01133384183 0.6944730282
0.071821786 -0.08125823 1.794 -0.2300415486 0.7557125688 0.6131715775
0.44757429 -0.042279001 1.6630001 -0.4960025847 -0.4228616059 -0.7583993077
0.29495758 -0.014537983 1.3817503 -0.1768468767 0.3845890462 0.9059892297
0.49725935 -0.47600895 1.6160001 0.9038466215 -0.04305828735 0.4256844521
0.22570221 0.011210375 1.705 -0.001947386772 0.7662331462 0.6425597072
-0.21529941 0.33374175 1.8940001 -0.7868602276 -0.009683092125 0.6170552969
-0.055855941 -0.33412924 1.7220001 -0.4031227529 0.5245475173 0.749894619
0.09630359 -0.25404218 1.8940001 0.6734407544 -0.3689292371 0.6406003237
-0.09661568 -0.092086822 1.7220001 -0.3573441803 0.5837602615 0.7290604115
-0.023327222 -0.14431249 1.804 -0.4033076465 0.6134955287 0.6789449453
0.13584387 -0.091095306 1.8230001 -0.239715457 0.799811244 0.5503076315
0.32299292 0.32299292 1.8330001 -0.5992336869 0.749681294 0.280886054
0.11689261 -0.37447634 1.863 0.7366069555 0.01106192637 0.6762306094
-0.1684252 0.025263779 1.601 0.6407988667 0.1737349927 0.7477920651
0.2958785 -0.37468031 1.6960001 0.5234298706 -0.03555204719 0.8513267636
0.44326806 -0.12609798 1.6470002 0.3692196906 0.1478877962 0.9174998403
0.046189815 0.29634139 1.7760001 0.1214799508 -0.7066822052 -0.6970243454
0.37529153 -0.13254464 1.7220001 0.7317323089 -0.07834653556 0.6770743728
-0.12354609 -0.0071185338 1.6240003 -0.07651352882 0.7309119105 0.6781691909
0.21313258 -0.35584685 1.7850001 0.7928119898 -0.5295431614 0.3017170429
0.14595127 -0.40338561 1.8430001 0.3246635497 0.2000735849 0.9244263768
0.20794095 -0.48673585 1.7570001 0.8813201189 0.2686553299 0.3887147903
-0.24203013 0.30212036 1.904 0.3660506904 0.3157739043 0.8753820658
0.38414219 -0.44393083 1.705 -0.2576198578 0.7328671813 0.6297124028
0.21407981 -0.32717857 1.8430001 0.6749100089 0.1964658201 0.7112648487
0.36927217 0.04741627 1.6390001 -0.08022435755 0.3155728877 0.9455040097
0.20680916 -0.2439702 1.8430001 0.6498224139 0.03075078689 0.7594637871
0.31612074 -0.06133686 1.794 0.4782804549 0.16240637 0.8630596399
0.16342556 -0.21625 1.8830003 0.4050601125 -0.4364397228 0.8033969402
-0.0046730712 0.093795225 1.523 -0.219266504 0.688431561 0.6913639903
0.40354514 -0.052491587 1.4370002 0.2771813273 0.9602349997 -0.03345607594
0.1247707 0.08912193 1.5640001 -0.1704553962 0.8763964772 0.4504154921
-0.17802207 0.27274939 1.863 -0.177387476 0.1114432663 0.9778108597
0.06217875 -0.17112912 1.883 -0.3876020014 0.6500273943 0.653627634
0.21532862 -0.20729397 1.8330001 0.7580528259 -0.2817965746 0.5881722569
0.44560966 -0.12202849 1.5640001 -0.2584049106 0.7651934624 0.5896658897
0.37287614 -0.19172174 1.7220001 0.7377972007 -0.5213116407 0.4288233519
0.22488429 -0.032346372 1.7570001 -0.05537943915 0.8639416099 0.5005377531
0.2880376 -0.17282256 1.7760001 0.5439770818 0.06810864806 0.8363313675
0.46103111 -0.43700343 1.7130001 -0.2781854868 0.01504433621 0.9604095221
0.1881993 -0.37798008 1.8040001 0.8315084577 -0.5227561593 0.1879354715
0.16956048 -0.14941469 1.9150001 0.1111656651 0.5571504235 0.8229371905
0.19980898 0.30052572 1.853 -0.2575743794 -0.6190433502 -0.7419169545
0.34040704 -0.20640065 1.7570001 0.7365614176 0.05924893171 0.6737706661
0.43682927 -0.28479147 1.5940001 0.5692262053 0.2762781382 0.774371922
0.22328173 0.14492001 1.4960002 -0.6597406268 0.3194940388 0.6801954508
0.4034034 -0.22560841 1.6160001 0.7066364288 -0.07990495116 0.7030506134
0.12529208 -0.33387884 1.863 0.5173608661 -0.08686486632 0.8513473272
0.34168959 -0.32548881 1.6800002 0.6599671245 -0.04881624505 0.7497068644
-0.01477797 0.2512255 1.8730001 0.04328306764 -0.4375876188 0.8981333971
-0.06528081 -0.10634948 1.7479999 -0.3801690638 0.5710988045 0.7275421619
-0.051832039 0.12492851 1.516 0.5580406189 -0.148844555 0.816355288
0.39201728 -0.32477343 1.6320001 0.5900595784 0.1263822317 0.7974065542
0.27708483 -0.11814516 1.8130001 0.668082118 -0.4665942788 0.5796172023
0.48767915 -0.45199531 1.6960001 0.4871661961 -0.4369833767 0.7561181188
-0.032346372 -0.087797292 1.7570001 -0.3691900074 0.6660316586 0.6481516361
0.10767658 0.17101575 1.4450001 0.1360618919 0.2885204554 0.9477568865
0.24643679 -0.14543286 1.8230002 0.6791778207 -0.4388761818 0.588307023
0.014368567 0.026342371 1.6390001 -0.1155117825 0.8609814048 0.4953463972
-0.065003455 -0.047411762 1.7130002 -0.173980549 0.7075564861 0.6849048138
0.17547974 0.01165879 1.7050002 0.03855582327 0.8164753914 0.5760914683
0.13854139 -0.20697749 1.904 0.6117435098 -0.5675161481 0.5510855913
0.065420374 -0.0044604801 1.6960001 -0.1255795062 0.843421936 0.5223688483
0.0049812198 -0.19537453 1.8940001 -0.1746796668 0.8760453463 0.4494791627
-0.082700349 -0.018861484 1.6550001 -0.318138361 0.8131340742 0.4874432683
-0.075109728 0.25504294 1.8830001 0.01011577994 0.3130246401 0.9496911168
0.3821758 0.40830749 1.863 0.05799405277 0.9842864275 -0.1667839289
0.28949726 -0.27384877 1.7850002 0.7580704093 -0.4542882442 0.4679224789
0.24635649 -0.20503217 1.813 0.6625631452 -0.02240941487 0.7486707568
0.15417148 -0.46410382 1.8130001 0.4950574636 0.6816631556 0.5387517214
-0.12427162 -0.26404473 1.6369002 -0.4097132385 0.1720974296 0.8958334327
0.14361641 -0.44075382 1.8830001 0.8153472543 0.4043829441 0.414346844
0.28993121 -0.44753483 1.6960001 0.2731865048 0.2539366782 0.9278390408
-0.12412548 0.23681834 1.863 -0.09252204746 -0.2445559502 0.9652109146
0.47668225 -0.09021952 1.536 -0.3049949706 0.8206586242 0.4832157195
-0.09476503 -0.063674927 1.7050002 -0.5624734759 0.5525642037 0.6150580645
0.21513663 0.044759974 1.6470002 -0.1153404564 0.8203430772 0.5601194501
-0.13323624 -0.12707503 1.7570001 -0.2067043185 0.8334216475 0.5125248432
0.11165577 -0.13300173 1.8730001 -0.3285524249 0.783695519 0.5271381736
0.26531571 -0.49402314 1.7220001 0.445884347 0.3072561026 0.8407025933
0.18782145 -0.35767737 1.863 0.3208554089 -0.3676669002 0.8728532791
0.2439702 -0.083693087 1.8430001 0.1794276834 0.7325434685 0.6566473842
0.2677798 -0.32567662 1.7380002 0.7256894708 -0.342435807 0.5967516899
0.16635276 -0.032346372 1.7570001 -0.09979426116 0.7889279127 0.6063281894
0.22410494 -0.45583248 1.7390002 0.385252744 0.03417807072 0.9221779704
0.29422337 -0.27276957 1.748 0.6921892762 -0.7130427361 0.111552909
-0.05391432 0.0033390287 1.6327778 -0.3291968703 0.8253552914 0.4587134719
-0.05063013 0.24661773 1.863 -0.06630139798 -0.2039908618 0.9767250419
-0.0048733898 -0.17219311 1.853 -0.2983202338 0.735825479 0.6079193354
0.012124885 -0.37270841 1.8040003 -0.3315174878 0.7455126047 0.5781929493
0.42077196 -0.46537673 1.6960001 0.805361867 -0.1562282145 0.5718260407
0.27085319 0.035541821 1.3980001 0.3950672448 -0.3704779148 0.8406354785
-0.19629794 -0.057131488 1.6710001 0.3083591163 0.6015093327 0.7369539738
-0.14257844 0.047064729 1.5790001 0.4762643278 0.2108914703 0.8536375761
0.2748166 -0.41597921 1.7130002 0.4756176472 -0.01667212136 0.8794941306
0.33304915 -0.2453264 1.6960001 0.8209607601 -0.3533086479 0.4485493004
0.41565892 -0.17718261 1.6343334 0.2418210655 -0.8370295763 0.4908197522
0.12160623 -0.27347645 1.883 0.3001038134 -0.3202466667 0.8985431194
0.3433097 0.33854148 1.8130001 -0.8041425347 0.246110633 -0.5410954356
0.32516795 -0.394642 1.686 0.387282908 -0.006677573081 0.9219367504
0.37482867 -0.23592837 1.6470001 0.6674492359 -0.04907046258 0.743036747
0.25222751 -0.31606287 1.7760001 0.7436203957 -0.6343931556 0.2111256123
0.29721716 0.34172028 1.8130001 -0.06137914956 -0.515930593 -0.8544285893
0.31273505 -0.14475608 1.766 0.3500361145 -0.3086138666 0.8844389319
0.17462149 0.10979987 1.5090001 0.04984233901 0.8446557522 0.5329844356
0.49972105 -0.21640341 1.6240001 0.2460141182 -0.01110838447 0.9692025781
0.14394122 -0.1743335 1.9260004 0.2562233508 0.02971677296 0.9661607146
0.46613747 -0.49589553 1.6858666 -0.6567787528 -0.1276717782 0.7431968451
0.47070685 -0.1645328 1.6320001 0.4235492945 0.1013130918 0.900189817
0.06491366 -0.0226443 1.7220001 -0.2500273585 0.8078699708 0.5336968899
0.43565422 -0.32887623 1.6240001 0.3012578487 0.3981088996 0.8664600253
-0.025810819 -0.33556521 1.7320001 -0.3896524012 0.3844757676 0.8368688226
0.34718367 -0.26807854 1.6710001 0.7852888107 -0.06636738032 0.6155622005
0.081789494 -0.32548881 1.904 0.9234673977 -0.04567806423 0.3809481561
0.061881267 0.36381406 1.7050002 -0.2184949815 -0.5398886204 -0.8128838539
0.40805766 -0.01345245 1.705 -0.8773415685 -0.007567537948 -0.4798067808
0.19452532 -0.058515746 1.8040003 -0.1793890148 0.8451699018 0.5034952164
0.1237849 0.018311374 1.6710001 -0.2370225191 0.7513100505 0.6159167886
0.12469461 -0.014794277 1.7220001 -0.1518924087 0.8740086555 0.4615599513
0.14695869 -0.11904475 1.8730001 -0.2577268481 0.8073425889 0.5308246613
0.49630412 -0.33684897 1.6240002 -0.2436602116 0.7096681595 0.6610603929
0.028940519 0.062015399 1.572 -0.296498239 0.8474885225 0.4402862489
0.024714988 0.47469848 1.6868572 -0.5438653231 0.4313259125 -0.7198391557
0.18901241 -0.18736163 1.8830001 0.7927841544 -0.3567701578 0.4941744208
0.0044604801 -0.01784192 1.6960001 -0.2526138425 0.668715179 0.6992898583
0.26468319 -0.03425312 1.7760001 -0.1905141771 0.8023698926 0.565603137
0.30205286 -0.033561431 1.8230001 -0.08268129081 0.3005999625 0.9501597285
-0.02515332 0.02934554 1.5940001 -0.2684615254 0.8509812951 0.4513970315
0.46925774 -0.062086411 1.6470001 0.05853459984 -0.1135218516 0.9918097258
0.063442267 0.062324338 1.5940001 -0.2053475231 0.8910330534 0.4048363268
-0.054666594 -0.025121758 1.6853334 -0.2053925097 0.7595868707 0.617123723
0.16495623 -0.28581527 1.863 -0.1250757426 0.048313912 0.9909701347
0.018210119 0.40548638 1.684 -0.3279073536 -0.5657368898 -0.7565834522
0.0052214265 0.13575707 1.4890002 0.2548157275 0.2062168419 0.9447452426
0.27173162 -0.00150962 1.7220001 -0.1272747368 0.8557199836 0.5015420914
0.10460562 -0.37193108 1.8940001 0.8651565909 0.2187054902 0.4513002634
0.19977042 -0.49383247 1.8230001 0.8583897352 0.4290195107 0.2812637389
0.44548464 -0.22147913 1.6010001 -0.2945511043 -0.5838739872 0.7565255165
0.0397656 0.0014728 1.6800001 -0.1811257452 0.8077362776 0.5610308647
0.35723728 -0.45887801 1.705 -0.3677560091 0.6632772684 0.6517812014
0.0047944905 0.037482932 1.6074002 -0.363891989 0.8724738955 0.3261470497
0.11286324 0.054306578 1.6160001 -0.03119091876 0.8398084641 0.5419860482
0.19873595 -0.47101983 1.7850001 0.8889864683 0.3845182061 0.2486941218
0.2939913 -0.047604125 1.4235716 -0.008200165816 0.7612445951 0.6484130025
0.25016561 0.0085422397 1.3920001 0.7925786972 -0.4191334546 0.4428839087
0.085765876 0.026278432 1.6470001 -0.1225878447 0.7802515626 0.6133348942
0.076809153 -0.23384118 1.9470001 0.8434462547 -0.3619251847 0.3969994485
-0.12529846 -0.10265416 1.7220001 -0.2574855685 0.6854156256 0.681106925
0.38753295 -0.29413781 1.6240002 0.633133173 0.06959114224 0.7709081769
0.28515688 0.10935628 1.5790001 -0.6228144765 0.01094235759 0.7822930813
0.42480707 0.018417364 1.7220001 -0.7810059786 -0.1335545033 -0.6100760698
0.26538455 -0.020506987 1.376 0.03254659846 0.4275038242 0.9034274817
0.22534102 -0.30524921 1.8230002 0.5108602643 -0.04588433728 0.8584383726
0.22559613 0.02783329 1.6710001 -0.1523622125 0.7671311498 0.6231336594
0.39658296 -0.064599812 1.4640001 -0.1199184731 0.6808782816 0.7225124836
-0.10662283 -0.31986848 1.7130001 0.1219379306 0.8423779011 0.524910152
0.15432402 -0.32489267 1.8530002 -0.1615896821 -0.1232750937 0.9791281819
0.054248128 0.17568052 1.4734999 0.4294466972 -0.3751077056 0.8215045333
0.49228427 -0.14528733 1.6090001 0.5396818519 0.2466131747 0.8049381375
-0.13565066 -0.0536157 1.6710001 -0.2185703516 0.6931023002 0.6869032979
0.38448194 -0.10542543 1.464 -0.2996301949 0.6627913713 0.6862428784
0.31348488 0.073596753 1.594 -0.716152072 -0.08485682309 0.6927666068
0.1444242 -0.25595045 1.863 0.59316957 -0.4335139394 0.6783918738
