# .PCD v0.7 - Point Cloud Data file format
VERSION 0.7
FIELDS x y z normal_x normal_y normal_z
SIZE 4 4 4 4 4 4
TYPE F F F F F F
COUNT 1 1 1 1 1 1
WIDTH 512
HEIGHT 1
VIEWPOINT 0 0 0 1 0 0 0
POINTS 512
DATA ascii
-0.45192516 0.089251682 1.6160001 0.6159030795 -0.1385008991 0.7755519748
0.49218872 -0.39813992 3.5760002 -0.2770802975 0.8686039448 0.4107964933
0.45748851 0.15679184 2.45 -0.191881001 0.8725847602 0.4491964877
-0.43611187 -0.34588182 2.8590002 -0.5565769672 0.6892596483 0.4638353288
0.23180556 -0.43007952 1.6630001 -0.1317777932 0.5626194477 0.8161457777
0.056673869 0.30397803 1.9590001 0.9483728409 0.2863870859 -0.1362770498
0.3245683 -0.19262996 3.0100002 -0.2378882468 0.8366571069 0.493370086
-0.40916839 0.075628281 2.2120001 0.03395333886 -0.7620367408 0.646642983
0.065717563 0.055104006 1.4864286 -0.4966572225 0.1054814756 0.8615133762
-0.23200783 -0.32578412 1.7659999 0.6694865823 -0.378513217 0.6391521692
-0.26399413 -0.45134482 3.2380002 -0.1641597897 0.7190513611 0.6752901077
-0.064280704 0.44297791 1.5940001 0.7671250105 -0.06496553123 0.6381995678
-0.029026434 -0.3087357 3.0100002 -0.1588142961 0.6560130119 0.7378516197
0.0300609 0.16633698 2.286 -0.0997241959 0.9243276119 -0.3683389723
0.054141879 -0.16639641 1.735 0.4602835774 -0.3072744608 0.8328993917
-0.19881046 -0.08089529 1.5640001 -0.2767413259 0.8339538574 0.4774255455
0.43105701 -0.321123 3.3000002 -0.283249259 0.8644960523 0.4152305424
0.22944383 0.037869371 2.5410001 -0.2307179421 0.8471338749 0.4786788523
-0.034197014 -0.49511325 1.6960001 0.09982677549 0.02160583436 0.9947702289
0.49375883 -0.057646971 2.8590002 -0.2312535048 0.8510437012 0.4714302123
0.12491798 -0.14531276 2.9080002 -0.1887863129 0.7679091096 0.6121072769
-0.25636536 -0.29560497 2.9840002 -0.2853402793 0.7691361308 0.5718483925
-0.4348968 -0.4950712 3.1200001 -0.4677371681 0.704452455 0.5338246226
0.014138881 0.25449982 1.5360001 0.346031636 -0.1983177066 0.9170235395
-0.13693269 0.081657119 1.4330001 0.2812556624 -0.1149210781 0.952726841
0.243012 -0.2253384 1.6799999 0.05112538487 -0.426456213 0.9030621648
-0.14787877 -0.15092781 1.7390001 -0.3619146943 0.8083590269 0.4642988741
-0.38136271 -0.12250672 1.5790001 0.334187597 0.7779654264 0.5320605636
0.16653863 -0.27129677 3.0640001 -0.2544821501 0.8182724118 0.5154309273
-0.4986971 0.25156826 1.6880001 0.5876243114 -0.2029918134 0.7832573056
0.075167343 -0.34378734 1.6960001 0.3631666601 -0.3363881111 0.8688803315
-0.025390022 -0.052190598 1.6090001 -0.1683777869 0.9041819572 0.3925607204
-0.24760222 0.10395513 2.1560001 -0.7084597945 0.5837247372 -0.3966738284
-0.28503412 0.01150362 1.4580001 0.458255142 -0.417472899 0.7846773863
-0.074330814 -0.29456788 1.7374001 0.2715801299 -0.2238298208 0.9360258579
0.13019551 -0.02289152 1.6320001 -0.4804362953 0.7034158111 0.5238197446
-0.2958785 -0.19328746 1.6960001 -0.06771469116 0.917548418 0.3918157518
0.19550894 0.096703351 2.398 -0.1437170357 0.9117673635 0.3847410679
-0.3252784 -0.38762343 3.0920002 -0.2925180197 0.7107774615 0.6397097707
-0.18376248 -0.47281262 1.7323333 0.6496636868 0.2752023339 0.7086612582
-0.15848029 -0.37336883 3.0640001 -0.09555447847 0.6694170237 0.7367157936
0.10539559 -0.48521438 1.688 0.201517731 0.3447076082 0.9168245792
-0.22742486 -0.22904932 1.853 0.9447460771 0.3164762259 -0.08542616665
-0.057705708 0.0013114933 1.4960001 -0.07620570809 0.8259393573 0.5585846901
0.17159347 -0.11825357 1.7220001 0.6396322846 -0.02923715115 0.7681248188
0.12598227 -0.23585053 1.6710001 0.4237961471 -0.03619463742 0.9050341249
-0.022328701 0.09055528 1.4150001 -0.1724010408 -0.3572306931 0.9179673791
-0.044551324 -0.10462052 1.7129999 -0.169468537 0.9095717669 0.3794200718
-0.095106058 -0.40457812 1.7220001 0.1093992442 -0.1116779298 0.9877043366
0.17567085 -0.33449653 1.647 0.05472917482 -0.4934702516 0.8680390716
-0.17804004 -0.012300948 1.4770001 -0.3191358447 0.7652978301 0.5589915514
-0.29637292 -0.082589507 1.5159999 -0.2937736809 0.7259261012 0.6218748689
-0.21473074 -0.13565759 1.655 -0.3252867758 0.8067410588 0.4933126867
-0.039965481 0.34177375 1.572 0.621247828 0.1653107107 0.7659788132
0.054666594 -0.07387612 1.6853334 -0.0952353999 0.8804697394 0.4644386172
0.034554694 0.15416707 1.5160002 0.03714539483 -0.3594485819 0.9324253201
-0.33679605 -0.4748272 3.1490002 -0.2273740619 0.7092137933 0.6673206687
0.2739408 -0.33579838 1.6800001 -0.6358758211 -0.2461646199 0.7314813137
-0.12411145 -0.086279079 1.6348002 -0.2401741147 0.8762691021 0.4176947176
-0.044052675 -0.19746688 1.7570002 0.3173023164 -0.5497609377 0.7727108598
0.05543188 -0.014690429 1.5640001 -0.1645768136 0.891171217 0.422762692
0.024930522 -0.26556426 1.7310001 0.4390250742 -0.005277935881 0.8984593153
0.0015017301 -0.40696883 1.7129999 -0.1076738462 0.0383028239 0.9934481382
-0.22437085 -0.20280661 1.7570001 -0.3257124722 0.9075951576 0.2649195492
-0.2883316 -0.13368523 1.5940002 -0.3406781554 0.8169397116 0.4653470814
0.49559718 -0.33629811 3.3650002 -0.283249259 0.8644960523 0.4152305424
0.4308396 -0.10452321 2.9080002 -0.2381633818 0.8394952416 0.4883911312
-0.48423228 0.16648886 1.655 0.106014356 -0.06018125266 0.99254179
-0.11448565 -0.044980597 1.5546666 -0.2193483412 0.8172599077 0.5328907371
-0.34588182 -0.33836263 2.8590002 -0.3496767581 0.7412663102 0.5729314089
-0.15420006 -0.26536033 1.766 0.3171134293 -0.3134761453 0.8950819969
0.12659402 -0.40456629 1.6630001 0.2351254225 0.03076064773 0.9714781642
-0.15401998 -0.34509531 1.7326 0.2007750422 -0.394585669 0.8966557384
0.16379201 0.16586533 2.365 -0.04391134903 0.958511591 0.2816511095
0.13365397 -0.04655363 1.7130001 -0.8912126422 -0.1581752151 0.4251124859
0.48214123 -0.36544463 3.5030003 -0.2777281702 0.8675822616 0.4125142992
-0.20663384 0.060321681 1.4640001 0.4031354487 -0.613691628 0.6788699627
-0.21410216 -0.40509978 1.7570001 0.5925355554 0.08997745812 0.8005033731
-0.11509318 -0.49325654 1.705 0.2260654271 -0.06411332637 0.9719999433
0.17139447 -0.17578921 1.6710001 -0.2171565294 -0.3766968548 0.9005234838
-0.0030350201 -0.33536971 1.7310001 -0.02197912149 -0.1392886788 0.9900078773
-0.34113553 -0.45395201 3.0640001 -0.2925180197 0.7107774615 0.6397097707
0.11176448 0.02289152 1.536 -0.2608763874 0.8251814246 0.5010181069
-0.36066067 -0.053771228 1.4959999 0.3448640406 0.1448801011 0.9274042249
0.034378488 -0.47531986 1.705 0.1651013792 0.05740398169 0.9846046567
-0.2346532 -0.047459006 1.5037501 -0.3136336803 0.7737002969 0.5504741073
-0.075492173 0.045292545 1.43525 -0.1089200005 0.5555211902 0.8243376613
0.015843119 0.0079189297 1.5060002 -0.1240334362 0.8395947814 0.5288632512
0.17057391 -0.46506903 1.6630001 -0.04787747562 0.54683429 0.8358708024
-0.085150629 -0.14398198 1.766 -0.2536998391 0.8522003293 0.4575926363
0.11409671 -0.15594877 1.705 0.5102590919 -0.33035478 0.7940411568
0.069424108 -0.1748459 2.9330001 -0.1708449125 0.6627045274 0.7291328311
0.18661077 -0.26971087 1.6630001 0.0915350765 -0.2392280698 0.9666391611
0.045558613 -0.046982318 1.6240001 -0.1229542419 0.9002383351 0.4176758826
-0.31763738 0.0013290267 1.516 0.6857221723 -0.4612517655 0.5630558729
0.065420374 -0.4148246 1.6960001 0.3290945888 0.03021224029 0.9438135028
-0.3402659 -0.16087885 1.6240001 -0.1585519761 0.8552612662 0.4933451712
0.49111131 -0.10027927 2.9330001 -0.2290584743 0.8460573554 0.4813722074
-0.21455772 -0.27570933 1.8040003 -0.1965711713 -0.8040035367 0.5611934066
0.0059074583 0.04458376 1.4530908 -0.3263828754 0.6708644629 0.6658942103
-0.10063256 -0.22758442 1.766 0.2800354362 -0.2822313607 0.9175650477
-0.1540882 -0.11870242 1.6820002 -0.2995993197 0.8490990996 0.4350527823
0.024339773 -0.10190812 1.7350001 -0.1202742681 0.892241776 0.4352456331
-0.014974168 -0.023144351 1.5528001 -0.2310589254 0.8694645166 0.43662709
0.12478369 -0.30483449 1.6710002 0.3901753426 0.0004187764716 0.9207404852
0.074735828 -0.22570221 1.705 0.4717503488 -0.03462640941 0.8810520172
0.25521123 -0.37507719 1.6355002 0.1211686581 -0.1691740602 0.9781095386
-0.11522461 0.0071047265 1.4740834 -0.1158178225 0.823995173 0.554633379
0.029026434 -0.28762555 3.0100002 -0.1589018106 0.6620214581 0.7324464321
-0.16417116 -0.41476804 1.7220001 0.2717192471 -0.02725557052 0.9619905353
-0.066740632 -0.079798579 1.6550001 -0.2193725258 0.8884819746 0.4030824602
-0.0043736901 -0.071436934 1.6630001 -0.2692950964 0.8918246031 0.3634956181
-0.22570221 -0.16890298 1.705 -0.3418037593 0.8159043193 0.4663371146
0.2469677 -0.28312355 1.6630001 -0.1467323005 -0.2148953974 0.9655514359
-0.27866691 -0.16026957 1.6470001 -0.3711571395 0.8083931804 0.4568838179
0.036431637 0.091707222 1.4330001 -0.4962558448 0.09712764621 0.8627260923
-0.024771092 -0.12308137 1.766 -0.2502005398 0.8750960231 0.4142543375
0.074328184 -0.28521916 1.705 0.3181307614 -0.09433158487 0.9433421493
0.18426216 -0.39464024 1.6550001 0.1485425532 0.1776146591 0.9728248119
-0.3301965 -0.1182185 1.5500001 -0.04325334355 0.8724070787 0.486862421
-0.30345815 -0.31929076 3.0100002 -0.2619969845 0.7291355133 0.6322333217
-0.10161707 -0.11763552 1.7129999 -0.2771245837 0.8706748486 0.4063584805
0.072132133 0.11409992 1.4959999 0.5084688067 0.02486791462 0.8607212305
-0.06491366 -0.35476074 1.7220001 0.09604108334 -0.2237941325 0.9698929191
-0.1662125 -0.041553125 1.529 -0.3162855804 0.7981604338 0.5127410889
-0.30471823 -0.041003164 1.4770001 0.196805805 0.3974099457 0.8962883353
-0.16622928 0.025763068 1.4358001 -0.1875327379 0.5691076517 0.8005922437
-0.25577274 -0.093439221 1.5546668 -0.2530095577 0.8023322225 0.5406007767
-0.18747574 -0.10436308 1.6160001 -0.4615716338 0.7753770351 0.43097803
-0.055564005 -0.4445121 1.7129999 0.09199790657 -0.1141420081 0.9891956449
-0.034945395 -0.25523332 1.7330003 0.2793997526 -0.3054882288 0.9102816582
0.015245232 -0.20581067 1.7390002 0.3297277987 -0.287065655 0.8993735909
-0.23230264 -0.0089840796 1.4640001 -0.2210261375 0.6881260872 0.6911077499
-0.081871897 0.095517218 1.4150001 0.06163493544 -0.1372245252 0.9886205196
-0.085475653 -0.062264588 1.605 -0.2424939126 0.8838182092 0.4000775516
-0.024088407 0.29511389 1.5500001 0.2523654103 -0.05309870839 0.9661740065
0.039406165 0.11278316 1.5500001 0.8280546665 0.3083904088 0.4682102203
-0.37263769 -0.093829632 1.529 0.3769232035 0.7202545404 0.5823764205
0.10845068 -0.0083423601 1.5860001 -0.2787418962 0.8798834085 0.3848481774
-0.24302487 -0.21877509 1.8040003 0.4259351194 0.6065537333 0.6713209748
0.10364239 -0.062624902 1.6710002 -0.1861206293 0.862496376 0.4705943763
-0.12500115 -0.30451244 1.748 0.2359214723 -0.5367067456 0.810115397
0.024048723 0.20441587 1.5240002 0.6641969085 0.04374969006 0.7462763786
0.062116217 0.33072689 1.9150001 0.9055880904 0.374843806 -0.1985001564
-0.14543514 -0.071466222 1.5860001 -0.2671124339 0.8462881446 0.4609200954
-0.064478539 -0.027504832 1.5430001 -0.1346789598 0.8705585599 0.4732751846
-0.23546401 -0.11602672 1.6055715 -0.3376140893 0.8354727626 0.4335919321
-0.12590231 -0.44714943 1.7220001 0.2154317945 0.01234889496 0.9764407873
0.12625386 -0.35456043 1.6630001 0.3776921928 -0.05048970878 0.9245536327
-0.1832961 -0.3049801 1.7570001 0.1833399236 -0.4104841948 0.8932464123
0.03153633 -0.36642212 1.7130001 0.4959843457 0.01103549264 0.8682613373
0.22524375 -0.32487077 1.647 -0.06577750295 -0.09961830825 0.9928491712
0.065041535 0.014305321 1.523 -0.337706089 0.7885705233 0.5139174461
-0.1848364 -0.17559458 1.7570001 -0.4785434604 0.7451002598 0.4645661414
0.036942557 -0.31626433 1.7130001 0.5281808376 -0.1878763288 0.8280866146
-0.044243611 -0.39669782 1.7050002 0.1687141508 -0.3095365763 0.9358005524
-0.0074341334 -0.45496899 1.6960001 -0.2829413414 -0.1068167612 0.9531707168
-0.1049931 -0.019935399 1.5160002 -0.1158670634 0.8409375548 0.5285819173
-0.1946165 -0.36318195 1.748 0.3401618302 -0.2208172083 0.9140731096
-0.48677137 0.21327984 1.6550001 0.461293906 -0.2247132361 0.8583192229
0.17057391 -0.22451609 1.6630001 -0.1186505854 -0.006827081554 0.9929125905
-0.25512576 -0.20077945 1.7220001 -0.3652219474 0.798419416 0.4786849916
-0.18325226 -0.14678118 1.7050002 -0.5256517529 0.7189723849 0.4547185302
-0.003425312 -0.18465546 1.7760003 0.3614825606 -0.7074198723 0.6073610783
-0.48024237 0.12042332 1.6550001 -0.533718884 -0.3232958317 0.781424284
0.015294326 -0.034064636 1.5860001 -0.2126405239 0.8640775084 0.4562389851
-0.24389148 0.033859674 1.4519999 0.289957583 -0.04924875125 0.9557715058
-0.010407787 -0.36427253 1.6960001 -0.09013146907 -0.3556610048 0.9302588701
-0.02558464 0.36491776 1.536 0.7534008622 0.09777325392 0.6502518654
-0.12513453 -0.35942894 3.0370002 -0.09668943286 0.6726857424 0.7335836887
-0.036364138 0.024670569 1.464 0.0003356686211 0.8227858543 0.5683514476
0.21355601 -0.18704562 1.6800001 -0.2081882954 -0.3520467579 0.9125353098
0.1072314 -0.44445366 1.6710002 0.3941718638 0.1937399358 0.8983837366
0.13607006 -0.093579777 1.7310001 0.4340200722 -0.06559593976 0.8985119462
-0.1281897 -0.16451877 1.7760001 -0.3497697115 0.7734041214 0.5286843777
0.11590719 -0.1959876 1.686769 0.5195497274 -0.2721829116 0.8099287152
-0.1025437 -0.098148972 1.6710001 -0.3073137999 0.8559299707 0.4158631265
0.087273918 -0.038629439 1.6320001 -0.2335654646 0.8722046018 0.4297747612
-0.043307457 0.38423011 1.5790002 0.7926149368 0.01573209465 0.6095194817
0.19299009 -0.14481692 1.6960001 -0.1444933414 -0.6326786876 0.7608149052
-0.0029894332 -0.088188283 1.705 -0.2922804356 0.8349706531 0.4662576318
-0.072083041 -0.48505881 1.7130002 0.01052577887 -0.03808398545 0.9992191195
-0.13397877 -0.38495311 1.7220001 0.1277255565 -0.1667704135 0.9776880145
-0.10470819 -0.34447479 1.7310001 0.1166435182 -0.1462862492 0.9823414087
-0.1042041 -0.26510751 1.748 0.1462831795 -0.2700619996 0.9516657591
-0.025797671 -0.29591444 1.7310001 0.06671332568 -0.06869374216 0.9954047203
0.21513663 -0.36529917 1.6470002 -0.06218528748 -0.08101190627 0.9947713614
-0.034965996 0.054438081 1.4330002 -0.07552829385 0.5881918073 0.8051868677
0.075828157 -0.45537442 1.6960002 0.1556301713 0.07476335019 0.9849820733
-0.11581819 0.03524375 1.436 -0.1017187908 0.6334426403 0.7670747638
0.094797663 -0.38526031 1.680889 0.5166221261 0.1106116325 0.8490386605
-0.3157804 -0.17873813 1.6630001 -0.2453039438 0.8387933969 0.4860571623
-0.20445883 0.014441329 1.4449999 0.05548140034 0.4941043854 0.8676304817
-0.26492357 -0.032888852 1.4770001 -0.1623125076 0.6715739965 0.7229405642
-0.3350848 -0.13625854 1.5860001 -0.1573028564 0.8573594093 0.4900925457
0.044316959 0.086479954 1.4723333 -0.8206638694 -0.3038536906 0.4839253128
-0.22667094 -0.072265387 1.5359999 -0.2792019248 0.7482439876 0.6018116474
-0.14462632 -0.018025143 1.5043335 -0.140556857 0.7845770121 0.6038896441
-0.056200821 -0.043465663 1.5790001 -0.2106138468 0.8680678606 0.4495553374
0.47468606 -0.38161036 3.5390003 -0.2774475515 0.8683287501 0.4111302197
0.095447958 -0.25576112 1.6879998 0.3881727457 -0.08043577522 0.9180697203
-0.24463996 -0.1596752 1.6710001 -0.3273596764 0.7821860909 0.5301136971
-0.33496767 -0.084500782 1.5060002 -0.1391001493 0.729716897 0.6694508195
-0.17433639 0.064654514 1.4348 0.2933353186 -0.4973041713 0.8164820671
0.022319496 -0.008792528 1.5430001 -0.1405690312 0.9129827023 0.3830181956
-0.064692743 -0.24490826 1.7570001 0.2224502265 -0.2333063185 0.9466171861
0.07656271 -0.18650742 1.705 0.3835359216 -0.388515234 0.8378282189
-0.19561853 -0.44514766 1.7570001 0.6261680126 0.1483962089 0.7654359341
-0.244519 -0.25250983 1.8230001 0.09659337252 -0.01775011979 0.9951656461
0.14396469 -0.48305339 1.688 -0.002914893208 0.6294506192 0.7770350575
0.032370917 0.029781243 1.4770001 -0.2439581454 0.7279862165 0.6407187581
-0.29379407 -0.10569629 1.5523334 -0.4003503621 0.7454668283 0.5329153538
0.15413436 -0.15215193 1.6960001 0.041642759 -0.6970093846 0.7158517838
-0.074439518 0.0192516 1.4640001 -0.1426837593 0.8442248702 0.516648531
0.055460565 0.17179248 1.5430001 -0.5240256786 -0.3369273543 0.7822256684
-0.035365608 -0.085474133 1.6810002 -0.1565848887 0.8790858984 0.4502101541
-0.0655545 -0.12348639 1.7390001 -0.244063288 0.8632284403 0.441893369
0.10409277 0.04084653 1.503 -0.14502801 0.6977164745 0.7015401721
-0.48548397 0.14237067 1.6240001 -0.4355323017 -0.3796360791 0.816203475
-0.025783118 -0.0050503016 1.516 -0.1689844131 0.8805909157 0.4427233338
-0.19528688 -0.034876052 1.505143 -0.2218325734 0.8093710542 0.5437911749
0.17432429 -0.42775372 1.6710001 0.04751617461 0.2227268815 0.9737222195
0.034378484 -0.43496254 1.705 0.1873982549 -0.02073888481 0.9820650816
0.065420367 -0.49511334 1.6960001 0.09001991898 0.1786946952 0.979777813
-0.16604505 -0.10829025 1.647 -0.2982381582 0.8603133559 0.4134185612
-0.25180671 -0.13877983 1.6320001 -0.3624292016 0.7966544032 0.4837218523
0.21285291 -0.24346873 1.6630001 0.04704851657 -0.04417756945 0.9979152083
-0.091177717 -0.43795198 1.705 0.1171957552 -0.2530335188 0.9603328705
0.075459957 -0.023057211 1.5940001 -0.2342429757 0.8520504236 0.468124181
0.034531023 -0.063548692 1.6550001 -0.1035636961 0.901894033 0.4193586707
0.048578288 -0.2548492 1.705 0.3992932737 -0.1451881975 0.9052542448
0.047804639 -0.20581155 1.7220001 0.6074706912 -0.2339024246 0.7591238618
-0.26035684 -0.06809333 1.5230001 -0.2649034262 0.7844840884 0.5607235432
0.085198849 -0.073241115 1.705 -0.1173303798 0.8651759028 0.4875492454
-0.014894041 -0.10612138 1.7342001 -0.1677875668 0.9277647138 0.3333166242
0.19390027 -0.3076162 1.6630001 0.3947554231 0.1549925506 0.9056188464
0.084744938 0.0031712926 1.5507779 -0.2708917856 0.8320698738 0.4840221107
0.15738183 -0.36529911 1.647 0.427066505 0.02234345116 0.9039441347
-0.15605062 -0.49546704 1.7310003 0.4692953229 0.3588795662 0.806825459
0.48504037 -0.32433423 3.3330002 -0.283249259 0.8644960523 0.4152305424
0.14502609 -0.27540305 1.6710001 0.2075246871 -0.08610796928 0.9744325876
0.0044841501 -0.49475124 1.705 -0.1606179774 0.02583487518 0.9866784811
-0.015245232 -0.22410494 1.7390002 0.135838896 -0.3089420199 0.9413302541
0.10259104 -0.31669408 1.6960001 0.4197543561 -0.03507931158 0.9069595933
0.0050372169 0.075510912 1.4356252 -0.3866843283 0.1686839163 0.9066537023
-0.114931 -0.13791719 1.748 -0.269205004 0.8182308674 0.5079635382
-0.30467322 -0.15518403 1.6240001 -0.2068541646 0.8512174487 0.4823278785
0.0061693955 -0.049829733 1.6240001 -0.21472013 0.8916325569 0.3986058831
-0.153585 0.0089840796 1.4640001 -0.2175331265 0.7800354958 0.5867060423
-0.30682281 -0.0013000966 1.483 0.6882203221 -0.2932252288 0.6636051536
0.23552673 -0.39609113 1.6550001 -0.04237950966 0.3438603282 0.9380639791
-0.32001841 -0.48413038 3.1200001 -0.2043591142 0.7110062242 0.6728354692
-0.15441957 -0.086418293 1.6160001 -0.250582844 0.874599576 0.4150708616
-0.056948267 -0.066914216 1.6240001 -0.1966466755 0.9052937031 0.3765280843
-0.0056337523 0.022101643 1.4830002 -0.2664667964 0.8190127611 0.5081471801
-0.1374083 -0.13140136 1.7130001 -0.3117282093 0.8406364322 0.4428949356
0.1585101 -0.067932896 1.7220001 0.4321613312 0.02031498961 0.9015674591
0.13430533 -0.28204119 3.0640001 -0.2214843333 0.7653406262 0.604316473
-0.10484 0.064899959 1.4236251 0.1920163333 0.2339447886 0.953099966
-0.034721259 -0.32758754 1.7220001 0.08925484121 -0.2911047637 0.9525185823
-0.013526967 0.33411607 1.5430001 0.6882738471 0.1287323385 0.7139377594
-0.46123099 0.18535452 1.6390001 0.3227367401 0.1876908094 0.9276924133
-0.075828157 -0.10407786 1.6960001 -0.1746993512 0.8905676007 0.4199637175
0.48273912 -0.078350328 2.8830001 -0.2328715175 0.8458679914 0.479873091
-0.17451365 -0.38393 1.7310001 0.18385306 0.01924001612 0.9827654362
-0.2665768 -0.19588239 1.6800001 -0.2360217124 0.7880238891 0.5686053634
-0.21501037 -0.30326793 1.7850001 0.3040629327 -0.693200171 0.6534671187
0.14433177 -0.44429401 1.6630001 0.1018751264 0.2492323816 0.9630704522
-0.053030662 0.075979605 1.4150001 0.02333570458 0.1637725383 0.9862220883
-0.025410181 -0.42449951 1.705 0.1390801668 -0.1788350791 0.9739993215
0.14502609 -0.20508741 1.6710001 0.2356023937 -0.109109439 0.9657052755
-0.19525118 -0.061941762 1.5360001 -0.2546410859 0.7366402149 0.6265134215
0.082237467 0.083542824 1.4890001 -0.02528304607 -0.1524081677 0.987994194
0.052560549 -0.091605529 1.7130001 -0.02538411506 0.8892983794 0.4566224217
-0.15557064 -0.32269356 1.7570001 0.36336869 -0.3649676442 0.8571825027
-0.45587954 0.12395813 1.6335557 0.486787051 -0.3367741704 0.8059910536
-0.14436579 0.048288725 1.427 0.05467185751 0.1957452744 0.9791296124
-0.034171592 -0.070749633 1.647 -0.060703706 0.9167972207 0.3947123885
0.046515934 0.11486588 1.5159999 0.841611445 0.04412132502 0.5382782817
0.25506529 -0.31484169 1.655 -0.4328943789 -0.03590743989 0.900729239
0.15453704 -0.31490564 1.6630001 -0.003502238076 -0.1507291943 0.988568902
0.065420367 -0.37468034 1.6959999 0.3722999394 0.0415362455 0.9271825552
0.013657589 -0.29591444 1.7310001 0.2128521651 -0.08576118201 0.9733133912
0.065289751 -0.053682681 1.6550001 -0.1626649946 0.9082072377 0.3856160045
-0.28514108 -0.3139168 2.9840002 -0.3261404932 0.7507456541 0.5744678974
-0.18369971 -0.12510332 1.6710001 -0.4873735607 0.7646711469 0.4215982556
0.061351761 0.14358923 1.4890001 0.7769272327 0.2643250823 0.5714161396
-0.21481577 -0.098022729 1.5860001 -0.3041081429 0.8216591477 0.4820730686
-0.12378545 -0.41640827 1.7130002 0.07045535743 -0.1749153882 0.9820594192
0.031867709 -0.23217903 1.7310001 0.4139095545 -0.1723306179 0.8938574195
-0.26681966 -0.11356302 1.577 -0.3410846293 0.8049398661 0.4855235517
-0.17565303 -0.082960136 1.5860001 -0.3808133602 0.8338904381 0.3995095491
-0.36410233 -0.11365819 1.5526251 0.3741934597 0.7661832571 0.5224389434
-0.20570318 -0.18441798 1.7344286 -0.5817319751 0.6669778228 0.4655410647
-0.047738008 0.10175733 1.4330001 -0.05713977665 -0.4832829237 0.8735975623
-0.28590554 -0.058361452 1.4960001 -0.1932327151 0.6862754822 0.7012040019
-0.14559679 -0.051413868 1.557 -0.1591557711 0.8381519318 0.5216999054
-0.1153781 -0.073170111 1.605 -0.1929715276 0.8863810897 0.4208212793
0.21618162 -0.28292224 1.6550001 -0.03465120122 -0.1648985744 0.9857016802
-0.093569085 -0.078117311 1.6320002 -0.2731518745 0.8788536191 0.3911576569
-0.12695184 -0.24925913 1.766 0.1626606584 -0.4427466393 0.8817691803
0.034488942 0.057476893 1.4570001 -0.4492143393 0.5057042241 0.7365254164
-0.45920455 0.14726466 1.6550001 0.009499041364 -0.3089596629 0.9510276914
0.10496996 -0.22510555 1.6960001 0.4793413281 -0.01595198549 0.8774835467
0.019056542 -0.17455792 1.7390001 0.4924323559 -0.3359448016 0.8029019237
0.24229752 -0.25100282 1.6550001 0.3737157583 -0.04288803041 0.9265512228
-0.085008606 -0.039762095 1.5640001 -0.1984702945 0.8557993174 0.4777206779
-0.06525293 -0.32474712 1.7310003 0.1431769878 -0.1800708026 0.973177731
0.042748895 -0.39520311 1.7050002 0.3873041272 -0.07000027597 0.9192907214
-0.33344376 -0.034256544 1.4873638 0.3257143795 -0.09343060106 0.9408404827
0.20411079 -0.44191453 1.6710001 -0.3356597424 0.3468557596 0.8757988811
0.043800458 -0.28457785 1.7129999 0.5628169179 -0.046099253 0.8252950907
-0.15549086 -0.46496296 1.7220001 0.222100988 0.09456122667 0.9704273939
-0.22437085 -0.36299816 1.7570001 0.5364115834 -0.07935932279 0.8402170539
0.10489765 -0.28514966 1.6853334 0.593226552 -0.02277996764 0.8047131896
0.092857696 -0.41614899 1.6813334 0.5168938637 0.02315708809 0.8557362556
0.12477597 -0.04280106 1.6550001 -0.3594889343 0.773570776 0.5218773484
0.33280459 -0.20500763 3.0370002 -0.2378882468 0.8366571069 0.493370086
0.26260987 -0.34966287 1.6550001 -0.5291571021 -0.3947233558 0.7511233091
-0.21509133 -0.024720246 1.4840001 -0.2040919363 0.6967570186 0.6876598597
-0.27228391 -0.29821569 2.9580002 -0.3261404932 0.7507456541 0.5744678974
-0.33883166 -0.44183648 3.0920002 -0.2925180197 0.7107774615 0.6397097707
0.02396193 -0.30085534 3.0370002 -0.1557491869 0.6600347161 0.7349124551
0.024564901 -0.07665433 1.6880001 -0.1154034734 0.9150744677 0.3864204586
0.10469329 -0.3450402 1.6820002 0.4548374712 -0.339532584 0.8233107328
-0.1790504 -0.28180975 1.7760001 0.5151792765 -0.5966331363 0.6153204441
0.20508738 -0.21534176 1.6710001 -0.1727113277 -0.2128866315 0.9616912603
0.043117974 -0.34048331 1.6960001 0.2606647015 -0.1947940588 0.9455734491
-0.0048644478 -0.25473392 1.7358001 0.03731778637 -0.09570558369 0.994709909
-0.31499949 -0.10287749 1.5290002 -0.2019307762 0.6734936237 0.7110768557
-0.10416379 -0.37589538 1.7220001 0.06612941623 -0.1688142419 0.9834269881
-0.31563273 -0.062514521 1.4960002 -0.1228798106 0.6155381799 0.7784685493
0.080009863 -0.1585101 1.7220001 0.5050714612 -0.4473719001 0.7380793691
-0.20381097 -0.32487163 1.7479998 0.1458295584 -0.3307957053 0.932366848
-0.24375892 -0.28784299 2.9580002 -0.2553811669 0.7851877809 0.5641458631
-0.2055842 -0.15530013 1.687111 -0.4006047845 0.7490634322 0.5276550055
0.054936998 0.025209816 1.4960002 -0.3859407008 0.6668185592 0.6374973059
-0.10612489 -0.46485686 1.705 0.1875676066 -0.1455442309 0.9714089036
-0.17489302 -0.44425103 1.7310001 0.4981348515 -0.06731316447 0.86448282
-0.13631333 -0.10423961 1.6630001 -0.2537140548 0.8781229258 0.4056221247
0.1552445 -0.40396738 1.655 0.2224377394 0.1859458983 0.9570504427
-0.033538636 -0.35591003 1.7130002 0.2876555026 -0.2124782354 0.9338668585
-0.095843926 -0.31492954 1.7354445 0.09090044349 -0.3208827376 0.9427466989
-0.065291062 -0.38457569 1.7220001 0.2192926407 -0.1832152307 0.9583020806
-0.012715349 0.26485801 1.5430001 0.1482835561 -0.1554805934 0.9766461849
-0.0026387665 -0.29554188 3.0100002 -0.1589018106 0.6620214581 0.7324464321
-0.086153537 -0.0013053566 1.4890001 -0.1228121817 0.8196953535 0.5594789982
-0.073539481 -0.013290267 1.5159999 -0.1390256137 0.8500289321 0.5080577731
-0.057283152 -0.13159643 1.766 -0.2820859551 0.866289854 0.4122734964
-0.15557064 -0.29331776 1.7570001 0.2090429217 -0.3486632407 0.9136383533
-0.01245831 -0.040143441 1.5790001 -0.1564415097 0.8764003515 0.4554650784
-0.062278397 -0.2101896 1.7760001 0.236491859 -0.3562427163 0.9039705396
0.043319602 -0.032140352 1.5940002 -0.1862955689 0.8585221171 0.4777381718
-0.064574391 -0.41597927 1.7130002 0.2509619296 -0.07764565945 0.9648778439
-0.010726893 -0.1961489 1.748 0.3140557706 -0.6143649817 0.7238264084
-0.34189999 -0.464984 3.1200001 -0.2273740619 0.7092137933 0.6673206687
0.1255562 -0.49774066 1.705 0.004412549082 0.5682091713 0.8228722811
-0.21774735 -0.24794587 1.8130001 0.07505984604 0.09561217576 0.9925846457
0.20834422 -0.39226186 1.6390001 0.09758599102 0.2782839537 0.9555286765
-0.21031584 -0.11874976 1.6320001 -0.2770629823 0.8604166508 0.427690655
-0.18361871 -0.15933855 1.7310001 -0.4479809105 0.7747313976 0.4462110996
-0.28620714 -0.01668472 1.464 0.3474550843 0.2559853494 0.9020789862
0.069880851 -0.3122336 1.6960001 0.3462093174 -0.01613575779 0.9380185008
-0.15481934 -0.16875307 1.766 -0.3743394613 0.7921893597 0.4819813073
-0.34591788 -0.10402764 1.5268573 0.09290768206 0.7541946173 0.6500450969
-0.19442683 0.044372283 1.4369999 0.4084135592 -0.283557415 0.8676367402
0.13568257 -0.0655545 1.7390002 0.3452545702 0.009830446914 0.9384576082
-0.17308731 -0.058605749 1.5546666 -0.4316656291 0.7510635257 0.4995681643
0.1350169 -0.1748289 1.6867692 0.3981670737 -0.4081944227 0.8214866519
-0.20352386 -0.42457974 1.7390001 0.562662065 0.1711902022 0.8087677956
-0.2549805 0.0050956248 1.45425 0.2124558985 0.126161918 0.9689921141
-0.13331996 -0.27736682 1.748 0.1786667109 -0.2409570366 0.953948617
0.1233996 0.0013711067 1.5640001 -0.2792813778 0.8361047506 0.4721554816
0.0048033367 -0.36491632 1.7220001 -0.173917681 -0.262607038 0.9490996599
-0.033825308 -0.46500504 1.6960001 0.2337144613 -0.06412408501 0.9701884389
-0.28565744 -0.17334767 1.6710001 -0.2927260399 0.8219628334 0.4885576665
-0.064876936 -0.26645282 1.7390002 0.3583997488 -0.5237371325 0.7728188634
-0.15175889 -0.37007868 3.0370002 -0.09668943286 0.6726857424 0.7335836887
-0.13419284 -0.032547418 1.5256668 -0.2492989749 0.8269235492 0.5040312409
-0.36438912 -0.080535859 1.506 0.4421136677 0.5784571767 0.6855092049
-0.036895745 -0.021275649 1.536 -0.176017642 0.8591364622 0.4805229902
-0.0031992488 0.30667087 1.5640001 0.3165349066 -0.04542351514 0.9474926591
-0.04137516 -0.22526477 1.748 0.3793959022 -0.3458297551 0.8581727743
-0.1208748 -0.36262441 3.0640001 -0.08748824149 0.7042199969 0.7045707703
0.18201704 -0.46614119 1.6880001 -0.2047843039 0.5466257334 0.8119505048
0.18481535 -0.3652992 1.647 -0.05678083748 0.06215487793 0.9964500666
0.0094259195 0.22756864 1.536 0.6765275002 0.1354885399 0.7238462567
-0.075084746 0.45475855 1.6160001 0.7255340219 -0.09134394675 0.6820972562
0.10410655 -0.023561418 1.6078573 -0.4283084273 0.7959998846 0.4277102351
0.20457456 -0.41350174 1.655 -0.002375378739 0.4795261621 0.8775243759
-0.35228938 -0.15017913 1.6010001 -0.1786280572 0.8433730602 0.5067681074
0.48692521 -0.08667779 2.9080002 -0.2241462618 0.8485432863 0.4793044627
-0.22168708 0.046870984 1.4450001 0.341393739 -0.5010747313 0.7952197194
-0.2057782 -0.0064172 1.4640001 -0.07402959466 0.7729712725 0.6301071644
0.0012562633 0.10175733 1.4330001 -0.4431649148 -0.1802743971 0.8781264424
-0.2248615 -0.086928159 1.5640001 -0.2861578465 0.8169705272 0.5006724
0.016519031 -0.33488575 1.7130002 0.3775600791 -0.3501171768 0.8572434783
-0.26659521 -0.13118178 1.6090001 -0.3559512794 0.8112524748 0.4638622105
0.17395872 -0.12638026 1.6960001 0.2786488235 -0.5855571628 0.7612342834
-0.17554645 -0.3444525 1.748 0.2755834162 -0.522317946 0.8069930077
-0.28212097 0.01950145 1.483 0.5568100214 -0.5538418293 0.6190491319
-0.01802076 -0.38294116 1.7130001 0.4295782745 -0.09642339498 0.8978669643
0.035286456 0.0024795888 1.523 -0.2082229406 0.8393976092 0.5020506978
-0.12390222 -0.11646809 1.6960001 -0.2747701108 0.8652948141 0.4192448854
0.16474232 -0.25513193 1.6630001 0.01748595014 -0.02281629853 0.999586761
-0.31438395 -0.12685837 1.572875 -0.1618679017 0.856058836 0.4908788204
0.045246519 0.097706251 1.4960001 0.03717106953 -0.5956550837 0.802379787
-0.12397118 -0.05881346 1.5748 -0.1875961423 0.8716769814 0.4527548552
0.12283151 -0.26480943 1.6800001 0.3969651163 -0.09858647734 0.9125236273
-0.036334328 -0.032906562 1.5640001 -0.1440522224 0.8982345462 0.4152393341
0.10213897 -0.18285368 1.705 0.4196496606 -0.3344300091 0.8438310027
0.044060387 0.18340288 1.523 -0.5269633532 -0.3151563406 0.7892946601
0.1255562 -0.46687758 1.6800002 0.09849550575 0.5136563778 0.8523237705
-0.21362613 -0.049401045 1.5230001 -0.2124922276 0.7593835592 0.6149664521
0.18517113 -0.19561462 1.6800002 -0.2066579759 -0.2849855125 0.9359892011
-0.25424734 -0.17990603 1.6960001 -0.3540707827 0.7917811275 0.4977113008
0.025529409 -0.088602066 1.7129999 -0.13782309 0.8734839559 0.4669374526
0.1585101 -0.14039466 1.7220001 0.1464825869 -0.6169686317 0.7732350826
-0.032449525 0.31855378 1.5640001 0.5395323038 -0.09880220145 0.8361477256
0.0029117856 0.28399616 1.5500001 -0.02482647449 -0.1915250719 0.9811736941
-0.23298468 -0.18668966 1.7220001 -0.3358091116 0.7125547528 0.6160340309
-0.20276161 -0.3857044 1.739 0.5006753206 0.07391485572 0.8624736667
-0.12609886 -0.32511944 1.7330003 0.2019754499 -0.3032961488 0.9312450886
-0.13506629 0.022934914 1.4534999 -0.08356111497 0.7907108068 0.6064602137
-0.2744289 -0.084833272 1.5360001 -0.3077000678 0.7688788772 0.5604872108
-0.05473819 -0.05614173 1.601 -0.1880021542 0.8822945952 0.4315221906
0.013254032 -0.02148067 1.5640001 -0.2144401222 0.8527898788 0.4761983156
0.16273704 -0.094502218 1.7220001 0.3551931083 0.023329271 0.9345017672
-0.24051788 -0.029902223 1.483 -0.233251214 0.7070242763 0.6676155925
-0.076289728 0.06636586 1.4150001 -0.08690235019 0.3535856307 0.9313566089
-0.0033038061 -0.43339929 1.7130001 -0.1356013417 -0.2156994194 0.9669984579
0.086091042 -0.0084717302 1.573 -0.2713872492 0.8435083032 0.4635112286
0.015017301 -0.3859446 1.7129999 0.09069278836 -0.2893089056 0.9529297948
-0.49733692 0.22925842 1.6710001 0.5876243114 -0.2029918134 0.7832573056
0.12305244 -0.37794679 1.6710001 0.2485311031 -0.02684875205 0.9682517648
0.025375115 -0.042291272 1.6080002 -0.1233479008 0.9089514613 0.398236841
-0.13185188 -0.47664911 1.7130001 0.4493471086 -0.18232961 0.8745530844
-0.03756832 0.36526281 1.5640001 0.7926149368 0.01573209465 0.6095194817
0.0056134714 -0.0045474456 1.5248001 -0.1803951412 0.8695104122 0.4597925544
-0.27782005 -0.19672664 1.7130001 -0.1334397495 0.8843564987 0.4473337233
-0.095605761 -0.030970879 1.536 -0.1391875595 0.8480403423 0.5113260746
0.046686359 -0.45437425 1.6960001 0.2560189366 -0.06698585302 0.9643480778
-0.01432203 -0.064454496 1.6337501 -0.1998465657 0.8801190853 0.4306410849
0.16975334 -0.285824 1.6550001 0.1677209884 -0.1838131547 0.9685465097
-0.03491829 0.0075058006 1.4890002 -0.1183553189 0.8143334985 0.5682014823
0.088188283 -0.49774066 1.705 0.1046815589 0.04880676419 0.9933074117
-0.11541141 -0.0039344798 1.4960002 -0.1204722822 0.8193403482 0.5605068207
0.08423233 -0.36549503 1.6710001 0.4516774416 -0.0915523693 0.8874714971
-0.23809214 -0.10105073 1.5790001 -0.3145417571 0.8265216351 0.4668248594
-0.10461975 0.025513295 1.455375 -0.104456462 0.8126190901 0.5733577013
-0.16168626 -0.13865973 1.7129999 -0.3778311312 0.7864233851 0.4886531532
-0.26361015 -0.048525251 1.4960001 -0.2433646619 0.6897690296 0.6819034815
-0.35602206 -0.13530101 1.5736156 0.08231847733 0.8300750852 0.5515423417
0.16765812 -0.19827394 1.6630001 -0.1062402055 -0.1461291611 0.9835442305
0.014947169 -0.45588854 1.705 -0.03791162744 -0.02603306435 0.998941958
-0.1731627 -0.49496952 1.7479999 0.5541729927 0.3489968479 0.7557072639
0.22888978 -0.3017846 1.6630001 -0.03196874261 -0.3350893855 0.9416438341
-0.18467395 0.0051730545 1.4551764 -0.1283964068 0.7297211885 0.6715812087
0.1318419 -0.33253458 1.6710001 0.4464448988 -0.105139561 0.8886127472
-0.076090984 -0.21533442 1.7570002 0.1513603628 -0.3249294162 0.9335474968
0.069417976 -0.038250718 1.6160001 -0.2116383314 0.8682441115 0.4487330914
-0.32442802 -0.15092956 1.6090001 -0.1067798957 0.8649536371 0.4903603494
-0.12413231 -0.3651129 1.7310002 -0.02039411478 -0.2673239708 0.9633908868
-0.10288911 -0.059786912 1.5860001 -0.227110073 0.8657861352 0.4459096491
-0.056065027 0.033128794 1.4535 -0.1516281664 0.8172447681 0.5559855103
0.072386988 -0.25602362 1.705 0.359297663 -0.09152874351 0.9287236929
0.18457866 -0.24463998 1.6710001 -0.03300833702 -0.04419359192 0.9984775186
0.08449138 0.027725462 1.506 -0.2135297209 0.7437957525 0.6333821416
-0.14171053 0.0013000966 1.483 -0.09785800427 0.8094836473 0.5789301395
-0.074735828 -0.45588863 1.705 -0.02023202926 -0.0980130434 0.9949794412
-0.015354818 0.065527074 1.4257143 -0.393563658 0.4493937194 0.8019681573
-0.19203471 -0.11984121 1.6470001 -0.4501476884 0.8094609976 0.377014488
-0.015199008 0.034224905 1.4558182 -0.271923691 0.7596783638 0.5907167196
-0.095768817 -0.12655625 1.7340001 -0.2108724415 0.8479071856 0.4864013195
-0.04409663 -0.1140517 1.7345557 -0.2615402043 0.8654085994 0.4273928404
-0.20332004 -0.19253792 1.7570001 -0.4923842847 0.826433599 0.2730663419
-0.10759944 -0.15094884 1.766 -0.2349623591 0.8030626774 0.5476157665
-0.25250983 -0.22853735 1.8230001 -0.5240444541 0.4491127729 0.7236540318
0.19390027 -0.33094254 1.6630001 0.3784304559 -0.4028623998 0.8333620429
0.22413123 -0.26221889 1.6710001 0.07021471858 -0.1668917835 0.98347193
0.053206071 -0.0049598883 1.5430001 -0.2561795712 0.8659288883 0.4295802414
0.19006571 -0.45122471 1.6550001 -0.192299515 0.2615581155 0.9458373189
-0.173408 -0.027185258 1.5054001 -0.3067645729 0.7686728835 0.5612820387
-0.18361872 -0.40517515 1.7310001 0.311498642 -0.04243790358 0.949298501
0.14799011 -0.33660495 1.6550001 0.3077970743 -0.2208450288 0.9254665971
0.14618678 -0.11431909 1.7310001 0.2883923054 0.002595073078 0.9575088024
-0.23177664 -0.12733407 1.6320001 -0.3761793375 0.8024660349 0.4631817639
-0.1042041 -0.28809369 1.748 0.2578511834 -0.3113436103 0.9146463275
-0.23182134 0.015623662 1.4450001 0.2241624296 0.1558573842 0.9620081782
0.14335984 -0.38504666 1.6630001 0.3861593306 0.08847723901 0.9181790352
-0.0151751 -0.27466935 1.7310003 -0.04669718817 -0.03514267132 0.9982907176
-0.33064622 -0.17182054 1.6470001 -0.1887994558 0.8350024819 0.5168420076
-0.24776703 -0.082140163 1.536 -0.237150982 0.7475239038 0.6204574704
0.052836701 -0.23097186 1.7220001 0.468624711 -0.2525008619 0.8465424776
0.090069607 0.052214265 1.4890001 -0.1227730811 0.2996740341 0.9461089969
-0.13246609 -0.14940943 1.7570001 -0.3835950792 0.7764246464 0.5000196099
-0.28475535 -0.14308603 1.6159999 -0.3609049618 0.8091608286 0.4636877775
0.035422888 -0.023697615 1.5743335 -0.1485849321 0.8604741693 0.4873466492
0.085740335 -0.20534727 1.6960001 0.3379760087 -0.105383411 0.9352360964
0.20569406 -0.16721891 1.6880001 -0.1310133934 -0.4105862975 0.9023604393
-0.32131585 -0.013114933 1.4960001 0.6721723676 -0.3810152411 0.6348320246
-0.23552673 -0.14492711 1.655 -0.3844756782 0.7720965147 0.5060092807
0.025410183 -0.41403648 1.705 0.1744512469 -0.004772979766 0.9846542478
-0.054630365 -0.28529191 1.7310004 0.1747659743 -0.1259182096 0.9765251875
-0.14492351 -0.43477058 1.7220001 0.2121530175 -0.0170505736 0.9770876765
-0.3130191 -0.13834326 1.5940001 -0.1367278844 0.857052207 0.496756494
0.20502955 -0.34508491 1.647 0.1295015067 -0.1640738994 0.9779105783
0.23535083 -0.35519198 1.647 -0.05404486507 -0.09517362714 0.9939925075
0.07612817 -0.43424305 1.688 0.3696187139 0.1495907903 0.9170629978
-0.034759834 -0.042175263 1.5860001 -0.1118978783 0.8942119479 0.4334326982
-0.054753095 -0.094708048 1.6880001 -0.2188464552 0.860430181 0.4601804912
-0.0061612134 -0.11398245 1.7570001 -0.1830195338 0.9004248977 0.3946375549
