# .PCD v0.7 - Point Cloud Data file format
VERSION 0.7
FIELDS x y z normal_x normal_y normal_z
SIZE 4 4 4 4 4 4
TYPE F F F F F F
COUNT 1 1 1 1 1 1
WIDTH 512
HEIGHT 1
VIEWPOINT 0 0 0 1 0 0 0
POINTS 512
DATA ascii
-0.33384344 -0.14958563 1.13 -0.208049655 0.6315425038 0.7469065785
-0.38293678 -0.45989057 2.0900002 -0.09209830314 0.92378968 0.3716591895
0.098148972 0.11426298 1.6710001 -0.855666399 0.3907530904 0.339333266
0.28589678 -0.28927019 0.96200007 0.6628537774 0.2630821764 0.7010083199
-0.29537672 0.41357008 1.219 0.606125772 -0.3374192119 0.7202498317
-0.4991512 -0.023636688 1.5860001 -0.9297730923 -0.3622775376 -0.06539847702
0.14334376 -0.26423609 1.9700001 -0.4513651729 0.8835158348 0.1251770407
0.054392964 0.1113812 1.1364 0.4972298741 -0.6956851482 0.5184444189
-0.01004397 -0.45532662 1.273 0.6074419022 0.1366003305 0.7825309038
0.06277284 0.31878754 1.404 0.666354537 -0.6322140694 0.3953188658
-0.22885998 0.12302877 1.5090001 0.2368281931 -0.9668325782 0.09564115107
-0.19411522 0.072457574 0.94400001 -0.09921564162 0.585557282 0.8045364618
0.1160939 -0.18580687 1.19575 0.8145332336 0.05455219001 0.5775462985
-0.13400997 -0.22618957 1.2759999 -0.3822821081 0.5542640686 0.7393590212
0.1818119 -0.46039465 1.115 0.6435506344 -0.1302419901 0.7542410493
-0.10523937 -0.056874629 1.1238183 -0.1967258155 0.7207108736 0.6647366285
-0.20774019 0.25062233 1.087 0.5759982467 -0.3260295689 0.7496204376
-0.45959777 -0.071171306 1.376 -0.2231393456 -0.6743423343 0.7038971782
0.20752984 -0.10670765 1.0268461 0.6467775106 0.01845058985 0.762455523
-0.31098172 -0.29581189 1.2360001 -0.1362811178 0.106826432 0.9848936796
-0.026889002 0.036104757 0.99800009 -0.31750983 0.5373058915 0.7813385129
-0.31210327 -0.018254537 1.024 0.1866653115 0.5321157575 0.8258382678
0.061138734 0.21305923 1.268 0.5142009854 -0.682302475 0.5196736455
0.01736589 -0.29409975 1.278 0.5783730149 -0.2254021913 0.7840143442
0.19208755 -0.29512408 1.1030908 0.7989016175 0.1150274724 0.5903599858
0.054881129 -0.044551153 1.1461431 -0.05227653682 0.7647417188 0.6422127485
-0.026461482 -0.14134304 1.2270001 -0.2247763723 0.6742067933 0.7035060525
0.10432158 -0.37618995 1.202 0.5452473164 -0.06907618791 0.8354243636
-0.48047909 -0.44902954 1.9930001 -0.1954853982 0.7772147059 0.5980992913
-0.20533198 -0.14456519 1.1758573 -0.2789410949 0.675960958 0.6821060181
0.25696048 -0.39117113 1.0372001 0.7931599021 0.2043263167 0.5737143159
-0.18585472 -0.012730603 1.0372001 -0.2202585042 0.7713531256 0.5970766544
-0.084261917 -0.3125082 1.3490001 0.1520778686 -0.1838095337 0.971126318
-0.49784586 0.021535316 1.4450001 -0.3336907923 -0.6490909457 0.6836164594
-0.41724336 -0.22052813 1.1810001 0.1506359726 0.5668359995 0.8099418283
-0.16256951 0.16346283 1.0175 0.6377039552 -0.2787193358 0.7180871964
0.074007325 -0.49094999 1.189 0.5718410611 -0.2185810506 0.7907086015
-0.26544514 0.31537277 1.1623334 0.6371148825 -0.2119184285 0.7410635352
-0.20614992 -0.31482679 1.2780001 -0.4294427633 -0.1521956325 0.8901771903
0.15448156 -0.027300637 1.0961177 0.6981506348 -0.09272689372 0.7099207044
0.22143009 -0.22479486 1.0231252 0.8518355489 0.1674892157 0.496309936
-0.24478742 -0.088998154 1.0916001 -0.2637348473 0.7389138341 0.6200405359
0.16422135 -0.16476351 1.1048331 0.8729864359 0.2155899405 0.4375107884
0.051447183 0.025255891 1.067 -0.4341972172 0.3059142828 0.8472834229
-0.23102038 -0.22741784 1.2333335 -0.3482346833 0.5449615121 0.7627250552
0.024083786 0.086418293 1.6160001 -0.2509454191 0.7604587674 0.5989397764
0.12581517 -0.285157 1.1853331 0.7173509598 0.005326069891 0.6966916323
-0.1135691 -0.12770315 1.194 -0.2519005537 0.7320568562 0.6329603791
-0.03454905 -0.0062967134 1.0834374 -0.1657404602 0.7681933641 0.6183922887
-0.10485093 0.074405774 0.96450019 0.1813688725 0.3419673741 0.9220432043
0.16846903 -0.37426636 1.1371112 0.7583360076 -0.01737140305 0.6516323686
-0.054264791 -0.39139923 1.317 0.8027650714 -0.1164995655 0.5848043561
-0.04761498 -0.20733137 1.2830001 -0.05546476319 0.6753543615 0.7354047298
-0.3153922 -0.2144918 1.1866361 -0.2031700611 0.6438080072 0.737721622
0.045575272 0.26994583 1.3330001 0.6282320023 -0.5896057487 0.5076313615
-0.025403565 -0.075011365 1.1633636 -0.1835504472 0.7343903184 0.6534371376
-0.34499684 -0.085177191 1.0725416 0.08380243927 0.579679966 0.8105234504
0.065024376 -0.22512782 1.2537087 0.7484760284 -0.09497666359 0.6563254595
-0.10530379 0.015287371 1.0343335 -0.1947454661 0.7900116444 0.5813397169
0.034170076 -0.37447613 1.25 0.5440033674 -0.2983735502 0.7842407227
0.24095593 -0.30790696 1.0320001 0.839396596 0.2331148237 0.4909896553
-0.2634168 0.033933338 0.9744091 0.02759272419 0.6126336455 0.7898852229
0.04827014 0.16380253 1.2035 0.6001691818 -0.6181139946 0.5076731443
0.26833084 -0.21536531 0.95899993 0.6867766976 -0.02751973644 0.7263473272
0.15751733 -0.23489036 1.138 0.8609846234 0.06987242401 0.503808856
0.13479429 -0.43556383 1.1678151 0.575974226 -0.1073039994 0.8103947043
-0.1744228 -0.085179567 1.1248751 -0.274446547 0.6963812709 0.6631230712
0.097746447 0.012235887 1.123 -0.177956298 0.5510179996 0.8152979016
0.0727956 -0.304791 1.2320002 0.6891933084 -0.09298463166 0.7185863853
0.12881652 -0.12577361 1.1570001 0.8564606905 0.245593369 0.4540473819
-0.1648301 -0.18430631 1.2260588 -0.2378748208 0.6264144778 0.7423075438
-0.14509763 -0.2851944 1.3156668 -0.2274149805 0.5396674871 0.8105809689
-0.40297306 -0.16699661 1.1331111 0.1030088142 0.5598915219 0.8221378326
0.1603248 -0.096257992 1.08 0.7925235033 0.1674525738 0.5864009857
0.24016546 -0.15866527 0.98900002 0.7546151876 0.02397160418 0.6557295322
0.030380882 -0.10266468 1.1950001 0.05479491502 0.6225586534 0.7806524634
-0.094337031 -0.17571664 1.2432222 -0.1787499189 0.6572336555 0.7321833372
0.046535138 -0.43591473 1.219 0.5571514368 -0.1711281836 0.812586844
0.21705723 -0.36496881 1.0849999 0.7773528695 0.1024082676 0.6206730604
-0.15546978 0.035765823 0.98625934 -0.2185403854 0.7602032423 0.6118260622
-0.27483049 -0.16656479 1.1635714 -0.3143825233 0.5820183158 0.7499455214
-0.24723843 -0.041932717 1.0455 -0.2282737792 0.6640920639 0.7119500041
0.19240548 -0.22506456 1.0819285 0.849101007 0.2210582644 0.4797506928
-0.03048696 -0.33761486 1.2880001 0.6022827625 -0.2712990344 0.750767827
0.2276601 -0.43445408 1.0765556 0.6640087366 0.07865154743 0.7435767055
-0.36508024 -0.25304335 1.2038461 -0.2216481417 0.6436564326 0.7325151563
0.023904948 -0.49449158 1.2340001 0.7074815631 -0.145470798 0.6915982366
0.20106219 -0.1681622 1.0425 0.8048710823 0.1855580658 0.563693881
-0.1410732 -0.0293508 1.08 -0.2347130328 0.7353653908 0.6357260346
-0.47213671 -0.031143583 1.4210001 -0.3484943807 -0.6537473202 0.6716889739
-0.24696313 -0.28830498 1.2410001 -0.5500465631 -0.1644324958 0.8187861443
-0.19588979 0.19748282 1.0604285 0.6790953875 -0.1741937995 0.7130820751
-0.14560023 0.11497124 0.98680007 0.278423965 -0.4382246137 0.8546574116
-0.19292083 -0.25730568 1.275 -0.3533374369 0.6515157819 0.6713269353
0.023930164 -0.013079506 1.1074705 -0.1424228251 0.7517608404 0.6438722014
0.15781185 -0.31462276 1.1466002 0.7715315223 0.06397919357 0.6329658628
-0.28039393 0.36482483 1.189 0.4141003489 -0.4429022968 0.7952097058
0.27141982 -0.34272861 0.99680007 0.8157331944 0.2920390069 0.4992920756
-0.24251099 0.27799889 1.1245 0.5973799825 -0.2542625964 0.760583818
-0.36413491 -0.20184636 1.1570001 -0.1535123587 0.601059556 0.7843222618
-0.29469541 -0.11515236 1.1060832 -0.2568341792 0.6955205202 0.6710345745
-0.012697641 -0.39586762 1.278 0.5935381055 -0.07500006258 0.8013036251
0.052329607 0.076927625 1.0910001 0.4005427957 -0.7221610546 0.563958168
-0.28519544 -0.24606146 1.2229998 -0.2835498452 0.5534098148 0.7831583619
-0.21153702 0.020892719 0.99300003 -0.2213027626 0.7387721539 0.6365852952
-0.085519306 -0.2436735 1.3038182 -0.1956623197 0.5937755704 0.7804785967
-0.24508056 -0.12370595 1.1361334 -0.338103205 0.7060027122 0.6222912669
-0.19538994 -0.053348031 1.084818 -0.3055727482 0.7059589028 0.6389423609
0.24718936 -0.2650573 0.99552941 0.8571304679 0.2126548886 0.4691537321
-0.37531164 -0.12586586 1.1028821 0.0841383785 0.6098154783 0.788064599
-0.29223669 -0.068488851 1.0605 -0.1192218065 0.6542093754 0.7468575835
-0.044872615 -0.041916501 1.1250001 -0.1470235884 0.745323658 0.6502897143
0.10560853 -0.23788349 1.2060002 0.7378808856 -0.1051224917 0.6666941643
0.025672149 0.041968428 1.0225457 -0.4574275613 0.3119776547 0.832724452
-0.065622717 -0.1041053 1.1846189 -0.1815630794 0.6884317398 0.7022083402
-0.086172692 -0.021373006 1.087 -0.2004386932 0.7645481825 0.6126095057
-0.053962339 0.021491703 1.0432501 -0.1503513455 0.7810137272 0.6061452031
-0.2361314 -0.18291597 1.1950001 -0.3874863684 0.5917353034 0.7068971992
-0.15486848 -0.11707249 1.1635885 -0.2418079376 0.7139003873 0.6571720839
0.17347743 -0.057825811 1.0470001 0.8825393915 0.07069330662 0.4648943245
0.088600315 -0.42840859 1.189 0.50981462 -0.1515971571 0.8468219042
0.21569441 -0.27449489 1.0630454 0.8592822552 0.2168167233 0.46327582
0.19748226 -0.40490216 1.1079999 0.68797791 -0.02919708379 0.7251440883
-0.00092926668 0.0223024 1.0600001 -0.2528220415 0.747526288 0.6142356992
-0.26466677 -0.0086706383 1.0123079 -0.07410695404 0.6885043979 0.7214359641
0.14175525 -0.17517114 1.155 0.8706129193 0.1256877333 0.4756424427
0.12398557 -0.33509368 1.1838236 0.7613787651 0.004434602335 0.6482921243
-0.11529248 -0.0919635 1.1570001 -0.284966737 0.6900190711 0.6653327346
-0.10322224 -0.27095836 1.3380001 -0.04469862953 0.8300129771 0.5559501052
0.11493473 -0.48151028 1.1680001 0.5160955787 -0.2582740188 0.8166638613
-0.053914413 -0.34559661 1.3273335 0.659483254 -0.1830993146 0.7290792465
-0.071507066 0.045022968 1.0070001 0.04008312151 0.9331795573 0.3571684361
0.15364985 -0.25495747 1.9260001 -0.8688982725 0.4340918064 0.2378656566
0.0046476973 -0.043490462 1.1360002 -0.1279750317 0.7381647825 0.6623708606
0.083164103 -0.18900934 1.2320001 0.7817340493 0.009682720527 0.6235368252
0.14472102 -0.09943416 1.123 0.8981530666 0.1901692152 0.396429956
0.1370573 -0.38467857 1.1684667 0.6621707082 -0.07408248633 0.7456820607
0.065522484 -0.39452612 1.217889 0.5677492619 -0.1367921978 0.8117565513
-0.15845487 -0.15005991 1.197 -0.2357818186 0.6748741865 0.6992508769
0.015341667 -0.42518336 1.25 0.64072752 -0.07298823446 0.7642911673
-0.07613299 -0.1426587 1.2182857 -0.1793359965 0.6723014712 0.7182264924
0.17709829 -0.13477868 1.0642726 0.8603765368 0.1758302897 0.4783679843
-0.024534833 -0.17380323 1.25775 -0.1603251994 0.6520267725 0.7410511971
0.1218479 -0.024765832 1.13 0.4669131041 0.03493341804 0.8836129308
-0.093119532 -0.2082206 1.2746667 -0.2485989183 0.6536827683 0.7147709131
0.16615476 -0.42503005 1.1372002 0.7068083882 -0.1009864137 0.7001597285
-0.18827513 -0.22320153 1.245 -0.3018186986 0.5568040013 0.7738699913
-0.016194932 -0.10483079 1.1948462 -0.1969294101 0.7052669525 0.6810413599
0.13429135 -0.22527771 1.1746473 0.7969654799 0.01020391751 0.6039386392
0.010490369 -0.34305733 1.273 0.6793723702 -0.2015493512 0.705571413
0.048931733 -0.26562941 1.2589999 0.7037895322 -0.1737827063 0.6888250113
0.0468552 0.23733735 1.3036667 0.6532783508 -0.5386321545 0.5320740342
-0.31544834 -0.18156029 1.1570001 -0.2202678323 0.5914987326 0.7756360769
-0.2696881 -0.21092337 1.197 -0.3697395027 0.6070089936 0.7034435272
0.056242548 0.30035916 1.365 0.5970549583 -0.6617655158 0.4534222782
-0.13489813 0.073340014 0.99593753 0.9628025889 0.1246709824 0.2397254109
0.22090684 -0.31705528 1.0700001 0.8444089293 0.162200138 0.5105532408
-0.15231207 0.011647393 1.0220001 -0.2268978804 0.7854412198 0.5758467317
0.077659644 -0.34649801 1.2182858 0.6620975137 -0.1436023712 0.7355306149
0.19009639 -0.34509805 1.1120001 0.7430409193 0.09057796001 0.6630880833
-0.33226895 -0.053236458 1.0470001 0.03178878129 0.5522516966 0.8330711722
-0.065473855 -0.072524883 1.149 -0.18565467 0.7024309635 0.687112093
-0.22578093 0.049042199 0.95900005 0.06061201915 0.6173876524 0.7843205333
0.081004001 -0.263533 1.2320001 0.7127510309 -0.1699124873 0.6805260777
0.24141987 -0.20444514 0.99237502 0.8166928291 0.05692958459 0.5742576718
-0.20531166 -0.11556263 1.145348 -0.2561888099 0.7331830859 0.6299284697
0.23956406 -0.35475677 1.0470001 0.8408612013 0.1606114954 0.5168717504
0.024937369 -0.071054414 1.169 -0.1072573885 0.7146607041 0.6911988854
0.17146586 -0.20612732 1.1120001 0.8362118006 0.1743903309 0.5199401975
-0.15575333 0.066511117 0.95778555 -0.3184896708 0.5473434329 0.7739376426
0.064753413 -0.0046872082 1.1052082 -0.4933022559 0.5553022623 0.6695463657
-0.32499591 -0.25401568 1.217158 -0.3109845221 0.5700170398 0.7605058551
0.15204206 -0.47113031 1.141 0.6667355895 -0.1555842906 0.7288739085
0.17002161 -0.23528242 1.9590001 -0.7000316978 0.6978139877 0.1516947299
0.011793797 -0.12758744 1.223 -0.09105598927 0.7071163058 0.7012099624
0.18034786 -0.25638643 1.1120001 0.8320980668 0.1294051707 0.5393209457
0.044674926 -0.33519071 1.2513638 0.6064000726 -0.2203017324 0.7640327811
0.046056271 0.1867636 1.2410001 0.5494033694 -0.6751999855 0.4922001064
-0.33563444 -0.1205976 1.097 -0.1297405213 0.6574726701 0.7422243953
0.15633112 -0.27442658 1.1447778 0.8341028094 0.08273553103 0.545369029
-0.13237666 -0.19571581 1.25 -0.4103888273 0.574224472 0.7084118128
-0.18468174 -0.28558329 1.302 -0.4420723617 0.2356054336 0.8654837608
-0.19707327 -0.17191046 1.2060002 -0.3142082393 0.5896649361 0.7440218329
-0.14330344 -0.059466053 1.1120001 -0.2916795909 0.7020576 0.6496446133
-0.11652423 0.037988666 0.99707699 -0.2553576231 0.7599403262 0.5977316499
0.048413917 0.13597275 1.1750001 0.5960960388 -0.6157528758 0.5152842999
-0.22219643 -0.0089595336 1.0220001 -0.2970886827 0.7339897156 0.6107351184
-0.12437095 -0.15975234 1.223 -0.2779886425 0.676400125 0.6820594668
-0.29522529 -0.14407511 1.1360002 -0.2827807367 0.654863894 0.7008482814
0.25700337 -0.30407739 0.99626321 0.8664961457 0.2751898766 0.4164792299
0.27841181 -0.25347939 0.94800013 0.6880547404 0.03522830829 0.7248032093
-0.056365442 0.061964475 0.97554553 -0.1710027754 0.5628464222 0.8086791635
-0.2532059 -0.27897462 1.2780001 -0.5533359051 0.01365063991 0.8328463435
-0.21489167 -0.092808016 1.1157058 -0.2850107551 0.7296666503 0.6215749979
0.21685211 -0.14446238 1.0169601 0.7135337591 -0.0447919406 0.6991875768
0.18588343 -0.18494569 1.0729375 0.8677423 0.260984987 0.4229777157
0.11779707 -0.14721574 1.1861428 0.7926649451 0.195457831 0.577475965
0.096728683 -0.31650424 1.2052729 0.5752145052 -0.05481556058 0.8161638975
-0.12469678 -0.25558087 1.3049999 -0.3438299 0.5488901734 0.761905849
-0.35249949 -0.27240255 1.2346667 -0.1800649315 0.5004159808 0.8468532562
-0.15808053 -0.26083288 1.2880001 -0.2110832632 0.6567476988 0.7239657044
-0.22598177 -0.25538206 1.2574447 -0.2303999811 0.6412857771 0.7318937182
0.23134232 -0.39603469 1.0708572 0.7592180967 0.06714438647 0.6473634839
0.17898464 -0.094540611 1.0470001 0.7624178529 0.08431900293 0.6415678263
0.22895429 -0.26282099 1.0274 0.8724700809 0.2236858457 0.4344658554
-0.03058164 -0.42474499 1.2920001 0.6337272525 -0.159924686 0.7568446398
0.027135288 0.048015382 1.0824001 0.2539938688 -0.1935802698 0.9476358891
-0.4152855 -0.19362147 1.1563333 0.1569512784 0.5954924226 0.7878801227
-0.23807053 0.31267661 1.1346666 0.619402051 -0.2724160254 0.7362951636
-0.35453892 -0.2240333 1.1840907 -0.2974178493 0.6507439017 0.6986236572
-0.28498191 -0.041722909 1.0371112 -0.07905185968 0.6727259159 0.7356565595
-0.11487427 -0.0064122817 1.0615001 -0.2617212534 0.7557312846 0.6003101468
0.052774832 -0.47477561 1.2130001 0.6595073938 -0.1951234043 0.725931704
0.1555856 -0.064035177 1.094 0.7719521523 -0.1846150458 0.6082821488
-0.36486012 -0.16646691 1.1327367 -0.09921632707 0.6051390171 0.7899132371
0.14714243 -0.13456023 1.124154 0.8882360458 0.2150042355 0.4059678316
-0.055485111 -0.15949249 1.2410001 -0.1168063954 0.686801374 0.7173981667
0.14910258 -0.35297757 1.1570001 0.700676322 0.02828482911 0.7129184008
-0.21605061 -0.28250143 1.2866365 -0.3935543597 0.2335417718 0.8891418576
-0.17601958 -0.031466193 1.0661112 -0.2324951738 0.7185053229 0.6555120349
-0.24270011 -0.14669175 1.1620002 -0.4288291335 0.6309196353 0.6465647817
0.21851693 -0.18611407 1.0185715 0.7940033674 0.132040441 0.5934003592
-0.25738195 -0.25458136 1.2432858 -0.3709064424 0.6643821597 0.6488642097
-0.150962 -0.0082844999 1.0500001 -0.2592639923 0.7668810487 0.5870908499
-0.21355599 -0.0285355 1.0500001 -0.327591002 0.7056886554 0.6282417178
-0.22633134 -0.063056543 1.0734999 -0.40291664 0.6555973887 0.6386315227
0.11541566 -0.40543354 1.1851737 0.5291864276 -0.2161427885 0.8205145001
-0.066881344 -0.001403105 1.067 -0.1428667158 0.7926230431 0.5927376151
-0.19480935 0.042351052 0.9715454 -0.1878078729 0.7494239807 0.6348952055
-0.01574298 -0.022462694 1.1065383 -0.1979129314 0.7605896592 0.6183314919
-0.31063193 -0.091584489 1.077 -0.1252501607 0.674726069 0.7273631096
-0.24405047 -0.31215295 1.2645714 -0.6154186726 0.1754286885 0.7684299946
0.19907258 -0.43661332 1.097 0.651971221 -0.04610684887 0.7568405867
0.20817105 -0.23310962 1.0534999 0.8703321218 0.2224288285 0.439371556
-0.047153793 -0.1220078 1.2060001 -0.1315998286 0.6920542121 0.7097481489
0.01406492 -0.46440861 1.2518182 0.7618426085 -0.01234449912 0.6476445198
-0.25682074 0.35233426 1.169 0.5056212544 -0.3644104004 0.7820180655
-0.16497691 -0.23518635 1.2654285 -0.2882662714 0.6104847193 0.737706542
-0.035792135 -0.37502873 1.2948948 0.6215735674 -0.1278492957 0.7728524208
-0.18284197 0.01195335 1.01 -0.1840014607 0.7884691954 0.5869069695
-0.18278632 0.16907613 1.0425 0.6743456125 -0.2269413024 0.7026774883
0.16111401 -0.12665905 1.0917778 0.8659547567 0.2101735622 0.4538165033
-0.21724699 -0.20230334 1.2177501 -0.2991036475 0.5885695219 0.7510811687
-0.065061696 -0.18742831 1.2640001 -0.1816245168 0.6441259384 0.7430439591
0.096915506 -0.27500507 1.2060002 0.6049067974 -0.03305820003 0.7956097722
-0.075063705 -0.038994137 1.1120001 -0.1743137836 0.7348279357 0.6554713249
-0.28149906 0.013081995 0.995 0.1211136654 0.6353555322 0.7626630068
0.25237384 -0.3366192 1.0223002 0.8385957479 0.2127728015 0.5014827847
0.036017928 -0.40538475 1.2349092 0.5377864242 -0.1172824204 0.8348835707
-0.38539544 -0.23560964 1.1856666 -0.1107958332 0.6520847678 0.7500064969
-0.27630782 -0.30086851 1.2360001 -0.3923931718 0.1031377539 0.9139968157
-0.4891423 -0.00375301 1.427 -0.3336907923 -0.6490909457 0.6836164594
-0.27604723 -0.093211986 1.0855881 -0.2108467519 0.7032001615 0.6790090203
0.11078174 -0.45244503 1.1810001 0.5085318685 -0.1646066904 0.8451626897
-0.12461729 0.10088066 0.96700007 0.3334343433 -0.1305172443 0.9336952567
-0.26093575 -0.10755882 1.1120001 -0.2514434159 0.7375619411 0.6267204881
-0.055359215 -0.31470421 1.335 0.4223711789 -0.3657429516 0.8293579817
-0.14253943 -0.088524483 1.141 -0.2839918435 0.6813556552 0.674613297
0.25165066 -0.23672597 0.98240006 0.8187186718 0.07061943412 0.5698356628
0.26016399 -0.18851227 0.97300005 0.7729508877 -0.0207563825 0.634126246
-0.0035365319 -0.31525213 1.2876668 0.5186057687 -0.2089621276 0.8290855885
0.13781671 -0.25554866 1.16775 0.7718475461 0.04834707826 0.6339668036
0.014954017 0.0048141005 1.0836666 -0.1578543484 0.730066359 0.6648948193
-0.28737813 -0.19201651 1.1760001 -0.3191084862 0.5702295303 0.7569729686
0.15240714 -0.20570382 1.1470002 0.8667169213 0.1409980208 0.4784571826
-0.084031887 0.048316479 0.97671425 0.1454753131 0.8289921284 0.5400083065
-0.16531304 -0.048733901 1.09 -0.2276709527 0.7197066545 0.6558873653
0.07630419 -0.45542663 1.1970003 0.6244716644 -0.15789406 0.7649213076
-0.46646607 -0.045034908 1.3943079 -0.2231393456 -0.6743423343 0.7038971782
0.045122601 -0.30486417 1.2554404 0.640030086 -0.1767904311 0.7477343082
0.18016289 -0.31503895 1.123 0.7833324671 0.04177920148 0.6201972961
0.089438409 0.02596599 1.097 -0.3484801352 0.606299758 0.7148162127
0.0051610512 -0.37409773 1.2662607 0.5868344903 -0.2064135969 0.7829551101
-0.24537173 0.0073232353 0.99500018 -0.08668325096 0.6909272075 0.717708528
0.00088280335 0.050319791 1.0070001 -0.287280947 0.4689772427 0.8351826072
0.19324698 -0.37527439 1.1133125 0.7280302048 0.01029918808 0.68546772
0.19695473 -0.26439047 1.0845383 0.8108004332 0.1744559556 0.5587197542
0.25111854 -0.41420659 1.057 0.7081817389 0.2002739459 0.6770294905
-0.11421651 -0.039251875 1.101 -0.266484201 0.7209561467 0.6396940351
0.091133885 -0.21764916 1.223 0.7263242006 0.01057683211 0.6872708797
0.27408072 -0.31473976 0.97396147 0.7740954757 0.2636523843 0.5755550861
0.13093805 0.00295349 1.123 0.3897571564 0.1554145217 0.9077090621
-0.02638942 0.031849299 1.0380001 0.002864671638 0.9469475746 0.3213752508
0.20438388 -0.32524428 1.0935173 0.7528567314 0.1272322834 0.6457698345
-0.14830482 0.14303957 1.001 0.5952731371 -0.2723385692 0.7559640408
0.097750083 -0.16894068 1.2120001 0.7069128156 0.1176543534 0.6974465251
0.20707451 -0.2047376 1.0446668 0.8605757952 0.2225604355 0.4581224024
0.051981699 0.054921541 1.067 0.7086845636 -0.1649226248 0.685978651
-0.20450267 0.22457689 1.0733333 0.6009321213 -0.2750922143 0.7504697442
-0.0054567489 -0.15257744 1.2444285 -0.2339462638 0.6516360641 0.7215536237
-0.2555573 -0.06342829 1.0639166 -0.193593815 0.6841305494 0.7031975985
0.054446574 -0.024977153 1.1239129 -0.05031934381 0.7231611013 0.6888439655
-0.25968358 -0.2318985 1.2190001 -0.3604192734 0.5804529786 0.7301864624
-0.33511722 -0.2018902 1.169 -0.2018780261 0.6307467818 0.7492688298
-0.17499042 -0.13480897 1.1753334 -0.212425828 0.7285718918 0.6511975527
-0.09524975 -0.10311904 1.1751819 -0.2248301357 0.6829914451 0.694963336
0.13776554 -0.31403515 1.169 0.7444931865 -0.01651547663 0.6674257517
-0.36342123 -0.10534683 1.0858332 0.04184845835 0.5716338158 0.8194409609
-0.27924463 0.39094248 1.202 0.4531232119 -0.4122051001 0.7904216051
0.045151841 0.29897839 1.3920001 0.666354537 -0.6322140694 0.3953188658
0.26227987 -0.27550262 0.97295016 0.8197589517 0.1573400944 0.5506717563
0.15836333 -0.18374656 1.126 0.8593503237 0.1816394031 0.4780420065
-0.014450973 -0.4268595 1.268 0.6282866597 -0.1359574348 0.766010046
0.10439101 -0.34480667 1.2027998 0.4451958537 -0.09379500896 0.8905072212
-0.21892998 0.27027196 1.105 0.5760840774 -0.3217485547 0.7514020205
-0.29433075 -0.22641712 1.2038823 -0.2704009116 0.6633982658 0.6977005601
-0.12519297 0.05546676 0.97546691 -0.1590598375 0.4842401743 0.8603553772
0.17400859 -0.28464463 1.1244117 0.7655624747 0.1495854259 0.6257302165
-0.39206898 -0.14289755 1.1190001 0.0574589856 0.5553993583 0.8295963407
-0.1958103 -0.073993154 1.1049229 -0.324431926 0.6522619724 0.6850534678
0.26454344 -0.36424732 1.0145655 0.782492578 0.2304661125 0.5784381628
0.055479441 -0.35542825 1.2343638 0.6441738605 -0.2227738649 0.731718421
-0.085779548 -0.12185614 1.1962001 -0.1981709152 0.7075571418 0.6783002019
-0.23577951 0.028293541 0.97799999 -0.0402767919 0.6876537204 0.7249208093
0.19357735 -0.12573476 1.0426668 0.7445598841 0.09955804795 0.6600900292
-0.24449392 -0.20573032 1.2106317 -0.4076900184 0.5457497835 0.7320833206
0.0280095 -0.26777083 1.2780001 0.6132285595 -0.2028997988 0.763401866
0.16774262 -0.34461319 1.1373849 0.7569049001 0.01395277586 0.6533760428
0.15412429 -0.40511706 1.1531818 0.6810392737 -0.1101281717 0.7239180207
-0.17533225 -0.10549989 1.144385 -0.2346432656 0.6900593042 0.6846609712
-0.38496128 -0.18507461 1.1447649 0.04179959744 0.5927878618 0.8042731881
-0.31098172 0.39766651 1.2360001 0.6286897659 -0.3235259354 0.7071634531
-0.095005132 -0.076823905 1.1450001 -0.2177802324 0.7099437714 0.6697399616
-0.054756075 -0.021135382 1.0958002 -0.1114304364 0.7786301374 0.6175098419
0.005183924 -0.085358389 1.1825556 -0.1191811711 0.6842329502 0.7194589376
0.13254425 -0.19418564 1.1748463 0.8103899956 0.1184964702 0.573782742
-0.034073114 0.011460956 1.0600002 -0.1759903431 0.786010921 0.592633307
0.092730299 -0.40148002 1.202 0.5235712528 -0.3134101629 0.7922418714
-0.10952722 -0.23147507 1.2880001 -0.2780683339 0.6203767657 0.7333557606
-0.27143353 -0.12977296 1.13 -0.2652038038 0.6785370708 0.6850214601
-0.34722725 -0.18145609 1.149 -0.2650425136 0.6149815321 0.7426642776
-0.024904491 -0.05533183 1.1440002 -0.1963307709 0.7198801637 0.6657527685
-0.22134431 0.070704915 0.94000006 0.002494649729 0.5713136196 0.8207280636
0.02603659 -0.44572476 1.2345883 0.7102069259 -0.07218433172 0.7002824545
-0.060495261 -0.2225769 1.302 -0.109426409 0.5805614591 0.8068297505
0.24287921 -0.28531557 1.013625 0.861331284 0.2363021523 0.4497441053
0.046485249 0.092865787 1.1176667 0.3869124651 -0.7689758539 0.5088957548
0.12489834 -0.36493382 1.1831666 0.6808159947 -0.06554495543 0.7295159101
0.11927538 -0.25448394 1.189 0.7441729903 -0.04641902074 0.6663721204
0.015237573 -0.39581871 1.253435 0.6334926486 -0.1311520934 0.7625524402
-0.31576076 -0.13398674 1.1172 -0.2019252777 0.6954995394 0.6895698905
0.11520363 -0.21522444 1.1946667 0.7704949379 0.02417105436 0.6369876862
0.13875411 -0.042568594 1.1120001 0.6646242738 -0.09269889444 0.7414050698
0.071919978 -0.42494312 1.21 0.5803385973 -0.1867100447 0.7926830649
-0.16459364 -0.20493031 1.2434001 -0.2690154314 0.5753957629 0.7723667622
-0.11157863 -0.29081663 1.3540001 0.2260663509 0.5349362493 0.8140867352
0.048733901 0.010511233 1.09 -0.4154379964 0.6194031239 0.6661463976
-0.39433193 -0.21509196 1.1683334 0.1400235295 0.5464657545 0.8256927729
-0.24614945 -0.023104718 1.0267141 -0.1721007824 0.7154922485 0.6770909429
0.062673964 -0.28306973 1.2445556 0.7358406782 -0.1238581762 0.6657308936
0.14386925 -0.28499058 1.1656001 0.769590199 -0.006898600608 0.6385008693
0.1679049 -0.074208669 1.0670002 0.8908496499 -0.04200972617 0.4523516893
0.092967778 -0.47427544 1.1812222 0.5053885579 -0.2732753754 0.8184760213
0.23692316 -0.23501897 1.004375 0.8399527073 0.1421041638 0.5237230659
-0.053726956 0.038996324 0.9885 0.06152928248 0.9003226161 0.4308519065
-0.015221798 -0.36389846 1.2830002 0.5231277347 -0.1582718641 0.8374290466
0.17779249 -0.39605713 1.126 0.6922258139 -0.04279028252 0.7204112411
-0.10520683 -0.14452991 1.2121998 -0.1929729879 0.6678165793 0.7188758254
-0.094508201 0.033994731 1.0124784 -0.2022275329 0.7663148046 0.6098078489
0.0057758372 0.026143337 1.0154446 -0.3014921844 0.4703488648 0.8293819427
-0.36480212 -0.14518093 1.1179565 0.0008745389059 0.5933377147 0.8049531579
-0.12890506 -0.11151463 1.1670001 -0.3263303638 0.6740540862 0.6626911759
0.22395474 -0.29679403 1.0532223 0.8823372126 0.1854828894 0.4325242043
-0.074427098 -0.055127028 1.1320001 -0.203222692 0.7187770009 0.6648760438
-0.34283063 -0.23765127 1.2024444 -0.190265283 0.5898987055 0.7847411036
0.13129748 -0.46310353 1.161 0.5837580562 -0.2055667192 0.7854736447
0.024320487 0.021514276 1.067 -0.1759455949 0.7284023762 0.6621730328
0.01834162 -0.31736559 1.268 0.6266750097 -0.2925298214 0.7222912908
-0.29913357 -0.27769029 1.223 -0.1371660084 0.009789949283 0.9904996753
-0.28487271 -0.022541292 1.01825 0.01835432835 0.6196764112 0.784642756
0.17276071 -0.15503873 1.0832 0.8732825518 0.2298084795 0.4296110272
0.050510466 -0.061737932 1.164 -0.07803904265 0.7126547694 0.6971607208
-0.26394308 -0.18593581 1.1828463 -0.3366950452 0.571460247 0.7483779788
-0.038100809 -0.32905245 1.317 0.7159471512 -0.2092073262 0.6660720706
0.0047334153 -0.062210608 1.1570001 -0.1429689825 0.7292576432 0.669136107
0.21791041 -0.41353685 1.0864 0.7440410256 0.01230224036 0.6680206656
-0.043709561 -0.088079266 1.1744547 -0.1366199106 0.7090883255 0.691757679
0.043098684 0.029034324 1.035 -0.6164655685 0.7024240494 0.3557676971
-0.13496576 -0.14552668 1.2043333 -0.3296424448 0.6576374173 0.6773838401
0.14848192 -0.44712806 1.1470001 0.6749141216 -0.1847989261 0.7143810391
-0.45876405 -0.45173317 2.0050001 -0.1954853982 0.7772147059 0.5980992913
0.041733015 -0.083263174 1.1842 -0.04539235309 0.6490001082 0.7594329715
-0.085634753 -0.28634325 1.3466924 0.2601159811 0.3443266153 0.9020969272
-0.081003994 0.0101255 1.0500001 -0.1348049641 0.7964514494 0.5894851089
0.2105771 -0.29784575 1.082 0.8137303591 0.1679057926 0.5564625859
-0.19406156 -0.1897729 1.223 -0.3233373165 0.569052875 0.7560633421
-0.31212315 -0.041859079 1.0380001 0.07482261956 0.6011320949 0.7956392169
-0.18549654 0.027087251 0.9887501 -0.1457659304 0.7491992712 0.6461058855
-0.21616627 -0.16303824 1.1883334 -0.3121103644 0.6272682548 0.7135276198
-0.18407194 -0.14955845 1.1930001 -0.2211084515 0.7104657292 0.6680939198
-0.10505009 -0.19277723 1.2575713 -0.1678447276 0.6276732087 0.7601673603
-0.24899292 0.33120438 1.153 0.6326090097 -0.2374516279 0.7371720076
0.031924695 -0.040903512 1.138 -0.09599106759 0.7444140911 0.6607823968
0.046871856 -0.24551927 1.273 0.6964297891 -0.1762977242 0.6956325769
-0.22452366 -0.1284454 1.1536666 -0.2807177901 0.7240344882 0.6300568581
-0.23708612 -0.10346746 1.1162728 -0.3213539422 0.7189431787 0.6163216233
0.1860382 -0.42517355 1.1158637 0.699641645 -0.06823705137 0.711228013
-0.29662016 0.00088543334 1.01 0.1419190168 0.567532599 0.8110275865
0.20836903 -0.38564304 1.097 0.7238977551 0.03885035962 0.6888124943
0.13293314 -0.15506311 1.1659412 0.8383354545 0.185485974 0.5126291513
-0.017768279 -0.040472195 1.126 -0.1786355376 0.76039958 0.6244051456
-0.33318877 -0.28518701 1.227 0.06707765162 0.2834872007 0.9566271901
0.1106441 -0.29469967 1.202 0.6322854757 -0.07823567092 0.7707751393
-0.17727545 0.19356801 1.0453334 0.6812118888 -0.1810400635 0.7093482018
0.078016326 -0.23513253 1.2360001 0.7542539835 -0.1159868613 0.6462569237
-0.01546582 0.0049735382 1.0739999 -0.2315051705 0.7712284923 0.5929687619
0.22376893 -0.34567627 1.072263 0.8130786419 0.1215813309 0.5693163276
-0.12953188 0.018759791 1.0190001 -0.2508342266 0.7710881233 0.5852395296
-0.036405336 -0.1920312 1.268 -0.1134263352 0.6312718987 0.7672224641
-0.042140096 -0.35532632 1.307 0.7807630301 -0.1866947562 0.5962836146
-0.25321999 0.29644123 1.1436667 0.6717323661 -0.2687143385 0.6903392076
-0.17453942 0.052216381 0.96347058 -0.1731089652 0.7065612078 0.6861519814
0.1743276 -0.18507373 1.09384 0.8581120372 0.243388474 0.4521125257
-0.22426596 -0.076539166 1.0930436 -0.3919422925 0.6891120076 0.6095128059
-0.12505385 -0.07421013 1.1336666 -0.2979628444 0.6604835987 0.6891875863
-0.0045858896 -0.0058990433 1.0921054 -0.1994751692 0.7492457628 0.6315382123
-0.31595066 -0.069694996 1.0600001 -0.03144004941 0.6174855232 0.7859536409
-0.1347447 -0.12777072 1.1831819 -0.3072561622 0.7154501677 0.6274749041
0.10330745 -0.19519894 1.2132 0.7064394951 0.01816177927 0.7075403333
-0.14516187 -0.21381649 1.2580001 -0.3695626855 0.6177729368 0.6941037774
-0.46021932 -0.44979924 1.9810001 -0.1964589655 0.7815647125 0.5920814872
0.14139017 -0.1459779 1.1438571 0.899204731 0.2008477598 0.3887042701
-0.2049443 -0.24506171 1.2559286 -0.3203902841 0.6072548628 0.7270430326
-0.014846351 -0.12487585 1.215 -0.2127410769 0.6838309765 0.6979372501
0.1713708 -0.053967599 1.08 0.8726403713 -0.1515943408 0.4642390907
-0.14587712 -0.16345592 1.214625 -0.3187184632 0.6458008289 0.6938009858
0.24001643 -0.32945222 1.041 0.8524603248 0.2033325285 0.4816297889
0.23687826 -0.37478837 1.062889 0.8067795634 0.1368114501 0.5747950673
-0.098138452 -0.26208737 1.317 -0.332912147 0.7072213888 0.6237045527
-0.075955607 0.02808895 1.025375 -0.1731030792 0.7811486125 0.5998684764
0.14218931 -0.014065742 1.1120001 0.5995200872 -0.03598348051 0.7995504141
-0.22654732 -0.2979711 1.273 -0.5674036145 -0.08446741104 0.8190960884
-0.19434914 -0.12665679 1.1624286 -0.2087639123 0.7155273557 0.6666620374
0.26298949 -0.24527368 0.96414834 0.7656595707 0.07310412824 0.6390783787
0.054207969 -0.41456223 1.2233634 0.5637964606 -0.2329409122 0.79238379
0.18088771 -0.22538695 1.1034 0.8387840986 0.1604446024 0.5202872157
-0.31144723 -0.15922983 1.1423334 -0.2701924741 0.6385320425 0.7206059098
-0.16447167 -0.068657525 1.1120001 -0.226385057 0.6945801377 0.6828677058
-0.2052696 0.0043076272 1.013643 -0.2563386559 0.7649914026 0.5908287764
0.038761817 0.14457461 1.1950001 0.5908132792 -0.6191194057 0.5173304677
-0.1746729 -0.1683083 1.21 -0.2086013407 0.6522591114 0.7287273407
-0.1148667 -0.21176235 1.2679999 -0.2620162368 0.6309886575 0.7302060127
-0.31546259 -0.23538019 1.204 -0.2416095287 0.6490874887 0.7213253379
-0.13032965 0.077513404 0.97166663 -0.7703881264 0.4087362587 0.4893228114
-0.084065191 -0.087124459 1.1623334 -0.2079773098 0.7389589548 0.6408471465
-0.31593585 -0.26735058 1.2346668 -0.1731592715 0.1671466231 0.9706069827
-0.113616 -0.0198828 1.08 -0.2349845618 0.740331769 0.6298342347
0.01476745 -0.027565906 1.123 -0.1289836466 0.7529107928 0.6453592777
-0.27508119 -0.055296484 1.0526668 -0.1466833353 0.6498867273 0.7457420826
0.23174308 -0.28520992 1.0336251 0.8705693483 0.200298667 0.4494323134
0.0074253664 -0.10925897 1.21 -0.00817072764 0.7058786154 0.7082856894
0.054733079 0.28568256 1.3475002 0.6113997102 -0.6385934949 0.4673208594
-0.12528305 0.0036122422 1.0438573 -0.2362638414 0.7938533425 0.5603358746
-0.34428471 -0.13652019 1.1133125 -0.139874965 0.6781542897 0.7214857936
0.050762508 -0.38449898 1.2320001 0.578797698 -0.1532250345 0.8009465337
0.081452951 -0.28490877 1.2243333 0.7197329998 -0.06418506056 0.6912775636
0.069918551 -0.32700366 1.2270001 0.6386404037 -0.1116822138 0.7613576651
0.11631473 -0.3143625 1.1889999 0.7012746334 0.008961389773 0.7128348947
-0.24764079 -0.17128488 1.177 -0.4067837 0.5861026049 0.7007216215
-0.046085 0.03438969 1.0263332 -0.04039156437 0.9065334201 0.4201972187
-0.20912708 -0.22212979 1.2360001 -0.2885120213 0.5483935475 0.7848727703
-0.19267818 -0.097577386 1.13 -0.2731922567 0.7050434351 0.6544308662
0.067371652 0.022971999 1.1010001 -0.526628077 0.4917575717 0.6934243441
0.083898 -0.37443709 1.2114285 0.5330432057 -0.06638164073 0.8434799314
-0.14542003 0.025176851 1.00436 -0.2290683091 0.7803794146 0.5818382502
0.017997673 -0.3570365 1.2570001 0.567859292 -0.1696222723 0.8054589629
0.22281209 -0.16511765 1.0102859 0.747454226 0.04575139657 0.6627359986
0.1870366 -0.1545275 1.0536001 0.835347712 0.1754277945 0.5209791064
0.21498396 -0.25450832 1.0525001 0.8727502823 0.224353537 0.4335578382
-0.26492366 -0.14428574 1.1458423 -0.2435513288 0.6519154906 0.7181148529
-0.04223254 -0.40292126 1.302 0.6819474697 -0.006718334742 0.7313702703
-0.26281863 -0.27326852 1.2543751 -0.7478157878 0.06324534118 0.6608869433
0.0553739 0.12462892 1.1544286 0.5993157625 -0.6378346086 0.4837227166
-0.13600978 -0.04437875 1.09565 -0.2762123942 0.7043139338 0.6539484262
0.20326036 -0.24518357 1.0715624 0.8523986936 0.2035958916 0.4816276133
-0.19061714 -0.307042 1.302 -0.5827832818 -0.3223863244 0.745942831
-0.20479994 0.054674245 0.95424253 -0.08689742535 0.6085152626 0.7887699604
0.15487482 -0.37454164 1.1546922 0.7138341069 -0.02174219117 0.6999772191
-0.074824058 -0.21351147 1.2876431 -0.2103082985 0.6292788386 0.7481834888
-0.054777991 -0.14393164 1.2251999 -0.1299683452 0.6931579709 0.708971262
0.042881273 0.24917497 1.322 0.6262435317 -0.5577482581 0.544734776
0.19706391 -0.20427944 1.0644546 0.8628186584 0.2344822139 0.4478415251
-0.09482158 -0.0075113676 1.0709001 -0.1655827165 0.7550488114 0.6344159842
-0.22515517 0.003515214 1.0032499 -0.2455621064 0.7270901799 0.6411232948
-0.13864239 -0.18233545 1.2336 -0.3832297325 0.5600484014 0.7344935536
0.037626535 0.070549749 1.0730001 0.4694009721 -0.6417565942 0.6064743996
-0.22599767 -0.32172671 1.2846668 -0.4733392 0.2205880433 0.8528135419
0.036953378 -0.46463385 1.2244285 0.6479433179 -0.04524284601 0.7603436708
0.19191191 -0.24451217 1.0924616 0.8250724673 0.1527585238 0.5439855456
0.054632917 -0.49464512 1.2038461 0.6443098187 -0.2103224397 0.7352749705
-0.14352408 -0.26671383 1.3035001 -0.3046715856 0.58920151 0.7483426929
0.14669155 -0.22485307 1.1559999 0.830678463 0.038947694 0.5553885102
-0.13452913 -0.01585687 1.0635999 -0.2362464517 0.7429733872 0.6262413263
0.093653813 -0.25490251 1.2140501 0.7106509209 -0.1505633444 0.6872451901
-0.08352413 -0.1580478 1.2320002 -0.2337997258 0.6577615738 0.716021955
-0.045527495 -0.063643806 1.1477501 -0.1807133406 0.7090389729 0.6816204786
-0.13551243 -0.24555007 1.286 -0.4159410894 0.567027092 0.7109664679
-0.16516098 -0.29376951 1.3148572 -0.3281198442 0.2342548966 0.9151294827
0.03687419 -0.28479359 1.2676363 0.6320612431 -0.2153578848 0.744392097
0.16385539 -0.25490358 1.1321816 0.8172637224 0.0598481372 0.5731476545
-0.33511925 -0.10343818 1.0836875 -0.07479595393 0.6115300655 0.7876779437
-0.10599592 0.053295631 0.98540008 -0.05320825428 0.8155956268 0.5761706829
-0.26163241 -0.077953197 1.08 -0.1773074567 0.7056735754 0.6859933138
-0.20797133 -0.040845945 1.067 -0.3354636431 0.6863188148 0.6453143358
-0.24710253 0.051866233 0.96200007 0.05969681218 0.6081585884 0.7915676832
0.17795554 -0.11431634 1.0558751 0.8302445412 0.1399730891 0.5395383239
-0.2257795 -0.11395966 1.1345714 -0.3052251935 0.7164514065 0.6273236275
0.15835071 -0.14399216 1.1068001 0.863668859 0.2336878777 0.4466162324
0.11705603 -0.42577282 1.1754 0.5724013448 -0.1422965974 0.8075322509
-0.31514114 -0.11372551 1.0962499 -0.17751275 0.6596384048 0.7303193808
-0.21536383 -0.18428038 1.206 -0.326972872 0.5629309416 0.7590767145
-0.29563043 -0.17313376 1.1569998 -0.3074530661 0.5915262103 0.745365262
