# .PCD v0.7 - Point Cloud Data file format
VERSION 0.7
FIELDS x y z normal_x normal_y normal_z
SIZE 4 4 4 4 4 4
TYPE F F F F F F
COUNT 1 1 1 1 1 1
WIDTH 512
HEIGHT 1
VIEWPOINT 0 0 0 1 0 0 0
POINTS 512
DATA ascii
0.24364465 -0.4564333 1.7310001 0.4164423347 -0.05248060822 0.9076461792
-0.2537494 -0.3243807 2.9840002 0.8792899847 0.3135123849 0.3585513234
0.0056092637 0.49656504 1.6847999 -0.6779387593 0.2830094397 -0.6784575582
0.49246225 0.16415408 2.256 0.144819364 -0.8220949769 -0.5506243706
-0.31266755 0.066567928 2.3010001 -0.4840896428 0.7948280573 0.3659311235
-0.23430379 -0.076457024 1.6880001 0.1946801692 0.6257685423 0.7553233504
0.27163956 0.02034305 1.365 -0.1951836944 -0.501447022 0.842884481
0.47782102 0.41870916 1.8730001 0.04753592983 -0.9925702214 0.1120032892
0.2876808 -0.036556125 1.8130001 0.1661437452 0.7978671789 0.5794861913
-0.26797858 0.2952885 1.9470001 0.8990488648 0.3453145623 0.2692007124
0.027786827 -0.24487142 1.9810001 0.3036532104 -0.08905830979 0.9486112595
-0.024567883 0.17301877 1.5066001 0.4810147882 -0.6610959768 0.5758271217
0.16151093 0.30739176 1.9810001 0.3292112648 -0.9103224277 0.2508645654
0.49442598 -0.24225456 1.6160001 -0.09826043248 -0.02309787832 0.9948926568
-0.38035586 -0.079715297 2.598 0.868709743 0.3566082418 0.3437642753
-0.081016272 -0.34469655 1.7220001 -0.2355576456 0.7169435024 0.6561285257
0.033631124 -0.011210375 1.705 -0.2806272209 0.8074321747 0.5189428329
0.49634513 -0.49584177 1.5770912 0.8435124755 -0.2992366254 0.4460316002
0.29732868 0.11526431 1.6074002 -0.7477334142 -0.2070270926 0.6308997273
-0.042691913 0.21838556 1.8730001 0.3447161019 -0.5666696429 0.7483690977
-0.1119854 0.25383359 2.1290002 0.2840977609 0.9578053951 -0.04355806112
0.20086627 -0.25550187 1.8330001 0.7881289124 0.1583876759 0.5947824121
0.47206044 -0.019237572 1.6880001 -0.5596708059 -0.3540876806 0.7492600083
0.41184002 -0.084195502 1.4890001 -0.4347921908 0.5150622129 0.7386925817
0.29456815 0.32635611 1.8130001 0.1838514954 0.1730180085 0.9676070213
-0.065165259 -0.15735027 1.8130001 -0.1952931136 0.780467093 0.5939122438
0.17069753 0.1860988 1.4640001 -0.3645789921 -0.09097475559 0.9267177582
0.48286802 0.3093932 2.0400002 0.03509402648 -0.8713074923 -0.4894810617
-0.17101838 0.075081237 1.5860001 0.6234692335 -0.2146478891 0.7518060803
-0.079029746 -0.30847093 2.9080002 0.6450897455 0.7229412198 0.2474171817
0.061612137 0.32654431 1.7570001 -0.4016674161 -0.7109402418 -0.5772584677
0.090791985 -0.40113547 1.8830001 0.7625504136 0.08345579356 0.6415231824
0.35054481 -0.19424129 1.7310001 0.7539178729 -0.314663142 0.5767104626
0.35883105 0.2273223 2.1430001 0.2759312689 -0.7767601609 -0.5661321878
0.10502028 -0.10555885 1.8430001 -0.2579600513 0.7827735543 0.5663233995
0.37660944 -0.37516558 1.647 0.2761988938 0.2934750021 0.9151975513
-0.3054561 -0.19416589 2.7010002 0.8795758486 0.3134166598 0.3579333723
0.11540264 0.079252422 1.5860001 -0.1010663733 0.8376657963 0.5367509723
-0.16508247 -0.2218747 1.647 -0.3518802524 -0.6056768894 0.7136776447
0.47295728 -0.47700396 1.7310001 -0.857791841 0.06065557152 0.5104057193
0.043387111 0.46761662 1.8330001 -0.926531136 -0.1160401106 0.3578752875
0.19281845 0.022420749 1.705 0.1714358926 0.7664012909 0.6190628409
-0.36394989 -0.32098362 2.8830001 0.8790964484 0.3139075935 0.3586801291
-0.027807865 0.043102194 1.5860001 -0.2471865416 0.867957294 0.4307539761
0.26414844 0.32244325 2.0780001 0.381373167 -0.8661759496 -0.3229453564
0.26456091 -0.31551054 1.7220001 0.7839474082 -0.221758306 0.5798704028
0.38727888 0.42201242 1.9810001 0.1528833359 -0.9821617603 -0.1094760746
0.16318536 0.28274691 1.8430001 -0.02294931188 -0.8918705583 0.4517081082
-0.097612448 -0.061570931 1.7130001 -0.5430751443 0.5661450028 0.6201203465
-0.18031543 0.24204503 1.853 -0.1504892409 -0.6511890888 0.7438452244
0.17354845 -0.49493444 1.8330001 0.8215457797 -0.01981124096 0.5697982311
0.42488042 -0.13514544 1.6350001 0.5735632181 -0.1418646723 0.8067834973
0.34610799 0.022092 1.6799999 -0.2908581495 0.7970628142 0.5292375684
0.28895283 -0.070010602 1.452 -0.03788025677 0.8061442375 0.5905053616
0.26816183 0.35811484 1.9360001 0.6191865802 -0.7673436403 0.1667085886
0.49829733 -0.37443486 1.6240002 0.9338802099 0.1733177006 0.3127759099
0.17583232 -0.37525576 1.794 0.8068935871 -0.4717543721 0.355486393
0.22255148 -0.13483046 1.853 0.7796953321 -0.3795833886 0.4979875386
-0.0047681895 -0.37430292 1.813 -0.3931083679 0.7335112095 0.5544611216
0.35426977 -0.49520752 1.7570001 0.1079039499 0.7606706619 0.6401069164
0.093621857 -0.27473417 1.8830003 0.5342051387 -0.3362486959 0.7756040692
0.3590064 0.41748708 1.853 0.5387804508 -0.5907953382 0.6005635262
0.37728226 -0.2548435 1.6240001 0.7630298138 0.06920934469 0.642647326
0.21312732 0.096510485 1.529 0.2357683778 0.8575928211 0.4571081102
0.1130353 -0.176851 1.9360001 0.2551015019 0.1555002332 0.9543284774
0.076493897 0.12688066 1.4890002 -0.03236681223 0.7532535791 0.6569333673
-0.16503775 -0.12922768 1.7760001 0.0417589061 0.7742069364 0.6315535307
0.01095395 -0.082937047 1.7850001 -0.2416393161 0.787484467 0.5669908524
0.01485687 -0.17663169 1.8830003 -0.2522096336 0.7781023383 0.5752799511
0.1752632 -0.046945497 1.785 -0.1878922135 0.739130497 0.6468250751
-0.16799739 -0.022779308 1.6240001 -0.2217833251 0.6499045491 0.7269362211
0.059780777 0.26658994 1.8430001 0.1645372361 -0.9757153392 -0.1445929706
0.042812891 0.3985993 1.684 -0.3929963708 -0.6395066977 -0.6607457995
0.35426977 -0.090877898 1.7570001 0.5974282622 -0.4730142057 0.6475623846
0.26445964 -0.19560625 1.7850001 0.5275881886 -0.03432463482 0.84880656
-0.084375367 0.095085897 1.5276667 0.4300733507 0.3053760231 0.8495777845
0.21778475 0.072041251 1.4250001 0.7206860781 -0.1675722599 0.6727042794
0.22242086 0.058084425 1.6160001 0.3811030388 0.8886669874 0.2550126612
0.29308718 -0.39471042 1.6800002 0.2352624834 0.02405544184 0.9716341496
0.10496856 0.030615829 1.6630001 -0.2274086326 0.8290035129 0.5109192729
-0.052484281 0.0014578967 1.6630001 -0.2361131608 0.803519249 0.5464498401
-0.25432363 0.0014368567 1.6390001 -0.2371904701 0.6963344216 0.6773913503
-0.094398811 -0.27590695 1.6630001 -0.5773638487 0.26261428 0.7731007338
-0.22823754 0.32347333 1.8730001 -0.3760493696 -0.1921084523 0.9064663053
0.39795846 -0.43399996 1.7130001 -0.2134530991 0.336447835 0.9171916842
-0.15025628 0.29870224 2.0650001 0.3161588609 0.9484753013 -0.02093378641
0.085054204 0.21005809 1.47 0.2534539998 -0.6760756373 0.6918690801
0.085150629 -0.041801218 1.7660002 -0.2283696383 0.691519618 0.6853086352
0.16168977 -0.32501277 1.863 -0.1374269575 0.1330218017 0.9815391302
0.005340653 0.094796598 1.5230001 -0.1753599048 0.7553049326 0.6314771175
0.43484321 -0.31382614 1.6052665 0.1810177267 0.5362715125 0.8244060874
0.054593537 -0.33600354 1.9260001 0.8716449142 0.2089053094 0.4433888495
0.36534852 0.10283668 1.6710001 -0.6855472922 -0.4952923357 0.5335826278
0.36306009 -0.037687898 1.4330001 -0.4936055243 0.5346918106 0.6858996153
0.31646866 -0.2560077 1.688 0.6707270145 -0.2251233608 0.7067140937
0.26410687 -0.013710891 1.7374001 0.110703364 0.8781602383 0.4653808475
0.48369646 -0.45481905 1.647 0.9317557216 -0.2549343109 0.2585338652
0.38463575 -0.0015324133 1.748 -0.5858054161 -0.5045090318 -0.6342732906
0.22495353 0.32675734 1.8730001 0.4676502347 -0.788990438 0.398493886
-0.006640458 -0.32538244 1.748 -0.6010453701 0.5385919213 0.590477109
0.27837497 -0.11481002 1.794 0.7266975641 -0.3778359592 0.5737165213
0.15927367 -0.1970396 1.8730001 0.5922732949 -0.4257058203 0.6840956807
0.42470643 0.045874212 1.688 -0.9740743637 -0.1219089478 0.1905712187
0.44386041 -0.11766854 1.5546666 -0.3228052855 0.7994138598 0.5066894889
-0.10526575 0.021754922 1.6010001 -0.07091853023 0.7631047964 0.6423718929
-0.11124725 0.2523818 1.8940001 -0.1719861478 0.4617664516 0.8701680899
0.045536574 0.054036729 1.6160001 -0.08493150771 0.8358139396 0.5424036384
0.47681463 -0.40207878 1.705 0.01014150772 0.7763011456 0.6302806735
0.23509045 -0.0369252 1.4040002 0.1091722697 0.7404200435 0.6632190943
0.26264757 -0.28152046 1.794 0.7606347203 -0.5423412323 0.3567923903
-0.15016949 -0.32264137 1.6960001 0.05608849972 0.821041286 0.5681067705
0.48369646 -0.082300588 1.6470001 0.1584979743 -0.0002779406786 0.9873592854
0.36900797 -0.18619668 1.6550001 0.655921042 -0.6739824414 0.3398753107
0.37735239 -0.10802637 1.6880001 0.8697450161 -0.03297133744 0.4923987091
0.16858651 -0.12852634 1.904 -0.07327891886 0.5039681196 0.8606081009
0.15025979 -0.42492822 1.8430001 0.7514804006 0.008571611717 0.659699738
0.49117881 -0.16657367 1.6240001 0.185874477 0.1088157073 0.976529479
0.23420238 -0.38291836 1.7310001 0.5867862105 -0.1731327921 0.7910163999
0.4280467 -0.49719042 1.6710001 0.3066653311 -0.2480507493 0.9189271927
0.14889219 0.12253959 1.503 0.127028361 0.8659545779 0.4837214947
0.42099899 -0.044542555 1.6390001 -0.8288606405 -0.4754119515 0.2949127257
0.17804223 -0.4427833 1.766 0.8508962393 0.1500290781 0.5034549236
0.39151934 0.027050426 1.6240001 -0.6967945695 -0.7124836445 -0.0827306211
-0.16248718 -0.094008297 1.7130001 -0.3530436754 0.7397001386 0.5728907585
0.31538519 -0.46400279 1.705 -0.1064735129 0.5722365379 0.8131474257
0.0016604067 0.27064627 1.8940001 0.276322782 -0.8565998077 0.435755074
0.32834911 -0.32458225 1.6710002 0.7874090672 0.03722744063 0.6153056622
-0.056991223 -0.10011972 1.7570001 -0.4063198268 0.394617945 0.8241243362
-0.02566354 -0.046798222 1.7220001 -0.1995548755 0.7388179302 0.6436815262
0.42595246 -0.20447607 1.6160001 -0.6232002974 -0.5423221588 0.5634785891
0.22519977 -0.067720614 1.8330001 -0.01447489485 0.8005716205 0.599062264
0.13505839 -0.0075875497 1.7310001 -0.2891955376 0.8055850267 0.5171060562
-0.35418999 -0.10915289 2.5410001 0.8863264918 0.2917445004 0.3595977128
0.037161022 -0.11794586 1.8430001 -0.2680680454 0.6884900331 0.6738850474
0.30343887 -0.031593662 1.3968002 -0.2489767522 0.5892269015 0.7686496377
0.30617407 0.050075199 1.6320001 -0.3522576392 0.7799128294 0.5173495412
0.069226861 -0.22794209 1.9260001 0.6368825436 -0.4219501019 0.6452431083
0.21529542 -0.32351393 1.8230001 0.6691585183 -0.3638588488 0.6479457021
0.097963996 0.28392953 1.8940001 0.2205936462 -0.9708419442 0.09383179247
-0.17622752 0.25784871 2.1160002 0.3169502616 0.9474014044 -0.04441946
-0.083104491 0.20935939 1.8230001 -0.2550731003 -0.7704382539 0.5842624307
0.30035916 -0.24182762 1.7570001 0.7367854714 -0.6595680118 0.148718521
-0.11517382 -0.024298279 1.6630001 -0.2707952857 0.7957943082 0.5416468382
-0.011426297 0.43566424 1.6710001 -0.1488146931 -0.3162266612 -0.9369391203
0.34588972 -0.092422567 1.4730002 -0.1125718504 0.7810493708 0.6142389178
0.44251943 -0.36417171 1.6550001 -0.4217095375 0.7262461185 0.5428882837
0.16488996 0.047070164 1.6470001 0.02448535152 0.8718603253 0.4891421795
0.06386517 0.091041833 1.5500001 -0.2331613153 0.8961266279 0.3776147068
0.49687365 -0.30557919 1.6240004 -0.6102131009 0.1130089685 0.7841357589
0.097993799 -0.33481213 1.863 0.6487812996 0.03973117843 0.7599369884
0.0016972267 -0.20875888 1.9360001 -0.2996114492 0.9017974138 0.3114392459
-0.16532312 -0.28516433 1.6470001 -0.06938076019 0.7054642439 0.7053413987
0.27010801 0.078153081 1.5640001 -0.776507318 0.1061176434 0.6211082339
0.017451365 0.36496115 1.7310001 -0.3495104015 -0.6159327626 -0.7060236335
0.24611714 0.28766942 1.8230001 0.5461860299 -0.3373092413 0.7667485476
0.30801508 -0.14557926 1.748 0.3571705818 -0.07877049595 0.9307117462
0.025774 0.16495362 1.4699999 0.3753624856 -0.1890656352 0.9073902965
0.33576003 0.3750976 1.813 -0.3486030102 -0.2457636595 0.9044756293
0.21050783 -0.19283161 1.8330001 0.6189557314 -0.2622558177 0.7403483987
0.16641675 -0.086439773 1.8430001 -0.3175934553 0.8082078695 0.4959177673
0.0058035334 0.02176325 1.6550001 0.0224986691 0.83784163 0.5454494953
0.07803911 -0.14777619 1.8940001 -0.3211371303 0.6364593506 0.7012777328
-0.044897605 -0.3707923 1.766 -0.4224235415 0.583457768 0.6936392784
-0.12816516 0.1171402 1.572 0.6261999607 -0.1628083289 0.7624742985
0.15596338 0.26341641 1.7850002 -0.001615485409 -0.9212934375 0.3888647556
0.39658999 -0.011838507 1.6880001 -0.8629736304 -0.2168602347 -0.4563421309
-0.19880931 0.028806096 1.6160001 0.6435695291 0.05340892822 0.7635219693
-0.075138047 0.15431578 1.536 0.6904636621 -0.4119770527 0.5945879221
0.37591615 -0.31439006 1.6352309 0.6426394582 0.1407770365 0.7531244159
0.14457725 -0.26478752 1.853 0.27004686 -0.221896559 0.9369293451
0.44409162 -0.25472003 1.5860002 -0.1900218129 -0.3451014459 0.9191282392
0.17657995 0.08203321 1.5860001 0.1947841495 0.9483411312 0.250416249
0.36455041 0.37228438 2.0050001 0.2222784609 -0.9042981267 -0.3644683361
-0.23644751 0.26436144 1.8730001 0.6577706933 -0.1031562537 0.7461209297
0.25008845 0.016277947 1.6880001 0.1390930861 0.8162887692 0.5606476068
0.20801196 0.016000919 1.404 0.6134690642 -0.5235746503 0.5912066102
-0.11431804 -0.11676989 1.7479999 -0.1130473241 0.7590131164 0.6411859393
0.1169519 0.16332194 1.4532001 -0.1424399465 0.5957091451 0.7904691696
0.20177974 -0.49597767 1.7570001 0.8292927146 0.2801776826 0.4835019112
-0.18018393 -0.057131488 1.6710001 -0.2215748578 0.6930618882 0.6859808564
-0.06491366 -0.28833741 1.7220001 -0.8266761899 -0.2068876773 0.5232627988
0.21519887 -0.33673203 1.766 0.8046571016 -0.5129441023 0.2990238667
0.23131113 0.15014933 1.5430001 -0.8327689767 0.409499079 0.3725672662
-0.11875239 0.057328738 1.557 0.3462053239 0.4666987956 0.8138391376
0.23590115 -0.037165187 1.785 -0.2039609253 0.8480846882 0.4890320003
0.20233028 0.13967316 1.4890001 -0.4885951877 0.4749752581 0.7318970561
0.044127893 -0.28004241 1.9360001 0.6281195879 -0.3102119267 0.713606596
0.035583902 0.30681232 1.8040001 -0.1620898992 -0.8441724181 -0.5109792948
-0.033301499 -0.18356436 1.853 -0.4170183241 0.7133091092 0.5632813573
0.12493901 -0.06523715 1.804 -0.02495384775 0.7074881792 0.706284523
-0.012185375 -0.12662193 1.8130001 -0.6656414866 0.3546404839 0.6566213369
0.064389914 -0.082916141 1.804 -0.2138669342 0.7158488631 0.664696455
0.39195153 -0.49106571 1.7130001 0.7223198414 -0.2321869731 0.6514163613
0.3539629 -0.42514825 1.6800002 0.02854882739 0.6495906115 0.759747982
-0.12177601 -0.15024313 1.8040001 -0.04055422172 0.773067534 0.6330260038
0.11323974 -0.22282657 1.8940001 0.4207927287 -0.4750578105 0.772821784
0.034479301 -0.051335845 1.748 -0.2595946491 0.7847576737 0.5628196597
0.12487026 -0.37691897 1.8430002 0.2199625969 -0.08184746653 0.9720686674
-0.27207527 0.32715797 1.904 0.9229873419 -0.09483644366 0.3729616404
-0.21194558 -0.10268485 1.7310001 0.2122822255 0.7814772725 0.5867107511
0.38115275 -0.15843996 1.705 0.797157526 0.1015771329 0.5951654911
0.08559861 -0.00750865 1.7129999 -0.05256441608 0.8735467196 0.4838936925
-0.045549408 0.12300029 1.506 0.4530847967 0.2212645262 0.863571763
0.24606751 -0.23566417 1.8129998 0.6199148297 0.08452235162 0.7801035643
0.4341768 0.0032644875 1.655 -0.2566285729 0.1417137235 0.9560643435
0.31926623 -0.08020974 1.794 0.4426477551 -0.5088050365 0.7383633256
0.19512729 -0.016345743 1.748 0.0589691028 0.7873468995 0.6136835814
0.46839949 -0.49829733 1.6240001 0.8510143757 -0.4047582746 0.3345822692
0.14539516 0.1019125 1.5500001 0.1337652057 0.9151928425 0.3801696301
-0.044393048 0.064560533 1.5430001 -0.08264746517 0.7844043374 0.6147187948
0.44456115 -0.44456115 1.6960001 -0.06894096732 -0.02197514288 0.9973787069
0.24635649 -0.15417148 1.813 0.5979402065 -0.1604364812 0.7853201032
0.055400074 0.018223707 1.6630001 -0.1322799474 0.8795623779 0.4570251703
0.31428325 -0.19197598 1.766 0.4862080812 0.09878617525 0.8682413101
0.27475083 -0.4944005 1.7220001 0.1269788742 0.5002603531 0.8565138578
0.33490661 0.093744367 1.6325835 -0.5443428755 -0.2942072451 0.7855780721
0.015082174 0.068555333 1.5640001 -0.1897069961 0.8860942721 0.4229044318
0.28595775 -0.34541523 1.6862223 0.4521308839 -0.3487872779 0.8209294081
0.21576869 0.043736897 1.6630001 -0.09830744565 0.8582181334 0.5037829876
-0.21513663 -0.031765141 1.6470001 0.3009452224 0.4971892238 0.813778162
0.41827521 -0.39912879 1.6800001 -0.1838254631 0.7610472441 0.6221055388
0.03369293 0.45851684 1.6710001 -0.09195107967 0.1858972609 -0.9782572389
-0.15511213 0.026084924 1.594 0.03976547718 0.5583729148 0.8286364675
-0.01056734 0.46949181 1.7220001 -0.8990057111 0.1861943603 -0.3963840902
0.2552762 0.044064071 1.404 0.3864395022 -0.04280406237 0.9213209748
0.44251943 -0.18136041 1.6550001 0.3060595393 0.03819209337 0.9512459636
0.10352615 0.10753865 1.5270001 -0.1266901791 0.9168628454 0.3785659075
0.3457059 -0.2744807 1.655 0.6486444473 -0.1510586292 0.7459501624
0.05456154 -0.18383043 1.9150001 -0.3186025023 0.8328019381 0.4526957273
0.33546442 -0.37438911 1.6710002 0.7356806993 0.1026900411 0.6694988012
-0.064528279 -0.031818092 1.6960001 -0.1161676273 0.7269181013 0.6768272519
0.36707348 0.056584448 1.6550001 -0.3979867995 0.2728299797 0.875882566
0.34254208 -0.21476072 1.6817778 0.8420526385 -0.4536474645 0.2918070555
0.35287237 -0.13537049 1.7350001 0.8122058511 -0.09319981933 0.5758780241
0.12380725 -0.12215648 1.8830003 -0.1550937742 0.7033586502 0.6937092543
-0.074418485 0.042721719 1.572 -0.08553797752 0.7926915288 0.6035920382
0.19715883 -0.39585796 1.7570001 0.8185037374 -0.05622697622 0.5717430711
-0.0147806 -0.014785858 1.686 -0.299833715 0.7118205428 0.6351466179
0.25659302 -0.41503298 1.705 0.3993221223 -0.01922321878 0.9166091084
0.14577915 0.025117084 1.6853333 -0.2242767066 0.7925256491 0.5671005249
0.094818868 0.054385591 1.6240002 -0.1806782186 0.8038614392 0.5667116642
0.25485909 -0.10380767 1.8329999 0.7255439162 -0.5077012181 0.4645702541
0.40525463 -0.11214875 1.5289999 -0.2463783473 0.8451147676 0.4744246006
-0.10495296 -0.31486982 1.6862221 -0.2271632552 0.6761751175 0.7008452415
0.055265065 -0.20897104 1.9700001 0.3844867945 0.5636938214 0.7310397625
-0.043910302 0.26379198 1.8830001 -0.06636588275 -0.04961058125 0.9965612888
-0.12545188 -0.25521433 1.6355001 -0.2847112715 0.3627406061 0.8873323798
0.26817232 -0.27736682 1.748 0.7557579279 -0.6229903102 0.2017746568
-0.055251036 0.021250403 1.6160001 -0.2688693106 0.864644587 0.4243808091
0.0052214265 0.12531424 1.4890002 -0.01187519263 0.5235059261 0.851939261
0.18257372 -0.36030036 1.8430001 0.5915552378 -0.7038656473 0.3932372928
0.18800862 -0.15681067 1.8730001 0.6953777671 -0.528080523 0.4874225259
0.20760641 0.28298149 1.853 0.2797963619 -0.2194461077 0.934642911
0.13077851 0.20328936 1.4770001 -0.2132182568 -0.726197958 0.6535858512
-0.13540292 -0.061412252 1.6880001 -0.3429164886 0.5991203785 0.7235074639
0.45440039 -0.08541023 1.5250001 -0.4887330532 0.6178274155 0.6159783006
0.49131116 -0.40966895 1.6630001 0.9799103737 0.1903911084 0.05938724428
0.23045374 0.30604258 2.1030002 0.4679970741 -0.8452285528 -0.2580065429
0.46910083 -0.48981822 1.6880001 -0.5974465609 -0.7928043604 0.1204939857
0.36420238 -0.45980552 1.7310001 0.02914354205 0.6151742339 0.7878523469
0.14521807 -0.16691732 1.904 0.5715612769 -0.284437865 0.7696835995
0.13469282 -0.035608448 1.7659999 -0.1160320938 0.7879926562 0.6046521068
0.052315082 0.35424784 1.705 -0.4455213845 -0.6085910201 -0.6566030979
-0.14209101 0.26295003 1.863 -0.1286278814 0.3284818232 0.9357107282
0.49748522 -0.45591232 1.6045556 0.8850634694 -0.2821840942 0.370182097
0.1953976 -0.10590878 1.8730001 0.1146886498 0.5980920196 0.7931787372
0.16688664 -0.45297804 1.8130001 0.8588652015 0.4341633916 0.2717585266
-0.39274666 -0.060595199 2.5600002 0.8512858748 0.404337436 0.3344004154
0.38302794 -0.071152024 1.4580001 -0.5322128534 0.5242753029 0.6647442579
0.29439169 -0.29587853 1.6960001 0.6604670286 -0.1202692538 0.7411603332
0.44875073 -0.056154881 1.6710001 -0.1288074553 0.05466042459 0.9901620746
0.46697581 -0.33741847 1.6240001 -0.09423673153 0.7177737951 0.6898697615
0.46416968 -0.21489452 1.6341876 0.09860495478 -0.3470184803 0.9326602817
0.38414216 0.026157541 1.705 0.01514030062 0.9023915529 0.4306509197
0.23439059 -0.0044797664 1.3751429 0.2473867387 0.2042510957 0.9471437335
0.4046174 -0.34482175 1.6240004 0.2824031413 0.3964112997 0.8735597134
0.14417113 -0.46662712 1.8529999 0.4129482508 0.2176558971 0.8843640089
0.40383735 -0.16182654 1.6630001 0.6686047912 -0.529083848 0.5225303173
0.24771531 0.33081982 1.8230001 0.3848032057 0.299133271 0.8731814027
0.074058175 0.16598853 1.4565001 0.2342784107 0.1593969762 0.959013164
-0.083556853 -0.1281897 1.7760001 -0.2705119848 0.7620027661 0.5883664489
0.30323726 0.074994154 1.5940002 -0.6681941152 0.2007269263 0.7163974643
0.14551464 0.073870435 1.6160001 -0.09458044171 0.7722855806 0.6281954646
-0.087648258 -0.0014368567 1.6390001 -0.322244674 0.843128264 0.430456847
0.19114518 -0.29186192 1.853 0.5812561512 -0.1863967776 0.7920842767
0.092594407 0.29402786 1.853 0.7939980626 -0.4990276098 -0.3471865952
0.065170959 -0.30426952 1.8940001 0.7150222063 -0.151496768 0.6824895144
0.31847984 0.40994072 1.863 0.5388141274 -0.6877803206 0.4864540398
0.23173368 -0.28287491 1.8230001 0.3753895462 -0.1501912326 0.9146175385
0.12508367 -0.30377463 1.853 0.1628654301 -0.1379876286 0.9769515395
-0.083741821 0.22823755 1.8730001 -0.1401342303 -0.3330398202 0.9324413538
0.075112797 -0.36554897 1.904 0.8097061515 0.2488319725 0.5314683914
0.27791736 -0.15491752 1.7760001 0.6232411861 0.02502177283 0.7816292644
0.40664533 -0.23476434 1.594 0.438641727 -0.102378577 0.892811358
0.32333133 -0.056804929 1.4240001 -0.02268062904 0.7737480402 0.6330872774
0.22493339 0.00150962 1.7220001 -0.03774875775 0.8332703114 0.5515756011
0.31852981 -0.22795261 1.7220001 0.73459512 -0.6652675867 0.1333754063
0.044386506 0.10860359 1.5081428 -0.1022505462 0.8011012077 0.5897302032
0.48619232 -0.44158754 1.6960001 0.7029098272 -0.5656147003 0.4312745929
0.47092605 -0.29345539 1.5940001 -0.566970706 0.2379257977 0.7886288762
0.31513622 -0.49723744 1.7310001 -0.3890396953 0.7167719007 0.5786935091
-0.18718761 0.27749744 1.8730001 -0.3445121944 0.003757416504 0.9387743473
0.0032313932 -0.15025979 1.8430001 -0.5089840889 0.5333470702 0.6756301522
0.1626213 -0.41425973 1.794 0.9180161357 -0.07672266662 0.3890502155
0.004755917 0.39419755 1.705 -0.3073031008 -0.6098680496 -0.730496943
0.21456626 -0.42458215 1.7334001 0.6233592033 0.0482586585 0.7804449797
0.40661243 -0.27520773 1.603909 0.6139948964 0.2254780829 0.7564191222
0.48256379 -0.36738995 1.6630001 0.601804018 0.4798252881 0.6384353042
0.073642038 0.29509798 1.8130001 0.3746120334 -0.7183929086 -0.5861548185
0.27543548 -0.45561686 1.705 0.4089146852 0.2027427107 0.8897663355
-0.13525213 0.0014237066 1.6240001 -0.08175186813 0.7772527337 0.623854816
0.26456484 -0.3751739 1.705 0.4894111156 -0.1309543997 0.862164557
0.16529764 0.14462934 1.4730624 -0.1175818145 0.4805718362 0.8690369725
-0.11925998 -0.32758754 1.7220001 -0.05006928742 0.8868416548 0.4593527913
0.28152046 -0.24062921 1.794 0.4832420647 -0.02415178157 0.8751536012
0.23387305 -0.49610218 1.7323333 0.3265857399 0.2808775604 0.9024685621
-0.024131419 -0.076501735 1.7570001 -0.2599945068 0.7346662879 0.6266325116
0.3768422 -0.098822251 1.503 -0.1928305924 0.8028004766 0.5642054081
0.24306636 -0.30344588 1.766 0.7331171036 -0.6403393745 0.229139328
0.065348484 0.072763912 1.5860001 -0.1964912862 0.8588490486 0.4730427861
0.17312236 -0.23355187 1.863 0.3463101685 -0.008961629122 0.938077271
0.46636564 -0.13484536 1.6240003 0.3565525115 0.1290179938 0.9253240824
0.38297707 -0.21497971 1.6240003 0.710729897 -0.1791915596 0.6802598238
0.27414683 -0.052348394 1.4150001 -0.08879542351 0.7447491884 0.6614106297
0.0046945498 -0.33644274 1.7850001 -0.5052540302 0.6488467455 0.5689607263
0.27814442 -0.077880435 1.8130001 0.5710413456 -0.169469595 0.8032383323
0.22009681 0.073365606 1.5790001 0.3343584836 0.8846293688 0.3250158429
0.0084212599 0.051931102 1.6010001 -0.3834171295 0.8466136456 0.3691024482
-0.042490281 -0.32929966 1.7310001 -0.2987985611 0.5454716682 0.7830581665
0.04083075 -0.15189038 1.863 -0.3919862807 0.6278924346 0.6723822355
0.27558193 -0.02958224 1.7760001 0.07933499664 0.9126036763 0.4010741711
0.28833741 -0.25512579 1.7220001 0.8033967614 -0.4890526533 0.3396780491
0.18401058 -0.48283118 1.794 0.9124145508 0.3329413235 0.2380121201
0.24532121 -0.34588838 1.7381113 0.5589674711 -0.3191838861 0.7652953863
0.33531624 0.12683702 1.6630001 -0.6452812552 -0.5418702364 0.538506031
0.013114933 0.19147803 1.4960001 0.5072077513 -0.5382208824 0.6730962396
0.32047603 -0.11301811 1.766 0.5367338657 -0.4789972901 0.6946066618
-0.028688917 -0.10275849 1.7850002 -0.4789665341 0.6205636263 0.6208798885
0.40990829 -0.46762103 1.6880001 0.5534310937 -0.4762977958 0.6832674742
-0.015660774 0.029897841 1.6240001 -0.3506982625 0.8640351892 0.3611840606
-0.25454772 0.29680723 1.8830001 0.553109169 0.2628254294 0.7905650139
0.072842054 -0.12575871 1.8630002 -0.269562155 0.7721062303 0.575489521
0.21623772 0.10617661 1.4770001 -0.8482055664 -0.5262261033 0.06027792394
0.31483027 -0.42507637 1.688 0.2148384303 0.2070942074 0.9544403553
-0.12378883 -0.087557957 1.7220001 -0.2851678729 0.6999565363 0.6547825336
0.11471709 0.12644602 1.487 -0.0482279025 0.77889359 0.6252990365
0.24174958 0.34079978 1.9150001 0.3084005415 -0.9010511041 0.3049524426
0.39899293 -0.11607067 1.6550001 0.7024985552 0.1277724802 0.7001213431
0.11533689 -0.41423818 1.853 0.4546172321 -0.1226579025 0.8822007775
-0.16201781 -0.25541297 1.6240002 -0.06319731474 0.1538860202 0.9860655069
-0.12767774 -0.29162756 1.6550001 -0.2180606425 0.567946732 0.7936536074
0.042482391 0.49513957 1.6710001 0.1193633452 0.1588084847 -0.9800674915
0.26502588 -0.024071978 1.3848826 -0.01288658287 0.5889596343 0.8080596924
-0.10415763 0.12309539 1.5430001 0.6152075529 -0.2159737796 0.7582051158
0.23355187 -0.096360572 1.863 0.3261180222 0.124502331 0.9370945692
0.39800578 0.016036863 1.6630001 -0.9209510684 -0.3629440665 -0.1418475956
0.3662338 -0.096917607 1.7220001 0.8030994534 -0.322339803 0.5011270642
-0.06525293 -0.066770434 1.7310001 -0.2588509023 0.6977207661 0.6679685116
-0.24317504 -0.036622748 1.6710001 0.4004822373 0.5136392117 0.7588074207
-0.19477428 -0.086731553 1.6960001 0.2510033846 0.7891931534 0.5605099797
-0.011555343 0.23605916 1.8830001 -0.155331105 -0.2857461274 0.9456328154
0.17463413 0.1042428 1.5272858 0.0465410091 0.9252980351 0.3763741255
-0.034554694 0.089044787 1.516 0.02910268493 0.6910777688 0.7221942544
0.065522559 -0.025905209 1.7381113 -0.2762172222 0.6918339729 0.6671354771
0.17058706 -0.00150962 1.7220001 -0.006706385873 0.8024861813 0.5966330171
0.3560583 -0.34479612 1.6470001 0.4647403359 0.1245394498 0.8766449094
0.01469907 0.2564171 1.863 0.5755556226 -0.7386604548 0.3508796096
0.068436109 -0.25705269 1.904 0.779289484 -0.3746332824 0.5023522973
0.20668182 -0.46497965 1.7390002 0.6051278114 0.001227780711 0.7961273789
0.15662001 -0.38515735 1.8230001 0.846257329 -0.3163869977 0.428658098
-0.046002641 -0.13328972 1.7939999 -0.3446056545 0.5000526905 0.7944773436
-0.033886675 -0.30343977 1.7570001 -0.7644777894 -0.5664116144 0.3078173995
-0.14259508 0.085008614 1.5640001 0.5392756462 -0.01640765555 0.8419694304
0.13571852 -0.34252769 1.8430001 0.2413327098 -0.1142897755 0.96368891
-0.087914176 -0.094012268 1.739 -0.4927008152 0.5245925188 0.6942971945
0.16370785 -0.066754662 1.8130001 -0.3074428141 0.778414309 0.5473116636
0.18508185 0.065965079 1.6240002 -0.01488570683 0.8623063564 0.5061681271
0.023840949 -0.10331078 1.813 -0.1888405532 0.7189377546 0.6689302921
0.3404088 0.41072798 1.8230001 0.2379796952 -0.5489509702 0.8012605906
-0.075470477 -0.29448283 1.688 -0.5952718854 0.1857193261 0.7817670703
0.48488522 -0.055666581 1.6710001 0.1292179674 -0.04103939235 0.9907666445
0.35746095 -0.23576334 1.6470002 0.6970359683 0.02813796327 0.7164838314
-0.01485687 -0.19644083 1.8830003 -0.4502074122 0.6813801527 0.5770912766
0.050054159 0.19123256 1.4640001 0.3267277479 -0.3114158511 0.89233917
0.054104362 -0.063446112 1.7760001 -0.2406905442 0.7467951775 0.6199717522
-0.15524451 -0.034821201 1.6550001 -0.4014751315 0.6412366033 0.6539367437
-0.2181848 0.0035768 1.6320001 0.6834856272 0.1726915389 0.7092425823
0.027065331 0.33468595 1.7570001 -0.001637244481 -0.8525700569 -0.5226104259
0.15598966 -0.11165577 1.8730001 -0.2044167072 0.8004773259 0.5634268522
0.4222202 -0.036907665 1.684 -0.7106828094 -0.626480341 -0.3200817406
0.11522907 0.0111512 1.6960001 -0.2049637139 0.8040950298 0.5580511093
0.38380641 -0.40870988 1.6710001 -0.3152401447 0.6782323718 0.6637955308
0.30357477 0.36079302 1.8130001 0.242902264 0.09983462095 0.9648997784
0.38745949 0.41306254 1.9470001 0.09882348031 -0.9921271205 -0.0769264698
0.008635167 -0.2176062 1.9700001 -0.09937555343 0.7693719864 0.631024003
0.17405164 0.2972014 1.8730001 -0.002894858597 -0.4814751446 0.8764549494
0.2246055 0.12891559 1.516 -0.7955120206 0.3528870046 0.4925762415
0.4628318 -0.0261159 1.6550001 -0.1786636263 -0.2445176095 0.9530427456
0.2922301 0.0028371855 1.3870001 -0.3351148367 0.1392372996 0.9318320751
0.0045051896 -0.02853287 1.7129999 -0.3288474083 0.7175796032 0.6139535308
0.049499229 -0.24749614 1.9470001 0.8385384083 -0.3716715276 0.3983887434
0.49829733 -0.42711198 1.6240001 0.9586628079 -0.1745613366 0.2247087061
0.032559689 0.42424795 1.6630001 -0.4861873686 -0.438072592 -0.7561178803
0.20401436 -0.049026709 1.8040003 -0.1143145263 0.8750948906 0.4702564478
0.19519071 0.087358087 1.557 0.1140446141 0.8927859068 0.4358062744
0.1051921 -0.022867849 1.739 -0.05626878142 0.8644098043 0.4996294081
0.2552571 -0.047999781 1.8130001 -0.037485037 0.7772318125 0.6280968189
0.19610682 -0.34476846 1.8040001 0.714163363 -0.690862 0.1126074567
0.49544996 -0.20501378 1.6240004 0.395144701 0.07192725688 0.9157986045
0.043506514 0.13647577 1.4770001 0.01873119362 0.6475841403 0.7617636919
0.33515406 0.042801056 1.6550001 -0.1233762354 0.7351814508 0.6665482521
0.096724637 -0.20526849 1.9260004 0.4716482759 -0.4858933091 0.7358366847
0.24476707 -0.19549578 1.8130001 0.5895353556 0.00249565742 0.8077387214
0.33539513 -0.16464852 1.7390002 0.6936085224 -0.1108391359 0.7117737532
0.20090921 -0.13283253 1.8940001 0.6539629102 -0.2117066234 0.726300776
0.13792771 -0.23808952 1.8730001 0.451345861 -0.481374681 0.7513756156
0.11433838 -0.15272936 1.904 -0.2002221793 0.7138327956 0.6710840464
0.1242881 0.04669784 1.6390001 -0.2402156591 0.7918159366 0.5615371466
-0.14635424 -0.1112902 1.7390001 -0.08445059508 0.8266882896 0.5562863946
-0.086379342 0.065122686 1.5430001 0.1120822877 0.6297415495 0.7686762214
0.39528227 -0.17718261 1.6343334 0.2557525933 -0.8228266835 0.5074907541
0.37443486 0.066914216 1.6240001 -0.5507724285 -0.6312789917 0.5460188389
0.39995638 0.066907197 1.6960001 -0.1161869988 0.3154111207 0.9418154955
0.46766806 -0.48459506 1.6550001 0.8723311424 -0.4659546316 0.1480697989
0.2133548 -0.22614011 1.8230001 0.3376544714 0.08497495949 0.9374266267
-0.14113456 0.23743816 1.8940001 -0.1359900534 0.7847648263 0.6046907306
-0.21460931 -0.054934122 1.6710001 0.3549501896 0.6665802002 0.65550071
0.4864448 -0.27040607 1.6320001 -0.4781561196 -0.3425879776 0.8087027669
0.093920805 0.094606362 1.5640001 -0.2069074363 0.8981585503 0.3879440129
-0.024801776 0.14489459 1.4890002 0.2765353918 -0.1166454628 0.9538983107
0.015464401 0.0022092001 1.6800001 -0.09565284848 0.7984696031 0.5943878293
0.33986965 -0.067464761 1.452 -0.08964960277 0.8193197846 0.5662844181
0.035159595 0.27967858 1.8230001 -0.4050121605 -0.7532362342 -0.5182666183
0.45579553 -0.38528949 1.6857144 -0.1460905373 0.6181237698 0.7723863125
0.37143314 -0.18645647 1.6880001 0.7014800906 -0.7124768496 0.01739193872
0.13498211 -0.085167289 1.8330001 -0.1923455894 0.8521621227 0.4866445065
0.085422397 0.0103096 1.6800001 -0.1447370648 0.8624039888 0.4850881398
-0.064627871 -0.18418941 1.8430001 -0.204574123 0.6734419465 0.710369885
0.20818932 -0.36624679 1.748 0.6731305122 -0.4134434164 0.613155663
-0.0034528978 0.46515465 1.6880001 -0.7413279414 0.3046553135 -0.5980117321
0.23554806 0.34478775 1.9470001 0.4756115973 -0.8567558527 0.1994066089
-0.20955577 0.2566652 1.853 0.05251159891 -0.03146840632 0.998124361
-0.11227382 0.087925285 1.5430001 0.6144915223 0.1366778314 0.7769938111
0.092772804 -0.36534426 1.8730001 0.7880813479 0.1639937758 0.5933244228
0.22175634 -0.16229993 1.8330001 0.8018846512 -0.3038630784 0.5144397616
0.33236191 -0.29357812 1.6800002 0.7664341927 -0.09669556469 0.6350027919
0.39296982 -0.13589926 1.6800002 0.7732066512 0.2126525044 0.5974364877
-0.015997998 -0.35247204 1.7660002 -0.4756034911 0.5969499946 0.6461052299
0.31618911 0.12447264 1.6320001 -0.6903168559 -0.4028989673 0.6009451747
-0.11521503 -0.13467704 1.7760001 -0.04985293373 0.8321635127 0.5522848368
-0.095817916 -0.032925844 1.688 -0.348754853 0.7181278467 0.6022146344
0.12407521 -0.1941805 1.9040002 0.6068770885 -0.6098277569 0.5097159147
0.18409036 0.037599359 1.6710001 0.04950018227 0.9048239589 0.42289868
-0.055304512 -0.31389049 1.705 -0.4002997577 0.3757065833 0.8358257413
0.033406917 0.025504205 1.6390001 -0.0807865113 0.7177416682 0.6916071177
0.065884121 -0.10766431 1.8330001 -0.1808746457 0.8255520463 0.5345541239
0.39800578 0.048110589 1.6630001 -0.5157704353 -0.595161438 0.6162497401
0.34826899 -0.44990972 1.705 -0.3373876512 0.7505864501 0.568145752
0.22488429 -0.026185157 1.7570001 -0.08174389601 0.883623898 0.4610061646
0.35691732 -0.40189469 1.6550001 0.2131654769 0.453959167 0.8651483059
-0.21838556 0.29063341 1.8730001 0.4106815755 -0.224381268 0.8837384582
0.03564176 -0.19857551 1.9360002 -0.2026747465 0.8955817223 0.3960508704
-0.17002863 0.25256678 1.8830001 -0.1373731494 -0.1561187655 0.9781388044
0.40517426 -0.30458906 1.6159998 0.4869868159 0.2007061839 0.8500357866
0.1954993 -0.072706349 1.8430001 -0.1122004762 0.8205575347 0.5604429841
0.0046209102 -0.06315244 1.7570001 -0.3081278205 0.8197242022 0.4828141034
-0.1912536 -0.0028333867 1.6160001 0.2028111666 0.5200636387 0.8296995759
0.14603907 0.089284554 1.5790001 0.02780000865 0.9381301403 0.3451651633
-0.033745531 -0.15908606 1.8330001 -0.3132533133 0.71757406 0.6220609546
0.16542858 -0.021256186 1.7570002 -0.1286299229 0.788086772 0.6019747257
0.41668844 -0.37214586 1.6390001 -0.1725755185 0.6998112798 0.6931680441
0.094890393 -0.074330822 1.8040003 -0.1985492408 0.7225784659 0.6621620059
0.035908263 0.09381035 1.5360001 -0.1287044585 0.8557038307 0.5012047291
0.30342749 -0.32734296 1.705 0.5173342824 -0.04596937448 0.8545478582
0.35329008 -0.30541092 1.6550001 0.4943295717 0.1491063386 0.8563910127
0.18640387 -0.31656522 1.8330001 0.7437970638 -0.0678338781 0.6649545431
0.33355764 -0.026902646 1.4040002 -0.3035312295 0.377436012 0.8748776317
0.46325871 -0.24508795 1.6160001 -0.6983060241 -0.4709272385 0.5390697718
0.064658552 0.035921413 1.6390001 -0.1803688705 0.747592926 0.6391962767
-0.15381555 -0.30147848 1.6710001 0.1480379552 0.7493150234 0.6454547048
-0.048287969 0.15505311 1.5159999 0.5615752339 -0.456317991 0.6902225018
0.22399564 0.044552203 1.4116668 0.7186586261 -0.08232439309 0.6904726624
0.29488823 -0.21423769 1.7760003 0.5573823452 0.2922191024 0.7771311998
0.49062648 -0.42420325 1.7220001 0.5615624785 0.009631266817 0.827378273
0.22490183 -0.31769347 1.794 0.7831940055 -0.6152578592 0.08980470151
0.45496893 -0.1645328 1.6320001 0.4123031497 0.08347141743 0.9072147608
0.33161891 0.34600234 1.8230001 -0.4191152155 0.2934270501 0.85921067
0.074691296 0.11084082 1.516 -0.1056265905 0.8445056081 0.5250269771
-0.021868451 0.010205276 1.6630001 -0.2669952214 0.7149541974 0.646184206
-0.074284345 0.25751907 1.8830001 -0.06404569 0.03889165074 0.9971888661
0.095419027 0.14441802 1.4708749 -0.003833281575 0.6490838528 0.7607071996
0.18681328 -0.18031543 1.853 0.692730546 -0.2434818745 0.6788526773
0.31560802 -0.35506502 1.6845714 0.3732940555 -0.1509808451 0.9153449535
-0.18361923 0.044158049 1.594 0.6411367059 0.160232082 0.7505127788
0.20084783 -0.02958224 1.7760001 0.05457418039 0.8350706697 0.5474290848
0.15432402 -0.29402784 1.853 -0.04784279689 -0.07339099795 0.9961550236
-0.015900103 0.065871269 1.5546666 -0.2995313406 0.8100250363 0.5041234493
0.091130808 -0.30376938 1.8730001 0.732151866 -0.105738461 0.6728841066
0.4000493 0.00603848 1.7220001 -0.7541890144 0.06174070016 -0.6537483931
0.4343394 -0.285198 1.594 0.3800848126 0.2806420028 0.8813487291
0.43529832 -0.34311333 1.6240003 -0.1662998497 0.5827382207 0.7954624295
0.25550187 -0.072311848 1.8330001 0.4003432989 0.6122928858 0.681779027
-0.15510687 0.22781323 1.8430001 -0.3370696306 -0.609959662 0.7171702981
-0.23545031 0.0036447418 1.6630001 0.008919009939 0.3872688413 0.921923697
0.45134306 -0.41582754 1.6880001 -0.3993101418 0.3244946003 0.8574699163
0.42225748 -0.41627857 1.705 0.4425150156 0.5437511802 0.7131024599
0.2810041 0.10243499 1.5790001 -0.8028637171 0.01194413938 0.5960429311
0.28547072 -0.42523238 1.6959999 0.4117001593 0.1667850763 0.89592731
-0.1447573 0.055146795 1.5725836 0.3243626952 0.3258128464 0.8880511522
0.064158849 0.30201605 1.7850002 -0.2166604102 -0.8882058859 -0.4051524997
0.19565797 -0.35758176 1.7760001 0.7315145135 -0.520329833 0.4406171143
0.26012716 0.31182945 1.8430001 0.5662941337 -0.1866388619 0.8027932048
