# .PCD v0.7 - Point Cloud Data file format
VERSION 0.7
FIELDS x y z normal_x normal_y normal_z
SIZE 4 4 4 4 4 4
TYPE F F F F F F
COUNT 1 1 1 1 1 1
WIDTH 512
HEIGHT 1
VIEWPOINT 0 0 0 1 0 0 0
POINTS 512
DATA ascii
0.1967673 -0.014940327 1.8130001 -0.342417866 0.6896597743 0.6380591393
0.35364208 -0.49369833 3.9940002 -0.07951045036 0.9171796441 0.3904606998
-0.46417922 -0.2567248 2.9580002 -0.3585636616 0.8056208491 0.4716006219
0.42338091 0.098628506 2.7440002 -0.2115006 0.8670027256 0.4511915147
-0.49896359 0.187782 2.0400002 -0.9659541845 -0.1651155949 -0.1991717815
0.22498861 -0.24836405 3.3330002 -0.1711771786 0.9022334814 0.3958195746
-0.21294233 -0.4928129 1.735 0.2625296116 -0.2728526294 -0.925542891
-0.11813083 0.075174168 2.45 -0.3511009514 0.9302203655 0.1068559736
-0.15768164 0.40396535 1.7130001 -0.7772582769 -0.3073697686 0.5489931107
0.29447848 0.31095278 2.3490002 -0.2974090278 0.8654398918 0.4031893909
0.14239654 -0.4254424 1.9930001 0.4155346453 0.2780790031 -0.8660271764
-0.24135511 -0.052868258 1.748 -0.362765044 -0.0115855895 0.9318085909
-0.17239387 -0.36524126 3.3330002 -0.3591154218 0.7520543933 0.5526756048
0.067251727 -0.40351039 3.6530001 -0.1065342128 0.8709067702 0.4797623158
-0.42275986 -0.026164293 2.618 -0.3278291821 0.8533678055 0.4053287804
-0.16111818 0.32042605 2.0650001 -0.2552224994 0.9177416563 0.3043218255
0.21208319 0.40119073 2.016 -0.8644176722 -0.4417045712 0.2401648462
0.49640375 -0.27612457 3.5390003 -0.1075182557 0.8939728737 0.4350313842
0.48198608 -0.10308372 3.1780002 -0.1582246423 0.8910214305 0.4254947305
-0.0050377022 0.081610776 1.6090001 -0.3779879808 -0.302388519 0.8750349879
-0.036697708 -0.14593738 1.9470001 -0.3534118831 0.7622095942 0.5423436165
-0.37527031 0.10988578 2.365 0.1627777666 0.9382019043 0.3054187298
-0.246168 -0.2270216 3.1200001 -0.3502990901 0.7813415527 0.5165228844
-0.49313027 -0.38168839 3.1780002 -0.337690413 0.8070271611 0.4844298959
0.35603186 -0.39163506 3.6920002 -0.08404402435 0.8913612962 0.4454342723
-0.054655027 -0.37695554 1.8730001 0.4275159538 0.2804347873 -0.8594105244
-0.25854829 -0.27712661 1.766 -0.1312638968 0.1692547202 -0.9767919779
0.21407411 -0.3071498 3.5390003 -0.108246617 0.8957294822 0.4312207401
0.023599867 -0.27434844 3.3650002 -0.2380247414 0.878660202 0.4138845801
-0.013933741 -0.052638572 1.766 -0.3678963482 0.8863632083 0.2810917497
0.49392629 -0.4364143 3.8590002 -0.2016675919 0.8884388804 0.4123184979
0.087498635 -0.2468065 2.0650001 0.6560920477 0.7126793861 -0.2482566088
-0.41809899 -0.16381656 2.789 -0.4364599884 0.8101270795 0.3914036453
0.18248986 -0.11801395 1.9700001 -0.04552921653 0.8625079393 0.5039911866
-0.444989 0.27562749 1.8940001 -0.2456558496 0.9352618456 0.2548302412
0.14946115 0.090268612 1.6880001 -0.5728679299 0.1731088907 0.801158905
0.36416119 -0.26183492 3.4330001 -0.08371014893 0.8864004612 0.4552875757
-0.14073569 0.16104805 1.6550001 -0.5841712356 -0.4307499528 0.6878942251
-0.13600257 -0.014166933 1.6160001 -0.5047037005 0.4758604467 0.7202992439
-0.13719133 -0.23355187 1.863 0.7748644352 0.4016943574 -0.4880847633
0.02763867 -0.39001235 3.5030003 -0.2634910047 0.8812968731 0.3922860622
0.035052639 -0.49622136 1.9040002 0.5219901204 -0.03907435015 -0.8520560265
-0.12374325 -0.23623711 3.2080002 -0.3213534951 0.7633755803 0.5603477955
0.31446385 -0.46500504 3.8160002 -0.07951045036 0.9171796441 0.3904606998
0.07345897 -0.081712782 1.8830001 -0.1713791043 0.8841547966 0.4346256256
0.01194809 -0.27651295 1.9470001 0.6290688515 0.4839380085 -0.6083390117
-0.26153859 -0.17056865 1.853 -0.9206067324 0.04030543566 -0.3884052932
-0.15206309 -0.37315142 1.7760001 0.6284093261 0.4228289723 -0.6529298425
-0.086622119 -0.49509704 1.8130001 0.7461183071 0.05282796547 -0.6637142897
-0.13509871 -0.10860877 1.8130001 -0.3387985528 0.8961561918 0.2865652442
-0.38679937 -0.23369128 3.0640001 -0.330276072 0.8145772219 0.4768455029
-0.30062041 0.080021255 2.467 0.4818978906 0.8086610436 0.3374044001
-0.14650153 0.28560394 1.688 -0.9039319158 -0.257727623 -0.3412968814
-0.40722218 0.014924373 2.4320002 -0.3090569675 0.8576328754 0.4110348225
0.094498821 -0.0035756314 1.748 -0.2682810426 0.7915636897 0.5490466356
0.068550952 -0.14940591 2.0050001 -0.2224908769 0.8330993056 0.5064023137
0.043279279 -0.38611907 1.9360001 0.5615531206 0.2804566026 -0.7784613967
-0.034114782 -0.012537912 1.6630001 -0.3488663435 0.8318155408 0.4317119122
0.45340148 -0.49493444 3.9480002 -0.07951045036 0.9171796441 0.3904606998
-0.11563321 -0.06557554 1.7129999 -0.2660770416 0.890868783 0.3681790233
-0.025792411 -0.28944814 3.2690001 -0.2323632091 0.8549535275 0.4637475908
-0.20219791 0.23558837 2.1160002 -0.2119076997 0.9165784121 0.3390856981
-0.23877507 -0.39195153 1.7130001 0.06420160085 0.01555614639 -0.9978156686
0.11182058 -0.32497856 1.9930001 0.5732499361 0.2682932615 -0.7742113471
0.23292682 0.068958603 1.748 -0.6036538482 -0.01486312039 0.7971079946
-0.04386051 -0.095843337 1.853 -0.2480885535 0.9160647392 0.3150832951
0.22373982 -0.065170959 1.8940001 -0.1692222357 0.8361514807 0.5217418075
0.063661486 0.038391277 1.6630001 -0.3774859011 0.7144858241 0.5890793204
0.28233171 0.005523175 1.853 -0.6673833728 0.5431304574 0.5095181465
-0.11532024 0.075456455 1.6240001 0.1449852437 -0.1233490407 0.9817149639
-0.06807667 -0.28558993 1.8940001 0.6763966084 0.2927886546 -0.6758420467
-0.47657615 -0.30085534 3.0370002 -0.3585636616 0.8056208491 0.4716006219
-0.21843641 0.11895052 2.467 -0.2839571536 0.870981276 0.4009488523
-0.16723467 -0.28676292 1.794 0.6215990186 0.3686294556 -0.6911779642
-0.11290766 -0.13449293 1.8940001 -0.4214500487 0.8317652941 0.3613119423
0.10338688 -0.49701267 1.959 0.6725695729 -0.2790829837 -0.6853924394
0.00176736 -0.22445472 2.016 0.2532949448 0.9304721355 -0.2646947503
0.065834157 -0.36679032 3.5760002 -0.1249430627 0.8998668194 0.4178863168
0.2505075 0.27856433 2.286 -0.2687498927 0.8798999786 0.3918539286
-0.031197937 -0.45811707 1.8730001 0.5879987478 -0.01287337672 -0.8087593913
-0.14150487 -0.45423993 1.766 0.6303396821 -0.05540759116 -0.7743396759
-0.20707569 -0.12299984 1.7760001 0.005123803392 0.7965092659 0.6046046019
0.20593776 -0.33900523 3.6140001 -0.1027717069 0.8813909888 0.4610725939
-0.21508491 -0.21982943 1.8040001 0.489021033 0.4838227034 -0.7257919908
0.11474814 -0.045707472 1.8230002 -0.0543195121 0.8656349778 0.4977202713
0.38054785 -0.22124875 3.3650002 -0.0935613513 0.8851397634 0.4558221698
0.3930833 -0.28559959 3.5030003 -0.103368789 0.8903602362 0.4433661699
-0.084760688 -0.21578519 1.9260002 0.4396793246 0.5145171881 -0.7361753583
-0.11309877 -0.32475504 1.8430001 0.6955700517 0.2496743798 -0.6736801863
-0.10148337 -0.4147234 1.8230001 0.7925772071 0.02929829247 -0.6090672612
0.025529411 -0.01051211 1.7130001 -0.3448567986 0.8715904355 0.3484305739
0.1711195 0.018899765 1.748 -0.373824805 0.7825165391 0.4979185462
0.10411907 -0.11208447 1.9470001 -0.03835789114 0.8758260608 0.481100142
-0.18439691 -0.057530373 1.6826668 -0.2025890499 0.9266589284 0.3166399896
-0.2063327 -0.3281543 1.7370002 0.6020986438 0.3655719459 -0.7098129392
-0.054738194 0.024421653 1.6010001 0.06483205408 0.4980304539 0.8647326231
0.28351399 -0.216975 3.3000002 -0.1698660702 0.9013984203 0.3982792795
0.034839965 -0.062967636 1.8230002 -0.116884321 0.9112426043 0.3949367106
0.073382258 -0.23936594 1.9930001 0.6734488606 0.05483343452 -0.7371973395
-0.03798509 -0.25420791 3.3330002 -0.2172929645 0.8736089468 0.4354207218
0.15286067 -0.072963737 1.8830001 -0.1135977879 0.8459681273 0.5209927559
0.02363844 -0.11312682 1.9260001 -0.1359799057 0.8452405334 0.5167957544
-0.31172514 -0.23040554 3.0920002 -0.337690413 0.8070271611 0.4844298959
-0.01510935 -0.33408451 1.9150001 0.5533086061 0.2671402693 -0.788977623
-0.07667765 -0.079807349 1.7850001 -0.2989726365 0.9194362164 0.2554454207
0.40375233 -0.48244983 3.9030001 -0.07951045036 0.9171796441 0.3904606998
0.25500855 0.025388518 1.7939999 -0.5897502899 0.5164188743 0.6208913922
0.086134255 -0.43661153 1.936 0.512236774 0.1863680631 -0.8383796215
-0.17786339 0.33677414 1.6630001 -0.8776525855 -0.442191273 0.1849130988
0.054956481 -0.3280215 1.9590001 0.5141066313 0.3081485033 -0.8004616499
-0.026190195 -0.22540744 1.9589999 0.4590313137 0.7109833956 -0.5327221155
-0.18513621 -0.42490274 1.7310004 0.5956930518 0.1108499989 -0.7955262661
-0.055564005 -0.044551324 1.7129999 -0.2983393669 0.8837850094 0.3604409397
0.089359507 0.09521915 1.6710001 -0.4026776254 -0.3211626709 0.8571494818
0.13138516 -0.28976727 2.0530002 0.8288396597 0.4267079532 -0.3618633747
-0.15903172 0.11110435 2.4850001 -0.2790877521 0.8688451052 0.4089232683
0.12406149 0.035873201 1.705 -0.3130792379 0.783921361 0.5361424088
-0.094034337 -0.035718471 1.6630001 -0.13454023 0.8389781117 0.5272709131
0.094986834 -0.38512844 1.9700001 0.5183074474 0.2865111232 -0.8057721853
0.15022559 -0.36937824 2.016 0.4724317193 0.1979071051 -0.8588603139
0.0087359836 -0.14851172 1.9930001 -0.04686889425 0.8865932822 0.4601691961
-0.18801081 -0.13337518 1.8330001 -0.2599525452 0.8986688852 0.3532972336
-0.15557064 -0.096268959 1.7570001 -0.2155707926 0.8989841342 0.3812568784
0.012796995 -0.42786479 1.9039999 0.6812660098 0.3347290158 -0.6510246396
-0.47558695 0.21560407 1.9930003 -0.9284380674 0.1226277128 -0.3506639898
-0.26031128 -0.34040704 1.7570001 -0.5743362308 0.1996755749 -0.7938939333
0.0039505889 0.024771202 1.6381251 -0.4154980779 0.7282919288 0.5449331999
0.053870816 -0.033941727 1.7760003 -0.2037381977 0.8279787302 0.5224384665
0.38596389 0.10655445 2.7010002 -0.1986304373 0.8789991736 0.4334817231
0.01477797 -0.082647167 1.8730001 -0.1222588941 0.9080082178 0.4007166922
0.12405095 -0.14152293 1.9930001 0.03237266839 0.8186265826 0.573413074
-0.00292193 -0.31264651 3.3330002 -0.2380247414 0.878660202 0.4138845801
0.14631347 -0.013301224 1.7850001 -0.1551090628 0.838775456 0.5219165683
0.044709999 0.08405479 1.6320001 -0.4585773647 0.009437583387 0.8886044025
-0.15467818 0.34990308 1.7129999 -0.9983325601 -0.03101013787 0.04868760705
0.18568327 0.066423282 1.7220001 -0.7946772575 0.1056821048 0.597761929
-0.20662069 -0.26559231 1.7570001 0.5462682843 0.3838909268 -0.7444586754
-0.058421068 -0.12184966 1.904 -0.2038004249 0.8730936646 0.4429139793
0.23473495 -0.032489266 1.853 -0.24161385 0.8317191601 0.4998659492
-0.2339911 -0.44533786 1.7220001 -0.171284914 -0.0921978578 -0.9808980823
0.18573061 -0.08948838 1.9260001 -0.1531154662 0.7944147587 0.5877591968
-0.24355203 -0.17554724 1.8040001 -0.9770523906 -0.206153512 -0.05356674641
-0.094218872 -0.10883904 1.853 -0.2331927419 0.8888682723 0.3943784237
-0.01430457 -0.075761236 1.8130001 -0.3723811209 0.84433043 0.3852770329
0.4892931 -0.46192005 3.9030001 -0.2016675919 0.8884388804 0.4123184979
-0.107304 0.02575296 1.6320001 0.005766541697 0.03887569532 0.9992274046
-0.11761536 -0.36556125 1.8130001 0.7491152883 0.1587134898 -0.6431456208
0.095437437 -0.28277761 2.016 0.5290356278 0.4096125066 -0.7431950569
0.37468821 -0.36508083 3.6530001 -0.0813678354 0.8942053318 0.4402000308
-0.10942641 -0.27601588 1.863 0.779989481 0.2370383441 -0.5791625381
-0.035035543 -0.26466611 1.9260004 0.3757203817 0.3628653884 -0.8527384996
0.16641676 -0.045239508 1.8430001 -0.1632442772 0.8030314445 0.5731420517
-0.075399183 -0.45293364 1.8430001 0.5587339997 0.1573313177 -0.8142868876
-0.16461082 -0.24360575 1.8230001 0.5610138178 0.5864008069 -0.5842923522
0.47838649 -0.41817001 3.8160002 -0.2016675919 0.8884388804 0.4123184979
-0.1844673 -0.37503275 1.7390002 0.6519374251 0.14909558 -0.7434703112
-0.16580713 -0.49435657 1.7479999 0.5349408388 -0.3480761647 -0.7698579431
0.074949369 0.01601482 1.705 -0.3661610484 0.8005224466 0.4744363725
0.23577335 0.37975711 2.0530002 -0.8635395169 -0.4469441175 0.23353903
-0.11988592 -0.49667025 1.7760001 0.6828533411 0.1068798378 -0.722694993
0.14067081 -0.47237605 1.9810001 0.6901059747 -0.03689520061 -0.7227672338
-0.018360907 -0.38390988 1.904 0.5817552209 0.3554184437 -0.7315999866
-0.17593648 -0.33163247 1.7760001 0.6694083214 0.3940054476 -0.6298032999
-0.078303866 -0.012813359 1.6240001 -0.08721110225 0.7475284934 0.6584796309
-0.070982821 -0.33345419 1.8830001 0.5722729564 0.2431294173 -0.7831932902
0.21416675 0.02683535 1.7659999 -0.236201942 0.7761316299 0.5846608877
0.054956481 -0.12536947 1.9590001 -0.154471457 0.8813914657 0.4464164078
0.026546342 -0.24387901 1.9810001 0.1077723727 0.3791557252 -0.9190353751
-0.051170595 -0.49546131 1.853 0.6580719352 0.1312062591 -0.7414352298
-0.14295277 -0.13158153 1.853 -0.3546198905 0.8330746889 0.4245365262
0.064951703 -0.28446764 1.9810002 0.5497072339 0.2429869324 -0.7992367148
-0.14209627 -0.042482391 1.6710001 -0.2718142867 0.8388024569 0.4717281759
-0.094218872 -0.36550426 1.853 0.7613067031 0.3313923478 -0.5573071241
0.075937741 -0.059780777 1.8430001 -0.1917023063 0.8775552511 0.4394849539
0.11517296 -0.087353408 1.9039999 -0.06830330938 0.8817375898 0.4667691886
0.075558588 -0.48416591 1.9260004 0.4594724476 -0.06391482055 -0.8858893514
-0.13569327 -0.32547405 1.8040001 0.6624461412 0.3081001639 -0.6828172207
-0.11228696 -0.45389244 1.8040003 0.742790401 0.1801464111 -0.6448330879
-0.11788888 -0.20755084 1.8940001 0.5400597453 0.4261721075 -0.7257498503
-0.12644339 0.12213282 1.6390001 -0.5201662183 -0.4189771712 0.7442346811
-0.1345771 -0.41468525 1.785 0.7350929976 0.3058401644 -0.6050620675
0.05065643 -0.2652013 3.3990002 -0.2443549037 0.8793563843 0.4086844921
-0.053334646 0.06877362 1.6010001 0.2017112374 -0.2709319293 0.9412270784
-0.018061964 -0.41542515 1.8730001 0.4940272272 0.2376716882 -0.8363308311
-0.17576291 -0.075696655 1.7220001 0.03275661543 0.8452711701 0.5333325863
-0.01502256 -0.11406017 1.9039999 -0.2461998463 0.8600339293 0.446908623
-0.25378448 -0.23447819 1.7760003 0.1233614832 0.7679620385 -0.6285032034
-0.24292083 -0.13584389 1.8230001 -0.7727671862 0.08129858226 -0.6294612288
-0.015017301 -0.027782006 1.7130001 -0.3961814046 0.8224909902 0.4081039429
0.053860646 -0.38969761 3.6140001 -0.1192179322 0.9026225805 0.4135935009
-0.093694374 -0.24360539 1.8940001 0.6279093623 0.3053780794 -0.7158729434
0.10484495 -0.024255175 1.7850001 -0.2338582277 0.8339220285 0.4998843372
-0.116772 -0.09186063 1.7760001 -0.3397461176 0.8864114285 0.3144000769
-0.21607028 -0.08734756 1.748 0.1662522405 0.4450657368 0.8799299002
-0.16396822 0.42754331 1.748 -0.7917368412 -0.3312878907 0.5132261515
-0.19226789 -0.21811906 1.8430001 0.3030304909 0.856693387 -0.4174313843
-0.0049812198 -0.48608407 1.8940001 0.4895953238 0.1815717816 -0.8528353572
0.10225072 0.054787636 1.6710001 -0.5012803674 0.4965423644 0.7086350918
-0.13819598 -0.2844266 1.8330001 0.7607353926 0.2042004615 -0.6161037087
0.11595934 -0.066962428 1.863 -0.1278457195 0.879675746 0.4580677152
0.14358537 -0.10149415 1.9360001 -0.2060274631 0.8463437557 0.4911771119
0.04420884 -0.45384011 1.9150001 0.4233559966 0.2550665438 -0.8693162799
-0.014737206 0.04140453 1.6010001 -0.4856323302 0.3366385698 0.8067438602
0.01527504 -0.35472038 1.936 0.3075101674 0.2902959585 -0.9061819911
0.10707606 -0.4248502 1.9700001 0.6997474432 0.1738312244 -0.6929186583
-0.091944799 -0.068958603 1.748 -0.2779511511 0.8916987181 0.357234627
-0.24544828 -0.30541283 1.739 -0.09851144999 0.2748936415 -0.9564146399
0.24664986 -0.0069253743 1.8230001 -0.4790843427 0.6297562718 0.6114615202
-0.062762693 -0.41600701 1.863 0.5574759245 0.3092029095 -0.7704635859
0.025635924 0.013916645 1.6710001 -0.4038321972 0.8050667048 0.4344964623
-0.052370314 -0.061612137 1.7570001 -0.3364516795 0.8899136186 0.3079837561
-0.19501975 -0.2547839 1.7940003 0.6200845838 0.4621989727 -0.6339299679
0.2037724 -0.32603586 3.5760002 -0.1027717069 0.8813909888 0.4610725939
0.014935113 -0.31619766 1.9470003 0.4757486284 0.333537221 -0.8138895035
0.065849937 -0.10637298 1.9260004 -0.1440892965 0.8349447846 0.5311360359
0.37843332 -0.24136299 3.3990002 -0.08703270555 0.8847029209 0.4579585493
0.017878156 -0.027072636 1.748 -0.3811914325 0.7944283485 0.4728389978
0.0085869497 -0.12880425 1.9590001 -0.1984757334 0.8857241273 0.4196428955
0.054882839 -0.012196185 1.7390002 -0.2647290826 0.8288286924 0.4929112196
-0.14094695 0.044134907 1.6240001 0.2070420533 -0.1871567369 0.9602634907
-0.073515512 -0.087898985 1.8230001 -0.2411178648 0.8971170783 0.370193392
0.38206184 -0.27261177 3.4680002 -0.07766802609 0.8889586329 0.4513537288
0.023139322 0.056195498 1.6160001 -0.6423704028 0.2861996293 0.7109500766
-0.23399109 -0.35476074 1.7220001 -0.03446940333 0.21845828 -0.9752373099
-0.16481246 -0.40509981 1.7570001 0.5664012432 0.2492704093 -0.7855277658
-0.18527418 -0.46615151 1.7310002 0.3470117152 -0.1337457448 -0.9282752275
0.44139028 -0.47560656 3.9030001 -0.07951045036 0.9171796441 0.3904606998
0.1868352 -0.0015569599 1.7760001 -0.3696952164 0.6407178044 0.6729086637
0.13507088 0.017120205 1.7360002 -0.2533290684 0.7945342064 0.551851213
0.25611377 0.062072381 1.7850002 -0.6760780215 0.1855572462 0.7130827308
0.18718761 -0.060753874 1.8730001 -0.2333741337 0.8476893902 0.4764023423
-0.17457414 -0.11638276 1.794 -0.223538518 0.8964623213 0.3826040328
0.094227642 -0.24712531 2.0280001 0.50647223 0.7900780439 -0.3453440368
-0.16030376 -0.24467416 3.2080002 -0.362503469 0.726493597 0.5837792754
-0.0036890134 -0.0066451337 1.6840001 -0.4638570845 0.7760897279 0.4272252023
-0.085436068 -0.13541448 1.9260002 -0.1808909774 0.838339746 0.5142615438
0.014154661 -0.05190042 1.794 -0.1782683581 0.8983634114 0.4014517665
-0.048965339 -0.22625363 1.9260001 0.4503969848 0.5755818486 -0.6825306416
0.48801228 -0.48109013 3.9480002 -0.2016675919 0.8884388804 0.4123184979
-0.014774024 -0.29590261 1.9260004 0.5337982178 0.1685728282 -0.8286390305
0.12405097 -0.38729525 1.9930001 0.6537676454 0.4032285511 -0.6403082013
-0.026480943 0.0093964646 1.6240002 -0.4334587455 0.7544237971 0.4929079413
0.063543431 -0.36580408 1.9589999 0.5423884988 0.2027580589 -0.8152937889
-0.4015291 0.027329206 2.398 0.1627777666 0.9382019043 0.3054187298
-0.37007868 -0.21565737 3.0370002 -0.3436337709 0.8095064163 0.4760411382
-0.20281333 -0.30654228 1.766 0.6499210596 0.1284964085 -0.7490602732
0.15644701 0.05331156 1.705 -0.4322640598 0.4832213521 0.7613441348
0.074330807 -0.044282183 1.804 -0.2809836864 0.8342686892 0.4743879139
-0.20273355 -0.39495498 1.7130001 0.4089799225 0.1779543906 -0.8950238228
-0.16419967 -0.21181756 1.8730001 0.4082585275 0.7914175987 -0.4549539983
0.22490181 0.0057667135 1.794 -0.2561352253 0.7783849835 0.5731592774
-0.047571443 -0.31630832 1.904 0.5690404177 0.3317037225 -0.7524397969
0.01510935 -0.3928431 1.9150001 0.518494606 0.005291856825 -0.8550645113
0.075102277 -0.40452817 1.9470001 0.3732478619 0.5552791357 -0.7432032824
-0.06010865 -0.21467374 1.9590001 0.4513384998 0.7677106857 -0.4548778534
0.132552 -0.30752063 2.016 0.6975318789 0.4056273997 -0.5906908512
0.1502519 -0.13298157 1.9700001 -0.1664939076 0.7830091715 0.5993133187
-0.036196865 -0.35499492 1.8940001 0.5093715191 0.3069548011 -0.8039399385
-0.087722771 -0.052038934 1.6960001 -0.3311055303 0.8644781113 0.3782151937
0.037114561 -0.16082975 2.016 -0.01172872633 0.9391896129 0.3431985974
-0.0840284 0.043030988 1.6063334 0.6371841431 -0.02911504172 0.7701614499
0.023860237 0.099651575 1.6010001 -0.4167201221 -0.09980788082 0.9035390019
-0.14544442 -0.042744689 1.6362002 -0.5349294543 0.7799021006 0.3249664605
0.276555 0.045297801 1.8130001 -0.7217147946 0.3374913931 0.6043403745
0.16307209 -0.025748223 1.8130001 -0.2104832232 0.821342051 0.5301830769
-0.20794095 -0.052370314 1.7570001 -0.2537324727 -0.1181339845 0.9600334167
0.077968977 0.064974152 1.6470002 -0.5644165874 0.1762633026 0.8064522147
-0.12272895 -0.018770309 1.6470001 -0.2159088254 0.8168054223 0.5349881053
0.055719178 -0.42380345 1.9260004 0.3744994402 0.2269839495 -0.8990152478
0.044672742 -0.07553754 1.853 -0.1440425813 0.8939412832 0.4244063497
-0.16341367 0.3147774 1.688 -0.9492288828 -0.3145851195 0.0008318180917
-0.065473847 -0.2535013 1.9150001 0.5386896729 0.3160342872 -0.7809838653
-0.087025821 -0.30376938 1.8730001 0.533270359 0.2827314436 -0.7972989678
-0.15399276 -0.062234316 1.6960001 -0.1183703989 0.8556854129 0.5037767291
-0.25194085 -0.20186564 1.7850001 0.2644233704 0.260315448 -0.9286097884
-0.0034540666 -0.25387391 1.9700001 0.6882460117 0.3238923848 -0.6491618752
0.12245426 -0.35447288 2.0050001 0.637978673 0.06194228679 -0.7675586939
-0.045609459 -0.071559668 1.794 -0.2003717273 0.8971966505 0.3935598135
-0.14112844 -0.07739301 1.7310001 -0.2134093642 0.8790611625 0.4262721539
0.10582594 -0.46597549 1.9470001 0.747690022 -0.002843027469 -0.6640418172
0.19980898 -0.037362657 1.853 -0.2504749 0.8056514263 0.5368315578
0.20459104 0.045430798 1.7390001 -0.3952751458 0.4768826365 0.7850735784
0.34586602 -0.38109314 3.6530001 -0.0964897275 0.8896501064 0.4463322163
-0.26204267 -0.24978337 1.748 -0.007497412618 0.2068782449 -0.9783379436
-0.065679863 -0.11001378 1.8730001 -0.2493199855 0.904242456 0.3466773331
-0.079169139 -0.39584568 1.8430001 0.7547655106 0.1837889701 -0.6297226548
-0.13600092 0.30386734 1.6630001 -0.9152926803 -0.3951374888 -0.07813867927
0.027056856 -0.29647404 1.9700001 0.378210932 0.2080648988 -0.9020341039
-0.01559897 -0.094414808 1.8730001 -0.3222822547 0.8427163959 0.4312345684
0.044830978 -0.092650689 1.8940001 -0.1211634278 0.900102973 0.4184902608
0.082781583 -0.31665406 1.9810001 0.5082799792 0.3380060494 -0.7920879722
0.21867923 0.36802116 2.0280001 -0.8634729981 -0.4456331432 0.2362742126
0.27115503 0.01438347 1.8230001 -0.6276755929 0.5849633813 0.5136547089
0.48091128 -0.11530621 3.2080002 -0.1107165292 0.8869540095 0.4483909011
-0.10490018 -0.096953198 1.8130001 -0.3291219473 0.9080197215 0.2591889501
0.085097156 -0.13546078 1.9810001 -0.07595741749 0.8347122669 0.5454227328
0.0048470898 -0.075937741 1.8430001 -0.2862883806 0.9003609419 0.3277027607
0.034652881 0.033209011 1.6470002 -0.4582861364 0.6901842952 0.5600173473
-0.15349118 -0.20842487 1.8430001 0.46257177 0.6480113864 -0.6050691009
0.14669088 -0.40119073 2.016 0.5809293985 0.4187634885 -0.6979671717
0.021585286 -0.46823469 1.8940001 0.3729589283 0.2242873907 -0.9003314972
-0.066015191 -0.022488691 1.6550001 -0.3018208742 0.8073559403 0.5070310831
0.038206887 -0.15109088 1.9810001 -0.04282496125 0.815543592 0.57710886
0.12540366 0.0015481933 1.766 -0.2711719275 0.7649980187 0.5841608047
0.12267372 -0.27201563 2.0280001 0.7159805298 0.4412763119 -0.5409686565
0.10416379 0.01811544 1.7220001 -0.3129625618 0.7977864146 0.5153554678
0.096509598 -0.35552254 1.9810001 0.5854264498 0.06031522155 -0.8084787726
-0.22575921 -0.098088481 1.7760001 0.1210885346 0.6011602283 0.789901197
-0.18791701 -0.097039111 1.7570001 0.2421037853 0.7834222317 0.5723944306
0.045596018 0.011399005 1.6960001 -0.3273614049 0.8063313961 0.4926095307
-0.011880587 -0.12729199 1.9360001 -0.2417095304 0.8549419045 0.4589671791
0.12451734 0.084964782 1.6710001 -0.4345063865 0.1731061339 0.8838769794
0.26438141 -0.024773065 1.8529999 -0.5231707096 0.6437664628 0.5584416986
-0.05406018 -0.032792944 1.6848001 -0.3455421329 0.8595424891 0.3765465915
0.070749633 0.096739292 1.6470001 -0.4918282628 -0.5041694641 0.7098718882
-0.19253792 -0.34810856 1.7570001 0.6066135764 0.3500987291 -0.7137582302
-0.23445924 -0.2766006 1.748 -0.02037802711 0.2531318665 -0.9672171474
-0.12454365 -0.3933998 1.804 0.5937948823 0.32225734 -0.7372637391
-0.034538288 -0.044968121 1.7344286 -0.2665014565 0.873673141 0.4070284963
-0.22536996 -0.2440535 1.7760001 0.369880408 0.6988794804 -0.6121731997
-0.024629951 -0.49424097 1.8730003 0.6022331119 0.1528291553 -0.7835550308
-0.20723873 -0.43550169 1.7130001 0.3164217174 -0.1554356813 -0.9357975125
-0.16294663 -0.43537563 1.748 0.6790430546 0.2015431225 -0.7058901787
-0.09309411 -0.33481216 1.863 0.693061769 0.2101059407 -0.6895802617
-0.0052100294 -0.22634685 1.9810001 0.5189512968 0.7074280381 -0.4798282087
0.13397621 -0.032307923 1.804 -0.2055224776 0.7710239887 0.6027292013
0.081189856 -0.16297233 2.0280001 -0.1457131207 0.8781783581 0.4555990398
0.1267774 -0.4984262 1.9810001 0.6802511215 -0.09638787061 -0.7266138792
0.044327188 -0.26653883 1.9700001 0.3564554155 0.3043907285 -0.8833378553
-0.1148784 -0.048602398 1.6800001 -0.143994689 0.8536146283 0.5006072521
0.20377795 0.081816085 1.739 -0.5260980129 -0.0651575774 0.8479241729
-0.13517995 -0.25474152 1.8430001 0.6617860794 0.3917343915 -0.639205277
-0.1880786 -0.22622412 1.8130001 0.6035920978 0.4983945489 -0.622317791
-0.056394558 -0.14149295 1.9260002 -0.201730445 0.7779024839 0.5951239467
0.11830179 -0.45334625 1.9700001 0.6311365366 0.2832724452 -0.7220965028
0.11614299 -0.12564167 1.9700001 0.0257824026 0.8319123387 0.5543077588
-0.0049812198 -0.45661184 1.8940002 0.5341214538 0.08768657595 -0.8408479691
0.1347491 -0.05202543 1.8430001 -0.1634516716 0.8684906363 0.4679824114
-0.43140766 -0.17502825 2.812 -0.3970050216 0.8220080137 0.4082767069
-0.13637903 -0.35476521 1.7939999 0.5923320651 0.1918229759 -0.7825258374
-0.11799583 -0.081217907 1.748 -0.3248146772 0.8785712719 0.3501541317
-0.18839216 -0.27713889 1.7760001 0.7449100018 0.4358406365 -0.505125761
-0.11759256 -0.12249225 1.863 -0.4244527817 0.8107048869 0.403233707
-0.047109436 -0.44510296 1.853 0.5816528201 0.1426472664 -0.8008319139
-0.14359492 -0.4841975 1.7659999 0.6356562376 -0.04730679095 -0.7705214024
-0.1035322 -0.38359717 1.8330001 0.7309557796 0.2730925083 -0.6253991723
-0.20559587 -0.12810203 1.8040001 -0.1079880521 0.9219806194 0.371874094
-0.034666032 -0.39453244 1.8830003 0.4216222763 0.4116774797 -0.8079333901
-0.22493339 -0.41514552 1.7220001 -0.1236412078 0.1161462143 -0.9855064154
-0.16535716 0.3766005 1.7130002 -0.9585018158 -0.02022881433 -0.2843678594
0.075581811 -0.26497576 2.0050001 0.6833087802 0.3634471595 -0.6332418919
0.40343061 0.10264802 2.723 -0.2034000307 0.8735652566 0.4421676099
-0.087416813 -0.46410382 1.8130001 0.7836890817 0.1830306798 -0.5935749412
0.096674412 -0.15292135 2.0050001 -0.05801862478 0.8550262451 0.5153290033
-0.17533158 0.42420319 1.7220001 -0.762989223 -0.3611141443 0.5361380577
0.17527239 0.041731525 1.7310001 -0.5074318051 0.6073870659 0.6112232804
0.25286749 -0.041049916 1.8730001 -0.2268399596 0.7729232311 0.5925650001
0.085206613 0.035506882 1.6824616 -0.3614665866 0.7278020978 0.5827915668
0.17189242 0.091177717 1.705 -0.6505274773 -0.05105677992 0.7577645779
-0.084680736 -0.12120969 1.8940001 -0.2343825102 0.8997029066 0.3682383895
-0.00337692 -0.37314966 1.9260001 0.5550203919 0.4282434285 -0.7131338716
-0.20908237 -0.36759245 1.7220001 0.4233445823 0.1708724052 -0.8897089362
0.15948758 -0.092334919 1.9150001 -0.02653128654 0.8904182911 0.4543691576
-0.068026699 -0.48582849 1.8330001 0.6172550321 0.1657816619 -0.7690986395
-0.083745681 0.015224895 1.6082001 0.4435859621 0.3235744834 0.8357816935
0.13367647 0.055739641 1.6880001 -0.4073063731 0.5048784614 0.7610514164
-0.01305795 0.0036272083 1.6550001 -0.5174040198 0.744725585 0.4215174317
-0.14164127 0.078689598 1.6320001 -0.002628061688 -0.1445922852 0.9894878268
-0.055524558 0.0028474133 1.6240002 -0.2258485556 0.7698475718 0.5969313979
-0.12183475 -0.30052572 1.853 0.6569915414 0.2974087596 -0.6927554607
0.018599359 0.092996798 1.6320001 -0.4848963916 0.2360101491 0.8421251178
0.16898012 -0.11094655 1.9470001 0.048859898 0.8880441785 0.4571544826
-0.16394982 -0.050780911 1.6550001 -0.376251936 0.8922343254 0.2497045249
-0.0076226168 -0.041162129 1.7390001 -0.4525792897 0.7918097973 0.4101332128
-0.03835592 -0.084702656 1.8230001 -0.1544691324 0.9227613211 0.3530592024
0.15481932 0.0046445797 1.7660002 -0.198848024 0.7590430975 0.6199298501
-0.16461082 -0.12305858 1.8230001 -0.2771847844 0.8972985744 0.3435460329
-0.24490823 -0.078555472 1.7570001 -0.317252934 0.3677835763 0.874119997
0.23554656 0.044012923 1.7659999 -0.6680169702 0.3274374902 0.6682350039
0.0049812198 -0.097133793 1.8940001 -0.2668043077 0.81537503 0.5137888193
0.078957863 -0.017030127 1.766 -0.2768723369 0.8240642548 0.4942265153
-0.083477654 -0.42277399 1.8430001 0.6816920638 0.1672393233 -0.712268889
-0.073750988 -0.057968877 1.7310002 -0.2680409551 0.8789960742 0.3943601847
-0.26050061 -0.15662001 1.8230001 -0.9206067324 0.04030543566 -0.3884052932
0.20817327 -0.078904383 1.9150001 -0.2386912704 0.781083107 0.577005744
-0.025722101 -0.02336001 1.6864001 -0.3953902125 0.8304582834 0.3924354613
0.074262433 -0.34367967 1.9700001 0.4572965503 0.2028946579 -0.865860045
0.085795507 -0.093139872 1.904 -0.1184403524 0.8734588027 0.4722727835
-0.10352381 -0.003457573 1.6240003 0.1341213137 0.3823991716 0.9142113328
-0.027155627 -0.23930895 1.9360001 0.5690671802 0.5263881087 -0.631726265
-0.035686761 0.055152267 1.5860001 0.003996604588 -0.07288596779 0.9973322749
0.21510157 -0.050901897 1.8730001 -0.1574603021 0.8253006935 0.5422961116
0.0474452 -0.049026705 1.8040001 -0.1689554304 0.8711544871 0.4610248208
-0.21587564 -0.46496299 1.7220001 0.2325490713 -0.186837405 -0.9544698596
0.054208685 0.055776168 1.6390001 -0.3443461955 0.4867583811 0.8028025627
-0.085839689 -0.26907441 1.8830001 0.6024647355 0.3262461722 -0.7284227014
0.22454196 -0.021575205 1.8230001 -0.1474944353 0.7694357634 0.621461153
-0.10766431 -0.3487038 1.8330001 0.7704078555 0.3034233451 -0.5607192516
-0.16474451 -0.31572753 1.7939999 0.6336675882 0.1744008958 -0.7536907196
-0.13792771 -0.20853357 1.8730001 0.6321740746 0.4778688252 -0.6099158525
0.026452541 -0.43280855 1.9260002 0.3989745677 0.3659719527 -0.8407638669
-0.052882724 -0.29295349 1.9150001 0.46546188 0.1769811958 -0.8671925068
0.10069656 -0.0808874 1.8830001 -0.08812913299 0.8772144318 0.4719407856
-0.24521603 -0.33510512 1.7353638 -0.605140388 0.2939662337 -0.7398574352
-0.15417148 -0.27443579 1.8130001 0.7497217655 0.2151224166 -0.6258112192
0.045232058 -0.34905493 1.9470001 0.5388555527 0.2378061414 -0.8081354499
-0.12050572 -0.23275763 1.8830001 0.5032544136 0.3684157133 -0.7816680074
0.080717333 -0.12193469 1.9590001 -0.1660029441 0.8727333546 0.45910725
0.095396936 -0.29737288 1.9930003 0.5976404548 0.4118719399 -0.6878861785
-0.080457836 -0.35631332 1.8730001 0.6231114268 0.1885584742 -0.7590637803
-0.01100918 -0.058191381 1.794 -0.3764352202 0.8197553754 0.4316221178
0.11988066 -0.10299606 1.9260001 -0.02705254219 0.826207757 0.5627156496
-0.15630615 -0.47045088 1.748 0.6901913881 -0.1243342683 -0.7128652334
-0.03545766 -0.12494603 1.9260002 -0.2532681525 0.795296073 0.550780654
0.13467284 -0.33473796 2.016 0.6759110093 0.07929192483 -0.7327052951
0.028544268 -0.037886027 1.7760001 -0.2323846221 0.840515852 0.4894184768
-0.11532024 0.10108317 1.6240001 0.1474881172 -0.2226094604 0.9636868238
-0.2280473 -0.19973798 1.794 0.3815763891 0.3098726273 -0.8708492517
0.075036526 0.0027329207 1.7326 -0.3705757558 0.7913485169 0.4862521589
-0.01194809 -0.26115111 1.9470001 0.7470532656 0.4699135125 -0.4702049494
-0.14423776 -0.30317742 1.813 0.792983532 0.3033235669 -0.5283672214
0.19426759 -0.07305789 1.8940001 -0.2341534942 0.8114245534 0.5355019569
-0.01545651 -0.13910858 1.9590001 -0.3270657659 0.8370755315 0.4385573268
-0.20840821 -0.28962612 1.748 0.4571861029 0.1906048357 -0.868706286
-0.2707848 -0.22155119 3.1200001 -0.337690413 0.8070271611 0.4844298959
0.10340458 -0.058165081 1.8430001 -0.09421181679 0.8837473989 0.4583826959
0.16413963 -0.061246127 1.863 -0.1526572257 0.8497154117 0.504657805
-0.22342587 -0.31353179 1.7479999 0.155700773 0.2688809037 -0.9505053163
-0.17017853 0.33887726 1.6880001 -0.853633523 -0.318372637 0.4122482836
0.050363623 -0.23618802 1.9810001 0.3263263404 0.09181877226 -0.9407871366
-0.0016972267 -0.33265644 1.9360001 0.6567767262 0.2010934204 -0.7267776132
-0.16689524 -0.35577482 1.766 0.7527238131 0.2527344525 -0.6078915596
0.053538036 -0.30568492 1.9700001 0.4667126834 0.1885955781 -0.8640665412
-0.12110098 -0.47496748 1.794 0.6915950775 0.1437086612 -0.707844615
-0.17749344 -0.30049327 1.7760001 0.7436384559 0.1593994796 -0.649302423
-0.1377068 -0.10171525 1.7850001 -0.3163484931 0.9055678248 0.2826138437
0.1434495 -0.44771528 1.9810002 0.516282618 0.1044639871 -0.8500232697
-0.0030045121 -0.40560913 1.904 0.7231937647 0.2756043375 -0.6332716942
-0.031364504 -0.11060114 1.8830001 -0.2068458945 0.8561787605 0.4734687507
-0.11355218 -0.42479268 1.8040001 0.8013943434 0.09889815003 -0.5899035931
0.018997367 -0.27114424 1.9700001 0.2650124133 0.3394785523 -0.9025091529
-0.096269399 -0.021552851 1.6390001 0.05652193725 0.7938597202 0.605468452
0.17394504 -0.012267372 1.794 -0.2397485524 0.8230073452 0.5149558783
0.14761752 -0.40464565 1.9810001 0.5131537318 0.4621607065 -0.7232432365
-0.11395456 -0.25418109 1.8730004 0.6538897753 0.4339388609 -0.6197783947
-0.22656573 0.10456879 2.4850001 -0.2839571536 0.870981276 0.4009488523
-0.12836066 0.029621691 1.6090001 -0.2733872235 0.01877463609 0.9617208242
-0.15106764 -0.23346816 1.8430001 0.6531760097 0.4413257837 -0.6152988076
0.084927961 -0.07022889 1.863 -0.1478118747 0.8816249371 0.4482066035
0.065849937 -0.45419571 1.9260004 0.444809407 0.1908161342 -0.8750621676
-0.13144687 -0.31270856 1.8329999 0.7437691689 0.3618676364 -0.5620135665
-0.097368442 -0.21532337 1.9039999 0.6453635693 0.5284631848 -0.5515727997
-0.25145957 -0.21666642 1.8040001 0.293043524 0.2416667938 -0.925052762
0.034137398 -0.12460151 1.9470001 -0.07682792842 0.8928569555 0.4437385201
-0.11409203 -0.10659302 1.8330001 -0.3525860012 0.8787907362 0.3215742707
0.061941464 -0.1418286 1.9810001 -0.2591704726 0.7773371339 0.5732169151
-0.14398199 -0.42575315 1.7659999 0.6262513995 0.3081721663 -0.7161278725
-0.03425312 -0.060721438 1.7760001 -0.2679947913 0.9040473104 0.3329824209
-0.23605148 -0.25453514 1.7570001 0.1891238093 0.4389824271 -0.8783658743
-0.02423545 -0.086709052 1.8430001 -0.2960498333 0.9189018607 0.2607180476
0.18543972 -0.035031073 1.8329999 -0.233037442 0.8631885648 0.4478828609
0.043089628 -0.10352703 1.9150001 -0.1319413185 0.847281456 0.5144955516
0.055400949 -0.4746854 1.9150001 0.5404828787 0.1291445345 -0.8313843608
-0.10068429 -0.44588757 1.8230001 0.7405056357 0.3632116616 -0.5654456019
0.18629926 0.021158641 1.7660002 -0.4062605202 0.7169883847 0.5664627552
-0.17554724 -0.26371622 1.804 0.3768681288 0.3364222646 -0.8630124331
0.14623195 -0.039155003 1.8230001 -0.2674256563 0.8343484998 0.4820229113
-0.11626938 0.046033181 1.6240003 -0.2296584547 -0.2140530199 0.9494410753
0.37868842 -0.38516176 3.6920002 -0.09056687355 0.8914157748 0.44404459
-0.032018937 -0.43430811 1.8730001 0.4354442954 0.1853720397 -0.8809230924
-0.065597281 -0.097264938 1.8430001 -0.2387610674 0.8835186958 0.4029738009
0.044052675 -0.024336793 1.7570002 -0.2113084644 0.8421695232 0.4960838556
-0.16789307 -0.37737432 1.7570001 0.6262884736 0.1912199706 -0.7557762265
0.09594474 -0.035320316 1.804 -0.2011601925 0.8361939192 0.5102100372
-0.12518947 -0.33401611 1.8230001 0.8090264797 0.3549863994 -0.4684664905
-0.18945731 -0.32500401 1.7570001 0.6778989434 0.3153460622 -0.6640857458
-0.015625548 0.063899592 1.594 -0.4047884941 -0.1141519099 0.9072571993
0.14582929 0.032305866 1.7220001 -0.2581666112 0.8036543727 0.5361806154
0.12380725 -0.07593511 1.8830003 -0.07376351953 0.8594943285 0.5057948232
0.12504071 -0.41506574 1.9810001 0.5036442876 0.2283976823 -0.8331727982
0.10407786 0.028249707 1.6960001 -0.3529053032 0.7633236051 0.5411052704
0.097086452 -0.098774917 1.9260001 -0.09653904289 0.8662320971 0.490226686
0.014559973 -0.22771795 1.9930001 0.1189934313 0.9169653058 -0.3808086514
-0.12647253 0.14469624 1.6630001 -0.5841712356 -0.4307499528 0.6878942251
-0.19056542 -0.080799736 1.7390001 0.4631083012 0.6628028154 0.5884072781
0.21297593 0.37615752 2.0530002 -0.862600863 -0.4485284984 0.2339698672
-0.041647367 -0.47608653 1.863 0.6863627434 0.08826798946 -0.7218829393
0.055910293 -0.25509071 1.9930001 0.5534689426 -0.03102549911 -0.8322917223
0.076038554 -0.38336107 3.6140001 -0.111041382 0.896251142 0.4294225872
-0.15581436 -0.34627897 1.785 0.7329847813 0.2731327415 -0.6230022311
-0.12183475 -0.43480477 1.785 0.8567309976 0.1894027591 -0.4797276258
0.12536947 -0.47228226 1.9590001 0.6733307838 -0.08322413266 -0.7346423864
-0.10576677 -0.49580628 1.7939999 0.7054722905 0.13376531 -0.6959998012
-0.12467604 0.0052880538 1.6240004 -0.3382018805 0.06254027784 0.9389932156
-0.091595009 -0.098022729 1.8330001 -0.2679464817 0.8936414719 0.3600133657
0.065524697 -0.055935722 1.8230001 -0.2434286177 0.8955988288 0.3723509014
-0.06288331 0.044589974 1.594 0.2410175204 0.1211452857 0.9629300833
0.035275314 -0.32658112 1.9470001 0.389688611 0.407100141 -0.826082468
0.0044841501 -0.013950688 1.705 -0.394021064 0.8456713557 0.3599824309
-0.075672992 -0.37618732 1.863 0.6755181551 0.3756178617 -0.6344969869
-0.095106065 -0.061894421 1.7220001 -0.3425795436 0.8759754896 0.3395676017
-0.42590746 -0.01594306 2.598 -0.3278291821 0.8533678055 0.4053287804
0.0047223107 0.04297303 1.6160001 -0.4714222252 0.5693229437 0.6735224128
0.0047681895 -0.063575871 1.8130001 -0.3543621004 0.8405290842 0.4098027945
-0.09593714 -0.087549187 1.794 -0.3443303406 0.8989339471 0.270840168
0.045412213 0.024903469 1.6710001 -0.3855858445 0.7511267066 0.535847187
-0.14324032 -0.39391088 1.7760001 0.7671549916 0.1627845615 -0.6204630733
0.11249386 -0.3058427 2.0050001 0.5257979035 0.4576792419 -0.7169841528
0.095596366 0.074769273 1.6630001 -0.5392862558 -0.1142571196 0.8343354464
-0.025182249 -0.31393871 1.9150001 0.3733727932 0.1262938827 -0.9190443754
-0.19523945 -0.40475258 1.7318001 0.6178522706 0.2134607732 -0.7567648888
-0.16555674 -0.10639226 1.7760001 -0.1987020075 0.9128782749 0.3566100597
