# .PCD v0.7 - Point Cloud Data file format
VERSION 0.7
FIELDS x y z normal_x normal_y normal_z
SIZE 4 4 4 4 4 4
TYPE F F F F F F
COUNT 1 1 1 1 1 1
WIDTH 512
HEIGHT 1
VIEWPOINT 0 0 0 1 0 0 0
POINTS 512
DATA ascii
-0.12715349 0.13662237 1.5430001 0.4980258644 -0.622831285 0.6033667922
-0.41750199 -0.31636795 2.9580002 0.9213148952 0.1645620018 0.3522758186
0.41803586 0.088549472 2.3490002 0.6698601842 0.7281849384 0.1450311542
0.4712469 -0.49829733 1.6240001 0.2428409308 0.2106385678 0.9469211698
-0.081170566 -0.3471337 1.9700001 0.9301938415 0.2077049464 0.3026517332
-0.47544789 0.023452587 2.4320002 0.1507658362 -0.864394784 -0.4796783626
0.27421343 0.37601724 1.8730001 0.2502117157 -0.9054560661 0.3428460658
-0.36014956 0.28846103 1.9470001 -0.5629895329 -0.8228111267 -0.07761902362
0.28632107 -0.085709944 1.475 -0.5363326669 0.310393095 0.7848588228
-0.28733012 -0.21802437 1.6470001 -0.05531549826 -0.8223151565 0.566337347
0.19331114 -0.08772102 1.853 0.2603417635 0.5446875095 0.7972061634
-0.042914588 0.48093933 1.6880001 -0.2864513695 0.2155133188 -0.9335414171
0.13619076 -0.4944537 1.7390002 0.0959802717 0.07440927625 0.9925981164
-0.047872137 0.23605916 1.8830001 -0.7539031506 -0.2999514937 -0.5845161676
-0.1682183 0.23626167 2.1560001 0.04128817096 -0.9754609466 -0.2162666619
-0.0655545 -0.062505454 1.739 -0.3229193985 0.7161843777 0.6187107563
0.3551552 -0.25275213 1.688 -0.01578003354 -0.1107523441 0.9937227368
0.14152731 0.13218117 1.5230001 -0.778932035 0.09363129735 0.6200791001
0.18805026 0.28391901 2.1030002 0.3421784043 -0.933655858 -0.1058332175
-0.49314252 -0.18522915 2.7440002 0.9206578135 0.166423291 0.353118211
-0.3004021 0.012813359 1.6240001 0.4451522231 0.1741161197 0.8783638477
0.27467722 0.036819998 1.6800001 -0.5705819726 -0.1263720095 0.8114593625
0.10502028 -0.29567251 1.8430002 0.1946259439 0.08867175877 0.9768613577
-0.11186618 -0.33866334 1.748 -0.1666269302 0.7807288766 0.6022440195
-0.20357779 -0.18257372 1.8430001 -0.1618139893 0.7587586641 0.6309528351
0.32640404 -0.45512676 1.748 -0.237389639 0.4689159095 0.8507432342
-0.00168846 -0.15702678 1.9260001 -0.5022469163 0.5853403807 0.6364940405
0.13807938 0.24529396 1.853 0.1205383539 0.5825017691 0.8038421273
0.086015902 0.018952657 1.6630001 -0.06362047791 0.8717977405 0.4857171178
0.006239587 -0.48307544 1.8730001 0.7160716057 0.2294513583 0.6592370868
-0.21790075 0.21955152 1.8830001 0.07138889283 0.577796936 0.8130524755
0.20723873 -0.33488575 1.7130002 0.6715863347 -0.2883250117 0.6825250983
-0.033539511 0.31862536 1.7390001 0.08662834018 -0.704721868 -0.7041751742
0.38115275 -0.088188283 1.705 0.5665456653 0.2529169619 0.7842569947
0.13823912 -0.014511289 1.452 0.6789221764 -0.07175605744 0.7306953669
-0.00168846 0.38328043 1.9260001 0.8080268502 0.2348260581 -0.5403233767
-0.22075431 -0.088602066 1.7130001 -0.3581568301 0.6324368715 0.6868386269
-0.13885961 0.26717293 2.0050001 0.02351082303 -0.9707883 0.2387829274
-0.14421937 0.0053834347 1.6159999 -0.2584656775 0.8825303316 0.3928558528
0.24444273 -0.20396179 1.7760001 0.6752836108 -0.07510206848 0.7337245345
0.0012948366 0.16703393 1.4770001 0.1187572703 -0.3893962502 0.9133823514
0.46230355 -0.35181826 1.6848001 -0.6405195594 -0.5212677717 0.5639278293
0.055628881 -0.082648627 1.8130001 0.0341011323 0.7721710801 0.6344990134
-0.015188252 0.056607239 1.5750002 -0.2837035656 0.8818585277 0.3766135573
-0.29494923 0.25042859 2.1160002 0.07093577832 -0.9115281701 -0.4050735235
-0.23221147 -0.33334374 1.6799999 -0.2879124284 0.5259546638 0.80029881
0.36382368 -0.12265268 1.572 -0.7691143155 0.06545563787 0.6357505322
-0.0081661502 -0.35441089 1.863 -0.2239335328 -0.2512404621 0.9416644573
0.33642173 -0.37107459 1.647 0.1945318878 0.4666190743 0.8628000617
-0.11650374 -0.22118826 1.9260001 -0.1769335419 0.9110318422 0.3724452853
0.16309254 -0.026488859 1.748 -0.1757222414 0.8032777309 0.5690927505
0.11170164 -0.17112912 1.883 0.6616040468 -0.3738720715 0.6499998569
-0.085631929 -0.13410282 1.8430002 -0.265846014 0.639757216 0.7211356163
0.076051705 -0.39622003 1.7850001 0.6260102391 -0.3592373729 0.6921413541
0.29260853 -0.041801218 1.766 0.1107960567 -0.4896439016 0.8648543954
0.052342258 0.27184206 1.9260001 0.01109878346 -0.9935387969 0.1129492596
-0.34689963 -0.042048439 1.7130001 0.8579114676 0.3456585109 0.3801422119
-0.22187732 0.08130908 1.572 0.6368054152 -0.1589515954 0.7544622421
-0.29262695 -0.12988254 1.7850001 0.2231663465 0.9290782213 0.294975251
-0.25705269 0.15687774 2.1560001 -0.02333601937 -0.9416802526 -0.335698843
0.22603437 -0.44426304 1.705 0.115345113 0.3728580177 0.9206912518
0.21170448 -0.11446812 1.404 -0.9033132792 0.1477987319 0.4027166069
-0.015780877 -0.26155967 1.9150002 0.2114356607 -0.6538532972 0.7264783978
-0.024784245 -0.0014578967 1.6630001 -0.1803229451 0.7667056322 0.6161543131
0.4699389 -0.4065454 1.572 0.9504358768 -0.155833289 0.2690495551
-0.30704725 0.32337955 1.863 -0.1694183052 -0.0666147843 0.9832903743
0.1451968 0.052636318 1.5860002 -0.0204723347 0.8606244922 0.5088284016
0.39186341 -0.45485458 1.6710001 0.8547639847 -0.05386001617 0.5162147284
0.31235984 -0.16368857 1.7130001 0.4849340618 0.1695172787 0.8579643369
0.22904932 0.28753 1.853 0.04122188315 0.6110262871 0.7905362844
-0.31896114 -0.30858842 2.9580002 0.9236453772 0.1505662054 0.352432996
-0.2090061 -0.37001821 1.766 -0.0643652305 0.9050037265 0.4205060899
-0.087898985 -0.39314818 1.8230001 -0.4793628454 0.6755535007 0.560213089
0.0349565 -0.025842089 1.7336668 -0.1690960079 0.790415287 0.5887700915
0.19136231 -0.2830897 1.8040001 0.7697359324 -0.5780817866 0.270791471
-0.03076311 0.38820115 1.6710001 -0.06315008551 -0.5514828563 -0.8317924738
0.053204898 -0.49605748 1.785 0.7455024123 0.1734358221 0.6435418725
-0.15258208 -0.10743024 1.7760001 -0.4357293546 0.6921604872 0.5753726959
0.26093808 -0.25350395 1.6960001 0.7607904673 -0.3555434048 0.5429427028
0.05420763 0.09319441 1.5230001 0.08891347051 0.8663498759 0.4914593995
-0.14422219 -0.040144321 1.6960001 -0.15679124 0.6818081141 0.714530766
-0.13682356 0.242589 1.9150001 0.02116771415 -0.8198111057 0.5722426772
0.15397686 -0.4039987 1.7390002 0.1943340003 -0.02919439971 0.9805008769
-0.22558649 -0.031610847 1.6390001 -0.1752623171 0.7293607593 0.6612987518
0.21195066 -0.026832309 1.404 -0.375934422 -0.3346734047 0.8640989661
-0.055561382 0.096570976 1.5089999 0.0310990829 0.6332128048 0.7733526826
-0.007946983 0.26860803 1.8130001 -0.009535382502 -0.8661624193 -0.4996716678
0.1741998 -0.1741998 1.8230002 0.4986991882 -0.0970557034 0.8613241315
0.28541899 -0.13932775 1.5430001 -0.1821409166 0.8868257999 0.4246936142
0.22799413 0.34227404 1.9360002 0.6862342954 -0.721622467 0.09134273976
0.16220231 0.067550384 1.4723333 0.9431427717 -0.06303910911 0.3263553679
-0.17813516 -0.28380856 1.7220001 -0.9705091715 -0.1648381799 0.1758986264
-0.11435627 0.054451004 1.5529166 -0.1012968197 0.7813056111 0.6158738136
0.056951337 -0.23688453 1.8830001 0.4866634011 -0.2618705928 0.8334161639
-0.27821717 0.28508675 1.9590001 -0.2941408753 -0.9441685081 0.1484149992
0.1976147 -0.097507246 1.483 0.2002411932 0.8431634307 0.4989778697
0.13506629 -0.33435711 1.7760001 0.5509707928 -0.6359134316 0.540412128
0.083420306 0.16231023 1.4752501 -0.196138829 -0.5273480415 0.8267003894
0.21640341 0.034168959 1.6240001 -0.4224528074 0.5947522521 0.6839615703
-0.023270741 -0.097375624 1.804 -0.2389217466 0.7646964788 0.5984610915
-0.29391742 0.24465752 1.8730003 0.2603809536 0.3786216378 0.8881708384
0.25415006 -0.49751797 1.7570001 -0.08568549901 0.6319952011 0.7702207565
0.24220195 -0.12739193 1.794 0.5424396396 -0.4656177759 0.6992562413
0.063159451 0.060352366 1.6010002 0.05940128118 0.9193214774 0.3889980614
-0.24345383 -0.28047022 1.6240001 0.1509021074 0.4653682113 0.8721588254
0.32999837 -0.032555893 1.6880001 -0.7011158466 -0.3400723934 0.6267274618
0.27540308 -0.32521001 1.671 0.4707036912 -0.258214891 0.8436605334
0.42425957 -0.39504179 1.6338668 0.5997371078 -0.2798619568 0.7496617436
-0.29157934 -0.062689558 1.6630001 0.05280476436 0.7581471205 0.6499420404
0.41491741 -0.29711932 1.6630001 0.4306519628 -0.07747585326 0.899186492
0.067009114 -0.36591038 1.8529999 0.6061038375 -0.4546618164 0.6526260376
0.13442807 -0.066423282 1.804 -0.1063969731 0.8671607971 0.4865304232
0.041049916 -0.12314975 1.8730001 -0.2182813734 0.8240024447 0.5228510499
-0.21463807 -0.14657666 1.7760001 -0.1004514173 0.7596747875 0.642498076
0.29448283 -0.42470643 1.6880001 -0.262236923 0.692160964 0.6724172831
-0.075084746 0.028806098 1.6160001 -0.2893576622 0.8861301541 0.3620020747
-0.075908639 -0.2758128 1.959 0.6005042195 -0.4900731146 0.6318409443
-0.061759412 -0.32715797 1.904 0.8398367167 -0.1524260044 0.52099967
-0.20095567 0.20095567 2.1030002 0.08379345387 -0.9792942405 -0.1842862368
-0.13555808 -0.1910879 1.863 -0.2219705731 0.7939792275 0.5659735203
0.33395556 -0.29525045 1.6349168 -0.03398265317 -0.3988107145 0.9164034128
-0.064755857 -0.18485861 1.8940001 -0.3203741312 0.7296878695 0.6040828228
-0.031197937 -0.42363513 1.8730001 0.5409952402 0.2602943182 0.7997318506
0.1390402 -0.23492999 1.8230001 0.446290791 0.2242894322 0.866324842
0.04457061 -0.30539119 1.8830003 0.4620769322 -0.01099126227 0.8867717385
0.032637075 -0.42557448 1.8430001 0.8667168617 -0.3174489439 0.3847441673
0.3677792 -0.035245508 1.748 0.1288147122 -0.9410354495 0.3128242493
0.12575871 -0.10670435 1.863 -0.06795071065 0.7157911658 0.6950004697
0.1516984 0.0132552 1.6800001 -0.1509802192 0.8904355168 0.4293361306
-0.06809333 0.16288993 1.5230001 0.4126013219 -0.5735860467 0.7076433897
0.37439278 -0.18793629 1.6880001 0.2471045703 -0.09001487494 0.9647987485
-0.28532869 -0.10812455 1.7130002 0.08782790601 0.8156564236 0.5718311667
-0.24053805 0.018075114 1.5860001 0.2442343831 0.4612587392 0.8529888391
0.16388144 -0.07130719 1.427 0.3624950349 0.7156016827 0.5970858932
0.25829756 -0.01952249 1.7130001 -0.26106143 0.8556979299 0.4467974901
0.3212063 0.017704284 1.7310001 -0.7990430593 0.4511850476 0.3974446654
-0.14302728 -0.38401419 1.7850001 -0.351226896 0.6306712627 0.6920212507
-0.034920264 -0.21581869 1.959 -0.1550659686 0.4905785024 0.8574889302
0.10416377 -0.01358658 1.7220001 0.06834927201 0.8399169445 0.5383938551
-0.085454546 -0.016208397 1.6806668 -0.1404467225 0.8063102365 0.5745767951
0.22373235 -0.26357508 1.748 0.6255875826 -0.772790134 0.1069373414
0.025458399 -0.21554779 1.936 0.4185605645 -0.4286216497 0.800681293
-0.02449845 -0.13882455 1.863 -0.2587822378 0.8387472034 0.479098022
-0.18625923 -0.29888108 1.6470001 0.2839410901 0.7302927375 0.6213291883
0.37211344 -0.4904424 1.7760001 0.1981557906 0.1845855862 0.9626330733
-0.17413054 0.034277666 1.5640001 0.08750541508 0.7508940101 0.654599905
0.24476534 -0.38488472 1.6853333 0.5241797566 0.09941162169 0.8457853794
0.35424784 -0.41104707 1.705 0.1239444017 0.8332663774 0.5387995243
0.065849937 -0.16378063 1.9260004 0.3904947639 0.3008914292 0.8700449467
-0.17101312 0.091566078 1.536 0.5177194476 -0.1803797185 0.8363191485
0.40860382 -0.49687362 1.6240001 0.6293179989 -0.05900612846 0.7749046087
0.10232015 -0.44514769 1.7570001 0.6310146451 0.04342649505 0.774554491
0.39435378 -0.35538715 1.6710002 0.2878253758 -0.001085171825 0.9576823115
0.11715072 0.076753922 1.5359999 -0.06173561141 0.8701446652 0.4889140427
0.025001306 0.026150789 1.6390002 -0.1291887909 0.8152348995 0.5645372868
0.011555343 0.25256678 1.8830001 0.9144778252 -0.2109626085 -0.3452898562
-0.36030826 0.32377928 1.8940001 0.6742787361 0.2880932093 0.6799635887
-0.15417148 -0.16052906 1.8130001 -0.3331190944 0.7004874349 0.6311489344
0.27736127 0.32260075 1.8430001 -0.3744321167 0.3533658385 0.8572824597
-0.084927961 -0.099082619 1.794 -0.08010112494 0.8173728585 0.5705132484
0.24999641 -0.064069428 1.4330001 -0.3449661136 0.6054620147 0.7172266841
0.48263657 -0.43992534 1.6240001 -0.5366695523 -0.227414012 0.812569201
0.25049523 -0.12983784 1.4960001 -0.2243027389 0.6149958968 0.7559552193
-0.17870587 -0.34239444 1.7130001 -0.134427771 0.7413175702 0.65755409
0.19477712 -0.48604065 1.7358001 0.1676718593 0.454295665 0.8749294877
0.17405164 0.29555941 1.8730001 0.4411304891 -0.1052602977 0.8912486434
0.085839689 0.24926527 1.8830001 0.2979709208 0.8768976927 0.3771786392
0.085632801 -0.048265759 1.7760001 -0.03286480531 0.7677358985 0.6399230361
-0.0054186769 -0.053412668 1.766 -0.2808973193 0.7767689228 0.5636725426
-0.1682227 0.24335127 1.863 -0.4799545407 0.5683731437 0.6682780981
0.0049836747 0.11200152 1.4960001 -0.09484983236 0.732673645 0.673938334
0.19768833 -0.22457394 1.8040001 0.6796371937 0.1455452144 0.7189643979
0.29317158 -0.21408223 1.7350001 0.8079276085 -0.3088670373 0.5018506646
0.26694641 -0.15538672 1.7479999 0.8277484775 -0.06006481498 0.5578750968
0.32607794 -0.083029099 1.7220001 0.7687652707 0.1464857459 0.6225286722
0.23682274 0.3024044 2.0780001 0.7029547691 -0.7060434222 -0.08577431738
0.18165936 0.024809958 1.439 0.2727502882 -0.5465318561 0.7917765975
0.32242185 -0.10446149 1.516 -0.7192636132 0.1741935462 0.6725447178
0.097901747 0.1083446 1.4890001 -0.07993111759 0.6647639275 0.742765069
0.30903816 -0.24810106 1.6550001 -0.147176668 -0.6352606416 0.7581444383
0.17929237 -0.29882059 1.748 0.7953481078 -0.3577740788 0.4893046916
-0.12538974 -0.073612049 1.7372223 -0.1815281808 0.7939377427 0.580267489
0.23763716 -0.0043736901 1.6630001 -0.2863506079 0.7557677627 0.5889129043
0.3746877 -0.47613415 1.7220001 0.9845460057 0.1197597459 0.1277762353
-0.077669159 0.25495747 1.9260001 0.20785366 -0.7066522241 0.6763427258
-0.034539789 -0.024778545 1.7130001 -0.09873597324 0.8995914459 0.4254249632
0.0977927 -0.21670341 1.853 0.6237999797 -0.3561075628 0.6957448721
0.42763901 -0.44585362 1.6160001 0.2146055102 -0.07955701649 0.9734552503
-0.062572084 0.3769342 1.7129999 -0.6859549284 -0.518462956 -0.5105506778
-0.012390222 0.43762264 1.6960001 0.5879827142 0.2640401721 -0.7645646334
0.15995397 -0.30213529 1.8430001 0.2764213681 -0.5141038895 0.8119657636
0.048754938 -0.44351268 1.794 0.8558343053 -0.03504607454 0.5160614848
-0.19529328 -0.04742416 1.6800001 -0.3741278648 0.7651929855 0.5239351392
-0.01485687 -0.30539119 1.8830003 -0.115715839 -0.2941143215 0.9487394691
0.10119159 -0.35231626 1.8130001 0.665193975 -0.733140707 0.1414979398
-0.051999047 -0.37554866 1.8830001 0.6648468375 -0.09453011304 0.7409741879
0.23355189 0.34461153 1.863 0.6360122561 -0.6268898845 0.4499972165
0.024564901 -0.0026636641 1.6880001 -0.2162305564 0.8229368329 0.5253754258
-0.33180344 0.278979 1.8830001 0.6287238598 0.3148691356 0.7110300064
0.19612595 -0.38564423 1.7130001 0.508405447 0.0529063493 0.8594909906
-0.024203012 0.034168962 1.6240002 -0.09757140279 0.8035971522 0.5871213078
0.13470322 0.031524163 1.6346251 0.2213736326 0.9280974269 0.2993808687
-0.19484355 0.0026105882 1.6055715 -0.1027492732 0.8227227926 0.5590794086
-0.04403672 0.30039334 1.794 -0.3441206813 -0.7316919565 -0.5883942842
-0.24849731 -0.13263352 1.7390001 -0.09887832403 0.8468100429 0.5226240158
-0.089107029 0.2638267 1.9930001 0.02636133507 -0.9705829024 0.2393196523
-0.17522949 -0.084786013 1.7353637 -0.4694729447 0.5833125114 0.6628285646
-0.27262667 -0.3076162 1.6630001 -0.08536148071 0.7092129588 0.6998074055
-0.11403048 0.09560132 1.5160002 0.2078786641 0.3549387753 0.9114850163
-0.13710672 0.20442858 1.8730001 0.05261166394 -0.2791848183 0.958795011
0.036959391 -0.48368594 1.8330001 0.8658125997 0.3716678917 0.3350097239
-0.062597506 0.42387763 1.6866666 -0.7599082589 0.001999071566 -0.6500272155
0.36769241 -0.31202582 1.6710001 -0.7215148211 -0.4049321711 0.5616460443
-0.065496713 0.053895038 1.564 -0.147794649 0.8422382474 0.518451035
0.17341146 -0.13442434 1.8529999 0.4059225023 -0.612428844 0.6783493161
0.27315181 -0.45980552 1.7310001 -0.3358617127 0.7491167784 0.5709824562
0.2346705 -0.29445919 1.705 0.4883954227 -0.06419917196 0.870257616
0.16525833 -0.35582373 1.7390001 0.4211859107 -0.2656348646 0.8672026992
-0.16249894 -0.018861484 1.6550001 -0.4056511223 0.8334461451 0.3752527535
-0.18807568 0.26717293 2.0050001 0.0003941401956 -0.9998347163 0.01817786694
0.39406079 -0.40578008 1.6710001 0.8191851974 -0.1017148495 0.5644375086
0.0045783045 0.08375603 1.536 -0.2349606901 0.8004699945 0.5513993502
-0.0179366 0.35574257 1.705 0.07452735305 -0.8243897557 -0.5610946417
0.30642918 -0.49851912 1.7390001 0.0509170182 -0.368622303 0.9281837344
0.28872579 -0.3743279 1.6550001 0.2385038882 0.3390913904 0.9100180864
0.11640292 -0.37473384 1.7570001 0.6639366746 -0.2574297488 0.7020812035
0.044024445 0.134663 1.4769999 0.07731824368 0.4959428012 0.8649061322
0.47142226 -0.38557905 1.6320001 -0.07790500671 -0.7812252641 0.6193689704
-0.03510261 0.13521005 1.4829999 0.3007639349 0.031136645 0.9531902075
0.17763196 -0.44332504 1.7220001 0.5912184119 0.0962652415 0.8007457852
-0.011751717 -0.46838984 1.9150001 0.7447168827 0.3548230231 0.5652409792
-0.082897604 -0.22969542 1.9700001 0.03253049031 0.7068992853 0.7065657973
0.01446237 -0.10284352 1.8330001 -0.2739576697 0.7542902231 0.5966518521
0.4020744 -0.2474304 1.6800001 0.3508780897 0.2411223352 0.9048450589
-0.072603777 -0.37314966 1.9260001 0.883630693 0.008018559776 0.468115896
-0.31717011 -0.025508368 1.6470002 0.4580262601 0.4147839546 0.7862354517
0.3318271 -0.2062709 1.705 0.6484530568 0.3446907401 0.6787465811
-0.24522594 -0.061233234 1.6710001 -0.1354374141 0.7154836655 0.6853756905
0.024629951 -0.38627973 1.8730001 0.2945783734 -0.02566661127 0.9552825689
-0.24926527 0.25421757 1.8830001 0.1623779088 0.02021657676 0.9865215421
-0.06491366 0.45439562 1.7220001 -0.797108233 0.3168631196 -0.5140197277
-0.092982769 0.22498511 1.8940001 -0.3746461868 0.2447556257 0.8942790031
-0.2829985 -0.26422819 1.6470001 0.7514086366 -0.1832501739 0.6338804364
0.075073354 0.069613472 1.557 0.1480828524 0.9018817544 0.4058087766
0.13410282 -0.1858051 1.8430002 0.5460794568 -0.3716559112 0.7507789731
-0.17359403 0.21699253 1.904 -0.4543580115 0.4416235089 0.7736455798
0.24330354 -0.097724788 1.464 -0.02432131767 0.7108006477 0.7029728889
0.16692561 -0.025732601 1.4127778 0.6869952679 -0.3539173603 0.6346495748
0.085155137 -0.13544174 1.8940001 0.1035980657 0.5170023441 0.8496917486
-0.040392417 0.25689578 1.8430001 -0.3246769309 -0.8079723716 -0.4916965663
-0.27412593 -0.024894528 1.6320002 0.06330538541 0.6043791771 0.794177711
0.094439797 -0.49387366 1.7659999 0.4854121208 -0.000797764922 0.8742851019
0.29308715 -0.0044184001 1.6800002 -0.408852756 0.2670826316 0.872643292
0.045319282 0.18645647 1.4770001 -0.009028018452 -0.7409060001 0.6715480685
0.21440713 -0.16651006 1.804 0.7087134719 -0.2918657064 0.6422924995
0.074718297 -0.1942676 1.8940002 0.6329935789 -0.4732857049 0.6126335263
-0.12344313 -0.12768154 1.8130001 -0.4898050427 0.6498090625 0.5812394023
0.076349773 -0.10396565 1.853 -0.2234469205 0.8780404329 0.4232215881
-0.16105944 -0.21087165 1.8940001 -0.1536309868 0.858720839 0.4888722003
0.39494604 -0.12554568 1.6847999 0.6766212583 -0.01791115291 0.7361133695
0.37355959 -0.49474019 1.6816002 0.8502201438 -0.3681831956 0.3762537539
0.35165557 -0.33457103 1.6240001 -0.3315527439 0.02676084824 0.9430570602
-0.24690177 -0.23823854 1.6470001 0.2981663346 -0.7155702114 0.6317088604
0.33411607 -0.13842596 1.5430001 -0.4714245796 0.6451372504 0.601295948
0.17739613 -0.059132043 1.8230001 -0.2921486497 0.8050870299 0.5162208676
-0.10546528 0.006034798 1.6390002 -0.2117724568 0.8951479793 0.3922531903
-0.32111949 -0.084349357 1.6880001 0.05909078568 0.7066481709 0.7050933838
0.1890365 0.26658994 1.8430001 0.1360675693 0.1057222709 0.9850423336
0.21157913 -0.12266233 1.8330001 0.6128669977 -0.6081565619 0.5045192242
0.20519698 -0.08308959 1.4360001 0.06141711026 0.8003067374 0.5964369774
0.026184281 0.070284121 1.572 -0.170961529 0.9255574942 0.3378098607
0.25795624 -0.23650245 1.748 0.7319625616 -0.5806440711 0.3564874828
-0.15477374 -0.35245508 1.748 -0.3620373309 0.6426175833 0.6752566695
0.43091235 -0.33805582 1.6550001 -0.3760125339 -0.173540324 0.9102188349
0.024906099 -0.26400465 1.8940002 0.3499800265 -0.2818582654 0.8933475614
0.015815066 -0.068004787 1.8040001 -0.06787537038 0.7887122035 0.6110040545
0.12476457 -0.044668797 1.7570001 -0.001414571074 0.8787129521 0.477348417
0.067262247 0.0014947166 1.705 -0.05035324767 0.8185094595 0.5722821355
0.28608784 -0.28476885 1.655 0.5129053593 -0.1270168871 0.8489963412
-0.27808392 0.037729979 1.5940001 0.5639850497 0.1355995387 0.8145757318
-0.0077409665 0.29725313 1.766 -0.2898490429 -0.7817335725 -0.5521595478
-0.093347467 -0.32417029 1.9360001 0.8968029022 0.1543033868 0.41465047
0.10749248 0.048347291 1.6063334 0.2850776017 0.9101207852 0.3006840944
-0.10542144 -0.043550171 1.7130001 -0.27474612 0.7195000052 0.6378356218
0.31496987 -0.33456537 1.647 0.4471332729 0.1953344494 0.8728781343
0.053804833 -0.39261547 1.8230001 0.7555687428 -0.606082499 0.2485554814
0.10559011 -0.33951283 1.853 0.4266230166 -0.2197835296 0.8773186207
-0.11478698 0.026151467 1.594 -0.1830018908 0.8534824848 0.4879323542
0.073495351 -0.27601588 1.863 0.5878711343 -0.1556569934 0.7938377857
0.23226844 -0.24523434 1.785 0.6167192459 -0.2413945943 0.7492569685
-0.0080784829 -0.45724216 1.8430001 0.6614255309 -0.04009456187 0.7489383817
-0.19538271 -0.12182686 1.748 -0.2848129272 0.6769812703 0.6786589026
-0.16425927 -0.3122406 1.6880001 -0.8799674511 0.04958374798 0.4724391103
-0.092161335 0.13184804 1.5090002 0.433011055 -0.3125159442 0.8454793096
-0.067538396 -0.2110575 1.9260001 -0.2636188865 0.8237202764 0.5019860268
-0.10562737 -0.36617491 1.7850001 -0.1354192197 0.6179348826 0.7744792104
0.13264756 -0.32602531 1.8230001 0.7461609244 -0.59542346 0.2978501618
-0.027578181 -0.19192161 1.9260001 -0.4292953908 0.7212883234 0.5435518622
-0.19452532 -0.17238423 1.8040001 -0.2243544608 0.8137353063 0.5361901522
-0.054493602 -0.076810025 1.7760001 -0.2442704886 0.7919438481 0.5596041679
-0.035010561 0.072714239 1.5360001 -0.1244159713 0.8150063753 0.5659375191
-0.055935714 -0.11400232 1.8230001 -0.2140871435 0.8201014996 0.5306601524
0.045151841 -0.055012587 1.7760001 -0.02405550331 0.8363314271 0.5476961732
-0.30545872 0.30212036 1.904 -0.9572547078 0.2392065376 0.1626152098
0.16199222 -0.30982977 1.794 0.5401338339 -0.8214808106 0.1828242093
0.32169327 -0.044871747 1.735 0.9384092689 -0.040875379 0.3430994153
-0.048965339 -0.28197283 1.9260001 0.6113267541 -0.359922111 0.7047947645
0.042919844 -0.3516126 1.8830001 0.2376824766 -0.2359892875 0.9422399402
-0.11730589 -0.16229993 1.8330001 -0.496960789 0.4519047439 0.7408185005
-0.12451734 -0.014942083 1.6710001 -0.1134803891 0.8690596819 0.4815158248
0.10744382 -0.25447223 1.8430001 0.2952744067 -0.1431816369 0.9446226954
0.15389509 -0.08603584 1.8430002 -0.1143914238 0.788341701 0.6045096517
0.15213235 0.080696292 1.5090001 0.8138335943 0.5739475489 0.09087972343
0.15099268 -0.27178684 1.8130001 0.2416443229 0.09896402806 0.9653052092
-0.062086411 0.00721935 1.6470001 -0.07804282755 0.79405725 0.6028120518
0.10308153 -0.082305409 1.8230001 -0.1540496498 0.87834692 0.4525211751
0.32548881 -0.39912879 1.6799999 -0.03106578439 0.7462783456 0.6649087071
0.36022672 -0.052315082 1.705 -0.5030709505 -0.5883171558 0.6330896616
0.29409498 -0.22329545 1.6824001 0.003621287411 -0.8882012367 0.4594404101
-0.085787088 0.068361588 1.529 -0.08774855733 0.761263907 0.6424776316
-0.29779229 0.28363761 1.863 -0.08393570036 -0.2727341652 0.9584210515
0.16430925 -0.048510354 1.7850002 -0.1858189851 0.8547310829 0.4846710861
-0.0081223166 -0.39636904 1.853 -0.02669990622 0.02491095662 0.9993330836
0.23677014 -0.34627631 1.6880001 0.5094364285 -0.2060234249 0.8354812264
0.068552352 -0.32586735 1.853 0.4397549629 -0.03099539131 0.8975827694
0.23943257 0.31977907 1.8330001 -0.009078646079 0.1060515568 0.9943192005
0.13567118 -0.45539099 1.7350003 0.2600240409 0.06392925978 0.963483572
-0.0074735833 0.47531992 1.705 0.4207000434 0.1711977422 -0.8909000158
-0.14946815 0.056555517 1.536 0.01142817363 0.5491595268 0.8356394172
-0.093593806 -0.16912566 1.8730001 -0.3697354198 0.6253252029 0.6872147322
0.14218131 0.28274691 1.8430001 -0.4815045893 0.1949108839 0.8544958234
0.14416608 -0.0060069198 1.7130001 -0.3370302916 0.7745754123 0.5352041721
0.011493976 -0.43841311 1.8730001 0.5372127891 0.1969806701 0.8201225996
-0.10526979 -0.20223753 1.8940001 -0.3083215058 0.7802550197 0.5441874266
-0.024906099 -0.16216637 1.8940001 -0.3980921805 0.7204604149 0.5678551197
-0.00171739 -0.19578245 1.9590001 -0.1199107692 0.4016698599 0.9079001546
0.3650519 -0.45747009 1.7570001 0.3792118132 0.6282700896 0.6793196201
0.13773574 -0.14535747 1.863 0.7232035995 -0.4398109913 0.5324873924
0.45192516 -0.41509116 1.6160001 0.289579004 -0.2666178346 0.9192708731
0.11453755 0.0068071419 1.6880001 -0.06657027453 0.8319582343 0.5508301854
-0.0080784829 0.2358917 1.8430001 0.3702226281 -0.7261561751 -0.5793378949
0.035052639 -0.14521807 1.9039999 0.005360336974 0.860940516 0.508677423
0.25600773 -0.42618623 1.6880001 0.1892047822 0.4972447157 0.8467285633
-0.33253458 -0.051271848 1.6710001 0.7690813541 0.3387766182 0.5419818163
0.016080346 0.048241038 1.609 -0.1159596369 0.7905143499 0.6013655066
-0.17588915 -0.14490512 1.7850001 -0.4236268699 0.646638453 0.6343492866
-0.2124514 -0.35509735 1.7310001 0.05950892344 0.8371420503 0.5437387824
0.29327363 -0.017762726 1.7363334 -0.1526626945 0.7883537412 0.5959802866
0.23521405 -0.47700396 1.7310001 -0.2796784043 0.7373570204 0.6148858666
-0.19410953 0.10596696 1.5640001 0.5450858474 -0.301484853 0.7822968364
0.10559011 0.26478752 1.853 0.05350084975 0.8463678956 0.5299047232
0.24407978 0.36362904 1.8940001 0.5777218938 -0.8016386032 0.1536652446
0.1954993 0.30407411 1.8430001 0.3113431931 -0.1630476564 0.9362055659
-0.24988419 0.21721959 1.863 -0.0009716950008 -0.3174465895 0.9482756853
-0.25424737 -0.092480615 1.6960001 -0.1589726359 0.7501907349 0.6418267488
0.3429541 -0.49558249 1.7479999 -0.08697755635 -0.3752856255 0.922819376
0.11738829 -0.41314581 1.7390001 0.4708351791 -0.1398457289 0.8710668087
-0.24468316 -0.0078930054 1.6160001 0.1072991267 0.7070921659 0.6989331245
0.064818256 0.034817293 1.6364547 -0.02739443257 0.8036853075 0.5944235921
-0.17056865 -0.19980898 1.853 -0.426097244 0.7443499565 0.514183104
-0.045259375 -0.24609786 1.936 0.5853325725 -0.5556617975 0.5904453993
-0.0016244634 0.27128538 1.853 0.854581356 -0.3464471996 -0.3868656158
-0.10837353 -0.091343403 1.766 -0.1822648048 0.8034564257 0.5667780042
-0.23649397 -0.30323461 1.6550001 -0.1128527969 0.7517345548 0.6497379541
-0.21746734 0.044375461 1.572 0.4373064339 0.3626541197 0.8229489923
0.24472579 -0.16546237 1.7760003 0.4288412631 -0.2131406218 0.8778759837
0.33286157 0.01393374 1.766 -0.3235008717 0.4542383254 0.8300691247
-0.28349647 -0.12514709 1.748 0.244629547 0.884205699 0.3979153931
-0.00151751 -0.028832689 1.7310001 -0.1793206632 0.835136652 0.519991219
-0.043785408 0.043785408 1.594 -0.2141048908 0.9153193831 0.3411004543
0.33887726 -0.078430109 1.6880001 0.2687281668 -0.1548473537 0.9506878853
0.07775069 -0.032014988 1.7390001 -0.04643475264 0.8259357214 0.5618487
0.16365233 -0.10563511 1.8730001 0.2444684207 0.5081527233 0.8258426189
-0.28228667 -0.23221147 1.6799999 0.1138319969 -0.6947646737 0.7101720572
0.1741998 -0.244519 1.8230002 0.4182249606 0.09051974118 0.9038219452
0.073177114 -0.46319562 1.7760001 0.4889656901 -0.122487776 0.8636603951
0.33823204 -0.27262667 1.6630001 -0.6108568311 -0.6274956465 0.4828075171
-0.17570241 -0.05642214 1.7130002 -0.4141516089 0.6433796883 0.643848598
0.45631507 -0.46618897 1.6090001 0.3642694652 -0.05717410147 0.9295369387
0.37765381 -0.22295931 1.6710001 0.4679213166 0.05504594371 0.8820542097
-0.054185886 -0.15598966 1.8730003 -0.2939442098 0.6522442102 0.698694706
0.22976469 -0.2597993 1.7130001 0.6362422109 -0.4046012759 0.6568818092
0.01485687 -0.32520038 1.8830003 -0.001192660769 -0.2385410219 0.9711316824
0.44251943 -0.372877 1.6550001 0.03081506863 -0.6990077496 0.7144498229
0.0049522901 -0.13701336 1.883 -0.3380028009 0.8403418064 0.4237684906
0.295086 -0.11541141 1.4960002 -0.1959896684 0.7913892865 0.5790432096
0.30796248 -0.4392994 1.7220001 -0.269590199 0.7814871669 0.5626712441
0.36183277 -0.39113095 1.6710001 -0.1813211888 0.6625940204 0.7266992331
-0.25253135 0.062084783 1.594 0.5435360074 -0.1371056587 0.8281127214
-0.034666032 -0.33510494 1.8830003 0.3300178051 -0.1665990353 0.9291571379
0.38444403 -0.28537723 1.6866666 0.2392212152 -0.1550228298 0.9585098624
0.37367916 -0.44542557 1.705 0.9394461513 0.1294782609 0.3172953725
0.10489258 0.063026197 1.5743333 0.1550450176 0.9064083099 0.3929185271
-0.034632541 -0.046278883 1.7479999 -0.2472613901 0.7662822008 0.5930205584
0.40717134 -0.43460488 1.6470002 0.7949509621 -0.009837011807 0.6065939665
-0.19504444 0.065470487 1.5558333 0.4676168561 0.1063391939 0.8775115013
-0.1637964 0.12148233 1.557 0.4906237125 -0.5458868742 0.6791876554
0.26658994 0.36030036 1.8430001 0.1029135212 -0.6602870822 0.7439286113
0.11006112 0.13854752 1.4770001 -0.4245668948 0.2777269185 0.8617486358
-0.19388272 -0.018043028 1.6334002 -0.2324628085 0.787861526 0.570293963
0.14854679 0.01510409 1.4360001 0.4746259451 -0.1694203913 0.8637285233
-0.042700678 0.26727462 1.8040001 -0.2053381801 -0.7281911373 -0.6538913846
0.24208887 0.031283852 1.647 -0.5947855711 0.1261333674 0.7939272523
0.021824617 0.26021659 1.9150001 0.2673733234 -0.9589406848 -0.09457416087
0.3532511 -0.10416378 1.7220001 0.3280646801 0.5496638417 0.7682728767
0.3559632 -0.43495947 1.7327778 0.3033667207 0.6939576864 0.6529864669
0.26817232 -0.1946165 1.748 0.5826255679 -0.0119990306 0.8126521111
0.14391598 0.067184098 1.5550001 0.02174778283 0.8953909278 0.4447494745
0.26278958 -0.2838296 1.6800002 0.7380268574 -0.1552834064 0.6566607952
0.28951216 -0.48613268 1.766 -0.09567016363 0.02949114516 0.9949761033
0.1336989 -0.27628413 1.8430002 0.3598818183 0.05961017311 0.9310916662
-0.34787798 0.31684661 1.863 0.3812917471 0.05944036692 0.9225418568
-0.11671519 -0.39442775 1.8040001 -0.3169910312 0.4311992526 0.8447389603
0.20964256 -0.41185099 1.6960001 0.4764625132 0.07476639003 0.8760099411
0.19404496 -0.004505055 1.4223847 0.05118243769 -0.6207309961 0.7823511958
-0.024103951 -0.12051975 1.8330001 -0.09744136035 0.7111371756 0.6962679625
0.025458397 -0.17481436 1.936 -0.03212988377 0.4642727077 0.8851093054
-0.0016972268 -0.23591451 1.9360002 0.02153890766 -0.5474912524 0.8365341425
0.15350784 0.100992 1.536 -0.1246315241 0.5086116195 0.8519279361
0.3931894 -0.48459497 1.6550001 0.7689195871 -0.2625836432 0.5829343796
0.12302876 0.097893856 1.5089999 -0.3723174334 0.6851225495 0.6260885
0.41164759 -0.32622522 1.6800001 0.505605042 -0.2445550412 0.8273792267
-0.14476572 0.11125514 1.529 0.500860393 -0.3877365887 0.7738211751
-0.1966188 -0.31591558 1.6800001 -0.001030396321 0.6890544891 0.7247087955
0.19816875 -0.27557841 1.766 0.583552599 -0.8035069108 0.1176563203
0.37107459 -0.35374814 1.6470001 -0.7003407478 0.2712008953 0.6602824926
-0.052733473 0.34485415 1.7310001 -0.1260257363 -0.5595084429 -0.8191872835
0.061640188 0.11147694 1.4960001 0.1443421543 0.7365483046 0.6608039737
0.16461082 -0.20616306 1.8230002 0.3122888207 -0.3160023391 0.8958896399
0.32407913 -0.23677012 1.6880001 -0.3421153426 -0.6957526207 0.6315736771
0.33690417 -0.17807086 1.6880001 0.4380477369 -0.2328266054 0.8682775497
0.34268373 -0.17360631 1.7220001 0.5591777563 -0.02900435776 0.8285402656
-0.14534694 0.028377261 1.5790001 -0.1712376028 0.8247342706 0.538972199
-0.21075505 -0.33481652 1.705 -0.140159145 0.8163625002 0.5602746606
0.19547585 -0.054439351 1.41125 -0.006178673357 0.623667419 0.7816653848
0.054201674 0.01611401 1.6710001 -0.07269503921 0.8933388591 0.4434649348
-0.065767527 -0.03138905 1.705 -0.1850608587 0.8582733274 0.4786641598
0.083294734 -0.24465787 1.8630002 0.6958795786 -0.1821469218 0.6946755648
0.07740967 -0.42575315 1.7659999 0.4750599861 -0.2432969958 0.8456503749
-0.039552569 0.44093791 1.6710001 0.04574966803 0.3872406483 -0.920842886
0.031897515 -0.24007078 1.9150001 0.6190754771 -0.6222247481 0.4791471064
-0.20252052 0.24008481 1.863 0.1618384868 0.4854524434 0.8591532111
0.21438444 -0.19560625 1.7850001 0.4776555598 -0.1294465512 0.8689584136
0.30043805 0.014947167 1.705 -0.8607741594 0.1318918318 0.4916018248
-0.02754136 0.16393666 1.4960001 0.4187351167 -0.4155333936 0.8074607849
0.0043736901 0.012635104 1.6630001 -0.1965261996 0.8383200765 0.5085241795
0.085937001 0.087149836 1.5251819 0.1195892692 0.8719325066 0.4747968912
-0.28530163 -0.084263645 1.6862222 0.0928696692 0.6207123399 0.7785187364
0.10218076 -0.40407848 1.7659999 0.6622021794 -0.3143238723 0.6802123189
0.026352599 0.18842109 1.503 0.1322205812 -0.7479766011 0.650421977
0.16488057 -0.47425702 1.7377695 0.2295486778 0.1982668787 0.9528890848
-0.045804083 -0.012808684 1.6853334 -0.0956062004 0.8769281507 0.4710164666
-0.0073990668 -0.011838507 1.6880001 -0.2754098773 0.8205401301 0.5008625388
0.11610369 -0.13261132 1.883 0.3356101215 0.3041308522 0.8915549517
-0.064787768 0.14242819 1.4960001 0.5182442665 -0.4330871403 0.7374675274
-0.27223742 0.0098738968 1.6090001 0.3871725798 0.366329819 0.846108675
0.055719178 -0.1941729 1.9260004 0.6311662197 -0.4135741293 0.6561902165
-0.30550081 0.30210632 1.9360001 0.06159766391 -0.9967469573 -0.05197301134
0.26012716 0.29567248 1.8430001 -0.2747293413 0.3047466874 0.9119502306
0.078310005 -0.37237206 1.8230001 0.6507849097 -0.7441315055 0.1508222222
0.2748166 -0.22776239 1.7129999 0.5757666826 -0.8109999299 0.1037877202
0.097542316 -0.36669651 1.7850002 0.6654860377 -0.566326797 0.4862122238
0.28740346 -0.054837253 1.7376667 -0.3307451904 -0.6366653442 0.6966095567
0.08846619 -0.16524816 1.9039999 0.7094452381 -0.1102291718 0.6960868835
-0.08481399 0.031979047 1.5860001 -0.1988786608 0.8891069293 0.4122330844
0.16441813 -0.32419169 1.766 0.5872260332 -0.5703809857 0.5743092299
0.27654245 -0.40512899 1.6710002 0.2235621661 0.2996973395 0.9274704456
-0.10246392 -0.25181812 1.9810001 -0.01158452965 0.002533681924 0.9999296665
0.014943659 -0.29389197 1.8940002 0.07902730256 -0.2488661259 0.9653084278
0.20854321 -0.30472755 1.7220001 0.7423585057 -0.2042301297 0.6381174922
-0.14815211 -0.13305381 1.794 -0.452049613 0.4809933305 0.7511967421
0.10474448 -0.065740526 1.794 -0.1242492795 0.8337500095 0.5379804969
0.29135665 -0.18568325 1.7220001 0.6715574861 0.2195861191 0.7076669335
0.21856351 -0.37021983 1.6960001 0.5289264917 -0.04455355182 0.847497344
0.26514873 -0.35450819 1.6710001 0.5466125011 0.0690830946 0.834531188
0.21601242 -0.11120166 1.4580001 -0.02829335816 0.7950692177 0.6058584452
0.12450437 0.024784243 1.6630001 0.1289948523 0.8944933414 0.428067714
0.026246523 -0.45476118 1.8330001 0.9231237173 -0.04131538421 0.3822769523
-0.21139501 -0.28720564 1.6630001 -0.07123999298 0.5718144774 0.8172839284
-0.024918372 0.10448231 1.4960002 0.02942964248 0.6455304623 0.7631673217
0.16649847 0.26567507 1.8730001 -0.01433179993 -0.4227354825 0.906139791
-0.18468912 -0.28810775 1.6853334 -0.8840020895 -0.2737764716 0.3789284825
0.20401436 -0.25462258 1.804 0.749019742 -0.1342248917 0.6488090158
0.26588115 0.0065920949 1.6710001 -0.228717044 0.4921390414 0.839933157
-0.25498742 -0.043604873 1.6470001 -0.05948248878 0.7264060378 0.6846868396
-0.021585286 -0.44830981 1.8940001 0.6427002549 0.4868882 0.5915034413
0.43707797 -0.48548397 1.6240003 0.2088864595 0.07473423332 0.9750801325
0.28444239 -0.34508491 1.6470002 0.2046013027 -0.01740396954 0.9786906838
0.024586994 0.096354432 1.516 0.01441479567 0.8855316639 0.4643553793
0.10473916 0.037303045 1.6366668 0.07658921182 0.8912956119 0.4469073713
0.11390939 -0.47555891 1.748 0.426681459 -0.02200706676 0.9041341543
0.15587221 -0.14944449 1.8330001 0.3773365617 -0.5665291548 0.7325720787
-0.1719415 -0.1767623 1.8330001 -0.310554415 0.6979117393 0.6453488469
-0.2240864 -0.11562469 1.7321428 -0.3217547238 0.7148768306 0.6208260655
0.18210119 -0.4127627 1.7310001 0.5849645734 -0.02332598157 0.8107233644
0.04321989 -0.10461636 1.8430002 -0.112570934 0.8206715584 0.5602017641
-0.041510165 -0.29555237 1.8940001 0.6459646225 -0.4718065858 0.600106895
-0.096654788 -0.063725069 1.7390001 -0.1865307838 0.7658855915 0.6153255701
0.13540672 -0.025868582 1.7354445 -0.2190771997 0.7269071341 0.6508542299
-0.16521433 -0.37576866 1.7659999 -0.2006894648 0.6724068522 0.7124554515
-0.017980726 0.41452861 1.6630001 0.07826277614 0.1525153667 -0.9851974249
0.30754432 -0.30465657 1.647 0.5365236402 -0.0195886679 0.8436579108
0.28419253 -0.25489432 1.6710002 0.5619130731 -0.04705261439 0.8258569837
-0.16461451 0.0092228847 1.5940001 -0.1632786393 0.8251703382 0.5407716036
0.27472892 -0.44273505 1.7050002 -0.1767084897 0.752816081 0.634067893
0.20573701 -0.47004148 1.7130001 0.3049960434 0.3666985333 0.8789252639
-0.024599968 -0.078159384 1.7760003 -0.2667130232 0.7516810894 0.6031912565
0.27510855 -0.13157363 1.5160002 -0.251676321 0.7985232472 0.5468268991
0.19497593 -0.14543284 1.8230001 0.4868691266 -0.502307117 0.7145950198
0.074791394 0.13410458 1.4708749 -0.003657602007 0.38675493 0.9221752882
-0.14582929 -0.05827133 1.7220001 -0.04604338109 0.7367423177 0.6746041179
0.19231699 -0.19549578 1.8130001 0.649440527 -0.1574915797 0.7439243197
