# .PCD v0.7 - Point Cloud Data file format
VERSION 0.7
FIELDS x y z normal_x normal_y normal_z
SIZE 4 4 4 4 4 4
TYPE F F F F F F
COUNT 1 1 1 1 1 1
WIDTH 512
HEIGHT 1
VIEWPOINT 0 0 0 1 0 0 0
POINTS 512
DATA ascii
0.30534479 -0.03169746 1.2052002 0.09535643458 0.8264045119 0.5549439192
-0.49470034 -0.49261305 2.3810003 0.1182384044 0.9233236909 0.3653669357
0.446812 -0.41655385 2.3010001 -0.04073517397 0.9335574508 0.356105566
-0.23996997 0.054186765 1.766 0.9916676283 -0.03835289553 0.1229813471
0.036069728 -0.49464324 1.3925456 0.1360776126 -0.4798683226 0.866723299
0.35952362 0.2266876 1.6470001 0.6672419906 0.2877366245 0.687019527
-0.15181062 -0.083108 1.2640001 0.2554578781 0.810413599 0.5272296071
0.44299194 -0.46307987 1.2060001 0.5063338876 -0.1808532029 0.843159616
-0.078671187 -0.36108059 2.3010001 0.121022746 0.9238702059 0.3630665839
0.26155701 0.36603871 1.2953334 0.6295893192 -0.2541425228 0.7341858745
-0.17839816 0.24770392 1.4640001 0.6476463079 -0.3368364573 0.6834437847
0.27259132 -0.27372381 1.4210004 0.3054490685 -0.1524699032 0.9399222136
-0.0038187597 -0.22785266 1.452 -0.09809318185 0.8620783687 0.4971906841
0.054944791 0.053286724 1.1326667 0.1768876314 0.4335124791 0.8836162686
0.1703451 -0.34670237 2.286 0.121022746 0.9238702059 0.3630665839
0.41711798 0.093691118 1.4640001 -0.3431489468 -0.7041367888 0.621643126
0.26166898 -0.49360955 1.3430002 0.2780676782 -0.4153137803 0.8661367297
0.10574441 -0.092099972 1.2970001 -0.05834275112 0.7890796661 0.6115140319
-0.26985905 -0.089953013 1.9360001 0.8695477843 0.4201558828 0.259529829
0.4246363 -0.21120653 1.268 0.8340932727 0.150062263 0.5308198333
0.28717759 0.18224059 1.197 0.3732045293 -0.2396047413 0.896274507
-0.17485784 0.065576091 1.3851252 0.5964137316 -0.4476776123 0.6662397385
0.11555783 -0.34542471 1.4261428 0.02188092843 -0.5081947446 0.860964179
0.21552253 0.07734669 1.087 0.04855846986 0.5895517468 0.8062697053
0.29080874 -0.1283326 1.3430001 0.1524344087 0.7765072584 0.6113920212
0.35725984 -0.35791582 1.3055714 0.6181623936 -0.2458719611 0.7466071248
0.14450622 -0.18810724 1.4210001 -0.02030647546 0.68903476 0.7244437337
0.065655023 -0.4153544 2.365 0.121022746 0.9238702059 0.3630665839
-0.035092965 -0.13802481 1.3342501 -0.0792427212 0.7617408633 0.6430174708
-0.011793797 -0.039670043 1.223 -0.1381470561 0.7543524504 0.6417692304
0.16497123 -0.0124587 1.1952223 -0.006248482969 0.8144603968 0.580185473
0.42435753 0.16498983 1.5640001 0.03439201787 -0.807136178 0.5893626809
0.15574881 -0.45509177 1.3866253 0.1524095088 -0.2837964892 0.9466947317
0.25268552 -0.3830927 1.3809999 0.3370238841 -0.2440150231 0.9093247652
0.45497677 -0.35220677 1.2432855 0.4632032812 -0.3987664282 0.7914720774
0.3554064 -0.48541903 1.2775999 0.6059553623 -0.2395141423 0.7585849166
0.0088674836 -0.38256857 1.4450001 0.1864616722 -0.1905671209 0.9638029933
0.32408965 0.061016876 1.141 0.1515184492 -0.1698903441 0.973745048
0.40233213 -0.10908714 1.3380001 -0.2254044861 0.3260654509 0.9180817604
0.35409468 -0.23677723 1.3545001 0.6767853498 -0.2120401859 0.7049826384
0.21526541 -0.071426421 1.2752222 0.03317691758 0.8077886701 0.5885378122
-0.11018385 0.00104937 1.197 0.2116481066 0.41114223 0.8866606951
-0.10239846 -0.20438813 1.3850001 -0.5038228035 0.4325992167 0.7476767302
0.26486588 0.26420033 1.2651999 0.6662029624 -0.3345127404 0.6665394306
0.26501983 -0.31841937 2.256 -0.03449155763 0.8044186234 0.5930606723
0.064855799 -0.1477271 1.3700001 -0.06792291254 0.7577218413 0.6490331888
0.19110808 -0.12938373 1.3540001 0.06292955577 0.7711109519 0.6335832477
-0.16888545 0.15637541 1.427 0.3867728412 -0.3911954165 0.835088551
0.33441764 0.24705957 1.557 0.7024569511 0.2636369169 0.6610974669
-0.15521297 -0.014546118 1.3371176 0.3769254684 -0.4415437579 0.8142274022
0.18495037 -0.28755981 1.4450001 0.2467990518 -0.3893752694 0.8873990774
0.33520624 -0.083609924 1.2768461 0.1174509302 0.7866660953 0.6061037183
0.074371085 -0.017809832 1.1948668 0.004966857843 0.7999120951 0.6000965834
0.24512127 0.012355564 1.1553999 0.07767231762 0.8246733546 0.5602506995
-0.025316089 0.025311703 1.1628337 0.1438391507 0.4449522793 0.8839274645
0.073829889 -0.35543239 2.3010001 0.121022746 0.9238702059 0.3630665839
-0.12400039 -0.15400235 1.3162309 -0.4560009837 0.318838805 0.8309060931
0.042527098 -0.3002671 1.47 0.5186293125 -0.2613593042 0.8140730858
0.24598564 0.43362856 1.3490001 0.2440240979 -0.4128910899 0.8774811625
0.14806899 0.03849794 1.126 0.1177589893 0.7072356939 0.6971014738
0.075491518 -0.41807532 1.4040002 0.0941760093 -0.4096235037 0.9073805809
0.31273255 -0.42439225 1.3353078 0.5602653623 -0.2644747496 0.7849559784
0.40155154 -0.283757 1.302 0.6992371082 -0.307528615 0.645363152
0.39841175 -0.41485983 1.2561336 0.7394200563 -0.09089191258 0.6670807004
0.31902689 -0.31519762 1.365 0.6432311535 -0.3562751114 0.6777327657
0.024587782 -0.084138341 1.2865001 -0.08960545063 0.7776415348 0.6222897172
-0.064758971 -0.085409448 1.2652308 -0.1356876791 0.7887330055 0.5995740891
0.2277054 -0.18093348 1.404 0.09631779045 0.6667324901 0.7390471697
-0.20871679 0.26527232 1.536 0.8012652397 -0.3497719467 0.4854210615
0.065017328 -0.20255668 1.42625 -0.08371520787 0.6713514924 0.7363958955
-0.0051253438 -0.1788989 1.3920001 -0.1828544289 0.7505481839 0.6350131035
0.37357309 -0.064324759 1.21275 0.4971832335 0.7036798 0.5075860023
0.37577879 -0.43671587 2.3170002 0.02058936656 0.9784784913 0.205319047
0.40371335 -0.18414487 1.3348184 0.624827683 -0.2217373401 0.7486139536
0.27321792 0.11416532 1.169 0.4352232814 -0.4502376318 0.7796581388
0.18566012 -0.36627644 1.4111538 0.2524047196 -0.407019496 0.877853632
0.13206545 -0.051298149 1.245 -0.07852731645 0.787573874 0.6111962795
0.23617311 -0.030991042 1.2190001 0.04606150463 0.8175741434 0.573978126
0.38987646 0.26969948 1.5940001 0.6751109362 0.3016537428 0.6732237339
0.2240946 -0.44446439 1.3736001 0.4894373119 -0.2766424417 0.8269945979
0.36731631 0.16514997 1.6240001 0.4748447239 -0.6861840487 0.5510662198
0.32436472 -0.0047677341 1.1467394 0.235442698 0.7860642076 0.5715503097
0.10512423 -0.49433896 1.3728695 0.08599366993 -0.2128280848 0.9732981324
0.12582272 -0.12938373 1.3540001 -0.1106865555 0.7519191504 0.6498969793
0.2341058 -0.32485968 1.4039999 0.4798122942 -0.3855297267 0.7881287932
0.27100572 0.045653295 1.108 0.01645403169 0.7902269363 0.6125933528
0.27478209 -0.087813467 1.2947272 0.1564773321 0.7729139328 0.614913702
0.064031728 -0.05202578 1.245 0.0007786641363 0.8327519894 0.5536456108
-0.15284283 -0.037287459 1.223 0.07421376556 0.5604342818 0.8248670697
0.43193367 0.12094142 1.516 -0.2021283209 -0.7508081198 0.6288332939
0.13398145 -0.40483835 1.4122224 0.1496692002 -0.3352506161 0.9301645756
0.19538796 -0.49561816 1.3589998 0.3092159629 -0.5477195978 0.7774244547
-0.074881069 -0.043401718 1.2173333 0.003018268384 0.6347506642 0.7727111578
-0.050859816 -0.21212265 1.4150001 0.003743588924 0.7018480897 0.7123168111
0.45455885 -0.40503907 1.2147146 0.3560790718 -0.2201672494 0.908148706
0.39519551 -0.49514478 1.2340955 0.7115033865 -0.1079329178 0.6943438649
0.443425 0.18700352 1.6160001 0.4450170994 -0.7595821619 0.4743361175
0.16468008 -0.091491133 1.3045001 0.04895624518 0.7895489335 0.6117318273
0.02546153 -0.44464263 1.4218572 0.07368504256 -0.3503769934 0.9337058067
0.40329334 -0.34414545 1.273 0.6209480762 -0.2920669019 0.727406621
0.1037681 0.017575704 1.1566666 -0.0650773868 0.74928087 0.6590470672
0.35495767 -0.4147566 1.295864 0.6523752213 -0.2394933254 0.7190615535
0.025732143 -0.12515928 1.3342501 -0.0650466606 0.7762167454 0.6271016598
0.34420913 -0.12400801 1.322 0.02724754252 0.7666723728 0.6414600611
0.0061539295 -0.26461899 1.4960002 0.5881528854 0.2736544907 0.7610449195
0.44446933 -0.29384208 1.2664443 0.5907601714 -0.2686711848 0.7608010769
0.055492233 -0.34556633 1.4386249 0.2159811556 -0.2454732955 0.9450370073
0.025233638 0.0027685808 1.1730002 0.1011046469 0.6941149235 0.7127287984
0.20416731 0.036492534 1.125077 0.03992898762 0.7663330436 0.6412014961
0.31320527 -0.48482272 1.314353 0.6057841778 -0.2859553099 0.7424655557
0.31484255 -0.24772497 1.3920001 0.62786448 -0.1497368366 0.7637833953
0.23511426 -0.11271963 1.3255001 -0.02315667458 0.7731933594 0.6337473989
0.30375588 -0.37464005 1.3566666 0.5732832551 -0.2371743023 0.7842797041
-0.083241686 -0.16173317 1.3565001 -0.584243238 0.4607749879 0.6680915356
0.35767016 -0.30589196 1.3258183 0.7627212405 -0.2030048668 0.6140401363
0.28455722 -0.057156716 1.2511111 0.1158090457 0.828379333 0.5480656624
0.25669268 0.31239724 1.2880001 0.4838191569 -0.3476928771 0.803136766
0.28185624 0.22725007 1.2262002 0.6355419755 -0.3910686374 0.6656964421
-0.19380206 0.19698437 1.4519999 0.07420385629 -0.5530568361 0.8298324347
-0.10533676 -0.10986737 1.2920001 -0.01097756252 0.7274795175 0.6860415936
0.24451548 -0.14758684 1.3649999 0.02427702956 0.7360580564 0.6764829755
0.18528876 -0.040091719 1.2360001 0.05924481153 0.8168702722 0.5737708807
-0.024960836 -0.10438464 1.2941875 -0.1368814409 0.7544566989 0.6419178247
0.10888989 0.071612269 1.1190001 0.1468981802 0.4573871791 0.8770506978
0.16215527 0.081077635 1.1010001 0.2784756422 0.4652714431 0.8402224779
0.38170418 -0.098540843 1.2920001 -0.1866907775 0.8096238971 0.5564671755
0.40233532 -0.23394796 1.312 0.6151447892 -0.3002839088 0.7289900184
0.18521076 -0.41452616 1.3959131 0.1290815771 -0.3423305452 0.930670619
0.16088149 -0.33316401 1.4450001 0.4269499183 -0.3309337199 0.8415442109
0.10494751 -0.16840415 1.3920001 -0.02764564753 0.7161741853 0.6973738074
-0.15346323 -0.11385795 1.3031112 0.3339769542 0.3864004016 0.8597407341
0.26766708 -0.44506061 1.3490001 0.4253330529 -0.3138506413 0.848875463
0.074790195 -0.11685967 1.3330001 -0.06666764617 0.7763695121 0.6267421842
0.1656826 -0.16256192 1.3852857 0.06686722487 0.729267776 0.6809532046
-0.015672872 -0.072183505 1.2590001 -0.2202705294 0.7457394004 0.6287714839
-0.1841789 0.10605738 1.4100001 0.5635173321 -0.2650946677 0.7824148536
-0.055089638 -0.0052046292 1.1856396 0.1257706583 0.5081976652 0.8520075679
-0.10587065 -0.07094425 1.245 0.03378904238 0.7433341146 0.6680663824
0.27844951 -0.32951882 1.3870001 0.4116738141 -0.4744080305 0.7781141996
0.19495986 0.011567324 1.1643333 0.06711804867 0.8357118368 0.5450513363
-0.1548807 0.032167532 1.3590001 0.4304555357 -0.4122172892 0.8029850125
0.075136848 -0.46337295 1.3920001 0.2948182225 -0.2482307255 0.92274791
0.27785373 0.075233951 1.1442001 0.4025001526 -0.2738188803 0.8735083342
0.26626423 -0.012392462 1.189 0.1283562481 0.8110771179 0.5706825852
0.03513791 -0.033013571 1.2145998 0.01269332413 0.8056597114 0.5922425985
0.33438522 -0.051944952 1.2344 0.3620291352 0.8017635942 0.475510329
0.35380185 -0.034036145 1.1852499 0.2204349786 0.7569546103 0.6151651144
0.22768259 -0.27522072 1.427 0.4458190501 -0.3058109879 0.8412639499
0.015353382 0.043124106 1.1537273 0.2693640292 0.417599231 0.8677867651
0.284509 -0.16102 1.381 0.06554351002 0.6917396784 0.7191663384
-0.065310791 -0.12116871 1.307 -0.06342858076 0.7955083251 0.6026137471
0.24720128 0.39156374 1.3280001 0.3840898573 -0.4102716148 0.8271349072
0.28607911 0.021005809 1.141 0.1276128441 0.5952915549 0.7933114171
0.084491879 -0.37578449 1.4220001 0.1476490498 -0.3259889185 0.9337724447
0.41802534 -0.37764171 1.245 0.6145136952 -0.2850016952 0.7356268764
0.43528256 -0.25536191 1.2844819 0.4605421126 -0.2769339085 0.8433318138
0.33526143 -0.27503005 1.3649999 0.7364795804 -0.2858408988 0.6131009459
0.38288778 -0.45424983 1.2640001 0.68213588 -0.2242653817 0.6959853768
0.090377316 -0.32204875 1.452 0.0864123106 -0.4495069087 0.8890874386
0.10606452 -0.2133853 1.433 -0.01427213103 0.6807488203 0.7323778272
0.11479983 -0.44455454 1.3931252 0.04900044575 -0.3286610842 0.9431759119
0.12236601 -0.0094127702 1.1930001 -0.09316112101 0.7826443315 0.6154583097
-0.045884345 -0.17377405 1.3733335 -0.0352569446 0.7648395896 0.6432552338
-0.19541252 0.27147913 1.4960001 0.7413075566 -0.3806754649 0.5527651906
0.14554107 0.013400475 1.1632859 -0.0005766788381 0.7997462153 0.6003379822
0.38302281 -0.38414869 1.2845627 0.6680986881 -0.256942302 0.6983013749
0.013641809 -0.15245321 1.365 -0.1323881149 0.7433955073 0.6556191444
0.044890158 -0.39593908 1.4225001 0.4261186123 -0.2968224287 0.8545872569
0.15519467 -0.49446604 1.3723481 0.1572854072 -0.4905302227 0.8571122289
-0.23325206 0.085373305 1.7390001 0.9917521477 -0.04113208875 0.1213913932
0.3419368 -0.45444822 1.302 0.6788761616 -0.1426863521 0.7202553153
-0.20195244 0.15657705 1.4580001 0.7771300077 -0.2095903605 0.5934145451
0.06523627 -0.077608667 1.2830001 0.01025484782 0.8036267757 0.5950452685
0.19459336 -0.32431638 1.422875 0.2376299053 -0.4108990729 0.8801670074
0.043964833 -0.17463289 1.3930001 -0.1436693668 0.6844220161 0.7147905827
0.18574378 -0.18574816 1.4125003 0.03343068436 0.656876862 0.7532563806
0.41279641 -0.45427042 1.2320002 0.6537122726 -0.1621859521 0.7391589284
0.16514681 -0.062376231 1.2659999 -0.03658354655 0.7725241184 0.6339307427
0.22505154 -0.0039827996 1.1868824 0.01396221388 0.8196265697 0.5727279782
0.32947236 -0.38768303 1.3280001 0.6659802794 -0.2617590427 0.6985359192
0.27902353 -0.40674058 1.3590001 0.5513315797 -0.1870249212 0.8130529523
0.014976535 -0.20591277 1.4235002 -0.02916990407 0.7758390307 0.6302562356
0.33592269 -0.3452996 1.337 0.680503428 -0.1716949493 0.7123453617
0.064376481 0.011959268 1.1610001 0.06480507553 0.6857230067 0.7249718904
-0.016156528 -0.012768868 1.189 -0.05527793989 0.6521817446 0.756044507
0.20500791 -0.15779153 1.381 0.06963995844 0.7274821401 0.6825833321
0.24528575 -0.055003203 1.2547001 0.05982739106 0.8145676851 0.5769750476
0.31463096 -0.10411739 1.3050771 0.07861879468 0.7750579119 0.6269803047
0.09508317 -0.038536415 1.2247778 -0.09080772102 0.8143850565 0.5731761456
0.38289493 -0.32466942 1.3023125 0.5838028193 -0.2328432947 0.777790606
0.025369165 -0.056060646 1.2503573 -0.06414502114 0.7901589274 0.6095361114
0.37511802 -0.26480201 1.3238949 0.5915385485 -0.2827117443 0.7550868988
-0.1144588 -0.034865223 1.2166315 0.124780491 0.5550147295 0.8224284053
0.29383701 -0.29465234 1.3940002 0.6219157577 -0.3171872199 0.7159700394
0.26923749 0.14247762 1.1950001 0.503841579 -0.4464631677 0.7394689322
0.13443859 -0.10778266 1.322 -0.01247669477 0.78559798 0.618611455
0.21537623 -0.38547254 1.3959002 0.3352768421 -0.3899789155 0.857616365
0.20525736 -0.093925387 1.3047777 0.03651295602 0.7889131308 0.6134189963
0.38772133 -0.14328122 1.3470001 0.151135385 0.2742339671 0.9497125149
0.024485299 -0.33377329 1.47 0.4233026206 -0.5185521245 0.7429122329
0.10524973 -0.065896645 1.2661818 -0.05650964752 0.8129170537 0.5796313882
0.30166098 0.10357203 1.1470001 0.4413459599 -0.4349331558 0.784886539
0.23493965 0.051667225 1.1120001 0.1029107422 0.7071126699 0.6995720863
-0.20151499 0.22751692 1.483 0.6794695854 -0.3434591889 0.6483493447
0.13492952 -0.30931956 1.452 0.01762781106 -0.2728598714 0.9618923068
0.29413092 -0.0021619573 1.1672221 0.1852232814 0.8259093761 0.5325092077
0.22561431 -0.47656253 1.3575715 0.3583172262 -0.3730838001 0.8558138013
0.14472003 -0.36553687 1.4230999 -0.02710909769 -0.3619179428 0.9318156838
-0.095052704 -0.13520205 1.3245715 -0.2512813509 0.689688921 0.6791074276
0.42415234 -0.42075792 1.2320002 0.5403210521 -0.2694394886 0.797154665
0.056144364 -0.1019765 1.307 -0.08262725174 0.7772915363 0.6236911416
-0.045500617 -0.054155611 1.2335385 -0.1221582741 0.7569313049 0.6419753432
0.14795855 -0.028948409 1.223 -0.06633862108 0.8120840192 0.579757452
0.19735521 -0.02079278 1.2060002 0.06146457791 0.8075889945 0.5865339637
0.13497159 -0.078733429 1.2830001 -0.05027110875 0.7948351502 0.6047395468
0.40893871 -0.31034526 1.2780001 0.5971574783 -0.269726485 0.7554141879
0.29488134 -0.46459809 1.3356315 0.567835629 -0.2953878641 0.7683154941
0.0046007466 -0.10926773 1.312 -0.1721063852 0.7758537531 0.6069846153
0.18818176 -0.45959777 1.376 0.2683606446 -0.3411228657 0.9008982778
0.24473579 -0.41489258 1.3709477 0.3964213133 -0.3502599597 0.8486272097
0.29514912 0.1404008 1.169 0.5270507336 -0.4222792387 0.7374942303
0.27562338 -0.03742715 1.2247144 0.1738290191 0.8056169152 0.5663610697
0.27003613 -0.10778266 1.322 0.1322036386 0.7738856077 0.6193732619
0.069308393 -0.49974996 1.3870001 0.3839081526 -0.2577273846 0.8866742253
0.43523791 -0.32487583 1.2558802 0.4914686382 -0.2682363987 0.8285576701
-0.04546218 -0.03066054 1.2060001 0.0458647795 0.709303081 0.7034099102
0.4178246 0.18585509 1.5940002 0.3888114095 -0.7673565745 0.5098917484
0.094226182 0.044326928 1.1324348 0.07121156156 0.5449780822 0.8354207277
0.16440178 -0.1165812 1.3334546 0.01013292372 0.7874050736 0.6163526773
0.24926701 -0.34897381 1.3870001 0.3923130631 -0.3391976655 0.8550060987
0.25626087 -0.29687864 1.4040002 0.2103390992 -0.416239053 0.8845916986
0.18544187 0.055787887 1.1059089 0.07382103056 0.6845850945 0.7251852751
0.24218881 -0.092099972 1.2970001 -0.04114347324 0.7598278522 0.6488211751
0.42301798 -0.20722084 1.3220001 0.6398207545 -0.3280208707 0.6950048208
-0.26539856 -0.085127838 1.904 0.8732438684 0.4137549102 0.2573947906
0.3145369 -0.14556992 1.3573335 0.2116268575 0.7256106138 0.6547544003
0.075081237 -0.18093348 1.404 -0.03393765911 0.7348086238 0.6774249077
-0.071429923 -0.21307909 1.381 -0.572101891 0.6481810808 0.5025541782
-0.094283164 -0.19213758 1.3556668 -0.5022684932 0.5462324619 0.670340538
0.25376782 -0.17119984 1.3850001 0.1057460383 0.6729362607 0.7321028709
0.094453596 -0.13643615 1.35525 -0.002186993835 0.7539032698 0.6569818258
0.36091754 -0.076156907 1.2590001 0.1231216788 0.8555371761 0.5028888583
0.025335668 -0.35469931 1.4449998 0.2228410691 -0.3686212897 0.902474463
0.13510485 -0.15078667 1.376 -0.09923086315 0.7502709627 0.6536411047
0.41499397 0.10248383 1.4960002 -0.3431489468 -0.7041367888 0.621643126
0.25300774 0.031105887 1.13 0.03590517864 0.7810899615 0.6233853102
0.21551929 -0.047209959 1.2426667 -0.0004365930217 0.8052334785 0.5929576755
0.41798326 0.14203314 1.5430001 0.5376170874 -0.6416137218 0.5470828414
0.21483363 -0.41442671 1.382895 0.3844291866 -0.3067749143 0.8706912994
0.024499107 -0.46546984 1.3972501 -0.09681287408 -0.3517286479 0.9310823083
0.2743268 0.29445711 1.2654285 0.6086257696 -0.4242056608 0.6705402136
-0.082069151 0.01142735 1.1850001 0.2031711936 0.4011007249 0.8932186961
0.21416613 -0.35448191 1.4039999 0.3120263815 -0.2139243335 0.9256759286
-0.015291989 -0.20377335 1.4144444 -0.2359917611 0.7374651432 0.6328136325
0.27895051 -0.36630946 1.3745 0.4208619893 -0.3266791999 0.8462599516
0.018686149 -0.4135868 1.4210001 0.371058017 -0.3016436398 0.8782522678
0.30428898 -0.077522755 1.2748181 0.1115160063 0.7806921601 0.6148853302
0.11607379 -0.37586644 1.4150001 0.06838560104 -0.2335508764 0.9699367881
0.031669583 -0.22168708 1.4450001 -0.0423996672 0.842128098 0.5376082063
-0.11366247 -0.090874389 1.268 0.02878462337 0.7868247628 0.6165049076
0.41843805 -0.48287797 1.217 0.4813838601 -0.03898233175 0.8756425977
0.062373079 -0.22021516 1.452 -0.03346645087 0.7953317761 0.6052498221
0.016832877 -0.24213445 1.4770001 0.3977523744 0.664141953 0.6330153942
0.30487981 -0.3445023 1.3649999 0.6248055696 -0.3460985124 0.6998812556
0.12602724 -0.47360116 1.3833078 -0.2710570097 -0.4217458665 0.8652505279
0.42767897 -0.2256725 1.29575 0.7232300043 -0.06468050182 0.6875716448
0.32313275 0.024128059 1.135 0.1507650912 0.3134642839 0.9375553131
-0.13869569 -0.061762918 1.2360001 0.04721781984 0.696885407 0.7156264782
0.015524138 -0.01612578 1.1956669 0.02932949364 0.7697373629 0.6376866102
0.17471431 0.024665965 1.1448337 0.06477916986 0.8081085086 0.5854607224
0.15626146 -0.42527625 1.3980001 0.2716185749 -0.2584125102 0.9270632863
0.1041743 -0.40811813 1.3980001 0.08742623031 -0.3602814078 0.9287378192
-0.065593183 -0.14290467 1.3361251 -0.0988676548 0.7675288916 0.633343935
0.3764891 -0.42504564 1.2762501 0.5988693237 -0.2359873652 0.7652878165
0.37546909 -0.22750574 1.3342501 0.6691600084 -0.3360525668 0.6627922654
0.32612294 -0.025340751 1.1750002 0.4320918918 0.7832717299 0.4469697773
-0.15986192 0.091523997 1.3920001 0.5864084959 -0.3018605411 0.751668334
0.44767407 -0.37694454 1.2265557 0.5017485023 -0.2430558354 0.8301640153
0.28195757 0.25409216 1.2418001 0.6277632117 -0.3743464053 0.6824793816
0.37747338 -0.49695143 1.2589999 0.6520063877 -0.2595210075 0.7124159932
0.41640788 -0.14896846 1.3380001 0.4933944046 0.06220332161 0.8675786257
0.19442363 -0.11060026 1.3280001 0.0136350356 0.7597266436 0.6500995755
0.016664382 -0.29507738 1.4854 0.4474272132 -0.2619208694 0.8551060557
-0.075229391 -0.066509485 1.2436665 -0.04781067371 0.7509551048 0.6586201787
0.25127721 0.070012353 1.0940001 0.1047322229 0.6004468203 0.7927766442
0.37573233 -0.11529519 1.3245715 -0.3931085467 0.6415117979 0.6587323546
0.25988784 0.18563417 1.21 0.4612374902 -0.3427297175 0.8184108734
-0.024773868 -0.15598647 1.3565001 -0.1847121716 0.752641499 0.6319906116
-0.18681657 0.075471133 1.4112501 0.5916338563 -0.3079735935 0.7450648546
0.10517369 -0.11685966 1.3330001 -0.03181263804 0.7813390493 0.623295486
0.05117454 -0.45562643 1.4100001 0.5053045154 -0.1194322035 0.8546363711
-0.0035388528 -0.13666971 1.3455715 -0.2255261838 0.734354794 0.6402038932
0.24997097 0.33900174 1.302 0.5126045942 -0.3452921808 0.7861360312
0.25569314 -0.072321318 1.277 0.05904302746 0.8117707968 0.580983758
0.46059102 -0.44242385 1.2190001 0.4542313218 -0.3187425137 0.8319117427
0.16493258 -0.39386883 1.4039999 0.2230024934 -0.3520113528 0.9090422988
-0.086708471 -0.016867505 1.2025 0.1147981063 0.5373910666 0.835483253
0.22531767 -0.13196228 1.348 0.05663600937 0.7412487268 0.668836832
0.2123085 -0.30024692 1.4330001 0.3656217456 -0.373909384 0.8523570299
0.2554878 -0.12597787 1.3430002 -0.0006295474013 0.7301331758 0.6833045483
0.18446119 -0.077608667 1.2830001 -0.002281180117 0.7694756985 0.6386719942
0.15514289 -0.13453963 1.3560835 0.05144407228 0.7832785249 0.6195387244
-0.13480066 -0.0158589 1.2060001 0.1542034 0.475592494 0.8660445213
0.28540528 -0.49510342 1.3253599 0.521358192 -0.3424675465 0.7816019654
0.11450302 -0.18724008 1.4127272 -0.08476887643 0.709541142 0.6995466948
-0.1055682 -0.17125508 1.3380001 -0.6123540401 0.2852753401 0.7373198271
0.34641719 -0.10195428 1.2970001 0.1555173993 0.7485254407 0.6446114779
0.1348138 -0.17035562 1.3980001 -0.0762488246 0.7315459847 0.6775150299
0.085342154 -0.34396493 1.4330003 0.1011570692 -0.3648191988 0.9255669713
0.33200952 -0.49448305 1.293923 0.591833055 -0.3128050268 0.7428907752
0.35523698 -0.26520053 1.3455003 0.6876401305 -0.3029627502 0.6598216891
0.045248762 -0.01238389 1.1881112 0.04836598411 0.7864826918 0.6157156229
-0.075103275 -0.10307395 1.2863334 -0.09154876322 0.7505596876 0.6544302702
0.29640868 -0.26686847 1.4040002 0.5510255098 -0.2115525007 0.8072276115
-0.15436785 0.07060235 1.365 0.4855928123 -0.4333975911 0.7591878176
0.13550286 0.067508593 1.1079999 0.2298427373 0.4677133262 0.8534732461
-0.053913463 0.022442447 1.177 0.1895692199 0.431309849 0.8820630908
-0.16959555 0.1846707 1.4330001 0.1932376772 -0.460801363 0.8662108779
-0.19059873 0.13827752 1.4210001 0.3057777286 -0.4498658776 0.8391189575
0.31827649 -0.44604886 1.317 0.5687894821 -0.1944188923 0.7991744876
0.044905495 -0.42449334 1.4150003 0.4102691114 -0.245107159 0.8784086704
0.34610978 -0.05406158 1.2044002 0.5197339654 0.7584348917 0.3932595849
-0.0039447076 -0.086590998 1.2855 -0.2390066236 0.7407183051 0.6278632283
-0.03557438 -0.087575495 1.2737142 -0.05206964165 0.77734375 0.6269174218
0.30605063 -0.048665516 1.2336 0.04054879025 0.818243742 0.5734395981
-0.13286293 -0.10124681 1.2880001 0.2506380379 0.7298099399 0.6360487938
-0.072817683 -0.18235631 1.373 -0.5591744184 0.4095795751 0.720811069
0.31450689 -0.12309316 1.326 0.1747026742 0.730292201 0.660418272
0.38273174 -0.35462761 1.2943077 0.6309975386 -0.109801814 0.7679750323
-0.061278999 -0.19241606 1.3980001 -0.2777193189 0.7319805026 0.6221547723
0.045291755 -0.32435718 1.454 0.5947311521 -0.442717284 0.6710411906
0.18772852 0.079093739 1.087 0.1335583478 0.5180712342 0.8448457718
-0.17122614 0.0059008431 1.3470001 0.3769254684 -0.4415437579 0.8142274022
0.095347784 -0.0023406199 1.1740911 -0.09207932651 0.7655725479 0.6367260814
0.42178625 -0.28456512 1.2830001 0.510630846 -0.202728048 0.835558176
0.054794881 -0.13284802 1.3490001 -0.09282824397 0.7676253915 0.6341404915
0.31538156 -0.27528983 1.3858004 0.6362890601 -0.3223596215 0.7008712888
-0.034354229 -0.18779427 1.3940002 -0.03507020324 0.8056349158 0.591373384
-0.12497322 -0.12586439 1.3025556 -0.09236903489 0.4363728762 0.8950120807
0.33566761 -0.42506143 1.3145001 0.6803702712 -0.2625259757 0.6842342019
0.3394129 -0.29683843 1.3490001 0.7171956301 -0.2246570438 0.6596663594
0.36183015 -0.38465855 1.302 0.6207472682 -0.1815948933 0.7626900673
0.29778308 0.054824106 1.1370001 0.1323945224 -0.2532223463 0.9583058357
-0.022612739 -0.22235861 1.4330001 -0.274849385 0.7458645701 0.6067485809
0.17463058 -0.34427655 1.422875 0.3671193123 -0.3288511932 0.8701035976
0.035196703 0.024506796 1.1533809 0.1515840441 0.5516571403 0.8201808929
0.2752111 -0.14379162 1.359 0.05358509719 0.7080861926 0.7040899396
0.36104903 -0.45103011 1.2830001 0.6240965724 -0.2106270194 0.7524225712
0.15750338 -0.29600504 1.4450001 0.2846072316 -0.4071837366 0.8678710461
-0.025352322 -0.12215429 1.3145001 -0.1757075042 0.7534018755 0.6336501241
0.26288757 0.41261151 1.3342501 0.2337234169 -0.4301271439 0.8719885349
-0.1568868 -0.088837005 1.2936667 0.4448582232 0.706802249 0.550028801
0.045002226 -0.066212103 1.2657778 -0.03755031526 0.8033990264 0.594255805
0.24592341 0.36368954 1.317 0.6538207531 -0.2861677408 0.7004473209
0.2487451 -0.46634781 1.3490001 0.3435840011 -0.2246482521 0.9118570089
0.064953692 -0.033013571 1.2146 0.005351008847 0.8089104295 0.5879075527
0.3367452 -0.24530135 1.3725716 0.7041057348 -0.171463117 0.6890830994
0.11290634 -0.31727314 1.439 -0.048264388 -0.4868977368 0.8721244931
-0.0049336492 0.0063386224 1.1746843 0.05758203939 0.6005245447 0.7975302935
0.2833457 0.21039474 1.2060001 0.5319797993 -0.3656759262 0.7637267709
-0.1847347 0.28485468 1.5160002 0.7826023698 -0.3601240218 0.5077835917
0.35317743 -0.070203468 1.2320001 0.5864719152 0.765924871 0.2634574175
0.29346925 0.15708867 1.1930001 0.5136856437 -0.3826350272 0.7679306865
0.39303887 -0.47394791 1.25 0.7466261983 -0.1631999165 0.6449148059
0.27362987 0.33234549 1.2880001 0.427249521 -0.3794104457 0.8206738234
0.19540256 -0.4357239 1.3844742 0.3100864291 -0.2398674041 0.9199510813
0.19501898 -0.0049047824 1.1853808 0.07473921776 0.8133044243 0.5770182014
0.41357452 -0.2552976 1.302 0.5794710517 -0.2680165768 0.7696624994
0.023385961 -0.19078019 1.404 -0.08564941585 0.7608035207 0.6433056593
0.32472908 -0.065392591 1.2545004 0.1180369034 0.8027341962 0.5845383406
0.21455276 0.019138509 1.149 0.03949632496 0.8231161237 0.5664979219
0.061556902 -0.37059769 1.4330001 0.2137874812 -0.3540931046 0.9104465842
0.12558049 0.025440525 1.1451741 0.04831915721 0.7374961972 0.673620522
0.38243708 -0.3007738 1.312 0.5567216873 -0.314321667 0.7689362168
0.35676214 -0.33482528 1.3170002 0.7303231359 -0.2048878819 0.6516510248
0.065131947 0.032063209 1.1430001 0.105142206 0.5723628998 0.8132317066
0.104485 -0.024275366 1.2038666 -0.1386028677 0.7859144211 0.6026008725
-0.16719931 0.12509303 1.4127778 0.2371391058 -0.4364683926 0.867905736
-0.1460737 -0.13687222 1.312 0.09381773323 0.391475141 0.9153935909
0.19867021 -0.060704783 1.2590001 0.04673294351 0.8037862182 0.5930799246
0.40224272 -0.38372153 1.2640001 0.6997110844 -0.254473269 0.6675685644
-0.055314511 -0.15739709 1.3540001 -0.03535699099 0.7690098882 0.6382582784
0.19201103 -0.39017627 1.404 0.1887241751 -0.2369801551 0.9530076385
0.13526334 -0.33654639 1.439 -0.1757247299 -0.5524263382 0.8148287535
0.40082866 -0.21151599 1.3330001 0.5320556164 -0.380125761 0.7565852404
0.01290804 -0.041951131 1.2270001 -0.07898944616 0.7966398001 0.5992709398
0.17441107 0.042369302 1.1240002 0.0611836724 0.7371090651 0.6729983091
0.26767504 0.20565942 1.2250001 0.5945154428 -0.4053002298 0.6944660544
0.085221939 -0.10480288 1.3136669 0.03091255948 0.8202637434 0.5711495876
0.084747359 -0.15859865 1.381 -0.02042490989 0.7274798155 0.6858249903
-0.0057191546 -0.056370758 1.2425001 -0.1641392261 0.7700775862 0.6164728999
0.42417413 -0.35495952 1.2532693 0.5487194061 -0.3189046979 0.7727915645
0.077709593 0.061674051 1.125625 0.1498724818 0.4234157801 0.8934524655
0.23752846 -0.49675703 1.3380001 0.3014512956 -0.3296353817 0.8946885467
0.16501793 0.0035001796 1.1750001 -0.01872966811 0.8058086038 0.5918797851
0.34486312 -0.014200247 1.1570001 0.0258567147 0.7535517216 0.6568799615
0.1051966 -0.052176759 1.2427778 -0.05215665698 0.8042752147 0.591963768
-0.17766702 0.21473423 1.4580001 0.481310457 -0.4105719924 0.7744487524
-0.045132559 -0.073753841 1.2556002 -0.104049556 0.7593854666 0.642267406
-0.034935046 0.0066332361 1.177 0.1609873474 0.5121718049 0.8436605334
0.18516164 -0.14668782 1.3715 0.01016248297 0.7391113043 0.6735066175
0.3053703 -0.014741548 1.1851817 0.2067981511 0.8216335177 0.5311806798
0.15541857 -0.044210706 1.2420669 -0.04765041173 0.7864567637 0.615804553
0.23352899 -0.30329058 1.4210002 0.5127168894 -0.371625036 0.7739613652
0.43705019 -0.43609232 1.2162501 0.4307618439 -0.1649918407 0.8872552514
0.40217084 -0.44162083 1.25 0.7474104762 -0.2078445554 0.6310136318
0.13366923 -0.43350181 1.404 -0.06551774591 -0.373131007 0.9254624248
0.055256628 -0.47667003 1.3968751 0.4221277535 -0.295494616 0.8570245504
0.1116961 -0.1477271 1.3700001 -0.06175248325 0.7717921138 0.6328693032
0.28455722 -0.42496356 1.3438185 0.4837828577 -0.2828261256 0.8282291293
0.31200129 -0.39559406 1.3430001 0.57386446 -0.2397077978 0.7830834985
0.073498636 -0.39633444 1.4150001 0.1580491215 -0.3628591299 0.918342948
-0.19283642 0.17776126 1.4330001 0.4533410668 -0.3035462797 0.8380581737
0.12517953 0.05289514 1.1243333 0.2055860758 0.5473761559 0.811242044
0.035322651 -0.37593392 1.4389998 0.3113578558 -0.2455197126 0.9180285335
0.25463659 -0.041446172 1.2360001 0.09726075828 0.8158586621 0.5700131655
0.1753931 -0.024410073 1.2153333 0.01517877541 0.8080846667 0.5888707638
0.03156333 -0.2762484 1.4878002 0.452878356 -0.1368038803 0.8810141087
0.24625117 -0.43577382 1.359 0.2794751823 -0.2880990803 0.9159107804
0.032082494 -0.1019765 1.307 -0.06765189767 0.7577263117 0.6490563154
0.024617093 -0.1666698 1.381 -0.1639143974 0.6859121919 0.7089827657
0.17554915 -0.31406903 1.4333533 0.3320265412 -0.4127461016 0.8481739163
0.25532126 0.28906417 1.2830001 0.6181753278 -0.3654162288 0.6959384084
0.1041431 -0.46389374 1.3841766 0.06311762333 -0.5365060568 0.8415327668
0.14430578 -0.0043442952 1.1852353 -0.001354737557 0.8176984191 0.5756452084
0.16493255 -0.17724097 1.4040002 0.1012781113 0.7044894099 0.7024509907
0.29556993 -0.11199329 1.317 0.1566888243 0.770624578 0.6177267432
0.094261251 -0.19641219 1.4210002 0.0131391203 0.6645755768 0.7471055388
0.25305861 -0.261742 1.4150001 0.2935732007 -0.1963778287 0.9355482459
0.014450973 -0.073366478 1.2679999 -0.08755327761 0.7887271643 0.608476758
0.035697866 -0.1439843 1.3573335 -0.117809616 0.7734183669 0.6228522062
0.31603807 -0.3553623 1.3472357 0.5361527205 -0.2499627471 0.8062623143
0.30108327 0.078021578 1.141 0.3183548748 -0.2359461188 0.9181392193
-0.0048129 -0.1649054 1.373 -0.2080090344 0.7184957266 0.6636987925
0.12525299 -0.035263292 1.2241429 -0.09517848492 0.8017408848 0.590044558
0.24563938 -0.0017185588 1.1756667 0.1270954907 0.830694437 0.542027235
0.0048370087 0.023677893 1.1617502 0.1801172942 0.4590812624 0.8699437976
0.044227835 -0.19385341 1.4144444 -0.1059444472 0.7169693708 0.6890069842
0.23376878 -0.36551222 1.3932 0.4932833016 -0.2172635943 0.8422992826
0.43371853 -0.39499089 1.2320002 0.5597649813 -0.2317572385 0.7955826521
0.33272988 -0.03785399 1.2147273 0.5578634143 0.7657719851 0.3199714124
0.39669538 -0.16528916 1.3467503 0.4900941849 -0.1607351452 0.85672158
0.24763203 -0.017913807 1.202 0.1089102551 0.7835325599 0.61173141
0.086525947 -0.43777713 1.398 -0.06128122658 -0.3508539498 0.9344229102
0.20629773 -0.17469352 1.3974 0.05982669443 0.69025141 0.7210920453
0.33837074 -0.36645368 1.3247273 0.7362952232 -0.2293656915 0.6366009116
0.1583295 0.059252147 1.108 0.2225586921 0.5428436995 0.8098075986
-0.094658956 -0.050556488 1.2270001 0.04189416021 0.6744391322 0.7371408939
0.17517056 -0.44424236 1.3930001 0.2332470417 -0.2702492774 0.934109807
0.26850373 -0.0010248233 1.169 0.1057164595 0.8148904443 0.5698926449
0.044783153 -0.11590517 1.3249999 -0.1323255897 0.7649180293 0.6303890347
0.36818686 0.16315731 1.6470001 0.4748447239 -0.6861840487 0.5510662198
0.28109223 0.27451283 1.2525001 0.631357491 -0.3166125119 0.7079154253
0.27893341 0.094330207 1.1570001 0.4017395377 -0.48320508 0.777893424
0.27433029 -0.47444081 1.3438574 0.3911100328 -0.2677240968 0.8805434108
0.39408258 -0.25578257 1.3146669 0.6129744649 -0.1746241599 0.7705639005
0.2050678 -0.035187867 1.2254999 0.0375235416 0.7955648303 0.6047053337
0.20688984 -0.27879664 1.439 0.3706982434 -0.3331514895 0.8669446111
0.28542864 -0.02203677 1.197 0.122487396 0.7982198 0.5897812843
0.34479836 -0.32425568 1.3357271 0.7091922164 -0.2562375665 0.6568018794
0.22523507 0.0074420231 1.1655713 0.05855572596 0.8390374184 0.5409135818
0.30627751 0.0089788204 1.138 0.3498688936 0.6346897483 0.6890287995
-0.16534226 0.049242366 1.3700002 0.523945272 -0.3172149062 0.7904783487
0.31489339 0.044420701 1.126 0.08470136672 -0.09698326886 0.9916753173
0.39490503 -0.36515951 1.2757502 0.7433751225 -0.1830115169 0.64335078
0.2744773 -0.31509504 1.4040002 0.3091997802 -0.3692564964 0.8763818741
0.068406299 -0.32809687 1.4450001 0.08864913881 -0.4764024615 0.8747467995
0.045301374 -0.044840999 1.2345716 0.0007099993527 0.8368489742 0.5474333763
0.26469895 -0.42361408 1.3649999 0.2179214358 -0.2745812237 0.9365444183
0.37421092 -0.47495094 1.2663703 0.5818075538 -0.1818719804 0.7927311063
0.36199698 -0.28467673 1.3363335 0.7438579202 -0.2926501334 0.6008588076
0.093998082 -0.078894116 1.2830001 -0.02749642916 0.794390738 0.6067844033
0.19592725 -0.34471411 1.4129415 0.3497883379 -0.3261483908 0.8782228231
0.26654613 0.2377156 1.2410001 0.5456049442 -0.4125255942 0.7294778228
0.40929374 -0.39837924 1.245 0.6609470248 -0.2303801328 0.7141946554
0.37185308 -0.085412763 1.2763335 0.01920188963 0.7924676538 0.6096115708
0.17523572 -0.48494357 1.3756999 0.2179313451 -0.4794251621 0.8500925899
0.21539699 -0.1459913 1.3649999 0.09340174496 0.7651432753 0.637049377
0.084731817 -0.056590822 1.2522727 0.01533036027 0.8117184043 0.5838477612
0.075044423 -0.092099972 1.2970001 0.01765493862 0.7752723694 0.63138026
-0.0032574742 -0.24373676 1.4867501 0.2851118743 0.6501120925 0.7043191791
0.12490357 0.0032343995 1.1747144 -0.03327792883 0.7988111377 0.6006607413
0.3753905 -0.40541279 1.2869133 0.5705040097 -0.2480831295 0.7829303145
0.31765968 -0.29464668 1.3749093 0.6359707117 -0.2270245701 0.7375642657
0.20357515 -0.47460827 1.37 0.2090322822 -0.4558389485 0.8651683927
0.26960129 0.16598982 1.2060001 0.3573495448 -0.270816952 0.8938453197
-0.19285211 0.15453546 1.4378002 0.6147473454 -0.4040979743 0.6773407459
0.29485297 -0.31425992 1.3835719 0.5193670392 -0.336291641 0.7855989933
0.025193317 -0.39560121 1.437125 0.348536253 -0.3347016573 0.8754982948
0.14441769 -0.38525432 1.4126192 0.1100640595 -0.3913349211 0.9136426449
-0.054400235 -0.10767147 1.2928333 -0.1013436317 0.7212065458 0.6852667928
0.045903392 -0.21379158 1.4261428 -0.04297722876 0.7350879908 0.6766081452
0.061542004 -0.43530712 1.4040002 0.3961354494 -0.2693235874 0.877804935
0.44065914 -0.47711268 1.223 0.5236070752 -0.1201068163 0.8434512019
0.22503087 0.031722009 1.1308 0.07204482704 0.7948548794 0.602507472
0.12515174 -0.20322131 1.4237274 -0.1142215878 0.6794504523 0.7247762084
0.13494618 -0.09435124 1.3045 -0.06974615157 0.8001176715 0.5957744718
0.20614128 0.061635554 1.101 0.005318779964 0.6484906077 0.7612040639
-0.0058210669 -0.12357293 1.3280001 -0.2416625619 0.7573618889 0.6066318154
0.14507283 -0.016157506 1.2038462 -0.03085653484 0.8049903512 0.592484951
0.28133109 0.03849794 1.126 -0.5116414428 0.3246111572 0.7955191135
0.27901495 -0.070031643 1.268 0.1175149307 0.8089193106 0.5760553479
0.36327764 -0.11357842 1.3048573 -0.1338391453 0.8512171507 0.507460773
0.034624662 0.044648472 1.1433638 0.266743511 0.4387978613 0.858081758
0.26208737 0.37985352 1.317 0.5729538798 -0.4070023298 0.7113880515
-0.02220246 -0.03066054 1.2060001 -0.1195711717 0.7450067401 0.6562528014
0.3439624 -0.47483179 1.2943332 0.5769160986 -0.3385494649 0.7433384657
0.045306131 -0.088346966 1.2919999 -0.07868930697 0.7620258927 0.6427476406
-0.17222817 0.024741286 1.3700001 0.4266390502 -0.4064440727 0.8079494834
0.084417164 -0.48433006 1.3838239 0.4435609877 -0.237437129 0.8642206192
0.085450761 0.025127547 1.1467601 0.02177090943 0.6499896049 0.7596312165
0.23414488 -0.15811437 1.381 0.1113283485 0.7252597213 0.6794146895
