# .PCD v0.7 - Point Cloud Data file format
VERSION 0.7
FIELDS x y z normal_x normal_y normal_z
SIZE 4 4 4 4 4 4
TYPE F F F F F F
COUNT 1 1 1 1 1 1
WIDTH 512
HEIGHT 1
VIEWPOINT 0 0 0 1 0 0 0
POINTS 512
DATA ascii
0.26546365 -0.014475934 1.1658423 0.139261499 0.7534453869 0.6425933838
-0.49683097 -0.49542949 2.398 0.7257802486 0.5850601196 0.3618668914
0.49854368 -0.25017172 2.0530002 0.07258246839 0.7675870061 0.6368217468
-0.24444272 0.12455679 1.7760001 0.9956863523 -0.01141839847 0.09207744151
0.048583988 -0.48957711 1.4210001 0.5194653273 -0.3270918727 0.7894090414
0.44904357 0.12850443 1.6470001 -0.9287722111 0.2380167693 0.2841306031
0.098843291 -0.38932154 2.3010001 -0.3181016147 0.9377937913 0.1391193122
0.18851753 0.42691445 1.344 0.2761817276 -0.4774940312 0.8341001868
0.45658642 -0.45658642 1.1810001 -0.3244118392 0.1960820258 0.9253695607
-0.18009187 -0.098540843 1.2920001 0.2045990974 0.6016170979 0.7721373439
-0.30760041 -0.14237505 2.0050001 -0.0538366437 0.7777042985 0.6263207197
0.28574511 -0.25899452 1.3870001 0.6988298297 -0.2551809847 0.6682211757
-0.21844254 -0.35071051 2.286 0.546284318 0.7395660281 0.3932117522
-0.18564333 0.12482833 1.4846363 -0.3674547374 -0.4450463355 0.8166460395
0.39761129 0.071740262 1.3870001 -0.0617262125 0.8242294192 -0.5628816485
0.0022237527 0.043059938 1.153 0.394122988 0.375459671 0.8388665915
0.0050368882 -0.22542387 1.4365 -0.03636981174 0.7481309175 0.662553668
0.20860809 0.21498673 1.212 0.2913978398 -0.4852115214 0.8244131804
0.26504716 -0.49495837 1.315421 0.4493629038 -0.4167712331 0.7901738882
0.1143906 -0.1020594 1.2955714 -0.06075627729 0.8152776361 0.5758742094
0.42466348 -0.24617794 1.2256665 0.7313135266 -0.2804141641 0.6217301488
0.14483555 -0.34160924 1.4450001 0.1320717186 -0.5136134624 0.8477960825
0.25343469 -0.34773597 2.2410002 -0.42168203 0.9010313749 0.1016207188
0.32358557 -0.12270731 1.2841113 0.2851091921 0.7051292062 0.6492345333
0.15608428 0.076153167 1.0749091 0.2059961557 0.5033757091 0.839153409
-0.077720001 -0.4070074 2.3330002 0.04258488864 0.9841362834 0.1722274721
0.29301396 0.14435957 1.6350001 -0.3035289645 0.9516579509 0.04708804563
0.34192806 -0.36442333 1.2830001 0.7871610522 -0.1783810854 0.590387702
-0.22107254 0.23636687 1.5860001 0.8337737322 -0.2004152834 0.5144464374
0.42427686 0.16931546 1.503 -0.3477737308 0.8264881372 -0.4426858723
-0.0347686 -0.12748486 1.322 -0.04038899392 0.7546024919 0.6549380422
-0.1668735 -0.0037082999 1.4100002 0.4387774765 -0.4473161697 0.7793475389
0.43898645 0.02772546 1.7570001 0.03629326448 0.7667431831 0.6409271955
0.1470959 -0.1990121 1.4100002 -0.01389804948 0.7015880942 0.712447226
0.12552126 -0.013372675 1.1861429 0.03235556558 0.7966798544 0.6035348177
-0.10498843 -0.015031715 1.2151113 0.327698797 0.2884301543 0.8996785879
0.24140769 -0.38072756 1.3700001 0.5724342465 -0.3131475151 0.7577978969
0.21567848 0.32494918 1.2730002 0.3747620583 -0.3817147613 0.8448948264
-0.1137475 -0.21124423 1.3730001 -0.4172711968 0.469245106 0.7782633305
0.015165018 -0.051990274 1.2355001 0.02137407288 0.8109467626 0.5847294331
0.37490827 -0.01019388 1.2920001 -0.1774517745 0.7671532631 -0.6164306998
0.35432875 -0.49476498 1.2322502 0.7266473174 -0.170298636 0.6655690074
0.15802443 -0.46924812 1.376 0.3243408203 -0.4011500776 0.8566688895
0.24161766 0.12458047 1.146 0.414793402 -0.495545119 0.7631391883
0.034279417 -0.3848058 1.47 0.6963272095 -0.2554553747 0.6707242131
0.21569389 -0.14418817 1.3371668 0.1128356308 0.7535576224 0.6476256847
0.21259166 -0.069037497 1.25 0.1184673086 0.8138647079 0.5688494444
-0.20592548 0.19403088 1.6960001 0.9890340567 -0.1428031772 0.03766807169
0.41335446 -0.35438997 1.193696 0.6693181992 -0.2556558251 0.6976053119
0.05524753 -0.15973744 1.3700001 -0.01358621847 0.7191426754 0.6947296262
0.35626975 -0.25529534 1.3039443 0.8222869039 -0.2181594521 0.5255956054
0.41053861 -0.16646498 1.2830001 0.6647434831 -0.2681164145 0.6973017454
0.052896898 -0.28371975 1.4960002 0.4396899343 0.03090235777 0.8976178765
0.34168696 -0.062785991 1.1818001 0.3879629672 0.8851864338 0.25676772
0.085158959 0.040364362 1.123 0.09758910537 0.6603624225 0.7445789576
0.21733356 -0.28768429 1.4330001 0.5289530754 -0.4852687716 0.6962203979
-0.094487123 -0.083370999 1.2679999 0.01628952101 0.7254255414 0.6881078482
0.094475269 -0.41459882 1.4147062 0.3356233537 -0.2570272386 0.9062526822
0.19469714 0.017578773 1.1245002 0.05692754686 0.7893508673 0.6112973094
-0.16975686 -0.39882636 2.3330002 0.5190762877 0.7727054358 0.3653575778
0.30022764 -0.32377493 1.3430001 0.7271899581 -0.2736977339 0.6295111179
-0.11473979 -0.13513552 1.325 0.02957997099 0.7601639628 0.6490575671
0.3755677 -0.41548607 1.225857 0.8175433278 -0.1741833389 0.5488926172
-0.18899968 0.19302097 1.529 0.2628557682 -0.5326411128 0.804487586
0.41583192 0.10842174 1.455 -0.09081831574 0.8235945106 -0.5598608255
0.32400995 -0.4443886 1.2833128 0.7039528489 -0.235772416 0.6699714661
0.086394623 -0.23536834 1.4449999 0.07569800317 0.6387663484 0.7656679153
-0.026538454 -0.18215029 1.376 -0.1562007219 0.7169889212 0.6793586612
0.13492309 -0.14679317 1.3540001 0.008519918658 0.7506403923 0.6606560349
0.38189793 -0.30436772 1.25 0.7837710381 -0.166347459 0.5983573198
-0.18619348 0.056124199 1.4519998 0.7303383946 -0.2073076516 0.6508681774
0.03514966 -0.096377239 1.2933333 0.03456731141 0.7669276595 0.6408019066
0.42431557 0.19583522 1.5731667 -0.1881625205 0.8335427642 -0.5194240808
0.28513408 -0.068043359 1.2320001 0.1373850107 0.7902947068 0.5971261263
0.41495878 -0.45419836 1.1190001 0.8825216889 -0.465108037 -0.06949850172
0.1745576 -0.39498696 1.398 0.3218935728 -0.3026986122 0.8970831037
0.052623671 -0.011350203 1.177 0.04584771767 0.7457705736 0.6646233797
-0.034736019 -0.015888559 1.194667 0.1356052905 0.6508545876 0.7469936609
0.094651066 -0.058748938 1.2410001 -0.06474859267 0.8008223176 0.5953916311
-0.16289672 -0.037844602 1.25125 0.3170998991 0.3445880115 0.8835760951
0.19503532 -0.027489416 1.1945 0.1685097367 0.8252359033 0.5390641093
0.25352147 0.053424068 1.108 0.4024016261 -0.1280699074 0.9064607024
0.2846528 -0.1585329 1.3445001 0.08013217896 0.8054782152 0.5871828198
0.29458499 -0.39513591 1.3239092 0.6871493459 -0.1970636994 0.6992794275
-0.066337369 -0.24557185 1.41 -0.6484459639 0.4180294871 0.6362147331
0.25477996 -0.10678033 1.2942222 0.060162846 0.718608737 0.6928072572
0.38922423 -0.10386922 1.302 -0.07500902563 0.3155101836 0.9459529519
0.2282463 -0.44466636 1.3490001 0.5830132365 -0.281668961 0.7620749474
0.22455904 -0.1910581 1.3846 0.1928186119 0.6467506289 0.7379258871
0.096101366 -0.49538445 1.376 0.4148192406 -0.4266169369 0.8036933541
0.3577773 -0.052607886 1.245 -0.9207148552 0.2429929078 0.3053500354
0.44398102 -0.39678463 1.1548461 0.5046244264 -0.2180319726 0.8353539705
0.3737765 0.027382489 1.345 -0.1329901069 0.7898085713 -0.598762095
0.39508566 -0.4747794 1.1840768 0.7827970386 -0.09812043607 0.6144925952
0.21426523 0.38155252 1.307 0.4405647814 -0.4881712794 0.7533866763
0.24625011 -0.31875014 1.386 0.4222726226 -0.4528993368 0.7852184772
0.18509881 -0.10334029 1.2953334 0.03326439485 0.7699597478 0.637224853
0.20497733 0.26602352 1.2533336 0.5687192082 -0.3460080922 0.7462150455
0.082340918 -0.34836543 1.4450001 0.4680109024 -0.5069746971 0.7238386869
-0.024587542 -0.087177597 1.2748749 -0.08190390468 0.78854388 0.6095000505
0.46103111 0.066076115 1.7130001 0.04152913764 0.7704125047 0.6361917257
0.15499492 -0.052904338 1.2351429 0.02452852204 0.7678610682 0.6401466727
0.4304933 -0.2939446 1.189 0.6729930043 -0.2370419055 0.7006365061
-0.05558005 -0.053545766 1.2345884 0.02134015411 0.7427977324 0.6691757441
0.22381152 0.16564481 1.1825557 0.07899315655 -0.4187982976 0.9046369791
0.20808665 -0.49757808 1.3380001 0.4488238394 -0.4032705426 0.7974522114
-0.17008209 -0.14310357 1.3380001 0.2705820501 0.5817446709 0.7670453191
0.38795304 -0.21676461 1.268 0.7448381782 -0.3102572262 0.5907254219
0.084927969 -0.19570352 1.4040002 0.04397346452 0.7023857236 0.7104369402
0.046887085 -0.43345404 1.4384546 0.7414046526 -0.2092952132 0.6375850439
0.34128457 -0.31160766 1.302 0.7750716209 -0.2275471091 0.5894796848
0.19558178 -0.33553058 1.4134213 0.4463967681 -0.3765767217 0.8117387891
0.1346823 0.018955287 1.138 0.1293499768 0.7914546132 0.5973844528
0.07450965 -0.12340661 1.3280001 0.009873528033 0.7558476329 0.6546730995
-0.074930452 -0.16294311 1.3566668 -0.01202637516 0.7468666434 0.6648650765
0.34067091 -0.24096236 1.3540001 0.7761865258 -0.3459352553 0.5271273851
0.013735905 -0.1377515 1.3430001 -0.007692494895 0.7428680062 0.6693937182
0.37726358 -0.35564333 1.2330669 0.8687608838 -0.1692920178 0.4653974175
0.31155944 -0.49602062 1.2830001 0.7262442708 -0.2058628798 0.6558884978
0.024486616 -0.19343519 1.3965 -0.06023532152 0.7219786644 0.6892883778
0.31242946 -0.027966192 1.1474001 0.04987328872 0.6939493418 0.7182945013
0.40376323 -0.4148829 1.181421 0.690410912 -0.1709627509 0.7029256821
0.2751025 -0.44527856 1.3240999 0.5857040882 -0.1555141509 0.7954659462
0.27296266 0.007097275 1.117 0.05722120032 0.6166697145 0.7851396203
0.24541776 -0.042096946 1.2037778 0.1361677796 0.8250674009 0.5483813882
0.1743764 -0.17249995 1.3760002 0.07512974739 0.7505623698 0.6565148234
0.12594281 -0.37559819 1.414 0.1124131754 -0.2597806752 0.9591023326
0.042353518 -0.24770392 1.4640001 0.00170519494 0.7930243015 0.609187603
-0.042506937 0.026182234 1.1636667 0.3141408265 0.3720517755 0.8734374642
0.051638883 -0.33110151 1.485 0.456253022 -0.3105585873 0.8338983655
0.1990764 0.051282078 1.09 0.01567980833 0.7020255923 0.7119790912
0.11476991 -0.45420229 1.3927501 0.2304509729 -0.2611691654 0.9373809099
-0.13444099 -0.17454435 1.3452502 -0.2993895113 0.2444188148 0.9222935438
0.32436666 -0.088762499 1.25 0.1749727875 0.7614732981 0.6241337061
0.045097835 0.024049249 1.1432003 0.1605339199 0.6551960707 0.7382052541
-0.0021390666 -0.26396084 1.4640001 -0.188915059 0.6633360982 0.724083066
0.11508387 0.064479351 1.0955516 0.2523066103 0.499871552 0.8285347223
0.085496046 -0.031666953 1.2040002 -0.04033932462 0.7698200941 0.6369849443
0.005611544 -0.0019482453 1.1761112 0.1654499173 0.6736607552 0.7202829123
-0.14435779 -0.083285667 1.2666667 0.04589643702 0.640489459 0.7665942907
0.30153331 -0.044375405 1.1956667 0.5067962408 0.7964789271 0.3298164308
-0.074904762 -0.11578514 1.3025 -0.05424466729 0.7284638286 0.6829333901
-0.075741366 -0.19546551 1.3935002 -0.3514092863 0.6032751203 0.7159404159
0.32462078 -0.28562161 1.3362353 0.7562533021 -0.2712879777 0.5953853726
0.1651874 -0.0045420793 1.1651599 0.1519585103 0.8255621791 0.5434663296
-0.074256293 0.011504496 1.1930001 0.3928812444 0.3357617259 0.8561006784
0.075452141 -0.085515834 1.2750832 0.0720770061 0.8016223311 0.5934699178
0.094634503 0.0079876995 1.1552222 -0.02692316286 0.7772093415 0.6286658645
0.3956309 0.1456231 1.47 -0.1757734418 0.7018323541 -0.690315187
0.19007623 -0.43342227 1.381 0.373449713 -0.2749574482 0.8859648705
-0.034733534 -0.21460365 1.4150001 -0.05663620681 0.7551490068 0.6531020999
0.22394398 0.0014158166 1.1537999 0.04957683384 0.8212586045 0.5683981776
0.24887586 -0.27743134 1.404 0.4058057368 -0.5871565342 0.7004062533
0.34855583 -0.40528718 1.2589999 0.7224830985 -0.2156464309 0.6568978429
-0.11695391 -0.048413478 1.2410001 0.1230530217 0.6168450713 0.7774060369
0.31525525 -0.35571811 1.3167368 0.6716288328 -0.1902728379 0.7160384059
0.22710069 0.084664084 1.1362002 0.6280768514 -0.2963630855 0.7195056677
0.29099724 -0.12997109 1.312 0.2090333402 0.7563931942 0.6198180318
0.38874996 0.095507048 1.4222001 0.2579059303 0.710401237 -0.6548393369
0.1546777 0.044400956 1.1042607 0.1568896919 0.732172668 0.6628037095
0.13480912 -0.077828906 1.2662222 -0.02657361515 0.7945086956 0.6066710949
0.16536421 -0.1264829 1.3258182 0.04422846809 0.7939704657 0.6063454151
0.36010924 -0.45258445 1.2410001 0.7657791376 -0.2071551085 0.6088259816
0.28478852 -0.094818369 1.2655385 0.2105455697 0.7838327289 0.5841889977
0.38275316 -0.26406091 1.2645334 0.8144573569 -0.2561687827 0.5206118822
0.27646673 -0.36491111 1.3477144 0.6493000984 -0.3179189265 0.6908957362
0.14373475 -0.42518678 1.4040002 0.1535410285 -0.2256214023 0.9620395899
0.40555218 -0.31560022 1.215542 0.737501204 -0.2019635439 0.6444398165
0.10494752 -0.17099208 1.3760002 -0.003148231423 0.6872774363 0.7263881564
0.36127433 -0.098933585 1.268 -0.4374025762 0.6924716234 0.5737264156
0.07478343 -0.45454854 1.4150002 0.4612424374 -0.3182392418 0.8282386065
0.047738008 -0.21984608 1.4330001 -0.08487430215 0.7624698877 0.6414328218
-0.19058383 0.21800596 1.5640001 0.7174006701 -0.3169488311 0.6203867793
0.065851524 -0.39637059 1.4389998 0.3830575347 -0.3571365774 0.8518922329
0.41362497 -0.20675345 1.2333335 0.8132771254 -0.2066238075 0.5439549088
0.04725584 0.060054295 1.123 0.3422411382 0.3762301505 0.8610005379
-0.14434087 -0.11693262 1.3027693 -0.1153054908 0.7114652991 0.6931967735
0.42837408 -0.43851712 1.1570001 0.4433235526 -0.2373197526 0.8643746972
0.045321625 -0.037357103 1.2116667 0.03410187364 0.786362946 0.6168228388
0.22295535 0.25282767 1.2168572 0.5275310874 -0.4176927507 0.7397592664
-0.031669583 -0.24195561 1.4450001 -0.1341831237 0.6738507748 0.726581037
-0.0042627524 -0.10654806 1.3042728 -0.1756299585 0.7411193848 0.6479939818
0.32474381 -0.40530244 1.2942224 0.6718642116 -0.1884579808 0.7162974477
-0.13797243 -0.41803586 2.3490002 0.1761822551 0.9568913579 0.2309084684
-0.20240217 0.15213235 1.5090001 0.02395024709 -0.5872036219 0.8090848327
0.25491443 -0.41481224 1.3458239 0.4202468097 -0.3223532736 0.8482222557
0.1268826 -0.22487113 1.4330001 -0.03707753867 0.7120498419 0.7011492252
0.2446766 -0.1641966 1.3557857 0.07091280073 0.7136488557 0.6969050765
0.28329831 -0.30509055 1.381 0.6355854869 -0.3246736825 0.7004413605
0.17483149 -0.077855788 1.2666668 0.05184200406 0.7649261355 0.6420283318
0.44032511 0.18447872 1.536 -0.2348174751 0.851978898 -0.4679665565
0.37781003 -0.14153609 1.302 0.4927802384 0.1788350344 0.8515783548
0.055663947 -0.06221265 1.245 0.0455673635 0.8084809184 0.5867556334
0.19269483 -0.20336214 1.4040002 0.219088316 0.6152361035 0.7572878003
0.22331856 -0.3538928 1.3920001 0.5408242941 -0.257314384 0.8008110523
0.19657934 -0.46685466 1.3590001 0.4483377039 -0.4064200521 0.7961256504
0.39196566 -0.3851454 1.2041539 0.7818038464 -0.1855587065 0.5952736735
0.25467443 -0.13604975 1.3245 0.09251297265 0.7458373308 0.6596726775
-0.16805144 0.032943085 1.427 0.7662926912 -0.2739958465 0.5811383128
0.015381242 -0.07723283 1.2662858 0.008827773854 0.8182707429 0.5747652054
-0.20671538 0.06630493 1.483 0.7735326886 -0.196161285 0.6026341319
0.13282815 -0.49900305 1.365 0.133428663 -0.5221762657 0.8423352838
0.20868875 -0.39928308 1.376 0.44639498 -0.2618287206 0.8556735516
0.1783894 -0.30778453 1.4330001 0.4553470016 -0.3543353379 0.8167653084
0.24453528 -0.083880872 1.2656 0.05084440112 0.8034914136 0.5931410789
0.16365951 -0.36422417 1.4210001 0.3958059251 -0.2872268558 0.8722605109
0.44169885 -0.35971299 1.169 0.5359195471 -0.2398935854 0.8094697595
0.014447905 -0.16496545 1.3735002 -0.05237115175 0.685316503 0.7263597846
0.11508092 -0.1245799 1.326 -0.015695462 0.7768489718 0.6294913292
-0.17839816 0.091124237 1.4640001 0.4346029758 -0.5670745373 0.699676156
0.35586405 -0.3341558 1.2651428 0.7105206251 -0.1429193169 0.6890097857
0.0052862996 -0.03066054 1.2060001 0.05216476694 0.7614885569 0.6460759044
-0.024835093 -0.15184887 1.3490001 -0.1614066511 0.7065731287 0.6889864206
-0.18563943 -0.070031643 1.268 0.2295388728 0.5692440867 0.7894764543
0.40177983 -0.27541357 1.2320002 0.7087294459 -0.2375873625 0.6642701626
0.12471382 -0.036247887 1.2158999 -0.01959605142 0.7980540991 0.6022670865
0.2323412 0.02067443 1.123 0.2570179999 0.4923005104 0.8316140771
0.38383359 -0.44481453 1.2045001 0.8286091685 -0.09741647542 0.5512865186
0.30019346 -0.46569937 1.302 0.6680473089 -0.1671181619 0.7251098752
0.44219741 -0.33120963 1.1943334 0.496781081 -0.3018271029 0.8137007952
0.33531743 -0.47503623 1.2570361 0.7062491179 -0.1994528919 0.6792868972
0.085068807 -0.14626561 1.3540001 0.0273859892 0.7605714202 0.6486763954
0.21508491 -0.11846922 1.312 0.150255844 0.7518330216 0.6420049071
-0.065100908 -0.02538476 1.2113998 0.2125723213 0.622320652 0.7533458471
-0.074897721 -0.14086981 1.3280001 -0.07215084881 0.7532208562 0.6537985802
0.17500198 -0.4952535 1.3579998 0.3589996397 -0.4661875963 0.8085718155
0.41789299 -0.47367966 1.1570001 0.7936788797 -0.2336687744 0.5616696477
0.19557147 0.34696946 1.2919999 0.5666084886 -0.421346426 0.7081115842
0.24346851 -0.47365388 1.3334546 0.362154454 -0.2970845997 0.8835071921
0.31232566 -0.26565629 1.365 0.7785236239 -0.2399872094 0.5799198747
0.3590818 -0.28625709 1.2780001 0.7581536174 -0.2344968617 0.6084523797
-0.026288956 -0.042105071 1.2190001 -0.01013680547 0.7685713172 0.6396838427
0.24566595 -0.061957538 1.2326669 0.1102370918 0.8134352565 0.571113646
0.19473571 -0.052444976 1.225 0.1563740075 0.8057087064 0.5712972879
0.27499014 -0.33482265 1.3649999 0.5980878472 -0.3942976892 0.6977250576
0.15753174 -0.03066054 1.2060001 0.09234976768 0.8227926493 0.5607885718
0.35377094 -0.03013191 1.273 -0.08193794638 0.8932834864 -0.4419624209
0.32154027 -0.063457958 1.2165 0.09518908709 0.7536770105 0.6503152847
0.22175634 -0.31322774 1.4100001 0.5588746667 -0.4112516642 0.7200911045
0.29819578 -0.42754659 1.3057501 0.6910045147 -0.2616339922 0.6738400459
0.39673287 0.051825464 1.3590001 -0.3031848669 0.7647371888 -0.5685560703
0.033609644 -0.11937219 1.322 -0.02886113897 0.7702706456 0.6370636821
-0.20374647 0.2558485 1.5640001 0.8337737322 -0.2004152834 0.5144464374
0.3767063 -0.49497387 1.2045001 0.7853438258 -0.1222985238 0.6068592668
-0.11517297 -0.10162319 1.2880001 0.05381887034 0.7099454999 0.7021971941
-0.058259759 -0.090750776 1.2780001 -0.0832420066 0.738399148 0.6692066193
0.23422691 -0.02166857 1.177 0.09586124122 0.7885892391 0.6074023843
0.38400999 0.011314786 1.317 -0.09634038806 0.8008310199 -0.5910906792
0.21635629 0.13564245 1.1655 0.2133079618 -0.4993173182 0.8397511244
-0.015748065 -0.061588965 1.245 -0.04529696703 0.7577384114 0.6509844065
0.20582379 -0.167531 1.3649999 0.1250790954 0.7361098528 0.6652048826
0.22223179 0.29606554 1.2570001 0.3499133587 -0.4915724099 0.7974441648
0.41904035 -0.38533366 1.177 0.6467217207 -0.2361260653 0.7252554893
0.2311358 0.19662231 1.1930001 0.2622286677 -0.5074239969 0.8208270073
0.024126742 -0.26276505 1.4875002 -0.05565422028 0.7807456851 0.6223654151
-0.10506587 -0.17447157 1.3649999 -0.467440784 0.3707328439 0.8025311828
-0.093900762 -0.23344858 1.3962858 -0.511408329 0.1921800822 0.8375728726
0.27570367 -0.022009203 1.1353334 0.4014260471 0.8185850978 0.410823077
-0.13250221 -0.017508786 1.2328001 0.3646069467 0.2612033784 0.8937754631
0.17211597 -0.14837584 1.3540001 0.1006834432 0.7201648355 0.6864586473
0.37109303 -0.38528186 1.245 0.8501665592 -0.1668851972 0.499365747
0.056104802 -0.36471224 1.4546249 0.5538616776 -0.4501037002 0.7004597783
-0.085133098 -0.061121199 1.245 0.07255874574 0.7233727574 0.6866346002
-0.0057439203 -0.20144749 1.4040002 -0.1420699209 0.7471846342 0.6492543817
0.09371724 -0.38165277 1.4330001 0.3689022362 -0.3690030575 0.8530814052
0.36775947 -0.22661854 1.29575 0.7734252214 -0.2082391828 0.5987068415
0.1177188 0.038258608 1.1190001 0.1589059234 0.6927753091 0.7034282088
0.40271878 -0.24382292 1.25 0.7290022969 -0.269120872 0.6293882728
0.075081229 -0.49427015 1.4040002 0.5775126815 -0.2263020575 0.7843892574
0.38680711 -0.17398517 1.3028334 0.6580617428 -0.1768356711 0.7319043279
0.15505856 -0.092385672 1.286889 0.07212756574 0.7520622611 0.655133605
0.21429689 -0.097153842 1.2848752 0.1231695339 0.7631013393 0.6344333291
0.11480545 -0.20414403 1.4125001 -0.02676675282 0.7088441253 0.704857111
0.054141175 -0.19851765 1.4100001 -0.04922632873 0.7373231649 0.6737442613
0.41187087 -0.19636983 1.2671112 0.754365325 -0.2767349184 0.5952736735
0.13535471 -0.17416595 1.3833078 -0.03787336498 0.7363554239 0.6755340695
0.11431997 -0.35346681 1.4330002 0.2399643213 -0.4436917305 0.8634551167
0.22746459 0.053876594 1.1250626 0.4110917449 -0.2772270441 0.8684173822
0.19306217 0.0010107966 1.153 0.08543334901 0.8231673837 0.56133461
0.076550767 0.065419666 1.1071999 0.3094317019 0.4119478762 0.8570594788
0.16513148 0.016182469 1.1347276 0.1389450729 0.8062830567 0.5749799013
-0.20151499 0.097507246 1.483 -0.04655305296 -0.3910636604 0.9191855192
0.31462076 -0.051241167 1.169 0.1732581556 0.7440556884 0.6452617645
0.1944727 -0.37269837 1.4040002 0.3472566605 -0.3712494373 0.8611542583
0.14207962 -0.11114293 1.307 0.09170556813 0.7664169073 0.6357634664
0.10451551 -0.077445433 1.2656 -0.04700494558 0.7626051903 0.6451541185
0.2702325 -0.17174776 1.3700001 -0.06113733724 0.8128663898 0.5792326331
0.12583877 -0.058023643 1.2410001 0.01015696488 0.772682488 0.6347114444
0.19354521 0.39752099 1.322 0.3253533244 -0.4433188736 0.8352326751
0.084627263 -0.10750169 1.3045001 0.0831232667 0.8266724348 0.5565098524
0.045446225 -0.13728057 1.3430001 -0.007822919637 0.7560502291 0.6544668674
0.09628693 -0.00931809 1.1810001 -0.07292544842 0.7849165797 0.6152948737
0.32301936 -0.3148894 1.3254286 0.7147137523 -0.2705146968 0.6449853182
0.42253143 0.14561082 1.483 -0.3319457471 0.7042739391 -0.6275430322
0.40602356 -0.44478202 1.1758001 0.7143449783 -0.1510050297 0.6833071709
-0.044747699 -0.072697774 1.2585555 -0.01613621227 0.7646366954 0.644259572
0.30474728 -0.29467818 1.3563529 0.7410542965 -0.3803586364 0.5533225536
-0.0456568 -0.1084349 1.302 -0.09490100294 0.7154776454 0.6921600699
0.13516693 0.0023144798 1.1624546 0.0988714993 0.8307640553 0.5477731824
-0.48356786 -0.47521853 2.381 0.7257802486 0.5850601196 0.3618668914
-0.064184278 -0.21534267 1.4133335 -0.5872000456 0.2963677645 0.7532345057
0.43173614 -0.27554393 1.2120001 0.6769566536 -0.288138032 0.6772785187
0.27574492 -0.032665372 1.1875 0.1935532391 0.7640091181 0.6154894233
0.049131025 -0.46485865 1.4370002 0.6286852956 -0.2105269432 0.7486208677
-0.19300517 0.028119959 1.4580001 0.7747282982 -0.1843705922 0.6048169136
0.25212425 0.0026077325 1.1458 0.3635266423 0.87353158 0.3237142861
-0.0257868 0.005155677 1.1765201 0.199620083 0.5395441055 0.8179510832
0.29478341 -0.11380813 1.2853078 0.2354034185 0.7510848641 0.6168117523
0.1239109 -0.40466961 1.4126472 0.2318866402 -0.4268590808 0.8740823269
0.035410319 -0.30688941 1.4960001 0.4677788615 -0.1500781029 0.8710106015
0.36889198 -0.46671626 1.2173334 0.7762133479 -0.1431311369 0.6140084267
0.25197679 -0.35382441 1.3700001 0.5070436597 -0.2717321813 0.8179659843
0.23143211 -0.41332293 1.365 0.5265135765 -0.3428345025 0.7779768109
0.074946359 -0.21485281 1.4248573 0.1566382498 0.7137100101 0.6827023029
0.36337376 -0.36320323 1.2640001 0.7048287988 -0.1798350364 0.6862038374
0.015577331 0.017974773 1.1566364 0.2434456944 0.5693228245 0.7852424979
0.45109409 0.19881046 1.5640001 -0.2117882669 0.8458545208 -0.4895670414
-0.0052748355 -0.1249374 1.326154 -0.1848083884 0.7565298676 0.6273024678
0.4116213 0.080346502 1.4100001 0.1532984525 0.7670333385 -0.6230244637
0.16669621 -0.33683264 1.427 0.5026066899 -0.3828610778 0.7751154304
0.36552343 -0.11536884 1.2919999 -0.2048145086 0.4989850223 0.8420599699
0.33878982 -0.25586879 1.326 0.7781625986 -0.2596955597 0.5718576312
-0.055162746 -0.17562929 1.3721428 -0.007273329422 0.7441499829 0.6679729819
-0.044271395 -0.19466773 1.3938463 0.01362521853 0.7861626148 0.6178694367
0.22334926 -0.050226863 1.2190001 0.04549708217 0.8213030696 0.5686750412
0.066660203 0.0083640581 1.1565001 0.08310299367 0.7467201352 0.6599264741
0.33987314 -0.33648568 1.2880001 0.8076394796 -0.156100139 0.5686398149
0.075164855 -0.1745784 1.3828754 0.02414872497 0.6905593276 0.7228724957
0.04352387 -0.079235762 1.273 0.02030733973 0.8203722835 0.5714690685
0.34202367 -0.28417388 1.3145001 0.780867517 -0.2415345162 0.5761136413
0.39648715 -0.34542936 1.2156523 0.7422847152 -0.2352147102 0.6274451613
0.015296079 -0.2447408 1.454 -0.1941599995 0.6908348799 0.6964546442
0.29106209 -0.491952 1.302 0.5590824485 -0.3022486866 0.7720573545
0.33884305 -0.11257978 1.2590001 -0.0154182706 0.7366194129 0.6761317253
0.33829123 -0.4475598 1.2590001 0.757854104 -0.2109898478 0.6173657179
0.23784143 -0.4999288 1.317 0.4024675488 -0.4119329453 0.8175151944
0.3514469 -0.086224549 1.245 -0.1268161684 0.6971622705 0.7056078315
0.40084708 -0.1354976 1.2880001 0.5688047409 0.1175067872 0.8140351772
-0.093583286 -0.041951131 1.2270001 0.1867081225 0.6311068535 0.7528905869
0.025098966 0.045046344 1.1376671 0.3702850938 0.3787973821 0.8481754065
0.37909871 -0.32509604 1.2320001 0.8266094327 -0.1989028156 0.5264546275
0.27468795 -0.39532235 1.3430003 0.6038022041 -0.2118880898 0.7684571147
-0.1445953 -0.14133549 1.3280001 0.01089529227 0.7324575782 0.6807254553
0.075344861 -0.047418524 1.2252859 0.007790283766 0.7930143476 0.6091531515
0.27287564 -0.26644441 1.411 0.5073126554 -0.4830140769 0.7136744857
0.27738243 -0.41630882 1.325 0.5935595036 -0.3145035505 0.7407932281
0.24083348 0.14654973 1.169 0.2534570992 -0.5075275898 0.8235139251
0.26584917 -0.078242496 1.25 0.2056554556 0.7835475206 0.5863097906
-0.053504627 -0.14769369 1.3430002 -0.06704582274 0.7301287055 0.6800124645
-0.05276306 -0.22989619 1.4330001 -0.3898138404 0.5968136787 0.7013263106
0.22136447 0.10815524 1.153 0.4738045335 -0.4521391392 0.7556980252
0.2704955 -0.049856033 1.21 0.1670628935 0.7990701795 0.5775611401
0.12304192 -0.47648588 1.376 0.07106178999 -0.5924167037 0.8024915457
0.15928771 -0.43895313 1.3870001 0.2769060731 -0.4114474356 0.8683513403
-0.12104166 -0.072477832 1.2590001 0.05255684629 0.6736382246 0.737190187
0.056834739 -0.30744088 1.4735 0.4988670945 -0.2556658983 0.828110218
0.19897878 0.30458206 1.268 0.3039619327 -0.4404362738 0.8447621465
0.016126283 -0.21212265 1.4150001 -0.011240541 0.7541658282 0.6565878391
-0.015287491 0.025482703 1.1627599 0.2703914046 0.3968093693 0.8771720529
0.29210418 -0.036819626 1.162143 0.5556979775 0.7412526608 0.3764894009
-0.14574583 -0.058079164 1.25 0.1766882539 0.5873970985 0.7897758484
0.25407499 -0.44339499 1.3430001 0.3489091098 -0.2563367188 0.9014177322
0.30032933 -0.37044513 1.3330001 0.697563529 -0.2271521837 0.67956388
0.0673806 -0.33497784 1.4640001 0.5032791495 -0.4165084064 0.7571201324
0.14669375 -0.3942045 1.4040002 0.2653593719 -0.4939290583 0.8280208111
-0.11570182 -0.15584855 1.3467504 -0.1742439866 0.549402535 0.8171877861
-0.18138584 -0.022060439 1.3980001 0.4913470149 -0.4349677861 0.7545734644
0.2081268 0.18407194 1.1930001 0.2193108499 -0.5034508705 0.8357272148
0.25744876 0.025158582 1.1062351 0.3338014185 0.2914302945 0.8964625001
0.094505355 -0.47546327 1.3928001 0.403683126 -0.385093987 0.8299051523
0.21334137 0.037084408 1.1065385 -0.3450075388 0.580622375 0.7374601364
0.18158178 0.071219087 1.0760001 0.07433641702 0.6037335396 0.7937127352
0.39040014 -0.41398773 1.2046667 0.8536682129 -0.1325140297 0.5036770701
0.11692033 -0.42478603 1.3980001 0.2263654619 -0.3069829643 0.9244025946
0.16870573 -0.21212265 1.4150001 0.1639803201 0.6470228434 0.7446287274
0.16509561 -0.18833692 1.395 0.1321504861 0.726046741 0.6748276949
0.025009776 -0.015383055 1.1860527 0.07807011157 0.7512270212 0.6554105878
0.19445693 -0.12781724 1.3237144 0.05989031121 0.7594584823 0.6477931142
0.44778293 -0.42251301 1.153 0.2515808046 0.01544487197 0.967713058
0.21298325 -0.43437374 1.37 0.5506699681 -0.2975734174 0.7798799276
0.18511574 0.036824949 1.1055498 0.08127910644 0.7482205033 0.6584525704
0.26901481 -0.46991 1.317 0.5248630047 -0.3182546794 0.7894509435
0.035751268 0.0051022349 1.1651604 0.09551479667 0.6997067332 0.7080165148
0.042179938 -0.41796485 1.4580001 0.7591896653 -0.1441817284 0.6346989274
-0.18526335 0.0067412155 1.424 0.6185535192 -0.4305177331 0.6573020816
0.10094816 -0.44211173 1.4100002 0.4623689651 -0.3039166927 0.8329763412
0.19586675 -0.18164544 1.3852857 0.1668761671 0.6995159388 0.6948595643
0.42470455 -0.4146446 1.1638967 0.623239696 -0.1265470982 0.7717241049
0.11476057 -0.1859501 1.3936001 -0.0540051721 0.7113158703 0.7007946372
0.22072332 -0.47443476 1.344 0.508169353 -0.3298114836 0.7956055999
0.20662367 0.24470678 1.2340002 0.6798135638 -0.3704172671 0.6329649091
0.15490587 -0.015401679 1.1851817 0.1524644345 0.8206922412 0.5506531
0.054058772 -0.10926773 1.312 -0.01408140361 0.8014990687 0.5978301764
0.4198795 0.18208367 1.5500001 -0.1881625205 0.8335427642 -0.5194240808
0.064591244 -0.42539108 1.423 0.5289990902 -0.246380657 0.8120692968
0.35544884 -0.42457402 1.2450001 0.7750182152 -0.1210527495 0.6202362776
0.38879949 -0.19158016 1.2855 0.7627626061 -0.2468931228 0.5976930857
0.2581839 -0.29709387 1.3870001 0.3664522171 -0.3580929935 0.8587678075
0.31170058 -0.38186198 1.312 0.6677185893 -0.252744019 0.700194478
0.20472717 -0.017245349 1.1742501 0.1173518673 0.8177489042 0.5634849668
0.035136405 -0.17656918 1.3820912 -0.05402526632 0.6675902009 0.7425662279
0.14115036 -0.45477259 1.3920001 0.2982861102 -0.2862102985 0.9105542898
0.18445505 -0.062212653 1.245 0.09666661918 0.8122633696 0.5752249956
-0.20131335 0.084998973 1.4580001 0.6038386226 -0.3176015317 0.7311006784
0.027780689 -0.27383822 1.5090001 0.361865133 0.1304904372 0.9230524898
-0.10541391 -0.12145516 1.307 0.00659422297 0.7380750775 0.6746863723
0.36214092 -0.31192106 1.273 0.7324382663 -0.2299141437 0.6408382654
-0.21360859 0.21774296 1.572 0.7986804843 -0.2536120117 0.5457018018
0.24376866 -0.18261543 1.3717144 0.01825187914 0.7296674848 0.6835584641
-0.054297306 -0.0025585117 1.189 0.2743370235 0.470361948 0.8387483954
-0.0048637465 -0.18117456 1.3870001 -0.1889436543 0.7027592063 0.6858788729
0.19159023 -0.41124785 1.3920001 0.4532442987 -0.3035466075 0.8381103873
0.37998241 0.055489492 1.376 -0.2667977214 0.7886436582 -0.5539495945
0.29258022 -0.28289476 1.381 0.7198640108 -0.2736785114 0.6378839016
-0.1563421 -0.096167266 1.2830001 0.08799348027 0.6869673729 0.7213411331
0.41776586 -0.32472169 1.197 0.6061535478 -0.2299703956 0.7613747716
-0.20723873 0.17720415 1.7130001 0.9959049225 -0.0466895923 0.07741763443
0.24230452 0.071612269 1.1190001 0.5010703206 -0.2252300531 0.8355835676
-0.12664525 -0.19413826 1.3565001 -0.3578852117 0.3998522758 0.8438224792
0.13462678 0.081409603 1.0840001 0.3011879623 0.4809686244 0.8233802319
0.34892538 -0.2358871 1.31575 0.8135002255 -0.186869815 0.5507241488
0.0045165867 -0.091460876 1.2880001 -0.07658747584 0.7771145701 0.6246817112
-0.0930117 -0.14952514 1.3430001 -0.01512355171 0.7621951103 0.6471707225
-0.2015518 0.22048956 1.5430001 0.6443916559 -0.4128662944 0.6436620355
0.063967437 0.033523731 1.1322224 0.171728909 0.6371089816 0.7513995767
0.14571875 -0.13400064 1.336889 0.06056721509 0.8004757166 0.5962971449
0.41109529 0.1275813 1.47 -0.1639252901 0.7267094851 -0.6670995951
0.31408849 -0.13382258 1.3028334 0.2676303983 0.7621350884 0.5895117521
0.21814592 -0.37598625 1.3850001 0.4513741136 -0.3934071064 0.8009321094
0.20453686 -0.082259379 1.268 0.1013838351 0.767424345 0.6330728531
0.066191837 -0.24567355 1.452 0.1552945971 0.6184813976 0.7703014612
0.45088983 -0.44478297 1.161 -0.3509119153 0.1387523562 0.9260715842
0.22346354 0.27423424 1.2409999 0.6483724713 -0.3950083554 0.650831461
0.14429057 0.060200699 1.09 0.2545531094 0.608379364 0.7517161965
0.19705378 0.36722386 1.3145 0.492947042 -0.4359260499 0.7529752254
0.36460918 -0.0011501866 1.312 -0.09993860126 0.7635120749 -0.6380137801
0.30397138 -0.078984693 1.2410001 0.1313212067 0.7833375335 0.6075665355
0.3239783 -0.25485405 1.3448949 0.7803673744 -0.3430654109 0.5228125453
0.4107981 0.10175733 1.4330001 0.347952038 0.6778597236 -0.6476384401
0.15436785 -0.15915444 1.3650001 0.09805655479 0.7315496802 0.6746999025
0.095913939 -0.13402696 1.3357275 0.05456573144 0.7488647103 0.6604727507
0.035741702 -0.15130652 1.3590001 -0.02004997246 0.7693462968 0.6385172606
0.31515995 -0.10147417 1.2673334 0.1912448704 0.7369835377 0.6482905746
0.06456124 -0.097408183 1.2919999 0.06802191585 0.7981481552 0.5986088514
0.41435966 -0.29423043 1.2121054 0.7036479712 -0.2370034605 0.6698573828
0.33423316 -0.4247852 1.2758 0.7949635386 -0.154578656 0.5866331458
0.33835477 -0.39549416 1.278 0.8178734779 -0.1798588187 0.5465654731
0.42839104 0.038113084 1.7390001 0.03629326448 0.7667431831 0.6409271955
0.15769042 -0.31664234 1.439 0.3991220891 -0.3041706085 0.8649750352
0.1653064 -0.11200356 1.3055716 0.03896865994 0.7613178492 0.6472067833
0.19670969 -0.15019317 1.3490001 0.1265004873 0.7287855744 0.6729555726
0.37195477 -0.027593084 1.2590001 -0.08459792286 0.8901013732 -0.4478423595
-0.014686161 -0.16568165 1.3649999 -0.2195145637 0.6833431721 0.6963156462
-0.016263044 -0.2214276 1.427 -0.1278509051 0.7439149618 0.6559303999
0.10575216 -0.045989495 1.2246667 -0.1075389758 0.7774851322 0.6196388006
0.17525969 -0.041677609 1.2190001 0.1311083138 0.7936552167 0.5940724015
0.26452026 -0.094603263 1.2764615 0.2008965462 0.7912660837 0.5775279999
0.23384725 -0.29368696 1.4113636 0.6194849014 -0.3807679713 0.6864795685
0.056179225 -0.024731126 1.1958237 -0.001869690372 0.7758700848 0.6308898926
-0.19794871 0.2394764 1.5790001 0.8337737322 -0.2004152834 0.5144464374
-0.085381679 -0.0052783117 1.2039999 0.3943436742 0.3635951579 0.8439736962
0.37257785 -0.25504008 1.2830002 0.734885633 -0.2526430488 0.6293763518
0.32589757 -0.49590296 1.2583685 0.7255396247 -0.2088667452 0.6557186246
0.29650599 -0.34554821 1.3368462 0.7173095942 -0.2214854509 0.6606142521
-0.15490739 -0.16449448 1.3430003 -0.04990687221 0.27314955 0.9606761336
0.31213525 -0.47270522 1.2838334 0.7199324965 -0.1835506707 0.6693327427
-0.19337338 0.174767 1.516 0.2424138337 -0.5218253136 0.8178837895
0.20478284 -0.304681 1.4243751 0.4026710689 -0.4793137014 0.7798168659
0.0042819907 -0.15299007 1.3570001 -0.1300533414 0.7124752998 0.6895397902
0.094756253 -0.094759539 1.2867501 0.02913550101 0.7852865458 0.6184465885
0.10525893 0.026334714 1.1338 0.07520595938 0.7542645931 0.6522491574
0.32472777 -0.33462492 1.314353 0.7175089717 -0.2085956633 0.6645815969
0.074740224 -0.37333918 1.4449999 0.4163364172 -0.2503894567 0.8740532398
0.17561154 0.05099453 1.0906668 0.1083497554 0.6991537213 0.7067137957
-0.17354931 0.079807349 1.4450001 0.5078191161 -0.3378832638 0.7924358845
-0.086853117 -0.18215029 1.376 -0.3577718735 0.5861133933 0.7269597054
0.0449204 -0.33754471 1.4640001 0.2629634142 -0.4731911719 0.8407974243
0.25531211 -0.39398515 1.3545556 0.4915170968 -0.2284236252 0.8403770328
0.22576112 -0.032303561 1.1950001 0.09415732324 0.8220621943 0.5615586638
-0.084959768 -0.10253531 1.2872858 -0.02053737268 0.713992238 0.6998523474
-0.02488216 -0.10363878 1.2946923 -0.09833423048 0.7456611395 0.6590294242
0.26536962 -0.12312169 1.3055716 0.1216843948 0.7420709133 0.6591840982
0.41523579 0.1642251 1.5230001 -0.4816195071 0.8120989799 -0.3294509351
0.38607347 0.080825157 1.4039999 0.139675051 0.7863106132 -0.6018359065
-0.0047564176 -0.044033084 1.2250001 0.002800886054 0.8002814054 0.5996180773
0.30480471 -0.14440557 1.322 0.2257719338 0.734511435 0.63993752
0.41093749 -0.22135833 1.25 0.7860042453 -0.2161904871 0.5791882277
-0.14194636 -0.04117528 1.2360001 0.3081853986 0.3514505327 0.8840273023
0.10138474 0.051667225 1.1120001 0.1609919071 0.6436827183 0.7481671572
0.064967886 -0.47444704 1.4135715 0.5440434813 -0.299085319 0.7839417458
0.33349413 -0.07793995 1.2328891 0.1125217676 0.7764552832 0.6200452447
0.20543928 0.41765642 1.3330001 0.2761817276 -0.4774940312 0.8341001868
0.27487916 -0.28302798 1.3944001 0.4953323603 -0.422601074 0.7589823604
-0.16048522 -0.13046642 1.317 0.0367748253 0.814001441 0.5796975493
0.074933954 -0.072731771 1.2570001 0.02424027584 0.7917227745 0.610399425
0.035148375 -0.06481082 1.2529001 0.01748389192 0.8024335504 0.5964852571
0.17637655 -0.4569844 1.3745002 0.3084666729 -0.3347667158 0.8903816938
0.15464008 -0.066079676 1.252895 0.00306559098 0.7743519545 0.6327477098
0.32789367 -0.37538585 1.296 0.7424618602 -0.2321945876 0.6283597946
0.3521761 -0.38421938 1.2643636 0.6870456934 -0.1908435524 0.7011041045
0.075206026 -0.0072137397 1.1751335 -0.007590452209 0.777980864 0.628242135
0.11273056 -0.0010248233 1.169 0.003589219879 0.8105456829 0.5856643915
0.38215357 -0.38429856 1.2238001 0.8520507812 -0.1347806603 0.5058098435
0.37204066 -0.44423303 1.223 0.8159586787 -0.1311942041 0.5630270839
0.16454516 -0.41450039 1.3976471 0.2955866456 -0.2487605214 0.9223593473
-0.045443594 -0.16322112 1.3570001 -0.04406056926 0.7047405839 0.7080956101
0.13496937 -0.35736996 1.427 0.09355741739 -0.554782331 0.8267185688
0.21265139 0.3652502 1.2925555 0.5762081146 -0.4326341748 0.6934059858
0.23564325 -0.10195873 1.2850834 0.03045021556 0.7495151758 0.6612864733
-0.097274929 -0.21339688 1.3870001 -0.5618644357 0.224776566 0.7961054444
0.1051835 -0.22509955 1.4330002 -0.01790803857 0.7122342587 0.7017133832
-0.16424641 -0.074767977 1.2653333 0.1959885955 0.5721387267 0.7963954806
