# .PCD v0.7 - Point Cloud Data file format
VERSION 0.7
FIELDS x y z normal_x normal_y normal_z
SIZE 4 4 4 4 4 4
TYPE F F F F F F
COUNT 1 1 1 1 1 1
WIDTH 512
HEIGHT 1
VIEWPOINT 0 0 0 1 0 0 0
POINTS 512
DATA ascii
0.034539789 -0.0055063427 1.7129999 -0.2318552583 0.8619951606 0.4507853985
-0.44209948 -0.38454807 2.9840002 0.7300391793 0.5833520889 0.3560100496
-0.46109071 0.046718445 2.3170002 -0.3632665575 0.7958979607 0.4843385816
0.46718442 0.18078007 2.3170002 -0.06659313291 0.9304574728 0.3602974117
0.49441171 -0.49441171 1.5727001 0.7691859603 -0.292812407 0.5679910779
0.3362639 0.41423813 1.853 0.3188052177 0.7870969176 -0.528054595
-0.29878202 0.32882714 1.904 0.7613160014 0.5042746663 0.4075597525
0.11124725 -0.47985753 1.8940001 0.8283280134 0.4451932311 0.3401113153
0.46476629 -0.066257007 1.6550001 -0.01156458724 0.05937037989 0.9981690049
-0.011599052 0.49523655 1.6834286 0.6388853192 -0.5348253846 0.552980423
0.2154174 0.0043259896 1.3745881 0.4238184094 -0.1626772583 0.8910185695
-0.17359184 -0.31275827 1.6710001 -0.3903343081 0.5216431022 0.7586353421
-0.3453716 -0.20440359 2.6800001 -0.2058863789 0.8162710071 0.5397336483
-0.096791014 -0.35577238 2.9840002 0.6447639465 0.6993869543 0.3084434271
0.0056425184 0.20178676 1.485 0.3877901435 -0.4692836106 0.7933421135
0.26605958 -0.29445919 1.705 0.7839197516 -0.09543405473 0.6134836078
-0.22870129 0.16443811 2.1560001 -0.1275512427 0.948348701 0.2904572785
0.0085343495 -0.19970378 1.9470001 -0.3416409492 0.8614624739 0.3757178485
-0.00503645 0.26525304 1.9150001 -0.02906278893 0.7005547881 -0.713006556
-0.26221889 -0.021973649 1.6710001 0.6500008106 0.3503900468 0.6743335724
0.2253647 0.30964744 2.0900002 0.08371087164 0.9950406551 -0.05372654647
0.27505854 0.12412899 1.6090001 -0.6161597967 -0.2747843266 0.7381332517
0.26369694 -0.059132043 1.8230001 0.3164489269 0.3273924887 0.890322566
0.34693795 -0.49590567 1.7390002 0.633374691 0.1994536072 0.7476996779
0.47479466 -0.28348693 1.6320001 0.1365389973 -0.1522158533 0.9788705111
-0.25274301 -0.24263328 2.8830001 -0.2058863789 0.8162710071 0.5397336483
-0.12451734 -0.13793035 1.785 -0.212581262 0.7677859664 0.6044120789
-0.0078637004 -0.33813909 1.794 -0.5664922595 0.2871986926 0.7724010944
0.1858051 0.26982135 1.8430001 -0.1667819768 0.7593814135 -0.6289067268
0.34492275 -0.10885394 1.4960001 -0.0634553507 0.7690916061 0.6359807253
-0.10351856 0.047303177 1.5640001 -0.07064937055 0.738071084 0.6710139513
0.17056865 -0.2258004 1.853 0.3118926585 -0.2082710564 0.9270092249
0.035756312 0.33662012 1.748 0.218945086 0.7816858888 0.5839779377
0.10579676 0.088790171 1.5790002 0.01733194664 0.8872513175 0.4609606266
0.17836922 -0.44820988 1.7390001 0.5016383529 -0.07230868191 0.8620501161
0.34966725 0.22114092 2.1560001 0.03427566588 0.9718327522 0.2331657261
0.34570298 -0.15549086 1.7220001 0.6331197619 -0.08190155029 0.769708693
0.19281845 0.023915466 1.705 0.1509819329 0.7175366879 0.6799599528
-0.15189038 0.23681834 1.863 0.1013188809 0.4553213418 -0.8845433593
0.072311848 -0.10123659 1.8330001 -0.2143767774 0.8132390976 0.5410034657
0.038189352 0.41510168 1.8940001 0.8352029324 0.4300199449 -0.3428103626
0.34652421 0.012389272 1.7130002 -0.3452125788 0.7085564137 0.6154478788
-0.41043255 0.1291032 2.1980002 -0.3419366479 0.8481032252 0.4047223926
0.34463519 0.36937824 2.016 -0.3136734366 0.9161140323 0.2496878803
0.15210342 0.16999795 1.4580001 -0.2480193675 0.3450079858 0.9052380323
-0.41355434 -0.3032732 2.8590002 -0.2058863789 0.8162710071 0.5397336483
0.47083575 -0.41702595 1.705 0.9502127171 0.1634537131 0.2652897537
0.1267774 0.31433848 1.9810001 0.4123653173 0.8883092403 -0.2021422386
-0.11838506 -0.032555893 1.6880001 -0.3886106908 0.6606770158 0.6422519684
0.03208074 -0.33431506 1.9260001 0.9543263912 0.193567723 0.2275801599
0.1483732 -0.35727409 1.8330001 0.6264081597 -0.6099011302 0.4854209125
0.34531024 -0.39028761 1.6550001 0.3063971698 0.3339670897 0.8913959861
-0.15396722 0.26155877 2.1160002 0.03062033281 0.9872946739 0.1559218764
0.35663852 -0.23419975 1.6240001 0.695638001 -0.04674322531 0.7168701887
0.32135239 -0.031766016 1.4116669 -0.3216197789 0.5031308532 0.8021346927
0.17351249 -0.11705867 1.8940001 0.2503988147 0.406660974 0.8785939217
0.0028333867 0.049584266 1.6160001 -0.2815445065 0.8399054408 0.4639952481
-0.027466843 -0.16318536 1.8430001 -0.4134486616 0.702262044 0.5795586109
0.2481852 -0.17432429 1.7850001 0.5828001499 0.0470626764 0.8112515807
-0.21345386 0.054149508 1.594 0.5852971077 0.09699183702 0.8049968481
0.20642519 0.073723286 1.529 0.442511797 0.7606901526 0.4749039412
0.4443385 -0.105989 1.5500001 -0.3839160502 0.6913644075 0.6120651364
-0.22138959 -0.11196524 1.7336668 0.187253058 0.7749349475 0.6036655903
-0.068550952 0.2847501 2.0050001 -0.03386135399 0.9672387242 -0.2516001463
0.15617202 -0.04600659 1.7850001 -0.2166000009 0.718159318 0.6613105536
-0.026319286 -0.082054242 1.7660002 -0.212701723 0.7926130891 0.5714214444
0.4976764 -0.38548461 1.594 0.875862956 -0.01231044065 0.4824028313
-0.01550531 0.09347488 1.5159999 -0.2421292514 0.7814651132 0.5750527978
0.47070688 -0.17311712 1.6320001 0.5320333838 -0.1090954989 0.8396658301
0.28287491 0.32442716 1.8230001 0.2085378319 -0.5126542449 -0.8328851461
-0.095603131 -0.35054481 1.7310001 -0.581507504 -0.7061151266 0.4040426314
-0.098746859 0.15014933 1.5430001 0.6317229271 -0.3519163132 0.6907105446
0.049543064 0.26689327 1.8230001 -0.3221541941 0.7767851949 0.5411297679
0.42856026 0.18616192 2.2120001 -0.04303769767 0.9535866976 0.2980272174
0.24513352 -0.27412781 1.804 0.6943355203 -0.4248028398 0.5808964968
0.076265261 -0.24662404 1.8830001 0.4443457723 -0.3563395739 0.8219360709
0.27283269 -0.44530457 1.6960001 0.3687497377 0.2822728455 0.8856329322
-0.012449668 0.39472842 1.6845715 -0.1368730664 0.6408343911 0.7553787231
0.42921862 -0.49953431 1.6710001 -0.137505725 -0.9867201447 -0.08646116406
-0.27384263 -0.24205731 2.789 0.2962929606 0.7961320281 0.5276213288
0.085619651 -0.15277232 1.9150001 -0.2267355025 0.769153595 0.5974895954
0.20442393 -0.353681 1.7479999 0.6395826936 -0.4369696379 0.6324487925
0.35011348 0.098148972 1.6710001 -0.6980824471 -0.4107114971 0.5865125656
0.10496856 0.034260571 1.6630001 -0.2168637961 0.8068410754 0.5495248437
0.074099377 0.12262462 1.4960001 -0.008495676331 0.8108882904 0.5851392746
-0.2430155 0.25779349 1.8730001 0.05327092111 -0.183580637 0.9815601707
-0.1689328 -0.22379985 1.6470001 -0.2606267929 -0.8939806819 0.3645164073
0.18508187 0.064778656 1.6240001 0.3204452395 0.8939834237 0.3132226467
0.39490327 -0.32406864 1.6160001 0.3545385599 0.2145593464 0.910091579
0.072247855 -0.3957212 1.8730001 0.7714999914 0.3599053621 0.5246483684
0.15417148 -0.49112356 1.8130001 0.8286889195 0.4514304996 0.3308854103
0.39526206 -0.12788501 1.655 0.6032977104 -0.03305976093 0.7968305349
0.21892558 0.073809199 1.427 0.4483117759 -0.3948106766 0.8019607663
0.39995199 -0.0043316102 1.6470001 0.3692655265 -0.1751526296 0.9126688838
-0.18384752 -0.017168639 1.6320001 -0.01837723516 0.6844707131 0.728808701
-0.087308988 -0.27672508 1.6880001 -0.7945638895 -0.2129604965 0.56860888
0.29742932 0.038795128 1.6390001 -0.4165658951 0.6781343222 0.6054805517
-0.039552569 0.00146491 1.6710001 -0.09359831363 0.7757106423 0.6241092682
0.25840276 -0.070010602 1.452 0.05543472245 0.8464143872 0.5296316743
0.24336793 -0.015403034 1.7570001 -0.1451536268 0.9083503485 0.3922117054
0.31074676 -0.22451083 1.6960001 0.6604253054 -0.5734063983 0.4848128557
0.3173025 -0.087797292 1.7570001 0.5154750943 -0.4663923085 0.7188627124
-0.074284345 0.23936068 1.883 0.3965410888 0.1112025008 -0.9112569094
0.086173378 0.21204868 1.4726251 0.0407285057 -0.7768645883 0.6283490658
0.076735877 -0.046041526 1.7760001 -0.2550591528 0.6918941736 0.6754460335
-0.16041948 0.10557521 1.5640001 0.7122413516 -0.1708040088 0.6808364391
0.38594458 -0.42498958 1.7130002 -0.1394340396 0.3356213868 0.9316202998
0.32572326 -0.30516911 1.6550001 0.6682090163 -0.00214534509 0.7439705133
-0.23725493 0.30723661 1.9470001 -0.3602407277 0.9280464649 0.09463843703
0.43099651 0.022525949 1.7130001 0.2805984616 0.5779759884 0.7662951946
0.45340103 -0.35691732 1.6550001 0.2234271169 0.765648067 0.6032108665
0.42128918 -0.2488804 1.5860001 -0.4452415705 -0.3158440888 0.8378558755
0.086096555 -0.31595811 1.853 0.3929350078 -0.2055844218 0.8962907791
-0.097787283 -0.084719941 1.7390002 -0.5057654381 0.5105742216 0.6953526139
0.26118588 -0.37121105 1.6960001 0.7073680758 -0.1025097892 0.6993726492
0.22122069 -0.12373361 1.8330001 0.7579622865 -0.5028628111 0.4154782593
0.28256807 0.34016156 2.0530002 -0.3585413694 0.8859270215 0.29424721
0.47275072 -0.44454512 1.6320001 0.8185403347 -0.2250300795 0.5285387039
0.1448639 0.11296728 1.5160002 0.0976729095 0.8796105385 0.4655590653
0.23521405 -0.49850202 1.7310001 0.3128852844 0.5032290816 0.8055205345
0.12988254 -0.41781494 1.7850001 0.8766204715 -0.1628942192 0.4527715147
-0.17313816 -0.081389733 1.6880001 -0.3387963474 0.5897957683 0.7330470681
-0.11532024 0.0075931023 1.6240002 -0.2554308176 0.8260766268 0.5023469925
0.12595333 -0.0075875497 1.7310001 -0.08106411994 0.8149434924 0.5738429427
0.011751717 -0.26525304 1.9150001 0.6131045222 -0.3353917897 0.7152727842
0.18319002 -0.29326475 1.8330001 0.4762951732 0.0684228912 0.8766192198
-0.36324158 -0.22852947 2.7440002 -0.2058863789 0.8162710071 0.5397336483
0.4104974 -0.077378109 1.4960001 -0.3201020658 0.6964975595 0.642203927
0.29260853 -0.22448803 1.7660002 0.8149286509 -0.1938773543 0.5461711287
-0.047869507 0.15672345 1.4960001 0.5600492358 -0.384173125 0.733999908
0.032906562 0.08089529 1.5640001 -0.2432362437 0.8599015474 0.448782146
0.033660933 -0.1436747 1.8730001 -0.4873121679 0.5950745344 0.6390720606
0.14444327 -0.084339358 1.8430001 -0.15281564 0.8345556259 0.5293054581
0.0063926531 -0.10707694 1.8230001 -0.2580359876 0.7820404768 0.5673007965
-0.092666298 -0.17301279 1.8330001 -0.2289090753 0.7385910153 0.6341008544
0.40717134 -0.19203471 1.6470001 -0.2383760363 -0.5822505951 0.7772780061
-0.045525298 -0.30805454 1.7310001 -0.3295280635 0.6533520818 0.681573391
0.26556513 0.057006128 1.5860001 -0.106538251 0.7318225503 0.6731161475
0.36419716 -0.057932585 1.4556 -0.3516179323 0.687043488 0.6358742714
-0.21121792 -0.27156591 1.6390001 0.2351947874 0.5207984447 0.820641458
0.14246288 -0.17367853 1.8940001 0.7195791602 -0.4979929328 0.4839513302
-0.036236387 0.057390604 1.5640001 -0.1998412013 0.8563777208 0.4761099219
0.2026515 0.13518885 1.503 0.01803589612 0.3736378551 0.9273992777
-0.07841257 0.089044787 1.516 0.1922699809 0.5699885488 0.7988399863
0.12246981 -0.44496289 1.8430001 0.7618117929 0.2318342775 0.6048930883
0.22135045 0.32152364 1.8430001 -0.1750059575 -0.64446491 -0.7443372607
-0.031702019 -0.037740499 1.7220001 -0.1699596196 0.7779988647 0.6048400402
0.065167889 0.054542691 1.6160001 -0.073810637 0.8535946608 0.5156821609
-0.064089149 -0.12463965 1.7939999 -0.4093808234 0.5282182693 0.7439037561
0.0086833835 -0.25181812 1.9810001 -0.06370348483 -0.5545457006 0.8297113776
0.26633745 -0.11486 1.7850001 0.6367709637 -0.3513524234 0.6863484383
0.016832877 0.13751166 1.4770001 0.1543172747 0.6152938008 0.7730457187
-0.055251043 0.027861634 1.6160001 -0.1677316427 0.9085479975 0.3826312125
-0.42940098 -0.35226306 2.9330001 0.7337435484 0.5648932457 0.3775129914
-0.031547725 -0.1975884 1.8940001 -0.4275793731 0.7825992107 0.4524536729
0.35691732 0.039173849 1.6550001 0.4795344472 0.6801478863 0.5544777513
-0.23455159 -0.075232029 1.6826668 0.2094502002 0.6730027199 0.7093644738
0.34843731 -0.18806867 1.6630001 0.6424327493 -0.7238599658 0.2516086996
-0.1192591 -0.26007107 1.6390001 -0.3841575682 0.5930098891 0.7076455951
-0.28084454 -0.28084454 2.835 0.7300391793 0.5833520889 0.3560100496
0.18718323 0.022612739 1.4330001 0.6771382093 -0.1523439139 0.7199133039
0.2040801 -0.059456408 1.8330001 -0.01530935895 0.7678720355 0.6404203176
0.046085488 0.38745949 1.9470001 -0.5009745955 0.7677519917 -0.3994763792
0.3871316 -0.03138905 1.705 0.8236938715 -0.2918780744 0.4861435592
0.38780928 -0.12253696 1.536 -0.293245405 0.7093747854 0.64093256
-0.15850484 0.025027081 1.5860002 -0.1283828169 0.6806342602 0.7212869525
0.036272082 0.018861484 1.6550001 -0.1715339273 0.8707203865 0.4608927667
0.12724961 -0.26695347 1.853 0.3700087368 -0.1795958728 0.911503613
0.022092 0.4462584 1.6800001 -0.3922715485 0.03530663997 0.9191716313
0.21587369 -0.40584251 1.7130002 0.5491639972 0.01691608876 0.8355433941
0.21456856 -0.21456856 1.813 0.4633817077 0.03214423358 0.8855755925
0.3353627 0.37032941 1.8130001 0.5205976367 0.2486603707 -0.8167901635
0.44666481 -0.23566492 1.655 0.08108591288 -0.002742530312 0.9967033267
-0.25641713 0.3348121 1.863 -0.183065936 0.315530777 0.931089282
0.25519416 -0.035694361 1.4040002 -0.04926551506 0.7888286114 0.6126355529
-0.16396822 -0.11493101 1.748 -0.2114971578 0.8008286953 0.5603055954
0.015334215 0.3062911 1.7939999 0.1022243425 0.7993046641 0.5921674371
0.18356436 -0.1640708 1.853 0.6735950708 -0.29641065 0.6770601273
-0.24282877 0.022989705 1.6390001 0.7228555679 0.1739238501 0.6687528491
0.06669417 -0.20683634 1.9260001 0.3165032566 -0.5073065162 0.8015396595
0.49442598 -0.22383755 1.6160001 0.3942533731 0.05240174755 0.9175065756
0.021564247 -0.05083001 1.7570001 -0.1616543531 0.8204737902 0.5483526587
-0.29187477 0.28846103 1.9470001 0.7677975893 0.6120474935 0.1894325763
0.40431517 -0.3823415 1.6710001 -0.2876439691 0.7109211087 0.641757071
0.22832958 -0.29882059 1.748 0.7236860991 -0.4954349995 0.4804400504
0.01285544 -0.37441468 1.8330001 -0.7535607219 0.5014400482 0.4250930548
-0.052328933 -0.36320615 1.766 -0.6239753366 0.4235797822 0.6566848159
0.29575577 -0.16396822 1.748 0.3932851255 -0.001380855567 0.9194155335
0.034197014 0.36427256 1.6960001 0.4796820581 0.6037515998 0.6367017627
0.11390267 -0.11555344 1.8830003 -0.1139768809 0.7584136128 0.6417304873
0.32887888 -0.44901726 1.7130001 -0.3817166686 0.7324824929 0.5637036562
0.095133111 0.15867691 1.4580001 0.05373589322 0.6364017129 0.7694837451
0.16453281 0.086379722 1.5640001 0.1408452839 0.9281415343 0.3445517421
0.18542202 -0.016345745 1.748 -0.04870808497 0.8594620824 0.5088736415
0.3107608 -0.35347199 1.6800001 0.47207883 -0.09033642709 0.8769155741
0.2943759 -0.49062648 1.7220001 -0.3820728064 0.6124190688 0.6920717359
-0.20649707 -0.25748402 2.9080002 0.3077389896 0.7924965024 0.5265415907
0.45759192 -0.49442598 1.6160001 0.8459926844 -0.3662805855 0.3874725103
0.35535157 -0.10853834 1.6960001 0.9161856174 0.1186227426 0.3827957511
0.18401057 -0.33342087 1.794 0.7446368933 -0.6137925982 0.2622490227
0.48592582 -0.33405629 1.6159999 0.7998926044 -0.1091297343 0.5901377201
0.036123928 -0.3464613 1.8730001 0.5139744282 -0.2199207246 0.8291351795
0.38211444 -0.49213964 1.6960001 0.566342175 -0.5504174232 0.6134306788
-0.12638028 -0.31669408 1.6960001 -0.232012704 0.814628005 0.5315555334
0.052302811 -0.29306176 1.8940001 0.5420312881 -0.1842574626 0.8199093342
0.17097367 -0.39431766 1.7570001 0.5701742172 -0.2942186892 0.7670311332
0.26293427 0.01712393 1.3950001 -0.3178028762 -0.5698618293 0.7577986717
0.31337979 -0.073447295 1.4558182 -0.08584070951 0.8391991258 0.5370066762
-0.19226789 0.26497424 1.8430001 -0.08829068393 0.5355582237 0.8398703337
0.31523529 0.091089167 1.6320001 -0.5285110474 0.2340150923 0.8160349131
0.12781011 0.22267947 1.503 -0.2251657099 -0.7410092354 0.6326181889
0.28764048 0.37762854 1.8330001 -0.5388520956 0.7202714086 -0.436860919
0.43496257 -0.45469278 1.7050002 0.04876797274 -0.4536072016 0.8898664117
0.14535747 0.29561463 1.863 -0.1689938307 0.5103366375 -0.8432067633
0.13387752 0.064459547 1.6160001 -0.2892666459 0.7942285538 0.5343461633
0.15590827 0.037878387 1.6710002 -0.1654469073 0.8774644732 0.4502037764
0.046973117 0.18214065 1.4580001 0.3866835833 -0.1303851157 0.9129487872
0.076761812 0.28418201 1.863 -0.4399578869 0.8024935722 0.4030399024
0.4477312 -0.0250376 1.6800001 -0.7435984015 -0.4229228795 0.5178780556
-0.00151751 0.37482497 1.7310001 0.1109626815 0.6275997758 0.7705879807
0.30442286 -0.40550885 1.6808001 -0.0001775818819 0.06215408444 0.9980665445
0.17184946 -0.49697006 1.766 0.814476788 0.350871712 0.4620785117
0.12050572 -0.22285305 1.8830001 0.5351241827 -0.4310491085 0.7265251279
0.21236694 0.043250933 1.6630001 0.1066718325 0.8727478385 0.4763741493
0.4991512 -0.44631627 1.5860001 0.7787091136 -0.1683776379 0.604368329
0.44088179 -0.29415411 1.5940001 -0.4530363977 0.2075193077 0.8670027256
0.4313831 -0.14237067 1.6240001 0.04084986076 0.3110102117 0.9495282769
-0.02717316 0.46798217 1.7220001 0.7671058178 -0.4423559606 0.4646180272
0.11471447 -0.39584571 1.8430002 0.5785315633 -0.02956268936 0.8151240945
-0.18098432 0.26234424 1.8940001 -0.4226082265 0.627522409 0.6539250016
0.085198849 0.0029894335 1.705 -0.1719274819 0.7199237347 0.6724215746
0.38411728 0.064054772 1.688 -0.8153749704 -0.5106710196 0.2727247775
-0.02636838 0.44386771 1.6710001 0.5544941425 -0.1870759577 0.8108876348
0.032883767 0.48727763 1.705 -0.407948941 -0.2015428394 0.8904819489
-0.2772879 0.28558993 1.8940001 0.866363585 -0.02296499535 0.4988854527
0.11544999 -0.064841777 1.804 -0.1284781098 0.8054585457 0.578558445
0.36731634 -0.28474134 1.6240003 0.6602998376 0.06585358083 0.7481092215
0.0250376 -0.18416546 1.9039999 -0.3248904049 0.817011416 0.476380676
0.35522291 -0.34564385 1.6390001 0.5047915578 0.1600380093 0.8482766747
-0.024629951 0.2512255 1.8730001 -0.05170231313 0.5068362355 -0.8604905009
0.27163428 -0.25038916 1.7310001 0.7959033251 -0.5954241753 0.1095807403
0.32671249 -0.25548738 1.655 0.660343051 -0.1145672351 0.7421734333
0.033757277 0.10605633 1.516 -0.143793568 0.8453882933 0.5144337416
0.075751007 0.098746859 1.5430001 -0.1078336686 0.9309478402 0.3488667905
0.23426989 0.0015017299 1.7130001 0.06567727029 0.8479793668 0.5259444118
-0.12253696 0.098298877 1.536 0.430608809 0.01715954952 0.9023755193
-0.1172042 0.26247138 1.8830001 0.06120633706 0.2810769975 -0.9577314258
0.037956163 -0.077493824 1.8040001 -0.1590159386 0.7593984604 0.6308945417
0.22647455 -0.039318498 1.794 -0.2443497628 0.8190209866 0.5191317797
0.13442434 -0.31352141 1.8529999 0.2050410062 0.03384562209 0.9781680107
0.22751209 -0.45577505 1.7130001 0.3667128086 -0.1732838303 0.9140538573
0.39485556 -0.21361539 1.6061428 0.0183334779 -0.621191442 0.783444345
0.018997367 -0.32468227 1.9700001 0.8518646955 0.4375138581 0.2879377007
0.23627217 -0.33588696 1.7130002 0.6257586479 -0.289590925 0.7242673635
0.47686741 -0.39520383 1.6343335 0.9369261861 -0.02264672145 0.3487928212
-0.13485536 -0.073584773 1.7130001 -0.3457481563 0.6308512688 0.6946113706
-0.16508032 -0.27418187 1.6374445 -0.1008969396 0.7010308504 0.7059571743
-0.22483121 -0.034034077 1.647 0.2767329514 0.5335914493 0.7991864681
-0.084558003 -0.0036447416 1.6630001 -0.2510071099 0.8298223019 0.4983877242
-0.074095242 -0.036086731 1.705 -0.1552639604 0.7421808839 0.6519667506
0.32245201 -0.20381624 1.7350001 0.7842510939 -0.4765686989 0.3972814083
0.1328811 -0.49546131 1.853 0.8229427338 0.2762982845 0.4964116216
0.085344896 -0.44266444 1.8940001 0.8342167139 0.3711677194 0.4078198671
0.3004854 0.3957212 1.8730001 -0.6077575684 0.7871671915 -0.1048740745
0.15413904 -0.45618927 1.7760001 0.8042114377 0.1769898832 0.5673786402
0.016786121 0.27345133 1.853 0.2728426158 0.8483051658 0.4538009465
0.4389762 -0.32792711 1.6240001 -0.4383030832 0.5029343367 0.7449479103
-0.16243143 0.061423648 1.557 0.2017800212 0.1830473691 0.9621738195
0.42335901 -0.06152622 1.6710001 0.6386523843 0.6521763206 0.4083983302
0.14866075 -0.36773974 1.7850001 0.6484819651 -0.5894238353 0.4817163646
0.38145518 -0.1634808 1.6799999 0.8957259059 -0.1068712026 0.4315710962
0.29449689 -0.26572943 1.6865455 0.5767762661 -0.2311383933 0.7835204005
-0.16571425 -0.043250933 1.6630001 -0.4938025177 0.7023124695 0.5127536058
-0.21017294 0.0098738968 1.6090001 0.4749824703 0.4349980354 0.7649629712
0.20415376 -0.096360572 1.863 0.2411158979 0.355877459 0.9028922319
0.29365304 -0.073020078 1.7939999 0.6525121331 -0.4229598641 0.6287549734
0.21615796 -0.16370785 1.8130001 0.588766396 -0.1495902538 0.7943405509
0.074701644 -0.022867849 1.739 -0.0419074744 0.8605921268 0.5075677633
0.20326021 0.071207903 1.57725 0.2836293578 0.9041214585 0.3195602596
0.25216267 -0.2259503 1.794 0.5814725161 0.2807335854 0.7635956407
-0.0052038934 -0.0111512 1.6960001 -0.3288730383 0.7348982692 0.5930995345
0.03564176 -0.23591451 1.936 0.7541898489 -0.4425452054 0.4851303101
0.22425909 0.034709688 1.4039999 0.1535403877 -0.281945765 0.9470649362
0.11397105 -0.18319792 1.9260001 0.5036965609 -0.3406155407 0.7938959599
0.21546538 -0.30353883 1.794 0.611759901 -0.7536987662 0.2401831597
0.073420711 -0.12549546 1.8730001 -0.2337335795 0.7695077658 0.5943285227
0.12595245 0.13453624 1.4841999 -0.130493626 0.7406829596 0.659060061
0.19593483 -0.25378832 1.8230002 0.5627856255 0.07924523205 0.8227955699
0.10429054 -0.35445791 1.853 0.2975836992 -0.1800413132 0.9375655055
0.18455499 0.31194693 1.863 -0.3211657405 0.1579360664 -0.9337605834
0.21047364 -0.02584764 1.404 0.3902856112 0.7439130545 0.5424670577
-0.13558438 -0.29187092 1.6630001 -0.004439605866 0.5621222258 0.8270422816
0.35219556 -0.42174679 1.6880001 -0.3185901046 0.7034288645 0.6353645921
0.39686346 -0.28507099 1.594 0.5008811355 0.3251116574 0.8021349907
0.12489344 0.015611678 1.6960001 -0.1121345907 0.8032028079 0.5850564837
0.39012104 0.010463017 1.705 0.7701472044 0.2636249661 0.5808399916
0.1161145 -0.035608448 1.7659999 0.04974286258 0.7312460542 0.6802976131
-0.18641405 0.085800767 1.5940001 0.5443474054 -0.4675731659 0.6964634061
-0.013572378 0.023390692 1.6470001 -0.1663443595 0.8012568951 0.5747320652
0.42470643 -0.41434774 1.6880001 -0.05447795242 0.6932625175 0.7186231613
-0.09443979 -0.1161145 1.7659999 -0.4295538068 0.5809624195 0.6913509965
-0.05114824 0.11541142 1.4960001 0.2754453123 0.4572796524 0.8455916047
0.29455999 -0.3151792 1.6800002 0.4006844759 -0.009274705313 0.9161691666
-0.084096879 -0.31536329 1.7130001 -0.4350912869 0.7337706089 0.5218009949
0.45433477 -0.38603291 1.6834288 0.3850090206 0.6251422763 0.6789441705
0.30316535 0.060352363 1.6010001 -0.0293982774 0.8826676607 0.4690773487
0.45340586 -0.46215323 1.6630001 0.8703235388 -0.1951197386 0.4521782994
0.33253369 -0.12412548 1.748 0.5522145033 -0.1179651693 0.8253141046
0.24073881 -0.085631929 1.8430001 0.6474877596 0.2573075593 0.7173230648
0.28493157 -0.052488223 1.4255 -0.02334064431 0.7895330787 0.6132639647
0.46739307 -0.44766545 1.7310001 0.198660627 -0.2153597474 0.9561140537
0.026368128 0.40527648 1.6845714 0.2283783257 0.5631119609 0.7941966057
0.44225949 -0.49331832 1.7130001 -0.6315402389 -0.2479192764 0.7346379757
0.0084861331 -0.30380356 1.9360001 0.7632058263 0.4125918746 0.4972774088
0.36532801 -0.46496293 1.7220001 0.4761525393 0.03204511479 0.8787786365
-0.026185157 -0.33116522 1.7570001 -0.3642646074 0.6916384697 0.6236565709
0.31690887 0.025880076 1.6710001 -0.5037273169 0.6183089614 0.6032850742
0.11633191 0.10145225 1.5430001 0.0723092109 0.9430479407 0.3247028887
0.24572071 0.33345541 1.8130001 -0.08029461652 -0.2404494286 -0.9673349261
0.1654373 0.13358493 1.4829999 -0.2450308949 0.6663508415 0.7042275071
-0.027019745 -0.12556233 1.8130001 -0.5364493132 0.5065589547 0.6749964356
0.17196104 -0.32558888 1.8529999 0.4318268001 -0.0722373575 0.8990591764
0.39509001 0.033531625 1.6630001 -0.6900679469 0.1321026832 0.7115862966
-0.062828943 -0.068958603 1.748 -0.2274211645 0.7708725929 0.5950084925
-0.13493215 -0.018861484 1.6550001 -0.2962929308 0.8172203898 0.4943291545
0.28633144 -0.014976653 1.3920001 -0.2519610524 0.4426288605 0.8605784774
0.39456081 -0.36180049 1.6390002 -0.03513549268 0.721108675 0.6919304729
-0.20264764 -0.24201085 1.6630001 0.5331365466 -0.5520942807 0.6410595179
0.068129271 0.08203321 1.5860001 -0.1914469302 0.8089657426 0.5558080077
0.25235552 -0.27093384 1.766 0.6619066 -0.7483007908 0.04388147593
0.29481405 -0.12538069 1.7570002 0.6300170422 -0.5000978112 0.5941218138
-0.025163841 -0.37273937 1.794 -0.2440875471 0.5956228375 0.7652808428
-0.005612595 -0.17134924 1.8830001 -0.369650811 0.7385522723 0.5638251901
0.36589262 -0.19575968 1.6240003 0.4747487307 -0.5067955852 0.719563663
0.052189719 0.30206776 1.8040001 -0.07428058237 0.8801970482 0.4687596262
-0.05226336 -0.18455499 1.863 -0.3720068634 0.7342005968 0.5679439902
0.34677428 -0.18982902 1.705 0.513879478 -0.8057781458 0.2943628728
0.16454858 0.0045288601 1.7220001 -0.002541300841 0.7341621518 0.6789694428
0.054189835 0.14450164 1.4717499 0.01907013543 0.6479421854 0.7614507675
0.082803547 -0.28359628 1.8730001 0.6520810723 -0.1802522987 0.7364097834
0.11492179 0.1928066 1.4565001 -0.3687713444 -0.6466995478 0.667673111
0.024313472 -0.21708459 1.9810001 0.02278864384 0.3138729334 0.9491914511
0.44562018 -0.25769091 1.6240001 -0.6759998798 -0.5676231384 0.4699235857
-0.15674537 -0.25049961 1.6710001 0.4487752616 0.361892581 0.8170890212
-0.0046200333 0.080714703 1.5500001 -0.2987112701 0.8217263818 0.4853218794
0.18490672 0.10462437 1.5261999 0.07739863545 0.8801140785 0.4684107304
0.31643635 0.40273714 1.8230001 0.03893389925 0.6165175438 -0.7863779664
0.19513899 -0.4847984 1.7390002 0.4335917234 0.1670542359 0.8854891658
0.46681851 -0.42424792 1.6630001 0.9798483849 -0.1979412735 0.02676608972
-0.085241817 0.032140352 1.5940002 -0.1851930022 0.879450798 0.438485831
0.07279519 -0.35686061 1.8730001 0.668777287 0.07407218218 0.7397636175
0.071780592 0.019043829 1.6710001 -0.2374378443 0.8243806362 0.5138286352
0.23097186 -0.37287614 1.7220001 0.5319764614 -0.254119277 0.8077279329
0.13520305 -0.13854139 1.9039999 0.2246076316 0.4471251369 0.8658120632
-0.086120926 0.12546012 1.5159999 0.547840476 -0.1429762542 0.8242745996
-0.065470524 0.066823222 1.5430001 -0.00963274017 0.8550470471 0.518460989
-0.20776561 -0.088188283 1.705 0.106925793 0.8094108105 0.5774261951
0.047293246 -0.2576091 1.9039999 0.6525409222 -0.4893917441 0.578520596
-0.15441957 0.0035417331 1.6160001 -0.1598941684 0.7881148458 0.5943979025
-0.092518143 -0.14628936 1.8040001 -0.1917510778 0.7386530638 0.646237731
0.14535747 -0.19380994 1.863 0.5964980125 -0.4743403792 0.6474499106
0.37563348 -0.08428286 1.4855715 -0.3060233593 0.757627666 0.5764980316
-0.0065063271 0.16526188 1.4843333 0.2999495566 -0.2428178042 0.9225344062
0.134304 -0.38701808 1.8130001 0.8979094625 -0.355027169 0.2602197826
-0.13299735 0.13025513 1.5640001 0.634423852 -0.3971535265 0.6631556749
0.47860828 -0.41965947 1.6010001 0.8858836293 -0.05362602323 0.4607976377
0.098320447 -0.42561975 1.8630002 0.8067266345 0.2343385071 0.5424735546
0.25559655 -0.41403651 1.705 0.3838998377 0.09441181272 0.9185354114
-0.24757768 -0.089067578 1.7220001 0.2181245089 0.8318948746 0.5102671385
0.18801081 -0.19443852 1.8330001 0.7498609424 -0.1448958218 0.6455337405
0.0042474498 -0.075783446 1.785 -0.3448216617 0.7542042732 0.558814764
0.074330814 -0.074330807 1.804 -0.2027183771 0.7236713767 0.6597006917
0.43460488 -0.036457714 1.6470002 -0.3134287 -0.1656780541 0.9350472093
0.17324424 -0.061986465 1.8130001 -0.2938775718 0.8159050941 0.4979305267
0.10825168 -0.088863313 1.8430001 -0.2591834664 0.7842286229 0.5637458563
-0.0048733903 -0.13645492 1.853 -0.475228399 0.4625129998 0.7484916449
-0.015653431 0.12521857 1.4878751 -0.03290455788 0.4354167283 0.8996274471
-0.20853357 0.24629951 1.8730001 -0.08539348096 0.3576596379 0.929939568
0.15587221 -0.25228801 1.8330001 0.223334223 -0.2065761089 0.9526007175
0.39995638 -0.45794261 1.6960001 0.2686105669 -0.5287976861 0.8051219583
-0.055935714 -0.15342368 1.8230001 -0.2532372773 0.7480810285 0.6133886576
0.047321588 -0.37359151 1.8940001 0.603752315 0.3471865356 0.7175964713
-0.24926527 0.30539122 1.883 0.3961530626 0.09961239994 0.9127650857
0.20252052 -0.13229163 1.863 0.6704925299 -0.4045383036 0.6219232678
-0.17708667 -0.24792133 1.6160001 0.02339977026 0.06192819402 0.997806251
0.24355203 -0.14233559 1.8040001 0.6633131504 -0.3823515177 0.6432907581
0.41471505 -0.10122636 1.526 -0.3732554018 0.721115768 0.5836715102
-0.0084861331 -0.2291256 1.9360001 -0.8464631438 0.162650615 0.506995976
0.3359248 -0.058039367 1.4330001 -0.2425910234 0.630150795 0.7376039624
0.42284086 -0.22636937 1.6240001 -0.7122696042 -0.4739270806 0.5177500844
-0.26192695 -0.053273279 1.6880001 0.5157027841 0.4930987656 0.7006456256
-0.12412548 -0.10880134 1.748 -0.1606742591 0.7122604251 0.6832780242
0.034391258 -0.11563772 1.8430002 -0.1964157671 0.7430030704 0.6398181319
-0.21558636 0.28254879 1.863 0.253164202 0.01695281081 0.967274785
0.093473703 -0.21365419 1.904 0.5098202825 -0.7347775102 0.4474207163
0.25748226 -0.093774401 1.8130001 0.6730564237 -0.3784375787 0.6354368925
0.39619157 -0.034225628 1.6710002 0.7610974908 0.4928060472 0.4217496812
0.3738133 -0.011634243 1.7310001 0.3424021006 -0.3026984036 0.8894574046
0.27558193 -0.19461998 1.7760001 0.5468204618 0.1957675815 0.8140408397
0.13721792 -0.45615685 1.8130001 0.9137538075 0.3151541352 0.2563821971
0.45561638 -0.20488852 1.6343335 0.3672285676 0.2647691071 0.8916504383
0.31502607 -0.091810085 1.4890002 0.004259926267 0.8697522879 0.4934701324
0.17002863 -0.15021946 1.8830001 0.6130256057 -0.5323840976 0.5837523341
0.16140749 0.080001973 1.6010001 0.2254699618 0.9286289215 0.2946380377
-0.12238354 -0.16211846 1.8130001 -0.2209859341 0.727838099 0.6491663456
0.1461377 -0.10672978 1.8730001 -0.08545009047 0.7614552379 0.6425606608
0.31311116 0.33854148 1.8130001 0.07176338136 -0.6019936204 -0.7952695489
0.054248132 -0.16524816 1.904 -0.4494228065 0.7100380659 0.5420932174
0.17934233 -0.082400531 1.8430001 -0.1864300072 0.797586441 0.5736721158
0.1048667 0.05405638 1.6345456 -0.1065663919 0.829161644 0.5487573147
0.47562951 -0.46481359 1.6040769 0.7996339202 -0.3208446205 0.5075867772
-0.054793421 0.26566505 1.8940001 0.01550607383 0.07298393548 -0.9972125888
-0.065554507 -0.33581093 1.7390002 -0.3134671748 0.4597781003 0.8308684826
0.039036214 -0.18839216 1.9360001 -0.1743067801 0.6671383977 0.7242537737
0.38270313 -0.2549018 1.6019999 0.7605723739 0.08725675941 0.643362999
0.31781593 -0.49443737 1.7570001 -0.2420143634 0.722614646 0.6475006342
0.44038033 -0.16604505 1.647 0.1876808107 0.2522321343 0.9492917657
-0.18568327 -0.11020226 1.7220001 -0.08889871836 0.8058238029 0.5854443312
-0.20459908 -0.063723586 1.6710001 0.008699020371 0.7180867195 0.6958992481
0.27371356 -0.15351626 1.7760003 0.7510091066 -0.09843756258 0.652913034
0.1959599 -0.41549128 1.7390002 0.6177423596 -0.1095771492 0.7787086964
-0.10662283 -0.052560549 1.7130001 -0.4247572124 0.6692067981 0.6097077727
0.21675408 0.055251036 1.6160001 0.3095628023 0.9062262774 0.287966609
0.13613002 -0.22645018 1.853 0.6835507154 -0.2209719121 0.6956506371
0.034909569 0.043780033 1.6320002 -0.1245763376 0.6933292747 0.7097712755
-0.15430327 -0.14191772 1.7660002 -0.1393839568 0.6971109509 0.7032840252
0.41631848 0.0066451337 1.684 -0.3853807151 -0.7170156837 0.5808358192
0.34095755 -0.22488691 1.6550001 0.8150060773 -0.104832083 0.5698906183
0.26539856 -0.33527941 1.6960001 0.6811947823 -0.1757045537 0.7107049823
0.34472394 0.075081237 1.6470002 -0.5916856527 -0.2111188769 0.7780339718
0.19462 -0.032696161 1.7760001 -0.08523726463 0.8280978203 0.5540654659
0.10535708 0.11736614 1.5073636 -0.0004776075657 0.9175359607 0.3976525664
0.025619121 0.067541324 1.5940002 -0.2209542543 0.8892489672 0.4005189538
0.0045587635 -0.034941692 1.7327778 -0.3458743393 0.7028922439 0.6215412021
0.21210249 -0.32202423 1.766 0.8197779059 -0.4345883429 0.3729572892
-0.12453951 0.033170816 1.5860002 -0.03630736098 0.8172004819 0.5752088428
-0.14617269 -0.054095399 1.688 -0.398280859 0.589630723 0.7026435733
0.25499374 -0.47484705 1.7129998 0.1859711856 0.2499355972 0.950235188
0.042686652 -0.032014988 1.7390001 -0.3037893176 0.6233296394 0.7205360532
0.075081244 0.041872229 1.6470001 -0.1496244222 0.8308010697 0.5360803604
-0.026550727 0.047046021 1.5940002 -0.3509894013 0.8530166745 0.3862240613
0.1625603 -0.42575315 1.7660002 0.7526586056 0.02469499968 0.6579477191
-0.035723664 -0.096835844 1.7939999 -0.2866704762 0.6927192211 0.661785543
-0.10344579 0.22823755 1.8730001 -0.0795629397 0.2234248668 -0.9714685082
0.38327166 -0.40398905 1.6880001 -0.3116420805 0.7712134123 0.5550757647
0.18136041 0.050780915 1.6550001 0.001817752607 0.8803642988 0.4742946029
0.49510539 -0.29480633 1.6090001 0.6521459818 -0.1078078076 0.7503886223
0.30043805 -0.46336216 1.705 -0.3065501451 0.5742121339 0.7591491342
0.20494099 0.10573389 1.4890001 0.2563346624 0.4347169697 0.8633155227
0.47499904 -0.24465312 1.6320001 0.3778237402 0.07726442069 0.9226480722
-0.0067152665 -0.19474274 1.9150001 -0.2751535475 0.862089932 0.4255484045
0.33966449 -0.09661568 1.7220001 0.8599969745 0.1255214363 0.494620651
0.23523036 -0.023384679 1.3814619 -0.08138082922 0.6647028327 0.7426623106
0.21359508 0.28662461 1.8430001 0.1669995934 -0.2850575447 -0.9438502789
-0.073096469 0.16081223 1.516 0.6009215713 -0.3892216682 0.6981402636
0.13500184 0.044038035 1.6470001 -0.04722769558 0.8393649459 0.5415127277
0.07686013 -0.1757842 1.936 -0.01603312232 0.4390816391 0.8983041048
0.47836545 -0.3644689 1.6240003 0.8328592777 0.04188723862 0.5518974662
0.27979782 -0.35304332 1.6710001 0.393915087 -0.07229286432 0.9162994027
0.15480049 -0.020794095 1.7570001 -0.1832881272 0.8313607574 0.5246377587
0.35832521 -0.14124854 1.6960001 0.8809321523 0.2397479415 0.4080189466
-0.035395291 0.075984456 1.536 -0.1353912354 0.8043958545 0.5784604549
0.34510311 -0.084988996 1.4743749 -0.07737194747 0.8471982479 0.5256126523
0.011510007 0.47525865 1.6710002 -0.07373742014 -0.2127406448 0.9743224382
0.27536297 0.35403809 1.813 -0.1476411521 0.04377964139 -0.9880715609
0.078287207 0.18267015 1.4450001 0.1360583156 -0.08658862859 0.9869095683
0.0036622752 0.010986825 1.6710001 -0.1610948592 0.825643003 0.5407051444
0.32838324 -0.33708858 1.6550001 0.6756644845 -0.002175725065 0.7372061014
0.17804223 -0.35608447 1.766 0.6816410422 -0.5130620599 0.5216635466
0.36342815 -0.31517857 1.6336155 0.6811954975 0.09916575253 0.7253542542
0.044762596 0.31567365 1.7760001 0.1307834089 0.8434339166 0.5210709572
0.0077848001 0.33163247 1.7760001 0.2540054023 0.7716591954 0.5831151605
0.42622766 -0.35514122 1.6348002 -0.2793754339 0.7562499642 0.5916378498
-0.19369292 -0.2938039 1.655 0.1160936654 0.6772316694 0.7265532017
-0.083982565 0.011176798 1.6348002 -0.2949549854 0.8547099829 0.4271678627
0.045151841 -0.060721438 1.7760001 -0.1505151689 0.8081003428 0.5694901347
0.062943198 -0.324568 1.8730001 0.5938497186 0.02038034424 0.804317832
-0.054000735 0.016460117 1.6470001 -0.1785179824 0.857432723 0.4826390743
0.36884785 -0.11225804 1.6630001 0.7635246515 0.1577649117 0.6262111068
0.27150148 -0.25428814 1.7850001 0.770378232 -0.4104736149 0.4878819287
0.16141449 0.26689327 1.8230001 0.06352826208 0.7665128708 -0.6390791535
0.15413745 -0.28565517 1.8430002 0.4082999527 0.1630207151 0.8981733918
0.094039157 0.067053102 1.6078573 -0.1776736379 0.801119864 0.571523428
0.4519313 -0.49380353 1.6470001 0.8693011403 -0.3675361276 0.3305037916
0.11378169 -0.46764818 1.863 0.7763108611 0.3896315396 0.495508492
-0.18251938 0.26363909 2.1030002 0.01505965367 0.9783874154 0.2062311918
0.25228801 0.31013748 1.8330001 -0.2019783556 -0.5136830807 -0.8338671327
0.21495779 -0.010671663 1.739 0.008450323716 0.8634566665 0.5043522716
-0.064867787 0.045542732 1.5743334 -0.1712296754 0.7656549215 0.6200427413
0.37577879 -0.38303319 1.6550001 -0.1186749637 0.583833456 0.8031529784
0.20538516 -0.38491425 1.7354445 0.6580529809 -0.2111766934 0.7227521539
0.29583597 -0.22739023 1.7350001 0.7424193025 -0.6533359885 0.1482082158
0.028539883 -0.29211408 1.9150001 0.8618477583 0.01877216995 0.5068194866
-0.12501267 0.065224007 1.5499998 0.3022111058 0.5437723398 0.7829304934
-0.065024123 -0.094439797 1.7660002 -0.4018048942 0.5515687466 0.7309752107
0.095517218 0.31433848 1.9810001 -0.1651279181 0.7127435803 -0.6817106009
0.37569493 -0.17701845 1.6470001 0.2358777821 -0.8346704245 0.4976815581
0.23479724 -0.24606751 1.8129998 0.3199982941 0.01246129069 0.9473361969
-0.005991627 0.065916091 1.5774447 -0.3352557719 0.8479318023 0.4106277823
-0.18492232 0.044492584 1.5860003 0.4307581484 0.270786196 0.8608846068
0.064277202 0.29246128 1.8330001 -0.5808523893 0.6016634107 0.5482806563
-0.044604801 -0.026762879 1.6960001 -0.1633874625 0.736248374 0.656690836
0.40189469 -0.15814628 1.6550001 0.533560276 0.170935601 0.8283081651
0.41779828 -0.48321867 1.6960001 -0.4896864891 -0.2091731578 0.8464359045
0.31520024 -0.43358532 1.688 -0.1718518734 0.5885880589 0.7899563313
-0.21988641 -0.24516071 2.8830001 0.2962929606 0.7961320281 0.5276213288
-0.15592217 -0.094243422 1.7220001 -0.3668782413 0.6944916844 0.6189359426
-0.12348691 -0.33302218 1.7220001 -0.1855735779 0.6112408042 0.7693809867
0.25352061 -0.28540003 1.7316669 0.7755436897 -0.3806666732 0.5036118627
-0.045395993 0.22863072 1.8830001 -0.123843126 0.2355541885 -0.9639383554
-0.22605376 -0.0071536 1.6320001 0.5395866632 0.4381291866 0.7189499736
0.36316794 0.03100244 1.684 0.1736482382 0.9631428719 0.2054314911
