# .PCD v0.7 - Point Cloud Data file format
VERSION 0.7
FIELDS x y z normal_x normal_y normal_z
SIZE 4 4 4 4 4 4
TYPE F F F F F F
COUNT 1 1 1 1 1 1
WIDTH 512
HEIGHT 1
VIEWPOINT 0 0 0 1 0 0 0
POINTS 512
DATA ascii
-0.26647249 -0.41126099 1.7570001 -0.3814426064 0.1425692737 -0.9133321047
0.49950799 -0.44991148 4.0410004 -0.4285530746 0.8440591097 0.3223451972
0.49144968 0.10024595 2.789 -0.1896909922 0.864593327 0.4652910233
-0.416592 -0.36162499 3.3000002 -0.1618312448 0.7603225112 0.6290630102
-0.36480731 0.072961457 2.5220001 -0.1222369745 0.8181550503 0.5618544221
-0.1377892 0.4412351 1.766 0.9228567481 0.04362313822 0.3826648891
0.28605986 -0.24136299 3.3990002 0.067627877 0.9500027299 0.3048299551
0.25685894 -0.052043315 1.9150001 -0.4073808789 0.7327103615 0.5451387763
0.49444002 0.35797456 2.256 -0.9976691008 -0.05093265325 0.04541150108
0.10318805 -0.48697519 2.0650001 0.8235997558 -0.09342876822 -0.5594233274
-0.14931737 0.3316009 2.2120001 -0.089935489 0.9131367803 0.397608906
-0.1137907 0.0047671879 1.655 0.1241210997 0.4654635489 0.8763204813
-0.44482768 -0.17439267 2.8830001 -0.5088043809 0.7683747411 0.3882245719
0.12903306 -0.40695041 3.7740002 -0.004609105643 0.8810976744 0.4729118347
-0.0065355501 0.12853248 2.4850001 -0.2014649808 0.7957286835 0.5711634755
-0.060752999 -0.27483499 3.3000002 -0.2257373184 0.8353928924 0.5011600256
-0.086833835 -0.13719745 1.9810001 -0.05376354977 0.854231596 0.5171052814
0.47206658 -0.080058075 3.1490002 -0.1983939409 0.8902711272 0.4099477232
-0.37914169 0.27780426 1.9930001 -0.5351122618 0.8383187056 0.1042912677
0.29399893 0.2154496 2.5600002 -0.1617230475 0.8727366924 0.4606259763
0.22683048 0.37487495 2.0900002 0.2209852189 0.9228698611 -0.3153993189
0.42400157 -0.35603186 3.6920002 -0.1861962378 0.8861195445 0.4244091213
0.13397878 0.083406508 1.7220001 -0.6276945472 -0.06220851839 0.775970161
-0.3364296 -0.20513999 3.1200001 -0.2213422954 0.8125517964 0.5392283201
-0.075127043 -0.39410222 1.9150001 0.6743423939 0.2353919595 -0.6998949647
-0.27157116 -0.1767623 1.8330001 0.9659292102 -0.09638146311 0.2401902676
0.31136832 -0.48244983 3.9030001 -0.1398592889 0.9178733826 0.3714132607
0.075145684 -0.263693 2.0780001 0.5679920912 0.6609023809 -0.4905028343
-0.13025075 0.3942256 1.9810001 0.9989550114 -0.03026933409 0.03424348682
-0.18545708 -0.33747107 3.4680002 -0.2255800217 0.8888762593 0.3987639546
0.053607292 -0.054906856 1.853 -0.1661028564 0.8897502422 0.4251521826
0.49672809 -0.16070615 3.3330002 -0.2306537777 0.8842634559 0.4060505033
0.49703491 0.0078479201 2.9840002 -0.2495517135 0.8698819876 0.4254753292
-0.17995775 0.12067755 2.4150002 0.8219473958 0.3743878007 0.429227531
-0.0060805599 -0.34355164 3.4680002 -0.236348778 0.9188600779 0.3159674704
-0.11602595 -0.083178423 1.8130001 -0.3650672734 0.8880810738 0.2793526649
0.37540531 -0.28853467 3.5390003 -0.2072373331 0.8901437521 0.4058285058
0.12492456 -0.12317736 1.9930001 -0.08676537871 0.8965685964 0.4343230128
-0.11713494 0.28232524 1.7130001 0.7130072117 -0.03201157972 0.7004255652
-0.14243817 0.10174155 2.5790002 -0.1729171723 0.817568481 0.5492553115
-0.16765636 -0.29621074 1.8330001 0.7468777299 0.1359385401 -0.6509181261
-0.15289097 -0.49596336 1.8230001 0.6387887597 -0.3508156538 -0.6847461462
0.22027916 -0.27612457 3.5390003 0.109123528 0.893669188 0.4352555871
-0.24836405 -0.33602196 3.3330002 -0.2920928597 0.8374516368 0.4619053304
0.014794275 -0.0033211641 1.7220001 -0.4386322498 0.8213460445 0.3646813035
0.24317768 0.055628885 1.8130001 -0.7371976376 0.1020747349 0.6679224968
-0.032996856 -0.27265823 1.9810001 0.5635281205 0.3198394477 -0.7616684437
-0.10722965 0.14385609 1.6848001 -0.0002066613233 -0.4901652932 0.8716294765
0.30061951 0.27503487 2.4320002 -0.1295311153 0.8948962092 0.4270626009
0.49613634 -0.43454701 3.9030001 -0.4696351886 0.8186981678 0.3304180801
0.3007063 0.11888389 2.6590002 -0.2037211955 0.8413394094 0.5006452799
0.016437875 -0.49583501 1.9589999 0.7165673971 0.2183408141 -0.662463963
0.131301 -0.34906849 3.6530001 -0.150912419 0.8797696233 0.4508112967
0.042771105 -0.3755655 2.0050001 0.671220243 0.2591279447 -0.6944897771
-0.17315744 -0.28102601 3.2380002 -0.2482651323 0.7544152141 0.6076365113
0.46516284 -0.23410156 3.4680002 -0.2348768562 0.874997735 0.4233341515
-0.017084479 0.075456455 1.6240001 -0.4784476459 -0.07471042871 0.8749321103
-0.19172174 -0.061894421 1.7220001 -0.01706732437 0.9291054606 0.3694208562
-0.2695531 -0.29111734 1.7570001 -0.5054616332 0.4345825315 -0.7454170585
-0.4066889 -0.11165606 2.7890003 -0.3842375576 0.8414658308 0.3798640966
-0.14381863 -0.21432893 1.9150001 0.6509529948 0.4490096569 -0.6120870113
0.16641676 -0.024235448 1.8430002 -0.208018288 0.7940239906 0.5711867809
0.016044578 -0.10616732 1.9470001 -0.1786496341 0.8528766632 0.4905973077
0.38644782 -0.20354885 3.3650002 -0.2096895725 0.8814482689 0.4231775403
0.39110205 -0.41879067 3.9480002 -0.8476682305 0.3280438185 0.4169481695
0.034196135 -0.16378149 2.0530002 -0.2098608762 0.8685247302 0.4490247369
0.40981275 -0.15188864 3.2690001 -0.226387918 0.8853789568 0.4060204625
0.32344881 -0.35547343 3.6530001 -0.1883375347 0.8844822645 0.4268724024
0.48526657 0.053076029 2.8830001 -0.2166994065 0.8776280284 0.4275633097
-0.07338997 -0.49712577 1.8940001 0.6678659916 -0.1003376916 -0.7374871969
0.27097416 -0.44493288 3.8160002 -0.1596516371 0.9061300159 0.3917138875
-0.16763969 -0.39379513 1.804 0.7414259911 0.1207412407 -0.6600825787
-0.23364131 -0.085827418 1.8130001 0.3651472926 0.7666098475 0.5281825066
0.095597349 0.002802528 1.7760003 -0.2991871536 0.8040282726 0.5138341784
-0.25910234 -0.2145256 3.1780002 -0.2341458201 0.7581626177 0.6085763574
-0.064755857 -0.096857063 1.8940001 -0.2237249315 0.8917894959 0.3932666183
-0.11248071 -0.30554461 1.9150001 0.7061671615 0.2009476125 -0.6789315343
0.13870533 -0.44994652 3.8590002 -0.01548062265 0.8814039826 0.4721094966
-0.074357994 -0.037937749 1.7310001 -0.2437622249 0.9079033136 0.3410155177
-0.099316686 -0.35212281 3.4330001 -0.2242963016 0.9041012526 0.3637198508
0.4236702 -0.49369833 3.9940002 -0.3591769338 0.8894347548 0.2826617956
0.0029499833 -0.29499832 3.3650002 -0.2144137174 0.9338363409 0.2863152921
0.45663813 -0.045663811 3.0640001 -0.3064928055 0.8579875231 0.4122129679
-0.16122456 -0.12380725 1.883 -0.3890398145 0.8395753503 0.3791586459
0.13598415 -0.073867932 1.9150001 -0.09674304724 0.8342779875 0.5427899957
0.10680868 -0.3493911 2.0650001 0.4674779475 0.1095994934 -0.8771843314
0.060061309 0.057131488 1.6710001 -0.4441196322 0.3520121574 0.8239206076
0.38566846 -0.45671263 3.8590002 -0.2435988188 0.8772655725 0.4135997891
-0.111512 0.37021983 1.6960001 0.917522192 -0.1473969072 0.3693605065
-0.22642459 -0.49135676 1.7570001 0.06300017238 -0.6632962823 -0.7457003593
0.48540857 -0.11638451 3.2380002 -0.2188512236 0.8853996992 0.4100871682
-0.025831277 -0.053244058 1.8040003 -0.2093286961 0.9207620025 0.3292094469
0.4150438 -0.31365907 3.6140001 -0.180099383 0.8858923912 0.4275030792
-0.13506803 0.15031765 2.4850001 -0.1999761313 0.8032792807 0.5610275865
-0.37186271 -0.32076707 3.2380002 -0.1618312448 0.7603225112 0.6290630102
-0.13597099 -0.23433299 3.3000002 -0.2211375386 0.8310036063 0.5104225874
-0.19679186 -0.21618021 1.8430001 0.6515370011 0.5274045467 -0.5452926159
0.17460194 0.026468322 1.7760001 -0.3484108448 0.6887098551 0.6358368993
0.36416119 -0.24377733 3.4330001 -0.1996117681 0.8782986403 0.4344497621
0.2833654 0.0057163052 1.863 -0.3669470251 0.6080594659 0.7039982677
-0.11759256 -0.43688899 1.863 0.8171371818 0.03544405103 -0.5753524899
-0.01889129 -0.35721713 1.9590001 0.5306940079 0.1737431884 -0.8295644522
0.19515477 -0.098440908 1.9700001 0.04385822266 0.8338943124 0.5501788259
-0.035475489 0.0046976674 1.6630001 -0.2619203329 0.799546957 0.5404835343
-0.084624633 -0.21587917 1.9700001 0.4721439779 0.4488463998 -0.7586942315
0.31663096 -0.32290089 3.5760002 0.09433431923 0.8839153051 0.4580335319
0.0738241 -0.44646007 2.0050001 0.7358071208 0.07334817946 -0.6732072234
-0.21410219 -0.34502801 1.7570001 0.5734793544 0.3019422293 -0.7615460157
-0.0017884 -0.23070359 2.0400002 0.5782882571 0.5144332647 -0.6331990957
0.033779722 -0.30046171 2.0280001 0.3985842764 0.1802839935 -0.8992375731
-0.11406573 0.077968977 1.6470001 0.1137356982 -0.1918675601 0.9748082161
-0.0067889062 -0.4260039 1.936 0.7959166765 0.1909662336 -0.5744984746
-0.13596639 -0.36421028 1.863 0.7855613828 0.1295350492 -0.6050735116
-0.24881116 -0.22690324 1.7850001 0.1335586309 0.4187408984 -0.8982305527
-0.014061732 -0.13885961 2.0050001 -0.2308118194 0.8023551702 0.5504108667
-0.27601588 -0.10615995 1.863 0.6178179979 0.1609484106 0.7696729898
0.37379664 -0.48801228 3.9480002 -0.3637973666 0.8611477613 0.3550718427
-0.17647299 -0.306658 3.3000002 -0.2430419624 0.8286186457 0.5043032765
0.035386652 -0.02752295 1.794 -0.2733952403 0.8423243761 0.4644832015
0.046375666 -0.21703812 2.1160002 0.9693204761 -0.04821852595 0.2410244197
-0.34268373 -0.23681396 3.1780002 -0.1618312448 0.7603225112 0.6290630102
-0.0027512722 -0.076485366 1.883 -0.2886399329 0.8866181374 0.361379683
-0.137087 0.37121311 1.7570001 0.7797342539 -0.209374994 0.5900648832
0.083636627 -0.10070533 1.9470001 -0.06869402528 0.8777545094 0.4741604328
-0.20332004 -0.42820433 1.7570001 0.6106479168 0.05210923031 -0.7901858687
0.10498814 -0.41335329 2.0530002 0.3413105905 0.5761129856 -0.7426983714
0.19426759 -0.053133015 1.8940001 -0.3892597556 0.7318130732 0.5593982935
-0.39485183 -0.20510609 3.0920002 -0.5082275867 0.758202076 0.4084536433
-0.20812505 -0.27697846 1.7850001 0.6339966655 0.1697845459 -0.7544676661
-0.1351651 -0.036086731 1.705 0.12176615 0.8031079769 0.5832586288
-0.1762021 -0.088570513 1.7850001 0.01907079108 0.887853682 0.4597304761
0.22497019 -0.00160693 1.8330001 -0.2748590112 0.8182029128 0.5049717426
0.053610358 -0.12743446 2.0050001 -0.04476208985 0.9009465575 0.431615144
-0.11425246 -0.11875502 1.9260001 -0.313123405 0.8567190766 0.409861207
0.086803153 0.03245683 1.7220001 -0.2911595404 0.7874084711 0.5433360338
0.11595932 -0.050630134 1.863 -0.08930391818 0.8466271162 0.5246401429
-0.12414845 -0.063768558 1.7570002 -0.2449571341 0.8763284683 0.4147823751
-0.063154191 -0.31577095 1.9470001 0.6973309517 0.3591921628 -0.6202504039
-0.42665175 -0.14497875 2.835 -0.407746613 0.8241396546 0.3931113482
-0.15434767 -0.25450948 1.8730001 0.7135768533 0.213415429 -0.6672794819
-0.2726337 -0.35272947 1.7570001 -0.2846407592 0.05780951306 -0.9568895698
0.38429558 -0.34266359 3.6530001 -0.1898878515 0.8848512173 0.4254185259
-0.06406077 0.044016887 1.6328751 0.4199269712 0.2459474653 0.8735966682
0.051744372 -0.081789494 1.904 -0.1005726233 0.8995202184 0.4251452386
-0.099619143 -0.24820362 1.9260001 0.6040526628 0.2506521642 -0.7565010786
0.28102866 0.27231458 2.4850001 -0.1522885561 0.8944542408 0.4204281569
-0.046085488 -0.11777403 1.9470001 -0.1058239192 0.9128026962 0.3944521546
0.02605015 -0.42548576 1.9810001 0.3438978791 0.1178699657 -0.9315798283
0.1090924 -0.1484372 2.0400002 -0.1415029615 0.873360455 0.4660669863
-0.064627871 -0.075937741 1.8430001 -0.2636023164 0.9262313247 0.2694611251
-0.17749344 -0.4748728 1.7760001 0.7392725348 -0.2489960045 -0.6256813407
0.0146491 0.02636838 1.6710002 -0.3490220606 0.6975551248 0.6257798672
-0.18640387 -0.1124851 1.8330001 -0.1644543409 0.903347671 0.3961284459
-0.043064058 -0.22410887 2.0050001 0.5590847135 0.6933332682 -0.454657346
-0.055400949 -0.44488642 1.9150001 0.3521910906 0.1795004457 -0.9185537696
0.3281565 -0.45671263 3.8590002 -0.1559802741 0.9143138528 0.3737650514
-0.024518613 -0.029115854 1.748 -0.3523234129 0.8814539313 0.3144950867
-0.025326898 -0.49471876 1.9260004 0.3897308409 0.02589185908 -0.9205647707
-0.07667765 -0.061029151 1.7850001 -0.2216039449 0.9089430571 0.353148967
0.2024048 0.071620159 1.7760001 -0.5775299668 0.2109906822 0.7886330485
0.41401723 -0.46192005 3.9030001 -0.8266720176 0.4542686343 0.3320442736
-0.18440369 -0.34413588 1.8040001 0.7478354573 0.229674533 -0.6228898764
-0.0017471967 -0.31624258 1.9930001 0.7838981748 0.2440905422 -0.5708971024
-0.11595934 -0.09853822 1.863 -0.3142149448 0.9054324627 0.2854137123
-0.19773392 -0.042037919 1.7760001 0.5674642324 0.5472666621 0.6152101755
0.066981718 -0.31499511 2.0650001 0.6110082269 0.1995245516 -0.7660671473
0.40229619 -0.26410285 3.5030003 -0.2180300653 0.8785153627 0.4250572324
0.061151881 -0.49445665 1.9930001 0.6399886012 -0.06460861117 -0.7656633258
-0.15607877 -0.44598469 1.8130001 0.8556274772 0.157939747 -0.4929062724
0.082648627 -0.030198537 1.8130001 -0.211922735 0.8362085819 0.5058102012
0.13025513 0.029115854 1.748 -0.2162740976 0.810732007 0.5440028906
0.2426061 -0.24874803 3.5030003 0.1588118821 0.9341050386 0.3197288811
-0.13956971 -0.31526336 1.8730001 0.7561667562 0.2958613038 -0.583676219
0.26726148 -0.47024488 3.8590002 -0.1564820409 0.903930366 0.3980241716
0.35279521 -0.36574182 3.6920002 -0.1858522892 0.8844184875 0.4280920923
-0.075791083 -0.017103516 1.6857141 -0.2081271112 0.8424959779 0.4968738556
-0.11988329 0.3323347 1.7310001 0.6617052555 -0.03754266724 0.7488235235
-0.36741099 -0.35583898 3.3000002 -0.2284294218 0.796476841 0.5598612428
-0.11371243 -0.49546131 1.853 0.7181865573 0.1134348661 -0.6865424514
0.14338993 -0.0047445199 1.804 -0.2295363843 0.7916640639 0.5661987662
-0.10348874 -0.35553393 1.904 0.7336302996 0.2918069661 -0.6137061715
0.24137351 -0.024629951 1.8730001 -0.3230742514 0.7983344793 0.5082175136
0.055166882 0.0030648268 1.748 -0.3080466092 0.8268598914 0.4705422223
0.40569329 -0.37624779 3.7320001 -0.1616098285 0.8751652241 0.4560351372
0.14529119 -0.095830359 1.959 -0.1299740672 0.8747934103 0.4667367935
-0.17580628 -0.19891697 1.8830001 0.5281592011 0.5681107044 -0.6311086416
0.21724501 -0.067889065 1.9360001 -0.1230796054 0.7170910835 0.6860260367
0.36611441 -0.47560656 3.9030001 -0.1802466959 0.9067856073 0.381118089
0.075112797 -0.37377557 2.0400002 0.7028004527 0.2693980932 -0.6584042311
-0.425271 -0.315337 3.3000002 -0.1618312448 0.7603225112 0.6290630102
0.44576746 -0.10586977 3.1780002 -0.2096161544 0.88976264 0.4054424167
0.095021732 0.084478788 1.6960002 -0.5323347449 0.08651252091 0.8421016932
0.37980092 -0.41401723 3.9030001 -0.3022068441 0.9532390237 -0.002534156898
0.034396019 -0.24559963 2.0650001 0.5991306901 0.7089362741 -0.3720910847
0.02165805 0.066418022 1.6470001 -0.5541269779 -0.108837083 0.825286448
-0.00176736 -0.27394077 2.016 0.6261114478 0.3374533355 -0.7029293776
0.15230505 -0.13452625 2.0280001 -0.05695665628 0.8926343918 0.4471686482
-0.034378484 -0.016441884 1.705 -0.2470064908 0.8827072978 0.3997694552
0.0048470902 -0.056010816 1.8430001 -0.2944946885 0.8699217439 0.3956122696
-0.073847771 -0.26619545 1.9589999 0.6075960994 0.1476810873 -0.780395627
0.16703303 0.065893777 1.748 -0.6274695992 0.08686031401 0.7737810612
-0.1405656 -0.40392417 1.8430001 0.6862324476 0.2062740773 -0.6975213289
0.04583798 0.023417227 1.705 -0.3991363049 0.8094534874 0.430668354
-0.24161051 -0.44797552 1.748 -0.05408631265 -0.3539747 -0.9336897731
0.32576495 -0.30094478 3.5390003 0.06805098802 0.8759679198 0.477545023
0.18595941 0.0015893966 1.8130001 -0.1764335185 0.7196836472 0.671510756
0.45361274 0.097029462 2.7670002 -0.2144289017 0.8456752896 0.4887264967
-0.19971694 -0.38550016 1.7660002 0.8049099445 0.01922777109 -0.5930854082
-0.19897133 -0.25490707 1.8230001 0.7303546071 0.413433075 -0.5437418818
-0.0017366767 -0.39075226 1.9810001 0.5977934599 0.2865993679 -0.748668015
0.23330292 0.35648686 2.1290002 0.2209852189 0.9228698611 -0.3153993189
-0.025182249 -0.095692553 1.9150001 -0.1610628068 0.8721682429 0.4619322121
0.28209031 -0.018360907 1.904 -0.4380218387 0.6914415359 0.5744957924
-0.10441078 -0.39494514 1.8830003 0.5968859196 0.2704485059 -0.7553706169
0.39186999 -0.30409113 3.5760002 -0.2004202753 0.8921974897 0.4047411084
0.053134765 -0.17589439 2.0900002 0.4012719393 0.4611569345 0.7914007306
0.094308294 -0.072609037 1.904 -0.1563708931 0.873930335 0.460210681
-0.24907415 -0.12051975 1.8330001 0.2189134359 0.2726858854 0.9368667603
0.15352099 -0.047872137 1.883 -0.01821913198 0.8362446427 0.5480538011
-0.014328678 0.034390207 1.6346251 -0.4833135605 0.4706504643 0.7381708026
0.35725537 -0.27536306 3.5030003 -0.1898164153 0.8845658898 0.426043272
0.33266869 -0.33266869 3.6140001 -0.1902032346 0.8873098493 0.4201236963
-0.084601618 -0.45437264 1.8830003 0.6475939155 0.306339711 -0.697694838
-0.12813359 0.1075144 1.6800001 -0.09898021072 -0.3037394583 0.947599709
-0.039036214 -0.3886649 1.9360001 0.6380782127 0.4359103143 -0.6346955299
-0.28152046 -0.25163841 1.794 -0.2051280141 0.2149545103 -0.9548387527
-0.08057005 0.042482391 1.6710001 0.2123920023 -0.05023690686 0.975892365
-0.23173368 -0.20616306 1.8230001 0.3321135342 0.9207945466 -0.2045434117
0.05511428 -0.33601931 2.0280001 0.5799661279 0.1901163459 -0.7921458483
-0.11777403 -0.20653127 1.9470001 0.6667404771 0.3274797201 -0.6694879532
0.0060191932 -0.32503644 3.4330001 -0.238205716 0.9192832112 0.3133310974
-0.032813635 -0.1502519 1.9700001 -0.2741850913 0.7733765244 0.5715866685
0.12132321 -0.023300488 1.8330001 -0.1722433418 0.8562328815 0.4870291948
0.38307527 -0.25538352 3.4680002 -0.1967254728 0.8799536824 0.4324125051
-0.23782563 -0.38875344 1.7390001 -0.04372971505 0.1939516664 -0.9800359607
0.37644681 -0.22547078 3.3990002 -0.2041724026 0.8755395412 0.4378859997
-0.065849937 -0.35626507 1.9260004 0.5787807107 0.2052237988 -0.7892376781
-0.14783755 -0.098022729 1.8330001 -0.2436144054 0.9270386696 0.2850461304
0.087116122 -0.48536122 2.0280001 0.7500988245 0.02395375818 -0.6608917713
0.056555521 -0.41179487 2.016 0.6861355901 0.4662763178 -0.5583944321
0.26289693 0.033929631 1.8430002 -0.6456142664 0.425473392 0.6341566443
-0.22758442 -0.30654228 1.766 0.7247737646 0.2619868517 -0.6372330189
0.45365658 0.057646971 2.8590002 -0.1937017143 0.8787408471 0.4362272024
0.022975679 -0.15376031 2.016 -0.275972724 0.7414962053 0.6115737557
-0.16229993 -0.36477312 1.8330001 0.7810670733 0.1861792952 -0.596046567
0.28591168 -0.26183492 3.4330001 0.07551882416 0.9422131777 0.3263912797
0.17391138 -0.077669159 1.9260002 -0.09316944331 0.8392248154 0.5357435346
0.0072130375 -0.45510831 1.959 0.7481136322 0.1163445637 -0.6532916427
0.056473114 -0.21496217 2.0780001 0.9981167912 -0.06055259332 -0.00980989635
0.16672096 -0.12330404 1.9810001 0.08432884514 0.8022810817 0.5909599662
-0.16320202 -0.06665998 1.748 -0.08956487477 0.8703807592 0.4841647446
0.071991861 -0.1547825 2.0530002 0.1331062317 0.8735271692 0.4682233036
0.10019423 -0.29329583 2.0780001 0.3243533373 0.1915763915 -0.9263333082
0.053538036 -0.1088031 1.9700001 -0.1044895872 0.8791999221 0.4648542106
0.015630091 -0.12469338 1.9810002 -0.1249870807 0.8820641041 0.4542479217
0.27434844 -0.22714871 3.3650002 0.05955954641 0.9338270426 0.3527318239
-0.074478678 0.0062871613 1.6550001 0.01309722662 0.4891555011 0.8720982671
-0.24444272 -0.26779711 1.7760001 0.170373261 0.5281103849 -0.8319088817
-0.12785131 -0.2772879 1.8940001 0.7255309224 0.1315588504 -0.6754977107
0.214679 0.03853213 1.794 -0.4437326491 0.4671459496 0.7647718787
-0.032813635 -0.31259304 1.9700001 0.4423196614 0.2143223435 -0.8708726764
-0.21174656 -0.077847995 1.7760001 0.1340163648 0.811101675 0.5693449974
-0.0059595797 -0.31287795 3.3990002 -0.238205716 0.9192832112 0.3133310974
0.01944096 -0.34110048 2.016 0.6770488024 0.259245038 -0.6887648106
0.036966406 -0.46270031 1.9810001 0.522228837 -0.08170545101 -0.8488823771
0.012156737 -0.35601872 1.9810001 0.6971207261 0.1928563714 -0.6905280948
0.0031139199 -0.032696161 1.7760001 -0.3743913174 0.7956902385 0.4761388004
-0.044902865 -0.23660356 1.9700001 0.4850877225 0.3510234356 -0.8009197712
-0.17917532 -0.42485678 1.7850001 0.8245918155 0.1761880666 -0.5375928283
0.015780877 -0.087634228 1.9150002 -0.1546882689 0.8948085904 0.4187948406
-0.35822791 -0.33530134 3.2690001 -0.1618312448 0.7603225112 0.6290630102
0.49470299 -0.14465 3.3000002 -0.2312507778 0.8858386874 0.4022597075
-0.1881993 -0.30523077 1.8040003 0.7440446019 0.1345596313 -0.6544397473
0.20611362 -0.025151741 1.8630002 -0.3325515389 0.7709070444 0.5432419777
-0.034297831 -0.080028273 1.863 -0.098002702 0.9198332429 0.379871428
-0.083636619 -0.12460151 1.9470001 -0.1454800665 0.8987211585 0.41368559
0.47859249 -0.1346937 3.2690001 -0.2219051272 0.886133194 0.4068489075
-0.0087885829 -0.23729175 2.0050001 0.5744173527 0.5229975581 -0.6296969652
0.24509934 -0.24509934 3.5390003 0.1564738154 0.9165737033 0.3679791093
-0.13087143 -0.46532065 1.8430001 0.784252286 0.1465316266 -0.6028903723
0.10133916 -0.44269213 2.0280001 0.6174858212 -0.01175555494 -0.7864941359
-0.12489168 0.40379089 1.748 0.8880435228 -0.04909719154 0.4571304023
0.46684957 -0.10968152 3.2080002 -0.21652551 0.8838304877 0.414681077
-0.20343049 -0.49762228 1.7850001 0.3012855053 -0.7750320435 -0.555474937
-0.21703811 -0.24377471 1.794 0.611299634 0.2854949236 -0.7381093502
-0.1131689 0.0435265 1.6550001 -0.1599743664 -0.1579152197 0.9744080305
-0.14605705 -0.12926888 1.9150001 -0.3616935611 0.8139565587 0.4545904696
-0.11515191 -0.016242879 1.6840001 -0.1235147268 0.8702784777 0.476822257
0.05939329 -0.28256807 2.0530002 0.7210543752 0.4123158157 -0.5568448901
0.023617985 -0.011808992 1.7570001 -0.323828429 0.8685021996 0.3752853572
-0.0064125247 0.0044394401 1.6880001 -0.4353388846 0.7838115096 0.4428539574
-0.045151841 -0.046189815 1.7760001 -0.2320037335 0.8907666206 0.3907801509
0.084833279 -0.13785407 2.016 0.005262857303 0.8100435734 0.5863460302
0.085097156 -0.118094 1.9810001 -0.03283639997 0.8709044456 0.4903541505
-0.20840821 -0.46125641 1.748 0.5569437742 -0.1832160056 -0.8100898266
0.11563321 0.055564005 1.7130002 -0.4603327811 0.3827563226 0.800993979
-0.41554439 -0.34676462 3.2690001 -0.1618312448 0.7603225112 0.6290630102
-0.13692437 -0.079024926 1.7850001 -0.1888831556 0.9221670032 0.337536931
-0.16652459 -0.046091627 1.6960001 -0.3574853241 0.741553247 0.5677173734
-0.12453049 -0.11290766 1.8940001 -0.3030245006 0.885178566 0.3530369401
-0.1470284 -0.3360649 1.8430001 0.7217230201 0.29187572 -0.6276339889
0.48198608 -0.094725586 3.1780002 -0.2104242891 0.8895530105 0.4054837227
-0.1627444 0.31783023 2.184 -0.09468379617 0.9302566648 0.3544820547
0.034200691 -0.045068204 1.8230002 -0.2096162885 0.8793185353 0.4276211858
0.031197937 -0.070605859 1.8730001 -0.1233577356 0.8959069252 0.4267711639
-0.1117899 -0.046031136 1.7310001 -0.2212785631 0.8553183079 0.4684724212
0.11371419 -0.089953013 1.9360002 -0.01789117977 0.8421236873 0.5389875174
-0.1318647 -0.24536848 1.9039999 0.7804899216 0.3042294681 -0.5461500883
-0.2564171 -0.1747556 1.863 0.9787580967 -0.06499500573 0.1944435388
-0.26641199 -0.14132831 1.853 0.7969685793 -0.1436484307 0.5866909027
0.04582512 -0.095044695 1.936 -0.06889298558 0.8892803788 0.4521439373
0.084398635 -0.056156285 1.8730001 -0.1649684459 0.877225399 0.4508447945
0.024297694 -0.25660732 2.0280001 0.5739842653 0.4388722181 -0.6913271546
-0.0253269 -0.45419577 1.9260004 0.4869913161 0.05897552148 -0.8714134097
-0.087298468 -0.32736924 1.9150001 0.4897106588 0.0669259727 -0.8693125844
-0.25415006 -0.32500401 1.7570001 0.02342092805 0.08631533384 -0.9959925413
-0.17449525 -0.26497424 1.8430002 0.6052336097 0.2949958146 -0.7393711805
-0.084521882 -0.2929413 1.9360001 0.6483482122 0.3000673354 -0.699717164
0.064637683 0.087649837 1.6832001 -0.4455454051 -0.185011521 0.875933826
-0.17481522 -0.29517981 3.2690001 -0.2473940998 0.8196350932 0.5167151093
0.064158842 -0.014083649 1.7850001 -0.2342717946 0.847186923 0.4768553078
0.13545553 0.012455679 1.7760001 -0.1714873016 0.8109371066 0.5594399571
0.2253384 -0.048406024 1.9039999 -0.08354453743 0.7498060465 0.6563620567
-0.3450779 -0.21808924 3.1490002 -0.1618312448 0.7603225112 0.6290630102
-0.01545651 -0.11849991 1.9590001 -0.1598906219 0.8995701075 0.4064586163
-0.20401436 -0.096471906 1.8040003 0.04245004058 0.857257843 0.5131344795
0.060839791 -0.24335916 2.1030002 0.9699187279 0.0191437304 0.2426749617
0.41632023 -0.33625865 3.6530001 -0.1861962378 0.8861195445 0.4244091213
-0.033745531 -0.065884128 1.8330001 -0.1651100814 0.9115316868 0.3766280115
-0.1526956 -0.22367844 1.8830001 0.5599328279 0.5511174202 -0.6186637282
0.39425716 -0.23173894 3.4330001 -0.2024951875 0.8759904504 0.4377629757
-0.11163035 -0.13567381 1.9590001 -0.2728342116 0.897205174 0.3472525477
-0.086673222 -0.42406788 1.8940001 0.7531793118 0.1030011401 -0.6497012377
0.077391259 -0.34376118 2.0530002 0.7477968335 0.2495993376 -0.6152236462
-0.14311934 0.42621255 1.794 0.9330548048 0.005000010598 0.3596994281
-0.26225045 -0.20821096 1.8130001 -0.08659601212 0.726890564 -0.6812717915
0.32541865 0.22218239 2.5600002 -0.1622210294 0.8730251193 0.459903717
-0.152707 -0.28499863 1.863 0.8691075444 0.0923730731 -0.4859210253
0.08482407 -0.041200265 1.8430001 -0.2656722069 0.8513637781 0.4523250759
-0.094308287 -0.1068271 1.904 -0.1982310861 0.9018644691 0.3838553727
0.10596094 -0.0079075331 1.8040001 -0.264713943 0.8121451735 0.5199488401
-0.0043526501 0.082700349 1.6550001 -0.4492746294 -0.2655711174 0.8530089855
0.034386195 -0.39492029 1.9810002 0.5747414827 0.4114517272 -0.7073752284
-0.11988329 0.36571991 1.7310001 0.8207297921 -0.2117104381 0.5306423903
0.095946781 -0.38559744 2.0650001 0.6921191216 0.3930539489 -0.6053757071
-0.1172042 -0.33510494 1.883 0.7493224144 0.2244077474 -0.6230225563
-0.20499535 -0.32392395 1.7850001 0.7785770297 0.2832356095 -0.5599958897
-0.10662658 -0.46640381 1.863 0.613838017 0.2212676555 -0.7577885985
-0.084927961 -0.089011028 1.863 -0.270639807 0.9121609926 0.3077603281
0.40494636 -0.48455119 3.9480002 -0.5999763608 0.69370538 0.3984986544
0.08559873 0.054587781 1.6960001 -0.4794049859 0.4908055067 0.7275168896
-0.085032716 -0.072317548 1.8130001 -0.1851231754 0.9337645173 0.3062894642
-0.13202336 0.30350199 1.7310001 0.6960747838 -0.02801191062 0.7174226046
-0.093958504 -0.055964354 1.7570001 -0.3084397316 0.8888557553 0.3388220966
-0.095661864 -0.03138905 1.705 -0.036507532 0.8727642298 0.4867748618
0.035157841 0.08057005 1.6710001 -0.4720599949 -0.04253006354 0.8805398941
0.093477212 0.015834937 1.748 -0.302818805 0.8307286501 0.4671089053
-0.24314292 -0.35500908 1.748 -0.09778366238 0.1801936626 -0.9787586927
0.19857551 -0.093347467 1.9360001 -0.1478362381 0.8394627571 0.5229213238
-0.01194809 -0.3977007 1.9470001 0.5479990244 0.5737994909 -0.6086470485
0.14443935 0.0542165 1.7310002 -0.5638557673 0.2861300409 0.774723351
-0.17421119 -0.23355187 1.863 0.691901803 0.502202034 -0.518714726
-0.035457656 -0.42380345 1.9260004 0.2908739448 0.239444539 -0.9263145328
-0.17475364 -0.32580507 1.8330001 0.7440961599 0.2270389199 -0.6283106208
-0.052043315 -0.48517799 1.9150001 0.5762837529 0.09580568969 -0.8116146326
0.2474599 0.0027074388 1.853 -0.6049017906 0.5511419177 0.5747490525
-0.14535747 -0.10615995 1.863 -0.2777314186 0.9044530988 0.323774457
0.30109203 -0.47024488 3.8590002 -0.1564820409 0.903930366 0.3980241716
0.49626523 0.067672528 2.8590002 -0.2166994065 0.8776280284 0.4275633097
0.0047445199 -0.043755013 1.8040003 -0.3294669688 0.8846216202 0.3299941421
-0.14568096 -0.047042809 1.7310001 -0.135238871 0.8109350204 0.5692932606
0.46352172 -0.054213069 3.0920002 -0.3041188121 0.8604187965 0.4088902771
-0.046512209 -0.34692132 1.9470003 0.6590842009 0.202837348 -0.7241995931
-0.048659384 -0.28565922 1.9590001 0.3439374268 0.2080442011 -0.9156553149
-0.18839216 -0.35965776 1.7760001 0.7605048418 0.3626042306 -0.5386562943
-0.065849937 -0.10974989 1.9260001 -0.2003340721 0.8997281194 0.3877570927
-0.27697846 -0.28480271 1.7850001 -0.5084585547 0.3303326666 -0.7952045202
-0.12805995 0.43448916 1.7390001 0.9161530733 0.05938860774 0.3964044452
0.23684783 0.023333186 1.8230002 -0.5844974518 0.4587634504 0.6692524552
0.11484772 -0.10793959 1.9700001 -0.06129411608 0.8676570654 0.4933702648
0.18128853 -0.04083075 1.863 -0.2470285892 0.8067675233 0.5367522836
-0.28010815 -0.22377355 1.7850001 -0.229754582 0.3595349789 -0.9044044614
0.083115891 -0.41469052 2.0280001 0.457384795 0.3358818889 -0.8233969212
-0.14708012 -0.47445202 1.8040001 0.6824431419 -0.06442774087 -0.7280936837
-0.0050916802 -0.47284731 1.9360001 0.7098385096 0.1640013456 -0.6850057244
-0.044542555 0.018679136 1.6390001 0.008188969456 0.6602836847 0.7509716749
0.47116712 -0.45699668 4.0410004 -0.4260900617 0.8491553068 0.312061727
-0.10778002 -0.27431864 1.9150002 0.718976438 0.2146634758 -0.6610540748
-0.21327195 -0.11794586 1.8430001 0.02788285539 0.8786851168 0.4765868485
-0.22654417 -0.41558504 1.7390001 0.2089227736 0.06658217311 -0.9756628871
-0.15768164 -0.01952249 1.7130001 -0.2642130852 0.7827832103 0.5634198189
-0.1747565 -0.49738389 1.8040001 0.5606028438 -0.5798416138 -0.5911921263
0.35522094 -0.44656348 3.8590002 -0.2476578355 0.878280282 0.4090102017
-0.41661653 -0.13065489 2.812 -0.3987186253 0.8291482329 0.3918375671
-0.43360546 -0.16291535 2.8590002 -0.4010046124 0.821007967 0.4063757658
-0.10484495 -0.067288548 1.7850001 -0.357814908 0.8855462074 0.2962708473
-0.084319375 -0.23588943 1.9470001 0.6101400256 0.5202829242 -0.5975239277
-0.20196559 -0.20524958 1.8730001 0.6211561561 0.5711554289 -0.5366064906
0.23003295 0.061029151 1.7850001 -0.6490507722 0.1391116232 0.7479178309
-0.15498766 -0.091727391 1.8040001 -0.2576773763 0.8999248147 0.3517636955
-0.055352733 -0.062733091 1.8040003 -0.2929372787 0.8915871978 0.3453404903
-0.060446166 -0.14334376 1.9700001 -0.02730698138 0.8171179891 0.5758233666
-0.042444691 0.065336205 1.6320001 -0.1504348218 0.3289532363 0.9322870374
-0.13851735 -0.43612081 1.8329999 0.6528802514 0.03542893752 -0.7566321492
0.094136469 -0.3240467 2.0650003 0.294210881 0.1750637442 -0.9395704865
-0.11698616 -0.22553003 1.9260004 0.5928544402 0.4134925902 -0.6910480857
0.49270421 0.018152259 2.9580002 -0.2495517135 0.8698819876 0.4254753292
-0.043679912 -0.13802853 1.9930001 -0.02939927019 0.9813306928 0.1900676191
-0.1946165 -0.052102052 1.748 0.7999297976 0.4913924336 0.3444500566
0.40332803 -0.28853467 3.5390003 -0.2072373331 0.8901437521 0.4058285058
-0.094532087 -0.49377185 1.8730001 0.6483553052 -0.03011630476 -0.7607420087
-0.2660324 -0.38353556 1.7570001 -0.3450879753 0.1513560265 -0.9262859225
-0.19462 -0.45307535 1.7760001 0.5827099681 0.1012970135 -0.8063423634
0.032698538 0.045611341 1.6630001 -0.4895960689 0.4049053788 0.7722352743
-0.1071554 0.11298699 1.6630001 -0.1118380427 -0.3051677048 0.9457086921
-0.0069081336 -0.33504444 1.9700001 0.6224075556 0.1855123192 -0.7603906989
-0.1326686 -0.014578966 1.6630001 -0.01703821123 0.7656232715 0.6430635452
0.05511428 -0.14223041 2.0280001 -0.05987395719 0.8544321656 0.5161015391
0.33874136 -0.47560656 3.9030001 -0.1523443311 0.9090918899 0.3877410591
0.11134368 -0.12901728 2.016 -0.1350226104 0.835452795 0.5327171087
0.26511258 -0.014196564 1.8830001 -0.4479455352 0.7155581713 0.5360235572
0.05758648 -0.30653176 2.0400002 0.8408921361 0.007096170448 -0.5411562324
-0.0086833835 -0.28481495 1.9810001 0.6993281245 0.3810510635 -0.6047646403
0.051521409 -0.43474805 1.9810001 0.4658348262 0.120805271 -0.8765865564
0.055628881 -0.031787936 1.8130001 -0.2138265222 0.8432224989 0.4932078719
0.19443853 -0.014462369 1.8330001 -0.2746552229 0.8319602013 0.482085824
-0.23433825 -0.20602894 1.794 0.2440104187 0.6489883661 -0.720606029
-0.12575871 -0.39360842 1.8630002 0.7455677986 0.3577101827 -0.562291801
0.15557064 0.026185157 1.7570001 -0.3338182271 0.7573541403 0.5612308979
-0.25623885 -0.15715273 1.8230001 0.9888520241 -0.09589351714 0.113912791
-0.26069349 -0.43144011 1.7390001 -0.3092131615 -0.002986590145 -0.9509880543
0.075980701 -0.086111456 1.9260002 -0.1692470163 0.8736016154 0.4562627077
-0.063768558 -0.044052675 1.7570002 -0.2759872973 0.905213356 0.3231404424
-0.20935939 -0.22853735 1.8230001 0.8151222467 0.395088017 -0.4236522317
-0.45123437 -0.18100362 2.9080002 -0.4943083823 0.7792139649 0.3853372633
0.1019388 -0.46677241 2.0400002 0.8270241618 -0.07628583163 -0.5569663048
0.037462596 -0.49445668 1.9810001 0.5979984999 -0.05072712526 -0.7998903394
0.044002529 -0.27601585 2.0280001 0.524490118 0.3339190781 -0.7832037807
-0.094307423 0.02383594 1.655 -0.3101040721 -0.04859538004 0.9494598508
0.48081309 -0.034919385 3.0640001 -0.3064928055 0.8579875231 0.4122129679
0.27899304 0.25304019 2.467 -0.1692426801 0.8919982314 0.4191611409
-0.070808366 -0.24178466 1.9700001 0.4424027503 0.2739653587 -0.8539454341
-0.064646274 -0.21490519 1.9930001 0.5517570376 0.6411286592 -0.5334024429
-0.051548 -0.0073639997 1.6800001 -0.2018118948 0.8697514534 0.4503380358
-0.14946115 -0.019237572 1.6880001 0.06902045012 0.8600826859 0.505464077
0.19042778 0.044897605 1.7660002 -0.5959897041 0.3845230043 0.7049385309
0.14522703 -0.036063086 1.853 -0.1328760237 0.8208900094 0.5554129481
-0.0017270333 -0.41448802 1.9700001 0.7291850448 0.2347418666 -0.6427950263
-0.2176027 -0.3693116 1.748 0.4703491032 0.160488233 -0.8677645326
0.21456856 0.01430457 1.813 -0.3543968499 0.5902968049 0.7252258658
0.055300571 -0.066855915 1.8830001 -0.1791497469 0.8577427864 0.4818533659
0.19344702 0.023591101 1.794 -0.5028299689 0.6116859913 0.6107391715
-0.19231699 -0.28132319 1.8130001 0.7732497454 0.2535755336 -0.5811921358
-0.071774453 -0.46236101 1.904 0.7022112012 0.3131195605 -0.6394181252
-0.15576088 -0.41483253 1.8130001 0.8272396922 0.1153698787 -0.5498766303
0.017098507 0.0111512 1.6960001 -0.3982838988 0.8134464622 0.4238806367
-0.015096201 -0.017360631 1.7220001 -0.3756696284 0.8720888495 0.3135814667
-0.0067889066 -0.11031973 1.9360001 -0.2195119113 0.847417891 0.483422637
0.12453049 -0.064755857 1.8940001 -0.1590839177 0.8365734816 0.5242491364
0.05867004 -0.38935572 2.0280001 0.5562236905 0.1623668075 -0.8150166869
-0.094763279 -0.010205276 1.6630001 -0.04986515641 0.7361499071 0.6749790907
-0.10502028 -0.08724761 1.8430001 -0.3261958361 0.8903078437 0.3177234828
0.1476482 -0.12479788 2.0050001 -0.02154573612 0.8988585472 0.4377088547
0.038476899 -0.24368703 2.0900002 0.9466967583 0.3004143834 -0.1162602231
0.062549643 -0.46580261 1.9930003 0.7058357596 -0.05431960896 -0.7062897682
0.16524816 -0.068436109 1.9039999 -0.0504941307 0.8428801298 0.5357270241
-0.12158753 0.074710406 1.6710001 0.3190470338 -0.1703209877 0.9323088527
-0.13117212 -0.30385441 1.8940001 0.6319341063 0.1526952833 -0.7598311901
0.2180384 -0.25488997 3.5030003 0.1588118821 0.9341050386 0.3197288811
-0.24490823 -0.28539619 1.7570001 0.3477634192 0.4219334722 -0.8372769952
-0.12050572 -0.36481869 1.8830001 0.6987137198 0.1920600981 -0.6891386509
-0.015476089 0.017894229 1.6550001 -0.4877125919 0.6982147694 0.5240539908
0.0049330033 0.043236323 1.6550001 -0.3866950274 0.5663307309 0.7278299928
0.14483884 -0.1080213 1.9810002 -0.06807314605 0.8066347241 0.5871170759
0.28687689 0.12493026 2.6390002 -0.1986080408 0.835424304 0.5124657154
-0.17142867 -0.45137638 1.794 0.7505088449 0.2044427097 -0.6284422874
-0.015630091 -0.13025075 1.9810001 -0.3486756682 0.8263441324 0.4422450364
0.21955152 -0.036316793 1.8830001 -0.1670462042 0.8201916814 0.5471573472
-0.18746904 -0.39590704 1.7850001 0.7852777243 0.007714041974 -0.6190955639
-0.12305244 0.13037699 1.6710001 0.09933742881 -0.5205333829 0.8480430841
-0.15432401 -0.3141712 1.853 0.8310372233 0.2347961366 -0.5042300224
0.14358537 -0.086558558 1.9360001 -0.1066754982 0.8674678802 0.4859215915
0.053273279 0.03995496 1.6880001 -0.4530493915 0.6772295833 0.5797467828
-0.17475562 -0.11813697 1.863 -0.400223434 0.8388554454 0.3689753115
0.25182834 -0.032654662 1.8940001 -0.3866732121 0.6752910614 0.6280651093
-0.055564005 -0.026530564 1.7129999 -0.2707947791 0.8819573522 0.3857738078
-0.073532172 -0.42406908 1.9150002 0.5938463211 0.1317828 -0.7937127352
-0.17642303 -0.10013199 1.8130001 -0.1104493365 0.9236361384 0.3670112789
0.098361999 -0.393448 2.0400002 0.6204822063 0.4446330369 -0.6459901929
0.17580761 -0.090464108 1.9470001 -0.01943901926 0.9011589289 0.4330527186
0.045427114 -0.4140856 1.9930001 0.6530173421 0.3856746256 -0.6517848372
0.16199222 0.0078637004 1.794 -0.2751179934 0.8211129308 0.5000836253
0.0349565 0.0045548677 1.7336668 -0.3693530262 0.8247770071 0.4281602502
0.081464246 -0.28421971 2.0650001 0.5522927642 0.248699531 -0.7956891656
-0.13572495 0.416464 1.7660002 0.9289780259 0.03591983393 0.3683878779
-0.21800683 -0.44058725 1.7390001 0.3720735312 -0.158946842 -0.9144928455
-0.12663449 -0.19754982 1.9260001 0.6113636494 0.370765835 -0.6991188526
0.15547848 -0.015296705 1.8230001 -0.1667347848 0.8117298484 0.5597268939
0.063404039 0.0226443 1.7220001 -0.354328692 0.8111566901 0.465269804
-0.21607028 -0.39536265 1.7479998 0.5439432859 0.1135490537 -0.8314037919
0.19586194 -0.065473847 1.9150001 -0.3121812642 0.7712956667 0.5546583533
-0.12694746 -0.49172056 1.8330001 0.7794181108 -0.04715134576 -0.6247273088
-0.029195629 -0.33489105 1.9590001 0.4881551564 0.1409656554 -0.8612974286
-0.18423502 -0.075861476 1.7660002 0.08099295944 0.8912813067 0.446158886
-0.055719178 -0.40354192 1.9260004 0.3641246259 0.2942624688 -0.883641839
0.055214658 -0.25797012 2.0650001 0.5511581302 0.6853123307 -0.4759954512
-0.03263041 -0.38469535 1.9590001 0.5611568689 0.3022725582 -0.7705415487
-0.39248368 -0.36355364 3.3000002 -0.1618312448 0.7603225112 0.6290630102
0.1709763 -0.0984409 1.9700001 -0.02181730606 0.7763248086 0.6299553514
-0.22374287 -0.10547878 1.8230001 0.2265393585 0.8272001147 0.5142177343
-0.24182762 -0.47287312 1.7570001 0.02589767613 -0.3504515886 -0.9362227321
-0.11858582 -0.41423813 1.853 0.772963047 0.1555786133 -0.6150800586
