# .PCD v0.7 - Point Cloud Data file format
VERSION 0.7
FIELDS x y z normal_x normal_y normal_z
SIZE 4 4 4 4 4 4
TYPE F F F F F F
COUNT 1 1 1 1 1 1
WIDTH 512
HEIGHT 1
VIEWPOINT 0 0 0 1 0 0 0
POINTS 512
DATA ascii
0.14393927 0.15396859 1.4829999 0.5063906312 -0.1712582558 -0.8451266885
-0.42268834 -0.3500793 2.9580002 -0.8601218462 -0.4213024974 -0.2875667512
0.49753025 0.046577301 2.4150002 0.8288618326 0.2596452832 -0.4955525696
0.0083020329 -0.47653672 1.8940001 -0.8065462708 -0.2894394994 -0.5154685974
-0.33621919 0.30581641 2.0400002 -0.7845145464 -0.6047713757 0.1370712072
0.47788811 -0.3936387 1.5755 -0.4024359882 -0.007615152746 -0.9154164791
0.29512808 0.34313083 2.0280001 0.2421227545 -0.9316738248 -0.2708513141
-0.27506295 -0.083262287 1.6960001 -0.05230012536 -0.7870674133 -0.6146458983
-0.48351675 0.010511233 2.398 -0.8680986762 -0.4022724032 -0.2908292115
-0.049817462 0.46949181 1.7220001 -0.9410606027 0.2345193624 -0.2437327504
0.19493559 -0.079598702 1.853 0.02289226651 -0.3178757429 -0.9478559494
0.32281935 -0.11726907 1.5029999 0.3073647618 -0.8329970837 -0.4600464404
-0.1539567 0.14408192 1.5359999 -0.411978066 0.4797925651 -0.774643898
0.20328146 -0.34378481 1.705 -0.6165004969 0.2482027113 -0.747209847
-0.081789494 -0.18861659 1.904 0.2361740917 -0.8787956834 -0.4146564007
-0.10564885 0.2294561 1.8830001 0.118628487 -0.5139568448 -0.849573791
0.32633039 0.19579823 2.256 -0.254858017 -0.8944384456 -0.3674604893
-0.49727601 -0.17707877 2.7670002 -0.9188272357 -0.2541838884 -0.301905632
-0.014947167 -0.010463017 1.705 0.132773608 -0.8746758103 -0.4661688507
-0.19071971 -0.33188233 1.7130001 0.4369270802 -0.525754571 -0.7298471332
0.13345654 0.29373366 1.8430001 0.1092651784 -0.2918900251 -0.9501901269
0.28292224 0.062387984 1.6550001 -0.6527836323 -0.2461762875 0.7164291739
0.063361086 0.31318477 2.0650001 0.04753009975 -0.9981780648 0.03716695309
0.37275341 -0.48211494 1.7570001 0.3018286228 -0.3684252501 -0.8792964816
0.40870988 -0.21827158 1.6710001 0.3602017462 0.1284137517 -0.9239938259
0.18402286 -0.024213538 1.3810003 -0.3079482615 -0.3731281757 -0.8751818538
-0.28759402 0.32313934 1.8430001 -0.5034058094 -0.1258226633 -0.8548398614
-0.15396722 0.2652688 2.1160002 0.05902713537 -0.9875158668 0.1460416764
0.095326103 -0.25366437 1.8430002 -0.4928780496 0.1087490991 -0.8632756472
0.30213529 0.37322593 1.8430001 0.6158821583 0.5653703213 -0.5486761928
0.0049812198 0.41676208 1.8940001 -0.9762536287 0.04874692485 -0.2110748291
0.10513678 -0.4952184 1.7381113 -0.4028372467 -0.05952140316 -0.9133341908
-0.3483882 -0.2255751 2.8590002 -0.9332888722 -0.1911040694 -0.3040577769
0.0054844269 0.083637506 1.5640001 0.2315119505 -0.8795643449 -0.4156546891
0.25764444 -0.18446732 1.739 -0.503367126 0.0725017041 -0.8610255718
-0.26421329 -0.30606887 2.9840002 0.3699277043 -0.9285618067 0.03043720685
-0.013314463 0.30685192 1.766 0.03332211077 -0.69605726 -0.7172125578
0.39099157 -0.043778978 1.7220001 0.5740061998 0.639703095 -0.5111720562
-0.27484727 0.054874953 1.605 -0.7326862216 0.02236491628 -0.6801990271
-0.13483274 -0.096842907 1.7760003 0.4405540228 -0.6329650879 -0.6366060972
-0.23616172 -0.23336691 1.5940001 0.2819586396 -0.01852035895 -0.9592477679
0.034333557 -0.095730022 1.8430002 0.2532749772 -0.7914870381 -0.5562374592
0.14416608 -0.0015017299 1.7130001 0.08160978556 -0.8452893496 -0.5280395746
0.19350575 0.26865363 2.1430001 0.1314625591 -0.9911087155 -0.02052003518
-0.06279739 -0.34114257 1.9360001 -0.8539808989 -0.368811965 -0.3670072854
0.34436297 -0.37251845 1.6470001 0.1691395491 -0.6786869168 -0.7146858573
-0.15453704 -0.0043736901 1.6630001 0.353576988 -0.8435652256 -0.40420416
0.0077690203 0.20069969 1.4770001 -0.2556111813 0.5714980364 -0.7797774673
0.055045903 -0.37745762 1.794 -0.7358977795 0.6164773107 -0.2800180912
0.39809081 -0.49725935 1.6160001 -0.7005383372 0.192185089 -0.687248826
0.1446009 0.065348484 1.5860001 -0.1419395059 -0.9421241283 -0.303735584
0.23935015 -0.4771758 1.7390001 0.224947691 -0.7152527571 -0.661673665
0.28444239 -0.26422822 1.6470002 -0.5567098856 0.1979244202 -0.8067837358
0.035035547 -0.18362002 1.9260004 -0.5202443004 0.3004730046 -0.7994134426
0.19659249 -0.27208403 1.794 -0.8864257932 0.3637598455 -0.2862309217
0.45122471 -0.32064521 1.6550001 0.2934155464 0.4564903975 -0.8399546742
-0.10479311 0.052396938 1.572875 0.1422233135 -0.8798364997 -0.4534977973
-0.0014508833 0.39899293 1.6550001 -0.1210391149 -0.6315157413 -0.7658572793
-0.012314974 -0.26518247 1.8730001 -0.2024543881 0.3356264532 -0.9199821353
0.065289751 0.042075615 1.6550001 0.02756504714 -0.8857843876 -0.4632776976
0.28147575 -0.055044144 1.427 0.3855839372 -0.5477827787 -0.7424682379
0.1446351 -0.16370787 1.813 -0.3931382298 0.1940234751 -0.8987753987
0.17548797 0.06470602 1.4385384 -0.4901064634 0.6158751845 -0.616841495
-0.065789975 0.11669888 1.4890002 -0.08250030875 -0.5413202643 -0.8367592692
0.33348396 -0.146228 1.6800002 -0.6153708696 -0.0326449126 -0.7875614166
-0.16480106 -0.16964816 1.8430001 0.1808698773 -0.8131182194 -0.5532855392
0.065024123 -0.036227725 1.766 0.005616916344 -0.7269086242 -0.6867112517
0.29558095 -0.011849201 1.7326 -0.5721103549 0.5715937614 0.5881924033
0.027615877 0.27778322 1.853 0.1622471064 -0.8864828348 -0.4333867729
0.23300485 0.30049592 1.8330001 0.2806089222 -0.7747855186 -0.5665386319
-0.23510095 -0.12767072 1.7760001 -0.2112945914 -0.9305224419 -0.2991364002
0.0063260263 0.4728705 1.8040001 -0.9864683747 -0.0941779986 0.1342036426
-0.24001379 0.31824052 2.0280001 -0.565440774 -0.8236926198 0.04251172766
-0.016332299 -0.38380906 1.863 -0.5334373713 -0.03799111024 -0.8449859619
0.12595333 -0.39455259 1.7310003 -0.4573005736 0.2543123364 -0.8521745205
-0.057849478 -0.12051975 1.8330001 0.1955950409 -0.6930856109 -0.6938118339
-0.19006221 0.26316306 1.853 -0.008904552087 -0.8727850914 -0.4880234301
0.44686592 0.092668049 2.3490002 0.7759968638 0.6300495267 0.02943615057
0.053519621 0.11878745 1.4890001 -0.1334241629 -0.8123937249 -0.5676393509
0.25489435 -0.41456959 1.6710001 -0.211119011 -0.4029245973 -0.890550673
0.049271297 -0.49748117 1.8130001 -0.9533643126 -0.159026444 -0.256528914
-0.19527821 0.054924201 1.5557274 -0.1594368666 -0.5034638047 -0.8491784334
0.11390266 -0.11390267 1.8830003 -0.1014656574 -0.4565522969 -0.8838918209
0.21784145 0.31439164 2.0650001 0.3427484632 -0.9394236207 0.002594542922
-0.31476367 -0.0144387 1.6470002 -0.3547536433 -0.4681992233 -0.8092832565
-0.13545552 -0.36277169 1.7760001 0.05797889829 -0.6801462173 -0.7307800651
-0.085965499 -0.23358302 1.9810001 -0.6720719337 -0.3644777238 -0.6445737481
-0.032906558 0.041490879 1.6320001 0.0576063022 -0.736194551 -0.6743137836
0.25067055 -0.10431632 1.7760001 -0.6501560211 0.3915217519 -0.6511588097
-0.25390458 -0.29452932 1.6550001 -0.1140875444 -0.6171227694 -0.7785521746
0.12362315 -0.32470638 1.7850001 -0.6299250126 0.7324510813 -0.258282572
0.36769503 -0.29043615 1.6320001 0.7370291948 0.5361982584 -0.4114358127
-0.095860869 -0.041514549 1.7220001 0.06595111638 -0.8062889576 -0.5878338218
-0.01401264 -0.070063196 1.7760001 0.3640848696 -0.752720356 -0.5485018492
0.49932128 -0.45496896 1.6320001 0.7785557508 -0.07821372151 -0.6226825118
-0.18982902 -0.070251681 1.705 0.5009426475 -0.5731346011 -0.6485161781
0.2294149 0.062567696 1.5860001 -0.7077400088 0.06116242707 0.703820467
0.21624911 -0.25679585 1.7130002 -0.663259685 0.4975350797 -0.559057653
0.15648499 -0.043815799 1.7850001 0.2060192525 -0.861780405 -0.4635629058
0.32737714 -0.42198613 1.7130001 0.2608191669 -0.4673865139 -0.8447030187
0.41287494 -0.41287494 1.6240001 -0.7290949225 0.1189379245 -0.6739987731
0.33896095 -0.0663343 1.6630001 0.8980519772 0.4090414047 -0.1618263125
-0.22957532 -0.03032127 1.6470001 0.1874225438 -0.6866667271 -0.7023970485
0.22799864 -0.093657807 1.4735 -0.3430178463 -0.8387381434 -0.4229149818
0.04386051 -0.32489267 1.8530002 -0.2496877909 0.154579252 -0.9559085965
0.084682308 0.20328936 1.4770001 0.2231926471 0.6954123378 -0.6830714941
0.012451672 0.49473053 1.6845715 0.1849438846 0.3755761683 -0.9081510305
0.18534487 -0.4349626 1.705 -0.2855345905 -0.2075191885 -0.9356312156
-0.17439619 -0.285824 1.6550001 0.6927720308 0.3914542496 -0.6056652665
0.38239297 -0.46371558 1.6822859 -0.9773808718 0.1734878719 -0.1209486499
0.27253044 -0.34544587 1.6470002 -0.5906318426 -0.05604366586 -0.8049926162
0.31386158 -0.4963218 1.7130001 -0.04878638685 0.4491419792 -0.8921274543
0.11522882 0.095072344 1.5235455 -0.1115900502 -0.853716135 -0.5086417794
-0.027031142 0.35741174 1.7130001 0.1892803162 -0.751594305 -0.6318852305
-0.33706254 0.34370416 1.8940001 -0.4985522926 -0.4656489193 -0.7311748862
0.094727337 -0.18128853 1.863 -0.5868155956 0.4693840444 -0.6597924232
-0.047363669 0.26784971 1.863 0.2785618305 -0.9597210884 0.03658866882
0.10308153 -0.074314594 1.8230001 0.1432831287 -0.8883777857 -0.4361820817
0.39833456 -0.10567866 1.6860001 0.5111985207 0.01992702298 -0.8592315912
-0.017057888 -0.15131997 1.883 0.4999498427 -0.6524000168 -0.5695826411
0.20186563 -0.19560625 1.7850002 -0.5240505338 0.007735784166 -0.8516520858
0.055734958 -0.4443315 1.7659999 -0.7256318927 0.0883782506 -0.6823837757
0.074062556 0.076857366 1.594 0.02679177187 -0.8259375691 -0.5631246567
0.33839419 -0.22266632 1.6710001 0.2208037376 0.463629216 -0.8580755591
0.14508833 0.038448408 1.6550001 -0.07468374819 -0.8892689943 -0.4512460232
0.030698234 -0.43462241 1.8430001 -0.8236329556 -0.08319270611 -0.5609881282
-0.085432738 0.0046652695 1.6630001 0.17509 -0.6501553059 -0.739352107
-0.056394216 0.18492056 1.4959999 -0.394649446 0.4461439252 -0.8032480478
-0.065953508 -0.25446063 1.9150001 -0.651601553 0.3999138772 -0.6445807219
0.17451365 -0.49665934 1.7310001 -0.1641568542 -0.4968118966 -0.8521915674
-0.25641713 0.26621649 1.863 -0.1386496276 -0.2570221424 -0.9564077854
0.33727118 -0.0014728 1.6800001 0.862016201 0.5053603053 -0.03923074529
0.45491144 -0.47513533 1.5860003 -0.2538295984 -0.025812665 -0.9669044614
0.075837366 0.0022525948 1.7130001 0.03737202287 -0.8349561095 -0.5490460992
0.14668015 0.0062550162 1.427 -0.4551842809 0.2954671383 -0.839944303
0.28229895 -0.12529846 1.7220001 -0.8400099277 0.04166209698 -0.5409690738
-0.041870914 -0.32347333 1.8730001 -0.6516172886 0.003318146337 -0.7585406303
-0.16449277 0.021088218 1.6036667 0.1836244017 -0.8378682733 -0.5140610933
-0.051026382 0.44174269 1.6630001 -0.5802966952 -0.155533269 -0.7994154692
-0.19788119 0.2253647 2.0900002 -0.2698218524 -0.9626021981 0.02435597777
0.20185338 -0.13350931 1.8130001 -0.5274270773 0.4338366985 -0.7304836512
0.04457061 -0.23605916 1.8830003 -0.4653182924 0.4463381469 -0.7643697858
0.25251392 0.35478464 1.8040003 0.1133773923 -0.03758941218 -0.9928406477
0.18596692 -0.064143069 1.4347143 -0.3375243545 -0.7577038407 -0.5585357547
-0.1153581 0.09426254 1.523 -0.04468396679 -0.6799080968 -0.7319346666
0.054793421 -0.13283253 1.8940001 0.02804881521 -0.7246802449 -0.6885142326
-0.0051793465 0.1376843 1.4770001 0.01606819406 -0.6121954918 -0.790543139
-0.054558769 0.07530012 1.5430001 0.1004469767 -0.8615471721 -0.497641325
-0.0253269 -0.20430365 1.9260004 -0.2413630635 0.2217844129 -0.9447515607
0.17009787 -0.30495024 1.748 -0.6599442959 0.5079791546 -0.5535618067
-0.24778545 -0.13665743 1.7130001 -0.9528904557 0.2262099236 0.2020616382
0.2753174 -0.21582229 1.6845714 -0.617471993 0.7707188129 -0.1572286189
0.15470128 -0.22463472 1.8130001 0.1131537333 -0.1290290952 -0.9851638079
-0.074734077 -0.078626476 1.7760001 0.1257050782 -0.8282101154 -0.5461375713
-0.10477789 -0.16407079 1.853 0.3082937896 -0.8018630743 -0.5118306279
-0.17787127 -0.15596338 1.7850002 0.2455682904 -0.7880500555 -0.5645115972
-0.22512449 0.015474043 1.6049999 -0.0007631608169 -0.7108109593 -0.7033826709
0.2651487 0.0065920949 1.6710001 -0.2656546235 0.7853032947 0.5592193604
0.39694363 -0.34524837 1.6380001 -0.155681029 0.04872503132 -0.986604929
0.37540621 -0.17470826 1.6470002 -0.4451673031 -0.09765063971 -0.890106976
0.17144445 0.11296727 1.516 -0.4843651056 -0.6372665763 -0.5994011164
0.24006639 -0.30486959 1.6799999 -0.6521351933 0.07147161663 -0.7547261119
0.022667093 0.052417655 1.6160001 0.0948529914 -0.8407421112 -0.5330625176
0.24197139 -0.027966544 1.3870001 0.3842810392 -0.3480163217 -0.8551097512
-0.2015518 0.11227382 1.5430001 -0.5192499161 0.1595322937 -0.8396004438
0.38344467 -0.40642184 1.6844445 -0.7286832929 -0.06546255201 -0.681714952
-0.10559055 0.15442003 1.5055 -0.6335619688 0.2839989662 -0.7196831703
0.4454084 -0.36635691 1.6159999 -0.4921203554 0.4011314809 -0.7726002336
-0.18644363 -0.10777973 1.748 0.1905820519 -0.6773275733 -0.7105672359
0.011177207 0.017980726 1.6630001 0.2294733822 -0.8319607973 -0.5051565766
0.42171741 -0.27515805 1.6390001 -0.4460296035 -0.1053176671 -0.8888002038
0.095101044 -0.31452006 1.8330001 -0.5899249315 0.09059005231 -0.8023602962
0.078540564 0.15834792 1.4450001 0.002713712165 -0.4940737486 -0.86941576
0.31463912 -0.30467322 1.6240004 -0.5719835162 -0.1663475037 -0.8032206297
0.28620711 -0.09593714 1.464 0.09085015953 -0.6449945569 -0.7587676048
0.26577291 0.38462785 1.8830001 0.1263982803 0.949898243 -0.2858614922
0.054107863 0.098746859 1.5430001 -0.1156456396 -0.9265401959 -0.3579795361
0.15672258 -0.11794586 1.8430001 -0.3648306727 0.4681889713 -0.8047966361
0.014667384 -0.025613194 1.748 0.05506657436 -0.8379921913 -0.542896688
0.27782005 -0.44901726 1.7130001 0.2742800415 -0.7657011747 -0.5817835927
0.3108581 -0.18621451 1.7130001 -0.577619791 0.07230929285 -0.8130970001
0.11646342 -0.032180678 1.748 -0.05241876468 -0.8038800359 -0.5924771428
-0.23631865 0.084802598 1.5743334 -0.6588513255 0.03993621096 -0.7512123585
-0.14319415 -0.32447684 1.7376667 0.2673247457 -0.7087920308 -0.6528027058
0.13509873 -0.27496558 1.813 -0.1306844801 -0.01978401281 -0.9912266135
0.23466189 -0.23377718 1.7659999 -0.6997466683 0.4864500165 -0.5231835246
-0.11532024 0.028948702 1.6240001 0.2683485746 -0.888217032 -0.3729068339
0.33172366 -0.24772495 1.6240001 0.1052279323 0.6421197057 -0.7593479753
-0.11284716 -0.12874113 1.8130001 0.5195428729 -0.5906359553 -0.6174337268
-0.030198537 0.2876808 1.8130001 -0.09142287076 -0.9202979803 -0.3803859353
0.33638752 -0.043550167 1.7130002 0.9292712808 -0.02892400697 0.3682639599
0.033929631 -0.37645733 1.8430002 -0.294075191 0.2945202589 -0.909273088
-0.044777505 -0.042343877 1.7374001 0.2080764174 -0.7342759967 -0.6461756229
0.18419608 -0.017469514 1.7479999 0.1121184453 -0.8716022968 -0.4772199392
0.23819312 0.034679882 1.6348002 -0.5989884138 0.3647946119 0.7128378153
-0.31033736 0.28570741 1.8730001 -0.3938163519 -0.1003029048 -0.9137001634
0.13435619 -0.45439562 1.7220001 -0.5385584235 -0.2016180456 -0.8181105852
-0.14497976 -0.064560108 1.7355716 0.1853791326 -0.7417083383 -0.6445954442
0.1843766 0.28671777 1.853 -0.2923843563 0.1039442867 -0.950635016
0.3047004 -0.40208793 1.6630001 0.2159905285 -0.6047994494 -0.766528368
-0.01594832 0.09701895 1.5159999 0.2255570292 -0.8693892956 -0.4396434128
-0.21603872 -0.2665908 1.6320001 0.2020281255 -0.664149642 -0.7197846174
-0.012785306 -0.097487964 1.8230001 0.215570271 -0.80516541 -0.5524836183
-0.013206107 -0.43084922 1.8830001 -0.78423208 -0.3722521067 -0.4963954389
0.28121275 0.32459986 1.8330001 0.5264914036 -0.5971410871 -0.605168879
0.055352733 -0.071167797 1.8040003 0.02747370116 -0.8132634163 -0.5812467933
-0.076781973 0.27207527 1.904 0.4164445996 -0.9019973874 0.1139059737
-0.13462481 0.26574987 1.863 -0.09271593392 -0.6558880806 -0.7491425872
0.0014578967 0.45049006 1.6630001 0.4137943685 0.09007550776 -0.9059032202
-0.30459738 0.36666012 1.863 0.05912558362 -0.5720731616 -0.8180687428
-0.31412917 -0.054569747 1.6822859 -0.3014292419 -0.7186902165 -0.6265978217
-0.27192798 -0.25199607 1.6240001 -0.3194089532 -0.5176920295 -0.7937083244
0.14416344 -0.34447479 1.7310001 -0.3628896475 0.4812563658 -0.797936976
0.09443979 -0.36382544 1.7659999 -0.5475414395 0.4211877584 -0.7230485678
0.22921677 0.095388345 1.6240001 -0.7826220393 -0.2571725845 0.5668906569
0.10400773 0.12220908 1.4829999 0.07244320214 -0.7670567632 -0.6374761462
-0.27423131 0.0060715424 1.6159998 -0.2187982053 -0.5205814242 -0.8253013492
0.22747958 -0.37355202 1.6710002 -0.4067303538 0.05555675179 -0.9118573666
0.22758442 -0.15636753 1.766 -0.6297278404 0.1114705279 -0.7687764168
0.045160081 -0.27583387 1.853 -0.4665634632 0.148756206 -0.8718888164
0.19204843 0.026016543 1.4133334 -0.2664106488 -0.01600804552 -0.9637266994
-0.034759834 0.06349463 1.5860001 0.2048492879 -0.924430728 -0.3216591477
0.37501693 -0.25489435 1.671 -0.3253252208 -0.00433515152 -0.9455922246
0.17488186 -0.38328806 1.705 -0.4078457654 -0.06342673302 -0.9108451605
0.37665018 -0.43703502 1.7220001 -0.597647965 -0.6252097487 -0.5019260049
0.23679706 -0.073094331 1.427 0.03542270511 -0.7091047168 -0.7042128444
0.22728372 -0.084238023 1.8130001 -0.5973459482 0.4373613894 -0.6722297072
0.35559008 -0.33433962 1.6159998 0.001378249493 -0.3654642403 -0.9308243394
0.1045688 0.022092 1.6799999 -0.01723263413 -0.9113116264 -0.4113564789
0.1539564 -0.072982788 1.8230001 0.1975011081 -0.7841632962 -0.5882866979
-0.15418112 0.068001278 1.536 -0.01469632983 -0.6650498509 -0.7466543317
-0.036443617 0.49642715 1.6853333 -0.783008635 0.1961365044 -0.5902778506
0.11532024 0.058371972 1.6240001 -0.09587938339 -0.8355826139 -0.5409332514
0.031954501 0.1597725 1.4580001 0.02546999045 -0.234100312 -0.971878767
-0.082262017 -0.30386582 1.9150001 -0.8500360847 -0.06679873168 -0.5224716067
0.19390638 -0.047681898 1.8130001 0.1939860284 -0.8163303137 -0.5440351963
-0.27421698 -0.042075615 1.6550001 0.02482065372 -0.6950557828 -0.7185271978
0.067604445 -0.49387369 1.7660002 -0.7180615664 -0.3555233479 -0.598323226
-0.13530123 -0.031223362 1.6960001 0.1599947363 -0.7453590035 -0.6471797824
-0.12545802 -0.19313931 1.8830001 0.1949180067 -0.7789399028 -0.5960365534
-0.048151795 -0.37027067 1.8940001 -0.8162406087 -0.174425438 -0.5507513881
0.09604498 -0.43448913 1.7390002 -0.5248565674 -0.02403009683 -0.8508514166
-0.066567928 -0.20653127 1.9470001 -0.2768011391 -0.718254447 -0.6383507252
0.0033383467 -0.23368427 1.904 -0.2177020311 0.7486314178 -0.6262242198
0.026532901 -0.49329534 1.853 -0.7707702518 -0.186552763 -0.6091890335
0.36707345 -0.49765298 1.6550001 -0.8011827469 0.4242900908 -0.4220001101
-0.29210532 0.34218052 1.904 0.4565286934 -0.8885167837 0.04603754357
-0.038087659 0.01025437 1.6710001 0.04229495674 -0.8779964447 -0.4767949283
-0.22493339 -0.094728656 1.7220001 0.1657178402 -0.73573488 -0.6566824317
0.11355639 -0.2126504 1.8330001 -0.7329086065 0.3037023842 -0.6087772846
-0.23473276 -0.064964511 1.6840001 0.1767365634 -0.5741930008 -0.7994164228
-0.19419169 -0.0052493825 1.6327778 0.2746640742 -0.8197918534 -0.5024946928
0.44549328 -0.42369372 1.594 -0.3074199557 0.03049119562 -0.9510853291
0.013781702 0.29483801 1.804 0.08237090707 -0.880241096 -0.4673228264
0.40194854 -0.45559829 1.6350001 -0.8862251639 0.1713778228 -0.4303889275
0.07414864 -0.10485337 1.8630002 0.1440520585 -0.7842832804 -0.6034473777
0.074990064 -0.35513154 1.8330001 -0.674952805 0.5773816109 -0.4594226778
-0.060753874 -0.15763167 1.8730001 0.3670508564 -0.6390452981 -0.6759399176
0.028399616 0.0014947166 1.705 0.2268021405 -0.8197171092 -0.5259512067
0.0045972397 0.34377137 1.748 0.07352907211 -0.8026305437 -0.5919271111
-0.035518788 0.39528877 1.6837333 -0.4923766255 -0.5766213536 -0.6519762874
-0.22345181 -0.31446034 1.6880001 0.2194981724 -0.8022658825 -0.5551486015
0.0048996904 -0.34461153 1.863 -0.2544431388 0.1113954857 -0.9606506824
-0.23461178 0.29085433 1.8330001 -0.4738996029 -0.6200074553 -0.625307858
0.30664429 0.025756175 1.6630001 0.3127319217 0.7781093717 0.5447427034
0.10831743 0.078153081 1.5640001 -0.2215017378 -0.9023758769 -0.3696684539
0.19563445 -0.29611385 1.7130001 -0.5763763785 0.3122582734 -0.7551721931
0.23432389 -0.44456118 1.6960001 -0.116782248 -0.5836458802 -0.8035666943
-0.26475888 -0.10315941 1.739 -0.04055443779 -0.768335402 -0.6387613416
-0.074511692 0.043577634 1.6036668 0.2857033312 -0.8715134263 -0.3985448182
-0.065207973 -0.015930286 1.6960001 0.2435044646 -0.7697056532 -0.5901345611
0.25427306 -0.25394425 1.680889 -0.6890948415 0.2416100055 -0.6832078099
0.24757768 -0.22795261 1.7220001 -0.5406190753 0.8301759362 -0.1361575425
0.31364501 0.38462785 1.8830001 0.1953423768 0.8985151052 -0.3930800557
-0.024152005 0.17419781 1.464 -0.1405109614 0.291709125 -0.9461302757
0.064755857 -0.17434271 1.8940002 -0.6072717309 0.5533279777 -0.5701308846
0.039537668 -0.41593623 1.8040003 -0.9565092325 0.0542313531 -0.2866165042
-0.0030392283 -0.16445601 1.9260002 0.3864431083 -0.623744905 -0.6794144511
0.11423405 -0.053204902 1.7850001 0.1612519026 -0.8499745727 -0.5015386343
-0.19558784 -0.036230877 1.6800001 0.3181773424 -0.5900375247 -0.7420369983
0.075087376 -0.40253025 1.766 -0.6515549421 0.161598742 -0.7411895394
0.11750285 -0.14674319 1.853 -0.650529623 0.462487191 -0.6024258137
0.016419966 -0.11986575 1.8730001 0.2763913572 -0.8521898389 -0.4442750514
0.068227455 -0.21767808 1.853 -0.5531514883 0.3492889404 -0.7563204765
0.37489477 -0.055058677 1.6845714 0.5112238526 0.3962908387 -0.762629509
-0.17097367 -0.34964886 1.7570001 0.2525648177 -0.786736846 -0.5632549524
-0.089827649 0.26295003 1.863 0.4232459664 -0.4131731391 -0.8063192964
0.25617108 0.32696307 2.0530002 0.2453697324 -0.9486997724 -0.1994051188
0.20543666 -0.47544774 1.7130001 -0.0150806522 -0.4308685064 -0.9022886753
0.15105112 0.087023489 1.5430001 0.01734085754 -0.8506005406 -0.5255264044
0.1961489 -0.26663992 1.748 -0.7172383666 0.6735894084 -0.1784556657
0.24181594 0.34629765 1.8430001 -0.7468650341 0.04433701187 -0.6634958982
0.4864057 -0.42496172 1.601 0.471378684 -0.1983874887 -0.8593279719
0.31493285 -0.344715 1.6390001 -0.5105070472 -0.1767502129 -0.8415116668
-0.14493579 0.043789819 1.5745456 0.3022240698 -0.8364523053 -0.4571740627
0.33840472 -0.46891057 1.7310001 0.3451403379 -0.04704139754 -0.9373714328
0.30501753 -0.22704855 1.6470002 -0.0056909509 0.505898416 -0.8625742793
0.00223024 0.38583151 1.6960001 0.1311518252 -0.7759488821 -0.617010951
0.34316239 -0.39618316 1.6799999 0.200671345 -0.8089436889 -0.5525768399
0.27520162 -0.30494532 1.6470001 -0.443950206 0.127633661 -0.8869147897
0.025251508 0.10765115 1.5160002 0.1063041091 -0.8991428018 -0.424548775
0.27498314 -0.49527812 1.7330002 -0.3633546233 0.1364121288 -0.9216100574
0.20539741 -0.40577811 1.6855999 -0.5713265538 -0.1916929483 -0.798022449
0.014866163 -0.066739582 1.8040001 0.1720013469 -0.6947171688 -0.6984151006
0.1696236 0.10358693 1.4770001 -0.5739268661 -0.7695307136 -0.2800542116
0.11480476 0.17219925 1.455 0.5272919536 0.2006516159 -0.8256525397
-0.011371243 -0.30702356 1.853 -0.1227539331 0.3998720944 -0.9083136916
0.38303322 -0.37868056 1.6550001 -0.4017447829 -0.5670205951 -0.7190888524
0.046092503 -0.45774624 1.8130001 -0.9575461149 -0.1945762336 -0.2127099633
0.12508367 -0.08804591 1.853 0.01471961103 -0.735057652 -0.6778448224
0.34535253 -0.18384621 1.6710002 -0.6453197598 0.007435505278 -0.7638763785
0.010463017 0.34826899 1.705 -0.396495223 -0.7088723779 -0.5833450556
-0.024366951 -0.12562516 1.853 0.2583203912 -0.763686955 -0.5916526318
-0.052302811 -0.28475973 1.8940001 -0.7795844078 0.2591528893 -0.5701647997
-0.14716351 -0.13323353 1.7939999 0.3469004929 -0.6943199635 -0.6305393577
-0.16460513 0.10437901 1.5265002 -0.4844359457 -0.1058198735 -0.8684031367
0.29736531 0.0074341334 1.6960001 -0.1809047163 0.9089232683 0.3756752908
-0.042842116 -0.17748876 1.9039999 0.3129615188 -0.7640901208 -0.5641111135
0.19769271 -0.23420589 1.785 -0.6900569797 -0.05985709652 -0.721275568
-0.16562659 0.25366732 1.883 -0.03138680384 -0.7267722487 -0.6861610413
-0.23401791 0.046247963 1.5774446 -0.4249489903 -0.4650661349 -0.7766156197
0.28973043 -0.11882953 1.5230001 -0.04646056518 -0.9357875586 -0.3494897187
0.15492016 -0.30201605 1.7850002 -0.5137579441 0.8440316319 -0.1538290083
0.13900866 -0.42001539 1.705 -0.3552729487 0.005561010912 -0.9347460866
0.092982769 -0.14445537 1.8940001 -0.5734356046 -0.01339597814 -0.8191410899
0.044725485 0.19620004 1.467 -0.1268442422 0.5231042504 -0.8427766562
-0.2360688 -0.22748448 1.6320001 0.3926045597 0.240401268 -0.8877324462
0.21334559 -0.047182202 1.4040002 0.0211073719 -0.7216817141 -0.6919031739
-0.10535675 -0.065616921 1.7570002 0.2575676143 -0.7651312351 -0.5901128054
0.40334553 -0.30468547 1.655 -0.1084895208 0.07282409817 -0.9914265871
-0.032346372 0.34040704 1.7570001 0.05042865127 -0.7390463948 -0.6717643738
0.27433529 -0.38551331 1.647 -0.2483661771 -0.2856294513 -0.9255971313
-0.045512244 -0.094363235 1.804 0.1582382917 -0.7551574707 -0.6361586452
0.16485122 0.018053722 1.6880001 0.03576079756 -0.8352401853 -0.5487212539
-0.1862303 -0.30373868 1.6860001 0.486235559 -0.6701727509 -0.5607526302
-0.10360797 0.1180344 1.4960001 -0.3808717728 -0.3690949976 -0.8477650285
-0.060857322 0.15279073 1.4770001 -0.3808903098 0.09145186096 -0.920086503
0.18464091 -0.16566283 1.804 -0.6588166356 0.3029732704 -0.688598454
0.42446586 -0.46473998 1.6053075 -0.4590683281 0.03606607392 -0.8876686096
-0.19548929 0.032535207 1.5860001 0.002186222002 -0.7349715829 -0.6780943871
-0.31362137 0.32347333 1.8730003 -0.5459023118 -0.005493051838 -0.8378308415
0.094890401 -0.3423962 1.8040001 -0.6242012978 0.7547690272 -0.2017335147
0.3219234 -0.0015403033 1.7570001 0.4828869998 0.6196830869 0.6187188625
-0.094890401 -0.097262658 1.804 0.2692963779 -0.7796211839 -0.5653938651
0.034759831 0.076471634 1.5860001 0.1064100489 -0.8524803519 -0.5118145943
0.32372406 -0.085806377 1.4829999 0.6488786936 -0.3428949714 -0.679249227
0.26514345 0.37441468 1.8330001 -0.08519545943 0.8068405986 -0.5845938325
0.26510751 -0.14557926 1.748 -0.6646051407 0.1969158053 -0.7207802534
0.1283326 0.25828966 1.853 0.01431252714 -0.4073860943 -0.9131438732
0.28073934 -0.2124514 1.7310001 -0.6765387058 0.5136965513 -0.5276468396
0.18698511 0.30844551 1.8230001 -0.245555371 0.04106794298 -0.9685122371
0.40847057 -0.082595147 1.7130001 0.7079410553 0.3337202072 -0.6224550009
0.37577879 -0.21473069 1.6550001 -0.3237981796 -0.2079765946 -0.9229845405
0.14120412 0.11847156 1.4959999 0.2528708279 -0.7306264639 -0.6342249513
-0.11865771 -0.01025437 1.6710001 0.09780059755 -0.7373248339 -0.6684213877
-0.094688766 0.071692921 1.5430001 0.05475109443 -0.7695450783 -0.6362410784
-0.07495711 0.093829282 1.5159999 -0.04477626085 -0.740405798 -0.6706671119
0.0070773303 -0.45349351 1.863 -0.7031795979 -0.3650111556 -0.6101682782
0.018360907 -0.13854139 1.904 0.1909597367 -0.7432887554 -0.6411367059
0.015247113 -0.29297909 1.8730001 -0.172909677 0.3362806141 -0.925752461
0.30275518 -0.46537781 1.7354445 -0.0133852046 -0.1921077967 -0.9812825322
-0.25968358 0.30214754 1.863 -0.2323092818 -0.480814606 -0.845487833
0.054285832 0.016613709 1.6850001 0.1521489471 -0.8395681977 -0.521513164
0.025052903 -0.045434922 1.7760003 0.01243463904 -0.7340369821 -0.6789956093
-0.21473074 -0.29404569 1.6550001 0.02858904377 -0.7630062103 -0.6457586288
0.23652956 -0.19490033 1.7659999 -0.7488347292 0.1266633868 -0.6505404711
0.17739613 -0.26369694 1.8230001 -0.2286569327 -0.06559752673 -0.9712944627
0.29445919 -0.15545052 1.705 -0.6497666836 -0.00590538606 -0.7601107359
0.38390374 -0.43207303 1.6550001 -0.7995914221 -0.0781012252 -0.5954441428
0.25075471 0.062334508 1.6160001 -0.6955248713 0.00468171807 0.7184867859
-0.017772663 0.26820564 1.8430001 -0.1729505062 -0.9025748968 -0.394267261
0.084331609 -0.46363133 1.7570001 -0.5747783184 0.09559565037 -0.8127061725
0.15518403 0.052677147 1.6240001 -0.267537117 -0.8682240248 -0.4178646803
0.01462017 -0.40449139 1.853 -0.3636656702 0.008756704628 -0.9314883947
-0.074632168 0.03229399 1.6372501 0.03808707744 -0.8836188316 -0.4666552544
-0.031714294 -0.23869179 1.904 -0.473808825 0.5427838564 -0.6934629679
-0.1390402 -0.15182552 1.8230001 0.260825485 -0.7682674527 -0.5845811963
0.055236761 -0.1546147 1.9260004 -0.3498142958 -0.319891274 -0.8805109262
0.25556499 0.083263166 1.647 -0.782335937 -0.3112696111 0.5395013094
0.29448283 -0.42470643 1.6880001 0.2835977077 -0.7948268652 -0.5364909768
0.22377354 -0.12518801 1.785 -0.5572260022 0.3405022323 -0.7573357224
0.25871924 -0.10790803 1.483 -0.07864380628 -0.9022766948 -0.4239244461
0.35135311 -0.033531625 1.6630001 0.8467463851 0.4068274796 -0.3428001404
0.054443277 -0.014910405 1.7347336 0.1006384045 -0.826595962 -0.5537247062
-0.14470659 0.012892163 1.6343334 0.3549230397 -0.8348366618 -0.4208056629
0.29640102 -0.063146301 1.47 0.5266190171 -0.130626902 -0.8400053978
0.15877835 -0.017231759 1.404 -0.9196763635 -0.02314293198 -0.3919946253
-0.13290265 0.1249285 1.5159999 -0.4103995562 0.1287172139 -0.9027757645
-0.16651145 -0.044542558 1.7050002 0.3925626874 -0.7272345424 -0.5630492568
0.075943664 -0.29362172 1.8529999 -0.4527175128 0.09683375806 -0.8863803148
0.48562598 -0.46176577 1.6010001 0.7349236608 0.02310451679 -0.6777561903
-0.07166224 0.062015399 1.572 0.2147426754 -0.879957974 -0.4237447381
0.074425489 0.10565761 1.5159999 -0.1945949942 -0.8930866122 -0.4056218565
0.40546492 -0.24585167 1.6470001 -0.2540893555 0.1344645768 -0.9577879906
-0.069981672 -0.24066867 1.9470001 -0.7197838426 0.4764522612 -0.5048806667
0.075456448 0.052677143 1.6240001 0.08483496308 -0.8856185079 -0.4565993249
0.21601929 -0.0063992916 1.3809999 0.3101329803 -0.127455458 -0.9421107173
0.33712304 -0.27787966 1.6090001 -0.07152952254 0.3322540522 -0.9404736757
0.16579099 -0.46373424 1.7130001 -0.1084592566 -0.2537174523 -0.9611784816
0.24463998 -0.34425387 1.6710002 -0.5444397926 0.1144819856 -0.8309507966
0.18058369 -0.3323347 1.7310001 -0.6980782151 0.3346008062 -0.6330316663
0.18801081 -0.10605738 1.8330001 -0.5370538831 0.5767608285 -0.6155648828
0.065884121 -0.085167289 1.8330001 0.1280570179 -0.872171104 -0.4721429646
-0.05508272 -0.32548881 1.904 -0.9026359916 -0.2016939521 -0.3802208006
0.41394034 -0.37386543 1.6327002 -0.6695516109 0.03890646622 -0.7417458296
0.04524608 -0.20423004 1.8940001 -0.7185508609 0.3494505286 -0.6013060212
0.19980898 0.31677034 1.853 -0.03964722902 -0.4686330557 -0.8825027943
-0.02636838 0.46730629 1.6710001 0.001053034095 0.3398603797 -0.9404752851
0.13549607 -0.19589314 1.813 -0.4788053334 0.275136441 -0.8336938024
-0.18464403 -0.26802054 1.6811429 0.515426755 -0.1760320663 -0.838658452
-0.044897605 -0.063475929 1.7659999 0.1874795854 -0.7850841284 -0.5903340578
0.26526445 -0.078793921 1.4450001 0.3224134445 -0.6471967101 -0.6907865405
0.42522755 -0.3251465 1.6351819 -0.09824426472 0.3014052212 -0.9484212995
0.31740573 -0.035673849 1.7390001 0.8078159094 -0.1148617268 0.5781351328
0.11586377 -0.36436105 1.7390002 -0.6009173989 0.3556782901 -0.7158151269
0.35471073 -0.26422822 1.647 0.7475848198 0.5057134628 -0.4305471182
0.31429553 -0.20236273 1.6800001 -0.1541935951 0.8307185769 -0.5349121094
-0.0056281998 0.064717293 1.6049998 0.1535681188 -0.8179338574 -0.5544375777
-0.20499535 -0.1377068 1.7850001 -0.0463094227 -0.8188925982 -0.5720754266
0.01181922 -0.2110575 1.9260001 -0.3136253357 0.5175141692 -0.7961270213
-0.30135125 0.022304738 1.6240001 -0.5116677284 -0.1842251122 -0.8392003775
0.12117725 -0.18257372 1.8430001 -0.6391385198 0.3581927717 -0.6805879474
0.14416344 -0.48408568 1.7310001 -0.2412274033 -0.3238713145 -0.9148315191
0.14016761 -0.32500401 1.7570001 -0.7261343598 0.5159516931 -0.4544477165
-0.075088255 -0.058231708 1.748 0.1123233736 -0.7895144224 -0.6033658981
0.14735569 -0.028238894 1.7570001 0.2859905958 -0.8011172414 -0.525757134
0.16816688 -0.19663399 1.8040003 -0.383475095 0.236044839 -0.8928772211
-0.085227996 -0.13450675 1.8430002 0.3168280423 -0.4848464131 -0.8151956797
-0.034744658 0.12465977 1.4848461 -0.06002311781 -0.5857023001 -0.808300674
0.16352929 -0.087179534 1.853 -0.0379149951 -0.6507948637 -0.7583063245
-0.014302523 -0.043418378 1.748 0.4682861269 -0.6527656913 -0.595487237
-0.22580041 0.26478752 1.853 -0.2799849808 -0.4493814111 -0.8483305573
0.034652881 0.036096748 1.6470001 0.1750504375 -0.862552166 -0.4747221768
-0.12520678 0.062312219 1.5500001 0.01107238978 -0.7690442204 -0.6390996575
0.47159055 -0.49825788 1.6010001 -0.01136460248 -0.3081183732 -0.951280117
0.3570523 -0.44899711 1.748 0.2834247649 -0.5589959621 -0.7792264819
-0.12792321 0.16293375 1.536 -0.5489007831 0.5436027646 -0.6349834204
-0.024525736 0.076307148 1.5543751 0.3083605468 -0.8466712832 -0.4336605668
0.0040176758 0.035296969 1.6369002 0.2315247655 -0.7638303041 -0.6024612188
0.10540251 0.038262554 1.6470001 0.06190728769 -0.8249242306 -0.561842978
0.43509844 -0.49545074 1.601 -0.2684697211 0.006171861663 -0.9632683396
0.3125101 -0.27367625 1.6320001 -0.5405759215 0.1100620925 -0.8340647817
0.25503525 -0.044570547 1.4121877 0.3525438011 -0.6076678038 -0.7116549015
0.43656725 -0.39636642 1.6090001 -0.488072753 0.2593565583 -0.8333781958
-0.22564785 -0.1153141 1.748 0.01422527339 -0.6854597926 -0.7279714942
0.30465657 -0.37396234 1.6470002 0.008403793909 -0.3647190332 -0.9310796857
0.36300468 -0.085843727 1.6710001 0.4831551611 0.1717692167 -0.8585199118
0.15779971 0.26551279 1.8430001 0.08287359774 -0.4157877564 -0.9056779146
0.44773033 -0.33825395 1.6010001 -0.6668769717 0.3064974248 -0.6792160869
0.36022672 -0.41403651 1.705 -0.4521028996 -0.6713831425 -0.5872373581
-0.25467479 -0.013937873 1.636 0.02226848155 -0.681309104 -0.7316570282
-0.16969548 -0.30785465 1.7130001 0.4483667016 -0.5959447622 -0.6661960483
0.18527824 -0.032696161 1.7760001 0.2055403739 -0.865447402 -0.4568960369
0.35086042 -0.15449409 1.6470001 -0.5367786288 -0.04619051516 -0.8424578309
0.075410865 0.087293796 1.5640001 -0.1536682844 -0.9307165146 -0.3318928778
0.12556234 -0.30516413 1.8129998 -0.4948515296 0.3263246715 -0.8053782582
0.08524251 -0.061965954 1.794 0.0550109297 -0.8344724774 -0.5482968688
-0.024784243 0.42424792 1.6630001 -0.02910647169 -0.3231755495 -0.9458913207
-0.025805032 -0.35375762 1.8630002 -0.4842945933 0.006392869167 -0.8748816252
-0.25372913 0.028147763 1.594 -0.3003971875 -0.5062624216 -0.8083686829
-0.18802483 0.083867192 1.5430001 -0.3689271808 -0.39356637 -0.8420203328
0.040392417 -0.46532065 1.8430001 -0.7866811752 -0.278372854 -0.5510365367
0.2176027 -0.49803433 1.748 0.2777741253 -0.7986438274 -0.5338628888
0.02123199 -0.25805032 1.863 -0.105926685 0.4123645425 -0.9048397541
0.1997748 -0.37439275 1.6880001 -0.5735561848 0.1076814011 -0.8120579123
0.17517428 -0.046137713 1.4114286 -0.4465048015 -0.7519342899 -0.485003382
-0.10482128 -0.023045812 1.6960001 0.09385735542 -0.747862041 -0.6571857929
0.025741914 0.1318298 1.483 0.01080848742 -0.7559142113 -0.6545814872
0.2580477 -0.28428984 1.6630001 -0.6427879333 0.2015554607 -0.7390527725
0.21459866 -0.31421605 1.6960001 -0.7504546642 0.2837108672 -0.5969304442
-0.29043615 0.05579808 1.6320001 -0.7325766683 0.1204216555 -0.669947803
0.063575871 0.14132744 1.4700001 -0.1311820298 -0.5960254669 -0.7921773195
-0.19732013 -0.25680637 1.6550001 0.8811271787 -0.04505125433 -0.470728457
0.11473111 -0.0060384804 1.7220001 -0.01448908914 -0.7773542404 -0.6288962364
0.16653964 0.043803379 1.4141668 -0.4626742005 0.2587589324 -0.8479247689
0.39503595 -0.27395311 1.655 -0.4557852745 -0.04423575103 -0.8889898658
0.12556235 -0.23523068 1.8129998 -0.3525647521 -0.05373215303 -0.9342435002
0.15023349 -0.37482497 1.7310001 -0.5378068686 0.1713979393 -0.8254613876
-0.17804223 -0.13159643 1.766 0.2732981741 -0.7981902957 -0.5368429422
0.10388061 -0.27556902 1.8230001 -0.6197528243 0.1588645577 -0.7685496211
0.28581524 0.39687487 1.863 0.1345015019 0.9612706304 -0.240557909
0.33060679 -0.01358658 1.7220001 0.8670649529 0.3483074307 0.3562025726
-0.28753 0.29077893 1.853 -0.1480985731 -0.2477969229 -0.9574254751
-0.13483046 -0.17056865 1.853 0.1518740058 -0.8283309937 -0.5392606854
-0.265104 -0.057439201 1.6800001 0.07167489082 -0.694640696 -0.7157772183
0.27653834 -0.23533329 1.6550001 -0.6929186583 0.06591837853 -0.7179961801
0.1354976 0.022092 1.6800001 0.03391633183 -0.8186038136 -0.5733563304
0.26510748 -0.114931 1.748 -0.7984345555 0.1940686256 -0.5699470043
0.46673381 -0.36612058 1.5940001 -0.5983450413 0.2218511254 -0.7699125409
-0.043117974 0.42225879 1.6960001 -0.7461284399 -0.4637855589 -0.4776978791
0.21690136 0.090375565 1.5860001 -0.7614088058 -0.08768651634 0.6423143148
0.1048055 0.074062556 1.5940002 -0.181355238 -0.9409868121 -0.2857517898
0.17421016 -0.0051327078 1.7220001 -0.004080194049 -0.8415984511 -0.5400882959
0.38329506 -0.46390772 1.7350001 -0.6450250745 -0.4612168968 -0.609279573
0.16264826 -0.29297879 1.8130001 -0.1997060329 0.6770328283 -0.7083389163
0.26495016 0.025267726 1.6470001 -0.2910738587 0.7858206034 0.5456757545
-0.094456449 -0.20780419 1.9590001 -0.3029823303 -0.7831583619 -0.5430144072
-0.25438061 -0.13025513 1.748 -0.9027047157 -0.4083623886 0.1355152875
0.28132319 0.35761425 1.8130001 0.3477369249 0.04213202 -0.936645031
0.23045813 -0.28101024 1.6960001 -0.7237437963 0.2402385622 -0.6469005942
-0.13474014 0.032281496 1.6010001 0.2672828138 -0.8635908961 -0.427516818
-0.1660582 -0.081519485 1.7220001 0.6235988736 -0.4709349871 -0.6239749193
-0.052342258 -0.22794209 1.9260001 -0.6764879823 0.4966177344 -0.5438150764
-0.17006545 -0.14781389 1.8130001 0.3434975445 -0.7993305922 -0.493031472
0.25629023 0.3262237 1.813 0.07266537845 -0.4836592376 -0.8722347617
-0.2847636 -0.014765948 1.6370001 -0.1959522665 -0.5762515068 -0.7934336662
-0.12322427 -0.33578613 1.7570001 0.1943042278 -0.6579270959 -0.7275835276
0.096542038 -0.38770056 1.748 -0.6483181715 0.4065305591 -0.6437518597
-0.041269083 -0.25916985 1.8830001 -0.5107680559 0.4391813576 -0.7390775681
0.35517818 -0.30496237 1.6089997 0.2575862706 0.05136947334 -0.9648888707
-0.016036863 0.49422693 1.6630001 -0.1404951215 0.2053845078 -0.9685444236
0.16381173 -0.14303562 1.8230001 -0.3885410428 0.6471562982 -0.6559150815
