# .PCD v0.7 - Point Cloud Data file format
VERSION 0.7
FIELDS x y z normal_x normal_y normal_z
SIZE 4 4 4 4 4 4
TYPE F F F F F F
COUNT 1 1 1 1 1 1
WIDTH 512
HEIGHT 1
VIEWPOINT 0 0 0 1 0 0 0
POINTS 512
DATA ascii
0.26344991 -0.25450951 1.294353 0.7176250815 -0.1069936752 0.6881617904
-0.48393315 -0.48393315 2.3490002 -0.04588392004 0.7503215671 0.6594787836
0.38634962 -0.27063137 2.1290002 -0.1463003457 0.9739949107 0.1730034053
-0.28010815 0.092326149 1.7850001 -0.643637836 0.6738513112 0.3628425598
0.041951131 0.44210038 1.2270001 0.6064605117 -0.3528555632 0.7125297189
-0.2334125 -0.058079164 1.25 0.2822764218 0.6082461476 0.7418602705
-0.03406902 -0.35872674 2.286 -0.04097760469 0.7704113126 0.6362289786
0.18499307 0.085053787 1.0543029 0.137168929 0.8066579103 0.5748806
0.35343254 0.34709865 1.4450001 -0.2579873204 0.7804251313 -0.5695429444
-0.3024044 -0.2331793 2.0780001 -0.08971286565 0.7477236986 0.6579216719
0.49687976 -0.041269083 1.8830001 0.09295519441 0.7660085559 0.6360740662
0.43356019 -0.2851451 1.0260499 0.7096050382 -0.01816531643 0.7043654919
-0.0111249 -0.20642869 1.4100001 -0.1935766637 0.6207074523 0.7597699165
-0.24410169 0.13184102 1.4890001 0.07448512316 -0.3650838137 0.9279901981
0.15511908 -0.49506643 1.3124547 0.7628251314 -0.05345764384 0.6443912387
-0.07540857 0.085050426 1.0920001 0.2617821097 0.557859838 0.7875674963
0.10098498 0.30033198 1.4960001 0.3857038617 0.6338618398 -0.6704115868
0.31085137 0.18811806 1.25 0.2988561988 0.6564978957 -0.6926004887
0.36132255 -0.060050789 1.161 0.6577900052 -0.3506163359 0.6666187048
0.10517689 -0.045835417 1.2536503 -0.1314399093 0.7777211666 0.6147140265
0.14184906 -0.46789014 2.4150002 -0.06151505932 0.8108785748 0.5819723606
0.34500471 -0.45143688 1.1730001 0.5331646204 0.1674056053 0.8292832971
-0.3622106 -0.083458662 1.904 -0.9587048888 -0.1933668256 -0.2085525244
0.071388282 0.25817439 1.1155001 0.4962103069 -0.3639421165 0.7882394791
0.22396554 -0.31630221 2.2410002 -0.05144206434 0.8031232357 0.5935880542
0.10804941 -0.33517724 1.3760002 0.6120818257 -0.1868194938 0.7684102654
-0.065381549 -0.095177568 1.2858573 -0.1738829017 0.6886648536 0.7039214969
0.35535175 -0.22516052 1.1648003 0.9146627188 0.05688979104 0.4001945555
0.13400698 -0.14684956 1.3730001 -0.09106763452 0.6951354146 0.7130872607
0.045239158 0.1419218 1.0118001 0.1221301705 0.696834445 0.7067573667
-0.18515462 -0.34840927 2.2710001 -0.04588392004 0.7503215671 0.6594787836
0.22537878 0.013497803 1.1847333 0.02508226037 0.8145542145 0.5795449018
0.064733066 0.045807585 1.1360003 -0.0820877701 0.787440598 0.610900104
0.49445665 -0.14152293 1.9930001 -0.4306701422 0.8880926371 0.1606696248
0.24458165 -0.39415497 1.2651428 0.4881287813 -0.2735514641 0.828794241
0.043919247 0.49735579 1.3540001 0.9299807549 0.2951411307 -0.2191519141
-0.12535538 -0.0053762784 1.1826363 0.006991759408 0.6932436228 0.7206693888
-0.16187124 -0.17360103 1.3380001 -0.07793134451 0.3460556865 0.9349717498
0.3002969 -0.12854037 1.2640001 0.868745625 0.02936401032 0.4943872392
-0.27799955 0.22556962 1.57375 -0.8546608686 0.1795521826 -0.4871507287
-0.17787129 0.10612489 1.705 -0.7926602364 -0.5685669184 -0.220048666
0.31336975 0.2647025 1.3540001 -0.5604407191 0.6701076627 -0.4866846204
0.40329531 -0.14537489 1.0755881 0.7515676022 0.007775871549 0.6596102118
-0.49378076 -0.40280378 2.256 -0.07157899439 0.7470613122 0.6608902216
0.37866217 -0.34432748 1.1190002 0.8659281731 0.01734119281 0.4998676777
0.086174577 -0.35872674 2.286 -0.05341525003 0.8010191321 0.5962508917
-0.0021215333 -0.018033033 1.21 -0.1405598223 0.7893415689 0.5976477861
0.21358055 -0.23626167 2.1560001 -0.005368637852 0.8401890397 0.5422670245
0.29108447 0.106547 1.1630001 -0.5862035155 0.7406573892 -0.3283170164
0.095607519 -0.23468672 1.4350001 0.5686594844 0.04210109636 0.8214949369
0.31590438 -0.32515299 1.2126087 0.779293716 -0.0918764174 0.6198871136
0.19518283 -0.087889336 1.302 0.05854464695 0.7427322268 0.6670243144
0.025637994 -0.13120618 1.3380002 -0.06539405137 0.7140243053 0.6970601678
0.18069415 -0.25009984 1.365 0.6216544509 -0.2046607584 0.7560818195
0.063197441 0.35253921 1.169 0.6025957465 -0.3395557106 0.722205162
0.25439781 -0.4943828 1.2255262 0.4938823283 -0.3051790595 0.8142149448
0.46887201 -0.21180704 2.0650001 -0.3496446908 0.9262872934 0.1405006796
0.18588577 -0.33597988 1.317 0.4957692027 -0.1675380468 0.8521407843
0.33358341 0.023902318 1.1854 0.2964471281 0.411726892 0.8617424369
-0.15512355 -0.099323712 1.273 -0.05806045607 0.7217382789 0.6897266507
0.10594999 0.19293155 1.0555 0.5336043835 -0.3322361112 0.777743876
0.15623148 0.048485629 1.138 0.06243986264 0.8279422522 0.5573265553
0.13660219 -0.29857337 2.2260001 -0.05144206434 0.8031232357 0.5935880542
0.11944496 -0.41983128 1.3490001 0.7285940051 -0.1220106706 0.6739912629
-0.075052559 -0.16458498 1.3563528 -0.3362801969 0.573792696 0.7467781305
0.015276414 0.086782224 1.0745217 0.02775241435 0.7964524031 0.6040640473
0.26158333 0.057702199 1.097 -0.4061912 0.8538028598 0.3256215155
0.24917497 -0.16804823 1.322 0.6093533039 -0.0581741333 0.7907618284
0.3916339 -0.23451808 1.0824286 0.864439249 -0.001585762482 0.5027347803
0.10008816 0.10008816 1.067 -0.03247721866 0.7921204567 0.6095001101
-0.045366876 0.022895526 1.1427143 -0.01148565765 0.7409780622 0.671431005
0.33612648 -0.14489882 1.1876664 0.8893027902 0.03543493152 0.4559440017
0.024300165 -0.072494678 1.2757272 -0.05878757313 0.7285523415 0.6824628115
0.25260711 -0.041376039 1.2420001 -0.03328609094 0.7339149117 0.6784253716
0.31006384 -0.20634659 1.2410001 0.8809671402 0.01373604685 0.4729780555
0.14346099 0.0016558981 1.202 0.00981636066 0.7896121144 0.6135277748
0.10482769 -0.10252557 1.3140002 -0.08955135196 0.7351464033 0.6719675064
-0.07525482 -0.044079673 1.2263335 -0.0759678781 0.7549364567 0.6513829827
0.017608726 0.49619547 1.2754999 0.928506434 0.3021607697 -0.2158117443
0.066385411 -0.17499387 1.3920001 -0.02863552049 0.7266224027 0.686439991
0.18224673 -0.41547689 1.302 0.5617892742 -0.1797246635 0.8075220585
0.30354497 -0.40494063 1.2131667 0.6919996738 -0.1555425376 0.7049418092
0.26604217 -0.32482097 1.265 0.6628568172 -0.1979541779 0.7221045494
0.064843521 0.0020917265 1.193 -0.060577631 0.7466397285 0.6624646783
-0.19242132 -0.01480164 1.2060002 0.3340578079 0.4814524353 0.8103141189
-0.11465558 0.044468574 1.1338263 0.2520857453 0.4964105785 0.8306800127
0.35555738 -0.29446787 1.1642857 0.8738380671 -0.04567295313 0.4840671122
0.1846648 -0.034730136 1.24275 0.07655331492 0.7613269687 0.643832922
0.38004377 -0.41163182 1.126 0.8561424613 0.03399725258 0.5156202912
-0.02092954 0.13012713 1.0380001 0.2648843229 0.5053607225 0.8212471008
0.13201854 0.13201591 1.0175 0.40687114 0.3198842704 0.855645895
0.20442142 -0.47390255 1.265 0.5313951373 -0.2862794399 0.7972849607
0.36628255 -0.11497732 1.1241667 0.8314613104 -0.1047381014 0.5456207395
0.41182056 -0.33734074 1.0620002 0.8333209753 0.1843067706 0.5211594701
-0.22071485 -0.11539914 1.2780001 0.1217526644 0.5785186291 0.8065311313
0.35066053 -0.3671138 1.1730001 0.8301233649 -0.09151776135 0.5500178933
-0.11555745 -0.13369317 1.3162858 -0.07881104946 0.7422531843 0.6654690504
0.32722986 0.31007174 1.3980001 -0.2271104604 0.7698827386 -0.5964071155
0.3172332 0.23195547 1.2970001 -0.8386611938 0.4883047938 -0.2412588298
-0.25602084 0.18095715 1.529 -0.9138243794 -0.3589216173 0.1900007129
-0.14505765 -0.052652895 1.2256665 -0.1091706455 0.6692136526 0.7350067496
0.12399722 -0.27632841 1.3961538 0.6409682035 -0.5391559601 0.5463246107
0.36927268 -0.18456626 1.1190001 0.8771606684 0.06809069216 0.4753449261
0.29651058 -0.27540919 1.245 0.7971722484 -0.1201426536 0.5916774273
0.28852898 0.13947722 1.2145001 -0.7968502641 0.5198151469 -0.3079316318
0.0052855033 0.051498905 1.1238183 -0.1221422553 0.763804853 0.6337849498
0.27474698 0.033104889 1.1551538 -0.1703293025 0.7188674212 0.6739566922
0.21249798 -0.28217044 1.3245715 0.5943003297 -0.3346857727 0.7312951088
0.21620648 0.047289152 1.1356668 -0.03802046552 0.7862814665 0.6166976094
0.2241921 -0.22434789 1.3333335 0.7167416215 -0.2057535201 0.6662934422
0.4308154 -0.22677438 1.0372001 0.7176256776 -0.1664175987 0.6762533188
-0.01487265 -0.16462484 1.3649999 -0.2110768259 0.69427073 0.6880659461
-0.062955186 -0.21671112 1.381 -0.3577765822 -0.2187875658 0.9078149199
0.15431087 -0.30506068 1.3540001 0.4710729718 -0.2939635217 0.8316704631
0.13958462 -0.36714274 1.3380001 0.620806396 -0.2163531184 0.753518939
-0.034796655 -0.12642322 1.3230001 -0.09729485959 0.7180414796 0.6891662478
0.050927319 -0.040091719 1.2360001 -0.06502623856 0.7867980003 0.6137756109
0.38090998 -0.28519344 1.1140999 0.926953733 0.04399741441 0.372586906
-0.024743579 -0.056331225 1.2523078 -0.169779107 0.7636745572 0.6228773594
0.015127991 0.01652189 1.1666842 -0.1092625707 0.7926853895 0.5997596383
0.039118621 0.39012894 1.2060001 0.588519752 -0.3453008533 0.7310347557
0.059637003 0.29818502 1.153 0.7289917469 -0.3136335313 0.6084448099
0.33230945 -0.26310304 1.2042222 0.809211731 -0.1125054285 0.5766445398
0.14430635 -0.072832413 1.286 0.03186653927 0.7426030636 0.6689732671
0.29550943 -0.4738276 1.1953334 0.5743969679 -0.13717556 0.8070012331
-0.065055057 -0.0074123419 1.1832857 -0.03897820413 0.8001307249 0.5985578299
0.27262101 -0.0067741284 1.202 0.1736530364 0.7604108453 0.6257954836
0.15448695 -0.11487426 1.3343333 0.06615395099 0.7041611671 0.7069517374
0.10531881 0.027603367 1.1663334 -0.1016464755 0.7648385763 0.6361524463
0.11494269 0.068641834 1.1079999 -0.003096423578 0.8276330829 0.5612609982
0.076205835 -0.13840498 1.3540001 -0.1038161889 0.7163783908 0.6899451017
0.27722871 -0.19496322 1.2855 0.7970894575 -0.0920387283 0.5968058705
0.2685681 -0.43667465 1.2360001 0.5976555943 -0.248108238 0.7623975873
0.46884745 -0.11163035 1.9590001 -0.4123545885 0.8989573717 0.147781536
-0.10761303 -0.081123665 1.2590001 -0.1022857726 0.712148428 0.6945374608
0.31780848 -0.10547075 1.2151667 0.8709132075 0.09996980429 0.4811613858
0.39922613 -0.28542954 1.0640001 0.8752554655 0.01557872817 0.483409971
0.22502047 -0.3552756 1.2919999 0.5524394512 -0.2675081789 0.7894618511
-0.17478162 -0.13323332 1.3045001 -0.06809212267 0.7325055003 0.6773471832
0.054825563 -0.097765863 1.312 -0.08018387854 0.7334640026 0.6749823093
0.064576574 0.076511033 1.0935 -0.01395764481 0.8458266854 0.533275187
0.055776745 -0.20421571 1.4350001 -0.07757158577 0.799079895 0.5961996317
0.18553552 0.073359407 1.1019411 -0.05942418426 0.7960761189 0.6022720337
-0.11612502 -0.19119574 1.3380001 -0.3102028072 0.1682297587 0.9356670976
0.28457579 -0.36430141 1.2432859 0.7148724198 -0.1567518562 0.68145895
0.054681156 0.10690273 1.044158 0.0006370916963 0.7810717821 0.6244409084
0.38024101 -0.069401316 1.115 0.7577705383 -0.06625837088 0.6491484046
0.08160539 0.2165314 1.09 0.5527957678 -0.3812859654 0.74097085
0.17584443 0.022182545 1.1730002 0.07560806721 0.797098875 0.5990966558
-0.1839513 -0.072791323 1.245 0.1595928371 0.6970356107 0.6990504265
0.15228131 -0.44545555 1.324182 0.7514925003 -0.09175287932 0.6533302665
0.09796951 0.14622876 1.0528572 0.7035323977 -0.1843158305 0.6863452792
-0.0169372 -0.092364199 1.2880001 -0.1771004349 0.6753309369 0.7159354091
0.22565751 -0.070031643 1.268 0.03998847306 0.717803359 0.6950965524
-0.035248939 0.063640423 1.1029998 0.05740885809 0.75002563 0.6589125991
0.41767591 -0.18614613 1.0564001 0.7247222066 -0.0767878145 0.6847491264
0.33786702 -0.022432439 1.1810001 0.5238690376 -0.2412819564 0.8169113994
0.071704321 -0.07058394 1.2780001 -0.0739781484 0.7641529441 0.6407788396
0.14445801 0.089696147 1.077 0.01491621137 0.8105733991 0.585447073
-0.15403916 0.024933279 1.1625999 0.247722283 0.5746203065 0.7800289392
-0.24366556 0.087546706 1.4758334 0.2346242964 -0.3685117066 0.899527967
0.33668596 -0.19504069 1.1942002 0.8485931754 0.07421847433 0.5238140821
0.10332017 -0.014304657 1.2175 -0.1548529565 0.7536345124 0.6387922764
-0.27176929 -0.25557113 2.0530002 -0.07157899439 0.7470613122 0.6608902216
0.34757358 -0.10549358 1.1642942 0.9146128297 0.0232751742 0.403660357
-0.034287721 0.09672159 1.0652857 0.1595532149 0.675090313 0.7202748656
0.25786623 0.079575911 1.149 -0.4808216691 0.3712895513 -0.7943264842
0.39928046 -0.37259826 1.087 0.861113131 0.07647098601 0.5026294589
0.24631327 -0.29580325 1.2966155 0.4457086921 -0.2790400684 0.85057652
0.22504716 0.073237009 1.0703157 -0.1284270287 0.5720168352 0.8101254702
0.32915589 -0.40963915 1.177 0.6608877778 -0.131886512 0.7388053536
0.31530038 -0.16502953 1.2253157 0.8910095096 -0.002064811997 0.4539799392
0.2269991 -0.43449906 1.2589999 0.4566885531 -0.2193972766 0.8621487021
0.37115714 -0.2356815 1.1248463 0.9293531775 0.05276851729 0.3654012978
0.21907462 -0.020304477 1.2190001 0.01549124438 0.7266992927 0.6867810488
-0.072593257 0.048068509 1.1190001 0.1521714032 0.6748426557 0.7221019864
0.27429584 0.1860909 1.2270001 0.3560772836 0.4891854227 -0.7961825132
0.024459876 -0.18711488 1.3950001 -0.08565588295 0.6295247078 0.7722445726
-0.28576264 -0.26363909 2.1030002 -0.07157899439 0.7470613122 0.6608902216
0.11457859 -0.38288942 1.37 0.663382411 -0.0431987904 0.7470325828
0.35716218 -0.15501058 1.1468824 0.9319481254 0.02960025705 0.3613814414
0.27573928 -0.14537908 1.2937647 0.7751591802 0.02078378946 0.6314240098
0.39269364 -0.10587586 1.092706 0.7986004353 -0.09559258819 0.5942216516
-0.085161045 0.016067656 1.1547499 0.05796016008 0.7242860198 0.6870592237
0.28797925 -0.23508854 1.2665454 0.7565270066 -0.1021015644 0.6459428668
-0.025285969 0.0027723571 1.1754616 -0.1467171311 0.7679053545 0.6235346794
0.035808153 -0.15596305 1.3706 -0.1008896604 0.690633595 0.7161329985
-0.074876979 -0.12671515 1.3140002 -0.08817089349 0.7444564104 0.6618236899
0.32147917 -0.36482081 1.2035385 0.6829742789 -0.1100380197 0.7221064568
0.17516306 -0.37559059 1.3164444 0.5713277459 -0.2189995944 0.7909638286
0.14496209 -0.023803253 1.2340001 -0.02095563337 0.7705117464 0.6370812654
0.17439802 -0.46435526 1.2936667 0.6824344993 -0.1479859352 0.7158095241
0.18471561 -0.0036682826 1.2048235 0.03944130614 0.7844685912 0.6189130545
0.15429705 0.10525366 1.0375202 0.202824682 0.6874402761 0.6973435879
0.014424892 0.1139642 1.0423932 0.1238435432 0.7440431118 0.6565536261
0.18525544 -0.059147824 1.273 0.1305730492 0.7183318734 0.6833373904
0.38903642 -0.19606672 1.087 0.814291656 -0.02319204994 0.5799924731
0.34348136 -0.32497245 1.1846521 0.7192753553 -0.02234137803 0.6943657994
0.39106312 -0.3151187 1.092 0.9101637602 0.07313205302 0.4077420533
0.15133327 -0.40550303 1.3330001 0.7162721753 -0.1256135851 0.6864221692
0.014895442 -0.1019765 1.307 -0.1008556634 0.7268815637 0.6793167591
0.11563934 -0.1268519 1.3460002 -0.06958477944 0.6829205751 0.7271708846
0.10241132 -0.16665083 1.3825001 0.001344687771 0.6587955356 0.7523208261
-0.26404732 0.16393666 1.4960002 -0.9384073019 -0.3036932051 0.164809376
0.096058995 -0.30033636 1.3870001 0.7499339581 -0.28850618 0.595284164
-0.20450452 -0.044371076 1.2264668 0.2958236337 0.5749512315 0.7628364563
0.25377306 -0.20484972 1.3140589 0.64546597 -0.1408124268 0.7506967187
0.21180618 -0.3907654 1.2920001 0.523914814 -0.2020079643 0.8274697065
0.025664758 0.4655765 1.2548335 0.6467103958 -0.3697677255 0.6671112776
-0.045472696 -0.02671963 1.2110001 -0.06085730717 0.7960791588 0.6021248698
0.29800528 -0.175492 1.2589999 0.8530815244 -0.04531809688 0.5198059082
0.035411492 -0.015229647 1.2117778 -0.06226540729 0.7607682943 0.6460298896
-0.10404612 -0.027567271 1.2042223 -0.06364729255 0.7724522352 0.6318753958
-0.046478759 -0.1823151 1.3736 -0.2913922369 0.486366868 0.8237341046
0.097167984 -0.27032632 1.4210001 0.7027062774 -0.1366437376 0.6982352138
0.23611701 -0.46750441 1.245 0.4645284414 -0.3268471956 0.8230335712
0.01191916 -0.040091719 1.2360001 -0.03382145241 0.7976174951 0.6022146344
0.35960254 -0.2608881 1.149 0.906270206 0.05662262812 0.4188892543
0.21770263 -0.31624174 1.307 0.6469147205 -0.1860778034 0.7395109534
0.054594766 0.024634423 1.1662003 -0.0977775231 0.7964780331 0.5967095494
0.37831104 -0.14453472 1.1065 0.7968072891 -0.01697415859 0.6039950252
-0.10590309 -0.10845156 1.2919999 -0.05450879037 0.694845438 0.7170903683
0.31188995 -0.24462505 1.2336003 0.8336260915 -0.06020585075 0.5490381122
0.29250285 -0.31429392 1.2426667 0.7852317095 -0.1728881299 0.59457618
0.0098265568 0.14114508 1.0190001 0.2864669263 0.5561303496 0.7801639438
-0.15550867 -0.026689913 1.2029231 0.07419439405 0.6558506489 0.7512357235
0.36847878 -0.37445414 1.136 0.8800722957 0.04068890214 0.4730932117
0.27292603 -0.28481302 1.2751052 0.7396067977 -0.1853625625 0.6470104456
0.41317168 -0.25483391 1.0516249 0.7996447086 -0.09817989171 0.592392683
0.36168665 -0.3353475 1.1556665 0.8961883783 -0.01627111435 0.4433752298
0.15374914 -0.27398196 1.3715003 0.4668920934 -0.4780748188 0.7439463735
-0.066223398 -0.071742013 1.2590001 -0.1689004749 0.6997113228 0.6941733956
0.35777247 -0.40619543 1.1561112 0.822119236 -0.07593233883 0.5642288923
0.084059477 0.12578648 1.0273333 -0.2096757144 0.756731391 0.6191879511
0.10674819 0.048884686 1.138 -0.06737570465 0.8438857794 0.5322755575
-0.10251627 0.072864398 1.1167144 0.4200786352 0.5007189512 0.756845057
0.30746749 -0.43558097 1.1964287 0.7057814598 -0.2132724822 0.6755644679
0.18415272 -0.28433278 1.3452108 0.5449188352 -0.3685828745 0.7531335354
-0.11386786 -0.15658934 1.3430002 -0.1969707757 0.2824188769 0.9388514757
0.23492341 -0.25494048 1.3146316 0.6144614816 -0.2649126053 0.7431409359
0.28194082 0.072951376 1.1245 -0.9398013353 0.2203744203 -0.2611676455
0.17814042 -0.49520797 1.2780001 0.7039586306 -0.1542604715 0.6932863593
-0.17339425 0.0026474358 1.1827779 0.2713547051 0.5667543411 0.7779178023
0.35247406 -0.1849132 1.1638235 0.9120754004 0.1021135449 0.3971036673
0.36251202 -0.025357584 1.1570001 0.675103724 -0.2010050714 0.7098112106
0.15717933 -0.33547223 1.3380002 0.5972952843 -0.2493458092 0.7622761726
0.10477623 -0.073004618 1.2872308 -0.07623591274 0.7143739462 0.6955989599
0.30603504 0.040954884 1.1738001 -0.4558588862 0.3857885301 0.8020971417
0.19656445 -0.43532982 1.278 0.5236321092 -0.2903115749 0.8009548187
0.19823012 -0.21603522 1.3540001 0.602252543 -0.1527931541 0.7835471034
0.27506205 0.10981565 1.1930001 -0.7459186316 0.5464251041 -0.3808214366
0.035111982 0.063152812 1.1125627 -0.003396841697 0.816990912 0.5766405463
-0.14432125 -0.15355781 1.317 -0.2199947089 0.3948384225 0.8920229673
0.098032378 -0.36324859 1.3920001 0.6557813883 -0.03710604087 0.7540383935
0.33188555 0.28784767 1.3700002 -0.3153983355 0.771995306 -0.5518578887
0.27847493 -0.39658296 1.2360001 0.6428434253 -0.2153196484 0.735112071
-0.18558593 -0.10910204 1.2830001 0.009476697072 0.6130555868 0.7899829745
-0.01059627 -0.1377515 1.3430001 -0.2657435536 0.6997489333 0.6631227136
-0.21494487 -0.085638173 1.2642667 0.2401344776 0.5581789017 0.7942113876
0.15402682 -0.049864799 1.2640001 -0.01140021905 0.7162136436 0.6977880001
0.23430407 0.029414797 1.1570001 0.02175564319 0.809330225 0.586950779
0.21706308 -0.49553305 1.2434002 0.5289483666 -0.2880810499 0.7982624173
0.22654426 -0.18791261 1.3355001 0.6676718593 -0.05403512716 0.7424920797
0.25263572 -0.35449439 1.2739999 0.6083477139 -0.1953100711 0.7692639232
0.31340086 0.20523325 1.278 -0.6352372169 0.6507316232 -0.4159591794
-0.086158797 -0.19984055 1.365 -0.5254948139 0.221310541 0.8215088844
0.37239799 -0.31490675 1.1321427 0.8808939457 -0.01891363785 0.4729356468
0.25450999 0.051063024 1.1332 -0.1264178604 0.6111690402 0.7813391685
0.33488435 -0.29415444 1.1940911 0.7681744099 -0.1140291169 0.6300043464
0.13431847 -0.46422741 1.344 0.7970238924 -0.05918892846 0.6010404229
0.32820371 -0.22429013 1.2060002 0.8093723059 -0.03650508821 0.5861602426
0.33456141 0.32832217 1.424 -0.2808406651 0.7752881646 -0.5657355785
0.35851985 -0.085646823 1.1359999 0.843772471 -0.02609663084 0.5360662341
-0.034702852 -0.21420033 1.3650001 -0.4871577919 0.007364515215 0.8732829094
-0.045370657 -0.15431491 1.3478 -0.06392227113 0.707880199 0.7034341097
-0.14465 -0.078899994 1.25 -0.1605354249 0.6896716952 0.7061029077
-0.10692528 -0.048602398 1.2320001 -0.1028712392 0.7105381489 0.6960985065
0.31293121 -0.29469565 1.2235 0.773685813 -0.1493427902 0.6157166362
-0.014158793 0.031611223 1.1421429 -0.1892641485 0.7187448144 0.669017911
0.28850663 0.16335368 1.245 0.3502142131 0.3272304237 -0.8776504397
0.32597971 0.25030586 1.3280001 -0.7198701501 0.5788719058 -0.3830069005
0.073966995 0.29094377 1.125 0.6651916504 -0.3005707264 0.6835036874
0.14461531 0.027488008 1.1675714 0.04360316694 0.7905643582 0.6108247042
0.42152441 -0.31525606 1.041 0.7573496699 0.0627695471 0.6499857306
0.12562683 -0.30364129 1.3760002 0.4663335085 -0.2011740208 0.8614302278
-0.14588153 -0.12338839 1.296 -0.1721777767 0.7331466079 0.6579140425
0.27438903 -0.46518096 1.2234703 0.557426095 -0.3024861515 0.7731612325
-0.0061015999 -0.17938703 1.3920001 -0.2103340924 0.6917388439 0.6908378601
0.31189954 -0.13485172 1.234182 0.9102573991 0.0308375787 0.4128928781
-0.012422367 0.081223167 1.09 -0.03606330603 0.7410320044 0.6705005765
0.13561743 -0.095674612 1.3120002 -0.01942443475 0.7242654562 0.6892476082
0.12430745 0.11367052 1.0426364 0.3362833261 0.5851353407 0.7379228473
0.048166696 0.32486898 1.169 0.6936390996 -0.2562547326 0.6732000709
0.1542569 0.070845813 1.1027143 0.03196984902 0.8403081894 0.5411654115
0.21519214 -0.041538704 1.2432222 0.06097772717 0.7337405682 0.6766878963
0.084854595 0.063731641 1.1141876 -0.02534555271 0.8376827836 0.5455687046
0.2816914 0.0092865303 1.177 -0.1419667006 0.754674077 0.6405563951
0.055333383 -0.1230365 1.3347858 -0.1082746908 0.7023431063 0.7035558224
0.11570159 0.0093812095 1.189 -0.09024443477 0.7684809566 0.633476913
0.38265121 -0.25581262 1.1028 0.9143955112 0.08506973088 0.3957827389
0.20348379 -0.25417671 1.3448001 0.5676301122 -0.3689373434 0.7359899879
0.27070415 -0.22426537 1.2920001 0.76003474 -0.1842693388 0.6232110262
0.18500559 0.038948551 1.149 0.06227744371 0.803388238 0.5921898484
0.085307561 -0.11685967 1.3330001 -0.01694901101 0.7481517196 0.6633111835
0.34876081 -0.25486365 1.177 0.8729444146 -0.05688280612 0.4844918549
0.075174168 -0.02362792 1.2250001 -0.06747825444 0.7562221885 0.6508261561
-0.11538018 0.014720747 1.1619091 0.09727206081 0.6850582361 0.7219649553
0.3252635 -0.46854678 1.193 0.4973252714 0.08912768215 0.8629738092
0.074895382 -0.046795215 1.2537144 -0.03448263928 0.7871958613 0.6157382727
0.43501213 -0.25485927 1.0266799 0.7116161585 -0.1103093401 0.69385463
0.16499569 -0.09051846 1.307 0.07194169611 0.7195706964 0.69068259
0.41189712 -0.22389261 1.0606 0.7203822732 -0.1319357157 0.6809128523
-0.085337803 -0.14729884 1.3335001 -0.1069044843 0.7232913971 0.6822176576
0.072564334 0.32403207 1.1443334 0.7506418824 -0.2654494941 0.6050399542
0.035156962 0.035149947 1.1458001 -0.07579701394 0.7598339915 0.6456834674
-0.094889969 -0.0020632348 1.1765001 0.05360903591 0.7406428456 0.6697568297
0.29335773 0.1328541 1.1858001 -0.7100807428 0.5660503507 -0.4187747538
0.044462781 0.090989232 1.0700001 0.00757510541 0.8371580839 0.5469085574
0.092774518 0.24330285 1.0960001 0.4851406217 -0.3888344467 0.783228159
0.25517488 -0.018226776 1.223 0.1007288098 0.7528395057 0.6504508853
0.089467339 -0.32845545 1.3980001 0.6685125232 -0.1474236399 0.7289425731
-0.17525746 -0.046432916 1.2229998 0.1682328433 0.6116461754 0.7730373144
-0.26411405 0.20560989 1.5430001 -0.8546608686 0.1795521826 -0.4871507287
0.20510358 0.026014686 1.1660911 -0.0127958376 0.8060495853 0.5917096734
0.055144381 0.37478596 1.1868668 0.5093385577 -0.4365898669 0.7415952682
0.025142422 -0.0019348033 1.1878573 -0.1121856049 0.7782121301 0.6178998947
0.35207325 0.0025752082 1.1760001 0.5806148052 0.02514350414 0.8137900233
-0.03393276 0.043506961 1.1242858 -0.07232842594 0.7283068299 0.6814233661
-0.0042407871 -0.067629404 1.273 -0.1204066575 0.7410532236 0.6605621576
-0.045002081 -0.045897726 1.2343531 -0.09464974701 0.7840139866 0.6134846807
0.39302874 -0.34493393 1.0929501 0.8904050589 0.08531992882 0.4471010566
0.24125516 -0.32393885 1.2920001 0.4808929861 -0.196463123 0.8544847369
0.18420653 0.054077122 1.1245002 0.03783103079 0.8358854651 0.54759866
-0.032948639 -0.20135279 1.3920001 -0.5682775378 -0.007097947877 0.8228062987
0.035715751 -0.053575031 1.2574 -0.02298745327 0.7811797261 0.6238828301
-0.044800736 -0.10700813 1.302 -0.1778004616 0.677189827 0.7140035033
0.1958562 -0.30544987 1.3265884 0.491068393 -0.3725104034 0.7874565721
0.095641702 0.081297688 1.0910001 -0.0904019922 0.8475718498 0.5229239464
0.13581908 -0.33497167 1.3569411 0.5536272526 -0.2498574853 0.7943979502
0.37851468 -0.21519659 1.1053998 0.8926148415 0.02502839267 0.4501247406
0.12472995 0.15446445 1.0335188 0.6497812867 0.02434064634 0.7597314119
0.30127791 -0.37525716 1.223 0.6860987544 -0.0884667933 0.7221094966
-0.0046529081 0.10236267 1.0615002 0.05792775005 0.7389910817 0.671220243
0.2368792 -0.0025367225 1.2052002 0.01541941054 0.7705326676 0.6372139454
0.071948037 -0.19227491 1.4150001 -0.1560429186 0.8435481787 0.513884306
0.36344418 -0.20551339 1.1461766 0.9349402785 0.05236543342 0.3509195149
0.38689923 -0.39310914 1.1060998 0.837918818 0.06340911984 0.5420990586
-0.0043278639 -0.11751031 1.3247274 -0.2143421918 0.7139536738 0.6665790081
0.33193231 -0.16860053 1.202 0.8696524501 0.05660023913 0.4904090762
-0.12523709 -0.095048197 1.2754999 -0.1724198908 0.7359851599 0.6546733975
0.29373896 -0.20470084 1.2652726 0.7957878113 -0.04014708847 0.6042433381
0.25509831 0.017352808 1.175154 0.02670573816 0.7886105776 0.614312768
0.36085442 -0.43363178 1.153 0.731369257 0.1565088928 0.6637800336
0.12432203 -0.058701426 1.273 -0.004441505764 0.7695305347 0.6385945678
0.033475321 0.4161185 1.223 0.6032552719 -0.3145510554 0.7328988314
0.39082676 -0.16531304 1.09 0.7997663021 -0.08878859878 0.5937090516
-0.07482481 -0.022436751 1.2042501 -0.08173692971 0.7833544016 0.6161776781
0.085149929 -0.087432772 1.302 -0.01965426654 0.7104965448 0.7034261227
0.06808912 -0.34442744 2.2710001 -0.05341525003 0.8010191321 0.5962508917
0.21581176 -0.41507775 1.2749048 0.5980910063 -0.2897873819 0.7472017407
0.35400629 -0.12555072 1.1466844 0.9273566008 0.04567780718 0.3713801801
-0.063259393 0.10433079 1.077 0.3527941704 0.5503913164 0.7567071319
0.25265765 -0.23195432 1.312 0.5979460478 -0.1953041703 0.7773781419
0.27153111 -0.17412996 1.302 0.7893152237 -0.04177710041 0.6125652194
0.28960595 -0.42746267 1.2190001 0.6518222094 -0.1550137848 0.7423601151
0.21379887 0.064278416 1.1147221 -0.1028667688 0.7552762032 0.6472837925
0.29742274 -0.34690356 1.2270001 0.7438699007 -0.1452576965 0.6523478627
0.19618647 -0.35840631 1.3061668 0.5003920794 -0.3540641963 0.7900925875
0.15192212 -0.13623436 1.3560002 0.0924115032 0.7244301438 0.6831259727
0.33234811 -0.11485561 1.1946666 0.8906289339 0.05159665644 0.4517940879
0.075042665 0.090989232 1.0700001 -0.05413878709 0.8053600788 0.5903084874
-0.044639863 -0.079235762 1.273 -0.1410422027 0.7154708505 0.6842576861
0.082494624 -0.20895846 1.4330001 0.4406396449 0.5259128213 0.7274973989
0.17089477 0.08591947 1.077 0.2762421668 0.9144467115 0.295765996
0.32212591 0.0010458634 1.1930001 0.2829635739 0.2081776112 0.9362658262
0.13223255 -0.39479843 1.3540001 0.7576404214 -0.05565990135 0.6502945423
-0.025143968 -0.01519307 1.1950001 -0.1591932476 0.7865679264 0.5966308713
0.33450505 -0.38492435 1.1849998 0.6614992023 -0.1850915998 0.7267461419
-0.014046204 -0.037202228 1.2325716 -0.1461887211 0.7768765688 0.6124473214
0.39082676 -0.28189215 1.09 0.9125542641 0.04905258492 0.4060031474
-0.17326353 -0.15616898 1.322 0.04892473668 0.5557365417 0.8299176097
-0.085982002 -0.061727557 1.245 -0.1281086951 0.719296217 0.6827892661
0.014475519 -0.17008735 1.376 -0.09997420013 0.6922101378 0.7147378922
0.25823706 -0.41453272 1.245 0.6106657386 -0.1569648534 0.7761761546
0.083067238 0.10876759 1.0470001 -0.1485581547 0.7884437442 0.5968977809
0.065256149 -0.155734 1.37 -0.04169780016 0.7083634138 0.7046151757
0.29105961 -0.15447269 1.2749999 0.8235517144 -0.06794316322 0.5631574988
0.17487833 -0.018238699 1.2238001 0.0492048189 0.7683136463 0.638179481
0.044580691 -0.19812664 1.4125 -0.2799104452 0.7912649512 0.5436449647
0.063707806 -0.22044265 1.4535 0.4929815829 0.3277778924 0.8059347272
0.2760559 0.098257385 1.1436667 -0.3095508814 0.7706481218 -0.5570275784
0.085341878 0.012276215 1.1810001 -0.09162212163 0.767195344 0.6348359585
0.26593807 -0.37526309 1.2573186 0.6645241976 -0.2121138871 0.716530025
-0.17729706 -0.089756638 1.2640001 0.0462998189 0.6971570849 0.7154217958
0.1998011 0.068476431 1.0700001 0.3187197745 0.8723717332 0.3706551194
0.10554453 -0.14814527 1.365 -0.03192136064 0.6794217229 0.733053267
0.13389154 0.060054295 1.123 0.03501813114 0.8567133546 0.5146026611
0.045165867 -0.080922179 1.2880001 -0.08734047413 0.7667523623 0.6359736323
0.36813161 -0.282334 1.138 0.911025703 0.08664751053 0.4031430781
0.22903769 -0.37628764 1.278 0.5129619837 -0.2014010102 0.8344504833
-0.13195498 0.029211409 1.149 0.224615559 0.6392994523 0.7354210615
0.41486531 -0.2845861 1.0432287 0.7985176444 -0.03999156132 0.6006415486
0.014244081 -0.14718884 1.3540001 -0.07548444718 0.730039537 0.6792233586
0.16725157 -0.43571383 1.3045 0.6779904962 -0.2151174098 0.7028893232
0.28522781 -0.26496434 1.2650908 0.7887300253 -0.1767909527 0.5887698531
0.3232528 -0.1450994 1.2120557 0.8791741133 -0.03506020457 0.4752090275
0.20882463 -0.00104937 1.197 -0.01764703728 0.7847896218 0.6195110083
0.25020504 0.067980245 1.077 -0.3280411065 0.5653529167 0.7568124533
0.1075407 -0.2904835 1.4100001 0.6372098327 -0.5855866671 0.5010507703
0.087699607 0.19676545 1.0724287 0.5560631752 -0.3540206254 0.7519728541
0.29215068 -0.45285621 1.2105714 0.6910613775 -0.2359135896 0.6832122207
0.17442985 -0.31491223 1.3353913 0.5997797251 -0.3527222872 0.7182278633
0.3673946 -0.057593491 1.1326667 0.8251783848 -0.367764771 0.4287536442
0.30646375 0.018548891 1.1850001 -0.2957801819 0.3110632598 0.9031908512
0.24489157 -0.049864799 1.2640001 0.01218538359 0.711794734 0.7022818327
0.12277629 -0.35444775 1.365 0.6142351627 -0.08221448213 0.7848286033
0.12489431 -0.035439868 1.2426474 -0.07560321689 0.7644021511 0.6402916908
-0.071019642 0.031008577 1.141 0.06156798825 0.6884976029 0.7226205468
0.076374322 0.03475545 1.1547778 -0.0884597227 0.7807762623 0.6185169816
-0.12748137 -0.17172146 1.3280001 -0.4272204041 0.06255997717 0.9019805789
0.051805738 0.41127414 1.2060001 0.6041548252 -0.3170891106 0.7310618758
0.33870411 -0.083010688 1.169 0.8982670307 0.01841872744 0.4390638769
0.28273234 -0.34125856 1.2516667 0.7008706331 -0.1864237785 0.6884958744
-0.12580429 -0.064341038 1.243909 -0.1477407664 0.7162310481 0.6820452213
-0.12521034 -0.035859179 1.2134998 -0.08291513473 0.739990592 0.6674870849
0.035288934 0.12187567 1.032154 0.07166901231 0.7303904891 0.6792593598
0.16741389 -0.35531789 1.3280001 0.596388042 -0.30289042 0.7433563471
-0.054383554 0.0059655327 1.1658422 -0.04866831005 0.7944844961 0.6053311229
0.095339566 -0.033356372 1.2345456 -0.1209020168 0.7588780522 0.6399115324
0.34710813 -0.043470308 1.1730002 0.6761347055 -0.1395942718 0.7234330177
0.015121623 0.070782058 1.101 -0.06159210205 0.8354281187 0.5461375713
0.12487441 0.09817332 1.065353 0.02381071635 0.8363879919 0.5476204753
0.12444533 0.03799079 1.1556665 0.009185126983 0.7999920249 0.5999403596
0.24830487 -0.44640306 1.245 0.5732784867 -0.2884133458 0.7669221163
-0.045143228 0.083083197 1.0820589 0.2155468911 0.6325900555 0.7438879609
0.1990381 -0.49925086 1.2590001 0.6086645722 -0.2453177422 0.7545506358
0.0054996223 -0.053901553 1.2546667 -0.1015914977 0.7944899201 0.5987193584
-0.14552571 0.0048758304 1.1743915 0.1874678433 0.5999460816 0.7777663469
-0.098530322 -0.17477402 1.3380001 -0.3659377694 0.04846166074 0.9293766618
0.38741428 -0.36438677 1.1061873 0.859159112 0.04781351238 0.5094698071
0.28586188 -0.29506755 1.2577393 0.7282596231 -0.1804525852 0.661116302
-0.084146149 -0.087717339 1.273 -0.113910459 0.717276752 0.6874143481
0.36636725 -0.15437962 1.1247145 0.877335608 -0.01780671254 0.4795468152
-0.20674723 -0.068306945 1.25 0.2604933679 0.6309947968 0.7307453752
-0.057912603 0.070460327 1.1010001 0.1784885079 0.664064467 0.7260580063
0.17326352 -0.10720319 1.322 0.04728025571 0.7078962326 0.7047322392
0.086101383 -0.0063315053 1.2032501 -0.09230538458 0.7602550387 0.6430334449
0.32057685 -0.19513372 1.223 0.8302170634 0.02940362692 0.5566642284
0.34828532 -0.20505495 1.1754 0.9037572742 0.04316634685 0.4258632064
0.4016276 -0.31469148 1.0709001 0.891769588 0.07972571999 0.4454108775
0.21964094 -0.45694146 1.2590001 0.5233236551 -0.2808744609 0.8045134544
0.13645667 -0.43478453 1.3379998 0.7241252661 -0.007425253745 0.6896284819
0.37580639 -0.094931871 1.1163666 0.7568103671 -0.06894533336 0.6499881148
0.3462531 -0.16530626 1.1751819 0.891130209 0.0733486414 0.4477800131
-0.0055828518 -0.0023673985 1.1871819 -0.1659024656 0.7772621512 0.6069101691
0.16223067 -0.25424209 1.381 0.5609973073 -0.4020304084 0.7236391306
0.012360999 -0.20642869 1.4100001 0.004582977388 0.634323895 0.7730538249
0.21227957 -0.08016941 1.2880001 0.1065368056 0.7616986632 0.639112711
0.058055498 0.27538466 1.132 0.6407961249 -0.3343508244 0.6910787821
0.16619799 0.0084546693 1.189 0.03811354563 0.7923941016 0.6088176966
0.31753531 -0.39597559 1.1962 0.7496489286 -0.1054579094 0.6533797979
0.34692439 -0.13511547 1.1665001 0.9031011462 0.06809306145 0.4239948392
0.19470882 0.013159239 1.1828462 0.04931874201 0.7987392545 0.5996525884
0.12153405 -0.10867949 1.3330001 -0.05951381102 0.7326206565 0.6780303121
0.23118752 -0.28754666 1.312 0.5919413567 -0.2536737621 0.7650196552
0.30888036 -0.1549859 1.245 0.9113296866 -0.01730459929 0.4113134742
0.12523647 -0.081704207 1.2970001 -0.01512905117 0.7259489298 0.6875821948
0.12471859 -0.0080205435 1.2121818 -0.02392099984 0.7698953152 0.6377217174
0.090040676 -0.061138734 1.268 -0.07563410699 0.7801066637 0.6210579872
-0.01764537 -0.11205957 1.307 -0.2011767179 0.7064364552 0.6785833836
-0.16446012 -0.063603915 1.2334547 0.03120925277 0.6960047483 0.7173585892
0.0045165867 -0.082427695 1.2880001 -0.08592994511 0.6980257034 0.7108981013
0.19137807 -0.39226803 1.302 0.5257399678 -0.2376556844 0.8167724609
0.14316185 -0.47305149 1.325 0.7944769859 -0.1135357991 0.5965868831
0.035258658 0.079093739 1.087 -0.02016470209 0.842256546 0.5386995673
0.044600539 -0.17406741 1.3857144 -0.1307118088 0.663425684 0.7367365956
-0.24634348 0.15535371 1.5072858 -0.9561143517 -0.2574104965 0.1399472058
-0.23498622 -0.085779309 1.2748749 0.2842550874 0.5207853317 0.8049731255
0.40433285 -0.17516376 1.0710368 0.6939367652 -0.121350944 0.7097364068
-0.055989485 -0.13368554 1.3260001 -0.1453742832 0.7509758472 0.644128561
-0.096083798 -0.12325571 1.307 -0.07807415724 0.7447890043 0.6627169251
0.36380872 -0.23517123 1.1464002 0.9318333268 0.0106300693 0.3627308309
0.35173073 -0.34401038 1.1740001 0.8148257136 -0.0720237717 0.5752144456
-0.095026277 0.031008577 1.141 0.1244970039 0.6851865649 0.7176488638
0.40232161 -0.20483871 1.071 0.7352464795 -0.03853838146 0.6767033339
0.3714875 -0.25855529 1.13 0.9016080499 0.09212797135 0.4226291478
0.31538117 -0.26537332 1.2255454 0.8238675594 -0.08246665448 0.5607508421
0.34234592 -0.23601647 1.193 0.8324158788 0.01890781708 0.5538287759
0.035057589 -0.11529094 1.3251767 -0.1203055605 0.7031412721 0.7007987499
0.39670035 -0.26535952 1.0738399 0.8460433483 -0.01420229767 0.5329248905
0.35883281 -0.36085442 1.153 0.8731170893 -0.0113178743 0.4873791635
-0.27422133 0.20566601 1.5640001 -0.8546608686 0.1795521826 -0.4871507287
0.043587867 0.050522301 1.13 -0.03533800319 0.7913347483 0.6103610396
0.24569063 -0.27365538 1.302 0.48741135 -0.2676759064 0.8311316371
0.40460372 -0.35492194 1.0742757 0.8434745073 0.141869992 0.5180962086
0.25880778 -0.30810449 1.2780001 0.6662811637 -0.2392063439 0.7062929869
0.053635344 -0.061972447 1.268 -0.04786716774 0.7473054528 0.6627543569
-0.14552666 -0.18510991 1.3280001 -0.09896403551 0.3834985197 0.9182238579
0.30291152 -0.2248984 1.2534444 0.8440172672 -0.08841492236 0.5289779305
-0.064206518 -0.055348564 1.244 -0.1350670904 0.7533465028 0.6436038613
0.064426556 0.12862486 1.0171249 0.0265695788 0.74623698 0.6651499271
0.17442863 -0.077020422 1.2919999 0.06463078409 0.743945241 0.6651077867
0.32729599 -0.3453975 1.1944286 0.6987416744 -0.0444659926 0.7139907479
0.1276935 0.079093739 1.087 0.03116106242 0.837729454 0.5451956391
-0.12487135 -0.11939254 1.302 -0.1443444043 0.7123411894 0.6868294477
-0.25320393 0.11215775 1.4841999 0.2346242964 -0.3685117066 0.899527967
0.34499604 -0.42555285 1.1662861 0.6975429654 -0.0317270644 0.7158401608
-0.035180688 0.11480514 1.0524373 0.1884005219 0.5987435579 0.7784672976
-0.20123474 -0.12194901 1.2920001 -0.03116767481 0.60634166 0.794593215
-0.0052393107 0.064490281 1.1067998 -0.1356741041 0.7787092328 0.612539351
-0.045423172 -0.063047789 1.2561252 -0.1106408909 0.7361132503 0.6677543521
0.36852756 -0.21335906 1.125 0.9275017381 0.06050652638 0.3688895702
