# .PCD v0.7 - Point Cloud Data file format
VERSION 0.7
FIELDS x y z normal_x normal_y normal_z
SIZE 4 4 4 4 4 4
TYPE F F F F F F
COUNT 1 1 1 1 1 1
WIDTH 512
HEIGHT 1
VIEWPOINT 0 0 0 1 0 0 0
POINTS 512
DATA ascii
-0.2054556 0.1084349 2.1700001 -0.7835193872 -0.6201102138 -0.03950582072
0.40643054 -0.48399365 3.5390003 -0.296938628 0.8130586743 0.5007625222
-0.40712926 -0.46417922 2.9580002 -0.3440624774 0.7883371115 0.5100447536
0.24635649 -0.49430239 1.813 -0.669385016 -0.1608754098 0.7252880931
0.49651241 0.027330961 2.598 -0.8242567778 0.5199658275 0.2241345942
-0.065101266 0.021699252 1.456 -0.07874406129 -0.1152230278 0.9902136326
0.28268293 0.34313083 2.0280001 0.3842405081 -0.8080733418 0.446516186
0.46352172 -0.26293337 3.0920002 -0.2829936445 0.8426223397 0.4581508636
-0.38626757 -0.21340504 2.5410001 -0.2641717792 0.8313310742 0.4889804423
-0.20259678 -0.40375671 1.6390001 0.2559528053 -0.03240242973 0.9661460519
0.0246168 -0.3665168 3.1200001 -0.3009429276 0.7189204693 0.6265674233
0.29445919 -0.065767527 1.705 -0.4373879135 0.7299290895 0.5252574086
-0.41712064 0.18698511 1.8230001 -0.8818549514 0.4674067497 -0.06215120479
0.0080784829 -0.20519347 1.8430001 -0.2190526277 0.8395072818 0.4972358346
-0.21563305 0.36407506 1.605 -0.8993698955 -0.1164210588 -0.4214023054
0.33552924 0.14591153 2.3010001 -0.04875496775 -0.6765495539 0.7347813249
-0.20513999 -0.4950712 3.1200001 -0.3360250294 0.6706157327 0.6613332629
0.17357999 -0.47155899 3.3000002 -0.296938628 0.8130586743 0.5007625222
-0.13372205 -0.15808316 1.6343335 -0.2581578195 0.8559095263 0.4480774105
-0.19754982 0.24651515 1.9260001 -0.2943666875 0.8903666735 0.3472685516
0.015196842 -0.49485344 1.7220001 -0.4873916507 -0.4487386942 0.7490547299
0.16502899 0.060871348 1.5430001 -0.3027815223 -0.2309851944 0.9246454239
0.49470299 -0.37319699 3.3000002 -0.296938628 0.8130586743 0.5007625222
0.20755084 -0.29057115 1.8940001 -0.6534078717 -0.7051455379 0.2753687203
-0.0072517865 0.066584587 2.256 0.3829647601 -0.2680637538 0.884013474
0.074352726 -0.097679079 1.6630001 -0.2180197835 0.8695045114 0.4432034492
-0.22560667 -0.34489295 2.9580002 -0.3202990592 0.801271975 0.5053431988
-0.27202001 -0.010226317 2.3330002 -0.8558267355 -0.3382297456 -0.3913581967
-0.18304273 0.1542495 1.5640001 0.703641355 -0.003753099125 0.710545361
-0.056359146 -0.32557473 1.7220001 -0.3898397982 -0.2912782133 0.8736028671
0.17457414 -0.15570126 1.794 -0.06319870055 0.8647899628 0.4981407523
0.095455848 -0.35522097 1.7850001 -0.3419164717 -0.4583753049 0.8203567266
0.33530134 -0.34103298 3.2690001 -0.296938628 0.8130586743 0.5007625222
-0.19407822 -0.23874702 1.7570001 -0.4995034039 -0.2279860973 0.8357743025
-0.3509928 0.040722921 2.2120001 -0.968983531 0.2103975862 -0.1296292394
-0.076524235 -0.33512336 3.0100002 -0.335766077 0.692466259 0.6385543346
-0.028664369 -0.080533229 1.557 -0.3369335532 0.8334239721 0.4380413592
-0.096184708 -0.49643794 1.6376002 -0.4666627049 -0.08530052751 0.880312264
0.28070077 0.032442804 1.6090001 -0.6629633307 0.1608595252 0.7311660647
-0.15169607 -0.073880792 1.4959999 -0.244597435 0.5444619656 0.8023298979
-0.031702019 -0.1585101 1.7220001 -0.2948670089 0.8582739234 0.4200229943
0.055748109 0.0043623615 1.5057693 -0.3528751731 0.6301195621 0.6916851997
0.18545426 -0.046150189 1.6348002 -0.1652144343 0.7848728895 0.5972259045
0.13469282 -0.47529534 1.7659999 -0.1691858023 -0.1127156243 0.9791176319
-0.16219123 0.04423397 1.529 -0.3887983859 -0.4937333465 0.7778580785
0.20656259 -0.38475785 1.8230001 -0.4544047117 -0.3501602411 0.8190873861
-0.095731996 -0.45404321 3.1200001 -0.3353826106 0.6815015674 0.6504414678
0.38168839 -0.28696281 3.1780002 -0.296938628 0.8130586743 0.5007625222
-0.20902246 0.25629583 1.5860001 -0.2329641581 -0.3121271431 0.9210343957
0.065024123 -0.15327114 1.766 -0.1622261703 0.8553931117 0.491920054
-0.15494965 -0.31579816 1.6833334 -0.2109239101 -0.6006258726 0.7712066174
-0.25242564 0.0096345665 2.1980002 -0.8664044738 -0.3205298483 -0.3828888535
0.015727401 -0.2941024 1.794 -0.4346226454 -0.4819017053 0.7608376145
0.49313027 -0.30367908 3.1780002 -0.2829936445 0.8426223397 0.4581508636
0.09593714 -0.037540618 1.5860001 -0.1690012664 0.7745922804 0.6094631553
0.011433925 -0.39561382 1.7390001 -0.5720159411 -0.2707809806 0.7742580175
-0.086429693 -0.40578008 1.6710001 -0.5464807749 -0.2402582318 0.8022685051
0.19432387 -0.10301868 1.7130001 -0.2310112119 0.8236274123 0.5179495811
0.13658905 -0.27478504 1.8329999 -0.4200475812 -0.608471334 0.6732923985
-0.091718622 0.040980659 2.2260001 -0.1720290631 -0.8522232771 0.4940865636
0.10178889 -0.1890365 1.8430001 -0.1490165889 0.8892837763 0.4323984683
-0.038795128 -0.12213282 1.6390001 -0.3140908182 0.8637300134 0.3941033185
-0.11408414 -0.194741 1.7220001 -0.4046274424 0.811696291 0.4212194085
-0.18337148 -0.49813515 1.6470001 0.3127956092 0.08364634961 0.9461300969
0.37319699 -0.413699 3.3000002 -0.296938628 0.8130586743 0.5007625222
-0.11517296 -0.11380186 1.5640001 -0.1264594793 0.8461965919 0.5176478624
0.18946257 -0.22701371 1.9470001 -0.8199043274 -0.340749532 0.4600507021
-0.19426093 -0.18420941 1.6864001 0.2211957127 0.8695046306 0.4416267574
-0.065267831 -0.050908908 1.4890001 -0.2394512147 0.7193831801 0.6520360112
-0.095987983 -0.27248204 1.766 0.02825222351 -0.8350328207 0.549474299
0.21416551 0.0055221971 1.5760835 -0.3412032127 0.5884691477 0.732996881
0.24288577 -0.12299984 1.7760001 -0.2134902477 0.8886652589 0.4058274925
0.11624074 -0.11724716 1.7220001 -0.1752956659 0.8592208028 0.4806360602
0.26398975 -0.0335702 1.6390001 -0.3108864725 0.6712287664 0.6729053259
0.023979465 -0.082013786 1.6090001 -0.3252293468 0.7657837868 0.5547982454
0.06777335 -0.44514766 1.7570001 -0.5148316622 -0.06712494045 0.8546593785
-0.045176707 -0.46453068 1.682182 -0.4724057913 -0.308714956 0.8255469799
0.15517701 -0.40532857 1.7760001 -0.1010873169 -0.2405047417 0.965369761
-0.032861851 -0.19247656 1.7850001 -0.4209501743 0.8108263016 0.4066468477
-0.0013053566 0.043076769 1.4890001 -0.2996464968 -0.4457756877 0.8435022235
0.19124687 -0.31696907 1.8230001 -0.6297858357 -0.513474822 0.582849443
0.0353918 -0.043558605 1.5526251 -0.3556676805 0.7790071964 0.5163799524
0.028399616 -0.12705092 1.705 -0.2002865821 0.8977050185 0.3924423754
0.098347977 0.057148147 1.516 -0.3098982871 -0.3702542484 0.8757138848
0.24335127 -0.34395823 1.8630002 -0.5706196427 -0.3570323288 0.739541173
-0.14450271 -0.44495392 1.6320001 -0.1931999177 -0.0752883628 0.9782665372
0.068721026 -0.26529509 1.8230001 -0.1732602417 -0.01071314141 0.9848178029
0.14510025 -0.0040936829 1.5556 -0.2174582779 0.7942932844 0.5672830939
0.19816524 -0.45294911 1.794 -0.6186895967 -0.4039620161 0.6738233566
-0.14508832 -0.37577879 1.6550001 -0.1616547406 -0.2065899521 0.9649810195
0.14429364 -0.087162144 1.6710001 -0.08992285281 0.8696491122 0.485411495
-0.004833648 -0.025937935 1.5043335 -0.4487244189 0.6756515503 0.5849285722
-0.21139501 -0.34406361 1.6630001 -0.3428044021 -0.4169917107 0.8417856097
0.22979099 -0.14944449 1.8330001 -0.4272089601 0.8343749046 0.3482972682
-0.084671803 -0.15615942 1.6710001 -0.3742554784 0.8097311854 0.4519604146
-0.19580789 -0.27566847 1.705 -0.6380992532 -0.3784279227 0.6705383062
-0.13452844 -0.015827339 1.5045002 0.0480941236 -0.3252821863 0.944393158
0.30058271 0.3133347 2.0780001 0.4611659944 -0.5372496247 0.7061789632
-0.035608448 -0.27712661 1.7660002 -0.3331480324 -0.7169033289 0.6124230623
-0.0046445802 -0.34369895 1.7659999 -0.547145009 -0.4656829238 0.6955370307
0.16770107 -0.24574019 1.8940001 -0.4714884162 -0.4263805151 0.7719445229
-0.16383147 0.10368512 1.5359999 0.4189216793 -0.09293740243 0.9032537341
-0.040546712 -0.3859446 1.7130001 -0.4030335844 -0.4519387484 0.7958111167
0.24829654 -0.4238438 1.8040001 -0.2556017339 -0.1379683465 0.9568868876
-0.16545682 -0.13394123 1.5860001 -0.06607506424 0.8353447914 0.545740962
0.25210655 -0.10265416 1.7220001 0.01639118232 0.8307301998 0.5564339161
-0.10485809 -0.34558609 1.6846666 -0.3766753376 -0.5332544446 0.7574664354
0.22599567 -0.0661873 1.6710002 -0.1471539736 0.7850953341 0.6016402245
0.16480106 -0.18418942 1.8430001 -0.1082714498 0.8701086044 0.4808204472
0.11481002 -0.15884674 1.794 -0.0231103003 0.8774142861 0.4791764617
-0.17657995 0.20994939 1.5860001 -0.7596752048 -0.2194636166 0.6121513844
0.15498766 -0.35583901 1.8040003 -0.2441704273 -0.3256438375 0.9134204388
0.080799736 -0.49699461 1.7390001 -0.3247767091 -0.3369513452 0.8837329149
-0.10512109 -0.29734254 1.7130002 -0.3276228607 -0.7831887007 0.5284683108
0.047681898 -0.17960182 1.8130001 -0.007677767426 0.863560617 0.5041866302
-0.087834984 -0.13316917 1.6160001 -0.4001091719 0.8212422132 0.4067848027
0.010782124 -0.16173185 1.7570001 -0.2158417255 0.8814891577 0.4199871719
-0.1988885 0.31173301 1.6090001 -0.2754921615 -0.3865283728 0.8801703453
0.015959717 -0.10881624 1.6550001 -0.2508822083 0.8802149296 0.4028396606
0.16396822 -0.13025513 1.748 -0.1938882172 0.8237296343 0.5328009725
-0.08596617 -0.084025078 1.5257274 -0.2802898586 0.8020942211 0.5273352265
0.044897605 -0.36382544 1.7659999 -0.2420675904 -0.2822104692 0.9283105731
0.13454027 -0.056236412 1.6240001 -0.1769993156 0.7986822724 0.5751329064
0.34347624 -0.3832173 3.2380002 -0.296938628 0.8130586743 0.5007625222
0.23532365 0.053986013 1.5790004 -0.5360733271 -0.009095850401 0.8441224098
0.070773296 -0.30982977 1.794 -0.2673067749 -0.304151237 0.9143517613
-0.10139176 -0.01540128 1.4640001 0.3979895413 0.34825176 0.8487196565
-0.016018454 -0.43399993 1.7130002 -0.7621988654 -0.2699514627 0.5883698463
-0.23246306 0.33930945 1.6470001 -0.8996560574 -0.05332894251 -0.4333301187
0.094688766 -0.0094688768 1.5430001 -0.2886999547 0.7685064077 0.5710081458
0.10485491 -0.40435994 1.766 -0.1431647837 -0.2812960148 0.9488816857
-0.075474866 -0.19253792 1.7570001 -0.3495495319 0.8085090518 0.4734218717
0.054041766 0.051431049 1.4890001 -0.2614409029 -0.198767975 0.9445316195
0.17188102 -0.0209611 1.5940001 -0.2572157085 0.7477942109 0.6120816469
0.084710546 -0.067626067 1.6240001 -0.2865178883 0.8254957795 0.4862758815
-0.21474738 -0.22075431 1.7130001 -0.8119368553 0.08778430521 0.5771069527
0.20707569 -0.49822721 1.7760001 -0.5068393946 -0.08025767654 0.8582963347
0.12177601 -0.31788284 1.8040001 -0.09464350343 -0.2481383681 0.9640902281
-0.1332884 -0.17747241 1.6800001 -0.3301111758 0.7998937964 0.5011950731
-0.0192516 -0.0025668801 1.4640001 -0.3621710837 0.4061138034 0.838989675
0.25043297 -0.3893829 1.8430001 -0.5585406423 -0.4909003079 0.6686173677
-0.19220039 -0.44846758 1.6240001 0.3511352837 -0.1057683751 0.930331707
-0.054498859 -0.1062029 1.5940001 -0.3132756054 0.8635764718 0.3950873911
-0.014602538 -0.13471133 1.6844444 -0.379835397 0.8254302144 0.4176002741
-0.10011095 -0.45267558 1.6550001 -0.5038130879 -0.3122028708 0.8054202199
0.30030304 -0.0043105702 1.6390001 -0.5735176802 0.3984479904 0.7157629728
-0.18240891 -0.16315731 1.647 0.2563382089 0.8477478027 0.4643429518
0.025899367 -0.44481719 1.7376667 -0.2124353647 -0.1692600101 0.9624044299
0.12645905 0.021553349 1.523 -0.2819980383 0.5248841643 0.8031025529
0.23274185 -0.021158351 1.6090001 -0.2234853208 0.7357919216 0.6392687559
0.18356435 -0.28428105 1.853 -0.4825192392 -0.6868506074 0.5435176492
0.022374287 -0.26050061 1.8230001 -0.04903231934 -0.3408849537 0.9388254881
0.074735828 -0.11658789 1.705 -0.1230390668 0.8559770584 0.5021600127
-0.14521807 -0.49544996 1.6240004 -0.05373564363 0.06298405677 0.9965668321
0.14233589 -0.46521866 3.2690001 -0.3084990084 0.7943024039 0.5233660936
-0.14731367 -0.10206924 1.536 -0.1350832731 0.8692866564 0.4754925668
-0.07808996 -0.17269894 1.7130001 -0.4222627878 0.8431421518 0.3328744769
0.0047445199 -0.18345477 1.804 -0.1972394884 0.829205513 0.5229863524
-0.17451365 -0.30198449 1.7310001 -0.238968119 -0.694134295 0.6790226698
-0.11477097 -0.053921275 1.4890002 0.1849600226 0.2707738578 0.9447069764
0.20486034 -0.12168396 1.7570001 -0.1831725389 0.843937397 0.5041998029
0.053910617 -0.40509981 1.7570001 -0.064368397 -0.4101364613 0.9097498655
-0.1546782 -0.20273355 1.7130001 -0.05949098989 0.9381583333 0.3410568535
0.10628093 -0.14016761 1.7570001 -0.05931111798 0.8763386607 0.4780301154
0.39001235 -0.46985739 3.5030003 -0.296938628 0.8130586743 0.5007625222
0.057293672 -0.057293672 1.5940001 -0.2420497388 0.803411305 0.5440057516
0.18417913 -0.07444407 1.6710002 -0.2714815736 0.7724224329 0.5741614103
-0.067587204 -0.28711855 1.739 -0.4509390295 -0.5526411533 0.7008864284
0.27100834 -0.060061309 1.6710001 -0.3245818317 0.7065731883 0.628809154
0.016001921 0.0046477104 1.4855715 -0.3961629868 0.5376517177 0.7443020344
-0.016034057 -0.095353805 1.6042001 -0.373421371 0.8248541355 0.4244668782
-0.030708756 -0.057412025 1.5230001 -0.3321510255 0.7994049788 0.5006269217
-0.019237572 -0.49573746 1.6880001 -0.6820747256 -0.2069894075 0.7013768554
0.0087424126 -0.066709362 1.5743333 -0.4338923693 0.8092101812 0.3961266279
-0.054753091 -0.42470637 1.688 -0.4719570279 -0.1796720773 0.8631190658
-0.12332508 -0.41059998 1.6550001 -0.444532901 -0.4609381855 0.7680667043
0.19567201 0.03532967 1.5499998 -0.3383421302 0.1179227158 0.9336053133
0.15467818 -0.10962629 1.7129999 -0.1052701473 0.8650261164 0.4905589223
0.21591301 -0.31456009 1.8630002 -0.6719125509 -0.5041808486 0.5425266623
0.17455879 -0.47490829 1.7659999 -0.4531717002 -0.1775864363 0.8735550642
0.035991549 -0.33018336 1.7850002 -0.2081651241 -0.3900340796 0.8969619274
-0.054161169 -0.022331856 1.4640001 -0.2760735452 0.5848285556 0.7627312541
-0.028094245 -0.31618798 1.748 -0.5662700534 -0.3876652718 0.7273609042
-0.014154661 -0.25950211 1.794 -0.3768796325 -0.6630293131 0.6468028426
-0.12491536 -0.13895079 1.6010002 -0.1879698932 0.8427571654 0.5044082999
-0.06839402 -0.35535157 1.6960001 -0.6345530748 -0.4067489207 0.65718925
0.25364748 0.015691582 1.5860002 -0.5677133799 0.3409606218 0.7492979169
-0.063418508 -0.493498 1.6630001 -0.3726880848 -0.4491376579 0.8120215535
-0.20362248 -0.30658475 1.6710002 -0.2703672945 -0.6975426674 0.6635780334
-0.20703711 0.22074817 1.5640001 -0.3962166607 -0.3239388168 0.8591135144
0.21546538 -0.14416783 1.794 -0.3493577242 0.8195070624 0.4542657435
0.10279793 -0.26411161 1.8040001 -0.009655079804 -0.1407708973 0.989995122
-0.026149452 -0.35655111 1.7360911 -0.4790891707 -0.4724923968 0.739746213
0.10569938 -0.44405001 1.766 -0.125065878 -0.3004445732 0.9455641508
0.054659288 -0.13665567 1.732 -0.1371408105 0.8801209927 0.4545101225
-0.025752958 0.034425646 1.4544001 -0.06263397634 -0.291038841 0.9546587467
0.19030154 -0.41520333 1.794 -0.7404690385 -0.09867241979 0.6648077965
0.20680916 -0.35222188 1.8430001 -0.5503885746 -0.3202574253 0.7710431814
-0.18577792 -0.36722425 1.6470002 -0.1196407601 -0.3360747993 0.9342054725
0.22558649 -0.043105703 1.6390001 -0.1837947965 0.7624865174 0.6203497648
0.1354243 -0.026973629 1.5860001 -0.4090225995 0.6808866262 0.6075310111
-0.13657591 -0.28680938 1.7310001 -0.202417776 -0.8738237619 0.4421075284
0.13264756 -0.18059246 1.8230001 -0.2018818855 0.832662344 0.5156714916
0.10450368 -0.10408287 1.6857144 -0.2037984878 0.851757586 0.4826750159
0.34676462 -0.40408108 3.2690001 -0.296938628 0.8130586743 0.5007625222
0.15476182 -0.44466776 1.7760003 -0.2124902159 -0.2376920134 0.9478135109
0.19657409 -0.16461082 1.8230001 -0.2896766067 0.8491297364 0.4416629672
0.12611376 -0.37522736 1.7760001 -0.1048127934 -0.4240918159 0.8995334506
-0.16523851 -0.4051936 1.6390001 -0.0001553048496 -0.3180523217 0.9480731487
0.1155096 -0.078690916 1.6470001 -0.1624809355 0.8456152081 0.5084632039
-0.075410865 -0.10009078 1.5640001 -0.3444824815 0.8430269957 0.413082689
-0.16602251 -0.33681223 1.655 -0.1699343473 -0.3949216008 0.9028617144
-0.12094142 -0.07841257 1.516 -0.1401204467 0.7314217687 0.6673743129
-0.15544562 0.015069375 1.5077999 -0.3686797917 -0.3214958608 0.8721901178
-0.10536618 -0.37494457 1.6630001 -0.401704669 -0.09754731506 0.9105591178
0.084692135 -0.17733124 1.813 -0.2634922862 0.6840522289 0.6801796556
0.24643679 -0.45483732 1.8230002 -0.4197931886 -0.04168562219 0.9066619873
0.083935581 0.024918376 1.4960002 -0.3382872343 0.2924482524 0.8944472075
0.16024064 0.02289152 1.536 -0.5961185694 0.3914991617 0.7009786367
0.15821818 -0.30205286 1.8230001 -0.3310266137 -0.5474964976 0.7685499191
0.13252833 0.061133761 1.5270001 -0.27900967 -0.5988510847 0.7506870031
0.27261227 -0.005059619 1.6160001 -0.5687819719 0.4797158241 0.6681016088
0.054483958 -0.086030364 1.6355001 -0.2547032237 0.8385816216 0.4815674126
0.026258213 -0.02625821 1.5230001 -0.4048927426 0.7305833697 0.5498270988
-0.0030350201 -0.46587554 1.7310001 -0.5528458953 -0.2830474973 0.7837381959
0.25424737 -0.078801811 1.6960001 -0.07263763249 0.8065738082 0.5866536498
0.14557576 -0.14713272 1.7760001 -0.1034580916 0.8581710458 0.502830863
0.17712873 -0.3843061 1.804 -0.4263840318 -0.4278264344 0.7969700098
0.044194225 -0.48461199 1.7383336 -0.2170326263 -0.1388151646 0.9662438631
-0.19469714 0.18692754 1.5640001 -0.6818141937 -0.3649868965 0.6339668036
0.042815961 -0.19630715 1.8430001 -0.1251357347 0.8627079129 0.4899756014
0.0031562923 -0.051853374 1.5430001 -0.4862805009 0.6967222095 0.5273608565
-0.024644854 -0.17405428 1.7570001 -0.4073238671 0.8294324279 0.3822683394
-0.17283659 -0.15158619 1.6160001 -0.0004578336084 0.8481134176 0.5298144817
0.065798834 -0.026374256 1.5507001 -0.3227602839 0.7874643803 0.5250958204
-0.053883441 -0.14837056 1.6840001 -0.3441464603 0.8442773223 0.410802871
-0.11986488 -0.31520024 1.6880001 -0.2570245266 -0.4546625018 0.8527721763
0.36841741 -0.2952964 3.2080002 -0.296938628 0.8130586743 0.5007625222
-0.033902016 -0.034558196 1.4875002 -0.3757910728 0.6524350047 0.6581106782
0.19231699 -0.35125667 1.8130001 -0.6655314565 -0.04815519229 0.7448146939
0.16026957 -0.070749633 1.6470001 -0.2919310629 0.7579829693 0.5832993388
-0.18568327 -0.2490873 1.7220001 -0.3416910768 -0.4506159425 0.8247378469
-0.055208959 -0.075407356 1.536 -0.3637858033 0.7956674695 0.4843275547
-0.068521142 -0.44757429 1.6630001 -0.5470077991 -0.2369437814 0.8028948307
-0.088188283 -0.32584822 1.705 -0.6662020087 -0.3835920095 0.6395561695
0.0045288601 -0.14190428 1.7220001 -0.3232814968 0.8401647806 0.4354448617
0.042700678 -0.27834517 1.8040001 -0.1622677147 -0.2201793492 0.9618681073
0.11531411 -0.49458644 1.748 -0.1613398641 -0.4222947061 0.8919846416
0.17530577 0.0050926819 1.564 -0.2978648245 0.6707978249 0.6791957021
-0.1355844 -0.34552151 1.6630001 -0.3108914793 -0.6068348289 0.7315039039
-0.14422219 -0.28770095 1.6960001 -0.2268009335 -0.7602118254 0.6088015437
0.075173385 -0.37586692 1.7659999 -0.1656791717 -0.25038746 0.9538639784
-0.073637374 -0.13716765 1.647 -0.3526803851 0.8465723991 0.3986624181
0.093774401 -0.29403839 1.813 -0.09099766612 -0.2861451805 0.9538555145
-0.091765955 -0.11818343 1.5860001 -0.3306376934 0.8434770703 0.4233499467
0.22570221 -0.091177717 1.705 -0.1050202549 0.840977788 0.5307797194
0.048602398 -0.1075144 1.6800001 -0.2700540423 0.869479537 0.4136135876
0.064550057 -0.34544066 1.785 -0.2557588816 -0.355604589 0.8989620209
-0.010983173 -0.10650361 1.6343335 -0.3224286139 0.8505852818 0.4153846502
0.036254931 -0.16437051 1.7760001 -0.1824636161 0.8463096619 0.5004668236
0.21584007 -0.41356102 1.8130001 -0.2825873494 -0.3102802932 0.9076731205
-0.10556469 -0.1784192 1.6960001 -0.3522171676 0.8452054858 0.4019586146
-0.19571847 -0.20585856 1.7336669 -0.230182752 0.4892973304 0.8411920071
0.22175634 -0.47654021 1.794 -0.6471006274 -0.2275199294 0.7276643515
-0.15011601 -0.043076769 1.4890001 0.01921553165 -0.1801818013 0.9834456444
-0.055810351 -0.1730233 1.7363335 -0.2604725063 0.8574772477 0.4437192976
-0.10540251 -0.15256894 1.647 -0.3468770683 0.8505690098 0.3952323496
0.20257807 -0.017310368 1.6010002 -0.1159608215 0.7904673815 0.601426959
0.026451662 0.034590639 1.4770001 -0.2441920787 -0.2522878051 0.9363338351
-0.15234275 -0.17265512 1.6550001 -0.1841415763 0.8940561414 0.408357054
-0.16773438 0.13662237 1.5430001 0.6684314013 -0.07485952228 0.7399969697
-0.21240582 0.28646836 1.594 -0.3422177434 -0.3119938672 0.8863108158
-0.12386248 -0.46697581 1.6240001 -0.2611657679 -0.2672935128 0.9275487065
-0.064714484 -0.26597959 1.766 -0.4076990187 -0.6288366914 0.6620770097
0.086498074 -0.12898836 1.7310001 -0.1561025828 0.8819053769 0.4448312819
0.18488549 -0.27237594 1.8830001 -0.5694029927 -0.6980841756 0.4341183603
0.23384628 -0.1130921 1.7479999 -0.07434613258 0.8984817863 0.4326698184
-0.16335878 -0.18640177 1.6848001 0.01649215072 0.8851023316 0.4651041627
0.053792268 -0.35648775 3.1200001 -0.3009429276 0.7189204693 0.6265674233
-0.17511591 -0.47409433 1.6240001 0.2418625355 -0.02503831312 0.9699873924
0.17963338 -0.22664025 1.9150001 -0.8265996575 -0.3048648834 0.4730648696
-0.14946815 0.071367681 1.536 -0.3213652372 -0.2888889313 0.9018135071
0.118613 -0.36216503 1.8040001 -0.2412201762 -0.5670945644 0.78753829
0.11654407 -0.016910316 1.5640001 -0.3197751939 0.738102138 0.5940951705
0.0077015166 -0.37121311 1.7570001 -0.6347935796 -0.3772007525 0.6743565202
-0.17693238 -0.29885215 1.6960001 -0.04236335307 -0.7508302331 0.659135282
-0.14602286 -0.11403037 1.5640001 -0.04003668949 0.8357328773 0.5476747751
-0.20289925 0.12211528 2.1430001 -0.7875902653 -0.6152258515 -0.03462286294
0.0042816401 -0.31645215 1.7760001 -0.4609930515 -0.1984679699 0.8649253249
-0.011573753 -0.40457812 1.7220001 -0.6720625758 -0.1055080891 0.7329392433
-0.21533738 0.3357563 1.6160001 -0.9084266424 -0.1284017861 -0.3978366852
-0.065420367 -0.38508809 1.6960001 -0.5598694086 -0.3252926171 0.762057066
0.093958504 -0.47595373 1.7570001 -0.1178905889 -0.08383946121 0.9894810319
0.13454589 -0.13454589 1.7479999 -0.1020505577 0.8409499526 0.5314027071
0.085401356 -0.33369792 1.804 -0.1808938533 -0.4814708829 0.8575915098
0.13380814 -0.42619547 1.7659999 -0.242981717 -0.1879190505 0.9516544938
0.18526714 -0.14191772 1.7660002 -0.2899381518 0.7672438025 0.572077632
-0.01089872 -0.29115152 1.7760001 -0.5572656393 -0.490472585 0.6699938178
-0.018337529 -0.46735919 1.6960001 -0.7240447402 -0.150010854 0.673242867
-0.177788 -0.48413038 3.1200001 -0.3360250294 0.6706157327 0.6613332629
-0.18631271 0.23775727 1.5860001 -0.323022604 -0.3564459682 0.8766998649
0.22299244 -0.44124037 1.8040001 -0.3025450408 -0.15565072 0.9403400421
-0.21295722 -0.24431913 1.7310001 -0.6059403419 -0.2445048243 0.7570030689
0.028641576 -0.39401519 1.766 -0.3325384259 -0.2997557521 0.8941838145
-0.11810962 -0.43536758 1.6390002 -0.5171935558 -0.1996214986 0.8322632313
0.15024313 -0.32737187 1.8040001 -0.1538393945 -0.2365343571 0.9593669176
0.16372928 -0.045941345 1.6160001 -0.3143725693 0.7280220985 0.6092239022
0.087631598 -0.15804985 1.7850001 -0.1588322669 0.8802292943 0.4471785724
-0.19492245 -0.43171713 1.6470001 0.3529303372 -0.1389132142 0.9252800941
0.1533553 -0.37712884 1.7850001 -0.4257051647 -0.4834904671 0.7648608088
0.15496618 -0.16609195 1.8130001 -0.06666433066 0.8585635424 0.5083547831
0.25852025 0.047511823 1.5940001 -0.6130253077 -0.05211098865 0.7883428335
0.10516483 -0.055011712 1.6090001 -0.2067372948 0.8240104318 0.5275097489
0.30290586 -0.055475462 1.6799999 -0.4040872157 0.7040736675 0.5839467049
0.15711094 -0.49520752 1.7570001 -0.09959397465 -0.224538669 0.9693623781
-0.09486936 -0.069834389 1.503 -0.08451244235 0.7922814488 0.6042745709
0.23233719 -0.364178 1.8430001 -0.6012260914 -0.3304994106 0.7275282145
0.0045583751 -0.42522776 1.7323337 -0.4932333827 -0.09338078648 0.864870429
0.06742619 -0.47198331 1.748 -0.4569993615 -0.3034980595 0.8360863924
0.077884525 0.0022252724 1.5230001 -0.3156108856 0.6968289018 0.6440646648
-0.11095531 -0.026107132 1.4890001 0.6350713968 0.1351593733 0.7605368495
-0.054648243 -0.353553 1.7220001 -0.4986129403 -0.4196534753 0.7584695816
0.22074817 0.035648771 1.5640001 -0.5810456872 0.09740000963 0.8080217838
-0.098746859 -0.10145225 1.5430001 -0.1881286353 0.8312799335 0.5230499506
-0.032584824 -0.41343862 1.7050002 -0.5173457861 -0.1682241857 0.8390792608
0.20312366 -0.062387984 1.6550001 -0.1761485934 0.8087044358 0.5612208247
-0.16006969 -0.025134912 1.5090002 -0.1888477951 -0.4054940343 0.89437747
-0.010205276 -0.11808963 1.6630001 -0.3362420797 0.8539905548 0.3970407546
0.035245508 -0.14762248 1.748 -0.2122577429 0.8638490438 0.4568494856
0.24519928 -0.053682685 1.655 -0.09850200266 0.7901810408 0.6049060225
0.0191464 -0.1192968 1.6800001 -0.2484706789 0.8815458417 0.4014214873
0.16425928 -0.094708048 1.6880001 -0.1886124164 0.8443177342 0.5015505552
0.086035304 -0.42531082 1.7659999 -0.3579749167 -0.1361600161 0.9237502217
0.13455781 -0.10333445 1.6960001 -0.1152235344 0.8522931337 0.5102155209
0.19382575 0.061423648 1.557 -0.4187550843 -0.03963650391 0.9072337747
0.045863688 -0.30523074 1.804 -0.1767000109 -0.487223357 0.8552137017
0.023333186 -0.19529556 1.8230002 -0.2473926395 0.8508376479 0.4635430872
-0.084151238 -0.47443888 1.6550001 -0.6562843919 -0.2550004721 0.7101165652
-0.075480998 -0.30645287 1.7220001 -0.412627548 -0.4304388762 0.8027831912
-0.11339858 -0.28196406 1.748 -0.03777991235 -0.8769931197 0.4790154397
0.024107579 -0.34701648 1.7659999 -0.2325787991 -0.4929034412 0.8384231329
-0.044465847 -0.13485545 1.6630001 -0.3160495758 0.8485253453 0.4244024158
0.054790787 -0.014701992 1.5243334 -0.297118336 0.7578463554 0.5808525085
0.046483204 -0.43162975 1.748 -0.2727336586 -0.4274613857 0.8619124889
-0.085520029 -0.035076629 1.4719093 0.2263969332 0.512845099 0.8280907869
-0.085141867 -0.37538272 1.6812308 -0.5940316319 -0.1802553236 0.7839862704
-0.073249549 -0.0050143977 1.4580001 -0.001300615375 0.2095600516 0.9777948856
-0.18249175 0.11031403 1.5535001 0.6379196048 -0.08201815188 0.7657229304
0.244519 -0.40593347 1.8230001 -0.2390966266 -0.6395140886 0.7306534648
-0.0150962 -0.37589541 1.7220001 -0.4735775888 -0.4378996491 0.7641780972
0.13509873 -0.29443571 1.813 -0.2821341753 -0.4069361687 0.8687941432
0.064482339 -0.16671044 1.794 -0.1936400533 0.845769465 0.4971695244
0.21472767 -0.10698445 1.7310001 -0.1354844272 0.8704919815 0.4731677473
-0.1646754 -0.42663744 1.6240003 0.1085713804 -0.1593690962 0.9812307358
0.054302834 0.025323918 1.4890002 -0.3087604046 0.1974326372 0.9304232001
0.07585784 0.054399293 1.5030001 -0.3350794315 -0.279063791 0.8999139667
0.28616768 0.33656198 2.0530002 0.5237106085 -0.650518775 0.5500476956
-0.034197014 -0.44158754 1.6960001 -0.4506786466 -0.3008610904 0.8404589891
0.20471498 -0.082419291 1.6847999 -0.140545994 0.8328368664 0.5353779793
-0.0051547997 0.025774004 1.4699999 -0.4433392286 -0.0675079599 0.8938081264
-0.062334508 -0.11758555 1.6160001 -0.3255334795 0.8539811373 0.4058869481
0.18484955 -0.11404268 1.7344286 -0.232571125 0.8652165532 0.4441969693
-0.052122507 -0.18629926 1.7660002 -0.3061352074 0.8216449022 0.4808127582
0.026561832 -0.41528401 1.748 -0.4356401265 -0.401833117 0.8054488301
-0.038966604 -0.49426064 1.6710001 -0.5199609995 -0.241620183 0.8193047047
-0.19228543 0.2722874 1.6010001 -0.3386145532 -0.3155995607 0.8864181042
0.12309539 -0.0013526967 1.5430001 -0.3380013108 0.7576832175 0.5582752824
-0.0077848001 -0.17282256 1.7760001 -0.3239404559 0.8653760552 0.3823438585
0.016453279 -0.098004319 1.6320001 -0.2818676829 0.8631147742 0.4190268517
0.28292224 -0.039173849 1.6550001 -0.4289830029 0.6791422963 0.5955999494
0.17995775 -0.43659315 1.7850001 -0.6518244147 -0.158314392 0.7416613102
0.046428263 -0.10011095 1.6550001 -0.2342981547 0.8842502832 0.4039874375
0.074447632 -0.03584493 1.5725836 -0.3577092886 0.7385832071 0.5714358091
0.24317768 -0.14145631 1.8130001 -0.4118255079 0.8323698044 0.370891124
-0.094307423 -0.42801058 1.6550001 -0.4399684668 -0.3110750914 0.842413187
0.034064636 -0.063262895 1.5860001 -0.2904620767 0.8118283749 0.5065239668
0.20478956 -0.32515895 1.8430002 -0.698397696 -0.3480037749 0.6254070401
0.11865771 -0.089359507 1.6710001 -0.1939966679 0.8378952146 0.5101930499
-0.19732013 -0.32499787 1.655 -0.1331372261 -0.3720522821 0.9186139703
0.28901246 0.014237067 1.6240001 -0.6160660386 0.3220808506 0.7188369036
-0.046270121 0.0053683561 1.4580001 -0.1488158107 0.069030568 0.9864525795
-0.20273355 -0.19372317 1.7130001 -0.3081080914 0.8537162542 0.4198070168
-0.16950876 0.17364311 1.572 -0.7063002586 -0.4789589047 0.5212852955
0.18700352 -0.029750559 1.6160001 -0.1985695511 0.74981457 0.6311483383
-0.20834422 -0.36065102 1.6390001 -0.1335329115 -0.2201074213 0.9662927389
-0.038250718 -0.11191877 1.6160001 -0.3287713826 0.8496566415 0.4123020172
-0.037315607 -0.092608146 1.5766667 -0.3648139536 0.8459520936 0.3889419734
-0.052062254 -0.29358181 1.7570002 -0.4019454122 -0.5888315439 0.7012255788
-0.0044841501 -0.48578289 1.705 -0.6671985388 -0.3512747586 0.6568501592
0.24444009 -0.37183204 1.863 -0.5357987881 -0.3126989305 0.7843079567
0.15538239 -0.014656553 1.5769002 -0.244187817 0.8062400222 0.5388407111
0.10434674 0.0053462894 1.526 -0.3190256655 0.6873878837 0.6524726152
0.065165266 -0.29313016 1.813 -0.138699308 -0.466925621 0.8733515739
0.2294561 -0.31859732 1.8830001 -0.6822823882 -0.5656496882 0.4631750882
-0.19776285 -0.16553482 1.6710001 0.2801413834 0.8470566869 0.4516810477
-0.05688427 -0.062175829 1.5090002 -0.3111254871 0.8030149937 0.5082990527
-0.084669344 -0.18468045 1.7331818 -0.4283345044 0.8139677644 0.3924105167
-0.032710187 -0.14719585 1.6960001 -0.2777252495 0.8711949587 0.4048308432
0.10545324 0.034962092 1.5090001 -0.3160260916 0.06010835618 0.9468445182
0.27181312 -0.091605529 1.7130001 -0.2978843749 0.794095695 0.5297895074
-0.17578921 -0.31788546 1.6710001 -0.2639149427 -0.6947815418 0.6690496802
0.15530205 0.045520805 1.527125 -0.5411042571 -0.2114441693 0.8139395118
0.085188329 -0.083263166 1.647 -0.2670026422 0.8010308146 0.5357790589
0.16495623 -0.27274939 1.863 -0.3924697936 -0.8475688696 0.3572037518
0.23497647 -0.0013903934 1.5860001 -0.342430383 0.6413066387 0.6866347194
0.004744519 -0.27518216 1.8040003 -0.4342961013 -0.5569874644 0.7079208493
0.02503497 -0.0092234099 1.5029999 -0.3981609941 0.6734851003 0.6228047013
0.27672508 -0.081389733 1.6880001 -0.3828530908 0.7308877707 0.5650014281
-0.1448639 -0.089044787 1.5160002 -0.2123298496 0.7861738801 0.5803849101
0.0013974067 -0.082446992 1.5940001 -0.3880757987 0.7955470085 0.465297848
-0.12444809 -0.10235404 1.5430001 -0.04213797674 0.8473656774 0.5293352604
-0.21317728 0.35338783 1.6320001 -0.8993698955 -0.1164210588 -0.4214023054
0.025163841 -0.17614686 1.794 -0.1673368514 0.8783547878 0.4477624595
0.094974563 -0.38456911 1.7760001 -0.3128919601 -0.1856973469 0.9314585924
-0.015899006 -0.082272753 1.5772501 -0.4250724316 0.8281733394 0.3652976453
0.12639683 -0.40466806 1.7760003 -0.2288748771 -0.279217273 0.9325523973
0.076248527 -0.40369141 1.7659999 -0.2953155041 -0.2876722515 0.9110617042
0.22764842 -0.39262655 1.8330001 -0.5298355818 -0.4292673767 0.7314395308
-0.13530122 -0.19477428 1.6960001 -0.293974936 0.8400457501 0.4559625387
0.17483364 -0.33536267 1.8129998 -0.1784236282 -0.2707237899 0.9459776282
-0.0031963266 -0.19977042 1.8230001 -0.1871608198 0.8479203582 0.495985806
-0.11532024 -0.14759092 1.6240001 -0.3207627237 0.8646448255 0.3866530955
-0.045012452 0.02717316 1.467 -0.07635203004 -0.1339504123 0.9880423546
-0.014203315 -0.068311177 1.5430001 -0.403247714 0.7688488364 0.4962486327
0.1152427 -0.4655917 1.7570001 -0.2991873622 -0.207521975 0.9313547015
-0.013337825 -0.016594641 1.4845001 -0.4787246883 0.6021511555 0.6389339566
0.052487161 -0.4562681 1.7390002 -0.337351054 -0.1076108813 0.9352080822
-0.14446908 -0.41516125 1.6345456 -0.3126373887 -0.3336740434 0.8893365264
-0.10547352 -0.16699974 1.6710001 -0.3054604828 0.8401331902 0.4481853545
-0.054706633 -0.1587389 1.7050002 -0.336178869 0.8649770021 0.3725568354
0.13442807 -0.34476849 1.8040003 -0.07293517888 -0.2079685032 0.975412488
-0.3837696 -0.22667094 2.5600002 -0.2641717792 0.8313310742 0.4889804423
0.0059166229 -0.037597101 1.5238571 -0.4248200059 0.7590723038 0.4932921827
-0.17582233 -0.17873813 1.6630001 0.2080235779 0.8848527074 0.416847527
-0.034695044 -0.3349655 1.7346364 -0.5995164514 -0.2448438555 0.7619917989
-0.14450271 -0.14875279 1.6160001 -0.09436766058 0.8387525678 0.5362731218
0.19560625 -0.4741495 1.7850001 -0.4095986187 -0.1236408353 0.9038484097
0.072023429 -0.42141366 1.748 -0.4573661685 -0.1875753403 0.8692708015
0.17340071 -0.17659704 1.8230001 -0.05404016003 0.8534073234 0.5184357166
0.0059473068 -0.12935393 1.6960001 -0.3217034638 0.8629028797 0.3897505403
-0.17488185 -0.19506054 1.705 0.1415408552 0.9095096588 0.3908432126
0.2110873 -0.032583948 1.6160001 -0.1604238898 0.7720398903 0.6149947643
0.19818452 -0.30377465 1.853 -0.6487416029 -0.4812388122 0.589528203
0.066754662 -0.19231699 1.8130001 0.03325816244 0.7769323587 0.6287050247
-0.03617302 -0.26579306 1.794 -0.3967070878 -0.6834590435 0.6127864718
-0.1049938 -0.47535935 1.6362002 -0.4738063216 -0.1826780736 0.8614733219
-0.12390544 -0.16336946 1.6550001 -0.3130911589 0.8659388423 0.3900305629
0.095154807 -0.02495414 1.5640001 -0.2296627015 0.8049131632 0.547146976
-0.17467584 0.18864989 1.5940001 -0.7169985771 -0.4017679691 0.5696451068
0.49062037 0.038435698 2.5790002 -0.9705280066 0.1142098382 0.2122061998
0.14311934 -0.16199222 1.794 -0.09935238212 0.8700444102 0.482858032
-0.08275032 -0.26817232 1.748 0.04478034005 -0.7747149467 0.63072294
0.075291641 -0.10629759 1.684 -0.09875702858 0.8972830772 0.4302674532
0.10648811 -0.3421326 1.804 -0.3134274781 -0.2964554727 0.902151525
-0.17101312 0.082140163 1.536 0.03213718534 -0.2013286054 0.9789963961
-0.18509939 0.21526374 1.5640001 -0.5735511184 -0.26703161 0.7744244337
0.14568096 -0.11988329 1.7310001 -0.08239616454 0.8625224829 0.499265343
0.18585332 -0.087722771 1.6960001 -0.2606601119 0.7873955965 0.5586273074
0.22728372 -0.46569321 1.8130001 -0.5738826394 -0.2109149098 0.7913113236
0.046167016 -0.047545139 1.572 -0.2818243206 0.8199025989 0.498331964
-0.01522244 -0.16141187 1.7370002 -0.3946066201 0.8212314248 0.4121463299
0.20396176 -0.13456582 1.7760001 -0.2646617889 0.7802813053 0.5666702986
-0.1645328 -0.45496893 1.6320001 0.07954186946 -0.05260378122 0.9954425693
-0.0045735701 -0.36588559 1.7390002 -0.5978682041 -0.5107425451 0.6178152561
0.20423748 -0.43311059 1.8130001 -0.3334793448 -0.1067957431 0.9366889596
-0.025500577 -0.29488254 1.7570001 -0.4212549031 -0.4586299062 0.7824339867
-0.17524934 -0.38497439 1.6385626 -0.1283322126 -0.3230348825 0.9376456141
-0.09584704 -0.28754112 1.7354445 -0.1132680178 -0.8411133289 0.5288654566
-0.16511053 -0.36533242 1.6550002 -0.1964982152 -0.2601501942 0.9453625083
-0.12447264 -0.49502912 1.6320001 -0.2652289867 0.004845958203 0.9641732574
0.18527824 -0.45618927 1.7760001 -0.527158916 -0.2218847424 0.8202869296
-0.16739424 -0.49455222 1.6320001 0.2470455915 0.1456626654 0.9579931498
0.17517495 0.024181774 1.5526923 -0.4344850481 0.4068571329 0.8035483956
0.045334186 -0.080751516 1.6160001 -0.2538336813 0.818575263 0.5152697563
0.094291635 -0.27168775 1.8230001 0.09008275717 -0.1601016074 0.9829814434
0.12526368 -0.046450183 1.6054446 -0.2899338007 0.7728308439 0.5645093918
0.072023429 -0.14251444 1.748 -0.1743891537 0.8776438832 0.4464634657
0.025827281 -0.46635246 1.7327778 -0.3203895986 -0.1488354802 0.9355204701
0.23519401 0.024901278 1.5781254 -0.4203840494 0.2193669379 0.8804290891
-0.15473868 -0.16477214 1.6343335 -0.09534654021 0.8578691483 0.504945159
-0.20747632 -0.37577879 1.6550001 -0.2681479156 -0.1616434902 0.9497200251
-0.077054262 -0.42570287 1.6710001 -0.5812295675 -0.3837216198 0.7175861597
0.12602293 -0.14583981 1.766 -0.07459153235 0.8881450295 0.4534694254
-0.065111786 -0.40546885 1.6879998 -0.443670094 -0.2759315968 0.852653861
0.17437953 -0.41570833 1.7760001 -0.4221324325 -0.1397438496 0.8956985474
0.15672258 -0.26982135 1.8430001 -0.3887547255 -0.752417326 0.5317310691
0.10388061 -0.18059246 1.8230001 -0.1023358256 0.8258036971 0.5545949936
-0.025358463 -0.044118248 1.5066 -0.4558261931 0.7169249654 0.5274856091
0.235911 -0.13368289 1.794 -0.3771902025 0.8343198895 0.4020421505
-0.14524363 0.032466225 1.5159999 -0.4649551213 -0.4871753156 0.7392408252
-0.05509844 -0.30473873 1.7363337 -0.5064765811 -0.5264786482 0.6828628778
0.20524956 -0.29555938 1.8730001 -0.6804972887 -0.6094114184 0.4068674743
-0.11540265 -0.12652579 1.5860001 -0.2501424253 0.8338865042 0.491997987
0.15481932 -0.46600619 1.7660002 -0.1628309637 -0.2446177602 0.9558494687
0.13733421 -0.18742082 1.8430001 -0.1483452469 0.8868203163 0.43765679
0.04955709 -0.12764704 1.7130001 -0.1729200929 0.8765223026 0.4492296278
-0.11575699 -0.35601836 1.6630001 -0.4527424872 -0.4685755968 0.7585915327
-0.046516437 -0.39783233 1.6960001 -0.4628387094 -0.3785268664 0.8015595675
0.054186769 -0.38550016 1.7659999 -0.1560120732 -0.2829269171 0.9463680983
0.22498816 -0.33870059 1.853 -0.4655795991 -0.3548227251 0.8107628822
0.038033307 0.01180344 1.4960001 -0.3868609369 0.4941343367 0.7785691023
-0.074335627 -0.34352073 1.7130002 -0.5524332523 -0.5506427884 0.6257874966
0.17729795 -0.3015672 1.8330001 -0.4977369905 -0.572208941 0.6517935395
0.11602596 -0.284502 1.813 -0.1836939156 -0.1786046326 0.9666213989
-0.054535683 -0.44513509 1.6813335 -0.5319500566 -0.3317139745 0.7790988088
-0.014154661 -0.18558331 1.794 -0.3483405113 0.8295385242 0.4364913702
0.25248966 -0.01269501 1.6090001 -0.3145833611 0.6284096241 0.7114341855
0.21615794 -0.15417148 1.8130001 -0.4195744395 0.8258546591 0.3767245412
-0.18806867 -0.34260571 1.6630001 -0.04381288216 -0.3109758198 0.9494074583
0.18590102 -0.49511328 1.7760003 -0.4876947403 -0.1220364347 0.8644425869
0.22371393 -0.12617774 1.766 -0.1552752405 0.8690398335 0.4697439969
-0.14460091 -0.12930658 1.5860001 -0.02708190307 0.832998991 0.5526112914
