# .PCD v0.7 - Point Cloud Data file format
VERSION 0.7
FIELDS x y z normal_x normal_y normal_z
SIZE 4 4 4 4 4 4
TYPE F F F F F F
COUNT 1 1 1 1 1 1
WIDTH 512
HEIGHT 1
VIEWPOINT 0 0 0 1 0 0 0
POINTS 512
DATA ascii
-0.083632953 -0.29407397 1.7220001 -0.4353770018 -0.6133919954 0.6589363813
0.44994828 -0.4141908 3.3990002 -0.2862778604 0.8483845592 0.4452961087
-0.35540506 -0.36534646 2.835 -0.2751178443 0.8263648152 0.4913566411
0.4935905 0.20921737 2.3170002 -0.9753036499 0.1333836615 0.1760444343
-0.2139207 0.37259033 1.6160001 -0.9711637497 -0.1687515229 -0.1684157252
-0.1369441 0.016700501 2.286 0.3906971812 -0.8506162167 0.351863265
0.29053348 0.051931102 1.6010001 -0.4508692622 0.0832773447 0.8886966705
0.0027860466 -0.44298142 3.1780002 -0.297084868 0.7899228334 0.536435008
0.47872311 -0.18573411 2.9840002 -0.3139227331 0.8762298226 0.365614295
0.22375251 0.37727612 1.863 -0.9669961333 -0.1992570758 0.1587928087
0.27305272 -0.48309329 1.8430001 -0.6205897927 0.1078003719 0.7766900659
-0.073583893 0.0021390666 1.4640001 0.3044720292 0.2244977951 0.9256876111
-0.22573115 0.18839216 1.9360001 -0.9667559862 -0.2412438244 -0.08476018906
0.18078007 0.10765554 2.3170002 0.1823031604 -0.5395854712 0.8219568729
0.19122466 -0.16229993 1.8330001 -0.1736627966 0.8607954979 0.4784060717
-0.29266641 -0.44583759 3.1200001 -0.2644230425 0.8137392998 0.5175991058
-0.2853857 -0.14160359 2.4850001 -0.2959278822 0.8269057274 0.4781774282
0.22831906 -0.30353004 3.0640001 -0.1946654469 0.8673057556 0.4581332505
0.30247015 0.24423057 2.1430001 -0.9668115973 0.172609061 -0.1883651167
-0.15055434 -0.49809217 1.605 0.2502942383 -0.36706236 0.8958895206
0.054980151 -0.49576169 1.7383848 -0.2744850218 -0.1565556675 0.9487614632
0.0435265 -0.091405652 1.6550001 -0.3417663872 0.8224084377 0.4547967911
0.4336946 -0.29439226 3.1780002 -0.2885043323 0.8447428346 0.4507491887
0.23474854 -0.45444909 3.4330001 -0.2569549382 0.8630006313 0.4349759519
-0.15111484 -0.13240092 1.6010002 0.02393050492 0.8625383973 0.5054253936
-0.094995603 -0.37470487 3.0100002 -0.3179894686 0.7613712549 0.5649748445
-0.16859001 0.17685874 1.572 -0.5772826076 -0.4609163105 0.6740185022
0.10308108 0.070949502 1.5270001 -0.2665461004 -0.4727690816 0.8399062753
-0.19350575 0.13338746 2.1430001 -0.8868336678 -0.3726788461 -0.2731969357
0.094890393 -0.32420883 1.8040003 -0.2042309791 -0.3161130846 0.9264783859
0.15188864 -0.43847096 3.2690001 -0.170439288 0.8702629805 0.4621609747
0.24926527 -0.31859732 1.8830001 -0.6348605752 -0.4183326066 0.649576664
0.013781701 -0.17464353 1.804 -0.1199003756 0.813569665 0.5689712763
0.28380856 -0.075480998 1.7220001 -0.1836333126 0.8123640418 0.5534830093
0.01393637 0.077645488 2.2710001 0.4164851904 0.4046830237 0.8141079545
0.28268293 0.35379812 2.0280001 -0.9951534271 -0.09800262749 0.008068536408
0.084791198 -0.32548881 3.1200001 -0.1329535395 0.845508635 0.5171445608
-0.36362028 -0.46302727 2.9840002 -0.2751178443 0.8263648152 0.4913566411
-0.23079301 -0.33711338 2.9580002 -0.2751178443 0.8263648152 0.4913566411
-0.19474711 -0.19626464 1.7310001 -0.6183749437 0.4488188922 0.6451154947
-0.1929675 -0.36504227 1.655 0.3278624713 -0.09478007257 0.9399589896
-0.1449656 -0.45404321 3.1200001 -0.2704546452 0.7989419103 0.5371648669
0.17540216 -0.034891918 1.6355001 -0.3540206552 0.7547934651 0.5522283912
-0.054914404 -0.42563918 1.6800002 -0.6055868268 -0.2868576348 0.7422784567
0.23124187 -0.3705442 3.1780002 -0.0944794789 0.8675616384 0.4882728755
0.17682616 -0.42460522 1.7760001 -0.3930017054 -0.1727187634 0.9031710029
-0.070251681 -0.15993468 1.705 -0.3805037439 0.851703763 0.3603021502
0.49470299 -0.34426701 3.3000002 -0.2883353829 0.8396659493 0.4602432251
0.025160158 -0.035440654 1.5430001 -0.3994886577 0.7813134193 0.4795395136
0.1449222 -0.10698446 1.7310001 -0.1260182709 0.8784286976 0.460958153
-0.15283456 0.055882238 1.536 -0.2147435695 -0.02418866009 0.9763708711
0.47436434 -0.23311618 3.0920002 -0.3042523563 0.8489879966 0.4320299923
0.32808986 0.19449639 2.2410002 -0.8746356368 0.2091805339 -0.4373283088
0.1782088 -0.20196997 1.9360001 -0.9506576061 -0.2704052329 0.1520892233
0.0229862 -0.38770056 1.748 -0.6330227852 -0.4835853875 0.604505837
-0.07810048 -0.082140163 1.536 -0.2787110209 0.8269028664 0.488417685
-0.0040891236 -0.28277868 1.794 -0.5021996498 -0.548099339 0.668866694
0.16461228 -0.26370457 1.853 -0.387645483 -0.6714584827 0.631565094
-0.20271936 0.27335134 1.5860001 -0.4741282761 -0.1372771114 0.8696880937
0.19519071 0.03548922 1.557 -0.2871379554 0.4149339497 0.8633548617
-0.27467251 -0.49591044 3.2080002 -0.2583130002 0.8284296989 0.4969694316
0.015328245 0.043371599 1.4853077 -0.2085758448 -0.3127045035 0.9266671538
-0.19776022 -0.29286629 1.7220001 0.1341376305 -0.6556203961 0.7430807352
-0.046982318 -0.11247282 1.6240001 -0.3111525178 0.8577682972 0.4091670215
0.095843337 -0.18356435 1.853 -0.1925936937 0.805400908 0.5605685115
-0.1853887 0.087815702 2.2260001 0.5186508298 -0.7963585854 0.3111500144
0.26689327 -0.38835368 1.8230001 -0.5788933635 -0.3732940853 0.7249372602
0.27375776 -0.023968242 1.6470001 -0.3137257397 0.7044995427 0.6365976334
0.11517296 -0.0089121936 1.5640001 -0.2934594154 0.7857733965 0.5444646478
0.1859594 -0.34529644 1.813 -0.3613882065 -0.3251864016 0.8738720417
0.055160902 -0.12649894 1.7346364 -0.2031561285 0.8681276441 0.4528597593
-0.14368771 -0.032661386 1.5036668 -0.1625332236 -0.3444557488 0.9246259928
0.24568145 -0.11736375 1.7850001 -0.07979437709 0.8449667692 0.528832674
-0.1075895 -0.35564762 1.6710002 -0.3801148534 -0.5473508239 0.7456002831
0.09443979 -0.42575312 1.7659999 -0.2515522838 -0.1711835861 0.9525846839
-0.13506453 -0.4253096 1.6390001 -0.04071427882 -0.2249265164 0.9735247493
-0.14502609 -0.17334767 1.6710001 -0.1093507409 0.8742900491 0.4729263186
0.21438444 -0.49605745 1.7850001 -0.4801977277 -0.1885756999 0.8566500545
-0.016000601 -0.49632853 1.6872727 -0.7162976861 -0.2071706057 0.666331768
-0.079027116 -0.49858925 1.6390001 -0.4307559133 -0.2913400829 0.8541488647
0.13469282 -0.49387372 1.7659999 -0.1182261929 -0.3018222451 0.9460052252
0.065884121 -0.25710881 1.8330001 -0.414678365 -0.4903732836 0.7665349841
0.20518206 -0.072854504 1.6960001 -0.08752965182 0.8198693395 0.5658205152
-0.037543248 -0.35591003 1.7129999 -0.6087385416 -0.4294268489 0.6671056747
-0.2272913 -0.49783242 3.1490002 -0.2583130002 0.8284296989 0.4969694316
0.12424646 -0.14626482 1.794 -0.09879701585 0.8755333424 0.4729487896
0.10393059 -0.052677143 1.6240001 -0.2148284614 0.8261348605 0.5209125876
-0.054186765 -0.19042778 1.7660002 -0.3491278887 0.811804235 0.4680636525
0.25437361 -0.3364296 3.1200001 -0.1361120194 0.8803364038 0.4544021785
-0.0029736534 -0.12638026 1.6960001 -0.3843247294 0.8393954039 0.3843304217
0.43617848 -0.22913173 3.1490002 -0.2938584089 0.8507721424 0.4356993735
0.49854717 -0.38054785 3.3650002 -0.2859574854 0.8481500745 0.4459481537
0.070438415 0.009303187 1.516 -0.3811166883 0.6288486719 0.6777163148
-0.022295386 -0.02754136 1.4960001 -0.4325355887 0.6612256169 0.6129385233
0.0064562992 -0.076633468 1.6010001 -0.3396888375 0.8499785066 0.4026760757
-0.2212014 0.33546439 1.6710001 -0.9709632397 -0.1685855836 -0.1697328538
0.1045688 -0.0898408 1.6799999 -0.1261613369 0.8567590117 0.5000473261
0.01207696 -0.44684753 1.7220001 -0.5643002391 -0.2814078033 0.7761281729
0.22588134 0.0023415766 1.6036667 -0.296294868 0.6921198368 0.6581637263
0.13301225 -0.37712884 1.7850001 -0.4611687362 -0.4540560544 0.7623361945
-0.14502172 -0.30484155 1.6879998 -0.08227527887 -0.6283859015 0.7735385895
0.22728372 -0.44026288 1.8130001 -0.4211598635 -0.2823738456 0.8619103432
-0.060721438 -0.26001233 1.7760001 -0.1924098879 -0.8844031692 0.4252170026
-0.38072845 -0.49255079 3.0370002 -0.2751178443 0.8263648152 0.4913566411
-0.095295422 -0.14583087 1.6470001 -0.3642632961 0.839073956 0.4040632546
-0.1112902 -0.19056542 1.7390001 -0.3661473989 0.8560934663 0.3647465408
0.032696161 -0.32851857 1.7760001 -0.448210448 -0.3910598457 0.8038529754
0.18566748 -0.12650301 1.7760001 -0.2476176023 0.8111656904 0.5298072696
-0.094546743 -0.11262186 1.5860001 -0.304063201 0.8525657058 0.4250614643
0.23404954 0.071836986 1.5860001 -0.4922937751 -0.2634032071 0.8296177387
0.46592641 -0.2103325 3.0370002 -0.3189527094 0.8709776402 0.3737207055
-0.17057391 -0.46506903 1.6630001 0.5067484975 0.209094584 0.8363524079
0.16342558 -0.18323474 1.883 -0.7900298834 -0.6085499525 -0.07429531217
-0.0061296532 -0.15170892 1.748 -0.3810224831 0.8363146186 0.394207716
0.1434253 0.027478678 1.529 -0.4129994214 0.5474498868 0.727825582
-0.024292933 -0.068225212 1.552 -0.3646779358 0.8093438148 0.4604048133
0.48310909 -0.26225922 3.1490002 -0.2874637544 0.8455273509 0.4499423206
-0.032180678 -0.31107992 1.748 -0.5376750231 -0.4560578763 0.7091662288
-0.082237467 -0.050908908 1.4890001 0.0679775551 0.6113220453 0.7884569764
0.07059709 -0.040143441 1.5790001 -0.3336694241 0.7677310705 0.5470409393
0.064482339 -0.15255578 1.794 -0.2373516113 0.8398646712 0.4881511927
0.166152 -0.0055615734 1.5860001 -0.3532755077 0.7270228267 0.5887565017
-0.19028576 0.30188191 1.6320001 -0.9517511725 -0.3032904565 -0.04673921317
0.23485023 -0.2929031 3.0100002 -0.1353675723 0.8434433341 0.5198835731
0.0751587 -0.37494424 1.7760003 -0.1520490795 -0.4713013768 0.8687669635
0.19260718 -0.23411734 1.8940001 -0.4026784301 -0.3175180554 0.8585059047
0.14145631 -0.29721716 1.8130001 -0.2246455997 -0.4866907597 0.8441957235
0.20630683 -0.30377463 1.853 -0.5238726735 -0.3661020994 0.769107759
-0.17825 0.22737402 1.6010001 -0.4850736856 -0.3130859137 0.8165051937
-0.14811283 -0.11550083 1.5500001 -0.2938444614 0.8470901847 0.4428246617
0.15528046 -0.074710406 1.6710001 -0.2296393514 0.8260409236 0.5147058368
0.23477659 -0.092995919 1.7390001 -0.06002155319 0.8684079647 0.4922042489
0.22416148 -0.042801056 1.6550001 -0.2216089517 0.7718609571 0.5959195495
-0.22750464 0.16151093 1.9810001 -0.7405494452 -0.6571244597 -0.1406200528
-0.12625754 -0.082399651 1.516 -0.414681673 0.6926208138 0.590182662
0.04386051 -0.18681328 1.853 -0.1811871678 0.9103336334 0.372107327
-0.031954501 0.031954501 1.4580001 -0.2934348583 -0.05498339608 0.9543965459
0.23212175 -0.35599184 1.8430001 -0.5291019082 -0.5070126057 0.6804332137
-0.17835082 -0.2452054 1.7220001 0.4227396548 -0.07307380438 0.9033002853
0.062951684 0.064263172 1.4960001 -0.2594969273 -0.3908745646 0.883107245
0.30247945 -0.04405776 1.6864001 -0.277818799 0.6760414243 0.6824842095
-0.08807607 -0.44904357 1.6470001 -0.5016542077 -0.2271732986 0.8347067833
-0.12449864 0.014257815 1.5089999 -0.01862686686 -0.3886463344 0.9211987257
0.2224945 -0.2772879 1.8940001 -0.5513323545 -0.6638178825 0.5053498745
0.31043205 0.01010709 1.6470001 -0.4412476718 0.5640383959 0.6979693174
0.0160693 -0.25228801 1.8330001 -0.1754831225 -0.8021696806 0.5707271695
0.20542952 -0.39536247 1.813 -0.4232367277 -0.3918555081 0.8168964982
0.1157916 -0.26228145 1.8430001 -0.3259984255 -0.6933848262 0.64260602
-0.013242529 -0.40505752 1.7130001 -0.7297606468 -0.2585971653 0.6329114437
-0.044826247 -0.13506469 1.6710001 -0.3282350302 0.8407658935 0.4305514097
-0.1825211 -0.41292137 1.6550001 0.07574576885 -0.2934061587 0.9529823661
-0.0043316102 -0.10540251 1.6470001 -0.3358824849 0.8343187571 0.4371443391
0.055352733 -0.29574171 1.804 -0.16924797 -0.3598738015 0.9175216556
0.27492705 -0.414296 1.863 -0.7992291451 -0.2791447937 0.5322695971
0.047749404 -0.43282524 1.7570001 -0.3932983577 -0.2436668426 0.886534214
0.1446237 -0.1719415 1.8330001 -0.1049953699 0.8835968971 0.4563250244
0.25403461 -0.060672347 1.6880001 -0.11833103 0.8331438303 0.5402491093
-0.094763279 -0.40529522 1.6630001 -0.3616702855 -0.2310019135 0.903234601
-0.18113862 -0.22448802 1.7660002 -0.9430254102 -0.002520757727 0.3327112198
-0.054201666 -0.47170103 1.6710001 -0.291416049 -0.2942508757 0.9102159739
-0.19517092 -0.32506567 1.688 0.2834534347 -0.5587716699 0.7793768644
0.025677273 -0.0063134613 1.5063334 -0.4146688879 0.6797820926 0.604934752
0.10573652 -0.1261687 1.748 -0.1916441768 0.8689914346 0.4562087357
-0.0015324133 -0.34785783 1.748 -0.5739466548 -0.464228034 0.6745944023
0.056195501 -0.064695664 1.6160001 -0.285831511 0.8263767362 0.4851822853
-0.14508833 -0.37577876 1.6550001 -0.04675895348 -0.1867389977 0.9812961817
0.093958504 -0.47595373 1.7570001 -0.286901921 -0.2645755112 0.9206992388
0.064528272 -0.10318577 1.6960001 -0.2239229977 0.8704819083 0.4383147061
0.27043763 -0.43175131 1.8040001 0.2237877548 -0.2704627514 0.9363594055
-0.076677777 -0.33496079 1.6960001 -0.5359413624 -0.4347969294 0.7236839533
0.17593649 -0.4748728 1.7760001 -0.3698507547 -0.1876142323 0.9099512696
0.18804027 -0.09630131 1.7326 -0.2609378099 0.8109221458 0.5237525702
0.13469282 -0.44433147 1.7659999 -0.1908014864 -0.1907751709 0.9629120827
-0.12447264 -0.4749991 1.6320001 0.002450795611 -0.2348955125 0.9720175266
-0.055855691 -0.094544746 1.5760001 -0.3317345083 0.8604054451 0.3868522346
0.1645781 0.06357675 1.5430001 -0.5374093056 -0.1289621294 0.8334026337
0.2737366 0.0067686457 1.6160001 -0.4937728345 0.5473642349 0.6757076383
-0.19144471 0.32280093 1.5940001 -0.5554005504 0.2490075827 -0.7934263945
-0.10267169 -0.26510751 1.748 -0.2796255648 -0.7536414862 0.5948395133
-0.18644807 -0.17276926 1.6960001 0.403026551 0.7693132162 0.4957083762
-0.0223024 -0.45496896 1.6960001 -0.6388475299 -0.1315127611 0.7580093741
-0.044300888 -0.058034167 1.5159999 -0.3793646693 0.7683005929 0.5155547261
-0.13508762 -0.15306903 1.6345456 -0.08763439208 0.8684899211 0.487899065
-0.065680943 -0.38554829 1.6879998 -0.5736630559 -0.1861743927 0.7976526618
0.24635649 -0.49483213 1.8130001 -0.5957345366 -0.2154172957 0.7737542987
0.14387678 -0.032442804 1.6090001 -0.2723314762 0.7628103495 0.5864775777
0.22410493 -0.13827752 1.8130001 -0.1782785058 0.8415590525 0.5098972321
0.25277349 0.03531599 1.5860001 -0.5329784751 0.1705460548 0.8287628889
0.01746846 -0.49493971 1.7220001 -0.5673308969 -0.2317231148 0.7902151942
-0.10478221 -0.16381845 1.6834286 -0.3360253572 0.849317193 0.407120645
0.035608448 -0.14553018 1.766 -0.2006887943 0.8538820744 0.4802180529
0.093774401 -0.28450203 1.813 0.08605033159 -0.5135806799 0.853715539
-0.16515887 -0.33677414 1.6630001 -0.0396765992 -0.5314445496 0.8461633921
-0.024220197 -0.18338148 1.794 -0.4254144728 0.7853065133 0.4497957528
0.1660582 -0.15024313 1.8040001 -0.1091887355 0.8717272282 0.4776708484
-0.044736825 -0.16404344 1.7358001 -0.3414086401 0.8210584521 0.4574966431
0.13506067 -0.3355957 1.8040001 -0.1369099766 -0.2894669175 0.9473460317
0.16696191 -0.3838543 1.804 -0.2315347791 -0.292730093 0.9277395606
-0.10539023 -0.024693945 1.5089999 0.607224226 -0.02830597758 0.7940261364
0.14475608 -0.12772594 1.766 -0.1549546272 0.8193002343 0.5520291328
-0.0090638567 0.0064741834 1.4770001 -0.5161374807 0.3145535886 0.7966543436
-0.13352802 -0.18883252 1.705 -0.2883341312 0.8713735938 0.3969528079
-0.17555688 -0.15524451 1.6550001 0.3272674382 0.8139158487 0.4800385833
0.49424362 -0.21488854 3.0640001 -0.3143983185 0.8465369344 0.4295683503
-0.15617992 -0.27782005 1.7130001 0.3040384054 -0.2028099 0.930821538
0.17469624 -0.29498643 1.8330001 -0.4063997269 -0.4388491511 0.8014054298
0.034586255 -0.053162571 1.5780002 -0.3481839001 0.8094415069 0.4728344679
-0.21213229 0.33457109 1.6240001 -0.9235307574 -0.04760197923 -0.3805587888
0.10601196 0.021095581 1.5230001 -0.3162558079 0.5995754004 0.7351813316
0.10068429 -0.16141449 1.8230001 -0.1338660717 0.863640666 0.4860089719
0.21808924 -0.35059917 3.1490002 -0.0944794789 0.8675616384 0.4882728755
0.1062029 -0.02934554 1.5940001 -0.27101174 0.7552491426 0.5967841744
0.1051211 -0.10737368 1.7130001 -0.1839257032 0.8762581348 0.4453572333
0.050908908 0.026107132 1.4890001 -0.3512436152 0.2229508311 0.9093518853
0.067262255 -0.016985416 1.5500001 -0.36973387 0.79215312 0.4855824113
-0.034378484 -0.14598399 1.705 -0.3185032606 0.8806115389 0.3508261442
-0.1152238 -0.098438263 1.5523334 -0.1282811612 0.8492898345 0.5121041536
0.23893024 -0.018599359 1.6320001 -0.2286694795 0.7945357561 0.5625150204
-0.02597524 -0.27471831 1.7659999 -0.4090812206 -0.55531317 0.7240716815
-0.1076687 -0.13175248 1.6160001 -0.3344892859 0.8230853081 0.4589635432
0.034378484 -0.12107205 1.705 -0.2872132957 0.8702508211 0.4002150297
0.1849449 -0.05420167 1.6710002 -0.2818244994 0.7746794224 0.566080153
0.19816524 -0.45294911 1.794 -0.5981370807 -0.2812009752 0.750438571
0.06488543 -0.17356053 1.8230002 -0.2181860209 0.8327095509 0.5089102983
0.075081244 -0.076525107 1.6470001 -0.2600158155 0.8564667702 0.4459332526
0.49380615 -0.36524126 3.3330002 -0.2828867137 0.851827085 0.4408693016
-0.11509319 -0.29396096 1.705 -0.1926395595 -0.7195463181 0.6671904325
0.16591355 -0.091177724 1.705 -0.2237399817 0.8251528144 0.518713057
0.19539762 -0.26764545 1.8730001 -0.6042409539 -0.6152820587 0.5062813759
-0.11542543 -0.32555893 1.6879998 -0.3169859946 -0.3745123446 0.871355474
-0.0061585838 -0.042056683 1.5278 -0.4327978194 0.7636058927 0.4791576564
0.21674708 -0.10992172 1.766 -0.1665681601 0.8526091576 0.495290488
0.067627817 -0.34443006 1.794 -0.3353162706 -0.286079973 0.8976197839
-0.056287263 -0.31637317 1.7220001 -0.497301966 -0.3471323252 0.7951036692
-0.0046708798 -0.31294897 1.7760001 -0.4793593884 -0.3331767023 0.8119161725
0.144637 -0.054129466 1.6364547 -0.249756366 0.7560181618 0.6050274968
0.10484495 -0.35678577 1.7850001 -0.2147884816 -0.6929776073 0.6882208586
-0.024752859 -0.094792396 1.6042 -0.392703563 0.8186103106 0.4191193581
-0.054191709 -0.28349641 1.7479999 -0.3981723487 -0.6302626729 0.6665041447
0.15287665 0.0095547903 1.557 -0.3469687402 0.7520729899 0.5603560209
0.10431632 -0.39391088 1.7760001 -0.1707513034 -0.2455782145 0.9542197585
0.094196081 -0.14246184 1.7760001 -0.130391717 0.8844134808 0.4481191635
0.19042514 -0.01269501 1.6090001 -0.09828238934 0.7742903829 0.6251519918
0.26262155 -0.36767018 1.853 -0.3811309636 -0.4460033476 0.8098272681
0.053910617 -0.39893857 1.7570001 -0.3367162943 -0.4477126598 0.8283571005
-0.20358567 0.35807976 1.6470001 -0.9681434631 -0.120428212 -0.219534263
-0.053628985 -0.028277101 1.4829999 -0.1971053332 0.621768713 0.7579928637
0.062505454 -0.45735699 1.7390001 -0.4200973809 -0.2153978348 0.8815452456
0.24124815 -0.31714645 3.0920002 -0.1978197098 0.8760210872 0.4398345351
0.044897605 -0.36421248 1.7659999 -0.2619797587 -0.277717948 0.9242506623
-0.12850618 0.033817418 1.5430001 -0.2671668828 -0.400762707 0.876362443
0.23342477 -0.38529149 3.2080002 -0.0944794789 0.8675616384 0.4882728755
-0.08519797 -0.39137819 3.0370002 -0.3010413349 0.7928363085 0.5298911929
0.25550187 -0.42637205 1.8330001 -0.3985819817 -0.4815120697 0.7805629373
-0.22200005 0.19529328 1.904 -0.9692434669 -0.2297410965 -0.08823904395
-0.17098594 -0.44255185 1.6390001 0.4160486758 0.132641077 0.8996164799
0.26031128 -0.10320032 1.7570001 -0.03268611804 0.8509535193 0.52422297
0.19058383 0.067184225 1.5640001 -0.3720323145 -0.1378358603 0.9179287553
0.0052102054 -0.056763817 1.5640001 -0.467428416 0.7570877075 0.4564305842
-0.17594115 -0.29786095 1.6960001 0.01466042269 -0.7638741732 0.6451986432
-0.037733134 -0.0023101917 1.4640001 -0.2354312688 0.379050076 0.8949263096
0.30528358 -0.017786339 1.6630001 -0.459554106 0.64933604 0.6059478521
-0.1549738 -0.48500434 1.6368126 0.468067795 -0.1075419262 0.8771244287
0.26369694 -0.4570747 1.8230001 -0.1629928499 0.0515916273 0.9852774143
0.14510867 -0.40574375 1.7760003 -0.1084060445 -0.3706833124 0.922410965
0.23621871 -0.39048398 1.8330001 -0.5208013058 -0.3821061254 0.7633877993
0.13404232 0.062329687 1.5290002 -0.2923923135 -0.3923560977 0.8721028566
0.49521321 -0.19702031 3.0370002 -0.3189527094 0.8709776402 0.3737207055
0.021613926 -0.2662203 1.8040003 -0.271171838 -0.5423359871 0.7951965332
-0.23282163 -0.35577238 2.9840002 -0.2751178443 0.8263648152 0.4913566411
0.12477597 -0.071093284 1.6550001 -0.1818811744 0.8386982083 0.5133269429
-0.076501444 -0.12183563 1.6160001 -0.3792705238 0.8299610615 0.4090458155
-0.19794871 0.2394764 1.5790001 -0.7185534239 -0.1089174375 0.6868900657
0.13530123 -0.090696424 1.6960001 -0.2081452757 0.8529804349 0.4786438644
0.028474133 -0.078303866 1.6240001 -0.3256014287 0.8283767104 0.4558242857
-0.083007529 -0.17666288 1.7342001 -0.3683975041 0.8441762924 0.3894221783
-0.17379917 0.26000354 1.5860001 -0.5583915114 -0.04883849993 0.8281387091
0.21179126 0.016611081 1.5790001 -0.2274982184 0.630274713 0.742292583
-0.06425222 -0.12778249 1.6470001 -0.352501452 0.8325607777 0.4272999763
-0.074710414 -0.14649099 1.6710001 -0.3635487258 0.830828011 0.4213753343
0.24478199 -0.078089952 1.7130002 -0.1229619831 0.8367128372 0.5336590409
-0.28461859 -0.43370456 3.0920002 -0.2751178443 0.8263648152 0.4913566411
-0.098347977 -0.067780361 1.516 0.02057948336 0.6647595763 0.746773839
0.18527824 -0.20530832 1.9039999 -0.9182186723 -0.3165113032 0.2381072044
0.30175567 0.026917173 1.6160001 -0.5574151278 0.4412516356 0.7032676339
0.20627059 -0.33337212 1.8430001 -0.6418912411 -0.314024657 0.6995456815
0.0046708803 -0.16036688 1.7760001 -0.2635460198 0.8743587136 0.4074804783
0.093336068 -0.0013526967 1.5430001 -0.3134872317 0.7402238846 0.5948061347
-0.1661108 0.20902276 1.5790001 -0.3557088375 -0.455876857 0.815872252
0.16588935 -0.32378787 1.8230002 -0.4054298699 -0.2232101262 0.8864557743
0.084564038 0.044923354 1.5071253 -0.4174378514 -0.07962995023 0.9052097797
-0.20228906 -0.22493339 1.7220001 -0.5622016191 -0.0730291605 0.8237694502
0.2040801 -0.36437133 1.8330001 -0.3199685216 -0.4479342997 0.8348502517
0.0146491 -0.10986825 1.6710001 -0.3077680767 0.8693728447 0.3866131306
-0.12606232 -0.12235462 1.5860001 -0.06204308569 0.8629828095 0.5014093518
-0.1355844 -0.34552151 1.6630001 -0.2265420407 -0.5769466162 0.7847364545
0.2551319 -0.042279001 1.6630001 -0.2123611569 0.7641129494 0.6091257334
-0.15431578 0.086449146 1.536 -0.2147435695 -0.02418866009 0.9763708711
0.22428641 -0.3309592 3.1200001 -0.0944794789 0.8675616384 0.4882728755
-0.015096202 -0.37589541 1.7220001 -0.5508543253 -0.3021302521 0.7779954076
0.20459296 -0.02718368 1.6320001 -0.0543933697 0.8281024098 0.5579316616
0.044680774 -0.012957425 1.5290002 -0.3771020472 0.7489075065 0.5449143052
0.027365675 -0.30165154 1.794 -0.4999455214 -0.462477237 0.7322357893
-0.0021024221 -0.47364563 1.7130001 -0.6704429984 -0.1815517694 0.7194061279
0.025857283 -0.13385297 1.7350001 -0.2501638234 0.885820806 0.3908190429
-0.027093383 -0.17262354 1.766 -0.4449760616 0.8003323078 0.4018264115
-0.088592298 -0.015786888 1.4829999 0.4778266847 0.3682551682 0.7975398302
-0.36678857 -0.47761676 3.0100002 -0.2751178443 0.8263648152 0.4913566411
0.025905211 -0.42512462 1.7381113 -0.4250757098 -0.2070358843 0.8811621666
-0.11868612 -0.39764181 1.6470001 -0.341106683 -0.3746815026 0.8621252775
0.14582889 -0.27518678 1.8330001 -0.2362343669 -0.513282299 0.8250664473
-0.083089069 -0.096251689 1.5640001 -0.3146951199 0.8580857515 0.4057780802
-0.10361937 -0.17870587 1.7129999 -0.3577246964 0.8535523415 0.3787894547
-0.18628904 0.28549686 1.6074002 -0.7846400738 -0.3151159585 0.533893168
-0.0047182203 -0.25321114 1.794 -0.590836823 -0.3042587936 0.7472204566
0.19610682 -0.13600957 1.8040001 -0.2533057928 0.8179965019 0.5164473653
0.23448515 -0.33434549 1.863 -0.4014460742 -0.272192359 0.8745012283
0.066572316 -0.14088559 1.7660002 -0.1603135318 0.8780241013 0.4509691894
-0.041852068 -0.38414216 1.705 -0.5624386072 -0.2996305227 0.7706389427
0.035014942 -0.47441137 1.7363335 -0.3505444527 -0.1103165597 0.9300262332
0.13486814 -0.01668472 1.5860001 -0.2690080702 0.7855172753 0.5573125482
0.21843202 0.044788897 1.572 -0.6138375998 0.100431025 0.7830178738
0.25684842 0.061755907 1.6010001 -0.5186268687 -0.2594920695 0.8146717548
-0.13824332 -0.45810041 3.0920002 -0.2760519087 0.8068671227 0.5222651362
-0.087722771 -0.30628628 1.6960001 -0.4482947886 -0.4387660921 0.7787914276
0.042463981 -0.17142867 1.794 -0.2383492291 0.8116412759 0.5333180428
-0.025276056 -0.42523241 1.6960001 -0.5534585118 -0.2612645328 0.7908378243
-0.051635668 -0.077453502 1.5500001 -0.3677261174 0.8089615703 0.458648771
0.16713651 0.035329666 1.5500001 -0.5763174295 0.356644243 0.7352979779
-0.14505365 -0.45526743 1.6382222 0.07478699833 0.006634719204 0.9971774817
-0.088931695 -0.37613735 1.6630001 -0.4270166159 -0.2794722319 0.8599721193
0.17327608 -0.1727346 1.853 -0.1659249812 0.9074099064 0.3861037791
0.19579051 -0.4260579 1.8040001 -0.6748592257 -0.1695734411 0.7181990743
0.47761676 -0.19790749 3.0100002 -0.3139227331 0.8762298226 0.365614295
0.22705916 -0.47558165 1.804 -0.6190761924 -0.216685459 0.7548457384
-0.10655761 -0.42709675 1.6470001 -0.4893227816 -0.280785799 0.8256649375
-0.15593797 -0.40572742 1.6470002 0.2566694617 -0.3594453633 0.8971732259
-0.096628606 -0.47595876 1.6390001 -0.4733869731 -0.1785917133 0.8625600338
0.016256031 -0.36459953 1.766 -0.4877968431 -0.1749975532 0.8552368879
-0.038634259 -0.49422696 1.6630001 -0.5224815011 -0.1975421309 0.8294517398
-0.15213804 0.026138255 1.529 -0.2599953711 -0.5470275879 0.7957155704
0.12508367 -0.1770665 1.853 -0.06304092705 0.8634821773 0.5004242063
0.12241904 0.008792528 1.5430001 -0.3064282537 0.7289164662 0.6121948361
0.15498766 -0.35583901 1.8040003 -0.1673754305 -0.3430663347 0.9242786169
-0.0075480998 -0.14039466 1.7220001 -0.3860198557 0.849247396 0.3602325618
-0.0028182329 -0.42425245 1.7310001 -0.6315925717 -0.2091902494 0.7465455532
-0.17269894 -0.19071971 1.7130001 0.1909102798 0.795301497 0.5753684044
0.089577802 -0.01791556 1.572 -0.2756853402 0.7846931815 0.555206418
-0.19879381 -0.26252922 1.7310001 0.3133743107 -0.1863408387 0.9311679006
-0.14326908 -0.0055819126 1.516 0.1059200093 -0.1648988426 0.9806066155
-0.12773946 -0.054558121 1.4960002 -0.119181335 0.1959336549 0.9733477235
0.28101024 -0.060959894 1.6960001 -0.2199692428 0.7892418504 0.5733330846
0.17639937 0.0206718 1.572 -0.3666597903 0.6364492774 0.6785962582
0.024801776 0.015664279 1.4890002 -0.3239474893 0.3420543671 0.8820753098
0.08442533 -0.046437323 1.6049999 -0.2760152817 0.8047896624 0.5254799128
0.0022048166 -0.023371056 1.5090002 -0.4453373849 0.6793587208 0.5832206607
0.23429443 -0.30085534 3.0370002 -0.1853109598 0.8592500687 0.4768114388
-0.034523353 -0.33499035 1.7310001 -0.5335757732 -0.3285068572 0.7793459892
0.24317768 -0.41165373 1.8130001 -0.4949884415 -0.1945608109 0.8468368053
-0.01170087 0.037702803 1.483 -0.4586015642 -0.1998093128 0.8658872843
0.23480552 -0.2972014 1.8730001 -0.5790675879 -0.5643125176 0.5884149075
-0.06560535 -0.44465849 1.6630001 -0.5579536557 -0.1062259227 0.8230454326
-0.014160797 -0.12256414 1.6710001 -0.3640602529 0.8459684253 0.3896120489
0.065920949 -0.0893595 1.6710001 -0.269479543 0.8509610891 0.450828135
0.084980562 -0.11988329 1.7310001 -0.1090627387 0.8691081405 0.4824483097
-0.16087885 -0.14379437 1.6240001 0.1230895892 0.8459950686 0.5187882781
-0.0023728444 -0.08874438 1.6240001 -0.3708681166 0.8118811846 0.4508944154
0.17367351 -0.11390939 1.748 -0.1618853509 0.8738660812 0.458422482
0.047364019 -0.25716436 1.8130001 -0.241385296 -0.6576201916 0.7136307359
0.18505907 -0.40314567 1.794 -0.4639555216 -0.4797443748 0.7447084188
-0.027620699 -0.081490114 1.5755 -0.4039639831 0.8348820806 0.37387833
0.228284 -0.057439201 1.6800001 -0.1520528197 0.8041240573 0.574686408
0.11449317 -0.49584523 1.748 -0.1967963874 -0.4950926304 0.8462591171
-0.034652881 -0.11839734 1.6470001 -0.3191297054 0.8458834887 0.4273608923
0.11602595 -0.30516419 1.8129998 -0.1182714328 -0.1492705196 0.981697619
0.092094712 -0.25043297 1.8430001 0.08894579113 -0.5475338697 0.8320428133
0.1142963 0.0451869 1.5160002 -0.2809215784 0.01640790515 0.959590435
-0.075050235 -0.47417507 1.655 -0.4782323837 -0.3295408189 0.8140618205
-0.068564683 -0.3586081 1.6880001 -0.5569226742 -0.3066080809 0.7718994021
0.21587566 -0.086803146 1.7220001 -0.1359471679 0.8641995192 0.4844352901
-0.20635039 0.30137405 1.5940002 -0.5173693299 -0.324842155 0.7917111516
-0.17555688 -0.38448405 1.655 0.1477571726 -0.09801294655 0.9841551185
0.19136231 -0.37481704 1.8040003 -0.5120157599 -0.2981739938 0.8055632114
0.0045525301 -0.39455259 1.7310003 -0.5495375395 -0.160351783 0.8199364543
0.080799736 -0.49851912 1.7390001 -0.3479580879 -0.3799046576 0.8570867181
-0.16351447 -0.18302837 1.6864001 0.2274271399 0.8667532802 0.4438644052
0.1161145 -0.46600622 1.7659999 -0.1577372253 -0.1325678527 0.9785421491
-0.19098444 -0.33677411 1.6630001 0.3642376363 -0.5347789526 0.7624581456
0.067122862 -0.28287491 1.8230001 -0.2470428944 -0.5965065956 0.7636424303
-0.030965619 -0.47480088 1.6820002 -0.6574119329 -0.2828192711 0.6984431148
0.18681328 -0.28103215 1.853 -0.568806231 -0.4986909628 0.6540388465
0.13350931 -0.16052906 1.8130001 -0.03129609302 0.8325064182 0.5531307459
0.26153859 -0.39312011 1.853 -0.7289580703 -0.07116593421 0.6808491349
0.24293485 -0.3450779 3.1490002 -0.0944794789 0.8675616384 0.4882728755
0.2561515 -0.34317729 1.8730001 -0.389392823 -0.3914680183 0.8337422013
-0.075474866 -0.26801279 1.7570001 -0.3071877658 -0.7598636746 0.5729248524
0.075859942 -0.44553277 1.7570001 -0.4176410437 -0.05208962411 0.907117784
0.062909603 -0.31769347 1.794 -0.2565302849 -0.4324127734 0.8644139171
0.26486844 -0.088291474 1.732143 -0.136432752 0.8443645239 0.5181068778
0.21181756 -0.2873494 1.8730001 -0.5047699213 -0.6211676598 0.5994647741
-0.1428616 -0.32843441 1.6800001 -0.2780064046 -0.5474188328 0.7893320322
0.15481932 -0.46600625 1.7660002 -0.2131906897 -0.1723217219 0.9616937637
-0.10416378 -0.27927971 1.7220001 -0.2044183463 -0.7437072992 0.6364845634
0.19018143 -0.3180345 1.8230001 -0.5348118544 -0.4384517968 0.7223131657
-0.073539473 -0.066894345 1.5159999 -0.2009925395 0.7958844304 0.5711129308
-0.12272895 -0.44904357 1.6470001 -0.06268421561 -0.1758838147 0.9824131131
0.16636795 -0.057551701 1.6550001 -0.4410820603 0.7278923988 0.5249945521
0.098183163 -0.067861892 1.6470001 -0.1625901759 0.828635335 0.5356565118
-0.063961469 -0.1068698 1.601 -0.3452654183 0.8534458876 0.3904125094
0.28638989 -0.03369293 1.6710001 -0.3593206108 0.7068633437 0.6092888713
-0.06007446 0.02172906 1.4580001 0.0333160609 0.05220520869 0.998080492
0.18201704 -0.072510853 1.6880001 -0.3270861506 0.7609024644 0.5603945851
0.24749148 0.013567585 1.6010002 -0.375180155 0.6035187244 0.7035658956
0.21438445 -0.12518799 1.785 -0.1371444166 0.8431179523 0.5199456811
-0.042711198 -0.4521496 1.6800001 -0.4952110946 -0.2989895642 0.8157029152
0.11521504 -0.4157083 1.7760003 -0.2108107507 -0.2046974301 0.9558544755
-0.078637876 -0.42568916 1.6550001 -0.373010993 -0.2353715897 0.8974758983
0.081151277 -0.061219387 1.6240001 -0.2878053188 0.817070663 0.4995634556
0.075861476 -0.40407848 1.7659999 -0.2224831879 -0.2824997306 0.9331104755
-0.12332508 -0.15814628 1.6550001 -0.3169794679 0.866412282 0.38581568
0.010837353 -0.32976517 1.766 -0.3538083434 -0.3939213157 0.8483192921
-0.12246332 -0.37467945 1.6630001 -0.2939425409 -0.1831347942 0.9381148219
0.15413903 -0.43439183 1.7760001 -0.177757591 -0.1682535559 0.9695839286
0.035149366 -0.06748464 1.6036667 -0.36513412 0.8330677748 0.4155420065
0.28338006 -0.0036719674 1.6390001 -0.4676873982 0.5508790016 0.6912314296
0.16565669 -0.49387372 1.7659999 -0.2496183962 -0.1360864639 0.9587341547
-0.045609459 -0.25635663 1.794 -0.09827757627 -0.9001408815 0.4243676662
-0.075474866 -0.1848364 1.7570001 -0.327548027 0.812762022 0.4817989469
-0.10490927 -0.084588438 1.5360001 -0.1121783555 0.7896322608 0.6032387018
-0.013422644 -0.32412383 1.7570001 -0.6297707558 -0.3627635241 0.6868707538
0.118613 -0.35267597 1.8040001 -0.2254878283 -0.493400842 0.8400659561
-0.044604797 -0.40590373 1.6960001 -0.453140676 -0.2746982276 0.8480591774
0.04616059 -0.037933949 1.5640001 -0.4188733101 0.742333293 0.5229593515
0.096415803 -0.27157116 1.8330001 0.1367964 -0.6824663877 0.7180016637
-0.15297131 -0.12265268 1.572 -0.2147001475 0.8973250985 0.3856312633
0.20460415 -0.47454071 1.785 -0.4638499916 -0.2014066428 0.8627157807
-0.16510132 -0.31545752 1.6815002 0.08513487875 -0.6236795783 0.77703017
0.27430344 0.035164952 1.6045556 -0.4394361377 0.2300725728 0.8683101535
0.035394538 -0.10764238 1.6820002 -0.3166771233 0.8633235097 0.3929225504
0.051704045 -0.051704045 1.5940001 -0.3614705205 0.8162327409 0.4506696463
-0.058567468 -0.33788925 1.7130001 -0.5639404655 -0.3866481185 0.7297084332
-0.1261348 -0.17399378 1.6847999 -0.3235991597 0.8361651301 0.4428447783
0.11602595 -0.27734971 1.8130001 -0.214907527 -0.5724295378 0.7912895679
0.035410319 0.048525255 1.4959999 -0.1983477175 -0.3421459198 0.9184738994
0.15179045 -0.13927165 1.7850001 -0.08247172832 0.871540904 0.4833372533
0.18430513 -0.18430513 1.8940001 -0.9220981598 -0.3629212677 0.1342502683
-0.085205577 -0.27540633 1.7356668 -0.3636928797 -0.7061886191 0.6074744463
0.22454193 -0.36837661 1.8230001 -0.4216707647 -0.4082029462 0.809669137
0.19492245 -0.041872229 1.647 -0.1097972989 0.8134986162 0.5711081624
0.19561853 -0.11244214 1.7570001 -0.2297789305 0.8683751225 0.43946141
-0.15449409 -0.16026957 1.647 0.1401496083 0.8488605022 0.5096998811
0.095324464 -0.454063 1.7659999 -0.2181909531 -0.0783668384 0.9727545381
-0.0055370266 -0.07059709 1.5790001 -0.417386353 0.8295910954 0.3709005415
0.033377331 -0.18278061 1.8130001 -0.2129266113 0.8807929754 0.4229255617
-0.18982902 -0.27951202 1.705 0.01144778822 -0.563728869 0.8258805871
-0.13061632 -0.092912637 1.536 -0.3400126398 0.7903833985 0.5095934272
0.16551378 -0.16229993 1.8330001 -0.1592387855 0.8795601726 0.4483490586
0.2055238 -0.14735065 1.8230002 -0.2344022244 0.8053284883 0.5445196629
0.12719031 -0.11799583 1.748 -0.1801209003 0.8500202894 0.4949969649
0.47275478 -0.22294685 3.0640001 -0.3214387298 0.8710996509 0.3712984324
0.18527824 -0.44591331 1.7760003 -0.4622788429 -0.1526218653 0.8735014796
0.07841257 0.065122306 1.516 -0.3903467357 -0.3458255827 0.8532491326
0.21157035 0.061423648 1.557 -0.4771810472 -0.1095514521 0.8719499707
0.062828943 -0.41834885 1.748 -0.299392432 -0.2599003911 0.9180501103
0.1649424 -0.023967775 1.6081113 -0.3301259279 0.7414965034 0.5841231346
0.19522491 -0.084096879 1.7130002 -0.2242241055 0.8239972591 0.5203383565
0.12325232 -0.043917492 1.6160001 -0.2559328079 0.8176629543 0.5156797767
0.16386215 -0.39680126 1.785 -0.2409236878 -0.5968341231 0.7653396726
0.046945497 -0.34583187 1.785 -0.3582830727 -0.4167946279 0.8354133368
0.24771531 -0.47465453 1.8230001 -0.4425716102 -0.0006985501968 0.8967328668
0.19703434 0.0027948134 1.594 -0.1616964787 0.746748209 0.6451522112
0.034807675 -0.40696523 1.748 -0.4561192095 -0.281632185 0.844179213
-0.16394982 -0.49475121 1.6550001 0.5824169517 -0.05685193464 0.8108996749
0.084613413 -0.36078656 1.794 -0.008210337721 -0.6649755239 0.7468200326
0.01174821 -0.0026107132 1.4890001 -0.3443454504 0.5322694778 0.7733792067
-0.016943337 -0.29727855 1.7570001 -0.5263237357 -0.3219991624 0.7869560719
-0.1139847 -0.14550087 1.6340001 -0.3264882863 0.8481115103 0.4172676206
-0.13162625 -0.10831743 1.5640001 -0.2394682318 0.8588938713 0.4527209997
-0.1144576 -0.49502918 1.6320001 -0.1583278626 -0.1181542277 0.9802917242
-0.17561911 -0.28431177 1.7220001 0.04449319094 -0.3445802033 0.9377018809
-0.024871785 -0.04537677 1.5159999 -0.4530906081 0.7338841558 0.5060858727
0.055564005 -0.11463206 1.7129999 -0.2851180136 0.858490169 0.4262655377
-0.13806361 0.071042433 1.529 -0.07415092736 0.02271015011 0.9969884157
0.013862731 -0.14786913 1.7570001 -0.2882570028 0.8536114693 0.4338840544
0.075088255 -0.13025513 1.748 -0.1259463727 0.8792937994 0.459325552
0.21615796 -0.41483256 1.8130001 -0.2705175579 -0.1436115056 0.9519432783
-0.023025651 -0.26356545 1.785 -0.329235971 -0.7274287343 0.6020391583
-0.023749951 -0.10615943 1.6320002 -0.3768167198 0.8235783577 0.423943162
-0.10210912 -0.044028707 1.4960002 0.4156699777 0.2442839295 0.8760957718
0.044657394 0.0050583663 1.5055 -0.408257544 0.6208979487 0.6691871881
0.18566748 -0.49472407 1.7760001 -0.3722652495 -0.1871300638 0.9090659618
0.21549481 -0.01652809 1.6160001 -0.1608374864 0.7679350972 0.6200056672
0.035608448 -0.38550016 1.7659999 -0.3548817635 -0.3728959858 0.8573257923
0.24075897 -0.29389197 1.8940001 -0.5698851347 -0.6329399347 0.524040103
-0.164112 -0.464984 3.1200001 -0.254000783 0.8113840222 0.5264404416
0.035064038 -0.44516078 1.7390002 -0.3685616255 -0.1909526139 0.9097799063
-0.094708055 -0.34479654 1.6879998 -0.2708166838 -0.4635133445 0.8436905146
0.23433825 -0.49855858 1.794 -0.6365727186 -0.2955718935 0.7123288512
0.12309084 -0.16744211 1.8329999 0.0124503132 0.8629986048 0.5050528646
-0.064460672 -0.49475121 1.655 -0.4243451059 -0.3960983157 0.8142710328
0.015017299 -0.12764704 1.7130001 -0.2721244991 0.8864235282 0.3744350076
0.083600335 -0.094235346 1.6848001 -0.1436321437 0.8632329702 0.4839407206
0.024054358 -0.024055859 1.5242859 -0.4439661801 0.6948767304 0.5657210946
-0.2707848 -0.44583759 3.1200001 -0.2644230425 0.8137392998 0.5175991058
0.22497019 -0.14783755 1.8330001 -0.2180388123 0.8274259567 0.5175185204
0.083424471 -0.30562618 1.804 -0.201084137 -0.2840933204 0.9374732971
0.14457723 -0.25504074 1.853 -0.1424287558 -0.7516964674 0.6439460516
0.085167289 -0.17301279 1.8330001 -0.2431161106 0.8052560687 0.5407931805
-0.11702289 -0.0060768775 1.5066 0.2872140706 0.09290491045 0.9533503056
-0.16846465 -0.16846465 1.6710001 0.3186644912 0.8178906441 0.4790697694
0.2551336 -0.0045076609 1.6159999 -0.2846396565 0.6889636517 0.6665653586
0.053888351 -0.075388417 1.6348002 -0.2592433691 0.8443233967 0.4689466059
