# .PCD v0.7 - Point Cloud Data file format
VERSION 0.7
FIELDS x y z normal_x normal_y normal_z
SIZE 4 4 4 4 4 4
TYPE F F F F F F
COUNT 1 1 1 1 1 1
WIDTH 512
HEIGHT 1
VIEWPOINT 0 0 0 1 0 0 0
POINTS 512
DATA ascii
-0.18253514 -0.084024116 1.322 0.139115721 0.7714244723 0.6209276319
-0.00626203 -0.4237307 2.381 0.05234705284 0.7628040314 0.6445073485
0.45438948 0.078555472 1.7570001 0.4411663115 0.7596822381 0.4777605832
0.40163082 -0.4621962 1.2120001 0.5733861327 0.09789901972 0.8134151101
0.20902506 0.43236047 1.3380001 0.6921220422 -0.3869609535 0.6092850566
-0.23152153 0.09195181 1.8730001 0.9881656766 -0.1229636818 0.09169783443
0.27453682 -0.0072063254 1.174143 0.4060906172 0.8166818023 0.4100259244
0.0190938 -0.47649637 1.452 0.7002306581 -0.178545773 0.6912296414
0.47973391 -0.19008325 2.0650001 0.0477181226 0.7507913709 0.6588135958
-0.20566601 0.30301455 1.5640001 0.9856592417 0.07155113667 0.1528277695
0.26036036 -0.23793697 1.4210001 0.3937149346 -0.3840397596 0.8351658583
-0.30422613 -0.14027193 2.0780001 0.5059203506 0.8043609262 0.3115254045
0.38060308 0.1081982 1.452 -0.5266112089 0.7753301859 -0.348631233
0.22645877 -0.29860494 2.286 0.05095455796 0.7651090026 0.6418814659
0.00308499 0.062728129 1.1730001 0.2853294611 0.4115622342 0.8655654788
-0.0049403673 -0.20827548 1.483 -0.1091185138 0.7893452048 0.6041748524
0.2188385 0.2217046 1.2256669 0.6102639437 -0.4360931516 0.6613627672
0.11459186 -0.081328623 1.3280001 -0.004375014454 0.7830802202 0.6219053268
0.23155178 -0.47207844 1.365 0.5515156984 -0.251057744 0.7954875231
-0.18658641 0.10349417 1.4538 0.3770187795 -0.3691266477 0.8494718075
0.41150099 -0.23797226 1.2567501 0.730935812 -0.1114392281 0.6732860804
0.29631472 0.21434569 1.6816002 0.3079661429 0.8997366428 0.3092423677
0.044319008 -0.32179451 2.1980002 0.05234705284 0.7628040314 0.6445073485
0.3146674 -0.10188237 1.3165456 0.1484695375 0.72852844 0.6687324643
0.11593741 -0.33241096 1.4640001 0.1332542002 -0.470515877 0.8722718358
0.15415694 0.093905099 1.0967501 0.2236732692 0.6131278872 0.7576572299
0.43050382 0.22009681 1.5790001 -0.910089314 0.4128884673 -0.03550496697
-0.24798883 0.20794095 1.7570001 0.9861338735 -0.1475547105 0.07594447583
0.32582933 -0.35551208 1.3166429 0.7575909495 -0.1424415112 0.6369979382
-0.03492428 -0.046756219 1.2850834 -0.04289662465 0.8276934624 0.5595385432
0.1299369 -0.18039784 1.439 -0.03930746391 0.7012146711 0.7118657827
0.13529429 0.0042552524 1.2152001 0.0807075277 0.826305151 0.557410121
-0.1223739 -0.1792345 1.4100001 -0.6536622643 0.3143634498 0.6884049177
0.35525304 0.025243968 1.3454001 -0.176037848 0.8396521211 -0.5138044357
0.077720001 -0.33337793 2.3330002 0.05234705284 0.7628040314 0.6445073485
0.0048571713 -0.12267679 1.3855001 -0.05501080304 0.7534787059 0.6551668644
-0.1440714 0.01200595 1.245 0.2328276187 0.4541486204 0.8599653244
0.22401291 -0.35448191 1.4039999 0.5161596537 -0.07791651785 0.852940917
0.2229556 0.33051211 1.2780001 0.428129822 -0.4257946908 0.7971221805
0.36178541 -0.2053162 1.3590001 0.7758995891 -0.3918109238 0.4944330752
0.0039344798 -0.3527917 1.4959999 0.3417822719 -0.3139665127 0.885782063
0.13204879 -0.44348463 1.4210001 0.07110317796 -0.3822461367 0.9213209152
0.21496928 -0.12516294 1.3735293 0.1514018029 0.7418217659 0.6532824636
0.3167741 -0.49451578 1.2859167 0.7482181787 -0.1871240139 0.6365172267
0.22208333 -0.047987856 1.273 0.1393432766 0.801602006 0.5813928843
0.24239518 0.125064 1.1638572 0.5618823171 -0.3806643784 0.7344269156
0.42318803 -0.34945074 1.2190001 0.4723091424 -0.3725764453 0.7988184094
-0.19181904 0.20372507 1.5090001 0.3453319669 -0.3201967478 0.882167697
0.43449229 0.15498748 1.6710001 -0.9809750915 0.03716447949 0.1905430853
-0.1784718 0.0036925201 1.404 0.3938473463 -0.3589231074 0.8462023735
0.21408638 0.42563921 1.4450001 0.9935889244 -0.1059551537 -0.03942782059
0.35319147 -0.029800531 1.2590001 -0.7879794836 0.605220139 -0.1131233871
-0.085041359 -0.1026732 1.3490001 -0.01893652044 0.7649315 0.6438331604
0.035908267 -0.0087674456 1.2328891 0.03306353092 0.8183816671 0.5737231374
0.0088324165 -0.2724461 1.5500001 0.7309218049 0.07154656202 0.6787005067
-0.25507054 0.11423405 1.7850001 0.9876054525 -0.1228175536 0.09773112088
0.18299541 -0.26933831 1.47 0.5420038104 -0.3832082152 0.7479193211
0.19508448 0.03389116 1.1551175 0.1285181493 0.7964065671 0.5909481049
-0.054192413 0.008654844 1.2173333 0.1992554814 0.6525612473 0.7310684323
0.41731435 0.15682516 1.516 -0.4618054628 0.6948235035 -0.5513220429
0.095014893 0.05155063 1.153 0.02141949162 0.7567097545 0.6534000039
0.31232566 -0.28360605 1.3650001 0.7769628763 -0.2669190764 0.5701603889
0.055738464 -0.39523637 1.4449998 0.3660608828 -0.3086821735 0.8779036403
0.35605636 -0.40577742 1.2584667 0.7167863846 -0.2420289367 0.6539413333
0.39001146 -0.13272032 1.3280001 0.2762626708 -0.07881516963 0.9578450322
-0.01828113 -0.37577879 2.3170002 0.05234705284 0.7628040314 0.6445073485
0.085248061 -0.12708761 1.3920001 0.03532148525 0.7603507638 0.6485515237
0.27383095 -0.40407407 1.3563529 0.6209621429 -0.2378992885 0.746866703
-0.11517295 -0.0508116 1.2880001 0.02260556258 0.6798529029 0.7330000401
0.034637101 -0.070428766 1.317 0.008645120077 0.7960903049 0.6051160693
0.37421742 -0.3048934 1.2754999 0.6174789667 -0.2497817427 0.7458745241
-0.045346167 -0.16433379 1.4236667 -0.007981169038 0.7412158251 0.6712193489
0.055738464 -0.17481609 1.4449999 0.0001854221919 0.7319348454 0.6813746095
0.14477371 -0.038153119 1.2757777 0.01394986268 0.7991448641 0.6009766459
0.08736635 -0.49706021 1.398 0.3457785249 -0.3141599596 0.8841610551
-0.16513771 -0.14000805 1.365 0.004495167639 0.2361405343 0.9717085361
0.21447648 -0.0079795653 1.2131667 0.07569213957 0.7865279317 0.612898469
-0.19329861 -0.025548194 1.2830001 0.3363016546 0.5031654835 0.7960689068
0.1647951 -0.4931694 1.3822005 0.3872175515 -0.3391282558 0.8573532701
0.16289549 -0.375204 1.4330001 0.4012363851 -0.3297026753 0.8545791507
0.28473946 -0.037151873 1.2423333 0.1668807566 0.8110994101 0.5605965853
0.3860577 0.064138688 1.3980001 -0.3110092878 0.6439811587 -0.6989717484
0.184112 -0.081993885 1.3280001 0.108891286 0.790655911 0.6024997234
0.049772751 -0.33248198 2.2710001 0.05234705284 0.7628040314 0.6445073485
-0.071872637 -0.2117676 1.4640001 -0.4957196712 0.3302022219 0.8032611609
0.19615836 -0.42408657 1.3969413 0.3869081736 -0.3100858927 0.8684174418
0.36274758 -0.24510835 1.3036667 0.6927146912 -0.198448047 0.6933720112
0.25181314 0.062706798 1.1353334 0.2421945632 -0.06177144498 0.9682593346
0.24917497 -0.088080451 1.322 0.04861782119 0.803393364 0.5934605598
0.061640188 -0.31475842 1.4960001 0.4411937296 -0.6405656934 0.6285091043
0.1934735 -0.16472562 1.4210002 0.1752302498 0.6579460502 0.7323942184
0.31170058 -0.4324702 1.312 0.6929196119 -0.239525035 0.6800662875
0.25737178 -0.29781595 1.3980001 0.2721669078 -0.3343138099 0.902307868
0.075829037 -0.0422538 1.27675 0.001133089536 0.8154085875 0.5788847208
-0.025513982 -0.085906491 1.3350002 -0.1447925866 0.7547097802 0.6398814321
0.14834428 -0.13010523 1.3870001 0.1233016253 0.7541434169 0.6450305581
0.39455172 -0.18647401 1.2970001 0.6331230402 -0.2930285931 0.7164422274
0.29078594 -0.34104526 1.365 0.6940702796 -0.3146430552 0.6475076675
0.20448928 0.37645122 1.3124547 0.6102804542 -0.4693129957 0.6382029653
0.42351004 -0.40524858 1.1962943 0.5891008973 -0.4052165449 0.6991134882
0.27403283 -0.13163151 1.3649999 0.1319042295 0.7318981886 0.6685254574
0.2147254 0.27529788 1.2561003 0.544999063 -0.3979943693 0.7379542589
0.30760479 -0.22437055 1.376 0.7613678575 -0.1058571413 0.6396196485
0.36187187 -0.49241474 1.2438571 0.7441543937 -0.149101615 0.6511551142
0.21812694 0.16754678 1.202 0.2290786356 -0.3799948394 0.8961734772
-0.20411518 0.15211131 1.483 0.2715536058 -0.5061773658 0.8185616136
-0.27453431 0.056856215 1.853 0.9886922836 -0.1084881872 0.103527151
0.046889395 0.081474476 1.138 0.3118982613 0.4683187902 0.8266782761
0.064843528 0.021963131 1.1930001 0.02432379872 0.7716097832 0.6356309652
0.44421172 0.11623391 1.7130001 0.4559835494 0.7562818527 0.4691660702
0.18796697 -0.31790388 1.439 0.4723396897 -0.4623362422 0.7504268289
0.26815712 -0.49673104 1.3280001 0.5101290941 -0.3600952625 0.7810887694
0.0074805967 -0.41199985 1.4714 0.2208116055 -0.1347140372 0.9659680724
-0.19749372 0.25024888 1.5430001 0.3956173658 -0.5923569202 0.701854825
0.074794471 -0.44567946 1.4232105 0.2126842886 -0.2697263658 0.939155519
0.42121115 -0.29764441 1.2436666 0.5497131944 -0.2024151981 0.8104587793
0.32005784 -0.030431731 1.197 -0.1583668292 0.6894673109 0.7067918777
-0.18189588 0.054293551 1.427 0.3665468991 -0.3905734122 0.8444499969
0.33828902 -0.29556993 1.317 0.8149621487 -0.2537973821 0.5209832788
-0.085422397 -0.13789617 1.3920001 -0.002921873238 0.7988905311 0.6014693379
0.048525251 -0.21115042 1.4960001 -0.02219025046 0.8506621122 0.5252442956
0.20136157 0.071356282 1.115 0.0272130277 0.7197822332 0.6936663389
0.37781096 -0.3557798 1.2564615 0.7013869882 -0.2370645404 0.6722028852
-0.085460089 -0.017358001 1.253 0.1091034338 0.7122460008 0.6933988929
0.33592528 -0.0030987661 1.3027143 0.09217049181 0.8274101019 -0.5539829135
0.3147051 -0.066172615 1.2762142 0.04051054642 0.80562222 0.5910429358
0.145576 0.057062734 1.1362858 0.1591954976 0.7592123747 0.6310731769
0.22598623 -0.27543989 1.4371248 0.6184979677 -0.3568314314 0.7000939846
0.063702688 -0.096938878 1.3540001 0.0644427985 0.7771672606 0.6259858012
0.3623088 -0.079362877 1.312 -0.2816596627 0.6354548335 0.7189332247
0.11021015 -0.38130179 1.4450001 0.3015854061 -0.2453682125 0.9213255048
0.093269967 0.091703191 1.1152 0.1561344862 0.6067112088 0.7794379592
-0.015474981 -0.015042609 1.2431334 -0.01772563905 0.8144812584 0.5799190402
0.0050355732 -0.16617656 1.4360001 -0.05521443486 0.7715345025 0.6337869763
0.024282632 -0.037086584 1.2748181 0.09912218153 0.8481925726 0.5203308463
0.0031612599 0.020021314 1.202 0.09618912637 0.7287157178 0.6780273318
-0.13388728 -0.093335688 1.3380002 -0.02122165076 0.8010380268 0.5982372165
-0.10111298 0.03119443 1.2270001 0.319947511 0.3276890814 0.8889620304
0.33904207 -0.45353824 1.268 0.7871802449 -0.1426524371 0.5999979973
0.17515887 -0.018495036 1.2410001 0.1151187122 0.827830255 0.5490398407
0.13503911 -0.28835407 1.4750001 0.1012306213 -0.3833439946 0.9180412292
0.084788568 -0.012731832 1.2360001 -0.02104438841 0.8111733198 0.5844270587
0.017357124 -0.31242824 1.5230001 0.5464267731 -0.3157215416 0.7757175565
-0.04065191 0.048990764 1.189 0.4759102166 0.2034114152 0.855647862
0.044722613 -0.35531348 1.4705385 0.3955554366 -0.2939776778 0.8701224327
-0.045124538 -0.11787285 1.37 -0.08670400083 0.7482898831 0.6576812267
0.14525823 0.02781307 1.1751333 0.1330043972 0.8341379166 0.5352792144
0.014164302 -0.2274247 1.5242002 0.4662808776 0.61369735 0.6371480823
0.26568589 -0.064030342 1.2850834 0.1694013774 0.8067254424 0.5661247969
-0.075425833 -0.072946481 1.3143079 -0.0822949782 0.7692750096 0.633595705
0.23482667 -0.39438432 1.3823336 0.4879259169 -0.3443751931 0.8020810485
0.38803399 -0.39615503 1.2261113 0.7530565858 -0.1735881716 0.6346439719
0.33363578 -0.24395868 1.3434287 0.7895760536 -0.2036836445 0.5788632631
0.41473681 0.1939767 1.5430001 -0.6502287388 0.6565696001 -0.382255137
0.044566449 -0.14484031 1.4120833 -0.01585901529 0.7760648727 0.6304536462
0.27298012 -0.45395771 1.3430002 0.5237765908 -0.1908346862 0.8302049041
0.35203165 -0.11302688 1.3430001 0.1110701188 0.355350405 0.9281107187
0.23524541 0.015336797 1.1752224 0.1334811747 0.8218762279 0.5538070202
-0.15117942 -0.030013559 1.268 0.1483798474 0.6079980731 0.7799498439
0.11667337 -0.10829683 1.365 -0.01654927805 0.7778242826 0.6282638907
0.36793202 -0.44476527 1.2344002 0.8499807715 -0.149194032 0.5052463412
0.33449632 -0.39451122 1.2950954 0.7970786095 -0.1710133255 0.5791546702
-0.12573479 -0.12264191 1.3734286 -0.190202266 0.7293866873 0.6571286917
0.038003497 -0.43704024 1.4450001 0.6326323748 -0.259588629 0.7296506166
-0.084953032 -0.17495531 1.4378002 -0.5550097823 0.4980856478 0.6662393212
0.081188098 -0.1997485 1.47 0.08593298495 0.7095604539 0.699385047
0.39625692 0.13571715 1.4846363 -0.4227011204 0.7593041658 -0.4947534204
0.28582785 -0.26528752 1.3966669 0.7331576347 -0.1858370155 0.6541746855
0.17573002 -0.11079927 1.3590001 0.09961416572 0.7421703339 0.6627671123
0.054927897 -0.48561096 1.424 0.5513295531 -0.2443732917 0.7976951003
0.42217463 0.19975376 1.6160001 -0.9835630655 0.1192110181 0.1356185079
0.094775118 -0.15588491 1.4225001 0.06687109172 0.7388417125 0.6705529094
0.18444824 -0.055848517 1.2919999 0.1237178221 0.7863849998 0.6052210927
0.36765859 -0.17486484 1.3280001 0.635122776 -0.2422932088 0.7334255576
0.12718681 -0.48372009 1.4040002 -0.02343643084 -0.4681253433 0.8833512068
0.014022534 -0.092075683 1.3490001 0.006307920907 0.7791687846 0.6267824173
0.24261136 -0.029374471 1.2410001 0.1209541485 0.8346096873 0.5373981595
0.17595862 0.0086533576 1.1965001 0.1504676342 0.848336637 0.5076262355
-0.15463698 -0.060262945 1.2970001 0.07206062973 0.7047674656 0.7057691216
-0.21939285 0.27808392 1.5940001 0.9985366464 -0.01555630751 0.05179389939
-0.21128631 -0.040409949 1.317 0.4117366374 0.5197107196 0.7485811114
0.19485742 -0.46422315 1.3820003 0.3647142351 -0.3720203936 0.8535715342
0.38826287 -0.26617482 1.2763333 0.640270412 -0.3406820893 0.6884689927
0.10547572 0.026149362 1.1853335 0.03754921257 0.8183326721 0.5735169649
0.30416504 -0.38524964 1.3347647 0.7045260072 -0.1896355897 0.6838724017
-0.025458401 -0.18839216 1.452 -0.1385195553 0.8111940622 0.5681342483
0.27102149 0.021079449 1.1450001 0.3118514121 0.667532146 0.6761283278
0.39253846 0.10153772 1.4125001 -0.5544666648 0.7018712759 -0.4471503496
0.074762136 -0.067861013 1.312 0.04031667113 0.7875096798 0.6149821281
0.24140769 -0.432372 1.3700001 0.6242738366 -0.2759977579 0.7308265567
-0.10344491 -0.21067439 1.439 -0.384114027 0.6671786904 0.63822335
-0.07490924 -0.045965329 1.2830002 -0.02606733702 0.74631989 0.6650767922
-0.0045832135 -0.060727578 1.307 -0.04054351524 0.7983672619 0.6008044481
0.045327429 0.045325369 1.167353 0.1714025736 0.6546696424 0.7362260818
0.25591436 -0.33474684 1.3835001 0.4360366166 -0.3328722715 0.8361029029
0.22298807 -0.31313458 1.4210004 0.5596465468 -0.3298066556 0.7602784634
0.15500249 -0.33556128 1.4519998 0.2283734381 -0.2305209488 0.9458888173
0.046005715 -0.11985699 1.381 -0.02348511666 0.7583129406 0.6514675021
-0.18228267 -0.10484232 1.3590001 0.1843842417 0.5079210997 0.8414384127
0.19484861 -0.38389164 1.4115385 0.3985639811 -0.4669313431 0.7893806696
0.08882124 -0.40907809 1.427 0.2478093356 -0.3575994968 0.9003961086
-0.0061778701 -0.40156156 2.3490002 0.05234705284 0.7628040314 0.6445073485
0.34920466 -0.34845194 1.2863334 0.7975366116 -0.1858230829 0.5739382505
0.11575419 -0.055609591 1.2945 0.003759930609 0.8234103918 0.5674338341
0.084138304 -0.35441878 1.4542499 0.3454639316 -0.3821117878 0.8571144938
0.26563576 -0.015354941 1.2134286 0.102015011 0.8088593483 0.579085052
0.15405692 -0.15654843 1.4210002 0.1374437809 0.7256143093 0.6742352247
0.025668798 -0.19508287 1.464 0.04730313644 0.7703900933 0.6358156204
0.15754138 -0.41556191 1.4150001 0.3897427022 -0.2233996391 0.8934165835
0.22758475 0.086384244 1.153 0.6549249887 -0.2046342194 0.7274600267
0.21541104 -0.072185613 1.307 0.1787928641 0.8067376614 0.5632117391
0.12565555 -0.017898612 1.25 0.01178434957 0.7965670824 0.6044352651
0.37061697 0.0023091401 1.317 -0.03276411071 0.7360320687 -0.6761533022
0.23610824 0.20410246 1.197 0.5940821171 -0.3539009392 0.7223715186
0.1847475 -0.13661008 1.3938001 0.1148873344 0.7659386396 0.6325653791
0.22428116 -0.15214701 1.398 0.2237076163 0.6993830204 0.678835988
0.16370171 -0.45417994 1.404 0.3014985323 -0.3247207999 0.8964681029
0.31640941 -0.32618129 1.3375835 0.7511098385 -0.2885656953 0.5937709212
0.033136323 -0.26472646 1.523 0.6635064483 -0.02253202721 0.7478312254
0.30203655 -0.4752894 1.3140001 0.7300568223 -0.170348987 0.6618143916
-0.014091539 -0.14808477 1.4100001 -0.1872349679 0.7637203336 0.6177979708
0.38173136 0.04188275 1.365 -0.3224258721 0.7995539904 -0.5067099333
0.39750606 -0.32678014 1.245 0.6064163446 -0.3288706243 0.7239498496
-0.20931557 0.1157086 1.483 0.520180583 -0.4183951318 0.7445520163
0.24622218 -0.11282227 1.3490001 0.06862574071 0.7413088083 0.6676464677
0.14412774 -0.093392186 1.3460003 -0.01013875287 0.7982156873 0.6022863984
0.15527521 -0.06683863 1.3120002 0.02018946223 0.8068548441 0.5904046893
0.08548376 -0.30628103 1.4700001 0.2360420972 -0.45607844 0.8580656052
0.35505012 -0.21486184 1.3248237 0.7987726331 -0.2158953249 0.5615616441
-0.070836417 0.039118621 1.2060001 0.4289434552 0.2018006593 0.8805021048
0.28498635 -0.10676879 1.3362143 0.2972993553 0.7051748037 0.6436936855
0.26924625 -0.36976483 1.365 0.5582900643 -0.3012292385 0.7730285525
0.23684464 0.24994205 1.245 0.4050101638 -0.3224537969 0.8555642962
0.20754012 -0.49728623 1.3590001 0.4459406435 -0.4221976697 0.7892313004
0.39334506 -0.22424237 1.2836668 0.6584410071 -0.2503342927 0.709780395
-0.20366719 0.066191845 1.452 0.3091728389 -0.4352165461 0.8455759883
0.21575923 -0.095506631 1.3355001 0.1903534085 0.7602175474 0.6211560369
0.28573114 -0.083859242 1.3052143 0.1741471589 0.7776579261 0.6040868759
-0.11548248 -0.075840078 1.3146667 0.03718976676 0.767365098 0.6401310563
0.12642439 -0.40614614 1.4255 0.1962864995 -0.3104070723 0.9301177859
-0.21135244 0.17395608 1.5081428 0.3194338977 -0.4127309918 0.8530035615
-0.20141153 0.013761036 1.427 0.3521176875 -0.3776170909 0.8563985229
0.2221666 0.046205208 1.1375556 -0.2390801907 0.5607720017 0.7927013636
0.12816271 0.078071371 1.1159999 0.233222425 0.6267566085 0.7434940934
0.29177308 -0.3111439 1.381 0.724371016 -0.2802306116 0.629886806
0.024279634 -0.32660025 1.4890001 0.3680516779 -0.5903763771 0.7183269858
0.095008753 -0.18115002 1.4450001 0.08637976646 0.6973745823 0.7114824057
0.29196683 -0.23312846 1.4100001 0.7013018131 -0.3715021312 0.6084093451
-0.21195491 0.22399944 1.5270001 0.4326271117 -0.4443287849 0.7844779491
-0.037502706 -0.21210009 1.47525 -0.1460241228 0.6884601116 0.7104221582
0.31414387 -0.050927758 1.223 0.3892653584 0.8964977264 0.2115757465
0.055149451 -0.026060618 1.2537649 0.02171817608 0.8088809252 0.5875712633
-0.11662795 -0.0070446427 1.25 0.2321984917 0.5437947512 0.8064559102
0.39482686 -0.42525646 1.2122858 0.7102603912 -0.2244580984 0.6671946645
0.16214827 -0.17861645 1.4450001 0.1218417361 0.7268644571 0.6758865714
-0.045096897 -0.023103675 1.2546668 0.05038036406 0.7812470794 0.6221855283
0.015829766 -0.37626076 1.4764615 0.3576634824 -0.3108513951 0.880595386
0.35870132 0.049853403 1.3870001 -0.2788616419 0.7901221514 -0.5458417535
0.018299541 -0.44460148 1.47 0.6593256593 -0.0978513062 0.7454628348
0.17639147 -0.34607306 1.427 0.5099698901 -0.3185329139 0.7990415692
0.3639847 -0.14645737 1.3436668 0.3928806186 -0.09417878836 0.9147541523
0.11569896 -0.13908492 1.404 0.004785332363 0.7510636449 0.6602125168
-0.11397579 -0.14794697 1.404 -0.4574074149 0.4254286289 0.7808898091
0.19635141 -0.28611204 1.4449999 0.3910096884 -0.3789536059 0.838752389
-0.043385528 -0.14143193 1.3980001 0.007608294487 0.7589126229 0.6511479616
0.35816655 -0.27629992 1.2970001 0.7350120544 -0.2756175101 0.619509697
0.20623046 -0.026280228 1.2432222 0.2091593295 0.8422824144 0.496802479
0.16428031 -0.29574126 1.4640001 0.3631274402 -0.4847130477 0.7957334518
0.33414954 -0.42459053 1.2838826 0.8148729205 -0.1666170955 0.5551764369
0.18482004 -0.037607051 1.2657778 0.1234821677 0.812238574 0.5701057911
0.33489749 -0.083229586 1.2960627 -0.1838492304 0.7369484901 0.6504663229
0.43103069 -0.37994558 1.2140001 0.3747629523 -0.3341860175 0.8647961617
-0.19890864 0.26781464 1.572 0.9947396517 -0.04458468035 -0.09222355485
0.24608384 -0.14194052 1.376 0.1359531879 0.7461986542 0.6516934037
0.25326917 -0.27396774 1.4210002 0.4765411615 -0.3270710409 0.8160471916
0.20488177 0.012334798 1.1836668 0.07255429029 0.8325732946 0.5491425991
0.24182674 0.15114172 1.189 0.2181597203 -0.4628401101 0.8591771722
0.33843616 -0.32471159 1.3048573 0.79114151 -0.1465193927 0.5938242078
-0.18567099 -0.057451472 1.302 0.293805778 0.5627608895 0.7726437449
0.045349967 -0.052720975 1.29325 0.07514238358 0.831507206 0.5504084229
0.23747036 -0.49648023 1.3460001 0.438449651 -0.3509985805 0.8273825645
0.10433763 -0.46465784 1.4142109 0.2291208506 -0.4051751494 0.8850631118
-0.05794521 -0.09125784 1.3380001 -0.06622830778 0.7457093596 0.6629716158
0.033922907 0.013884063 1.2029999 0.05431651324 0.7625222802 0.6446778774
-0.1720283 -0.0066609131 1.266 0.3525596857 0.4356819093 0.8281804919
0.23039852 -0.2482194 1.452 0.5996263623 -0.1555048525 0.7850264311
0.20716913 0.30359861 1.2759999 0.4895347953 -0.3925026357 0.7786509991
0.1667529 0.067675561 1.1159091 0.189563781 0.7100474238 0.6781579256
0.3205409 -0.46098989 1.2920001 0.7009632587 -0.2225171924 0.6775962114
0.39799792 -0.36599672 1.2270001 0.6723023653 -0.3177857101 0.6685968637
-0.044857278 -0.067861013 1.312 -0.05194108188 0.7618117929 0.6457127333
-0.055738464 -0.18431698 1.4449999 0.03747369722 0.733602345 0.6785449982
0.1048809 -0.034407999 1.2659999 -0.03700884059 0.8052179217 0.5918229818
-0.014671527 -0.1046856 1.3569168 -0.1620009989 0.7529258132 0.6378545165
0.29425278 -0.41441157 1.3339375 0.6549044251 -0.2303762436 0.7197409272
-0.0051875287 -0.031495709 1.268 -0.06762960553 0.8213083148 0.5664617419
0.20815617 0.40352571 1.3265001 0.6827480197 -0.3769714832 0.6258974671
0.24485616 -0.36525422 1.3831179 0.5630800128 -0.154657498 0.811801672
0.34376708 -0.26408008 1.3228573 0.7947997451 -0.2066966444 0.570587337
0.10488956 0.0051979516 1.2140001 -0.04797663167 0.8079715371 0.5872650146
0.045186028 -0.33201909 2.2410002 0.05234705284 0.7628040314 0.6445073485
0.22419286 0.35525519 1.2955 0.3538684547 -0.3601501286 0.8631737828
0.13531551 -0.36448812 1.4449998 0.003896532813 -0.4081686437 0.9128982425
-0.024224054 0.0056924638 1.2151306 0.05096754059 0.7519458532 0.6572516561
0.31233105 -0.25434238 1.3724 0.7540182471 -0.2368431836 0.6126677394
0.094469599 -0.093292236 1.3470001 0.06516762823 0.7901585698 0.6094281077
0.066049449 0.05885452 1.149 0.2193346322 0.6127395034 0.7592381835
0.0053675966 -0.0032237372 1.2248666 0.07336513698 0.7805831432 0.6207314134
0.12507698 0.046158794 1.155476 0.1670731306 0.7856146097 0.5957317352
0.11337054 -0.1955107 1.4640001 0.03029280342 0.7416656613 0.6700853705
0.17458816 0.048884686 1.138 0.1462767124 0.7998700738 0.5820747018
0.19984055 0.44156384 1.365 0.7040761709 -0.3682768941 0.6071646214
0.37409228 -0.10542548 1.3244002 0.2563081384 0.4291259944 0.8661160469
0.35821739 -0.37489161 1.268 0.7191277146 -0.1443181187 0.6797261834
0.39180642 -0.15902603 1.3145001 0.4031837881 -0.3675355613 0.8380694985
0.035352942 -0.40521699 1.464 0.4756446183 -0.2630252838 0.8393926024
0.3323724 -0.21709247 1.3556668 0.7584055066 -0.3117284775 0.5724040866
0.028738596 0.067282125 1.1570001 0.3309345245 0.416136831 0.8469430208
0.014245834 -0.018629167 1.25 0.03784750029 0.8255690336 0.5630305409
0.075104035 0.0042526131 1.2142222 -0.001201490872 0.7908217311 0.6120453477
-0.085343145 0.0032403942 1.2322669 0.1972656697 0.576523304 0.7929105759
0.30593452 -0.3543466 1.3380002 0.7136694193 -0.1919165552 0.6736794114
-0.074320503 -0.15483505 1.4129167 -0.02540675178 0.7773801684 0.6285177469
-0.1548955 -0.11430693 1.356143 -0.1164723486 0.4635906219 0.8783609271
0.37453991 -0.47446996 1.2250868 0.7310010195 -0.005704222247 0.6823524833
0.24586862 -0.0015731782 1.1960001 0.1768360436 0.8219280839 0.5414455533
0.25486451 -0.047648586 1.2640001 0.1043480113 0.8258750439 0.5541136265
0.34018874 -0.4820264 1.2640001 0.7159019709 -0.2389207482 0.6560497284
0.074812099 0.038943283 1.1689999 0.08057577163 0.7685911655 0.6346457005
0.18272364 0.083668187 1.097 0.1114989296 0.6707603335 0.7332452536
0.014438214 -0.14562164 1.4116666 -0.008576932363 0.740049839 0.6724973321
0.37453577 -0.20515823 1.3061664 0.6128537655 -0.2940039337 0.7334657311
0.066228658 -0.32729825 1.467 0.3312623799 -0.3964968026 0.8561866283
0.40685672 -0.27587608 1.256875 0.5299318433 -0.3201797903 0.7852752209
-0.10449165 -0.032236785 1.268 0.06819799542 0.7214431763 0.6891072392
0.019672399 -0.21377341 1.4960001 -0.04678910971 0.8959450722 0.441693604
0.28460369 -0.055665702 1.2656666 0.1901272684 0.8131681085 0.5500993133
0.10466906 -0.43612486 1.421375 0.3013543487 -0.295732379 0.9064921141
0.10469416 0.072194815 1.132 0.133109659 0.6119667888 0.7796014547
0.20467502 -0.33447695 1.423625 0.4477519095 -0.3579801023 0.8193708062
0.024888566 0.034220681 1.1829998 0.1801670343 0.665388763 0.7244291902
-0.015791668 0.036312141 1.1886923 0.1112354323 0.5146871805 0.8501316309
0.22052813 0.12320586 1.1810001 0.499966085 -0.3419580758 0.7956749201
0.20510423 -0.25874785 1.4568001 0.4515623152 -0.2509900033 0.8562099338
0.3144756 -0.40511903 1.3152609 0.6996967793 -0.2082863897 0.6834041476
0.045162532 -0.46449289 1.4389998 0.5144322515 -0.1279192865 0.8479363918
0.29284173 -0.02823831 1.1930001 0.5193653703 0.7624644637 0.3858854175
0.35355324 -0.30454957 1.294 0.7390365601 -0.2331617177 0.6320289373
0.24218881 -0.071633309 1.2970001 0.04394611716 0.7820757627 0.6216319203
0.25470734 -0.4752152 1.3451004 0.4106208682 -0.2576135397 0.8746575117
0.21455528 -0.44532439 1.3834549 0.562359333 -0.2420673221 0.7906677127
0.20997307 0.24696313 1.2410001 0.3858892918 -0.3627430797 0.8482375145
0.3408033 -0.021370504 1.2830001 0.1175276265 0.8919459581 -0.4366000891
0.024020668 -0.10809301 1.37 -0.00472350372 0.7592033148 0.6508364081
0.22155121 -0.38156039 1.404 0.4742306769 -0.4363307953 0.7646703124
0.40300015 0.11935992 1.4640001 -0.4713839591 0.7800813317 -0.4114246368
0.24216779 -0.32340321 1.4040002 0.5122092366 -0.2963685989 0.8061062694
0.073324859 0.084305704 1.1327368 0.2725993693 0.5539685488 0.7866438031
0.31327191 -0.048654996 1.2556 0.05032495409 0.8156700134 0.5763244629
0.12457433 -0.1582094 1.4210001 -0.007101855241 0.7270220518 0.6865773797
0.175276 0.0233921 1.1738001 0.1729236543 0.8114718795 0.5582211018
0.054125402 -0.1997485 1.47 0.004149483982 0.7448153496 0.6672577262
-0.12487072 -0.16417982 1.3853637 -0.7053810954 0.2366816998 0.6681461334
-0.17764246 0.026271069 1.427 0.3938473463 -0.3589231074 0.8462023735
0.39810574 0.17023376 1.529 -0.5357605815 0.6333364844 -0.5584312677
0.1368147 -0.31572622 1.464 0.1156560332 -0.344440043 0.9316569567
-0.074475564 -0.12314771 1.3726667 -0.01949718781 0.7773227096 0.6287998557
0.065461405 -0.42424074 1.4360001 0.3289483786 -0.378867209 0.8650159836
0.027780689 -0.2923587 1.5090001 0.5803971887 -0.2586899996 0.7721518874
0.41481411 0.1998274 1.572 -0.7015119195 0.6686993241 -0.2464189678
0.36497968 -0.33558375 1.268 0.6351972222 -0.1636846662 0.7548058033
0.21604422 0.1960658 1.2123998 0.5570037365 -0.4083970487 0.7231587768
0.35570276 -0.43458661 1.2555419 0.7135668993 -0.08667031676 0.6952053905
-0.11523121 -0.10678735 1.3551112 0.04079125449 0.7804185748 0.6239254475
0.079807349 -0.37876821 1.4450001 0.298622489 -0.3142051101 0.9011657834
-0.097005792 -0.18433583 1.4150001 -0.4148292243 0.2797014117 0.8658428192
0.36052915 -0.46463335 1.25 0.7683346868 -0.1438478082 0.6236742735
-0.15524818 -0.086132593 1.3244708 -0.07901965082 0.7435612082 0.6639823914
0.2450294 0.034879494 1.1438574 0.3488443792 0.4955740571 0.7954331636
0.080469236 -0.10929403 1.3700001 0.05393196642 0.800365746 0.597081244
0.32363275 -0.29426903 1.3439233 0.7819581032 -0.2431139499 0.5739661455
-0.13939263 -0.13939263 1.3590001 -0.3895863295 0.1276683658 0.9120982885
0.028966645 -0.49494547 1.4366 0.5240690708 -0.1522606611 0.8379548192
0.2637341 -0.43419704 1.356941 0.4567368329 -0.2410708219 0.8563155532
0.30026448 -0.0092865303 1.177 -0.00672063278 0.6284129024 0.7778509259
0.16543533 -0.0021359983 1.2175 0.1333018094 0.8349189162 0.533986032
0.23643963 -0.24644765 1.427 0.6521126628 -0.2170193344 0.7263963819
0.0080425404 -0.25199959 1.529 0.6193799973 0.3031237125 0.7242129445
0.41270375 -0.43442863 1.196143 0.6610949039 -0.07512619346 0.7465317249
0.038944162 -0.15954544 1.4330001 -0.02400173806 0.7416973114 0.6703051925
0.061605126 -0.37348104 1.4640001 0.3291805089 -0.3895329237 0.8601769209
0.064869829 -0.15594058 1.4230002 0.04300221428 0.7614676356 0.6467749476
0.21523397 -0.40479383 1.3950001 0.512357235 -0.2017387301 0.8347404003
-0.093237013 -0.060262945 1.2970001 -0.004534879699 0.7351912856 0.6778445244
0.15466321 -0.025501914 1.2544547 0.08541104943 0.8225830197 0.5621939898
0.19007623 -0.49032405 1.381 0.3709189594 -0.2919115722 0.881593287
-0.0026378902 -0.22048342 1.506 -0.08770199865 0.8830005527 0.4611056447
-0.1051737 -0.089981943 1.3330001 -0.03812369332 0.792791605 0.608299315
0.055027056 -0.081957377 1.3355001 0.07346734405 0.8195381761 0.5682954192
0.36044061 -0.01364444 1.2970001 0.01836945675 0.8797665238 -0.4750510156
0.29448676 -0.28511912 1.3829094 0.7451554537 -0.2522460222 0.6173453331
0.20385177 -0.10647926 1.3545556 0.1155983657 0.7635487318 0.6353191137
0.42014074 -0.32833621 1.2320001 0.5045570731 -0.3930765092 0.7687086463
-0.024213534 -0.12591037 1.381 -0.1676786095 0.7193914652 0.6740621328
-0.0652766 -0.0087035466 1.2410001 0.1124564931 0.7420042157 0.6608957648
0.1156856 -0.30324104 1.47 0.14863123 -0.3561048508 0.9225497842
-0.12280347 0.021310015 1.2360001 0.2956587076 0.4454249442 0.8450931907
-0.18842109 0.16602138 1.503 0.3097959757 -0.4652174115 0.8292160034
0.29341832 -0.45382214 1.3229232 0.7181090117 -0.1584707797 0.6776477695
0.14519703 -0.01191916 1.2360001 0.08658502996 0.8247767091 0.5587900877
0.36802116 0.080004603 1.404 -0.121031411 0.575298667 -0.8089393377
0.30545494 -0.31497124 1.3567271 0.7707085609 -0.2627754509 0.5804803371
0.1141702 -0.12508558 1.3830003 0.009643020108 0.7802510262 0.625392139
0.074677102 -0.47394738 1.4150003 0.3931754529 -0.2688270211 0.8792867064
0.0051043038 -0.18452397 1.4556 0.01884624362 0.7544308305 0.6561089158
0.15197454 -0.10889515 1.365 0.1220360696 0.7593517303 0.6391338706
0.19898142 0.35816655 1.2970001 0.3482125998 -0.3984130621 0.8485369682
0.17253545 -0.39427775 1.4210001 0.4821262956 -0.2978920341 0.8239020705
0.37291157 -0.3848567 1.2511111 0.7592831254 -0.1603747308 0.6306893826
0.39622876 -0.30469629 1.2555003 0.5639253855 -0.2120931149 0.7981257439
0.38125882 -0.42014074 1.2320001 0.7475233078 -0.2157125771 0.6282331944
0.41053861 -0.20695645 1.2830001 0.5372473598 -0.3601744473 0.7626530528
-0.20791727 0.097541444 1.4640001 0.4267788827 -0.3898410201 0.8160170317
0.15619385 0.038400434 1.156111 0.1383982301 0.8167028427 0.5602163672
0.13047868 -0.33696437 1.4450001 0.04955362529 -0.5099919438 0.8587506413
0.27482361 -0.3523069 1.381 0.5422924161 -0.2583293617 0.7994903922
0.22449732 0.30219945 1.2590001 0.5238978863 -0.4377523959 0.7306872606
0.25311774 -0.40444797 1.37 0.5355532765 -0.2936582863 0.7918001413
0.15139332 -0.48248929 1.404 0.3929235041 -0.3215802312 0.8615087271
0.22706307 0.27435401 1.2353334 0.4261387885 -0.3806736171 0.8206663728
-0.02166857 0.057782851 1.177 0.2785677314 0.3426433504 0.897215426
0.0045132991 -0.04399617 1.2867501 -0.01661655121 0.8092331886 0.5872524977
0.070157878 -0.14154659 1.404 0.01783213764 0.7336148024 0.6793315411
-0.03579523 -0.0070595392 1.2329414 0.06704423577 0.7827706933 0.6186882257
0.015134773 -0.080330722 1.3280001 0.03404357657 0.8177967668 0.5744993091
0.14506513 -0.055220298 1.2935385 0.01992297545 0.7894254327 0.613523066
0.20305614 -0.36341736 1.4210004 0.4187405705 -0.2359618992 0.876914084
0.024990182 -0.17631318 1.4449998 -0.01770320162 0.6846239567 0.7286814451
0.22517534 0.059843898 1.1570001 0.1455183178 -0.1391204149 0.9795253873
0.13478151 0.017238535 1.195182 0.05845005438 0.8271024227 0.5590037704
-0.18353193 0.082140163 1.4640001 0.2449971437 -0.3292066753 0.9119207263
0.061563041 -0.0097204801 1.2320001 0.002684270497 0.7990611196 0.601243794
0.29081663 -0.36322403 1.3540001 0.7036006451 -0.2135370523 0.6777521968
0.34821025 0.005805287 1.324 0.003074131208 0.7357549667 -0.6772409081
-0.13179456 -0.13789617 1.3920001 -0.5173749924 0.4154535532 0.7481453419
-0.054707069 -0.037959225 1.2734998 0.01988571137 0.7639244199 0.6449992061
0.19298941 -0.0096494695 1.223 0.1839838177 0.821664691 0.5394599438
0.40526226 -0.38508812 1.2142383 0.504242301 -0.2694432139 0.8204511404
-0.042724345 0.026833892 1.1969999 0.2702410221 0.4769907892 0.8363310099
0.21491106 0.025211792 1.1646 0.05158629268 0.8129864335 0.5799930692
0.18506262 -0.44611114 1.3980002 0.3201595247 -0.3268173933 0.8892065287
0.23734391 -0.29562646 1.4145 0.5557683706 -0.3331176341 0.7616785169
0.24452336 -0.45581055 1.3540001 0.4885097146 -0.2010175884 0.8490878344
0.025722545 -0.35485533 1.4843845 0.4195144475 -0.3156467974 0.8511020541
0.11401051 -0.35469934 1.4449998 0.146289587 -0.3081490695 0.9400231242
0.33727351 -0.36541519 1.2970002 0.834004283 -0.1667221189 0.5259663463
-0.095405646 -0.11629263 1.3649999 0.01442518272 0.7705183625 0.6372545958
0.084788024 -0.055300135 1.293875 0.02400621027 0.8168406487 0.5763636231
-0.053048853 -0.19807757 1.4640001 -0.1475761831 0.6811773181 0.7170904875
0.22715127 0.10504528 1.1668949 0.6160939932 -0.3487613797 0.7062532902
-0.18943889 0.1198491 1.47 0.5077086091 -0.4342860281 0.7440615892
0.26461306 -0.029161442 1.2320001 0.1218616068 0.8223854303 0.5557264686
0.10466699 -0.067861013 1.312 -0.03001185693 0.7894516587 0.6130785942
-0.1671856 -0.097721159 1.3430001 0.07632017136 0.7696141601 0.6339315772
-0.036661323 -0.10052297 1.3490001 -0.06720618159 0.7542408109 0.653149426
0.034358978 -0.31453288 1.5075002 0.5065402985 -0.5279551744 0.6816745996
0.24208076 0.10332021 1.1470001 0.5376942158 -0.335962683 0.7733136415
-0.17388858 -0.043472145 1.2880001 0.2343736291 0.5529202819 0.799592495
0.29243845 -0.068610564 1.2830001 0.1720970869 0.8146510124 0.5538287759
0.28546068 -0.4352822 1.3379998 0.6407524347 -0.1875405312 0.7444896698
0.38496932 -0.24536434 1.2870911 0.5838943124 -0.206386447 0.7851573229
0.4178246 0.2082136 1.5940001 -0.9090812206 0.4163297117 -0.01552077662
0.1354627 -0.38427159 1.4334003 0.187156409 -0.3329772949 0.9241745472
0.16491096 -0.047385976 1.2835555 0.05700546131 0.7802403569 0.6228767037
-0.1033967 -0.16319238 1.4210001 -0.3860889673 0.3034098148 0.8711359501
-0.025125267 -0.16959555 1.4330001 -0.1474230289 0.7277356982 0.6698262691
0.27570814 -0.28555492 1.4039999 0.5157468319 -0.3316874206 0.7899295092
0.08533407 -0.025624633 1.2548574 0.001098471228 0.815474391 0.5787921548
-0.13917258 -0.067861013 1.312 0.03367932141 0.75304389 0.6571077704
0.34052625 -0.035902131 1.2410001 -0.7116680145 0.6994998455 0.06502781063
0.16526824 -0.14624618 1.4040002 0.08711460978 0.7605808973 0.6433721781
0.13737717 -0.080330722 1.3280001 0.007456258405 0.7787981629 0.6272302866
-0.054507628 -0.055646122 1.2953333 -0.05848342553 0.7777297497 0.6258722544
0.32628798 -0.26532277 1.3465298 0.8118587732 -0.1837485731 0.5541856885
0.29707715 -0.49547526 1.3047274 0.6942793727 -0.2558113337 0.6727085114
0.23445673 -0.016632851 1.224 0.07715038955 0.8056809306 0.5873041153
0.084987573 -0.080330722 1.3280001 0.02709396742 0.8266007304 0.5621362329
0.13908492 -0.45664164 1.4039999 0.3192209303 -0.2573426664 0.9120705724
0.22488177 -0.035749692 1.2534707 0.1277634352 0.8145896196 0.5657917261
0.32357872 -0.38452435 1.3135387 0.7152777314 -0.2030474991 0.6686923504
0.34834817 -0.23636217 1.3260001 0.7910656333 -0.2399574667 0.5627037883
-0.13722113 -0.039366715 1.2830001 -0.01683146134 0.6650483012 0.7466106415
0.035610199 -0.097334541 1.3540001 0.005148473196 0.7757681608 0.6309970021
0.16547962 -0.31568414 1.4519998 0.3766974211 -0.3716649413 0.8485070467
-0.12964848 -0.018837813 1.2640001 0.07646672428 0.5654889345 0.8212034106
0.49734378 -0.18297933 2.0530002 0.05019540712 0.7529203892 0.6561945677
0.077273786 -0.40157032 1.4450001 0.1830154657 -0.3411724865 0.9220123291
-0.20125549 -0.042070355 1.2970001 0.4150896072 0.4932158589 0.7644859552
0.17502545 -0.42611682 1.4039999 0.3912205398 -0.2740923762 0.8785327673
0.40442422 -0.34412828 1.2323812 0.5612825751 -0.3806959987 0.7348690033
0.37905401 0.091323242 1.427 -0.6817584634 0.6362284422 -0.361135304
0.35437652 -0.32509896 1.2845385 0.7523989081 -0.1874948442 0.6314598322
0.22530718 -0.11421892 1.357125 0.1897310913 0.7550401688 0.6276276708
0.034267146 -0.1334006 1.3959999 -0.02345681749 0.7568197846 0.6532025337
0.073856823 -0.18471658 1.4553334 0.1255775243 0.7360405326 0.6651876569
0.19159549 -0.40667689 1.4100002 0.397349596 -0.1833524257 0.8991636038
0.33169851 -0.038668599 1.2140001 0.291831553 0.942694664 0.1617439836
-0.21430027 0.25388443 1.557 0.5679002404 -0.4862652719 0.6641049981
0.12365668 0.03264948 1.1730002 0.1045433357 0.7843319774 0.6114687324
0.38534999 -0.4450897 1.21496 0.6424967647 -0.0869505927 0.7613392472
0.22487873 0.0052336026 1.1943333 0.08788147569 0.8364236355 0.5409920216
0.34753883 -0.39706311 1.2774444 0.7654548287 -0.2115688622 0.607714951
