# .PCD v0.7 - Point Cloud Data file format
VERSION 0.7
FIELDS x y z normal_x normal_y normal_z
SIZE 4 4 4 4 4 4
TYPE F F F F F F
COUNT 1 1 1 1 1 1
WIDTH 512
HEIGHT 1
VIEWPOINT 0 0 0 1 0 0 0
POINTS 512
DATA ascii
0.18976678 -0.38186198 1.3280001 0.4882968068 -0.231172964 0.841501832
-0.16325462 -0.36433652 2.2710001 0.1880442202 0.9815943837 0.033344917
-0.30153739 0.28456774 1.4890001 0.3227216303 -0.48387748 0.8134576678
0.4549593 -0.11248071 1.9150001 0.9567972422 0.1761199385 -0.2313455343
0.20155267 0.19435437 1.1730001 0.300118804 -0.4390601516 0.846849978
-0.40340781 -0.063695967 1.863 0.9788591266 -0.02303274907 0.2032344788
-0.22385192 -0.14049566 1.2780001 0.02011214197 0.5360789895 0.8439282179
0.3531599 0.18631271 1.5860001 -0.04290756211 0.862927258 -0.503503263
0.30272987 -0.089170814 1.2957501 -0.3320163786 0.6907621622 0.642349422
-0.063481182 0.06152622 1.1140001 0.2199433148 0.3816002607 0.8977784514
-0.4099609 -0.22816828 2.1160002 0.6152558923 0.7857019901 0.064285025
-0.083464801 -0.36500278 1.4210001 0.6284509301 -0.4101938009 0.6609012485
0.15652007 0.43588477 1.325 0.2774156034 -0.5122240782 0.8128142953
0.036226496 -0.12971424 1.3330001 -0.004121538252 0.78467381 0.6198951602
0.073765188 -0.3266744 2.2260001 -0.3503334522 0.9354253411 0.0473914668
0.36869532 -0.39524955 1.1650001 0.6040719151 -0.2062032372 0.7697904706
-0.2490005 0.086971462 1.3590001 0.08655916154 -0.5583966374 0.8250458837
-0.33774605 0.12878089 1.6630001 0.9725958705 -0.03412116691 0.2299849093
0.42935801 0.073918782 1.794 0.9567972422 0.1761199385 -0.2313455343
0.13562998 -0.00931809 1.1810001 0.06346260756 0.8236534595 0.5635312796
0.32138598 0.075402096 1.4100001 -0.2698361874 0.8178332448 -0.5082688332
0.028173963 -0.49665347 1.3280001 0.1535246521 -0.5378585458 0.828938067
0.31163287 -0.26397809 1.274111 0.6559621096 -0.1988105327 0.7281401753
-0.2159493 0.0010283299 1.1730001 0.1454856694 0.501285255 0.852963686
0.07413312 -0.28559393 1.4133334 0.3265789449 -0.3917087615 0.8601804376
-0.12374046 -0.20647812 1.3920001 -0.09793697298 0.6951582432 0.7121540308
-0.074523687 -0.059402931 1.2320001 -0.07148539275 0.7790473104 0.6228765249
0.10493723 0.093942553 1.0568001 0.1160598695 0.5292276144 0.8405047655
0.26456499 -0.49513003 1.241923 0.6525409222 -0.2951744199 0.6978985667
0.18398602 -0.15549788 1.3540001 0.08098375052 0.7179502845 0.691367507
0.27692622 -0.034237165 1.1554 0.06935625523 0.7226441503 0.6877318621
0.17357588 0.31507659 1.2517649 0.5485800505 -0.3484284282 0.7600378394
-0.36382544 0.026319286 1.766 0.9738302827 -0.05610460788 0.2202427834
0.22177914 0.082375109 1.1120001 0.1758574545 -0.2850161493 0.9422525764
0.3871316 0.16441883 1.705 0.8580512404 0.4937382042 -0.1413175464
-0.25970724 0.20062692 1.404 0.4929106236 -0.2132980078 0.8435301185
0.1585028 -0.49766055 1.307 0.408545047 -0.263969034 0.8737341166
0.18468446 -0.078306206 1.2640001 0.0940079838 0.7670416832 0.6346728206
0.02410581 -0.38569725 1.3748749 0.1058941409 -0.2003394067 0.9739869237
0.20057257 -0.27143353 1.3700001 0.4860184789 -0.4346788228 0.7581822872
0.015455809 -0.01236661 1.1754 -0.06191758439 0.8012824059 0.5950737596
0.28657147 -0.37584448 1.2583846 0.7320645452 -0.2236703336 0.6434695721
-0.074145511 -0.13300118 1.316375 -0.09467657655 0.7074334621 0.700410068
-0.003399275 -0.20673773 1.41 0.01332915109 0.6787467003 0.7342514992
0.075384557 -0.066768184 1.2514286 -0.03907108679 0.7655197978 0.6422249079
0.4536899 -0.023032663 1.8330001 0.9567972422 0.1761199385 -0.2313455343
0.2967245 0.015009411 1.317 0.1659927219 0.7851353884 -0.5966647863
-0.0622258 -0.4571203 1.365 0.4912904203 -0.3199324012 0.8101092577
-0.24768814 -0.00114142 1.302 0.1971090585 -0.4332430363 0.8794592023
0.32481316 0.13508381 1.4959999 -0.4499672055 0.7210184932 -0.5269362926
-0.065173514 -0.27418697 1.4519999 0.4836035967 -0.1264377385 0.8661068678
-0.17587204 -0.073683396 1.2270001 -0.01665690541 0.7382264733 0.6743472815
0.1056776 -0.42602602 1.3484004 0.2738524973 -0.313644141 0.9091931581
-0.11555737 -0.0049467371 1.1665003 0.01015788224 0.7232953906 0.6904640794
0.034885447 0.051707681 1.101 0.1235143095 0.6188403964 0.7757452726
0.36775202 -0.32272115 1.223 0.1278815269 -0.3166346848 0.9398876429
0.33289903 -0.17522998 1.2970001 0.4629570544 -0.2487670928 0.8507559896
0.10012235 -0.18215029 1.376 -0.01311712898 0.6367567778 0.7709531188
0.33027452 -0.47211656 1.1810001 0.5717394352 -0.163655296 0.8039470911
0.24522118 -0.31727713 1.3065455 0.4576893151 -0.3346161246 0.8237429857
0.12532896 -0.34564617 1.3716669 0.1152716428 -0.3908962011 0.9131881595
0.11846922 -0.10926773 1.312 -0.03743182495 0.7600951791 0.6487327218
0.14497605 0.038559541 1.1071817 0.1157463938 0.793861568 0.5969812274
-0.15505356 -0.15466811 1.3265001 -0.1358946264 0.7747608423 0.617477417
0.26509348 -0.2287311 1.3380001 0.596329093 -0.3862828612 0.7036882639
-0.004469831 -0.086047173 1.2746665 -0.069831945 0.7794016004 0.6226207614
-0.0043365778 -0.31574175 1.4133334 0.01061739307 -0.5837556124 0.8118600249
0.23142006 -0.43472102 1.2830001 0.4812527895 -0.2730438411 0.8329722881
0.25278243 -0.06131319 1.2270001 0.04568103701 0.7845491171 0.6183817387
0.204831 0.0043980083 1.1441308 0.08561307192 0.8460958004 0.5261105299
0.23301655 -0.12355944 1.3036667 0.04985928908 0.7234248519 0.688600421
0.32499784 0.19586925 1.6550001 0.5814396143 0.8068343401 -0.1046249196
-0.25140169 -0.051977567 1.21 0.1416124851 0.6488904357 0.747587502
0.19242308 0.25734201 1.21 0.4557748139 -0.4160183668 0.7868913412
-0.13383836 -0.10699892 1.2757777 -0.2102901638 0.7546772361 0.6214823723
-0.055247538 -0.17775294 1.37 -0.06600870937 0.7679041028 0.637154758
0.15970412 0.37264293 1.2920001 0.2774799168 -0.4709966779 0.8373571634
0.07512743 0.013899271 1.1458423 0.02589116246 0.8153584003 0.5783773065
0.29527402 -0.4356491 1.2259562 0.7501874566 -0.1918825507 0.6327715516
0.19516023 -0.035870086 1.2033333 0.1835895032 0.7965523005 0.5760201812
-0.045249149 0.0060297148 1.1470002 0.04975232854 0.7378647923 0.6731123924
0.14277744 -0.27324647 1.404 0.2230426818 -0.4627040029 0.8579959273
0.19587341 0.13430272 1.1445792 0.2985613346 -0.5400775671 0.7868782282
0.17085794 0.082159445 1.0650001 0.03457117453 0.6319731474 0.7742187977
0.095420472 -0.49500185 1.3220003 0.1393663883 -0.3453024924 0.928085804
-0.28209731 0.13496897 1.3870001 0.4634449184 -0.4176033437 0.7815537453
0.13500667 -0.048602398 1.2320001 0.02052696981 0.7609083652 0.648534596
0.07481648 -0.027397588 1.2019999 -0.03269029036 0.7840123177 0.6198838949
-0.0060755922 -0.047889959 1.223 -0.06935290247 0.8070365191 0.5864147544
-0.037558157 -0.39375219 1.3820003 0.4465081394 -0.4058763981 0.7974301577
0.0039420775 -0.44308957 1.3490001 0.02895547077 -0.1968766302 0.9800006151
-0.3164416 0.24642047 1.536 0.8846094012 -0.09808692336 0.4559004009
-0.068226583 -0.22204651 1.4150001 0.001278282027 0.8072183728 0.5902515054
-0.37827641 -0.011125777 1.8130001 0.9799175858 -0.03303573281 0.1966473758
0.35207853 -0.21763995 1.2570001 0.5914494991 -0.2300897092 0.7728170753
0.063863412 -0.34209636 1.3920001 0.254090786 -0.3511817455 0.9011710286
0.33434311 -0.37420806 1.2110908 0.4551323056 -0.2917530835 0.8412697315
0.035154831 -0.1747402 1.3760002 0.0167134665 0.6577087045 0.7530869246
0.16895206 -0.43912145 1.317 0.4293955266 -0.3879087567 0.81556499
0.18489888 -0.32479608 1.3458574 0.4608472586 -0.2816620767 0.8415974379
-0.26982486 0.24322239 1.4450001 0.2169309855 -0.6019350886 0.7685148716
-0.23539492 -0.084829181 1.2566667 0.3560537398 0.6640278697 0.657489717
-0.12382916 0.040615965 1.13 0.1046494693 0.3984223008 0.9112124443
0.21570505 -0.49512371 1.2749048 0.5337530971 -0.4099452496 0.7396299839
-0.16571142 -0.03210504 1.1867144 -0.0006424816092 0.6888440847 0.724909246
0.31012082 -0.32327083 1.25 0.6626194715 -0.2448615134 0.707798183
0.321437 0.044557985 1.3590001 -0.3775359988 0.781883359 -0.4961098433
-0.065478675 -0.092902772 1.27675 -0.1439140439 0.7651244998 0.6275931597
0.17444497 -0.11770243 1.3120002 0.0584618859 0.7533762455 0.6549858451
-0.17284799 -0.20549729 1.3438572 -0.7744650841 0.1338268518 0.6182994246
0.23536296 -0.37514728 1.2958097 0.4871143997 -0.2146386355 0.8465517163
0.2417016 0.024750274 1.10725 0.02153442055 0.4911510348 0.8708081841
-0.025140168 -0.49386927 1.3430003 0.1839637756 -0.1993505359 0.9625054002
-0.01561686 -0.12274186 1.3151819 -0.1225189865 0.7687762976 0.627671957
0.064166933 -0.10199022 1.2942222 -0.002173798159 0.7691556215 0.6390578151
0.33529344 0.17101312 1.5359999 -0.3293209672 0.805570066 -0.4925490022
0.36083451 -0.27162316 1.2410001 0.3585731983 -0.3281185627 0.8739356399
-0.066064589 -0.023625156 1.1874616 -0.00370628899 0.7988886833 0.6014675498
-0.16498905 0.015179344 1.1545998 0.1062300801 0.4782143533 0.8717948198
0.095438942 0.054080572 1.0933334 0.00882460922 0.7358736396 0.677061379
0.29904065 -0.21717401 1.2970001 0.6757759452 -0.3837068379 0.6293615103
-0.12492523 -0.055015266 1.2145001 -0.1715281755 0.7449056506 0.6447430849
0.33223212 0.10565236 1.452 -0.2445248663 0.8305730224 -0.5003558993
-0.10485226 -0.16974194 1.3540001 -0.04257752374 0.7651503682 0.642442286
0.3001689 -0.13443859 1.322 0.3947371244 0.314137131 0.8634237051
-0.014938331 0.041960571 1.1131538 0.04276329651 0.5756361485 0.8165869713
-0.26059705 0.038563691 1.3330001 0.08724867553 -0.5157582164 0.8522799611
0.084072344 -0.38433069 1.3700002 0.2600960433 -0.3501898944 0.8998427987
0.055583298 -0.44525769 1.3490001 0.1670961231 -0.2738721371 0.9471393228
0.27029386 -0.27259424 1.312 0.6871061921 -0.2614485919 0.6778862476
0.13168761 -0.079235762 1.273 -0.03807039186 0.7856967449 0.61743927
0.13481358 -0.14317077 1.3462309 0.01312232018 0.7144958377 0.6995165944
-0.1018336 -0.23039852 1.452 0.4531635046 0.6562286019 0.6033298373
-0.18501437 -0.10590923 1.265 -0.09428037703 0.7427319884 0.6629181504
-0.043541528 -0.34553692 1.3962859 0.1904355586 -0.5141350627 0.8363010287
0.2590059 -0.090040676 1.268 0.1023504585 0.7822979093 0.6144382358
0.084845804 -0.14456105 1.3468573 0.05009099469 0.7056771517 0.7067606449
0.024405815 0.017431056 1.1363335 -0.02794903517 0.7686751485 0.6390284896
0.13836692 -0.38790047 1.3490001 0.3401243687 -0.3129810691 0.8867684603
0.19349881 0.045279663 1.0960625 -0.4146807194 0.3614608645 0.8350963593
0.33326107 -0.42457151 1.1932857 0.5156828165 -0.2285639942 0.8257297873
-0.015035417 -0.15510221 1.3540001 -0.1662902236 0.7250705957 0.6682964563
-0.19359705 -0.17303735 1.303154 -0.4597317576 0.4109101593 0.7872734666
-0.064626671 -0.32357681 1.4351821 0.5585639477 -0.4075755775 0.7224184871
0.23455872 -0.016899813 1.1744119 0.2391368747 0.8414818645 0.4844810069
0.30154702 -0.49557087 1.21 0.6850605607 -0.1284009069 0.7170810699
0.27148613 -0.42218864 1.2640001 0.6692900658 -0.1720802635 0.7227995396
0.12922768 -0.45986426 1.3280001 0.1808075607 -0.4868336916 0.8545768261
0.28342894 -0.06379766 1.1930001 0.522495687 0.8108873367 0.2635526359
0.055260055 0.084730774 1.0766128 0.1617822647 0.4877902865 0.8578386307
-0.20542455 -0.047326721 1.2034285 0.02537973598 0.6852967143 0.7278215885
0.27658448 -0.33559114 1.278 0.7273621559 -0.1803488731 0.662131846
0.10494752 -0.3111816 1.3920001 0.297432065 -0.439179033 0.8477357626
0.23178856 -0.2844131 1.3340001 0.5762088895 -0.3648279309 0.7313575745
0.11871995 0.018955287 1.138 0.05406491831 0.8198206425 0.5700623393
0.14837408 -0.30639851 1.376 0.425252229 -0.2951119542 0.8556106091
0.035374004 -0.054685712 1.2334288 -0.01910160109 0.8004920483 0.5990388989
0.1777091 -0.24879274 1.3980001 0.4915219545 -0.4755274653 0.7295750976
0.03815604 -0.30647916 1.4039999 0.1306220144 -0.4079756141 0.9036004543
0.3075043 -0.014302525 1.2880001 -0.9956012964 0.04690908641 0.0811021626
-0.08458703 0.024874119 1.13512 0.1440982372 0.5503879189 0.8223799467
0.2541348 -0.0056093913 1.1340002 0.1481145471 0.7299975157 0.6672074199
-0.10470562 -0.084115483 1.2553571 -0.1180850044 0.7662700415 0.6315743327
0.19557029 -0.46504793 1.2970003 0.4130096734 -0.235615164 0.8797206879
-0.1157435 -0.13672687 1.3150003 -0.1497538835 0.7481775284 0.6463777423
0.21510637 -0.34457982 1.3248421 0.6030989289 -0.1804446876 0.7769886851
0.21830666 0.12117462 1.097 0.8577584624 -0.1415578425 0.4941779375
-0.17505448 -0.13314913 1.2946923 -0.3184035122 0.5722887516 0.7557147741
-0.024932399 -0.023898223 1.1850001 -0.0451332815 0.8125190139 0.581184864
0.21959624 -0.23858833 1.3540001 0.6889579892 -0.2619634867 0.6758047342
0.16437881 0.011336468 1.1409999 0.1249386221 0.8094572425 0.5737327337
0.0086000999 0.081223167 1.09 0.2149596661 0.4498536289 0.8668472171
-0.065490507 -0.42182395 1.3920001 0.5243073106 -0.2083992958 0.8256340623
0.13521293 0.067134388 1.0764285 0.09578794986 0.703399241 0.7043111324
0.014643841 -0.34413028 1.3920001 0.05919167399 -0.4062510133 0.9118423462
0.22460565 -0.076111123 1.2526155 0.0957492739 0.7900417447 0.6055296063
0.034904193 -0.077828906 1.2662221 -0.03501559421 0.7812952399 0.6231786609
0.21114139 -0.41620326 1.3120002 0.5520926714 -0.1931826919 0.8110944033
0.025111241 -0.10729348 1.302 -0.02190566622 0.7531569004 0.6574761271
0.17462836 -0.01368364 1.1747143 0.1325202882 0.8330365419 0.5371112823
0.16686824 0.27305713 1.2360001 0.5406421423 -0.3702703714 0.755384624
0.17876768 0.22280616 1.1960001 0.2968734801 -0.4266605079 0.8542990685
-0.14240135 -0.18428411 1.3649999 -0.2218696624 0.7456955314 0.6282611489
-0.034883879 -0.065411165 1.2434999 -0.04660328478 0.803095758 0.5940246582
0.3621501 -0.44458273 1.1753531 0.4013361931 -0.2562919855 0.8793427348
0.28793767 -0.29802108 1.2780001 0.6984568834 -0.2613871992 0.6662091613
-0.28208065 0.16578752 1.41125 0.3755287528 -0.4722468853 0.7974716425
0.095321037 -0.0081264088 1.174778 -0.04246681929 0.8074335456 0.5884280801
0.054575127 -0.0082392646 1.1746002 -0.07115358859 0.7912168503 0.6073821783
0.17425679 0.40748692 1.302 0.3050208986 -0.5140491724 0.8016955256
0.17495689 -0.053948004 1.2350589 0.1580187529 0.7981829643 0.5813208818
0.25264832 -0.46540478 1.2640001 0.5666414499 -0.2475933433 0.7858848572
0.21258026 -0.097854413 1.2830001 0.1237767041 0.7588544488 0.6393897533
-0.051803987 -0.14952514 1.3430001 -0.1525960118 0.7048419118 0.6927570105
0.30673143 -0.39559829 1.2270001 0.6934744716 -0.2368601114 0.6804339886
0.15647447 -0.03066054 1.2060001 0.1066637859 0.8307933211 0.5462648273
0.16291666 -0.35461819 1.3540001 0.4907370806 -0.2524475753 0.8339348435
0.283777 -0.073345438 1.245 0.005916548893 0.7868847251 0.6170716286
-0.024930201 -0.4248108 1.3649999 0.05762738362 -0.1605451107 0.9853447676
-0.045011468 -0.044517856 1.214 0.001691851881 0.8077412248 0.5895347595
0.18246341 0.35492226 1.268 0.4196206033 -0.4709988534 0.7759372592
0.053370588 -0.41140825 1.365 0.2682311833 -0.4204134345 0.8667782545
-0.08664272 -0.19891216 1.3920001 -0.1173440814 0.7507410645 0.6500909328
0.1689889 0.17584443 1.1730001 0.14504233 -0.426332444 0.8928624392
0.1113805 -0.028640701 1.21 -0.03420141339 0.7960446477 0.6042708158
-0.0050901016 -0.17763984 1.3822 -0.1852461696 0.7120584846 0.6772418618
-0.10354047 -0.02823831 1.1930001 -0.06180688366 0.7705459595 0.6343806982
-0.29087099 0.20473322 1.424 0.4616341591 -0.3102225363 0.8310570717
0.035230778 -0.032911818 1.2032 -0.04978808388 0.81768924 0.573502779
0.061222892 -0.4815416 1.3430001 0.1384398937 -0.497915715 0.8561041355
-0.25249314 0.13043486 1.365 0.3216719925 -0.2534013987 0.9123129249
0.065454118 0.035491213 1.1143889 0.004957246128 0.8039531708 0.594671905
0.095084429 -0.086137176 1.2759999 -0.02760328725 0.7680037022 0.6398502588
-0.045897882 -0.29895648 1.4150001 0.6116907001 -0.2353488952 0.7552783489
0.36823186 -0.36614713 1.1876668 0.5016745329 -0.3687564731 0.78252244
-0.073625974 -0.38521436 1.3920001 0.2788081467 -0.3195956051 0.9056073427
0.20917881 -0.139063 1.3330001 0.1495815068 0.7046884298 0.6935701966
-0.14524572 -0.084877342 1.2437367 -0.2206485868 0.7470398545 0.6270930171
-0.09409555 -0.11253829 1.2880001 -0.1170613244 0.7419644594 0.6601403952
-0.21477544 -0.07350412 1.2270001 0.01826496981 0.7025266886 0.7114229798
0.1056827 -0.27537838 1.398 0.2559078038 -0.2699579298 0.9282423854
-0.24078439 -0.019804776 1.189 0.1455826312 0.5453226566 0.8254870772
-0.014585322 -0.36458305 1.3862503 -0.06864529103 -0.428919524 0.9007307291
0.33590233 -0.29690561 1.2356365 0.4946345091 -0.3789618015 0.7821282744
0.19592825 0.10466465 1.1244118 0.01197442506 -0.4482542872 0.8938258886
0.1405209 -0.16934569 1.3700001 0.07230298221 0.6651507616 0.7432003021
-0.27627197 0.26497898 1.4726251 0.1209084615 -0.540525496 0.8325943351
0.23522019 -0.037974041 1.2032 0.01983316801 0.8208557963 0.5707910657
-0.034244355 -0.19689845 1.3950001 -0.02067148499 0.7407959104 0.6714120507
0.31466812 -0.35550764 1.2340001 0.6577551961 -0.2561565638 0.7083374262
0.22424988 0.11262625 1.1436667 -0.08874700963 -0.5219787955 0.8483290076
-0.011131621 0.0030335588 1.1543334 -0.07019808888 0.7633946538 0.6421065331
-0.027889397 0.07020434 1.097 0.1988357902 0.3842258453 0.9015735388
0.15517351 -0.09643735 1.2919999 0.06861328334 0.7298619747 0.6801424026
0.28177732 -0.46346384 1.2410001 0.7220924497 -0.237869963 0.6496155262
0.26206985 -0.39254239 1.2830001 0.6838162541 -0.2373151779 0.6899831891
0.21524207 -0.055079084 1.2250001 0.0336477682 0.8127748966 0.5816053152
0.30462429 0.055188444 1.3866003 -0.4706013799 0.7251166105 -0.5027327538
0.19394584 0.065961279 1.123 0.1309648752 -0.2783883512 0.9514978528
-0.056976318 -0.49023375 1.3540001 0.3906221092 -0.4038862288 0.8272184134
0.085596859 -0.45591936 1.3375456 0.2935036123 -0.4095052779 0.8638061285
-0.034752622 -0.10149772 1.2880001 -0.01908199862 0.7471155524 0.6644201875
0.14506289 -0.42495531 1.3361578 0.3172821999 -0.3021053374 0.8989239931
0.32493991 -0.22458862 1.2757274 0.5608770847 -0.377530396 0.7368091345
0.31305176 -0.45485467 1.2038182 0.7025541663 -0.2340340465 0.6720458865
-0.045069572 0.032343205 1.1232308 0.1486002803 0.5459564328 0.8245298862
-0.084187172 -0.0010143033 1.1570001 0.06457455456 0.734597981 0.6754227877
0.054548983 -0.15414454 1.3553637 0.06160503253 0.7660862803 0.639778614
0.024436645 -0.20156977 1.3935001 0.07923618704 0.5831065774 0.808522284
0.20559621 0.16341615 1.1559998 0.3354734778 -0.3964696229 0.854557991
0.17231964 -0.28370187 1.381 0.4468738735 -0.4266580641 0.7862993479
0.014118513 -0.47563642 1.3486474 0.1464229226 -0.3792366087 0.9136410356
-0.18509939 -0.0092549697 1.1730001 0.07740847021 0.5669808984 0.8200857043
0.0049733985 -0.06718301 1.25 -0.01284027379 0.7906556129 0.6121265292
0.16469717 0.05590269 1.0836295 0.05054393783 0.727298677 0.6844573617
0.085250072 -0.11635623 1.3140835 0.03152998164 0.7909994125 0.6110039353
-0.1042304 -0.22256812 1.4120001 -0.1767264009 0.8197228312 0.5448139906
0.1270027 -0.49877423 1.317 0.1999694705 -0.3122010827 0.9287317991
0.065440781 -0.18367647 1.3822861 0.113554731 0.6239903569 0.773137331
-0.15877661 -0.18659149 1.322 -0.8279898167 0.01655462012 0.5604987144
0.30694702 0.092544734 1.4330001 -0.1977797747 0.7938908935 -0.5749959946
0.33581766 -0.33719045 1.2182857 0.4533681571 -0.2976694405 0.8401489258
0.28597102 -0.24597161 1.3036666 0.6928862929 -0.2393474877 0.6801627278
0.26224354 -0.11279664 1.296375 -0.08235085756 0.7745903134 0.6270790696
0.3084518 -0.16440232 1.3145 0.5088652372 -0.2091715634 0.835046947
0.24478111 -0.2553274 1.336 0.5221031904 -0.3275015056 0.787496686
0.094090879 -0.35465026 1.376 0.2658388317 -0.261765331 0.9277977347
-0.13455431 -0.02652831 1.1832857 -0.09102534503 0.6753535271 0.7318552136
0.22086477 -0.31435251 1.3330001 0.6167774796 -0.2806139886 0.7354191542
0.10466699 -0.057059601 1.2436668 -0.04567695037 0.7783712745 0.6261403561
0.35468891 -0.39444771 1.1934803 0.3803677261 -0.2816634774 0.8809007406
0.19116944 0.29269445 1.2320001 0.5284417272 -0.368116647 0.7650094628
0.0050259298 -0.41523758 1.365 0.06359000504 -0.3908191025 0.9182683229
0.0046828794 -0.13578378 1.3351874 -0.06207268685 0.7792513371 0.6236299276
-0.13451116 0.015426995 1.147889 0.1097112074 0.478529036 0.8711907864
0.16460139 -0.13688631 1.3345386 0.04927460104 0.7311125994 0.6804751158
-0.027322194 -0.45424357 1.3550001 0.3038835526 -0.4486487508 0.8404576778
-0.14428927 -0.13629712 1.3028334 -0.2196473032 0.7551825047 0.6176199317
0.10867949 -0.12971424 1.3330001 0.002042738255 0.7359090447 0.677077353
0.16741389 -0.40537906 1.3280001 0.4730761349 -0.1674777716 0.8649567366
0.045457955 -0.36556599 1.3845459 0.07095898688 -0.4551659226 0.8875746727
0.17566863 0.027153952 1.1171818 0.07209961861 0.7828919291 0.6179659367
-0.27311498 0.10833321 1.3700001 0.04805835709 -0.52043432 0.8525482416
-0.24216039 -0.11307297 1.2662858 0.2642207146 0.3505441546 0.8985022306
-0.066860735 -0.24095096 1.439 0.3532264531 0.4476971626 0.8214610815
0.22350678 -0.46438622 1.2845792 0.5670557022 -0.2059540898 0.7975153327
0.23124391 0.053217467 1.1036667 0.1817069203 -0.0009987003868 0.9833522439
0.11368176 -0.37520418 1.3649999 0.2876871228 -0.3490236402 0.891862452
0.065459467 -0.046145108 1.2240665 -0.05290582031 0.7930996418 0.606789887
-0.070457697 -0.33992749 1.4100001 0.5508279204 -0.5714070797 0.6083441377
0.20060413 -0.3003127 1.3540001 0.4989147484 -0.3945077658 0.7716525793
0.33249336 0.18578495 1.5640001 -0.04290756211 0.862927258 -0.503503263
0.085198209 0.074111924 1.073222 0.09641130269 0.5632792115 0.8206225634
-0.15541722 -0.052862994 1.2060002 -0.06971918046 0.7089803219 0.7017735839
0.24218881 -0.34565914 1.2970001 0.5193229318 -0.2217805386 0.8252981901
0.23443219 -0.40512928 1.29375 0.4521111846 -0.2580572069 0.853816092
0.33475438 -0.26481849 1.2549288 0.5443089604 -0.293082118 0.7860220075
0.31637177 0.11351401 1.4770001 -0.5186069012 0.72784549 -0.448651135
0.0052468502 -0.030431729 1.197 -0.03984177858 0.8317499757 0.5537189245
0.18458855 -0.49435818 1.2928621 0.4313884079 -0.2779366076 0.8582862616
0.2047272 -0.017245349 1.1742502 0.07330992818 0.7987733483 0.5971488953
0.31471792 -0.11568896 1.3022778 0.2694524825 0.3898687661 0.8805667162
0.13473296 0.093219653 1.057 0.08837491274 0.5612720847 0.8228994608
-0.25617558 0.15370375 1.3832502 0.435162127 -0.5323515534 0.7261100411
-0.23899598 0.0230914 1.317 0.1476797163 -0.4589936435 0.8760796189
-0.084894836 -0.15379986 1.3346667 -0.1218309551 0.7352631092 0.6667423248
0.1550822 -0.065690577 1.2537622 0.02816288732 0.7936357856 0.6077409983
-0.045144107 -0.12517087 1.3142729 -0.1241928488 0.756125927 0.6425338387
0.024957824 -0.15331529 1.3556669 -0.04847568646 0.7505860329 0.6589922309
0.064978532 0.060200695 1.09 0.1103297696 0.6704578996 0.7336985469
0.075887069 -0.31456324 1.3962001 0.2368077934 -0.3567555547 0.9036855102
-0.27642614 0.077782251 1.365 0.101817511 -0.5032404661 0.8581271768
0.10472434 0.036920689 1.1154284 0.008699459024 0.8029476404 0.5959860682
0.22618511 0.0040808832 1.1238573 0.3171359301 0.7817077041 0.5369896889
0.31437287 -0.29511008 1.2569631 0.6029758453 -0.342992276 0.720261395
0.14586067 -0.12276927 1.317 0.1017971635 0.7343904376 0.6710499525
0.15565655 -0.46507731 1.3152608 0.4201597869 -0.3312600553 0.8448269367
0.3151406 0.023068607 1.3380002 -0.02526485734 0.7974703908 -0.6028289199
-0.2139997 -0.10436317 1.2590002 0.07343938202 0.5950505733 0.8003258705
0.26215741 -0.36376759 1.2846668 0.657643497 -0.1846503466 0.7303487659
-0.15474832 -0.012041674 1.169 0.05577294156 0.5834671259 0.8102194071
-0.094318368 0.05162821 1.1325001 0.1834336817 0.4035121799 0.8963983655
-0.10519524 -0.065807365 1.2334287 -0.1237529665 0.7634342909 0.6339190006
0.20420131 0.027700255 1.1185001 0.1109579653 0.6145797968 0.7810121775
0.33769068 -0.19903533 1.2755001 0.6634667516 -0.351593405 0.6604498029
-0.2628884 0.065764152 1.3430003 0.2307805866 -0.5029590726 0.832930088
0.15362568 -0.33393636 1.3712002 0.4965426922 -0.3677894771 0.7862418294
-0.2049816 -0.025115069 1.1856315 0.1068218797 0.5674721599 0.8164339662
0.064031735 -0.13155611 1.3280001 -0.02707223222 0.7493322492 0.6616405845
0.20537874 -0.11496297 1.3043078 0.1166647598 0.7388023138 0.6637473106
0.28720728 -0.40523976 1.245 0.76557374 -0.1626329422 0.6224527359
0.37020758 -0.34899223 1.21 0.3705701828 -0.4066681266 0.8350441456
0.01469153 0.036048267 1.1174999 0.0709226951 0.691590488 0.7187994123
0.21468486 -0.38531259 1.3120002 0.5731514096 -0.1976744235 0.7952498198
0.033472009 -0.0010143033 1.1570001 -0.1220851168 0.7965938449 0.5920586586
0.18596244 -0.35487157 1.3380001 0.4295401871 -0.3341447413 0.838953197
-0.034889333 -0.083736695 1.2662858 -0.03261875361 0.7811581492 0.6234805584
-0.13457808 -0.16541526 1.3458002 -0.2191852778 0.7324492335 0.6445742249
0.1843694 -0.096244588 1.2855 0.0984358713 0.7574132085 0.6454731822
-0.045092225 -0.011273056 1.169 0.03229135275 0.8017292619 0.596814394
0.26834065 -0.30472583 1.2970001 0.6987242699 -0.2539691925 0.6687930226
-0.014694469 -0.33544925 1.3965001 0.1109886169 -0.4013969898 0.9091545343
-0.065147005 -0.11287332 1.2961668 -0.1490769982 0.7268041372 0.6704713702
0.24119787 -0.49347684 1.2640001 0.4963034689 -0.3842432797 0.7784857154
0.12524147 -0.29304072 1.3870001 0.2013741285 -0.3287705481 0.9226908088
-0.082871303 -0.17895396 1.3700001 -0.1049640328 0.7576551437 0.644159317
0.36303863 -0.29580924 1.2270001 0.1895805448 -0.3466735184 0.9186276197
-0.26540032 0.0057947668 1.322 0.197699517 -0.4363415837 0.8777931929
0.25673971 -0.040790424 1.1730001 0.5777953863 0.7685534954 0.2747325599
0.28502449 -0.095010504 1.275 -0.2737774849 0.7953129411 0.540854156
-0.26896572 0.2226786 1.427 0.2621829212 -0.4903762937 0.8311384916
0.074820444 -0.42477417 1.3547144 0.08999879658 -0.256937176 0.9622284174
0.10460404 -0.1613142 1.3590001 -0.02257988602 0.6843393445 0.7288140059
-0.094552472 -0.045685668 1.2118665 -0.08739214391 0.7576450109 0.6467894912
-0.064721964 -0.075695492 1.2513334 -0.104673706 0.7735437751 0.625038743
-0.0051663355 0.023638163 1.1310526 -0.02876581065 0.7304161787 0.6823963523
-0.25724557 0.17354845 1.4039999 0.5768584609 -0.3430477083 0.7413181663
0.2033937 -0.24697804 1.381 0.5523064137 -0.3423398137 0.7601059675
0.32492134 -0.14529762 1.3050555 0.6247549057 0.03269425407 0.780136168
0.35350853 -0.24606133 1.245 0.5014566779 -0.2776474059 0.8194224238
0.29589713 -0.34538633 1.2555202 0.7148447037 -0.1771033406 0.6764846444
-0.19170333 0.01521455 1.1570001 0.1233480722 0.4945614338 0.8603454232
-0.072537594 -0.29645798 1.439 0.593650341 -0.1976660043 0.7800688744
-0.1982754 -0.13429159 1.2729999 -0.4807859361 0.3820163608 0.7892454267
0.2879324 -0.26760775 1.2880001 0.6734856963 -0.2564389706 0.6932936311
0.33411732 0.15336968 1.516 -0.2657023966 0.774551928 -0.5739961267
-0.004277661 -0.10363878 1.2946923 -0.1111337543 0.7774230242 0.6190822124
0.13495056 0.0068336162 1.1552498 0.09329020232 0.825873971 0.5560837388
0.31312954 -0.19518282 1.302 0.4717766643 -0.2750685513 0.8377135992
-0.24085189 -0.07236357 1.2320001 0.2470856309 0.7761721611 0.58009094
0.37375894 -0.42138472 1.1810001 0.5230731368 -0.2484320402 0.8152766228
-0.19536954 -0.091681801 1.245 -0.02229949459 0.7490045428 0.6621895432
-0.1085664 -0.19180064 1.376 -0.06297639757 0.751999855 0.6561480165
0.17351425 -0.30474687 1.3649999 0.5185312033 -0.3678910136 0.7718689442
0.2179969 -0.26766708 1.3490001 0.6475163102 -0.3760223389 0.6628195643
-0.16238479 -0.17275822 1.3442 -0.6985661983 0.2553832829 0.6684194803
0.047485527 -0.32849577 2.2260001 -0.1138672531 0.9933136702 0.01903244294
-0.18393168 -0.35797456 2.256 0.4145022929 0.9095035791 0.03148066252
0.064739399 -0.084173627 1.2749231 -0.009527930059 0.7930144668 0.6091282964
0.31509 -0.42492807 1.2127244 0.6898991466 -0.1809197366 0.7009330988
-0.014412401 -0.39514002 1.3700004 -0.09378698468 -0.2907945812 0.952177763
-0.29141188 0.22833572 1.439 0.2944590747 -0.5150783658 0.804977119
0.19746143 -0.43704692 1.3045001 0.4985364974 -0.3762215674 0.780972898
0.16673075 -0.37552118 1.3380002 0.4989613891 -0.3012493551 0.812580049
-0.045347575 -0.32461131 1.4118181 0.4756127298 -0.3805262744 0.7930903435
-0.025475407 -0.13859555 1.3330001 -0.07519225776 0.7504374385 0.656650424
-0.10553148 0.015072321 1.1464401 0.1156886891 0.5841443539 0.803362608
0.0048361495 0.055124693 1.1032398 0.1311273426 0.5265748501 0.8399550915
0.28933376 -0.11207613 1.3045001 -0.2279828787 0.5707964897 0.7888061404
0.20208113 0.21561985 1.1882001 0.3610345423 -0.4244842529 0.8303415775
0.12304192 -0.31966773 1.376 0.04579650983 -0.3995811641 0.9155531526
0.28351051 -0.4854086 1.225 0.7078377008 -0.2186213136 0.6716922522
0.05526365 -0.38443491 1.3703752 0.1376608163 -0.3149315715 0.9390780926
0.24984474 -0.41790172 1.2780001 0.5587323308 -0.2611386478 0.7871624827
-0.14464766 -0.066956192 1.2252221 -0.1784178466 0.7426698804 0.6454522014
0.10394087 0.0078240894 1.1551818 -0.01838284358 0.8049854636 0.5930097103
0.28394356 -0.22367799 1.322 0.7180472612 -0.3428206742 0.6057079434
0.095326252 -0.10327381 1.2945 0.01337259635 0.7905011773 0.6123145223
0.054904468 0.024106082 1.134762 -0.05056097358 0.8191604614 0.5713315606
0.25597498 -0.29563785 1.317 0.5327702165 -0.303545922 0.7899466753
-0.084154159 -0.25387681 1.4519999 0.3641975522 0.3367320895 0.8683153987
0.32739818 -0.39788219 1.2060001 0.6064564586 -0.2626144886 0.7504959702
0.2772283 -0.43767142 1.245 0.7717397213 -0.1856032461 0.6082509756
-0.15783243 -0.10043883 1.2590001 -0.1247427091 0.7646926045 0.6322060823
-0.11470904 -0.15451147 1.3351874 -0.06026441604 0.747587204 0.661423862
0.034550313 -0.42675591 1.3590001 0.04397078231 -0.4288593829 0.902300477
0.13627669 -0.36520684 1.359 0.209327817 -0.2992390692 0.9309338331
0.0046849069 -0.49542451 1.336 0.09184469283 -0.5705904961 0.816082716
0.18663795 0.33507514 1.245 0.5515955091 -0.365729928 0.749655962
-0.12484662 -0.12211774 1.2970001 -0.1945209205 0.7198928595 0.6662700772
0.045448076 -0.11678156 1.3124169 -0.02507111989 0.7789991498 0.6265235543
0.16704707 0.33603337 1.2640001 0.5261101127 -0.3655261993 0.7678533196
-0.27952078 0.29382184 1.483 0.3227216303 -0.48387748 0.8134576678
0.18704034 -0.41564521 1.317 0.4236933887 -0.1586259007 0.8918080926
-0.032309551 -0.16872765 1.365 -0.1183167696 0.6840986609 0.7197292447
0.18221167 0.37679571 1.2830001 0.266433686 -0.4640852809 0.8447709084
-0.055010248 -0.43483543 1.3740001 0.5045205951 -0.3058684766 0.8074054122
0.15435725 -0.15554646 1.3544168 0.1280206144 0.6740931273 0.7274676561
0.094443306 0.023258198 1.1340001 -0.01919131912 0.8125966787 0.5825103521
0.0951683 -0.40566343 1.3569999 0.273879081 -0.2429713309 0.9305671453
-0.071071364 -0.039248366 1.21 -0.063619636 0.7806559801 0.6217143536
-0.18311462 -0.18775044 1.322 0.01087030116 0.6901979446 0.7235389352
0.24677166 -0.024089221 1.1545999 0.5312346816 0.6952289939 0.4841965735
0.23539826 -0.095311023 1.2749999 0.0001117049833 0.7873556018 0.616499126
0.1059434 -0.46684954 1.3280001 0.1243177801 -0.3879114389 0.9132742286
-0.15506123 -0.12299614 1.2853078 -0.183198303 0.7264270186 0.6623761654
0.17472243 -0.47463462 1.3040832 0.4575094283 -0.3064598441 0.834725976
-0.038994133 0.052642077 1.1120001 0.2061843872 0.4387016892 0.8746592402
0.12535807 -0.40800506 1.3490001 0.1976830661 -0.3709681332 0.9073610306
0.33039725 0.087938428 1.4330001 -0.1977797747 0.7938908935 -0.5749959946
0.14488669 0.021830754 1.132 0.1196958497 0.8080632687 0.5768073201
0.035400592 -0.464811 1.3481433 0.08075680584 -0.4016300738 0.9122344255
0.12495914 0.053848263 1.0934091 0.09824369848 0.75958848 0.6429412961
-0.20611268 -0.15295595 1.2880001 -0.2634558678 0.4345281124 0.861264348
0.095424406 -0.045567255 1.225 -0.06293485314 0.7975631952 0.599943459
-0.01524874 -0.46567306 1.3380001 -0.0581642054 -0.2413869202 0.9686843157
0.15524252 -0.0029245601 1.1661428 0.1630147845 0.8377065063 0.5212235451
0.1945982 -0.064723656 1.2428668 0.1345500648 0.8239825964 0.5504079461
-0.17463481 -0.14675996 1.3140001 -0.7152841091 0.4584045708 0.5274788141
0.0047865999 -0.16154775 1.365 -0.08226057887 0.7036749125 0.7057442069
0.16293551 -0.079235762 1.273 0.1070723534 0.7869851589 0.6076099873
-0.054052997 -0.36616775 1.3920001 0.3541072011 -0.2315749079 0.9060801268
0.15074897 -0.4475725 1.3330001 0.4261286259 -0.2733961046 0.8623624444
0.034316238 -0.32886398 1.3980001 0.1211224645 -0.375418812 0.9189069867
0.074431628 -0.16202641 1.365 0.07504273951 0.7073162794 0.7029027343
0.17154613 0.25410271 1.223 0.5165272355 -0.4320510328 0.7392777205
0.34476441 -0.31485245 1.2234443 0.3003005385 -0.3071170449 0.9030496478
0.32952321 0.19326468 1.5860001 -0.04290756211 0.862927258 -0.503503263
-0.024530888 -0.038247213 1.2035 -0.07589381933 0.8190657496 0.5686575174
0.30208561 -0.37388983 1.2410001 0.7289768457 -0.2307940871 0.6444585323
0.029541036 0.06956438 1.087 0.2056751996 0.5081114173 0.8363734484
0.31186557 0.0020606925 1.3050001 0.1659927219 0.7851353884 -0.5966647863
0.18592416 -0.001915127 1.156111 0.08333558589 0.8085312843 0.5825223327
0.26299673 -0.44460851 1.2642858 0.6049252152 -0.2313352972 0.7619379759
-0.19497237 -0.062808849 1.2172143 0.0302526094 0.7048869729 0.7086741924
0.084904835 -0.33477888 1.3836253 0.3466290832 -0.3641076684 0.8644500375
0.26217788 -0.045205317 1.21325 0.3720567524 0.8069338799 0.4587281346
0.30534151 -0.23552836 1.2844588 0.6989482641 -0.2910333276 0.6532770991
0.22470123 0.0025704543 1.1557691 0.3528980315 0.8312163353 0.4295839965
-0.095945261 -0.015730498 1.1751335 0.007608995773 0.7657977343 0.6430364847
0.11459786 -0.09406127 1.2857778 -0.08640181273 0.7728793621 0.6286431551
-0.06569925 -0.19224805 1.385 -0.07501582801 0.7579147816 0.6480261087
0.11147606 -0.072845742 1.2590001 -0.05671624839 0.7541541457 0.6542437077
0.2188949 -0.030228343 1.189 0.0305838082 0.8030195236 0.5951673985
0.26281261 -0.33497775 1.2963752 0.5862416029 -0.2817272246 0.7595726252
0.33326307 -0.24239832 1.2640001 0.4711050987 -0.2795578539 0.8366046548
0.30956414 -0.47641397 1.197 0.721586287 -0.09121994674 0.6862887144
0.16794655 0.041504029 1.1010001 0.04144926742 0.7678652406 0.6392690539
-0.054156959 -0.20801196 1.404 -0.04697951302 0.7296084762 0.6822494864
0.013709784 -0.36501858 1.3833078 0.231302917 -0.3689660728 0.9002016187
0.20473766 -0.36523122 1.3247001 0.5297881961 -0.3637277186 0.766176641
-0.10448239 -0.09842287 1.2737142 -0.1020047143 0.7413726449 0.6632960439
0.043524746 -0.18833606 1.3920001 -0.01277258527 0.5884854794 0.8084068894
0.094071336 -0.2938191 1.4040002 0.3326086998 -0.2918168604 0.896780014
0.014242407 -0.094375797 1.2857274 -0.007824870758 0.8014419675 0.5980213284
-0.22494535 -0.056236695 1.2103335 0.07647578418 0.679064095 0.7300845385
0.1791144 0.19429941 1.1810001 0.1671756804 -0.510114491 0.8437034488
-0.27290633 0.1860725 1.4150001 0.4943743646 -0.1967819184 0.8466822505
-0.13411321 -0.14638455 1.3237144 -0.1872537881 0.7639472485 0.6175116897
0.11817262 0.078885682 1.067 0.09976837039 0.6275830865 0.7721306682
0.22493583 -0.36395496 1.3122634 0.5928880572 -0.2845041454 0.7533532381
-0.045449674 -0.031730309 1.1955457 0.04628523812 0.7985827327 0.6001027226
0.053572223 0.011118763 1.153 -0.09880158305 0.7880743742 0.6075994372
0.28790784 -0.31903303 1.268 0.6963276863 -0.274050951 0.6633429527
-0.042574439 -0.46950147 1.3490001 0.3544043899 -0.463589251 0.8120853305
0.26802519 -0.24526367 1.317 0.7193476558 -0.3025284111 0.6253123283
0.10561374 -0.44597808 1.3377059 0.2024772465 -0.4053640664 0.8914499283
0.016163981 -0.12122985 1.317 -0.01139280014 0.7729728818 0.6343367696
0.18250951 -0.26241419 1.381 0.5281232595 -0.4106176198 0.7432892919
0.10579902 -0.33556241 1.376 0.2601275444 -0.2988273799 0.9181698561
0.0545725 -0.06221265 1.245 -0.01166216377 0.7944636345 0.6071997285
0.17525129 -0.026043013 1.1949999 0.1227920651 0.8201585412 0.558804214
0.1555199 -0.044418182 1.2244999 0.09372709692 0.783906281 0.6137639284
-0.07633131 0.042727161 1.123 0.2453836054 0.4135318696 0.8768000007
0.13427202 -0.03066054 1.2060001 0.04439049214 0.8128557205 0.5807710886
0.18510993 -0.13155611 1.3280001 0.1261980981 0.7161076069 0.6864866614
0.076066963 -0.48534665 1.3268 0.3281743526 -0.4953384995 0.8043266535
0.0145777 -0.043026507 1.2167778 -0.01956559904 0.816541791 0.5769547224
0.065789379 -0.36476457 1.3760002 0.1969361603 -0.3722182512 0.9070114493
-0.22492178 -0.034523867 1.1933203 0.1247977316 0.5706520081 0.8116537333
-0.18578024 -0.042185761 1.1948181 0.01762119308 0.6789942384 0.7339320779
0.29817826 -0.46477214 1.2167273 0.7199822664 -0.19612813 0.6657021046
0.18515636 0.013665041 1.1340001 0.06385502219 0.8093682528 0.5838198066
0.073952973 -0.40351042 1.3649999 0.2093712687 -0.4155438542 0.8851479888
0.16862902 0.29305431 1.245 0.5414156318 -0.3708507121 0.7545454502
0.045410059 -0.093794577 1.2861819 -0.03404920921 0.7933035493 0.6078734994
0.075427197 0.093756974 1.0721251 0.1921564788 0.4431798756 0.87559551
0.33455297 -0.44557953 1.1870688 0.5149870515 -0.2654856741 0.8150495291
0.32960474 0.18164885 1.6710001 0.6103560925 0.7833397985 -0.1176613495
-0.015398942 -0.07370019 1.2546667 -0.1053737998 0.7870585322 0.6078118086
0.15766549 0.41490903 1.3141429 0.2774156034 -0.5122240782 0.8128142953
0.13550454 -0.47767708 1.3170002 0.2799946666 -0.3337136209 0.9001322985
