# .PCD v0.7 - Point Cloud Data file format
VERSION 0.7
FIELDS x y z normal_x normal_y normal_z
SIZE 4 4 4 4 4 4
TYPE F F F F F F
COUNT 1 1 1 1 1 1
WIDTH 512
HEIGHT 1
VIEWPOINT 0 0 0 1 0 0 0
POINTS 512
DATA ascii
-0.1133505 -0.053396516 1.4960002 0.4163598716 0.3828585148 0.8246598244
0.46083912 -0.46710902 3.5760002 -0.1869219691 0.9056342244 0.3806400001
-0.36386049 -0.33232594 2.7670002 -0.3819336295 0.7789566517 0.4973461926
0.49614951 0.12672217 2.45 -0.8415343165 0.370875299 0.3927740753
-0.35648686 0.083989047 2.1290002 -0.5787286758 0.7796830535 -0.2390972674
0.26012716 -0.49278748 1.8430001 -0.7828994989 0.138995707 0.6064227223
0.23355189 0.37400967 1.863 -0.9523422718 0.1653085053 -0.2563537359
0.49255079 -0.20500763 3.0370002 -0.2791720033 0.8752525449 0.3949632347
0.0027860466 -0.44576746 3.1780002 -0.3882325888 0.7909340858 0.4729679823
-0.18136041 -0.49184945 1.6550001 0.3637144566 0.0669542104 0.9291011691
0.2958408 -0.053561702 1.7129999 -0.6000742316 0.6929711103 0.3996272385
-0.21782711 0.36446893 1.6240001 0.5524970293 -0.262391299 0.7911370397
0.085054196 0.16065793 2.1560001 -0.2448476404 0.8661468625 0.435705483
-0.26847917 -0.057991501 2.45 -0.2303551733 0.8495415449 0.4745689034
-0.0079075331 -0.18187326 1.8040001 -0.3419918418 0.8018000722 0.4900594354
-0.41956389 -0.4828943 3.0100002 -0.3706412315 0.7357974648 0.5667690635
-0.17265424 -0.33746055 2.9840002 -0.3758229017 0.7336820364 0.5660987496
0.13314873 0.06121267 1.5290002 -0.2912659049 -0.4180897772 0.8604447246
0.232492 -0.3364296 3.1200001 -0.1782957613 0.8308036923 0.5272341967
0.11025223 -0.47378659 3.3990002 -0.1333197355 0.8999074697 0.4152016342
0.042907577 -0.42447853 1.748 -0.4639725387 -0.07123419642 0.8829808235
-0.23725493 0.17410074 1.9470001 -0.5826855302 0.7573307157 0.2948351502
-0.14135461 0.01791819 2.2710001 -0.0794480592 0.9505110383 0.3003610671
0.19313931 -0.26577291 1.8830001 -0.5700766444 -0.710201025 0.4130703807
-0.20273355 -0.26280275 1.7130001 0.187855944 -0.3746394217 0.9079402089
-0.18261404 0.15826552 1.5430001 -0.07849010825 -0.3526735902 0.9324487448
0.42381427 -0.41201434 3.3650005 -0.2146621495 0.8963288069 0.3879624605
0.28929561 0.23703577 2.1290002 -0.9962714911 0.002029083669 0.08624994755
-0.2133456 -0.48686558 3.1200001 -0.3658437133 0.715508461 0.5951521397
0.043894175 -0.082910404 1.6362002 -0.247962147 0.8639672399 0.4382640719
-0.36669037 -0.23459074 2.598 -0.4004309177 0.7993706465 0.4479527175
0.40397677 -0.26467443 3.1780002 -0.2834904492 0.8526095152 0.4389649034
0.16541122 0.10489492 2.3010001 -0.05601614714 0.9637321234 -0.2609264553
0.15430327 -0.13262857 1.7659999 -0.1157938391 0.8710260987 0.4773943126
-0.11369367 -0.14691828 1.6334002 -0.3474104702 0.8540095687 0.3872642815
-0.20095567 0.14933403 2.1030002 0.08558338135 0.9934470654 -0.07575246692
-0.085780621 -0.36597946 1.6849232 -0.5811228752 -0.2747123539 0.766047895
0.38356358 0.18867181 2.365 -0.2416179776 0.858833611 0.4516918957
0.26615807 0.052104101 1.6063334 -0.6778582931 -0.1044934168 0.7277288437
0.49062037 0.045218468 2.5790002 -0.3008297682 0.8239634633 0.4801933765
-0.0012948366 0.041434772 1.4770001 -0.2834944129 -0.5028463006 0.8165638447
0.16816688 -0.38325179 1.8040003 -0.3461405635 -0.3401221335 0.8743590117
0.2825672 0.34158438 2.0400002 -0.931209147 -0.36418432 0.01480763871
0.17615214 -0.047647711 1.6470001 -0.4057305157 0.7155950665 0.5686004162
-0.36766085 0.14941469 1.9150001 -0.99424541 0.05143348873 -0.09397131205
-0.045559272 -0.49459141 1.6630001 -0.4916258156 -0.3839291036 0.7816025019
0.063576572 -0.29700693 1.8040001 -0.132004723 -0.3390698731 0.9314538836
-0.30083692 -0.37931612 2.9840002 -0.378498733 0.7470831871 0.5464479923
-0.32772255 -0.0077567464 2.2120001 -0.4079993963 0.8957767487 0.1764099896
-0.084716685 -0.26801279 1.7570001 -0.1592267752 -0.8413097262 0.5165701509
0.14398199 -0.49387366 1.7659999 -0.1536910236 -0.1978694499 0.9681047201
0.1187068 -0.33679605 3.1490002 -0.167789951 0.8937335014 0.4160372615
-0.086085446 -0.39315316 3.0369999 -0.3533630967 0.670979619 0.6518595219
-0.19492245 -0.37829393 1.6470001 0.1799791157 -0.1835391521 0.9663958549
-0.16081223 0.049173985 1.516 -0.2771152854 -0.5145566463 0.811442256
0.10559011 -0.18681328 1.853 -0.1851580143 0.8634889126 0.4691518247
-0.21179126 0.26162452 1.5790001 -0.3597995937 -0.3560968041 0.862403214
0.33883166 -0.29275054 3.0920002 -0.2791720033 0.8752525449 0.3949632347
-0.006376999 -0.052368689 1.5430001 -0.4710904956 0.7209271789 0.5082694292
-0.023915466 -0.14199808 1.705 -0.3667994142 0.8627386093 0.3480521739
0.35356405 0.09950605 2.4150002 -0.1026547849 -0.8053848743 0.5837955475
0.0054703997 -0.35831121 3.1200001 -0.2634207904 0.7072571516 0.6560463309
0.25350571 -0.11423405 1.7850001 -0.2463632971 0.8656181693 0.4359017015
0.10467069 -0.023913916 1.5757694 -0.2268826365 0.7972670794 0.5593652725
0.25179181 -0.36225533 1.853 -0.3708529472 -0.2177036703 0.9028140306
-0.19385554 -0.16721891 1.6880001 0.2742451429 0.8163785934 0.5082476139
-0.014906203 -0.3445144 1.7479999 -0.6092280746 -0.421310544 0.6718173623
0.065305531 -0.1275702 1.7323333 -0.1775151044 0.8587693572 0.4806283116
-0.10416379 -0.18518007 1.7220001 -0.4389285445 0.7956736088 0.417426914
0.19498926 0.0069144648 1.5774446 -0.2190737128 0.6763073206 0.7032887936
-0.076781973 -0.10009079 1.5640001 -0.365424186 0.8373476267 0.4065883458
0.21534808 -0.08740069 1.7130001 -0.172293365 0.8358141184 0.52127707
-0.1192591 -0.43536755 1.6390001 -0.499306947 -0.09604094923 0.8610857725
-0.20267832 0.19023316 2.0280001 -0.2113057971 0.8795731664 0.426263839
0.14756374 -0.30311832 1.8230001 -0.3578322232 -0.4261651337 0.8308666348
0.25408363 -0.024406109 1.6374445 -0.2789001465 0.7362252474 0.6165931821
0.067204386 -0.45289916 3.3330002 -0.290694803 0.8899921775 0.3512982428
0.053604078 -0.0031010623 1.5159999 -0.4175360203 0.7132556438 0.5629654527
-0.025078023 -0.42433345 1.705 -0.6112229824 -0.2446493208 0.752697289
0.11635121 -0.0898408 1.6799999 -0.1968037933 0.8505381346 0.4877019227
0.094974563 -0.36588562 1.7760001 -0.2123105377 -0.5317501426 0.8198572993
0.18158309 -0.16712072 1.8330001 -0.05496324971 0.8909211755 0.4508197606
-0.013761475 -0.26539987 1.7939999 -0.5558222532 -0.3490310609 0.7544792295
-0.13331878 -0.30281702 1.6960001 -0.2021225989 -0.5863658786 0.784424305
0.017276764 -0.49498764 1.7220001 -0.5903030634 -0.2923175395 0.7523913383
0.17543635 -0.19642155 1.9150001 -0.9968627691 0.06909888238 0.03860022873
0.20480511 -0.45231092 1.8040001 -0.4750148654 -0.4579281211 0.7514404655
-0.054760102 -0.014545653 1.4640001 -0.2035185397 0.3895222247 0.8982497454
-0.034396194 -0.11465766 1.6348002 -0.3433621526 0.8385641575 0.4229805768
-0.17101838 -0.1446009 1.5860001 -0.2466495633 0.8411937952 0.4812037051
-0.19184272 0.069221601 2.256 -0.2298903614 0.8672174811 0.4416834712
-0.1832961 -0.20794095 1.7570001 -0.704300642 0.113973029 0.7006930709
-0.26741138 -0.34197801 2.9330001 -0.378498733 0.7470831871 0.5464479923
0.12314975 -0.25779349 1.8730001 -0.1173543185 -0.9608767033 0.2508863211
-0.1029119 -0.32984585 3.0100002 -0.3533630967 0.670979619 0.6518595219
0.065836966 0.062689379 1.4960001 -0.2694728971 -0.2231450975 0.9367980957
0.037564289 -0.19762082 1.863 -0.02620353736 0.9404302239 0.3389755189
0.06484177 -0.15973218 1.8040001 -0.223983407 0.7321481109 0.6432655454
0.4652698 -0.29532093 3.1780002 -0.2740740478 0.8443456888 0.4603952169
0.12540366 -0.42575312 1.7659999 -0.1913520992 -0.2103123069 0.9587247372
-0.19483303 -0.3153742 1.6710002 -0.4006775618 -0.4269855917 0.8106421828
0.23124187 -0.3705442 3.1780002 -0.1908709109 0.892440021 0.4088020921
0.47978565 -0.24124815 3.0920002 -0.2834904492 0.8526095152 0.4389649034
0.078555472 -0.48211494 1.7570001 -0.456227541 -0.3868086934 0.8013959527
-0.23729175 0.13885961 2.0050001 -0.1998413056 0.9269518256 0.3175276518
0.30754432 0.01299483 1.6470001 -0.5954061151 0.4348393381 0.6755785346
-0.14203314 -0.10415764 1.5430001 -0.05225009471 0.8409653902 0.5385602713
-0.05083001 -0.17713489 1.7570001 -0.3333728313 0.7837952971 0.5239537358
-0.11247282 -0.49687362 1.6240001 -0.2402844429 -0.07346016914 0.9679188728
0.25389493 -0.42583647 1.8330001 -0.5565892458 -0.3172752857 0.7678182125
0.3450779 -0.31747168 3.1490002 -0.2459866703 0.8732389808 0.4206474125
-0.06491366 -0.31551057 1.7220001 -0.483183533 -0.391405046 0.7831575871
-0.20223999 0.11718579 2.1560001 0.1113971844 0.9918329716 -0.06211265922
0.045925278 -0.045928348 1.5755002 -0.3395137191 0.7753592134 0.5324927568
0.18509939 0.066498674 1.5640001 -0.372730583 -0.2301213145 0.8989527822
0.20427023 -0.32521668 1.8430002 -0.7575496435 -0.2056992203 0.6195210814
0.024493366 -0.11480546 1.6832001 -0.2840987444 0.8647130132 0.4141971469
0.096812055 -0.058371972 1.6240001 -0.2087260187 0.8083568215 0.5504477024
-0.055061445 -0.056983732 1.5051819 -0.263011843 0.7959035635 0.5453093648
-0.1438458 -0.353297 1.6630001 -0.1964351982 -0.4664344788 0.8624686003
0.03619932 -0.3530407 1.7760001 -0.3974310458 -0.4371690452 0.8068034649
-0.0052459734 -0.017049415 1.4960002 -0.4721514881 0.6160722971 0.6304981112
0.033745531 -0.25550187 1.8330001 -0.1645273417 -0.7786537409 0.6054990888
-0.1959326 0.31341776 1.605 -0.1055375487 -0.4258592725 0.8986132145
-0.15691282 0.10551033 1.5430001 -0.05414095521 -0.2864861786 0.9565533996
0.01386273 -0.15454377 1.7570001 -0.2547960877 0.878256619 0.4046532214
-0.072757192 -0.42238238 1.6710001 -0.6013178825 -0.2844406664 0.7466661334
-0.1824808 -0.4339307 1.6390001 0.5643935204 -0.171007514 0.8075991273
-0.023636686 -0.086667843 1.5860001 -0.4425624907 0.7993062139 0.4065071344
-0.14544557 -0.0052869576 1.5082502 0.06646104902 -0.2136782706 0.974640727
-0.19326466 0.20855899 1.5860001 -0.3752014637 -0.3635944426 0.852656424
-0.071780592 -0.14795591 1.6710001 -0.3215253949 0.8553628325 0.4061722159
0.1544393 -0.025272984 1.6014999 -0.3218100667 0.7002075911 0.6372971535
0.12493902 -0.15973218 1.8040003 -0.03245875612 0.8292515278 0.5579321384
0.1046202 0.014456949 1.5246365 -0.3828353882 0.6405622959 0.6656703949
-0.20333056 0.23026176 1.536 -0.8937009573 -0.3654396832 0.2602929175
0.094291635 -0.25730428 1.8230001 -0.1287537664 -0.8048573136 0.579333365
0.22559613 -0.055666577 1.6710002 -0.1297958791 0.825807929 0.5488116741
0.26468855 -0.095902368 1.7363335 -0.1149892807 0.8644215465 0.4894413948
0.2056305 -0.1147526 1.7570001 -0.2020605654 0.8607749343 0.4671595693
0.1538385 0.015125606 1.5430001 -0.4210805595 0.6594137549 0.6227878332
0.16519029 -0.10211764 1.7130002 -0.1167398766 0.8478794694 0.5171771049
-0.043550171 -0.37603322 1.7130001 -0.5475779772 -0.338540256 0.7652116418
-0.1623648 -0.1623648 1.6390001 0.1090097874 0.8803403378 0.4616467953
0.21575207 -0.38515735 1.8230002 -0.4941003919 -0.2784751952 0.8235996366
0.0078242496 -0.31140515 1.7850001 -0.4520423114 -0.3512618244 0.8199224472
0.11533076 -0.11684827 1.7310001 -0.1275139302 0.8689616323 0.4781692624
0.21455775 -0.14075409 1.8040003 -0.3282561302 0.7832861543 0.5279305577
0.41381472 -0.48591879 3.5760002 -0.1869219691 0.9056342244 0.3806400001
-0.035426978 -0.29419795 1.7570001 -0.3936819732 -0.4725521207 0.7884852886
-0.14600825 -0.18300359 1.6880001 -0.1354090869 0.8556175828 0.4995827973
-0.12430117 -0.12596962 1.5860001 -0.1602050066 0.8510576487 0.5000352263
0.10807897 -0.3321839 1.8130001 -0.247496143 -0.2463270128 0.9370532036
0.0045572058 -0.394853 1.7323335 -0.550231874 -0.2534604967 0.7956146598
0.17406814 -0.42567286 1.7760003 -0.5120089054 -0.2030105442 0.8346458077
0.22931845 -0.49501157 1.8040003 -0.6370394826 -0.1441587955 0.7572311163
-0.21174394 -0.21474738 1.7130001 -0.5344637036 0.3328270614 0.7769007087
0.20542052 -0.024083786 1.6160001 -0.1076736748 0.7550250292 0.6467948556
0.22561607 0.044618502 1.5770911 -0.5056359172 0.0170536954 0.862578392
-0.084151231 -0.46573356 1.6550001 -0.6669453979 -0.2135292292 0.7138550878
-0.097507246 -0.00780058 1.483 0.58741045 0.1899042875 0.7866926789
-0.16844361 -0.28984439 1.7310001 -0.4271249771 -0.7809448838 0.4557295144
0.28492498 -0.037355207 1.6710001 -0.360398829 0.7111144066 0.6036795378
-0.014868267 -0.47429767 1.6960001 -0.6319081187 -0.1888096631 0.7516934872
0.093665689 -0.14165969 1.766 -0.1105707511 0.847935617 0.5184393525
0.24490543 0.0053367377 1.6036664 -0.2939527333 0.6177392006 0.7293764949
-0.075084746 -0.12230786 1.6160001 -0.3634251952 0.8348175883 0.413523525
0.068850771 -0.098148972 1.6710001 -0.2051739991 0.8675011396 0.4531505108
-0.14467578 -0.39533156 1.6469998 -0.1003928334 -0.4132604599 0.9050619006
0.22561035 -0.29523101 1.8730001 -0.5105525255 -0.5136613846 0.6895564795
-0.064574391 -0.16218683 1.7130001 -0.3833540976 0.84773314 0.3665899634
0.18495493 -0.074928358 1.6824001 -0.3535527587 0.7380297184 0.5747282505
0.13485745 -0.066706799 1.6470001 -0.1842281371 0.7988737226 0.5725913048
-0.095061846 -0.08358904 1.5272858 -0.1295903027 0.8049002886 0.5790871382
0.18527824 -0.48421451 1.7760001 -0.4489700198 -0.1288505346 0.8842077851
0.083086371 -0.43607447 1.7660002 -0.08346493542 -0.2005561441 0.9761202931
0.18226163 -0.18390363 1.8730001 -0.991868794 0.03446642309 0.1225088239
-0.044073537 0.027062699 1.47 -0.1044781357 -0.1231403202 0.9868742228
0.16190486 -0.26695347 1.853 -0.4151433408 -0.7563664317 0.5055351853
0.17483364 -0.33536267 1.8129998 -0.2733940482 -0.2907188237 0.9169178009
0.0045525301 -0.44159541 1.7310001 -0.5152887106 -0.2454415709 0.8211187124
0.015877059 -0.075353138 1.6044286 -0.288189739 0.8410577774 0.4577865303
-0.045180071 -0.073857233 1.5430001 -0.340603143 0.8062118888 0.4837478101
0.034094155 -0.18378879 1.8230001 -0.0958750397 0.9136637449 0.3950019479
0.16770107 -0.23245694 1.8940001 -0.9741611481 -0.0730650872 0.2137089968
-0.15451775 -0.46498394 1.6320001 0.09368731081 -0.05642731488 0.9940013289
-0.10416378 -0.28652588 1.7220001 -0.2454096973 -0.7324197292 0.6350869536
0.02415392 -0.13435619 1.7220001 -0.2248767018 0.8832976222 0.4113585055
0.0043316102 -0.10540251 1.647 -0.3025986254 0.8715026379 0.3858979642
0.044211179 -0.46497959 1.7390002 -0.2519278228 -0.2500965595 0.9348711371
0.034295276 0.024564439 1.4890002 -0.341824472 0.1633957624 0.9254500866
0.065024123 -0.39478934 1.7660002 -0.2108097076 -0.2599737644 0.9423231483
-0.095156908 -0.32561505 1.6960001 -0.3521467745 -0.3981474936 0.8470367193
0.02827776 -0.02827776 1.536 -0.4200741053 0.7411009669 0.5237433314
-0.10986825 -0.162605 1.6710001 -0.3134195805 0.8535808921 0.4161343575
0.25276053 -0.072854504 1.6960001 -0.03826130182 0.8568465114 0.5141499043
-0.10438541 -0.39450684 1.6630001 -0.4490522742 -0.2296335548 0.8634932041
0.28263032 0.016291974 1.6160001 -0.6526172757 0.2626020014 0.7107256055
0.054186765 -0.14707837 1.7660002 -0.2181450576 0.874574542 0.433049798
-0.05347316 -0.26264757 1.794 -0.1589124352 -0.848079443 0.5054780841
0.13442807 -0.36216506 1.8040003 -0.06103839725 -0.4681842327 0.8815201521
0.1161145 -0.46600622 1.7659999 -0.2181718946 -0.1156055704 0.9690389037
0.08669357 -0.10911432 1.705 -0.1660477072 0.8839222789 0.4371607602
0.073918782 -0.33813909 1.794 -0.298132062 -0.4116140902 0.8612149358
-0.046035521 -0.45448223 1.6832001 -0.5413355827 -0.2419953197 0.805229187
0.094399467 -0.46314737 3.3650002 -0.1333197355 0.8999074697 0.4152016342
0.075892858 -0.01605019 1.5514001 -0.3501538038 0.7546811104 0.5548411608
0.46060154 -0.22630711 3.0370002 -0.2791720033 0.8752525449 0.3949632347
0.10490018 -0.29403839 1.8129998 -0.02407229319 -0.3251417279 0.9453588724
0.15378721 -0.4559429 1.7660002 -0.2751245797 -0.1788369417 0.9446289539
-0.17813516 -0.19474098 1.7220001 0.009217836894 0.8745922446 0.4847715795
0.2468106 -0.45706505 1.813 -0.3963009417 -0.1050313041 0.9120931625
-0.1448639 -0.058477171 1.516 0.09770538658 0.3025023341 0.9481276274
0.0751727 0.02505484 1.5043335 -0.3787131011 0.4367519319 0.815980494
-0.018294279 -0.16007495 1.7390001 -0.3329491317 0.8246372342 0.4572945237
0.17457414 -0.14626482 1.794 -0.06257029623 0.8524076343 0.519120574
-0.17098507 -0.30182582 1.6960001 -0.1122005656 -0.7267198563 0.6777088642
0.13801977 -0.39653298 1.7850001 -0.2365876287 -0.3013593853 0.9236930013
-0.021973649 -0.12744717 1.6710001 -0.3961888552 0.8273885846 0.3980734944
0.024355203 -0.2843549 1.8040001 -0.2359851897 -0.3957009912 0.8875424862
0.24117362 -0.3271904 1.863 -0.2678939104 -0.2726079524 0.9240766764
0.096799336 0.063420258 1.5230001 -0.3782635629 -0.2087394446 0.9018561244
0.083104491 -0.18538694 1.8230001 -0.2278645784 0.7937245965 0.5639849305
-0.40285987 -0.46302727 2.9840002 -0.378498733 0.7470831871 0.5464479923
0.054954045 -0.063406475 1.6072223 -0.3279779255 0.7881821394 0.520768106
0.19708519 -0.4148325 1.8130001 -0.4877346158 -0.07777158916 0.869520843
0.028641576 -0.39401519 1.766 -0.3290517628 -0.4077237248 0.8517548442
0.074494749 -0.46782702 3.3990002 -0.1333197355 0.8999074697 0.4152016342
0.18158309 -0.29728204 1.8330001 -0.4090742469 -0.5530399084 0.7258134484
0.12694746 -0.26835731 1.8330001 -0.1054075211 -0.7831548452 0.6128276587
-0.075405605 -0.037702803 1.483 -0.01339580119 0.5962888002 0.8026582003
-0.0627781 -0.34677428 1.705 -0.6517431736 -0.3899816573 0.6504961252
0.13409424 -0.0057586478 1.5640001 -0.247864157 0.776374042 0.5794882774
-0.19238976 0.0501015 2.286 -0.2298903614 0.8672174811 0.4416834712
-0.054498862 -0.10201069 1.5940002 -0.3197908998 0.8612410426 0.3949653506
-0.18968874 -0.23521405 1.7310001 -0.5339801311 -0.373824805 0.7583668232
-0.017198097 0.0053904476 1.464 -0.4179325104 0.2801200747 0.8642135859
-0.17502125 0.17580874 1.5719999 0.0271700304 -0.3505579829 0.9361468554
-0.17737742 -0.34454957 1.6630001 0.06177843362 -0.3852129579 0.9207575321
0.10431632 -0.40013871 1.7760001 -0.2089084983 -0.3069263101 0.9285222292
0.12485329 -0.041993909 1.6074002 -0.2850639224 0.7904850245 0.5420996547
-0.03437439 -0.033794232 1.4890002 -0.3345858157 0.6408837438 0.6908837557
0.0064414539 -0.37636498 3.1490002 -0.2425637543 0.8523409367 0.4633332789
0.15183428 -0.32851419 3.1490002 -0.1757443547 0.8892329335 0.4223490357
0.10777973 -0.49701273 1.748 -0.2066141814 -0.4069849253 0.8897605538
0.025688088 -0.16828318 1.794 -0.09873843193 0.8732254505 0.4772085547
0.1333752 -0.17515537 1.8330001 -0.1287620217 0.9054408669 0.404471457
0.095758304 -0.079798579 1.6550001 -0.2545436025 0.8512095809 0.4589660466
-0.087860413 -0.34345433 3.0370002 -0.3533630967 0.670979619 0.6518595219
-0.055123042 -0.3954801 1.688 -0.4481583536 -0.3244882226 0.8329834938
-0.14440498 -0.1429944 1.6070001 -0.06111075357 0.8475161791 0.5272397995
0.23172754 -0.10214306 1.7390001 -0.1196278185 0.8610481024 0.4942523539
0.20519347 -0.36030039 1.8430001 -0.4010206461 -0.5981504917 0.6938288212
0.04403672 -0.32241169 1.794 -0.3158485293 -0.5649639368 0.7622699142
0.17269428 0.042835396 1.5430001 -0.6031726003 -0.04127512127 0.7965420485
-0.12551607 -0.33520854 1.6844445 -0.3791573644 -0.4844564795 0.7883791327
0.49334824 -0.2247376 3.0640001 -0.2834904492 0.8526095152 0.4389649034
0.2443741 -0.39544177 1.8430002 -0.5774320364 -0.4232802093 0.6981447339
-0.01275024 -0.097751841 1.6160001 -0.4014388621 0.8192156553 0.4095517099
0.067859262 -0.25689578 1.8430001 -0.2181059122 -0.859511435 0.4622443914
-0.066071033 -0.28620988 1.7366003 -0.411021173 -0.6592143774 0.629680872
0.010782124 -0.3681325 1.7570001 -0.6668250561 -0.28144297 0.6900247335
-0.14892952 0.074599423 1.536 -0.3118896782 -0.320922941 0.8942781091
0.28508413 -0.015240848 1.6470002 -0.463503629 0.5552452207 0.6905556917
0.22657713 -0.14944449 1.8330001 -0.3734601736 0.7959932685 0.4763635099
0.23465298 -0.35612041 3.1490002 -0.1985657215 0.888543129 0.413597405
-0.042490281 -0.34295726 1.7310001 -0.5066884756 -0.3357222378 0.7940763831
0.13352802 -0.1011425 1.705 -0.1743006408 0.8370452523 0.518627584
0.054882836 -0.49547008 1.7390002 -0.2560008168 -0.2247537971 0.9401857853
0.15528047 -0.08057005 1.6710001 -0.1385696381 0.8563175797 0.49751243
0.16350731 -0.0044972999 1.5772501 -0.2977493703 0.7783340216 0.552758038
0.19231699 -0.36397183 1.8130001 -0.5795820951 -0.4190203846 0.6989324093
0.085241809 -0.0419222 1.5940001 -0.278485477 0.7903724313 0.5456714034
0.0069037504 -0.066081755 1.5749999 -0.3862910569 0.8419471383 0.3767018318
-0.11629466 -0.018505994 1.5075002 0.4369363487 -0.07511653006 0.8963504434
0.05331156 -0.11608965 1.705 -0.2404714823 0.8727844357 0.4247596264
-0.14476284 -0.49541932 1.6320001 0.09308254719 0.06149649248 0.9937574267
-0.094083279 -0.11540265 1.5860001 -0.3177371025 0.8592014313 0.4010187984
0.25454873 -0.043445319 1.6630001 -0.267953217 0.7698231339 0.5792869925
0.23046252 -0.41801131 1.8130001 -0.4421527088 -0.2806412876 0.8519046307
-0.025251508 -0.047844961 1.516 -0.4438330829 0.7398161888 0.5056522489
0.12611376 -0.14479728 1.7760001 -0.1421652734 0.8609759212 0.4883743823
-0.078257754 -0.49582496 1.6470001 -0.5363156796 -0.2929805219 0.7915351987
-0.02646832 -0.18372127 1.7760001 -0.4751724303 0.7790702581 0.4089751542
-0.076106943 -0.18418677 1.7363335 -0.4153951108 0.7772880197 0.4725148082
0.024473466 -0.012567455 1.5090001 -0.4200292528 0.7048236728 0.5716633201
0.010837353 -0.33750615 1.766 -0.4061820805 -0.454657644 0.7926553488
-0.43425155 -0.47349116 2.9840002 -0.380020678 0.7790564299 0.4986535311
-0.2124058 0.28926319 1.5940001 -0.1540841162 -0.3908854127 0.907450676
0.17520593 -0.11799583 1.748 -0.2000066489 0.8378409147 0.507956624
0.34189999 -0.30634239 3.1200001 -0.2791720033 0.8752525449 0.3949632347
-0.0577548 -0.13139217 1.6470001 -0.3239049315 0.8431783915 0.4291104674
0.19201156 -0.27518409 1.853 -0.4136999547 -0.6651133299 0.6216723919
-0.18261404 0.12309539 1.5430001 0.118024841 -0.1277813166 0.9847548008
0.055231534 -0.26582661 1.813 -0.2397238761 -0.4967941642 0.8341031075
-0.1395478 0.026580533 1.516 -0.4011897147 -0.2823387384 0.8713963628
-0.015507915 -0.36683768 1.7220001 -0.527836144 -0.3247993886 0.7847893834
0.14482972 -0.12043735 1.739 -0.12194895 0.8474122882 0.5167406201
-0.11517384 -0.36447418 1.6630001 -0.3740218878 -0.269390434 0.8874325156
-0.0705892 0.01155096 1.4640001 0.1111692414 0.02538804337 0.9934771657
-0.21746242 0.33504796 1.6160001 0.5524970293 -0.262391299 0.7911370397
-0.12538402 -0.085554078 1.5248001 -0.1065500826 0.7561741471 0.6456374526
0.063835353 -0.36588559 1.7760001 -0.2239751965 -0.5616667867 0.7964707017
0.10496425 -0.0058137346 1.5512729 -0.2342515737 0.7571756244 0.6097632647
0.20474552 0.03548922 1.5569998 -0.4708034694 0.2526427507 0.8452903032
-0.15486191 -0.32583782 1.6710001 -0.1373255998 -0.6560912728 0.742082119
-0.17470826 -0.40572742 1.6470002 0.2928045392 -0.05861318111 0.9543741345
0.024918372 0.052459732 1.4960002 -0.1581492424 -0.4449848533 0.8814631701
0.13827752 -0.3321839 1.8130001 -0.05134502426 -0.2283911109 0.9722145796
-0.10486644 -0.1035076 1.5535001 -0.109570764 0.8510466218 0.5135308504
-0.01386273 -0.31576219 1.7570001 -0.6697766781 -0.2634034753 0.6942750216
0.22510839 -0.032672379 1.6381251 -0.2111309022 0.7838576436 0.5839442611
-0.093670078 -0.1670202 1.6960001 -0.3754525781 0.8422316313 0.3868865371
0.15353572 -0.16180058 1.8130001 -0.2224665582 0.8140007854 0.5365737677
-0.11433387 -0.46449763 1.6343334 -0.2077355236 -0.3215165734 0.9238360524
0.12359948 0.035883714 1.5159999 -0.2334246486 0.03135214746 0.9718692899
-0.13493216 -0.16491707 1.6550001 -0.2920289934 0.8879276514 0.3553921282
-0.15493768 -0.4241389 1.6334001 0.1548625827 -0.2834420502 0.9464027882
-0.055734958 -0.27248204 1.766 -0.1879078597 -0.7389817238 0.6469904184
0.25166118 0.033369441 1.5860001 -0.6537055373 0.1555900127 0.7405813932
-0.094307415 -0.43526497 1.6550001 -0.3996284604 -0.1951503605 0.8956636786
-0.1882589 0.24362917 1.5790001 -0.7192194462 -0.1531414539 0.6776953936
-0.084550112 -0.064738326 1.5070001 -0.1674844772 0.7799420357 0.603025198
-0.1654007 -0.37577879 1.6550001 -0.07687243074 -0.258112371 0.9630517364
0.097509876 -0.15570126 1.794 -0.06103047356 0.8909926414 0.4498970807
0.22575921 -0.1245568 1.7760001 -0.1461144835 0.8551591039 0.4973464608
-0.23676692 0.15572201 1.9810001 -0.2029136121 0.9164267778 0.3449463546
-0.11186618 -0.27430198 1.748 -0.1807622612 -0.8429735303 0.5066761374
-0.048833836 -0.42470643 1.6880001 -0.5191549659 -0.2199404091 0.8258960843
0.074833721 -0.074838631 1.6352668 -0.24128896 0.8044868112 0.5427528024
-0.10720231 -0.13118178 1.6090001 -0.3573437333 0.8265610337 0.434858948
-0.04637637 -0.14445363 1.6848001 -0.329151392 0.8804019094 0.3413968086
0.17796333 -0.029897841 1.6240001 -0.3075541258 0.7547516227 0.5794484019
-0.01089872 -0.29115152 1.7760001 -0.6883007288 -0.4581434131 0.5624470711
0.0059804441 0.014041044 1.4829999 -0.382437259 0.279314518 0.8807526231
0.22251926 0.015572889 1.5790002 -0.3326673508 0.527682364 0.7815905213
0.2748166 -0.082595147 1.7129999 -0.4156765938 0.7331323624 0.5382657051
0.17995775 -0.45224166 1.7850001 -0.5410212874 -0.2164335996 0.812682271
0.45134744 -0.40414771 3.3650002 -0.2648056746 0.8773219585 0.4002301395
-0.17713444 -0.16692916 1.6630001 0.2652713954 0.8448841572 0.4645448029
-0.0046708798 -0.16503775 1.7760001 -0.4227783978 0.8436080813 0.3310345113
-0.036893465 -0.31618613 1.7390001 -0.5545347929 -0.3753896058 0.7426801324
-0.085188329 -0.14101796 1.647 -0.3607791066 0.8416755795 0.4017719328
0.46469644 -0.23369128 3.0640001 -0.2791720033 0.8752525449 0.3949632347
-0.15082173 -0.030164346 1.4960001 0.1261190325 0.01026709285 0.991961956
-0.17141989 -0.14875279 1.6160001 -0.05474624038 0.9191006422 0.390201062
-0.23133393 0.34484559 1.6390001 0.5524970293 -0.262391299 0.7911370397
-0.01952249 -0.39795846 1.7130001 -0.620567739 -0.2632236481 0.738653481
-0.15088397 -0.12043033 1.5790001 -0.08332689852 0.8130469918 0.5762041807
0.16407079 -0.1770665 1.853 -0.1160444096 0.9373766184 0.3284185827
0.03046855 -0.10011095 1.6550001 -0.3316909969 0.8397995234 0.4297881126
0.27486888 -0.062449053 1.6826668 -0.3018904328 0.7430661917 0.5972560644
0.011070547 -0.25778559 1.8040001 -0.4521593451 -0.2009625435 0.8690028787
0.18737303 -0.009123031 1.6010001 -0.1952434629 0.8155698776 0.5447253585
-0.18864989 0.27528912 1.5940001 -0.2372903377 -0.2911029756 0.9267967939
0.20457454 -0.047879148 1.6550001 -0.0429253988 0.8528037667 0.5204643011
0.064692743 -0.45438945 1.7570001 -0.3641820848 -0.2960033715 0.8830364943
-0.081985869 -0.39814696 1.6799999 -0.5748482347 -0.2707686722 0.7721617818
0.020474549 -0.050503891 1.557 -0.4420152009 0.7423026562 0.5035963655
-0.16950876 0.20258364 1.572 0.1367140263 -0.3254458308 0.9356250763
0.085233331 0.1648674 2.1290002 -0.2401361167 0.8638737202 0.4427830577
-0.12705092 -0.19281845 1.705 -0.3673837483 0.8084949255 0.459744662
0.016692612 -0.46587557 1.7310001 -0.5724518299 -0.1316426992 0.8093016148
0.21383303 -0.073250756 1.6880001 -0.1815754175 0.7982555032 0.5742983222
0.12444809 0.01217427 1.5430001 -0.2258016914 0.720387876 0.6557857394
0.21125475 -0.48823321 1.7850001 -0.4981264174 -0.1588177532 0.8524358869
-0.20264764 -0.35426888 1.6630001 0.04086806998 -0.19957757 0.979029417
0.19873595 -0.12988254 1.7850001 -0.2941641212 0.7984244227 0.5253435969
-0.17395872 -0.18882698 1.6960001 0.1478877217 0.8893769383 0.4325943291
0.19879381 -0.098638147 1.7310001 -0.2367438674 0.8299259543 0.5051487088
-0.01774461 -0.072343409 1.557 -0.3898341656 0.8190455437 0.4209437966
0.083819844 -0.31471986 1.804 -0.1932148188 -0.2430741489 0.9505698085
-0.02673132 0.03691468 1.452 -0.2260912657 -0.3092208505 0.9237235785
0.057849478 -0.19122466 1.8330001 -0.003418201115 0.922285974 0.3864930272
0.15461454 -0.042995941 1.6240002 -0.2407719195 0.7984831929 0.5517730713
0.0054977718 -0.036395788 1.5250001 -0.4554340541 0.7388675809 0.4966432154
-0.063967735 -0.47218931 1.6710002 -0.4563557506 -0.3290844262 0.8267060518
0.067849614 -0.46314737 3.3650002 -0.2504724562 0.8938299417 0.3719295859
-0.20155267 0.2262326 1.5640001 -0.9317727089 -0.2044585347 0.2999938428
0.0044604801 -0.12638026 1.6960001 -0.3131949008 0.8700603247 0.3806625903
-0.20178674 -0.18584311 1.705 0.02303992584 0.7726951838 0.6343589425
-0.025378702 -0.49595305 1.6850909 -0.6242579222 -0.3214569092 0.7120165229
0.17687277 0.020566599 1.5640001 -0.3869813681 0.5983073115 0.7016222477
0.2353285 -0.015898447 1.6160001 -0.2692279816 0.7060755491 0.6549607515
0.15522194 0.064591274 1.5430001 -0.508643806 -0.3336666822 0.7936926484
-0.044109482 -0.16427331 1.735 -0.2740193009 0.8426792622 0.4634707272
0.22580041 -0.34601068 1.853 -0.2426658869 -0.4472855926 0.8608419299
-0.051645014 -0.088207863 1.5640001 -0.3287439644 0.839722693 0.4321957529
-0.13806361 0.049595661 1.529 -0.2365021259 -0.503118515 0.8312270641
0.18212329 -0.40482324 1.794 -0.6119523048 -0.230059579 0.7566947341
0.2450517 -0.48530889 1.8230001 -0.7527745366 0.1136389524 0.6483954787
0.035245508 -0.14251444 1.748 -0.2427048534 0.8613664508 0.4462535381
0.25260976 -0.10628093 1.7570001 -0.1625993699 0.8937296867 0.4181013107
-0.19281845 -0.28549087 1.705 -0.1998387873 -0.6242654324 0.7552199364
0.12611376 -0.37522736 1.7760001 -0.255361855 -0.4999242127 0.8275663853
0.018599359 -0.087273918 1.6320001 -0.3435600698 0.8098531365 0.4755043685
0.18758695 -0.08744093 1.705 -0.2824943364 0.799536407 0.5300363302
-0.00150962 -0.13737541 1.7220001 -0.3519228697 0.8340874314 0.4247921705
-0.36919853 -0.34474829 2.789 -0.3819336295 0.7789566517 0.4973461926
0.052078821 -0.020966798 1.5430001 -0.3464107811 0.7688769698 0.5374270082
0.2045649 -0.15821818 1.8230001 -0.3186086416 0.8185525537 0.4779751599
-0.17870587 -0.25379238 1.7129999 -0.06958999485 -0.5140292048 0.8549451232
0.10912396 -0.36532804 1.8040001 -0.2765945494 -0.5350453854 0.7982617617
0.13431199 -0.02308053 1.5860001 -0.3150456846 0.7514442205 0.5797221661
0.26492167 -0.0042500799 1.6160001 -0.4236179888 0.6356372237 0.645378232
0.21811906 0.37645733 1.8430001 -0.9520117044 0.1729133129 -0.2525366247
-0.1278671 -0.27803659 1.6960001 -0.226190567 -0.7675135732 0.5998005867
-0.075171284 -0.085992865 1.5430001 -0.3568791449 0.7970491052 0.4871858358
-0.068521142 -0.44757429 1.6630001 -0.5917526484 -0.1218138114 0.7968627214
0.15236144 0.03797866 1.5289999 -0.4880672395 0.05564128235 0.8710306883
0.027583439 -0.44439986 1.748 -0.4591041207 -0.1502762884 0.8755800724
0.12335752 -0.30839381 1.8040001 -0.1409948617 -0.1206323504 0.9826333523
-0.12561668 -0.41150296 1.647 -0.3872179091 -0.3684305549 0.8451752663
0.24455845 -0.089067578 1.7220001 -0.08139226586 0.8287513256 0.5536664128
-0.08559861 -0.3048512 1.7130001 -0.5838797688 -0.5172783136 0.6257056594
0.053519621 0.040466055 1.4890001 -0.1872374415 -0.0873138234 0.9784265161
0.11613888 -0.13215803 1.7570002 -0.09013079852 0.8567864895 0.5077335238
0.084833287 0.0013465598 1.5359999 -0.2980564237 0.7503052354 0.5900884271
-0.0049342555 -0.45588234 1.7130002 -0.7448765635 -0.2147531956 0.6316961646
0.00292982 -0.11572789 1.6710001 -0.3291470706 0.8491989374 0.4129447043
-0.15167473 -0.29283735 1.7130001 0.1149585545 -0.9412643313 0.3174995482
0.16447669 -0.35583898 1.804 -0.2887102067 -0.377731353 0.8797530532
-0.0044841501 -0.49475124 1.705 -0.6574304104 -0.2406844944 0.7140421867
0.22175634 -0.46710378 1.794 -0.5295976996 -0.3221307695 0.7847025394
-0.065717734 -0.3747794 1.6959999 -0.5523963571 -0.2725844383 0.7877537608
0.14626482 -0.14815211 1.794 -0.1836118549 0.8210380077 0.5405398011
0.21436217 -0.0019563693 1.5940001 -0.2546774447 0.727517426 0.6370697021
0.027807865 -0.059786912 1.5860001 -0.3687877655 0.7979747057 0.4766885638
-0.049584266 -0.11191877 1.6160001 -0.3157225847 0.8526625037 0.4162762165
0.075796604 -0.028940519 1.572 -0.3184464276 0.762000978 0.5638673306
-0.1247707 -0.11243075 1.5640001 -0.07650927454 0.8394284844 0.5380578041
-0.078610696 -0.0154644 1.47 0.2920990884 0.2800134122 0.914478302
-0.026451662 -0.012763389 1.4770001 -0.3597891033 0.5386767387 0.7618262172
0.199809 -0.30377465 1.853 -0.6706364155 -0.4062589705 0.6206451654
0.1561168 -0.087722771 1.6960001 -0.08084259927 0.8773013353 0.473082304
0.17348969 -0.066577278 1.6630001 -0.4413390458 0.7003308535 0.5610316992
0.10324135 -0.17228201 1.8230002 -0.1823140383 0.8191444278 0.5438418984
0.10569938 -0.44404995 1.766 -0.2432619631 -0.07690832764 0.966906786
0.19030154 -0.42778528 1.794 -0.735883832 -0.2534473836 0.6278849244
0.18423501 -0.13159643 1.766 -0.2865156829 0.806964457 0.5164465904
0.083848782 -0.49699461 1.7390002 -0.3194072843 -0.488060087 0.812266171
-0.034772109 -0.26675913 1.7760001 -0.2949167192 -0.743309021 0.6004297137
0.084873781 -0.2768729 1.8130001 -0.08178198338 -0.5049526095 0.8592639565
0.28616503 0.038440078 1.6240001 -0.648050189 0.05288109183 0.7597595453
0.11063796 -0.070405975 1.6390001 -0.2043025345 0.8132833242 0.5448217392
-0.064456664 -0.072111718 1.5272858 -0.3201419115 0.8316431046 0.4537388086
0.10663598 -0.25689578 1.8430001 -0.2611397207 -0.846963644 0.4630967677
0.14479728 -0.43439183 1.7760001 -0.2342907339 -0.19491373 0.9524266124
-0.016726799 -0.44493285 1.6960001 -0.5796760321 -0.2733286917 0.767637372
0.17544962 -0.25514916 1.8940001 -0.6887193322 -0.387542963 0.6127610207
0.20459278 -0.28340864 1.8730001 -0.5915580988 -0.6222479343 0.5127051473
-0.13493216 -0.37577873 1.655 -0.2432899624 -0.1712675393 0.954713285
0.19018143 -0.31643635 1.8230001 -0.5205689073 -0.4341729879 0.7351883054
-0.10465413 -0.34490636 1.6813335 -0.3106299937 -0.5201932788 0.7955551147
0.09853784 0.035124276 1.5159999 -0.4432193935 0.1021196917 0.8905774355
0.16229993 -0.2844266 1.8330001 -0.4383620024 -0.4763401747 0.7621933818
0.015540319 -0.41459233 1.7374003 -0.4509096146 -0.202296719 0.8693426251
0.044897605 -0.37466276 1.7660002 -0.1623270214 -0.2264114767 0.9604102373
-0.19497904 -0.20520812 1.7339092 -0.6474608779 0.4506247044 0.6145989299
0.0036697267 -0.28571442 1.794 -0.4541931152 -0.5275974274 0.7178785205
0.075112797 -0.15179045 1.7850001 -0.08923513442 0.8927092552 0.4417094588
0.093958504 -0.46517161 1.7570001 -0.2173092365 -0.06173964962 0.9741482735
-0.035105508 -0.47528604 1.6849231 -0.5401918888 -0.3169087172 0.7795906663
-0.078430109 -0.33887726 1.6880001 -0.5081838369 -0.3629650474 0.7810285687
0.17434269 -0.18762596 1.8940001 -0.990303576 -0.02134856768 0.1372702122
-0.1091599 -0.33546704 3.0370002 -0.3533630967 0.670979619 0.6518595219
0.035417333 -0.076029211 1.6160001 -0.2673174441 0.8626830578 0.4293242395
0.1656567 -0.47529534 1.7659999 -0.2645794749 -0.1348935068 0.9548829198
0.22442281 -0.44534898 1.813 -0.3088209331 -0.2069937736 0.9283227921
0.04851035 -0.15804985 1.7850001 -0.3206437826 0.8110976219 0.4891913533
0.095543958 -0.34482324 1.7939999 -0.2372068316 -0.3934823275 0.8882030249
0.055133566 -0.088503882 1.6550001 -0.155092001 0.8499239683 0.5035630465
-0.15453705 -0.17276075 1.6630001 -0.03563826531 0.911667943 0.4093793333
0.045806419 -0.10785571 1.6853334 -0.2369157672 0.8797359467 0.4122323692
-0.11591872 -0.31520021 1.688 -0.2856875956 -0.3434062898 0.8946813345
-0.095730513 -0.48550719 1.6373847 -0.5331901908 -0.1788844168 0.8268667459
-0.16484645 -0.48594278 1.6351112 0.2471919507 0.1023529172 0.9635455608
-0.14450271 -0.44495392 1.6320001 -0.1728188843 -0.01347584371 0.9848614335
0.075861476 -0.4149158 1.7660002 -0.1342435032 -0.1459818929 0.9801366925
-0.037170667 -0.40739051 1.6960001 -0.5398793817 -0.2338766009 0.8085988164
0.21721959 -0.31358016 1.863 -0.4439823329 -0.3565277159 0.8220509291
-0.12529846 -0.27927971 1.7220001 -0.1656154543 -0.8644683361 0.4746219218
0.18430513 -0.21751328 1.8940001 -0.9964039326 0.03520203009 0.07707117498
0.09514688 -0.095152907 1.6845715 -0.231258601 0.8526133299 0.4685829878
0.25410798 -0.39634448 1.8230001 -0.505129993 -0.3715828359 0.7789543271
0.19136231 -0.3843061 1.8040003 -0.4442602992 -0.1346565783 0.885720253
0.077064261 -0.36015746 1.794 -0.1550573707 -0.5715952516 0.8057518601
-0.10475377 -0.41524279 1.6550002 -0.472414881 -0.224435389 0.8523221016
0.23104462 -0.36514741 1.8430001 -0.3835484684 -0.4727503955 0.7933458686
-0.026801279 -0.17220591 1.7570002 -0.3832321763 0.8042256832 0.4542621374
-0.10474288 -0.03447992 1.488143 0.6149395704 0.1173575073 0.7797926664
0.13483045 -0.26283818 1.853 -0.1295108646 -0.9234113693 0.3613009453
0.01430457 -0.18437003 1.8130001 -0.1464844346 0.858345449 0.4917168021
-0.11562532 -0.067780361 1.516 -0.005165204871 0.6865279078 0.7270851135
0.053771228 0.017049413 1.4960002 -0.3887770772 0.4639562964 0.7959880233
-0.13353387 -0.47499895 1.6320001 -0.1069965065 -0.1329000592 0.9853371382
-0.0449204 0.0051337597 1.4640001 -0.1434065253 0.08994373679 0.9855682254
0.048754938 -0.35386652 1.794 -0.3407166302 -0.3950920701 0.8531203866
0.085048944 -0.13255376 1.748 -0.1846438944 0.8724586964 0.4524626732
0.18516472 -0.15655558 1.8130001 -0.1161625832 0.8327835798 0.5412741899
0.15908606 -0.16872765 1.8330001 -0.1530399919 0.8981155753 0.4122708142
0.16430925 -0.39590707 1.7850001 -0.4359526336 -0.3992640376 0.8065565825
-0.17337534 -0.45536646 1.6374445 0.3911785781 -0.06322334707 0.9181405902
-0.19431491 0.1860462 1.572 0.02659625746 -0.3283577561 0.9441789389
0.035064038 -0.4847984 1.7390002 -0.2812946737 -0.1450574547 0.9485945702
0.0015245234 -0.15092781 1.7390001 -0.3440033197 0.8260185122 0.4464920461
0.26526973 0.025263779 1.601 -0.6166678071 0.1223922968 0.7776509523
0.044785392 -0.12731129 1.7220001 -0.2660455704 0.8590631485 0.4372988343
-0.16679679 0.14505546 1.5500001 -0.09772092104 -0.2679703534 0.9584584236
-0.12402203 -0.33512336 3.0100002 -0.356824398 0.668237865 0.6527897716
0.032696161 -0.32696161 1.7760001 -0.3039417267 -0.4283184707 0.8509774804
0.28587267 0.0033393695 1.6331668 -0.5875913501 0.4965477884 0.6388870478
