# .PCD v0.7 - Point Cloud Data file format
VERSION 0.7
FIELDS x y z normal_x normal_y normal_z
SIZE 4 4 4 4 4 4
TYPE F F F F F F
COUNT 1 1 1 1 1 1
WIDTH 512
HEIGHT 1
VIEWPOINT 0 0 0 1 0 0 0
POINTS 512
DATA ascii
0.015157714 0.10541932 1.1656667 -0.05228926986 0.8032468557 0.593346715
-0.15616283 -0.48699665 2.6390002 -0.01049258094 0.7468643785 0.6648935676
0.49626198 -0.024022127 2.0050001 0.0567779243 0.8050368428 0.5905014873
-0.31235984 0.30184773 1.7130001 0.958586812 0.1982057542 0.2045135945
0.14296681 -0.48132157 1.3590001 0.3705969453 -0.385229975 0.8451365232
-0.36100781 -0.088834383 2.1560001 0.03849041462 0.7725335956 0.6338062882
0.37129727 0.35789302 1.529 -0.7402916551 0.5910477638 -0.3203604519
0.39484361 -0.13701598 1.2053334 0.6424408555 -0.1729278564 0.7465693355
-0.005402646 -0.1347473 1.4881431 -0.2203659713 0.8033363223 0.5532536507
0.16653073 -0.33954966 2.467 -0.01904314756 0.7398360372 0.6725176573
0.10560327 0.48132858 1.268 0.4315846562 -0.2828426361 0.856583178
-0.24437521 0.11784592 1.4150001 0.5456204414 -0.2257214785 0.8070614338
-0.13498737 -0.23520528 2.3330002 -0.03285008296 0.7309223413 0.6816695929
0.31837028 0.15236291 1.2970001 -0.5093657374 0.6656715274 -0.5453696251
0.36148036 0.21125475 1.7850001 -0.1222315803 0.9266396761 0.3555255234
0.22300665 -0.22300664 1.381 0.6042076349 -0.1871610433 0.7745346427
0.34713405 -0.38462883 1.2270001 0.7544775605 -0.09586196393 0.6492874026
0.13526219 -0.0060322084 1.3345386 0.0008175477269 0.7826365829 0.6224783659
0.16175114 0.28321084 1.1546 0.4178788662 -0.3889429867 0.8210362792
-0.095034175 -0.018543255 1.322 -0.1448895037 0.7776591182 0.6117625237
0.18331362 0.45893413 1.483 0.2262151986 0.6251018047 0.7470437884
0.023968942 -0.33304214 1.439 0.6642689705 -0.1100572944 0.7393471003
-0.25796354 0.30029604 1.5090001 0.6166573167 -0.2538717389 0.7451730371
0.20258714 0.28758875 1.6160001 -0.3970074356 0.875295639 -0.2761207223
0.0022109533 -0.44882351 2.5220001 -0.009827485308 0.7473087311 0.6644043326
0.24294567 0.10421433 1.125 -0.01299000997 0.7662488818 0.6424125433
-0.15355773 0.093896262 1.2034545 0.2628284395 0.5060371161 0.8214911222
-0.00211715 -0.29851815 2.4150002 -0.01904314756 0.7398360372 0.6725176573
0.33785614 -0.013604989 1.29325 0.5136963129 -0.02921928093 0.8574743867
0.34238216 0.25813159 1.4133334 -0.5170621872 0.6534270644 -0.5528831482
0.087412722 0.18625396 1.057 0.0550654754 0.696426928 0.7155119181
0.42055193 -0.27640897 1.1482002 0.743830502 -0.1192657053 0.6576411724
0.24267857 -0.36538124 1.3330001 0.5277295709 -0.214904502 0.8217770457
0.32644418 -0.24517035 1.2770001 0.7902991176 -0.07251732796 0.6084147692
-0.23402785 0.0045001488 1.2834166 0.2614779472 0.5608901978 0.7855135202
-0.21385056 -0.40542501 2.5410001 -0.003830693429 0.7477599978 0.6639580727
-0.12183622 -0.12844336 1.4133334 -0.5330041647 0.2174123228 0.8177031279
0.097978316 -0.21740252 1.439 0.2692532837 -0.2961737216 0.9163971543
0.14513858 0.077902354 1.2173332 0.06360227615 0.8471047878 0.52760607
0.024551928 0.03013191 1.273 -0.01362963673 0.8341029882 0.5514403582
0.024307555 -0.053472944 1.38625 -0.09860429913 0.7390863299 0.6663547158
0.28121275 -0.10530519 1.365 0.7816497087 -0.3007166684 0.5464368463
0.14458062 -0.32591581 1.3976252 0.2936280668 -0.2908472121 0.9105989337
-0.27898777 0.18751636 1.7390001 0.9690371156 0.1768855602 0.1722747236
0.38450599 -0.0518636 2.0400002 -0.2703012824 0.8728206158 0.4063512981
0.14108196 0.38399753 1.21 0.545640707 -0.2846944332 0.7881785035
0.26558325 0.055710997 1.2340001 0.05621492863 0.7902778983 0.6101645231
-0.18508855 -0.073093832 1.3448002 -0.1928477883 0.4286903441 0.8826292157
0.057849478 -0.43612763 1.4039999 0.568051517 -0.1110654548 0.8154642582
0.12295195 -0.082075171 1.413125 0.1215967014 0.6807999015 0.7223058343
-0.26651981 0.19891481 1.4830002 0.6330234408 -0.2175001502 0.742950201
0.18330064 0.18407002 1.097 0.3861539066 -0.03580735624 0.9217391014
0.23735577 -0.013462679 1.3164445 0.0327203013 0.6815673709 0.7310234308
-0.075391144 0.04505102 1.2433333 -0.02506964281 0.8263362646 0.5626187921
0.3278296 -0.11674099 1.277375 0.829215467 -0.05222233385 0.5564840436
0.39436674 0.3431133 1.6240001 -0.9580355883 0.211967662 0.1929702163
0.0091374964 -0.24932311 1.4890001 0.6019371748 -0.4090231061 0.6858365536
0.10553264 0.12786484 1.1357145 0.02047031745 0.8707768917 0.4912520051
0.22860485 -0.46067342 1.317 0.485139668 0.1322766095 0.864373982
0.20405276 -0.13678262 1.4210001 0.6182101965 -0.124818556 0.7760390043
-0.074911267 0.13174051 1.153 0.3174600005 0.4721801877 0.822353363
0.0055591622 0.17195576 1.1035 0.3122498393 0.5679417253 0.7615393996
0.38081524 -0.22488254 1.21 0.7098436952 -0.08422269672 0.6993057132
0.2887249 -0.18510991 1.3280001 0.7868818045 -0.02763354406 0.6164847612
0.2720181 -0.2841785 1.334 0.6537768841 -0.1873623282 0.7331242561
-0.064759538 -0.068644226 1.3834001 -0.09156125039 0.7556785345 0.6485109329
0.29296356 -0.41405183 1.2836668 0.6921346188 -0.1641213745 0.7028611898
0.15666777 -0.39851996 1.3590001 0.4783160686 -0.2348007262 0.8462164998
-0.15488751 0.025852691 1.2564288 -0.04147385433 0.7119909525 0.7009627819
0.36837959 -0.30645436 1.2060002 0.7965693474 -0.07550525665 0.5998134613
0.31346968 0.19467659 1.37 -0.6868341565 0.6248008609 -0.3713256121
0.18505907 0.033876065 1.2755002 0.06056982651 0.7968549728 0.60112679
0.30661067 -0.33200595 1.278 0.7156775594 -0.09535290301 0.6918911934
-0.23180644 -0.46590799 2.618 -0.009052000009 0.7477768064 0.663888514
0.078334548 -0.29851815 2.4150002 -0.01904314756 0.7398360372 0.6725176573
0.19242904 -0.047448002 1.3736 0.1787289828 0.6769224405 0.7140251994
0.055195559 -0.10659076 1.4449999 0.03158524632 0.728316009 0.684513092
-0.016614711 -0.013461466 1.3267144 -0.1951583028 0.7794445753 0.5952977538
0.37218642 -0.066747293 1.2320001 0.745865643 -0.2374778986 0.6223252416
-0.28802708 0.33488315 1.572 0.8284695148 -0.2879881263 0.4803135991
0.064119399 0.069462679 1.2190001 -0.07496669143 0.8266497254 0.5577008128
0.10500634 0.032393489 1.2742499 -0.123892352 0.7912105918 0.5988627076
0.34806967 0.31193292 1.4723334 -0.6245595813 0.6788544059 -0.3861114383
0.17537329 0.11219055 1.1544285 0.07473070174 0.8574470282 0.5091168284
0.21018083 -0.30266041 1.3700001 0.5475220084 -0.338940829 0.7650743723
0.15639822 -0.25505072 1.413667 0.5141330361 -0.241834417 0.8229115009
0.078682244 -0.36595815 1.3980001 0.5444073677 -0.1876861602 0.817553997
0.13047868 0.49151194 1.4450001 -0.6978574991 -0.6878633499 0.1995970905
0.055005286 -0.012876774 1.3349999 0.01831909269 0.8005511761 0.5989843607
0.084461406 -0.29374629 1.4210001 0.3090138435 -0.3677926958 0.8770626783
-0.056348044 -0.1131166 1.439 -0.08174218982 0.7562861443 0.6491143703
-0.015220937 0.06652309 1.2155715 -0.1492938995 0.8247026801 0.5455060005
-0.20452632 -0.23520529 2.3330002 -0.001160984859 0.7511214018 0.6601630449
0.34751087 -0.17408462 1.2442 0.766952157 -0.02817966044 0.6410852075
0.14821365 -0.16848218 1.4450001 0.5420286059 -0.2872771323 0.7897321582
0.28381908 0.081238069 1.1730001 0.2498070598 0.8941301107 0.3716554344
-0.16499569 -0.021770263 1.307 -0.05657175556 0.7394283414 0.6708542109
0.30353618 0.10988227 1.2410001 -0.05486766249 0.8314139247 -0.5529379845
-0.21299933 0.053218629 1.2445555 0.3454562724 0.4074672163 0.8453581929
0.033777282 -0.18687133 1.4883335 0.3681537211 -0.278847605 0.8869649768
0.32236785 0.044464536 1.268 -0.3135582805 0.6777018905 0.6651325822
0.21476142 0.08171235 1.1950001 0.009188822471 0.8450503945 0.5346077085
-0.12907338 -0.071171306 1.376 -0.2094637007 0.7446584702 0.6337260604
-0.084757179 0.08370956 1.1936002 0.06896907091 0.7247590423 0.6855418086
0.48534516 -0.06419275 2.0530002 0.05328796431 0.8004227877 0.5970626473
0.24563149 -0.1643575 1.376 0.6475764513 -0.2111833692 0.732151866
0.15222885 0.22579116 1.1315385 0.6312182546 -0.2799398899 0.7233237028
0.12985624 0.3282766 1.1850001 0.5180571079 -0.3700916767 0.7711348534
0.10988227 0.42756173 1.2410001 0.444632858 -0.391330868 0.8057057858
0.094521254 -0.044433109 1.3755386 0.0989600569 0.7439700961 0.6608445048
0.085958041 -0.48305997 1.381 0.5953890681 -0.09958335012 0.797242105
0.063875765 0.15138465 1.1024544 0.1282571107 0.7753863931 0.6183251739
0.053462639 -0.25331107 1.452 0.4954318106 -0.3776493073 0.782258451
-0.039366715 0.02362003 1.2830001 -0.08622591943 0.8261405826 0.5568274856
0.27469584 0.015424383 1.2838826 0.129104808 0.7876895666 0.6023928523
0.10535128 -0.4249019 1.3743331 0.3909634054 -0.2000948787 0.8983927965
0.4055118 -0.18573059 1.177 0.6812497973 -0.07326165587 0.7283759117
0.0045735701 -0.092776746 1.4236667 -0.1126081347 0.7684104443 0.6299721003
0.13532399 0.15426262 1.094125 -0.01309568156 0.7931407094 0.6088975668
0.18658097 -0.19691323 1.4141668 0.5272904038 -0.2399784625 0.8150921464
0.19538797 -0.3550342 1.3589998 0.3050557375 -0.1603140533 0.9387440681
0.075153418 0.10356525 1.1743335 0.007096118759 0.8468951583 0.531712532
0.20530845 -0.41520023 1.3361818 0.4236846268 -0.2396970242 0.8735197186
-0.25273162 0.25142625 1.4860001 0.3907966614 -0.4488756955 0.8036097288
-0.25293443 0.16172601 1.4450001 0.704752326 -0.2811624408 0.6513615847
-0.024708917 0.1344672 1.134308 0.1024503037 0.6788941622 0.7270534039
0.40197292 -0.32327017 1.1660001 0.7078075409 -0.111924462 0.6974821687
0.18542394 -0.0016163981 1.317 0.08486204594 0.776068151 0.6249133348
0.34116945 -0.29404864 1.25 0.8339040279 -0.1043050289 0.5419636369
0.19598785 0.12739585 1.1079999 0.278183639 0.702725172 0.6548215151
0.28979707 -0.23668687 1.317 0.7071218491 -0.1315915138 0.6947390437
0.3001689 -0.13443859 1.322 0.8391190171 -0.03972636163 0.5424951911
-0.10510825 0.016769903 1.2754999 -0.1033393294 0.742554009 0.6617662311
0.038781103 -0.381556 1.427 0.4896233082 -0.3127388656 0.8139185309
-0.034862258 0.096508719 1.1753334 0.02136655711 0.7548469305 0.6555528641
0.31954852 -0.17501774 1.2880001 0.839830637 -0.02936607786 0.5420536399
-0.12554401 0.057544637 1.2259092 -0.1135057136 0.6945719123 0.7104127407
0.35865834 -0.11810804 1.2360001 0.691185236 -0.1253770888 0.7117187381
0.34530234 -0.070860088 1.2830001 0.78671664 -0.3805375099 0.4860741794
0.12464086 0.10506517 1.1750002 0.0747320056 0.8413155079 0.5353534818
0.074253671 -0.075494148 1.4116668 0.01792665944 0.6915630698 0.7220935822
0.14412402 -0.038833413 1.37 -0.0004481155192 0.7619979382 0.6475793123
0.21526001 0.053205233 1.2425386 0.1096415669 0.8337600827 0.5411310196
0.37408206 -0.35350588 1.1948825 0.8652282953 -0.007054320071 0.5013284683
-0.025813447 -0.045985553 1.3649999 -0.1992253512 0.751680851 0.6287170649
0.30529436 -0.28526279 1.294609 0.7020873427 -0.1668471396 0.6922682524
0.25487188 -0.41496477 1.31375 0.4642452002 -0.2448364496 0.8511941433
0.12183563 -0.36430058 1.376 0.2926065028 -0.1872834712 0.937713325
0.0013351634 -0.16689542 1.5230001 0.4766160548 0.2248515487 0.8498699665
0.41087964 -0.23321845 1.1736668 0.7769142985 -0.1574315727 0.609605968
0.26232848 -0.22434425 1.3540001 0.5510215759 -0.1210407689 0.8256660104
0.23589814 -0.26460794 1.3578235 0.561124146 -0.3098755479 0.7675395012
0.27576298 -0.33517101 1.3138422 0.6667920351 -0.1968044192 0.718788147
0.0191727 -0.29014686 1.4580001 0.6916919351 -0.1882647127 0.6972221136
0.064661764 0.017013175 1.294 -0.01145983394 0.78721416 0.6165732145
0.18463829 -0.46510142 1.3330001 0.2675531507 -0.1305050403 0.9546642303
-0.12072489 0.11453387 1.177 0.1451856196 0.5680601001 0.810079515
0.32068604 -0.37431842 1.2640001 0.7364331484 -0.1164043099 0.6664205194
0.044841502 0.12655033 1.1366669 0.01187023707 0.808252275 0.5887167454
-0.13068733 -0.03885299 1.3430001 -0.1361715794 0.7668772936 0.6271814108
0.14462012 0.048205432 1.2575455 0.07991594821 0.7827070355 0.6172383428
0.14383514 0.018761104 1.2970001 0.02028786764 0.8100913167 0.5859526396
0.19698174 -0.25899452 1.3870001 0.5144795179 -0.2910948694 0.8065820336
0.024587577 0.081490256 1.202 -0.05663242936 0.8333740234 0.549800396
0.35489288 -0.2549831 1.2337501 0.8408958912 -0.06965401769 0.5366957784
0.14195776 -0.21565855 1.4330001 0.3569186032 -0.3343105316 0.8722646236
0.34454751 -0.33508784 1.2335001 0.7756448984 -0.04311590642 0.6296951771
0.1748161 0.49024513 1.4450001 -0.7506510615 -0.6259176731 0.2115420401
-0.093850963 -0.094350673 1.4123334 -0.1031177416 0.8018671274 0.5885370374
0.22470018 0.019195493 1.2880001 0.0315553993 0.7704310417 0.6367419362
0.10524534 0.064597555 1.2340001 -0.08111074567 0.8193897605 0.5674693584
0.047829807 0.18337725 1.0758573 0.240142867 0.6272028685 0.7409102321
0.12486189 -0.2873328 1.4040002 0.1241055131 -0.479557246 0.8686901927
-0.21074803 -0.037675627 1.3430001 0.354459703 0.6620345712 0.6603548527
-0.015085679 0.041972388 1.25175 -0.1295315623 0.8295135498 0.5432576537
0.064916454 0.045102187 1.2550403 -0.0804117322 0.8040500283 0.5890988708
-0.069774777 -0.041391816 1.3490001 -0.1290465295 0.7489079833 0.6499875188
0.39284748 -0.27421421 1.1815333 0.711997807 -0.07984430343 0.6976274252
0.2361041 -0.3162019 1.3380002 0.3971145749 -0.2437507063 0.8848082423
0.36273134 -0.035498571 1.2653333 0.7061998248 -0.1275797188 0.6964231133
0.31240249 -0.088114351 1.3053335 0.7882063389 -0.1244734451 0.6026915908
-0.17435636 0.057597242 1.2270001 0.2478884906 0.5609858632 0.7898393273
0.06270241 -0.33399761 1.4210002 0.5764526725 -0.1180487648 0.8085584641
0.23723455 -0.12430887 1.3864546 0.6125099659 -0.1613425314 0.7738217711
0.19326468 0.31561929 1.5860001 0.3339785337 0.4943184257 0.8025631905
0.015222816 0.0073658791 1.307 0.02703727223 0.7985413671 0.6013323665
-0.26661888 0.33260033 1.536 0.8021120429 -0.2688586414 0.5332272649
-0.18481509 0.0055998554 1.2776667 0.01195717975 0.7516413927 0.6594635844
-0.22182998 0.08701618 1.3980001 0.5313242078 -0.2247273028 0.8168183565
0.15499374 0.13330685 1.1243125 0.03606475517 0.8296484351 0.5571200848
0.30850425 0.17355663 1.3346667 -0.5933580399 0.6583637595 -0.4631234705
0.28583944 -0.37539506 1.2967225 0.5899174809 -0.09096950293 0.8023228645
-0.024094934 -0.075256705 1.3941429 -0.1789740175 0.7137999535 0.6770951748
0.09508314 -0.0041530202 1.3249999 -0.01522684842 0.8312184811 0.5557373166
0.096120492 -0.32635444 1.398 0.3442163169 -0.3265122175 0.8802868128
0.014650707 -0.028506422 1.3548335 -0.04908007756 0.7660690546 0.6408816576
-0.15133458 -0.10532887 1.381 -0.5296480656 0.2972195745 0.7944390774
-0.054833043 -0.0055322922 1.3140001 -0.08792012185 0.7759744525 0.6246068478
0.34308839 -0.21477295 1.2550001 0.8312280774 0.005972559564 0.5558995008
-0.01400212 -0.1177451 1.452 -0.2081362605 0.7586169243 0.6173974276
0.10591516 -0.25540963 1.4265385 0.373393029 -0.3780798316 0.8471323848
0.37478822 -0.17545162 1.2139654 0.7419719696 -0.1407840103 0.6554826498
-0.2058485 -0.024480451 1.3050001 -0.1288712919 0.6935899854 0.7087489963
0.15847152 -0.43875325 1.3490001 0.3417878449 -0.3312152326 0.8794757128
0.1690152 -0.28817698 1.3870001 0.3850232065 -0.3971048594 0.8331055641
0.32676175 0.22532436 1.396 -0.4925978482 0.6706222892 -0.554628849
0.1848776 0.069462679 1.2190001 0.07405664027 0.8299633265 0.552880168
0.32968628 0.28258824 1.452 -0.5118165612 0.6927481294 -0.5080786347
0.24223877 0.086513847 1.161 0.4388788342 0.8565043211 0.271635294
0.024600582 0.057039436 1.2335002 -0.0545533672 0.8152561784 0.5765252113
0.21405034 -0.026873829 1.3456668 0.2461895794 0.6994532347 0.6709365249
-0.054905359 0.065778695 1.2154738 0.01484425738 0.8010114431 0.5984649658
0.35409355 0.32851768 1.5090002 -0.7402916551 0.5910477638 -0.3203604519
-0.092074543 -0.12304893 1.452 -0.6002829671 0.4734055996 0.6446297765
0.065134577 -0.21786392 1.464 0.5154471993 -0.4444608092 0.7326450944
0.32339096 -0.41389626 1.2589999 0.7283363938 -0.1668989658 0.6645832062
0.27154875 -0.14420693 1.3550001 0.7750585675 -0.07260014862 0.6277049184
0.17602083 -0.3255204 1.3752501 0.5480901003 -0.2702418268 0.791559577
0.055045899 -0.03709615 1.365 -0.02839976735 0.7864903212 0.6169493198
-0.12559749 -0.005709657 1.3024167 -0.0738183856 0.7422808409 0.666010499
0.30586374 0.11988066 1.2780001 -0.3864806294 0.7872430086 -0.4805009365
0.2159472 -0.17427747 1.3980001 0.5874224305 -0.1791291237 0.7892069817
0.25374237 0.078589655 1.2060002 0.05787271261 0.8485211134 0.5259873271
0.095119208 0.084918894 1.2033333 -0.09734798223 0.8339009285 0.5432610512
0.17497577 -0.023098662 1.3460003 0.110749118 0.7503498793 0.651697576
0.31361336 -0.2150939 1.2947501 0.8102254272 -0.03903496265 0.5848170519
0.21198939 0.10853045 1.1570001 0.2190371603 0.9204590321 0.3236941099
0.12228623 0.18154803 1.0730001 0.01673745923 0.6818195581 0.7313289046
0.075555868 -0.40540063 1.3941177 0.5075056553 -0.07984377444 0.8579411507
0.013782953 0.14078303 1.123 0.1391736567 0.7261508703 0.6733019948
0.16541801 0.095124632 1.1853634 0.06986059248 0.8378811479 0.5413637161
-0.23901966 0.19300517 1.4580001 0.6473513842 -0.3364831209 0.6838971376
0.10508098 -0.46486062 1.3557647 0.3267662525 -0.4502478242 0.8309637308
0.34772456 0.021520413 1.2920001 0.248632431 0.3028158545 0.9200459123
0.02163964 -0.11838156 1.452 -0.03631015494 0.7849664092 0.6184734106
0.27070415 -0.44060215 1.2920001 0.5374556184 -0.2207801044 0.813878119
0.11696633 -0.18790619 1.4450001 0.2009026855 -0.4097672403 0.8897914886
0.034767803 -0.075727262 1.4118181 -0.07461112738 0.7265979648 0.6829997301
0.16230255 -0.059795681 1.3920001 0.1380239874 0.6096965075 0.7805252075
0.045363553 -0.30497044 1.4375 0.585339427 -0.2044193149 0.7845957279
0.16496763 -0.36462602 1.3736001 0.4570371807 -0.2052276284 0.8654470444
0.24500027 0.036456004 1.2653333 0.04498603567 0.8377476931 0.5442013144
0.28476059 0.037526596 1.2589999 -0.01966564171 0.7978047729 0.6025950909
-0.16438042 -0.044321127 1.3365294 -0.1485449225 0.6870312095 0.7112823129
0.098093733 0.14906402 1.097 -0.01279523596 0.8090817928 0.5875567198
0.28988913 -0.10128656 1.3280001 0.8343011141 -0.0623831749 0.547768116
0.11557128 -0.027516972 1.3540001 -0.03815937787 0.7589959502 0.6499761343
-0.233298 0.034226686 1.2658461 0.3786928058 0.4854642153 0.7879824042
0.265333 -0.18561684 1.35725 0.5452442765 -0.2363785952 0.8042598367
-0.27245048 0.26979241 1.516 0.5634665489 -0.3806201816 0.7332351208
0.12536059 0.45526388 1.2543752 0.4079646766 -0.3131909966 0.8575990796
0.032563955 -0.22432847 1.4860001 0.5551828742 -0.3105069697 0.7715940475
0.36898375 -0.26960129 1.2060001 0.8084501028 -0.07411343604 0.5838797688
-0.054388404 -0.087763101 1.4100001 -0.06107157469 0.8153666258 0.575714767
-0.11907413 0.081139006 1.202 0.1370522231 0.6506025791 0.7469491363
0.20996343 -0.37769955 1.3380001 0.5177441239 -0.250492841 0.8180429935
0.17618297 -0.15533291 1.427 0.5327889323 -0.2628704309 0.8043848872
0.33786198 -0.14507829 1.2589999 0.8101561069 -0.1247288138 0.5727912784
0.38578504 -0.10686567 1.2190001 0.5455223322 -0.2068495452 0.8121691346
-0.09559904 -0.055976629 1.3649999 -0.091884166 0.781317234 0.6173335314
0.34609509 -0.095451117 1.2573001 0.6829012036 -0.1327983588 0.718338728
0.15005991 0.35468706 1.197 0.3958514333 -0.4332069159 0.8097119331
0.15596868 0.19454385 1.1125909 0.7210660577 -0.1773427874 0.669786036
-0.28143105 0.30297601 1.536 0.7549462914 -0.2144002616 0.6197488904
0.18437983 -0.23361345 1.4039999 0.4624572396 -0.2326485515 0.8555746078
0.26619941 0.0023025649 1.3145001 0.03645133227 0.7646964788 0.6433588266
-0.0049904878 0.022370277 1.2851429 -0.08365660161 0.8464744091 0.5258161426
0.14670907 0.25524256 1.1462502 0.5040633082 -0.3383911848 0.7946140766
-0.027522072 -0.10133127 1.427 -0.1394870877 0.7600745559 0.6346889138
0.13882455 0.29924402 1.1730001 0.5427969694 -0.3538734913 0.7616724968
-0.1626839 -0.22858119 2.3490002 -0.01190674584 0.7455831766 0.6663061976
-0.11890142 -0.10434701 1.3840001 -0.5657946467 0.211862579 0.7968630195
-0.0039066458 0.087447062 1.1875 -0.118377395 0.8073127866 0.5781287551
0.11772581 0.39745963 1.2320001 0.6056364179 -0.2799759507 0.7448610663
0.16355933 0.16307236 1.1127502 0.3418482244 0.08809228241 0.9356172085
0.13091353 -0.44443578 1.365 0.3371471763 -0.1717262417 0.9256575704
-0.18541141 0.034888238 1.2505883 0.1459785402 0.6245564818 0.7672153711
0.13475576 0.1182853 1.1454003 0.06352739781 0.8589820266 0.5080493689
0.045346461 -0.39586234 1.3980001 0.6103533506 -0.1707354337 0.7735103369
-0.074903972 0.014051398 1.2853686 -0.09029407054 0.7852606177 0.6125461459
-0.061605122 -0.13219433 1.4640001 -0.1240060404 0.7239695787 0.6785945296
-0.16754328 -0.46590799 2.618 -0.01049258094 0.7468643785 0.6648935676
0.26264885 -0.25440562 1.3435001 0.5593217611 -0.1223799065 0.8198672533
-0.24624193 0.086786784 1.4210001 0.5842479467 -0.2396420538 0.7753877044
0.1246997 -0.40073398 1.381 0.1203341484 -0.2249685079 0.9669068456
0.12447264 -0.058575362 1.3920001 0.06003612652 0.7599872947 0.6471590996
0.36253789 -0.20521013 1.2320002 0.79339993 -0.06358013302 0.605371058
-0.12492501 0.032875001 1.25 -0.1123826802 0.7558915019 0.6449791789
-0.1560721 -0.083397299 1.3590001 -0.5112969875 0.3160637021 0.7991740704
-0.085351393 0.11003131 1.1730001 0.2393721789 0.5842914581 0.7754382491
0.075582981 0.1221112 1.1427779 -0.0351392813 0.836468935 0.5468866229
0.32238391 -0.3019658 1.2737142 0.7675611377 -0.1905556619 0.6119954586
-0.095110446 0.058776118 1.2190001 0.03526985273 0.7753041387 0.6306025386
-0.091769755 -0.13163354 1.4210001 -0.6676887274 0.1015864834 0.7374767661
0.085148871 -0.021287221 1.3490001 -0.004536103457 0.762219131 0.6473032236
0.37221149 -0.14448036 1.2253336 0.7088757753 -0.05369001999 0.7032869458
0.054470647 -0.058242548 1.3920001 -0.01484047528 0.756501317 0.6538237929
0.024171455 -0.15777896 1.5040002 0.552385509 0.2248397321 0.8026937842
0.069108509 -0.4570826 1.383 0.617775023 -0.1423229277 0.7733680606
-0.014346857 0.1132855 1.1544117 -0.01826736331 0.7398706675 0.6725010276
0.17438945 0.052767538 1.2511111 0.07525292784 0.8296511173 0.5531871319
0.31623155 -0.14538038 1.2955714 0.8340314627 -0.04683224857 0.5497255921
-0.2349447 0.14496581 1.4255 0.6737574935 -0.1874456406 0.7147831321
-0.025140554 0.0045675971 1.3035624 -0.1605475247 0.7833898664 0.6004371643
-0.15492611 -0.0023818063 1.2857778 -0.06896112114 0.7630704045 0.6426258087
0.055316795 0.088596813 1.1969999 -0.02676235884 0.7992776036 0.6003658175
-0.045028977 0.046742611 1.2441429 -0.01533147693 0.8347052932 0.5504834652
0.23214725 -0.19401094 1.381 0.6565608382 -0.18020688 0.7324297428
0.23526958 -0.39490944 1.3253001 0.5371701121 -0.1943474412 0.8207784891
0.28283194 -0.30586201 1.3135387 0.7038368583 -0.1937018037 0.683442235
0.21173868 0.1090775 1.126 0.2641534209 0.8594291806 0.4377264977
0.33219901 0.19620694 1.3466001 -0.6974171996 0.5909496546 -0.4054475427
0.18573029 -0.3843534 1.3543571 0.3982388377 -0.1569130868 0.9037610888
0.33767664 -0.26531932 1.25775 0.8133102059 -0.09781286865 0.5735495687
0.044960573 0.10610488 1.1671177 -0.06742247194 0.856859982 0.5111215115
0.26310134 -0.38631943 1.3147274 0.5366200805 -0.05814050138 0.8418185711
-0.044489957 -0.023417961 1.3355001 -0.1059938371 0.7418166995 0.662173152
0.11523528 0.013816744 1.3038182 -0.08663657308 0.7734024525 0.6279671788
0.035342596 0.15795976 1.097 0.1787401289 0.677708447 0.7132763863
-0.045328051 0.11886022 1.149 0.190432176 0.642676115 0.7420936227
0.31841937 0.019195493 1.2880001 -0.09708284587 0.42321679 0.9008120894
0.22773893 -0.42632496 1.317 0.5250393748 -0.236177519 0.8176514506
0.30716234 -0.25518352 1.2970001 0.7755572796 -0.0912219286 0.6246514916
0.39594191 -0.16493748 1.196273 0.6553223133 -0.2040586174 0.7272638679
0.22453299 -0.34570289 1.3450004 0.5721849203 -0.11744041 0.8116724491
0.096828081 -0.3852134 1.3853637 0.3787566423 -0.30289343 0.8745278716
0.23497647 0.065316908 1.2248331 0.0161776375 0.8219048977 0.5693949461
0.19192825 0.15246999 1.0938572 0.2752646208 0.2982568443 0.9139323235
0.35587475 -0.066767104 1.2563125 0.6391343474 -0.4389610589 0.6315223575
0.13445875 0.42058697 1.2270001 0.5083644986 -0.3613717258 0.7816495895
0.21487041 0.03719813 1.2666665 0.09197498113 0.799046874 0.5941924453
-0.014677484 0.15478775 1.1163101 0.09979584813 0.5734288692 0.813154459
0.28332636 -0.21542504 1.3355 0.7269759774 -0.1035170406 0.6788152456
-0.13443349 0.014787562 1.2747647 -0.1778122932 0.7526479363 0.6339588761
0.40411103 -0.29446718 1.1643548 0.7352404594 -0.1061714441 0.6694393754
0.21937881 -0.14502697 1.3980001 0.6527738571 -0.1083542481 0.7497637272
0.077062652 -0.23625511 1.4449998 0.3821277916 -0.3556793034 0.8529188633
0.38721752 -0.19518282 1.1970001 0.6961840391 -0.01804096811 0.7176365852
-0.2717202 0.23011711 1.483 0.4626886845 -0.3316828609 0.8221347928
0.044914257 0.0034520214 1.3136668 -0.04864033684 0.8177012205 0.573584199
0.17499945 0.01612605 1.2956668 0.08971635997 0.7868581414 0.6105778217
0.20580705 -0.44641113 1.3280001 0.363840431 -0.1275082231 0.9226927161
0.026877724 -0.0081801768 1.3330001 -0.05246637389 0.8435917497 0.5344157815
0.12539664 0.091676541 1.202 0.03014037013 0.8572579622 0.5140042305
0.28847757 -0.26505628 1.317 0.72503227 -0.1061504558 0.6804853082
0.32719877 -0.33406326 1.2585555 0.7953040004 -0.04381731898 0.6046251059
0.30065876 -0.16493677 1.312 0.7815905809 -0.07663153857 0.6190668344
0.075672001 -0.26484984 1.4386249 0.3423411548 -0.3550240993 0.8699197769
-0.0044484986 -0.057823472 1.3836668 -0.1704793572 0.7185547948 0.6742519736
0.077421933 0.16900642 1.077 0.1240673214 0.6967659593 0.7064874172
0.028052332 -0.25540453 1.464 0.5187984705 -0.2975106537 0.8014583588
-0.052875269 0.14366111 1.1380001 0.3658179641 0.4897861481 0.7913827896
-0.095511079 -0.0011370367 1.2970001 -0.1326979995 0.732323885 0.6679019332
0.15684393 -0.46718165 1.3365716 0.4690515697 -0.2450062782 0.848506093
-0.034406099 0.077019118 1.1953334 0.01695417799 0.8057432175 0.5920222998
0.35799998 -0.35479403 1.2190001 0.7562127709 -0.00118834083 0.65432477
0.091323242 -0.091323242 1.427 -0.001421692898 0.7002748847 0.7138718963
-0.09484306 -0.072956204 1.3870001 -0.004281872883 0.7726104259 0.6348659396
0.17715697 -0.41439119 1.3490001 0.3864567876 -0.2210577428 0.8954242468
0.23811494 -0.28855306 1.3380001 0.4508622289 -0.2274147719 0.8631371856
0.29310301 0.057970464 1.2360001 -0.247123614 0.6419973969 0.7257887125
-0.2058308 0.021885106 1.2640001 0.1616799682 0.6228879094 0.765421629
0.061041422 -0.36624855 1.4210001 0.4980527461 -0.1574473977 0.8527331352
0.21508491 0.0023003733 1.3120002 0.1055168137 0.7769811749 0.6206178069
0.35715914 -0.28489617 1.22575 0.8241667151 -0.05892033875 0.5632740259
0.11794586 -0.33924633 1.3870001 0.06521227211 -0.390651226 0.9182260036
0.21456689 -0.27516797 1.3733333 0.5965135098 -0.2495340258 0.7628266215
0.12570198 0.13783731 1.1140002 0.03046492301 0.8525195122 0.5218067765
0.15586695 -0.00115457 1.317 0.0946245119 0.7849211097 0.6123275161
0.38879904 -0.24808088 1.189 0.7009378076 -0.2173201144 0.6793071628
0.17275369 0.21602596 1.1161113 0.6353114843 -0.3048478365 0.7095400691
0.09518671 -0.064138688 1.398 0.01538856514 0.7581236362 0.6519292593
0.16538264 -0.18539867 1.427 0.5506519079 -0.2115337551 0.8074874282
0.3353807 -0.3649264 1.2430001 0.7876816988 -0.02496018633 0.6155765653
0.30422887 0.086606786 1.2267647 -0.7000894547 0.1693262309 0.6936882734
0.0047865999 -0.073440112 1.4040002 -0.134521991 0.736667335 0.6627405286
0.12477078 -0.23578495 1.4265385 0.2676576376 -0.3604029417 0.8935709596
-0.035647832 -0.13442983 1.4561539 -0.04823114723 0.7617012858 0.6461307406
0.26181674 -0.12446863 1.3708572 0.6185116768 -0.2237167358 0.7532556653
0.19471459 0.098245718 1.1751819 0.08493120968 0.8534013033 0.5142886639
0.015023786 0.12220347 1.1425999 0.04843898118 0.7875260711 0.6143747568
0.31306034 -0.11486836 1.302 0.8194548488 -0.1029649302 0.5638191104
-0.17419295 0.082472563 1.2165002 0.3457892835 0.4062568247 0.8458044529
0.25425324 -0.34106329 1.3330001 0.4904852808 -0.2064808905 0.846634388
-0.10377616 -0.03818021 1.3430002 -0.07511638105 0.7565081716 0.6496560574
-0.14155786 -0.025993669 1.3219999 -0.1577895433 0.7610387206 0.6292237043
0.38510093 -0.30487722 1.1851737 0.7517874837 -0.1253812164 0.6473755836
0.20589745 -0.20589744 1.3980001 0.5991505384 -0.198111698 0.7757385969
0.19717503 -0.32703656 1.3590001 0.4180461466 -0.2499996871 0.8733484745
0.26242858 -0.31435198 1.3340001 0.5521816611 -0.1941764504 0.8107964396
0.13761474 -0.41763085 1.365 0.2920338511 -0.3357871771 0.8955239654
0.042294201 -0.35133496 1.4330001 0.609382987 -0.1694714576 0.7745526433
0.33488122 -0.18493691 1.2648889 0.8263678551 0.03268347308 0.5621814132
-0.084728584 0.032148618 1.2645714 -0.0642972216 0.7897802591 0.6100106835
0.19685516 -0.16670185 1.4150002 0.6047417521 -0.191098243 0.7731551528
-0.26053831 0.17839816 1.4640001 0.6429269314 -0.3550331593 0.6786724925
0.053924099 0.031571288 1.2748749 -0.08107759058 0.8501490355 0.5202624798
0.0083949603 -0.27191263 1.4735 0.6550566554 -0.2401490808 0.7164002061
0.23899284 -0.23518038 1.3590001 0.6405357718 -0.1515086889 0.752834022
0.16376735 -0.22356305 1.4210002 0.4711744189 -0.2535769343 0.8448037505
0.035180941 0.045067109 1.25405 -0.02657633461 0.8062697649 0.5909507275
0.31930831 -0.27001157 1.2780001 0.8109140396 -0.0489891395 0.5831109881
-0.18517044 -0.035521831 1.3240001 0.05652948469 0.7809554338 0.622023344
0.085146897 0.13799551 1.1164001 -0.003147498937 0.8608910441 0.508779645
-0.30632135 0.3004021 1.6880001 0.960739851 0.1911465079 0.2011018097
0.2834782 -0.12457048 1.3434618 0.8061583638 -0.09116917104 0.5846339464
0.22155383 -0.25182074 1.381 0.5757849813 -0.2450482845 0.7800147533
0.29809111 -0.35502398 1.2874446 0.6612207294 -0.1048588753 0.742826879
0.34319395 -0.038510211 1.2920001 0.7633957863 -0.09092580527 0.6394993067
-0.085286319 -0.10761988 1.4330001 -0.3178423941 0.6401888132 0.6993814707
0.24579804 -0.4453595 1.306375 0.4630181193 -0.152455017 0.8731389642
-0.14544383 0.043793447 1.2335001 0.01747019961 0.7201805711 0.69356668
0.24586186 0.010729347 1.302 -0.01042488869 0.7919673324 0.6104744673
0.08947961 0.021520413 1.2920001 -0.01139994431 0.8164063692 0.5773652792
0.094649717 0.047025546 1.2565384 -0.08188775927 0.8102276921 0.5803666711
0.035168875 0.015880158 1.2940832 -0.04206445068 0.8170592189 0.5750172138
0.045604199 -0.27615875 1.4449998 0.4329120219 -0.3055146933 0.848084867
-0.14532502 0.071071364 1.21 0.1290640831 0.5827205777 0.8023585081
0.15219422 0.32482916 1.174143 0.5215634704 -0.3492649794 0.7784507275
0.095182724 0.11193095 1.161889 -0.0703215152 0.8586606383 0.5076975822
0.18541962 0.12417997 1.1349092 0.2286669612 0.8749287724 0.4268618822
0.39958993 -0.2154049 1.187 0.7157834768 -0.09098603576 0.6923695207
0.24852395 -0.20420425 1.3590001 0.6314935684 -0.1016151533 0.7686938643
0.29787907 -0.20551345 1.317 0.7829951644 -0.04009228572 0.6207343936
-0.10545007 0.09659531 1.188 0.1564173996 0.5572795272 0.8154588342
0.28505939 -0.15428807 1.3366667 0.7873389125 -0.105237104 0.6074723005
-0.064850144 0.091769069 1.181 0.1533905566 0.7069778442 0.6904011369
0.12792847 0.36158293 1.2060001 0.4905953705 -0.3852750063 0.7815877199
-0.14430609 -0.0564676 1.3540001 -0.2631982863 0.7324940562 0.6278368831
0.34379739 0.27512169 1.4330001 -0.4117960632 0.7235859036 -0.5539380908
0.085084684 -0.43513742 1.3843337 0.5579378605 -0.2247008234 0.7988834977
0.054889858 -0.086080767 1.4230002 0.05380426347 0.731231153 0.6800044775
-0.11555636 -0.083708808 1.3973334 -0.356328994 0.5652102232 0.7440208793
-0.24911387 0.21297711 1.4723333 0.620100379 -0.2182381451 0.7535566688
0.13454029 -0.2640976 1.4210001 0.127891928 -0.3453674912 0.9297122955
0.34529006 -0.30656597 1.2270001 0.8008772135 -0.1198199615 0.5867186785
0.15074721 -0.19381785 1.4450001 0.4726343453 -0.3635344207 0.8027823567
0.22543555 0.097683541 1.1751819 0.2399941087 0.8793772459 0.4112159312
0.122558 -0.31497407 1.398 -0.03667930886 -0.1538583338 0.9874119163
0.01449393 -0.19105636 1.503 0.488635242 -0.3034633994 0.8180131912
0.41459048 -0.25529978 1.1636668 0.7000678182 -0.1432026029 0.699569881
0.17647299 0.4748728 1.4640001 -0.9691560268 -0.01668893918 0.2458823472
0.27127972 -0.36296603 1.3120002 0.6098740697 -0.178249225 0.7721922398
0.045355495 0.14193016 1.1153848 0.06785842776 0.7993115187 0.5970730782
0.19549607 -0.014285809 1.3353332 0.09078211337 0.7936316729 0.6015874147
0.035249013 -0.095681161 1.4360002 -0.0458006002 0.7240892053 0.6881839633
0.35432014 -0.00392133 1.278 0.6022554636 -0.1143294349 0.79007411
0.17630842 -0.26595086 1.398 0.4970649183 -0.3268701434 0.8037924767
0.36663103 -0.095172383 1.2336668 0.6963566542 -0.1833182275 0.6938889623
-0.18448418 -0.011086106 1.2970001 0.01724307053 0.7398738861 0.6725245714
0.30791688 -0.39462274 1.268 0.6912869215 -0.1339316964 0.7100596428
-0.055045903 -0.052253712 1.3649999 -0.09288013726 0.7462725639 0.6591286063
0.15467468 -0.35074118 2.4850001 -0.01904314756 0.7398360372 0.6725176573
0.32670185 -0.20509562 1.2769474 0.8106312752 0.01642394252 0.5853265524
0.15475596 0.035441525 1.2755001 0.06796364486 0.8087381124 0.5842290521
0.33386531 0.21180706 1.3650001 -0.6747813225 0.6436007619 -0.3611762226
0.28994435 -0.32519248 1.2970001 0.7127085328 -0.1538543999 0.6843795776
0.36639959 -0.24470501 1.2151766 0.7935522795 -0.09976901859 0.6002674103
0.024844293 -0.31378001 1.4534999 0.6666973233 -0.1174614802 0.7360146046
-0.011870067 -0.029675167 1.3540001 -0.2149984241 0.7374216914 0.6403006315
0.15549612 -0.27775955 1.4040002 0.3657813966 -0.5439210534 0.755217731
0.056479979 -0.4130992 1.4108334 0.5386891365 -0.1154108346 0.8345623612
0.37020758 -0.33520228 1.21 0.8423153162 -0.03750928119 0.5376782417
0.074777529 0.0037427642 1.3148124 -0.003676179098 0.8124967217 0.5829542279
0.2608881 0.095692553 1.149 0.08292926103 0.8315519691 0.5492213368
0.042353518 -0.11679304 1.4640001 0.01292100362 0.7615613937 0.6479639411
0.14576718 -0.34549525 1.3838425 0.3392332792 -0.3483311236 0.8738341928
-0.18202844 -0.22702423 2.3330002 -0.01190674584 0.7455831766 0.6663061976
0.12351795 0.49352258 1.2580001 0.4368303418 -0.2866345644 0.8526546359
0.35485801 -0.14495863 1.242263 0.7082984447 -0.04813756049 0.704269886
-0.13342164 0.098328978 1.189 0.169515729 0.5689263344 0.8047280312
0.16598982 0.079294503 1.2060001 0.09794237465 0.8361823559 0.5396353602
0.14782791 -0.020104596 1.3490001 0.03122771904 0.7344261408 0.6779698133
-0.0013176299 -0.15284508 1.503 0.4896210134 0.5136920214 0.7045507431
0.27287927 -0.40409324 1.3023846 0.6086156368 -0.1943384409 0.7692981362
0.15481041 0.065250136 1.2349092 0.1061787158 0.8483003974 0.5187606215
0.38281104 -0.33467853 1.1833998 0.8006325364 -0.1080683023 0.5893291235
-0.25462344 0.13807938 1.4450001 0.6908960342 -0.2124791145 0.6910247803
0.066289529 -0.38525292 1.4040002 0.5735213757 -0.3134197593 0.7568628192
-0.10519659 0.043818712 1.2427776 -0.1002551541 0.77022928 0.6298379302
0.37173209 0.3452743 1.5090001 -0.7402916551 0.5910477638 -0.3203604519
0.039786641 -0.23486952 1.4640001 0.5326777101 -0.4754186571 0.700165391
0.10451071 -0.27600753 1.4150001 0.3025406897 -0.4328770638 0.8491681814
0.034260057 0.093904622 1.1842726 -0.09374798089 0.8115081191 0.576771915
-0.02548926 0.05205857 1.2320002 -0.08494630456 0.8299179673 0.5513803363
0.19491893 -0.28571972 1.3810003 0.4138202369 -0.2699597478 0.8694104552
0.18583354 -0.43886209 1.3380002 0.415219605 -0.312736243 0.8542767167
0.15489735 0.10723359 1.1650002 0.0785709694 0.8661019206 0.4936538041
0.24570231 0.047711786 1.2446364 0.03156531975 0.8073687553 0.5892022252
0.22762354 0.098295197 1.1418002 0.3899368942 0.8715714216 0.2971741557
0.076136239 -0.34340432 1.4040002 0.5809080601 -0.1537395269 0.7993184328
0.18542813 0.087578997 1.1950001 0.09160841256 0.840470016 0.5340580344
0.14455435 -0.38548559 1.3741251 0.3129617274 -0.2478699833 0.9168508053
0.34769505 -0.23475717 1.2438571 0.8347559571 -0.03121297993 0.549734652
-0.214665 -0.0069251796 1.2925555 -0.0694046542 0.6306142807 0.7729868293
0.3514995 0.29398137 1.4580001 -0.5419549942 0.6980800629 -0.4679411948
0.32327959 0.17203093 1.317 -0.5399494171 0.6645379066 -0.5165694952
-0.054255459 0.10544379 1.1657275 0.149911195 0.6979399323 0.7002902627
0.074428998 -0.31508279 1.4150003 0.4002500176 -0.1897465289 0.8965467811
0.32734916 -0.094852977 1.2845385 0.8444268703 -0.1211160198 0.5217989683
0.19708169 0.021520413 1.2920001 0.07988994569 0.7935724854 0.6032083035
0.11482553 0.16197778 1.0824615 -0.01912290044 0.6954811215 0.7182898521
0.12201218 0.37675816 1.223 0.5341634154 -0.3227983117 0.7813262343
-0.055099171 0.027590185 1.2667693 -0.05470693111 0.8232651353 0.56501472
0.075006425 0.058632638 1.2360001 -0.04294630885 0.7940042615 0.6063932776
-0.054325785 0.0069715041 1.2948571 -0.1123088226 0.762802422 0.6368038654
0.0044498718 -0.012412986 1.3355001 -0.1014868468 0.8049427867 0.5846088529
-0.11892071 -0.02193683 1.317 -0.1108736843 0.7566309571 0.6443730593
0.30557093 0.14798135 1.3153334 -0.5185966492 0.6712607741 -0.5295908451
0.1415536 -0.07302282 1.396 0.1193364784 0.6491684914 0.7512250543
-0.28527874 0.31803802 1.557 0.8284695148 -0.2879881263 0.4803135991
0.0055764769 -0.12413587 1.467 -0.1454115063 0.8686857224 0.4735404849
