# .PCD v0.7 - Point Cloud Data file format
VERSION 0.7
FIELDS x y z normal_x normal_y normal_z
SIZE 4 4 4 4 4 4
TYPE F F F F F F
COUNT 1 1 1 1 1 1
WIDTH 512
HEIGHT 1
VIEWPOINT 0 0 0 1 0 0 0
POINTS 512
DATA ascii
0.055113032 -0.25579262 1.2534214 -0.7056320906 0.1949305236 -0.6812381744
-0.30223554 0.4036608 1.219 -0.7319482565 0.2003949881 -0.6512246728
0.0052415901 -0.27605706 1.9930001 -0.9550657868 0.2531298101 0.154190287
-0.49971664 -0.034606416 1.5790001 -0.9510350227 -0.295032531 -0.09213162959
0.04406039 0.17223607 1.5230001 -0.9909420013 0.1126449108 0.07310971618
-0.32694033 -0.048182603 1.0314287 -0.05906246975 -0.5415845513 -0.8385689259
0.29017052 -0.26206285 0.94300002 -0.659013927 -0.08939725906 -0.7467989922
0.053451944 0.10830639 1.1418002 -0.4741433859 0.6935830712 -0.5423380136
0.13525563 -0.01730014 1.794 -0.9091284871 0.3162467778 0.2710597515
-0.29269445 -0.31645563 1.2320001 0.3304454982 0.762655437 -0.5560237765
-0.19270517 0.20436859 1.0548462 -0.6651102901 0.1808946133 -0.7245035768
0.18083441 -0.46039465 1.115 -0.6679012179 0.1354654878 -0.7318176627
-0.22539495 0.23760867 1.3935001 -0.846137464 -0.5264846087 -0.08285748214
-0.10425232 -0.087683149 1.1424546 0.2409394532 -0.6799281836 -0.6925646663
0.1604826 -0.1074618 1.08 -0.8261998296 -0.2114392966 -0.5221946836
0.0011081067 -0.47316155 1.2640001 -0.7413021326 -0.03182197735 -0.6704167128
-0.065275721 0.04832099 0.96700007 0.1278963536 -0.5671607852 -0.813616097
0.052389599 0.25147009 1.3280001 -0.7992346287 0.4560512602 -0.3914604187
-0.46924812 -0.078409068 1.376 -0.2851984501 0.5444095135 -0.7888473272
-0.41202807 -0.19055051 1.138 -0.09574364126 -0.5684784055 -0.8171079755
-0.12323537 -0.29398784 1.322 0.4385381937 -0.5522041321 -0.7090520859
0.18897471 -0.28322163 1.097 -0.7830632925 -0.1630078852 -0.6002002358
-0.23230176 0.060348857 0.94300002 -0.04860670492 -0.5962423086 -0.8013316989
-0.24547024 -0.17473994 1.1664119 0.4511753917 -0.5939657688 -0.6660671234
0.041068617 -0.094561361 1.1810001 0.01715283096 -0.6908096671 -0.7228331566
0.25995708 -0.38412905 1.0190001 -0.8120962977 -0.1800357252 -0.5550556183
-0.074690923 -0.1854606 1.2427775 0.1768770665 -0.645088315 -0.7433542609
0.092278682 -0.38371673 1.202 -0.5519304276 0.1997792423 -0.8096055388
-0.18470535 -0.025386441 1.0444803 0.2421468347 -0.7416806221 -0.6255196333
-0.0039224573 -0.0079801707 1.08 0.2301477343 -0.7360188365 -0.6366382241
-0.2444234 0.30446362 1.1380001 -0.6435753107 0.1925223172 -0.7407739162
0.063146301 0.3002671 1.47 -0.9955455065 0.02612083778 0.09059138596
0.1305979 -0.1953827 1.1730001 -0.8288823962 -0.1126554981 -0.5479623079
0.23843141 -0.15866527 0.98900002 -0.6929288507 0.001954085194 -0.721003294
0.11397172 0.0031585784 1.1134118 -0.2268812656 -0.4670082629 -0.8546509147
-0.023679374 -0.35514748 1.286077 -0.6815051436 0.2797874808 -0.6762171984
-0.19502723 -0.24527027 1.2434348 0.3376439214 -0.5721569657 -0.7474175096
-0.49715155 0.013231529 1.4375001 -0.490079999 0.349131763 -0.7987043262
-0.14566739 0.12280405 0.98786682 -0.6524681449 0.2567737699 -0.7129884958
-0.32427958 -0.13766719 1.1019999 0.1803027838 -0.6663885117 -0.7234758139
0.071922608 -0.49094999 1.189 -0.5706151724 0.1893576831 -0.7990882397
-0.20276949 -0.098460183 1.1120001 0.277682215 -0.7128282785 -0.6440252066
-0.33503181 -0.2368138 1.1839474 0.2141382843 -0.6144686937 -0.7593240738
0.12897958 -0.29510528 1.177 -0.6772658825 0.0143186599 -0.735599041
-0.15165018 -0.15792537 1.1930001 0.2895538807 -0.6865031123 -0.6669872403
-0.095048197 0.001826535 1.0425 0.1594063491 -0.79602772 -0.5838916898
-0.20211725 -0.33083996 1.2880001 0.4007701576 0.8733869195 -0.2767282724
0.19196239 -0.19605589 1.0609001 -0.866356492 -0.2302937955 -0.4431605041
0.23851733 -0.29390338 1.0190001 -0.8618104458 -0.2199625969 -0.4570549726
0.1722742 -0.366611 1.131 -0.7274481058 -0.01473255362 -0.6860045195
-0.1548018 0.03038702 0.98100001 0.2170012742 -0.73472929 -0.6427155733
0.049499229 -0.21506561 1.9470001 -0.9550657868 0.2531298101 0.154190287
0.021187279 0.03442933 1.0070001 0.3562288582 -0.5426873565 -0.7606519461
-0.25460976 -0.0059002112 0.99476016 0.1014069244 -0.6694942117 -0.7358628511
0.054099098 0.15805423 1.21 -0.3588419259 0.7440937757 -0.5635219216
0.0034422716 -0.1549207 1.2341819 0.2699283063 -0.6599065065 -0.7011862397
0.061371051 0.059482709 1.077 -0.1075626537 0.7212763429 -0.6842446327
-0.025006916 -0.069019087 1.141 0.1610529423 -0.7015687823 -0.6941636801
-0.25482509 -0.071351022 1.057 0.1882980317 -0.6400662065 -0.7448886633
0.046640638 -0.33412021 1.2445 -0.6147984862 0.1703564823 -0.7700659037
0.052473757 0.30874094 1.3920001 -0.8324009776 0.4607759416 -0.3078866303
0.23759244 -0.44057497 1.067 -0.741124332 -0.04955068603 -0.6695367098
-0.05506606 -0.12734932 1.1933635 0.168984279 -0.6986045241 -0.6952669024
-0.26438531 -0.24553321 1.2131333 0.3696557581 -0.5744945407 -0.7302811742
0.054291967 -0.040472195 1.126 0.008151354268 -0.7361801863 -0.676736474
0.02376236 -0.4047775 1.2421764 -0.5718379617 0.1549561918 -0.805599153
0.12584203 -0.44547203 1.1670803 -0.5699797273 0.2437393218 -0.7846746445
-0.12563407 -0.23509708 1.2658947 0.4086068273 -0.5547556877 -0.7247665524
0.2185902 -0.3548362 1.0751818 -0.7989559174 -0.1187071204 -0.5895575285
0.28092432 -0.33301145 0.97400004 -0.778621912 -0.3347827792 -0.5307244062
0.13103624 -0.12803543 1.141 -0.8659868836 -0.2575407922 -0.428648442
-0.26952854 0.36688673 1.169 -0.7110335231 0.1740995646 -0.6812640429
-0.14409731 -0.057534464 1.0917778 0.2611563504 -0.7225263715 -0.6401195526
-0.23142715 0.24529104 1.103 -0.6030423641 0.3164906502 -0.7322387695
-0.058819365 -0.31746876 1.3330001 -0.5462280512 0.1794511676 -0.8181883693
0.20464949 -0.10806604 1.0272501 -0.6186059117 -0.04129129648 -0.7846156359
-0.077897966 -0.041353244 1.097 0.1635494381 -0.7405631542 -0.6517804861
0.084999941 -0.19587353 1.2238889 -0.7581316233 -0.03615816683 -0.6510983109
0.2315903 -0.22519302 1.0022858 -0.8419827223 -0.1141412109 -0.5272920132
0.16184288 -0.22507605 1.1238183 -0.831367135 -0.1076020524 -0.5452068448
-0.31531116 -0.18458015 1.1463335 0.2108006775 -0.5948383212 -0.7757128477
-0.25898135 -0.13047168 1.1190001 0.2683642209 -0.7091210485 -0.6520184278
-0.058759104 -0.23255935 1.2840002 0.1425766051 -0.5854353309 -0.7980835438
0.15398604 -0.04469208 1.0927826 -0.6754246354 0.2223762125 -0.7031005025
-0.039642867 -0.41681641 1.2920001 -0.691816628 -0.003735423321 -0.7220635414
-0.035294894 0.022026248 1.0325557 0.1656827331 -0.7415000796 -0.6501744986
-0.35264704 -0.092979096 1.0670002 -0.1401551515 -0.516115427 -0.8449741602
-0.39486057 -0.24404375 1.1685557 0.11229074 -0.4845451713 -0.8675290942
-0.24392286 -0.29027924 1.2590001 0.6056491137 -0.07212339342 -0.7924565077
-0.38549104 -0.14515531 1.1062856 -0.07397965342 -0.515360117 -0.8537745476
0.012420613 -0.30712789 1.2880001 -0.6498274207 0.23839885 -0.7217273116
0.16154522 -0.16671073 1.1034445 -0.8777683973 -0.2062878609 -0.432397902
0.084516279 -0.29501152 1.2163914 -0.6604378819 0.06196729094 -0.7483193278
-0.19778915 -0.14098816 1.1570001 0.2587125897 -0.7113958597 -0.653439939
-0.16496776 -0.27616295 1.2841541 0.2716580927 -0.6030453444 -0.7500254512
-0.34257942 -0.28566357 1.2250001 -0.04290157184 -0.4507917762 -0.891597569
-0.19475676 -0.19666615 1.21 0.3065589368 -0.5815339088 -0.7535515428
-0.18174469 0.15320627 1.028 -0.6308575273 0.2698031664 -0.7274785638
-0.49371237 -0.042176433 1.4150001 -0.2951518893 0.4882443547 -0.8212811947
-0.11447763 0.083463751 0.95779997 -0.3750126064 -0.08182889223 -0.9234011173
0.061900266 -0.43519232 1.2104446 -0.5543490052 0.1748783588 -0.8137043118
0.13265456 -0.35398281 1.1730002 -0.7352769971 -0.006781577598 -0.6777327657
0.21227853 -0.25473657 1.0527999 -0.8865838647 -0.2210473269 -0.4063337147
0.20390062 -0.40345779 1.101 -0.6909984946 -0.01125748083 -0.7227685452
0.062253676 0.0032368288 1.0858001 0.6055952907 -0.1503594369 -0.7814386487
0.1106441 -0.24130951 1.202 -0.6847000122 0.08105550706 -0.724303782
0.26581639 -0.21497487 0.95729011 -0.7075603008 0.04919787869 -0.7049382925
-0.17522921 0.063484438 0.9430002 0.2125332355 -0.6262279153 -0.7501121759
-0.1540426 -0.10903016 1.141 0.2277741879 -0.684443891 -0.69257164
-0.13068645 -0.18900934 1.2320001 0.3151580393 -0.6111768484 -0.7260428667
-0.20349887 0.011305493 0.99200004 0.2131280452 -0.7426888347 -0.6348147392
0.032177612 -0.49554148 1.2235 -0.6919872165 0.08812160045 -0.7165111899
0.16496938 -0.31471321 1.135231 -0.7635153532 -0.0962690264 -0.638573885
-0.295735 -0.10186544 1.077 0.1557522416 -0.712867856 -0.6837840676
-0.10591887 -0.13433626 1.1878573 0.18779324 -0.6844759583 -0.704433322
-0.14259422 0.00089682994 1.0230001 0.2295459211 -0.7854495645 -0.5747848749
-0.20540468 -0.064664908 1.0733927 0.3496781886 -0.6381115317 -0.6859583259
-0.0052419403 -0.11531778 1.1958002 0.2161014229 -0.6690758467 -0.7110820413
-0.10179503 0.030714016 1.001 0.2296162248 -0.7498386502 -0.620498538
0.16613446 -0.063333027 1.0470001 -0.8518879414 0.04570552707 -0.5217259526
0.15862583 -0.42000926 1.138 -0.7001676559 0.09895651788 -0.7070875764
-0.026919054 -0.19363412 1.257 0.1651328504 -0.6203410029 -0.7667517066
-0.36449993 -0.20484753 1.1454003 0.1201545075 -0.5476572514 -0.828030467
-0.27756405 -0.21152651 1.177 0.3305540383 -0.5818933249 -0.7430573702
-0.052271247 -0.36706296 1.325 -0.7366686463 -0.04499069229 -0.6747556329
0.18309626 -0.14504893 1.0521876 -0.8173265457 -0.1720746458 -0.5498796105
0.016244633 0.044911634 1.09 -0.6115971804 0.4537162185 -0.6481438279
-0.09778516 -0.2603814 1.2970001 0.2656819224 -0.631929934 -0.7280642986
-0.30058753 -0.017631082 1.0055001 -0.09803505987 -0.6124585867 -0.7844001651
0.25688568 -0.27441081 0.97487503 -0.8406757712 -0.1854384392 -0.5087993741
0.21748483 -0.3044585 1.0653125 -0.8638625741 -0.2112424672 -0.4572942555
-0.23460416 -0.036644708 1.0320501 0.2919512689 -0.6906638741 -0.6616251469
-0.055810131 -0.010976525 1.0655 0.1534764171 -0.7916529775 -0.5913801789
-0.025597148 0.036456462 0.98889482 0.3585416079 -0.3920307755 -0.8472070694
0.1506087 -0.25977474 1.153 -0.8424286246 -0.08585054427 -0.5319245458
-0.26295593 0.02834614 0.96525007 -0.07584950328 -0.6178495884 -0.7826293707
0.18676546 -0.23465064 1.085111 -0.8295844197 -0.199599281 -0.5214880109
0.21131697 -0.17522287 1.0220002 -0.7758694291 -0.1195397526 -0.6194649935
0.0040329588 -0.041310579 1.1190001 0.1396425217 -0.7486752868 -0.6480627656
-0.114329 -0.026798997 1.0725 0.2417236567 -0.7507766485 -0.6147390604
0.13128346 -0.4007059 1.1730001 -0.6926229596 0.1618023366 -0.7029178143
0.23932473 -0.33487263 1.0380001 -0.8312511444 -0.2121964395 -0.5138036609
-0.063668184 -0.097031288 1.1613078 0.1763465255 -0.6975480914 -0.6944987774
0.10432159 -0.33456668 1.2019999 -0.5144375563 0.07088595629 -0.854592979
0.10944745 -0.15948057 1.189 -0.7785505056 -0.1456290483 -0.6104516983
0.055015609 -0.376057 1.2252221 -0.5566486716 0.2110192478 -0.8035005927
0.2338084 -0.39457858 1.0625832 -0.7966238856 -0.09222838283 -0.5973979831
-0.23820698 -0.21197274 1.197 0.4727268517 -0.5588212609 -0.6813575625
0.045847621 0.036090903 1.0436667 0.8496488929 -0.5075350404 0.1431953013
-0.0078119766 -0.3939468 1.273 -0.6088038087 0.07277946919 -0.7899753451
-0.044592898 -0.15676264 1.2235715 0.08672107011 -0.6611256599 -0.74524647
-0.30560961 -0.26574314 1.2146668 0.3315214813 -0.4252227545 -0.8421871066
0.1923847 -0.32599396 1.101923 -0.7658154368 -0.1106642783 -0.6334667802
-0.2465362 -0.09778633 1.09 0.278376013 -0.7231571674 -0.6321000457
0.02453422 -0.45431441 1.2330002 -0.7282189727 0.06975853443 -0.6817850471
-0.1642665 -0.2165487 1.2327502 0.2816274166 -0.568143189 -0.7732394934
-0.2845127 -0.048173655 1.0316001 0.06626003236 -0.636615932 -0.7683292031
0.054008804 0.28488159 1.3540001 -0.8026171327 0.4570452273 -0.3832955062
-0.20438433 -0.28703645 1.2739999 0.2437509745 -0.6340884566 -0.7338373661
0.053723257 0.1337975 1.1752857 -0.3211941719 0.7580894828 -0.5675690174
-0.034947041 -0.036712971 1.1045452 0.1754769981 -0.7610797882 -0.6244720817
0.015207889 -0.073004946 1.1566 0.1069671065 -0.7285041213 -0.6766386032
0.094499685 -0.4247376 1.184586 -0.443913877 0.1916094124 -0.8753435016
0.012731674 -0.35401207 1.2663528 -0.6041866541 0.2090746015 -0.7689253688
0.10630162 -0.48195153 1.1682001 -0.5449692607 0.3446197212 -0.7643597126
-0.064391173 -0.066372439 1.13 0.1785304099 -0.7124928832 -0.6785873771
-0.1343988 0.063169859 0.99387503 0.3134248555 -0.2680831552 -0.9109864235
0.14720038 -0.18450046 1.1376002 -0.8840939403 -0.1487948596 -0.442987591
0.14864935 -0.46889395 1.138 -0.681664288 0.1531834304 -0.7154499888
-0.34367707 -0.16574174 1.1245 0.2317145318 -0.6320377588 -0.7394840121
-0.29488733 -0.15287016 1.1250002 0.3055500984 -0.6270779371 -0.7165279984
0.045222454 -0.29480654 1.2552501 -0.6599168181 0.1633554548 -0.7333654165
0.047805291 0.082266405 1.10725 -0.02263561822 0.8299331665 -0.5574034452
-0.27149519 0.32694378 1.1570001 -0.6571527719 0.1854156405 -0.7305965424
-0.014346649 -0.43485174 1.2669998 -0.6576378942 -0.02716636285 -0.7528442144
0.26009384 -0.41706276 1.041 -0.7595524788 -0.1698363721 -0.6278818846
0.082084052 -0.23437157 1.2320002 -0.779024899 0.1313251257 -0.613085568
-0.10495162 -0.16460253 1.2148638 0.1907971501 -0.6456911564 -0.739377737
-0.29636866 0.36785507 1.2042857 -0.7262965441 0.202695474 -0.6568164825
-0.36545789 -0.26239482 1.1864547 0.2460939735 -0.5675509572 -0.7856994867
-0.090656973 -0.29434085 1.3430001 -0.08887047321 -0.644284904 -0.7596045136
-0.11113328 -0.059466053 1.1120001 0.2332299799 -0.7227931023 -0.6505181789
0.25587222 -0.32466978 1.0033685 -0.8506392837 -0.2422895432 -0.4665924907
0.2117449 -0.21560127 1.0338751 -0.8382848501 -0.1872641593 -0.5120651126
-0.19501336 0.036523711 0.96417886 0.1682091504 -0.7454305291 -0.645010829
-0.2347987 -0.14489794 1.1446002 0.356913805 -0.6709073782 -0.6499968171
-0.2168172 0.2187108 1.08 -0.6243782043 0.1981769055 -0.7555645704
0.025596036 0.01147995 1.0670002 0.2845322788 -0.3358666897 -0.8979058862
0.079460189 -0.01079089 1.1190001 0.4702972472 -0.4459705949 -0.7615318298
-0.2752642 -0.28327346 1.2352002 0.391408354 0.1250282228 -0.9116838574
-0.19472276 -0.16599905 1.1846665 0.2763279676 -0.6109713316 -0.7418604493
-0.24932399 -0.32689145 1.2640001 0.3789235353 -0.4024406672 -0.8333417177
0.28062326 -0.29684359 0.95228577 -0.7266741395 -0.2420559824 -0.6429258585
-0.16383632 -0.086835586 1.1129231 0.2678633034 -0.7007309198 -0.6612302661
-0.23005135 -0.24949232 1.2320001 0.3119133115 -0.5670418739 -0.7623474002
0.24326009 -0.1949582 0.98399997 -0.7635020018 0.02113188058 -0.6454596519
-0.016474081 -0.092801139 1.167909 0.1560544819 -0.7018531561 -0.6950173378
-0.31487259 -0.076531023 1.0517501 0.01827788725 -0.6405208111 -0.7677232623
-0.36427769 -0.12321884 1.0855881 -0.1532022059 -0.5834091306 -0.7975981832
0.05155063 -0.068734169 1.153 0.01696497388 -0.6983160377 -0.71558851
0.06478776 0.2746267 1.4960001 -0.9903133512 0.1191220582 0.07134032249
0.17064607 -0.26515779 1.123 -0.7881492972 -0.112296395 -0.6051530838
-0.094699457 -0.21125264 1.2590001 0.217886582 -0.6505923271 -0.727499187
0.036677983 -0.017695516 1.101 0.1449612379 -0.7407772541 -0.6559232473
-0.14551352 -0.02462198 1.0541817 0.2168607414 -0.7446174622 -0.6312814355
-0.14583753 -0.13316058 1.1665999 0.2515561581 -0.6960237026 -0.6725106239
0.12618075 -0.030813957 1.1132857 -0.4543927908 0.04400083795 -0.8897140622
0.20869313 -0.44788021 1.087 -0.6682418585 0.09277671576 -0.7381363511
-0.065515779 0.032154299 1.0162728 0.2448563427 -0.7338557839 -0.6336410642
0.14460325 -0.10755882 1.1120001 -0.8695521355 -0.2180237323 -0.4431079924
-0.20667782 -0.012740836 1.0181819 0.2682917118 -0.7342174053 -0.6236540079
0.1305979 -0.23548755 1.1730001 -0.7856488824 0.02246601135 -0.6182646155
-0.10088066 0.04832099 0.96700007 -0.08995765448 -0.6905149221 -0.7177024484
-0.17545256 -0.30492216 1.302 0.3884364367 -0.5078012347 -0.7689310908
-0.29453471 -0.2370576 1.194091 0.2407664657 -0.610047102 -0.7548999786
0.13180639 -0.15674274 1.161 -0.8462748528 -0.2126016319 -0.4884868264
-0.17513871 0.00159378 1.0100001 0.1825783998 -0.7722294331 -0.6085448861
0.19378895 -0.36423898 1.1036085 -0.746121347 -0.06505806744 -0.6626238823
-0.38004377 -0.18064418 1.126 -0.03888120875 -0.6051152945 -0.7951878309
0.07248117 -0.34401685 1.2235715 -0.6465355754 0.1780220568 -0.7418220043
-0.13771021 0.057820346 0.95588887 0.3548122048 -0.3747112453 -0.8565627933
-0.28201225 -0.17790022 1.153 0.3263082802 -0.5841886401 -0.7431329489
-0.015562586 -0.32681429 1.268 -0.4028306007 0.1176357716 -0.9076834917
-0.3151581 -0.2131348 1.1684667 0.1993670166 -0.6120172739 -0.7653023005
-0.175155 -0.048186235 1.0717143 0.2272003293 -0.7222805619 -0.6532157063
0.22139062 -0.13359946 1.0115 -0.7416726947 0.07246147096 -0.6668365002
0.22883834 -0.25522643 1.0183333 -0.8598356843 -0.214342773 -0.4634002745
0.27461031 -0.36277869 0.99714291 -0.7835789919 -0.2563740015 -0.5659295917
-0.16289169 -0.24932401 1.2640001 0.2400674075 -0.623033762 -0.7444438338
-0.24083304 0.2732057 1.1190001 -0.5421523452 0.3478192389 -0.7649134398
-0.25876132 -0.31397903 1.2350001 0.639641583 -0.1361884624 -0.7565126419
-0.41320142 -0.21729973 1.1621429 -0.09443084896 -0.5118077397 -0.8538944125
-0.07531444 -0.14723441 1.21 0.204384774 -0.6801044941 -0.704048872
0.17788385 -0.093982175 1.0453334 -0.7543201447 -0.07774308324 -0.6518873572
0.081862576 -0.4545702 1.193 -0.5267683268 0.1328461468 -0.8395636082
0.020154567 -0.1304743 1.21 0.05225440115 -0.6638112664 -0.7460724711
-0.038693935 -0.38353205 1.2927142 -0.7344648838 0.2055073231 -0.6467828751
-0.0060108639 0.013254762 1.0551667 0.2545829415 -0.7246095538 -0.6404127479
0.17627546 -0.20505843 1.0943125 -0.8616864085 -0.2082464993 -0.4627417624
0.1427954 -0.32448378 1.1635002 -0.7044571042 0.06266210973 -0.7069750428
-0.16455331 -0.18472822 1.2109998 0.2482785434 -0.6225594878 -0.7421438098
-0.22505659 0.023603212 0.97109085 0.132217586 -0.6935828328 -0.70813936
-0.29343677 -0.12761222 1.1015713 0.2228983343 -0.6835457683 -0.6950406432
0.1515072 -0.38511354 1.153 -0.7060984373 0.03014791943 -0.7074716091
-0.1150723 -0.11541712 1.1633338 0.3095068634 -0.6987274885 -0.6449693441
0.11169506 -0.27452794 1.1948181 -0.7093163729 0.0291894991 -0.7042856216
-0.14322667 0.086861424 0.97417653 -0.6227033138 -0.06615819037 -0.7796561122
0.1844461 -0.42468527 1.1147082 -0.6711054444 0.09936904162 -0.7346722484
-0.05540533 -0.20610783 1.2640001 0.1194940731 -0.6340700984 -0.763987124
0.16082801 -0.13689674 1.0920001 -0.8664904833 -0.1991571784 -0.4577451646
-0.044686329 -0.32884556 1.307 -0.601685524 0.09568452835 -0.7929810882
0.17780396 -0.17177248 1.0754001 -0.8646824956 -0.2393540144 -0.4416263103
0.1106441 -0.20969692 1.202 -0.7478821278 -0.01546638273 -0.6636513472
-0.13523592 -0.26602632 1.2874118 0.3692342937 -0.6104514599 -0.7007246614
-0.18549255 -0.11380847 1.1333847 0.2131286412 -0.697376132 -0.6842826009
0.24361543 -0.36542991 1.0440001 -0.8234548569 -0.1729825884 -0.5403693914
-0.22525832 -0.12200277 1.1253334 0.3204500079 -0.7025440335 -0.6354082823
-0.30417204 -0.2935268 1.25 0.3801033795 0.110242866 -0.918350637
0.24856223 -0.23531184 0.97800004 -0.8252880573 -0.06715195626 -0.5607051849
-0.33435676 -0.11576871 1.0804445 0.1082544029 -0.6209531426 -0.7763364315
0.1604826 -0.072430193 1.08 -0.8438649774 0.1361431628 -0.5189960599
-0.21121618 -0.21979348 1.223 0.282474339 -0.5316169858 -0.7984933257
0.08161591 -0.26525742 1.2250001 -0.7131232619 0.1334366798 -0.6882222891
-0.0032658754 0.017516969 1.0159999 0.0897558853 -0.8445478082 -0.5279042125
-0.023926182 -0.13801754 1.21 0.1921620667 -0.6377112269 -0.7459210157
-0.22522181 -0.18504213 1.1887776 0.308945328 -0.5820726156 -0.7521597147
-0.13520178 -0.086398184 1.1246876 0.3156667948 -0.6700764298 -0.6718274355
0.1513668 -0.29338372 1.153 -0.8131801486 -0.05576085299 -0.5793347359
-0.16190614 0.14248446 1.0070001 -0.6711222529 0.1886526644 -0.7169414759
-0.13356209 0.020534514 1.001 0.243908599 -0.7660660148 -0.5946859717
-0.28035799 0.01121432 0.98400003 -0.08074522763 -0.6056306958 -0.7916386127
-0.36642092 -0.23226224 1.1689999 0.1455968767 -0.6783325672 -0.7201850414
0.14461112 -0.21545179 1.1543332 -0.8397209644 -0.09079827368 -0.5353730917
0.052204154 -0.46430761 1.2115384 -0.590506494 0.1535795331 -0.7922849655
0.10619413 -0.30461928 1.1954446 -0.6418992281 0.0445326753 -0.7654947639
-0.18505122 -0.075560898 1.0941539 0.3035376072 -0.6476731896 -0.6988450289
0.18072547 -0.39562702 1.123 -0.7027978301 0.01847431809 -0.7111496925
0.012054167 -0.43175834 1.25 -0.6952568293 0.0381479077 -0.7177483439
-0.085159667 -0.11595251 1.1753531 0.2186708748 -0.6771289706 -0.7026232481
0.15575483 -0.34495446 1.1445203 -0.7016532421 -0.01376763172 -0.7123855352
-0.21467058 -0.31398192 1.2646316 0.5430698395 0.3311152756 -0.7716462016
0.071980596 -0.40475824 1.21 -0.5620432496 0.1799267381 -0.8073002696
-0.33517647 -0.26489833 1.2042856 0.1968549788 -0.5951142907 -0.7791579366
-0.28553647 -0.081411652 1.057 0.1472301036 -0.6518983245 -0.7438762784
-0.46939713 -0.04779762 1.3980001 -0.3306024969 0.5328150988 -0.7789801359
-0.3554748 -0.14506495 1.105391 0.06885524094 -0.5990290046 -0.7977613807
-0.20320432 -0.32327959 1.317 -0.06443425268 0.5281699896 -0.8466904759
-0.066800244 0.0092077553 1.0357143 0.1769216359 -0.7596617341 -0.6257897019
0.22228336 -0.41576511 1.0807999 -0.7267747521 -0.02683789283 -0.6863513589
-0.21470733 -0.26513177 1.254143 0.2382601351 -0.6424316764 -0.7283636928
-0.31522676 -0.29471794 1.2170557 0.1246159002 -0.204440102 -0.9709146023
0.040448524 0.038567197 1.0730001 -0.5691422224 0.03255172446 -0.8215944767
0.22355504 -0.28483331 1.0431819 -0.8672178388 -0.2074885517 -0.4526386559
0.20550455 -0.27546489 1.0730908 -0.8114311099 -0.2193719149 -0.5417153835
-0.084817745 -0.023421846 1.0742666 0.1814409643 -0.7687969804 -0.6132131815
-0.26453963 -0.026623985 1.0136523 0.1351028085 -0.6701263189 -0.729847908
0.11545106 -0.374652 1.1857141 -0.5964590311 0.03280415758 -0.8019729257
0.038039599 -0.42567196 1.2270001 -0.5463684201 0.2669499815 -0.7938634753
-0.096047118 -0.23375201 1.278 0.1570783556 -0.6091829538 -0.777317524
-0.11348742 0.012244695 1.0220002 0.2320503742 -0.7820549011 -0.5783967376
-0.1375227 -0.21501565 1.245 0.3508966863 -0.5855292678 -0.7307715416
-0.2649194 -0.15735123 1.1409999 0.2639054656 -0.6335823536 -0.7272738814
-0.28349078 0.34631491 1.1845001 -0.7033869028 0.2178823501 -0.676590085
-0.22492896 -0.054722063 1.0539445 0.3498522639 -0.6424847245 -0.6817746758
-0.049552269 -0.40102547 1.3145001 -0.8361296058 0.1258575469 -0.5338981152
0.024620058 -0.052655101 1.1362859 0.1436078697 -0.7163156271 -0.682838738
0.26526663 -0.24499835 0.95618165 -0.7316164374 -0.02768023871 -0.6811543107
0.1429337 -0.15486953 1.1342502 -0.8880741596 -0.2239683568 -0.401450485
0.029469149 -0.37655026 1.245 -0.5752093792 0.2808871865 -0.7682685256
-0.17535642 -0.14722067 1.1743335 0.2076817751 -0.7071291804 -0.675896883
-0.17978416 0.17887156 1.041 -0.6481164694 0.2468278557 -0.720431149
-0.49596474 -0.014657866 1.4232501 -0.490079999 0.349131763 -0.7987043262
0.022481678 -0.32337645 1.2665 -0.6373203397 0.213351801 -0.7404753566
-0.20439057 0.053663626 0.94286221 0.05309497193 -0.6314486861 -0.7735977173
-0.342426 -0.069037497 1.0500001 -0.15454337 -0.5991156101 -0.7856060266
0.071437813 -0.31491271 1.2320002 -0.6603417993 0.02255259641 -0.7506264448
0.024313472 -0.25876483 1.9810001 -0.9550657868 0.2531298101 0.154190287
0.2643401 -0.30499116 0.97408003 -0.8206146955 -0.2615788877 -0.508102417
0.13118552 -0.26516223 1.1730002 -0.7287407517 -0.04913048074 -0.6830249429
-0.14837408 -0.30249909 1.312 0.395960629 -0.5363173485 -0.7453716397
0.083961658 0.012822345 1.1039999 0.4523775876 -0.3993254304 -0.7974294424
-0.17082463 -0.12837118 1.153 0.2264104187 -0.7144346237 -0.6620584726
-0.034273658 -0.019373331 1.0817143 0.138320893 -0.78169173 -0.60813272
0.034595896 -0.27565119 1.273 -0.6182771325 0.1303736567 -0.7750716805
0.20155706 -0.14371109 1.031 -0.7567264438 -0.05795089155 -0.6511580348
-0.25453314 -0.26442698 1.2340002 0.3311133981 -0.5460591316 -0.7695344687
-0.40246627 -0.16647199 1.1170001 -0.1303457916 -0.5727792382 -0.8092798591
-0.23440073 -0.017486494 1.0117143 0.2098142505 -0.7166246176 -0.6651519537
-0.21726254 -0.16089725 1.169 0.273548454 -0.6723589897 -0.6878259778
0.034174439 0.018434767 1.02575 0.6245515943 -0.4329812527 -0.6499711871
-0.13243935 -0.16641457 1.2110001 0.316152513 -0.6442573667 -0.6964051127
0.12301585 -0.32456139 1.1828183 -0.6863772869 -0.009174239822 -0.7271877527
-0.344327 -0.21682508 1.1628463 0.2901982069 -0.6092786789 -0.7379461527
-0.12493268 -0.0068575055 1.0427499 0.2520045042 -0.7590815425 -0.6002407074
-0.0306658 0.0018585334 1.0600001 0.2073478848 -0.7475707531 -0.6309871674
-0.23240554 -0.078643464 1.071125 0.3662881553 -0.6802065372 -0.6349425316
-0.008766667 -0.1742375 1.25 0.243953377 -0.6701436043 -0.7009952664
0.21547866 -0.38481256 1.0846537 -0.7526174784 -0.0707795471 -0.6546427608
-0.044261064 -0.17615795 1.2424546 0.1370105594 -0.6719898582 -0.7277759314
0.13652523 -0.42276162 1.1569999 -0.641493082 0.03728413209 -0.7662222385
0.14703855 -0.13421732 1.1157223 -0.8678893447 -0.2241369039 -0.4433178604
0.19550291 -0.17510745 1.0442146 -0.8257729411 -0.1915165931 -0.5304908156
0.21145457 -0.32550675 1.0829333 -0.7743929625 -0.09299262613 -0.6258337498
0.01448867 -0.48493555 1.2438571 -0.7706640959 0.03985113651 -0.6359942555
0.065730937 -0.28484148 1.2342502 -0.7192233205 0.1293735653 -0.6826274991
-0.12255143 0.040850475 0.98100007 0.2009280771 -0.5829210281 -0.7872934341
-0.098138452 -0.27825138 1.317 0.3487192094 -0.6596410871 -0.6657841802
-0.21059901 0.25062233 1.087 -0.5989066362 0.3214069307 -0.7334905863
-0.34109434 -0.18905228 1.141 0.2268953919 -0.5822094679 -0.7807372212
-0.18446194 -0.26505616 1.2642858 0.3856664598 -0.6068932414 -0.694940269
0.24220312 -0.25485215 0.99499995 -0.8604178429 -0.1808605045 -0.4764143229
0.014887929 -0.092423081 1.177 0.09946350753 -0.712364912 -0.6947253346
-0.2560077 -0.050958883 1.0380001 0.2122888863 -0.6687292457 -0.7125549912
0.22702394 -0.1951029 1.00484 -0.8085300922 -0.09631357342 -0.5805193782
0.17952117 -0.34432751 1.1190001 -0.7644184828 -0.04837248847 -0.6429031491
0.18317074 -0.30443105 1.1135789 -0.7900889516 -0.08164428174 -0.6075307727
0.25778687 -0.35410464 1.0151668 -0.8147774935 -0.2263729721 -0.5337536335
-0.089828528 -0.070085995 1.126 0.1875907928 -0.7226878405 -0.665230751
-0.063278854 -0.34374556 1.322 -0.7368838787 -0.1046832427 -0.6678649187
-0.10504569 -0.18536426 1.2336001 0.2017600983 -0.6647699475 -0.7192869782
0.10508349 -0.18445416 1.2041817 -0.7555179 -0.1170632616 -0.6445842385
-0.032785874 -0.10802082 1.1810001 0.1737771034 -0.686047256 -0.7064988613
-0.21035178 -0.30813694 1.2970001 0.6585163474 -0.2026951462 -0.724755764
0.25210205 -0.29535046 0.99459994 -0.8635392189 -0.2737924755 -0.4234828055
-0.27476886 -0.10902147 1.09 0.20069547 -0.7100975513 -0.6748946905
-0.25332549 -0.19755611 1.182091 0.4246878326 -0.533757329 -0.7312614918
0.087987527 -0.35418209 1.2060002 -0.6239314079 0.03918454796 -0.7804961205
0.1054332 -0.02069284 1.1240001 -0.1760816574 -0.3567672968 -0.9174488187
0.1969386 -0.22469433 1.0640626 -0.8560126424 -0.2372592986 -0.4592933059
0.029269271 0.062315222 1.077 -0.535212636 0.5998526812 -0.5947471857
-0.30514684 -0.036892839 1.0222503 -0.02466257475 -0.6163958311 -0.7870501876
-0.3099753 0.38341892 1.2320001 -0.7323288918 0.2181338966 -0.6450673938
-0.3859944 -0.21551317 1.1533077 -0.0870462656 -0.5835096836 -0.8074276447
0.16337959 -0.44436505 1.1332728 -0.6920065284 0.1583778262 -0.704303503
-0.10510337 -0.04449195 1.09272 0.2374266833 -0.7353208661 -0.6347690821
0.1591775 -0.1941798 1.1178572 -0.8523157835 -0.1747487783 -0.4929712415
0.19015777 -0.25895858 1.09 -0.809369266 -0.1915318072 -0.5551909208
-0.048349917 -0.081590489 1.149 0.1859626472 -0.7192957401 -0.6693515778
-0.20838542 -0.03002934 1.0380001 0.324667722 -0.7005340457 -0.6354863644
0.066297919 -0.22738542 1.25 -0.7201835513 0.0902941525 -0.6878826618
0.024473201 -0.10897896 1.1930001 0.006783249788 -0.6776357889 -0.7353664041
0.23155308 -0.30843455 1.044 -0.8574572802 -0.2104479969 -0.4695515335
0.17298096 -0.12494887 1.0627779 -0.8607624769 -0.1583613902 -0.4837454259
-0.26558518 -0.22418839 1.1946473 0.3292675614 -0.606544435 -0.7236620188
0.050762508 -0.40502 1.2320001 -0.5610733032 0.1249860227 -0.8182757497
-0.054990817 -0.048159394 1.1135 0.1480419785 -0.7497131824 -0.6449912786
0.043079399 0.28924739 1.404 -0.9801439643 0.19560799 -0.03248542547
-0.21439664 -0.087928854 1.092923 0.3407998979 -0.7122675776 -0.6136206985
0.1039793 -0.45446086 1.1821427 -0.4766082168 0.2246608287 -0.8499248028
-0.017768279 -0.050343461 1.126 0.1579203606 -0.7137306333 -0.6823853254
-0.16509879 0.043534506 0.96295249 0.1846568286 -0.684710145 -0.7050346136
-0.29437321 -0.19756824 1.1610001 0.2711861134 -0.5890578628 -0.7612285614
0.0082049184 -0.37779495 1.2572223 -0.5943724513 0.2163221985 -0.7745489478
-0.17494076 0.018186061 0.98788905 0.1668634266 -0.7551422119 -0.6339691281
-0.05479639 0.035398114 0.9849999 0.03210519254 -0.7355937958 -0.6766616702
-0.16511334 -0.014092924 1.0351579 0.232983768 -0.791559875 -0.5649349689
0.17643957 -0.2453603 1.1049998 -0.8329147696 -0.1527451277 -0.5319039822
0.0017681113 -0.33391684 1.2837144 -0.4369480014 0.2143477052 -0.8735739589
0.062400494 -0.023920406 1.1074544 0.327304095 -0.6888390183 -0.6468174458
-0.19568881 -0.043214962 1.057 0.2913110852 -0.6942986846 -0.6580936313
-0.32522967 -0.094347335 1.0647498 0.05354824662 -0.621619463 -0.7814869285
-0.19886306 0.23169424 1.0700001 -0.6202116013 0.227566272 -0.7507004738
-0.23484768 0.0069071767 0.98554552 0.1064787582 -0.6990553141 -0.7070954442
-0.02450273 -0.16502601 1.2341179 0.1875993013 -0.6972600818 -0.6918343902
0.22463125 -0.33456734 1.0637223 -0.8511296511 -0.132653147 -0.5079187751
0.048633959 -0.49479765 1.2060002 -0.6563640833 0.102776885 -0.747410953
-0.0421401 -0.35481709 1.307 -0.7504831553 0.02447848953 -0.6604360938
-0.47648588 -0.054283198 1.376 -0.2546791434 0.5397435427 -0.8023810983
-0.23851924 -0.11294959 1.1075 0.3394117057 -0.7086348534 -0.6185760498
-0.13510397 -0.042297911 1.0755714 0.2663378716 -0.7191568017 -0.641776979
-0.075207479 -0.16546209 1.2255715 0.2218078673 -0.633859396 -0.740961194
0.20162459 -0.30482575 1.09 -0.7509978414 -0.1283733398 -0.6477056146
0.013641459 -0.021327723 1.0958 0.1498356909 -0.7599595785 -0.6324639916
-0.13073291 -0.14642087 1.1930001 0.3172655106 -0.685633719 -0.6551709175
0.094428055 -0.22491455 1.2139132 -0.7422091961 0.07208845019 -0.6662797928
-0.0020482691 -0.41396335 1.2572858 -0.6340833306 0.03681012243 -0.7723881006
0.084393166 -0.32486725 1.2146523 -0.7123422623 0.1141915321 -0.6924801469
-0.26501799 -0.088283129 1.0702727 0.2064439505 -0.7064366937 -0.6769993305
-0.26179633 0.29818502 1.153 -0.6125132442 0.1801160425 -0.7696660161
0.19073549 -0.12502757 1.041 -0.7123039365 -0.1142704487 -0.6925065517
0.25096774 -0.38785926 1.041 -0.8120521903 -0.1505336314 -0.5638357997
-0.28853729 -0.29708654 1.2190001 0.162030369 0.165013656 -0.9728908539
-0.013030334 -0.028473696 1.1010001 0.185983479 -0.7664424181 -0.6147976518
0.16309977 -0.28495002 1.1333685 -0.8035312295 -0.1036039516 -0.5861772299
-0.31717974 -0.24973954 1.202 0.253180474 -0.5956878662 -0.7622700334
-0.117097 -0.20347746 1.245 0.2606322169 -0.6100870967 -0.7482410073
0.24300365 -0.31643462 1.0240526 -0.8517386913 -0.2250873148 -0.4731563032
0.15642919 -0.24474016 1.1352729 -0.849860847 -0.07018712908 -0.5223124623
0.20366448 -0.34489959 1.0941429 -0.7293947935 -0.08316589147 -0.6790189147
-0.11449961 -0.2467038 1.2839092 0.3340595067 -0.5598545074 -0.7582658529
-0.31342584 -0.11944583 1.09 0.1918730885 -0.6586596966 -0.7275658846
0.043757062 0.25662926 1.3490001 -0.8622569442 0.3949195147 -0.3170985878
-0.053750623 -0.028905893 1.09 0.1531951725 -0.7613068223 -0.6300342679
-0.1257883 -0.10509948 1.1455219 0.358247757 -0.6469093561 -0.6731767058
-0.038582101 0.052300181 0.97800004 0.2979585528 -0.4588090479 -0.837087214
-0.02128722 -0.41454059 1.2780001 -0.6399585009 0.0545982793 -0.7664673328
-0.18604317 -0.22424531 1.2348573 0.2977735698 -0.5479794741 -0.7816964388
0.12436251 -0.2149228 1.1837368 -0.7896506786 -0.0315086022 -0.6127471328
-0.07421378 -0.21929334 1.273 0.1668534577 -0.5842821598 -0.794212997
0.20111322 -0.24646319 1.0712858 -0.827686429 -0.220721215 -0.5159624815
0.12524231 -0.46624142 1.1569998 -0.5521592498 0.2276140898 -0.8020673394
0.27313519 -0.27505797 0.95366675 -0.7076966763 -0.1229741424 -0.6957318187
-0.14610921 -0.28397489 1.2970001 0.3491460085 -0.5960848927 -0.7230351567
0.04885488 0.2925261 1.376 -0.8324009776 0.4607759416 -0.3078866303
-0.042597234 -0.058447365 1.13 0.1752860993 -0.706653595 -0.6855038404
0.23999889 -0.41605985 1.057 -0.7789940238 -0.1116931662 -0.617003262
-0.1848627 -0.31930831 1.2780001 0.8636505008 -0.3148207963 -0.3936948478
-0.21638325 -0.2031745 1.2055001 0.3307681978 -0.5862101912 -0.7395607233
-0.23521148 -0.22568803 1.2152106 0.3668048978 -0.5539268255 -0.7474083304
0.10354047 -0.40161151 1.1930001 -0.4665493369 0.2631800473 -0.8444335461
0.24199979 -0.27560335 1.0048572 -0.8617942333 -0.2445095927 -0.4444387555
0.034597021 -0.35473689 1.25 -0.5810261369 0.2396377623 -0.7778061628
-0.28502595 -0.25598574 1.2122666 0.2869647741 -0.6094598174 -0.7390602231
-0.074619271 -0.0045147846 1.0522778 0.1193480641 -0.7841696739 -0.6089614034
0.11495727 -0.42488751 1.1743336 -0.5564044714 0.147775352 -0.8176652789
-0.31601983 -0.16164269 1.1249093 0.2009455264 -0.6606429815 -0.7233061194
0.28097478 -0.23653175 0.94190907 -0.6535528898 -0.04815486446 -0.7553474307
0.025438918 -0.0060212393 1.0836666 0.1844144613 -0.7218316197 -0.6670460701
0.075658433 -0.37575516 1.2156003 -0.4858347178 0.2046077847 -0.8497648239
-0.17545614 -0.17255825 1.1951538 0.2654501796 -0.6602591872 -0.7025624514
-0.29429096 -0.065321788 1.0428891 0.09995771945 -0.6195394993 -0.778575182
0.2054299 -0.4252032 1.0947 -0.6575519443 0.09305151552 -0.7476408482
-0.28757471 0.39224344 1.2060001 -0.7319482565 0.2003949881 -0.6512246728
-0.021735372 -0.37622359 1.2780001 -0.6003435254 0.166919142 -0.7821289301
-0.085484169 0.015414394 1.0246249 0.1881108284 -0.7789353132 -0.5982257724
0.19419441 -0.4454174 1.1040908 -0.6782506108 0.1001661569 -0.7279717326
-0.25628299 0.01204014 0.98100001 -0.03136729449 -0.6527569294 -0.7569177747
-0.078883342 -0.31906545 1.3430001 0.179153204 0.5547030568 -0.8125322461
-0.12885597 0.10257614 0.96700007 -0.4780248404 0.1774067879 -0.8602436185
-0.2539039 0.28421903 1.1357778 -0.6036143899 0.2967282236 -0.7400013804
-0.0049152076 0.034591075 1.0014999 0.3255475461 -0.4748235047 -0.8176560402
-0.097446978 0.068884745 0.95825005 -0.1125816852 -0.3787441254 -0.9186284542
0.17187044 -0.14532168 1.0720625 -0.8684410453 -0.1981385946 -0.4544790685
-0.075356275 -0.085411489 1.1461202 0.177415356 -0.7014070153 -0.6903274655
-0.054687344 -0.11040653 1.177 0.1788638979 -0.6908838153 -0.7004907131
-0.16474365 -0.065952003 1.0935789 0.230315119 -0.6788275242 -0.6972432137
-0.12573667 -0.13163288 1.177 0.3316831589 -0.7033933997 -0.6286684275
0.13306749 -0.0082862535 1.1120001 -0.4453956187 -0.1686964184 -0.8792976141
0.2204729 -0.15583627 1.01 -0.7556926608 -0.04297348112 -0.6535150409
-0.3647975 -0.16476966 1.1173999 0.06550795585 -0.5732095838 -0.8167860508
-0.18537968 -0.013761408 1.0246842 0.2024478912 -0.78031528 -0.5917118788
-0.21105838 -0.1290357 1.141 0.3024916351 -0.6870198846 -0.6606833339
-0.29829636 -0.17059758 1.138 0.2643338144 -0.6162877083 -0.7418336272
-0.13825502 -0.071555875 1.108 0.2953552604 -0.6666659713 -0.6843403578
-0.28039393 0.3700366 1.189 -0.7197018266 0.2008605152 -0.664593339
-0.48324671 -0.071998879 1.3920001 -0.2851984501 0.5444095135 -0.7888473272
-0.24417967 0.044323184 0.95261562 -0.03111789003 -0.5954259634 -0.8028073311
-0.14951813 -0.20115028 1.2270001 0.3170751631 -0.5723285079 -0.7562429905
-0.26489577 -0.18514656 1.1651667 0.3717540205 -0.5803696513 -0.724548161
-0.076992378 0.03674636 0.99800003 0.004676065873 -0.9373461008 -0.3483682573
-0.15389659 0.012812609 1.0031428 0.2186739147 -0.7817361355 -0.58401227
0.055109367 -0.35552076 1.2326403 -0.5836455226 0.2182421684 -0.782130599
0.02343593 -0.29573908 1.2729999 -0.6611366868 0.256056577 -0.7052186131
0.034272987 -0.032315571 1.1169335 0.09942791611 -0.7508514524 -0.6529442072
0.090419985 -0.47453237 1.1810001 -0.5349918008 0.3050779998 -0.7878522873
0.20616737 -0.19463392 1.0339547 -0.8271925449 -0.2156397551 -0.5188949704
0.13614343 -0.37560451 1.1650002 -0.6955301166 0.04250686243 -0.7172384858
0.14509173 -0.025106097 1.1043999 -0.5764064193 0.01006660238 -0.8171011806
0.14778441 -0.095570363 1.0928751 -0.8709656 -0.1599538028 -0.4645791054
-0.2658723 0.34567174 1.1670001 -0.6929183006 0.2136926204 -0.6886216402
0.25701568 -0.19710818 0.96561533 -0.7264509201 0.07549972832 -0.6830584407
-0.27564058 -0.14311422 1.1248001 0.268864423 -0.6669137478 -0.6949373484
0.047513753 0.1454739 1.1938 -0.3588419259 0.7440937757 -0.5635219216
0.038471639 -0.44562984 1.219 -0.5793989301 0.135850504 -0.8036426902
-0.2054293 0.19604897 1.0700001 -0.6763842106 0.1875230521 -0.7122777104
-0.18408626 -0.28581488 1.2830001 0.3469389379 -0.5830030441 -0.7346705794
0.21169922 -0.23521829 1.044 -0.8585154414 -0.2312897444 -0.4576639831
0.043916613 0.11779186 1.1650001 -0.4732429981 0.6986429095 -0.5365996361
-0.077134393 -0.13029458 1.189 0.2140236795 -0.6691774726 -0.7116146088
0.12451734 -0.1749436 1.1738573 -0.8109269142 -0.1179330572 -0.5731399059
0.046822768 0.069756366 1.09 -0.08847177029 0.8218737245 -0.5627577305
-0.16437149 0.16169152 1.0190001 -0.6393036246 0.2669376135 -0.7211346626
