# .PCD v0.7 - Point Cloud Data file format
VERSION 0.7
FIELDS x y z normal_x normal_y normal_z
SIZE 4 4 4 4 4 4
TYPE F F F F F F
COUNT 1 1 1 1 1 1
WIDTH 512
HEIGHT 1
VIEWPOINT 0 0 0 1 0 0 0
POINTS 512
DATA ascii
-0.12614532 -0.14266434 1.7130001 -0.3419574499 0.8164225221 0.4653164446
0.49778536 -0.2952964 3.2080002 -0.2387070954 0.8489865661 0.4714241326
-0.45517933 -0.37931612 2.9840002 -0.1555564851 0.7628690004 0.6275612116
0.28963488 0.090649083 2.5220001 -0.2657164931 0.8281904459 0.4934524894
-0.38822743 -0.01393637 2.2710001 -0.6756598353 -0.5749460459 0.4614334404
-0.025805121 0.44877577 1.6355001 0.8468952179 0.1772321016 0.5013554692
0.30533481 -0.42569295 1.6880001 -0.2955191433 0.6139977574 0.7318983674
-0.47839174 0.24771094 1.766 0.967161715 0.1974934638 0.1599828601
0.029817186 -0.3550956 3.0920002 -0.1263614595 0.7411372066 0.6593545079
0.48623967 -0.09273643 2.8590002 -0.2739621103 0.8280749321 0.489118278
0.093981169 0.10423367 1.5159999 0.2134575397 0.01939062215 0.9767599106
0.13370481 0.31804678 1.9470001 -0.8466385007 -0.5138719082 0.1383435875
-0.06487333 -0.49770823 1.7760001 0.392080456 0.3085072041 0.8666580915
-0.22355001 0.21639639 2.0400002 -0.3332183659 0.8091964722 0.48390764
0.21607028 -0.10573652 1.748 -0.4040941894 -0.3347422183 0.8512670398
0.14437647 0.19777599 2.256 0.003713990096 0.9999883175 0.003090549028
-0.18343519 0.025465121 1.4770001 0.1537462771 0.0377483815 0.9873890281
-0.38145518 -0.0044184001 1.6799999 0.9680970907 0.1811605245 0.1731153876
0.28488073 -0.25293148 3.0370002 -0.2165508121 0.8400806785 0.4973632097
-0.17717783 -0.47528657 3.2080002 -0.1595121622 0.7613636851 0.6283957362
0.095009625 -0.31414473 1.7479998 0.4625667334 0.1476482153 0.8742036223
-0.15598968 -0.3004854 1.8730001 0.8939780593 0.297693789 0.3349353373
0.27090314 -0.14166495 2.835 -0.2328870744 0.8337711692 0.5005888939
-0.12524937 0.10598023 2.1980002 0.3198566735 -0.6329836845 0.7049987912
-0.49499229 0.13825648 1.9470001 0.143462494 0.9358929992 0.3217495084
0.04441778 -0.057312667 1.6343335 -0.1626554728 0.9025729299 0.3986292183
-0.17996915 -0.34650776 3.0640001 -0.1572488397 0.7627801895 0.6272473335
0.033763941 0.27769119 1.572 0.2588930428 -0.223984018 0.9395773411
-0.26417473 -0.12096422 1.5860001 -0.2778789997 0.7084006071 0.6488080025
0.11624074 -0.49787268 1.7220001 0.2037583739 -0.02337346599 0.9787421823
0.33334109 -0.023310568 2.6590002 -0.2150615752 0.8181511164 0.533270359
0.292689 -0.24522594 1.6710001 -0.122107178 -0.1774449944 0.976526022
0.0079908166 -0.14862919 1.8230001 -0.3076350093 0.8506441116 0.4263393879
-0.33000976 0.10139965 2.1030002 -0.3440135717 0.8441458941 0.4111841023
-0.026352599 0.0013176299 1.503 -0.1006972641 0.8115751743 0.5755047798
0.17303208 -0.0041527702 1.5790001 0.0001655687083 0.9087336659 0.4173764288
0.41956389 -0.19790749 3.0100002 -0.2571179271 0.8381396532 0.4810533524
-0.054493602 -0.3440882 1.7760001 0.3272615373 -0.2729436159 0.9046555758
-0.12596963 -0.067573115 1.5860001 -0.1725002974 0.8464525342 0.5037477612
-0.060691632 -0.27707049 3.0100002 -0.12313281 0.7397788763 0.6614873409
-0.41715834 0.12731129 1.7220001 0.5291779041 0.02954173461 0.8479964733
-0.25559655 -0.19356582 1.705 -0.1930876821 0.8025330305 0.5644978881
-0.2773037 0.048479665 2.2120001 -0.3618711233 -0.5756679177 0.7332501411
0.20547432 -0.34443492 1.6862222 0.5088820457 -0.1107898727 0.8536771536
0.11697421 -0.18746524 1.748 0.6475158334 -0.5229113698 0.5543346405
-0.1446351 -0.41801131 1.8130001 0.6219654083 0.3562858105 0.697294414
-0.17457414 -0.21389264 1.794 -0.3874248564 0.7638764977 0.5161343217
0.032512061 -0.42265677 1.766 0.2874662578 -0.3059125245 0.9076236486
0.17996915 -0.29278561 3.0640001 -0.2102652788 0.849740386 0.4834560454
-0.046600971 -0.24907415 1.8330001 0.4743044674 -0.7816601396 0.4050219059
-0.015096201 -0.11020226 1.7220001 -0.2519620359 0.888091445 0.3844590187
0.11563321 -0.082595147 1.7129999 -0.1120062694 0.8930279613 0.4358389676
-0.26353389 -0.026221225 1.5281429 0.4967105985 0.02410589717 0.8675814271
0.075407356 -0.0033664 1.5360001 -0.1864714772 0.816564858 0.5463059545
0.37031716 -0.1143261 2.835 -0.248355642 0.8346595168 0.4915922284
0.20534727 -0.1957655 1.6960001 0.353500843 -0.3239316642 0.8775565028
0.21521817 -0.47392598 1.6960001 0.1109197065 0.3202448487 0.9408188462
0.016616341 0.081377454 1.4580001 -0.03229581565 -0.2767989337 0.9603849649
-0.094075099 0.065723702 1.47 0.3087528348 -0.492928952 0.813444972
-0.32775849 -0.16315731 1.6470001 0.2255259752 0.8675086498 0.4433584511
0.038924001 -0.23821488 1.7760001 0.3920502961 -0.5077547431 0.7671256065
-0.014672771 0.3584348 1.5940001 -0.4679519534 -0.1957217455 0.8618085384
0.062224045 0.19073023 1.5430001 0.3524465859 -0.1794315428 0.9184692502
-0.083355218 -0.16828318 1.794 -0.2439123243 0.7988036275 0.5499268174
0.13590658 -0.40571737 1.7129999 0.5990849733 -0.07412520051 0.797246933
-0.097511634 -0.43462327 3.1780002 -0.1595121622 0.7613636851 0.6283957362
0.29452932 -0.33805582 1.6550001 -0.2046112716 -0.307602942 0.9292548895
-0.04741627 -0.081900828 1.6390001 -0.2035685629 0.863835156 0.4608130455
-0.18634322 -0.12375271 1.6376002 -0.4496810436 0.7717036605 0.4497337043
-0.12362315 -0.28949726 1.7850001 -0.3507377505 0.428104043 0.8328925371
0.15822645 -0.27396017 1.705 0.5156891942 0.09340087324 0.8516694903
0.17057391 -0.039363209 1.6630001 -0.5408167839 0.6845861673 0.4887320399
-0.11385328 -0.019935399 1.5160002 -0.1144927368 0.8501755595 0.513899684
0.29827356 -0.17335558 2.9080002 -0.2392320037 0.8356007934 0.4945091605
0.063475922 -0.1161145 1.766 -0.06440614909 0.9029738307 0.4248412848
-0.0049218573 -0.036421742 1.5719999 -0.2228701115 0.8445405364 0.4869088531
-0.20510495 -0.074462309 1.5556 -0.2975414395 0.7634114623 0.5732992887
-0.32349789 -0.077803291 1.557 0.228608951 0.1467874348 0.9623883963
0.025052903 -0.3344633 1.7760003 0.2390499413 -0.2984665036 0.9239982963
-0.38292798 0.072167203 1.6800001 0.9135012031 0.20913589 0.3489667177
0.035064034 -0.49425048 1.7390001 0.3270039558 -0.2164248228 0.9199069142
-0.085150637 -0.41336763 1.7659999 0.3030457199 -0.09453692287 0.9482753277
0.10666929 -0.029474409 1.6010001 -0.162459299 0.8365294933 0.5232833028
-0.45137638 0.19323136 1.7220001 0.3640686274 -0.302911967 0.8807374239
-0.35597312 -0.073245496 1.6710001 -0.3675447106 -0.1924305707 0.9098798633
0.13361189 0.033072248 1.5090001 -0.1567638516 0.287847966 0.9447585344
0.49691218 -0.25121671 3.1490002 -0.2462239712 0.8387164474 0.4857246876
-0.11464328 -0.10482496 1.6470001 -0.2669449151 0.8307237625 0.4885063767
0.24201085 -0.40092158 1.6630001 0.1450064182 0.1122272164 0.9830453396
0.22448333 -0.26436234 1.6846666 0.3532629907 0.0153900655 0.9353974462
-0.25363985 -0.15353151 1.647 -0.1875663549 0.8484582901 0.4949114621
0.068905123 0.041603092 1.483 -0.553719759 0.3363154233 0.7617653012
-0.19071971 -0.16669203 1.7130001 -0.4607407153 0.7386781573 0.4920086563
-0.1640781 -0.34626874 1.8230001 0.5399910808 0.0896756202 0.8368798494
-0.17148915 -0.23518512 1.863 0.8141125441 0.4477158189 0.3698260188
0.044604801 -0.084749117 1.6960001 -0.1209067851 0.9024939537 0.4133838117
-0.029115854 -0.44593227 1.748 0.1873088032 -0.1194834858 0.975007236
-0.18564557 -0.032190323 1.5089999 -0.1966435462 0.7425153255 0.6403141618
0.26835468 -0.28461859 3.0920002 -0.2253882438 0.8447887301 0.485316515
-0.068248495 -0.042314071 1.557 -0.1182329878 0.8077264428 0.5775802732
0.074701644 -0.37503275 1.7390002 0.2705428004 -0.2151461095 0.9383596182
0.14466666 -0.33538637 1.7130002 0.6501419544 -0.1046503633 0.752571404
0.085373312 -0.44516087 1.7390002 0.1890324652 0.02055019513 0.9817557931
-0.035690084 0.04588199 1.4538749 0.1579072326 0.2783333063 0.9474153519
0.2615754 -0.16890298 1.705 0.05129870772 -0.4932512343 0.8683729768
-0.01095395 -0.2754136 1.7850001 0.129080683 -0.1137968376 0.985082984
0.098074444 -0.24671854 1.748 0.7088586092 -0.1620651186 0.6864796877
0.10446359 -0.059486218 1.6550001 -0.1209719479 0.8938942552 0.4316466749
-0.12110098 -0.47182202 1.794 0.5107659698 0.006436516531 0.8596957326
-0.069551229 -0.110986 1.6880001 -0.2961187661 0.8802871108 0.3706861734
0.16844361 -0.15933855 1.7310001 0.5889743567 -0.5073566437 0.6290456653
-0.21453786 -0.21300545 1.748 -0.5503590107 0.6626084447 0.5079911947
-0.11441684 -0.36566204 1.7939999 0.3877528608 -0.1494408697 0.9095686674
0.47162914 -0.12491798 2.9080002 -0.2699266076 0.8275215626 0.492288202
-0.01386273 -0.3850759 1.7570001 -0.07302494347 -0.1295998693 0.9888737202
-0.12305857 -0.20616306 1.8230001 -0.4256508946 0.7787230611 0.460881412
0.19356582 -0.41478387 1.705 0.3986464441 0.02231808566 0.9168331027
-0.10383503 -0.30618021 3.0370002 -0.1555564851 0.7628690004 0.6275612116
0.01438347 -0.2133548 1.8230001 0.3150871098 -0.5501128435 0.7733666897
-0.13407354 -0.17680368 1.766 -0.3747240007 0.7967325449 0.4741298854
-0.32000613 -0.13415104 1.5940001 0.06168695167 0.7777295113 0.6255649328
0.18751636 -0.056407362 1.7390001 0.6687622666 0.4226238132 0.6116748452
-0.024911359 -0.14246184 1.7760001 -0.3257856667 0.8103944063 0.486954391
-0.068004787 -0.29574174 1.8040001 0.3608019352 -0.1831470281 0.9144830108
0.073547944 -0.19247656 1.7850001 0.2618001103 -0.5209701657 0.8124350905
-0.30416563 0.095389225 2.0530002 -0.01312035881 0.9886248708 0.1498288065
-0.37785998 0.019727631 1.7310001 0.8792660832 0.3390011787 0.3346182108
0.15167473 -0.21474738 1.7129999 0.6228316426 -0.03398858383 0.7816172242
-0.12464754 0.015136964 1.4744999 0.1843593419 0.4130013585 0.891875267
0.055370267 -0.031837903 1.5790001 -0.1441680491 0.8814932108 0.449650228
0.01495418 0.028610891 1.4740001 -0.1070650592 0.6771525741 0.7280120254
-0.07775069 -0.14178067 1.7390001 -0.3516786695 0.8239525557 0.4443245828
0.3225432 -0.29014161 1.6800001 -0.5988449454 -0.4125311077 0.6864421368
0.15585817 -0.46458513 1.705 0.361225605 0.174544245 0.9159969091
-0.0043947301 -0.08057005 1.6710001 -0.2769046426 0.8640218973 0.4204639494
0.12464903 -0.0019097306 1.5556 -0.1990717798 0.8770173788 0.4372767806
-0.48906779 0.16858651 1.904 0.9596526027 0.159284845 0.2317223549
0.024586994 -0.00199354 1.516 -0.1675830334 0.825481534 0.5389769077
0.26514873 -0.29444692 1.6710002 0.1253334433 0.04144444689 0.9912486672
-0.25535905 -0.077704906 1.5430001 -0.03346849978 0.6679753661 0.7434303761
-0.12534054 -0.31174442 1.8330001 0.5269526839 -0.6119468212 0.5897812247
0.088324167 0.146754 1.5500001 -0.2879233062 -0.3877908587 0.8756245971
-0.012982557 -0.49399731 1.7570001 -0.003684690921 -0.1533433944 0.9881660938
-0.075918049 0.0061138053 1.487154 -0.1243774146 0.7450717092 0.6552849412
-0.17397712 -0.087337911 1.5940001 -0.2605160773 0.7872623801 0.5588821769
-0.0014237066 0.39721414 1.6240001 -0.540363133 -0.440199703 0.7170996666
-0.0065167896 -0.062617853 1.6159999 -0.2859249413 0.8623209 0.4179109633
0.25505179 -0.44449878 1.6856 -0.1550002843 0.6519091725 0.7422865629
0.045339946 -0.28730044 1.7659999 0.2533453405 -0.1182002053 0.9601275325
-0.2246055 0.0026580533 1.516 0.4926335216 -0.1888095587 0.8495076299
-0.16409914 -0.13658817 1.6813334 -0.3288819492 0.8176196218 0.4725831151
-0.15354817 -0.047559168 1.5500001 -0.2791903019 0.7764007449 0.5650262833
0.28872579 -0.38738585 1.6550001 -0.129973039 0.04551303014 0.9904723763
0.25479439 -0.21502881 1.6800002 0.02959021926 -0.1825006157 0.9827603698
0.031112023 0.22860573 1.5430001 -0.381366998 -0.356064409 0.8530986905
0.21512085 -0.14718795 1.7220001 0.02865240723 -0.6535788774 0.7563158274
-0.074387796 -0.067370079 1.601 -0.1312248111 0.8771187067 0.4619987011
0.0069519668 0.31700969 1.5860001 0.07957215607 -0.3727751672 0.9245036244
0.16503777 -0.072854504 1.6960001 -0.309309423 0.8074475527 0.5023506284
-0.21939285 -0.11039513 1.5940001 -0.2625340819 0.7804229259 0.5674644113
0.2543309 -0.3546209 1.6710001 0.3051233292 -0.1104688644 0.9458839297
0.15371121 -0.024083786 1.6160001 -0.3104514182 0.8342654109 0.4556545913
-0.22474928 -0.16819374 1.6800001 -0.2946968675 0.8013976216 0.5204955935
-0.020445621 -0.23119278 1.794 0.1501776576 -0.4282367527 0.8911004066
0.19495377 -0.30385453 1.705 0.1088094115 0.03727060184 0.9933636785
0.01386273 -0.11654962 1.7570001 -0.1265312135 0.890335083 0.4373709261
0.095689915 0.057148147 1.5159999 -0.09702598304 -0.3199900091 0.9424395561
0.31427449 -0.27398288 3.0640001 -0.2324784547 0.8464932442 0.4789603055
0.17395872 -0.37468031 1.6960001 0.1905733347 -0.1392036527 0.9717531204
-0.22450422 -0.047094453 1.5268184 -0.03980860487 0.6883459687 0.7242893577
0.015027443 -0.45496133 1.7390002 0.3249459565 -0.02293097042 0.9454545379
-0.016170116 -0.32288072 1.7850002 -0.01717165485 -0.1164235622 0.9930512309
-0.051548 0.082476795 1.47 0.3284181058 -0.4973298013 0.8029972911
0.12595333 -0.28529188 1.7310003 0.4280960858 -0.02290097252 0.9034430385
-0.075861476 -0.45516881 1.7660002 0.27890414 -0.08180171251 0.9568285942
-0.17713489 -0.19253792 1.7570001 -0.4282855093 0.8022223115 0.4159457684
0.041801218 -0.37930736 1.766 0.5520777106 -0.09477477521 0.8283887506
0.23821488 -0.12922768 1.7760001 -0.702116847 -0.3149900138 0.6386025548
-0.28475535 -0.14308603 1.6160001 -0.08654058725 0.8393732905 0.5366220474
-0.29355007 -0.055208959 1.536 0.3989133239 0.2244974077 0.8890832663
-0.06809333 -0.017357124 1.5230001 -0.04623978585 0.845734179 0.5315971971
0.11501995 -0.36538082 1.7316157 0.4108708799 -0.1550415307 0.8984137177
-0.40207878 0.041852064 1.705 0.3190469444 -0.01148868911 0.9476692677
0.12494167 -0.45575884 1.7310001 0.4211605489 0.1523397118 0.8941009045
-0.15213323 -0.01180344 1.4960001 -0.06377797574 0.7175200582 0.6936118007
0.074964985 -0.097424142 1.7310002 -0.05807575211 0.8691146374 0.4911893606
0.20500763 -0.27423099 3.0370002 -0.2102652788 0.849740386 0.4834560454
-0.14948919 -0.10108317 1.6240001 -0.3004252911 0.8272124529 0.4748307467
0.1958079 -0.2346705 1.705 0.1387537718 0.01435715519 0.9902228117
-0.28574774 -0.1734897 1.6630001 -0.1104711145 0.853988409 0.5084288716
-0.42001539 0.16441883 1.705 0.3429350853 -0.1054489091 0.9334216714
0.074701644 -0.48479843 1.7390002 0.09898902476 -0.04196903482 0.9942030907
0.064508051 -0.33492586 1.7659999 0.2117476612 -0.1217220128 0.9697147608
-0.01548544 -0.020871678 1.536 -0.2142665833 0.8590220809 0.4649417698
-0.15431929 -0.1661713 1.7326 -0.3872424364 0.761682272 0.5195029974
0.18471278 -0.49406916 1.7130002 0.05941249058 0.1486072093 0.9871099591
-0.053154636 -0.38446799 1.7659999 0.3893204331 -0.1201109812 0.9132376313
-0.28531483 -0.094855659 1.5640002 0.01588314585 0.5885639787 0.8082945943
-0.42484143 -0.38262117 3.0100002 -0.1555564851 0.7628690004 0.6275612116
-0.086982869 -0.33053491 1.8040001 0.2966386676 -0.1876490414 0.9363724589
-0.11423405 -0.43189859 1.7850001 0.5583589673 0.1069796085 0.8226728439
-0.1143982 -0.046306193 1.5535001 -0.1821027249 0.8044825196 0.5653728843
-0.13304323 0.052437235 1.4830002 0.3725911975 -0.3198662102 0.8711265326
-0.21757464 -0.35725218 3.0640001 -0.1572488397 0.7627801895 0.6272473335
0.13354087 -0.24431913 1.7310001 0.606137991 -0.007907938212 0.7953201532
0.094305664 0.018948274 1.508 -0.3908650577 0.6200246215 0.6802896261
-0.40592235 0.094167151 1.705 -0.4003946483 -0.3576059639 0.84368366
-0.22826762 -0.13335386 1.6240001 -0.2228390127 0.8107619882 0.5413019061
0.058142871 0.076503776 1.4959999 -0.6584023237 -0.5221564174 0.5420876741
-0.14110914 -0.31682995 3.0370002 -0.1555564851 0.7628690004 0.6275612116
0.10500889 -0.40596262 1.7360002 0.3355834186 0.06267891824 0.9399229288
-0.10625201 -0.083584905 1.6160001 -0.164824605 0.8709769845 0.4628519714
-0.032281496 0.39720276 1.6010001 -0.3139894307 -0.4497136474 0.8361628056
0.22485378 -0.30442286 1.6808001 0.5058816671 -0.1250007749 0.8534978628
0.06560535 -0.071436934 1.6630001 -0.09836261719 0.8983567357 0.4281120896
0.059456408 -0.41009676 1.7390001 0.4848638773 -0.0539287962 0.8729253411
0.32292411 -0.36228731 1.6630001 -0.3797065914 -0.02582887933 0.9247463346
0.035329666 -0.017664833 1.5500001 -0.1276723593 0.8749570251 0.4670652747
0.032861851 -0.13301225 1.7850001 -0.1386290789 0.8516296148 0.5054789186
-0.072004139 0.037493277 1.4580001 0.0716079399 0.1821862459 0.9806531072
0.035810083 -0.20084782 1.7760001 0.5913336277 -0.009985214099 0.8063651919
-0.10506675 -0.12282451 1.6880001 -0.2671753168 0.8682374954 0.4180681705
-0.19633009 -0.15113528 1.6630001 -0.4415591061 0.7381097078 0.5101172328
-0.35578638 -0.0372408 1.6800002 -0.3675447106 -0.1924305707 0.9098798633
0.025103349 -0.047991116 1.6032858 -0.1265272051 0.8920341134 0.4338962436
-0.034759834 -0.053298414 1.5860001 -0.2130744904 0.8627997637 0.4584493935
0.082054242 -0.28331935 1.7660002 0.567935288 -0.1491030902 0.8094552159
-0.14708012 -0.31788284 1.8040001 0.3312506676 -0.583979845 0.7411076427
-0.14392871 -0.37633383 1.813 0.6147206426 -0.362537384 0.700489223
0.076501444 -0.043917492 1.6160001 -0.1090532541 0.9026895165 0.416243881
0.02566354 -0.10215095 1.7220001 -0.2342588753 0.895873785 0.3775353432
-0.036374655 -0.16289519 1.8040001 -0.3406989276 0.8168749213 0.4654456377
-0.055855941 -0.11805228 1.7220001 -0.2447612286 0.8635422587 0.440893054
-0.035427853 -0.098912545 1.6840001 -0.2245520651 0.8834602237 0.4111865759
-0.22075431 -0.18771625 1.7130001 -0.350389719 0.7660927176 0.5388218164
0.075861476 -0.22448802 1.7659999 0.4398992658 0.003186301328 0.8980414867
0.055340458 0.01185867 1.503 -0.1550225914 0.8315113187 0.5334388018
-0.46125641 0.21607028 1.748 0.9309676886 0.1504538506 0.3326601088
0.21502881 -0.38440076 1.6800002 0.4727402627 -0.06314492226 0.8789364696
-0.078347698 -0.10011095 1.6550001 -0.1900802255 0.8678660989 0.4589966238
0.49591631 -0.27581862 3.1780002 -0.2462239712 0.8387164474 0.4857246876
0.12813359 -0.069221601 1.6800001 -0.1206122562 0.8983286619 0.4224432707
-0.45888153 0.26069349 1.7390001 0.9538276196 0.2040822059 0.2203708589
-0.0030963868 -0.42575315 1.7659999 -0.1834824532 -0.08385667205 0.9794397354
-0.044519763 0.017916435 1.4750001 0.04803381488 0.7888186574 0.6127461195
-0.15662001 -0.22374287 1.8230001 -0.2891614437 0.8683732152 0.4028815627
0.084749125 -0.078801811 1.6960001 -0.1407792568 0.9168592095 0.3735644817
-0.10320032 -0.15865125 1.7570001 -0.3284257948 0.8464533687 0.4191100001
-0.079807349 -0.37086946 1.7850001 0.364172399 -0.4090290964 0.8367040753
0.27540308 -0.41749933 1.6710001 -0.03107485734 0.5042389631 0.8630048633
0.012124885 -0.24302487 1.8040003 0.3688959479 -0.5417511463 0.7552624941
0.044668797 -0.4605507 1.7570001 0.2593858838 -0.03824943677 0.9650160074
0.22449681 -0.42605999 1.6800002 0.3151106238 0.3167926967 0.894621551
-0.044668797 -0.47595373 1.7570001 0.2430925965 -0.02450717427 0.9696934819
-0.10172138 -0.29403839 1.8130001 0.4301508069 -0.4623628557 0.775364995
-0.11481002 -0.1845348 1.794 -0.4178725779 0.7221895456 0.5512030125
-0.14799011 -0.12042332 1.6550001 -0.2576934397 0.8316008449 0.4919696152
0.093920805 -0.015767727 1.5640001 -0.2332306653 0.8610456586 0.4518891275
0.0046708798 -0.36277169 1.7760001 -0.06849562377 -0.1973044127 0.9779464602
-0.15450355 -0.26752308 1.8630002 0.8569297791 0.3212002814 0.4031150639
-0.0154644 0.085054204 1.47 -0.03081778996 -0.5974522829 0.8013120294
-0.034194734 -0.41310936 1.7570002 0.3447578251 0.04753386974 0.9374873638
-0.19362791 -0.005076387 1.4890002 0.3454703987 0.2377855033 0.9078040719
0.19089592 -0.051793467 1.6880001 -0.4779874682 0.7149522305 0.5102659464
0.13486814 -0.013903933 1.5860001 -0.2517462969 0.8374025226 0.4851606488
-0.32495227 -0.11105964 1.5640001 0.04685580358 0.6116352081 0.7897511721
0.050909787 0.063316375 1.4640001 -0.5017880797 -0.009603618644 0.8649373055
0.17395875 -0.33368638 1.6960001 0.05954882503 -0.07220943272 0.9956102371
-0.18582529 -0.054670334 1.5360001 -0.225571692 0.7332639694 0.6414369345
0.01408365 -0.29810393 1.7850001 0.2759679556 -0.1852369905 0.9431484342
0.25529408 -0.46403456 1.7130001 -0.2673234046 0.6877530813 0.6749324799
0.15247162 -0.49666497 1.7220001 0.5092852712 0.3157127202 0.8005960584
0.053473156 0.21526377 1.5640001 -0.303935796 -0.360906899 0.8816854358
0.17488186 -0.18534487 1.705 0.1681925058 -0.4007800221 0.9006034732
-0.042463981 -0.26893854 1.794 0.3075091541 -0.3714736104 0.8760396242
-0.094196081 -0.48187912 1.7760001 0.5839744806 0.1638845056 0.7950570583
0.14408192 0.016607573 1.5359999 -0.2169457674 0.8022618294 0.5561569333
0.47390699 -0.27514213 3.1490002 -0.2387070954 0.8489865661 0.4714241326
0.13543047 -0.043234695 1.636 -0.2681708336 0.854988873 0.4439351261
0.0144387 -0.067861892 1.6470001 -0.1301470101 0.91919595 0.3716727197
0.22510555 -0.22272663 1.6960001 0.4201689363 -0.03868180141 0.9066210985
-0.14563572 -0.19847979 1.794 -0.274155885 0.7546213865 0.5961418748
0.19197598 -0.074313283 1.766 0.6657357812 0.5153643489 0.5396252275
0.065024115 -0.25545192 1.7660002 0.2324574292 -0.07806579024 0.969468534
0.06809333 0.12283503 1.5230001 0.4029661119 -0.3006965518 0.8644072413
-0.23628739 -0.093692288 1.5640001 -0.1721928567 0.7735727429 0.6098645926
-0.060379539 -0.14707837 1.766 -0.2643228471 0.7903566957 0.5526931882
0.29741091 -0.3017846 1.6630001 8.490085747e-05 -0.09901265055 0.9950861931
-0.10484495 -0.39590701 1.785 0.4560757875 -0.2205692083 0.8621740341
-0.0030963868 -0.46445799 1.766 0.2295286357 0.05343075842 0.9718342423
0.18272911 -0.44654661 1.705 0.1246556491 0.145482108 0.9814764261
-0.035245508 -0.13025513 1.748 -0.2504352629 0.8620616794 0.4406039417
-0.04350283 -0.30577168 1.7850001 0.2005155385 -0.2927027941 0.9349430799
0.21220243 -0.29278561 3.0640001 -0.2102652788 0.849740386 0.4834560454
0.058165956 0.15556012 1.5430001 0.02360733785 -0.1172930151 0.9928167462
0.26289481 -0.26363119 1.6800002 0.2106562108 -0.2277739942 0.9506539702
0.16218685 -0.30485117 1.7130002 0.4074658155 -0.05267335102 0.9117001295
-0.073427089 -0.26411161 1.804 0.3078388274 -0.6517720222 0.6931294799
-0.17467898 -0.068829551 1.5640001 -0.3174914718 0.7926090956 0.5205477476
0.30085534 -0.28488073 3.0370002 -0.2237370759 0.8407244086 0.4930762947
-0.37616715 0.025276056 1.6960001 0.8608181477 0.2192962766 0.4592398405
0.1012024 -0.1790504 1.7760001 0.536118865 -0.5661718249 0.6261197925
-0.024255026 -0.35350415 1.7659999 0.05840581656 -0.1855870634 0.9808905125
0.28054473 -0.16428295 2.8830001 -0.2328361571 0.8337316513 0.5006784201
-0.0054715271 0.055640649 1.4567144 -0.2970589697 0.2393701226 0.9243689179
0.1442178 -0.18520577 1.7316669 0.4634471238 -0.4481700361 0.7644346952
0.45616299 -0.10276199 2.8590002 -0.2739221156 0.8297097683 0.4863624275
0.091178596 -0.34555921 1.748 0.6259228587 -0.2742684186 0.7300667167
0.14498751 -0.43496254 1.705 0.4590179026 -0.0076331296 0.8883942366
-0.032583948 0.425008 1.6160001 0.6469685435 -0.2626798451 0.7158429027
0.23491862 -0.18525861 1.6960001 0.345977813 -0.4271368384 0.8353762627
-0.1026752 0.035936322 1.464 0.2312991023 0.1493207663 0.9613553286
0.12595333 -0.21396892 1.7310001 0.4247922301 -0.09130824357 0.9006744027
0.27100834 -0.32521003 1.6710001 0.105070658 -0.141691938 0.9843188524
0.14266434 -0.36642212 1.7130001 0.5737981796 0.06473719329 0.8164342046
-0.31463915 -0.14521807 1.6240001 0.1538005024 0.8854525089 0.438542217
0.16540948 -0.40553197 1.6960001 0.1433757544 0.06558095664 0.9874930382
0.025559217 -0.26445964 1.7850001 0.4750248194 -0.001286692335 0.8799714446
0.01393374 -0.39478928 1.7659999 -0.03653016314 -0.05121898651 0.9980190992
-0.08559861 -0.12764704 1.7129999 -0.3175062835 0.8474074602 0.4255470932
-0.2152535 -0.025091659 1.5063334 0.2610815465 0.3527466655 0.8985578418
0.0047182203 -0.13997386 1.794 -0.2602348328 0.8688821793 0.4210957289
0.19506054 -0.27353314 1.705 0.3536737561 -0.0326096341 0.9348002672
-0.15545441 0.015601159 1.4829999 0.1419756263 0.1373528242 0.9802944064
0.014231054 -0.091970846 1.6960001 -0.211979717 0.8498826623 0.4824562669
-0.14232841 -0.026970301 1.5230001 -0.1962324083 0.7998867035 0.567163229
-0.097487964 -0.19018143 1.8230001 -0.368850857 0.7866776586 0.4950629175
0.024983324 -0.034275517 1.5751821 -0.129867658 0.8778560162 0.4609806836
-0.043962643 -0.027730281 1.5430001 -0.09766995907 0.8580160141 0.5042510629
0.30359316 -0.27648664 3.0920002 -0.228252098 0.8624802828 0.4516954422
0.1252465 -0.32473835 1.7332859 0.5584596992 -0.09011541307 0.824622333
0.23417518 -0.33432558 1.6800002 0.2823237181 -0.07766838372 0.9561699629
0.0052459738 0.0091804536 1.4960001 -0.161145851 0.7853643894 0.5976911783
0.42332742 -0.2103325 3.0370002 -0.252071023 0.8343058825 0.4902997613
0.27357608 -0.19477428 1.6960001 -0.2146045268 -0.417032212 0.8831925392
0.097061314 -0.20784335 1.739 0.6530926824 -0.2513748407 0.7143392563
0.16591357 -0.24513352 1.705 0.3460553885 -0.04309057817 0.9372240305
-0.13337374 -0.34494415 1.804 0.5061377287 -0.1094316393 0.8554819226
-0.1340248 -0.12813359 1.6799999 -0.2960196733 0.8474092484 0.4407606125
0.02480616 0.24943972 1.572 0.1238226891 -0.4105273485 0.9034020305
-0.015051251 0.027185591 1.464 -0.2517923117 0.6563951373 0.711158216
0.24064939 -0.14797695 1.705 0.1790860295 -0.4938991368 0.8508771062
-0.054186769 -0.43504235 1.7659999 0.1867064536 -0.06034088507 0.9805608988
0.28472731 -0.27398288 3.0640001 -0.2237370759 0.8407244086 0.4930762947
0.10535429 -0.047694173 1.6240001 -0.138133198 0.9009034634 0.4114513397
-0.095231421 -0.053830549 1.5743334 -0.1620609313 0.8196212053 0.5495064259
-0.18369789 -0.10436308 1.6160001 -0.3848003149 0.7672291994 0.5131160021
0.099094018 -0.27441418 1.7390001 0.5903210044 -0.05792332441 0.8050875664
0.17574292 -0.21558985 1.6960001 0.06684035808 0.01251712535 0.997685194
-0.094066843 -0.027123565 1.5360001 -0.1393919885 0.8138102293 0.5641655326
-0.15545052 -0.15096638 1.705 -0.3186315298 0.813927412 0.4857943356
-0.22546725 -0.15350345 1.6550001 -0.2973240912 0.7888475657 0.5378828049
0.22026338 -0.078555472 1.7570001 0.1113181561 -0.09723017365 0.9890169501
-0.14623062 -0.43869188 1.8330001 0.7530321479 0.1800632775 0.632866323
0.10445459 0.0040396801 1.5360001 -0.2247393578 0.8018467426 0.5536551476
-0.26289481 -0.17747241 1.6800001 -0.2434569746 0.8071254492 0.5378449559
0.23445922 -0.13434158 1.748 -0.6809363961 -0.4845275581 0.5491435528
0.035157841 -0.074710406 1.6710001 -0.1058687419 0.9190669656 0.3796152174
0.35745206 -0.10353784 2.812 -0.2465311736 0.8346375823 0.4925469458
-0.29476339 -0.12374499 1.5860003 0.03652990982 0.709359467 0.703899622
0.20776561 -0.16890298 1.705 0.2475822121 -0.3586794734 0.900028944
-0.13126506 -0.44440338 1.8040003 0.6752595901 0.02223159373 0.7372450233
-0.034708988 -0.065876238 1.6160001 -0.08715486526 0.8988794684 0.4294411242
0.31202582 -0.38820115 1.6710001 -0.1280161738 0.1600558311 0.9787716866
-0.26372829 -0.054622255 1.5290002 0.222031638 0.2571426928 0.9405209422
-0.19200432 -0.1859296 1.7336668 -0.4656785131 0.7466996312 0.474955976
0.01386273 -0.48519558 1.7570001 0.2968057096 -0.02712907642 0.9545524716
-0.30873132 0.11451457 2.0900002 -0.3440135717 0.8441458941 0.4111841023
-0.10470819 -0.14568095 1.7310001 -0.2718927264 0.8257236481 0.4942214489
-0.14941029 -0.39633048 1.794 0.4366185367 -0.05984416604 0.8976541162
-0.041872229 0.4288294 1.6470001 0.8468952179 0.1772321016 0.5013554692
-0.29535732 -0.16201808 1.6355001 0.1313368827 0.8652033806 0.4839150012
0.055166878 -0.3570523 1.748 0.386859417 -0.5280106664 0.7560055852
0.0078441221 0.28561831 1.5790002 0.1692972928 -0.2114132345 0.9626229405
0.28326854 -0.21551973 1.6800002 -0.07559589297 -0.259947747 0.962659061
0.044456061 0.029781243 1.4770001 -0.1715400964 0.6749023795 0.7176913023
-0.24208887 -0.03174936 1.5090001 0.3462257981 0.1701059192 0.9226005077
0.10486481 -0.47469601 1.7336668 0.1857170463 -0.002326563932 0.9826005101
0.025215002 0.054961737 1.4580001 -0.1673989892 0.2610874176 0.950689733
0.044439986 -0.10726893 1.748 -0.1187698916 0.8989313841 0.4216824472
0.3017846 -0.41258475 1.6630001 -0.2378411591 0.4100653529 0.8804987073
-0.16186422 0.041771412 1.4890001 0.09144209325 0.02458372712 0.9955068827
0.031630132 -0.22299244 1.8040001 0.5453549027 -0.4703987241 0.6937673092
0.29418054 -0.27580261 1.6710002 -0.4188112319 -0.1755367219 0.8909455538
-0.11505461 -0.32460424 1.804 0.3872771859 -0.3933387399 0.8338471055
0.31319776 -0.32608896 1.6710001 -0.1840588599 -0.01621961035 0.9827814102
0.14506072 -0.05612902 1.6630001 -0.262260288 0.8341571689 0.4851818085
-0.16229993 -0.37441468 1.8330001 0.6827009916 -0.1373132467 0.7176798582
-0.25406033 -0.13647479 1.6160001 -0.318646282 0.7930324078 0.5191956162
0.057931885 -0.44516084 1.7390002 0.326261282 -0.0472769253 0.9440966249
0.10167317 -0.10167317 1.7310001 -0.141865328 0.8600829244 0.4900322855
-0.19462 -0.21174657 1.7760001 -0.5554285645 0.719978869 0.4160883725
-0.10181782 -0.0013053566 1.4890001 -0.1051369533 0.7598605156 0.6415280104
0.044897601 -0.31428325 1.7659999 0.2675749958 0.01752967574 0.9633775353
-0.01588257 -0.076525107 1.6470001 -0.307112813 0.8925043344 0.3303296566
-0.075456448 -0.081151277 1.6240001 -0.2450079024 0.8580152988 0.4514209032
0.20668058 -0.44443727 1.6880001 0.4040543437 0.2647673488 0.8755788803
0.065518558 -0.020474549 1.557 -0.1196247786 0.8731870055 0.4724768102
-0.13547832 -0.083825983 1.6049998 -0.2585086524 0.8118429184 0.5235306621
0.2782093 -0.15288979 2.8590002 -0.2328870744 0.8337711692 0.5005888939
-0.46163076 0.23942205 1.7850001 0.967161715 0.1974934638 0.1599828601
0.091343403 -0.20281333 1.766 0.5366366506 -0.5685360432 0.6235285401
0.1597015 0.00272994 1.557 -0.1505015194 0.8789765835 0.4524924755
0.0025375993 0.37681112 1.6074002 -0.6318671703 -0.2305158973 0.7400043011
-0.23026176 -0.071367681 1.536 -0.165309459 0.6581048369 0.7345548272
0.24448478 -0.24448477 1.6800002 0.2130236626 -0.06318283826 0.9750019908
0.08481399 -0.029198259 1.5860001 -0.2057884932 0.8834364414 0.4209407568
-0.44533789 0.16756782 1.7220001 0.08788648248 -0.3949172497 0.914503336
-0.19665737 -0.16265206 1.6866666 -0.482170105 0.7848367691 0.3892855942
0.22999088 -0.36476257 1.6710001 0.4007171392 -0.1021474823 0.9104897976
-0.12958448 -0.16007495 1.7390001 -0.3354628086 0.8140501976 0.4741170406
-0.0042824196 -0.0048730983 1.5159999 -0.1538978517 0.8365864158 0.5257743001
-0.053942174 -0.094763286 1.6630001 -0.2818337679 0.8788986206 0.3848467171
0.16308323 -0.032329276 1.6390001 -0.4453062117 0.7563151717 0.4792596102
0.25874084 -0.38254955 1.6550001 0.2590163052 -0.08854712546 0.961805582
-0.099215873 -0.071267739 1.5940001 -0.1895407438 0.8171654344 0.5443481803
0.27686799 -0.36769241 1.6710001 0.1984997839 0.03091677278 0.9796131849
0.0056141736 0.33825395 1.6010001 -0.1179970801 -0.3390589356 0.9333357811
0.12413232 -0.42277828 1.7310002 0.4897967875 0.04697135091 0.8705703616
-0.1077327 -0.4946267 1.794 0.5751674175 0.2135150284 0.7896795273
-0.1032801 -0.45537138 1.785 0.5898592472 -0.07633536309 0.8038899302
0.076751292 0.074757755 1.5159999 -0.5228097439 -0.2302862704 0.8207546473
-0.063269906 0.062843837 1.4580001 0.1905295402 -0.3101545572 0.9313982129
-0.010407787 -0.099617384 1.6960001 -0.2281727344 0.8719526529 0.4331694543
0.14711168 -0.16550064 1.748 0.5192525983 -0.4880879819 0.7015317678
-0.042504307 -0.042504307 1.5640001 -0.1237479523 0.8096827865 0.573672533
-0.20623006 -0.12284754 1.6160001 -0.2710125148 0.7835931778 0.5590473413
0.28695753 -0.44158751 1.6960001 -0.1716200709 0.6981628537 0.6950648427
0.12197046 0.05582596 1.5090001 -0.01000027452 -0.00436833594 0.999940455
0.18385015 -0.15993468 1.705 0.2762010694 -0.3424153626 0.8980337977
0.069313653 -0.30343977 1.7570001 0.3844890296 -0.08293868601 0.9193962216
-0.1253413 -0.0080563156 1.4960002 -0.09748957306 0.7830911875 0.6142181754
-0.088633627 -0.01190601 1.5090001 -0.1178239733 0.8460828066 0.5198666453
-0.010726893 -0.40915436 1.748 -0.2090087235 -0.03508253396 0.9772843122
-0.3871316 0.070251681 1.705 0.9198544025 0.2033880502 0.3354119956
-0.075634412 -0.39590704 1.7850002 0.09250596166 -0.2986992598 0.9498533607
-0.055812981 -0.16326602 1.785 -0.2553031743 0.8063343763 0.5335214734
0.20813908 -0.12457433 1.733 -0.4243883193 -0.439637959 0.7915889025
0.24006639 -0.28425041 1.6799999 0.3802788258 -0.1462594867 0.9132339358
0.031837903 0.30176795 1.5790001 0.1616829336 -0.2265629917 0.9604831338
-0.20809992 -0.093668036 1.5790001 -0.3669824898 0.765817523 0.5280599594
0.090493038 0.040656295 1.4960001 -0.7161887288 0.1108569279 0.6890460253
-0.30849901 -0.058957588 1.5640001 0.419983685 0.2099360675 0.8829159141
0.13118178 -0.032442804 1.6090001 -0.3329220116 0.7905669808 0.5139715672
-0.012322427 -0.12630488 1.7570001 -0.3807721138 0.8216900229 0.4240732491
-0.13436845 -0.05690093 1.5640001 -0.1411029249 0.8094428778 0.5699931979
0.078957863 -0.35763267 1.766 0.3680906296 -0.4694828689 0.8025553823
-0.43362451 0.14529237 1.7130002 0.3417623937 0.1915083975 0.9200668335
0.035608452 -0.35453629 1.7659999 0.1682521403 -0.1959950477 0.9660627246
-0.24140945 -0.11930119 1.6010001 -0.262390554 0.7639526725 0.5895146132
-0.024987806 -0.25335738 1.8040001 0.2649700046 -0.2955326438 0.9178515077
-0.29525509 -0.075512305 1.5500001 0.373046279 0.4400224388 0.8168333769
-0.16529323 -0.036049414 1.523 -0.2445843369 0.7891893387 0.5633459687
0.051640049 -0.21751414 1.7850001 0.5585398674 0.08143427968 0.8254705667
0.11549163 0.021696402 1.523 -0.08896442503 0.6394623518 0.7636578083
0.17693238 -0.28993121 1.6960001 0.2285589576 -0.1444096714 0.962759912
0.01481216 -0.01211904 1.5359999 -0.1133676693 0.8746156693 0.4713758826
0.13677157 -0.30524516 1.7220001 0.6638815999 -0.02871737257 0.7472861409
-0.055450924 -0.0052862996 1.5060003 -0.07531736046 0.8244208097 0.5609435439
-0.01415466 -0.30039334 1.794 0.1251689345 -0.3697767556 0.9206507802
0.054874953 -0.045029107 1.6050001 -0.1913066953 0.8951092958 0.4027171433
0.04467899 0.24385265 1.556125 -0.2505811453 -0.3683469892 0.8952818513
0.29577297 -0.36417171 1.655 -0.02321363054 0.0820068121 0.9963613749
-0.16318536 -0.25689578 1.8430001 0.8150631785 0.3990793228 0.4200091958
0.21261621 -0.28993121 1.6960001 0.5140373707 0.05832592398 0.8557825089
-0.0097818468 -0.05310145 1.5940001 -0.2505809665 0.8563125134 0.4515950382
0.23789227 -0.45794263 1.6960001 -0.2345036119 0.6086155176 0.7580205798
-0.15595959 -0.071519926 1.5790001 -0.2908902764 0.7950170636 0.5322881937
0.11212479 -0.02076385 1.5790001 -0.2888182104 0.8493595719 0.4417831302
0.12529846 -0.38495311 1.7220001 0.4322040081 -0.1199966967 0.8937563896
-0.064158849 -0.32392395 1.7850001 0.2993032038 -0.3274799287 0.8962000012
0.1437913 -0.26418349 1.7220001 0.6799339056 -0.003936719615 0.7332628369
0.084653862 -0.053092107 1.6366668 -0.07941626012 0.9131541848 0.399803102
-0.37062222 -0.05420167 1.6710001 -0.3497945666 -0.1924081147 0.9168548584
0.20865367 -0.24564901 1.6880001 0.5725260973 -0.1698220372 0.8021062016
0.015660772 -0.058371972 1.6240001 -0.1602919698 0.9108629227 0.3803094327
-0.013934617 0.074740216 1.4450001 -0.1459349394 -0.4107193947 0.9000070095
0.13001142 0.30729973 1.9260001 -0.8569687009 -0.477796793 0.1931705624
0.10417606 -0.073488519 1.6832001 -0.07283208519 0.926802516 0.368419081
-0.43099651 0.18471278 1.7130001 0.2575789094 -0.3160898089 0.9130938053
0.24463998 -0.31495565 1.6710002 0.2967041135 0.007548940368 0.9549396038
-0.041852064 -0.10911432 1.705 -0.2123823762 0.8867444396 0.410582602
0.048065878 0.0013351634 1.5230001 -0.1333106011 0.8272134066 0.5458445549
-0.015601159 0.013000966 1.4829999 -0.1870150566 0.79258883 0.5803691149
-0.15618676 -0.18144773 1.7570002 -0.3640849888 0.8242563009 0.4336400926
-0.20233028 0.016969636 1.4890001 0.535530448 0.05545605719 0.84269315
-0.0031787932 -0.22569433 1.8130001 -0.01997842826 -0.5146287084 0.857180357
0.14112844 -0.47801566 1.7310001 0.5188125372 0.2394464016 0.8206698298
-0.081801765 -0.28762555 3.0100002 -0.1445983052 0.7536776662 0.6411406398
0.18160808 -0.35424784 1.705 0.2733188868 -0.08985808492 0.9577172399
0.076940306 0.15843804 1.529 -0.1485805959 -0.2405636013 0.9591938853
-0.095219158 -0.10986825 1.6710001 -0.2401676923 0.8507421613 0.4675011039
-0.095584869 -0.09128657 1.6355001 -0.2208641171 0.8568176627 0.4659211338
-0.23197828 -0.20631474 1.7220001 -0.2970010042 0.7502661943 0.5906699896
0.19553119 -0.36569944 1.6867692 0.4788482487 -0.08633034676 0.8736426234
-0.1390402 -0.33241796 1.8230001 0.4041255116 -0.4569905996 0.7923649549
0.0057640169 -0.023588132 1.5543077 -0.1658119708 0.8404784799 0.5158510208
0.12333939 -0.17391372 1.7660002 0.6497734189 -0.5579342246 0.5162401795
0.16937199 -0.0559664 1.6800001 -0.4664594233 0.7036177516 0.5360389352
0.063072659 -0.088602066 1.7130001 -0.1227010638 0.9137080312 0.3874043524
-0.085632801 -0.43439186 1.7760001 0.4870305657 -0.03722693026 0.8725911975
-0.14457723 -0.29727679 1.853 0.8751299977 0.06316119432 0.4797480106
0.19580787 -0.33481655 1.705 0.3804678619 -0.1642364562 0.9100937247
0.095794827 -0.38471866 1.7345557 0.2768889964 -0.02189883776 0.9606523514
-0.1639998 -0.19410102 1.7760001 -0.3593278229 0.8120170236 0.4599041641
-0.095646083 0.015505054 1.4743749 0.008792424574 0.6030268669 0.7976723909
0.055584814 -0.38435709 1.7479999 0.5983090401 -0.03270553052 0.8005976677
-0.063475929 -0.40540549 1.7659999 0.2503380179 -0.2645439208 0.9313148856
0.20488945 -0.40482041 1.6836364 0.6716626287 0.08904895186 0.7354859114
0.27100834 -0.23731542 1.6710001 0.08459974825 -0.1827872097 0.979505837
-0.39609993 0.0179366 1.705 0.8416518569 0.519326508 0.1480612308
0.0077848001 -0.31917679 1.7760001 0.04413949698 -0.1468579471 0.9881722927
