# .PCD v0.7 - Point Cloud Data file format
VERSION 0.7
FIELDS x y z normal_x normal_y normal_z
SIZE 4 4 4 4 4 4
TYPE F F F F F F
COUNT 1 1 1 1 1 1
WIDTH 512
HEIGHT 1
VIEWPOINT 0 0 0 1 0 0 0
POINTS 512
DATA ascii
-0.19560625 -0.15492015 1.7850002 0.3645284772 0.790030241 0.4929211438
0.46577299 -0.240119 3.3000002 -0.2760371566 0.8575051427 0.4341525435
-0.45721936 -0.19315684 2.789 -0.1460995525 0.8408611417 0.5211597681
0.21270914 0.30247629 2.2260001 -0.9101263881 -0.110549584 -0.3993103504
0.49242455 0.046088997 2.7670002 -0.221624285 0.8487358093 0.4801356494
0.11874976 0.33764991 1.6320001 -0.6992532015 -0.2247208357 0.6786350012
-0.36309779 0.08270561 2.3010001 -0.2169685066 0.8812194467 0.4199725688
0.30189946 -0.39585796 1.7570001 -0.3117694855 0.3842113316 0.8690117598
-0.046498399 -0.3036072 3.1200001 -0.2923402786 0.8708463907 0.3951755166
-0.40096191 0.32887888 1.7130001 0.9413318634 0.06541911513 0.3310810626
-0.49778536 -0.49216068 3.2080002 -0.2127433717 0.8293926716 0.5165734291
-0.13077851 0.076395363 1.4770001 0.2462604195 -0.2362268567 0.9399748445
0.21607028 -0.019921374 1.748 -0.3838059306 0.8137165308 0.4365299344
-0.054847151 -0.49514189 1.7310003 0.04332634807 0.1576554924 0.9865432382
0.27729315 -0.13341464 2.9840002 -0.2195087969 0.863296628 0.4544610083
-0.35118651 0.17821406 1.9930001 0.1040523872 0.9206857681 0.3761792779
0.065723702 -0.25194085 1.7850001 0.2271497399 -0.3642960787 0.9031563401
0.12050572 0.45395991 1.8830001 -0.9960257411 -0.0141127985 0.08794081956
0.1380289 0.094740614 1.5159999 -0.3825247288 0.5349315405 0.7533412576
-0.23708923 -0.25238532 2.9080002 -0.07841413468 0.9107080102 0.4055393338
-0.25592354 -0.41622728 3.2080002 -0.2127263248 0.8487751484 0.4840745926
-0.33008954 0.11475217 1.6160001 0.1644046009 -0.2551757395 0.9528149962
-0.013121069 -0.036447413 1.6630001 -0.3034521043 0.8168847561 0.4905263782
0.49333888 -0.1219794 3.0920002 -0.2466917187 0.8686395884 0.4296608269
0.23681396 -0.24795815 3.1780002 -0.2044790387 0.869546473 0.4495300949
-0.24331884 -0.08203321 1.5860001 0.1803514063 0.7967912555 0.5767123103
0.087860413 -0.16507107 3.0370002 -0.3450392187 0.8631043434 0.3687801361
-0.18526714 -0.35350418 1.7660002 0.5655853748 -0.01794889383 0.8244943619
0.13545552 -0.49770823 1.7760001 -0.1530270875 0.6274499893 0.7634717822
0.28428105 -0.20395212 1.7850002 -0.480974406 -0.2751387358 0.8324435949
0.12480716 0.32606322 2.0280001 -0.971188426 -0.2318305075 0.0552058816
-0.38220212 -0.33883166 3.0920002 -0.2127433717 0.8293926716 0.5165734291
0.43711478 -0.053996529 2.9330001 -0.1962363422 0.8664785624 0.4590274692
-0.21137135 0.11829039 2.2120001 -0.08999129385 0.9898998737 -0.1095436066
0.088188283 0.48877233 1.705 -0.9911365509 -0.01116126496 -0.1323772222
0.073112249 -0.084238023 1.8130001 -0.186840266 0.8936817646 0.4079504609
-0.36100781 0.16443811 2.1560001 0.1040523872 0.9206857681 0.3761792779
0.18558683 0.19975376 1.6160001 0.01378774177 -0.08970911056 0.9958725572
-0.038310334 -0.34785783 1.748 -0.2782609463 -0.483548522 0.8299106359
0.12444711 0.0046582781 1.6363751 -0.1587807685 0.8721703887 0.4627175033
0.16464852 -0.35521397 1.7390002 0.07397385687 -0.2147168219 0.9738709331
-0.0040396801 0.041743357 1.5359999 -0.3298359513 0.7633728385 0.555400908
-0.062278397 -0.10743024 1.7760001 -0.3025788963 0.8382211924 0.4536862373
-0.47320449 -0.14219445 2.6590002 -0.09831374139 0.8643779159 0.4931381643
-0.11608497 -0.025305761 1.5743334 -0.3493277133 0.8217425942 0.450232476
-0.49333888 -0.43099388 3.0920002 -0.2097782046 0.8252838254 0.5243087411
-0.39369142 0.31506085 1.8430001 0.9719099402 0.1906872392 0.1379474401
-0.38168839 -0.44298142 3.1780002 -0.2314824313 0.8524302244 0.4688054919
-0.095064633 -0.23355386 1.785 0.2860440314 -0.59865731 0.7481899858
-0.1516984 -0.098677598 1.6800001 -0.3929229379 0.8044639826 0.4454764426
0.17494585 -0.14243379 1.7659999 0.02035969123 -0.3817155957 0.9240555763
-0.34683791 0.2447129 1.6362002 0.6146215796 -0.1551039815 0.7734229565
0.2305721 0.054498859 1.5940001 -0.592833519 0.5317141414 0.6048375964
-0.23434921 0.014745095 1.506 0.4333384633 0.2672130764 0.8607060909
0.30088252 -0.18161377 3.0920002 -0.2686751187 0.8546082973 0.444362849
-0.0079162996 -0.28234804 3.0100002 -0.3659195602 0.7841281891 0.501244247
0.059456408 -0.41416216 1.739 0.1759480387 -0.05006628484 0.9831254482
-0.1954993 -0.25528008 1.8430001 0.2824827433 -0.3723256886 0.8840684891
0.035622649 0.13234983 1.483 -0.06845344603 -0.4422215819 0.8942897916
0.41008276 -0.01242675 2.835 -0.2183282673 0.849375546 0.4805142283
0.45969769 -0.18109304 3.1780002 -0.2726791203 0.8575408459 0.436199218
0.20955577 -0.050358362 1.853 -0.1093429402 -0.4371287823 0.8927276134
0.18839216 -0.25534144 1.7760001 0.1378197223 -0.02942231111 0.9900202155
0.13527054 -0.26225922 3.1490002 -0.2904208601 0.742993474 0.6030061245
-0.14940943 -0.45438948 1.7570001 0.4926511943 0.270522505 0.827110827
-0.0048207901 -0.17515537 1.8330001 0.1572309583 -0.6043060422 0.7810842395
-0.29278561 -0.29815784 3.0640001 -0.2172902226 0.8620501161 0.4578804672
0.074786156 -0.041748095 1.7130001 -0.1374581307 0.9069544077 0.3981694877
-0.29522684 0.022709757 1.5860001 0.3491649628 0.1324850172 0.9276484251
0.035888102 -0.24569547 3.1490002 -0.3611917794 0.8157407045 0.4517827034
0.49103853 0.096328132 2.6800001 -0.221624285 0.8487358093 0.4801356494
0.29575577 -0.29575577 1.748 -0.3085770309 -0.1389002055 0.9410031438
0.21453786 -0.44439986 1.748 -0.02605670132 0.1953565776 0.9803860784
0.4987269 -0.076524235 3.0100002 -0.2394945323 0.8745538592 0.4216608405
0.085008606 0.039762095 1.5640001 -0.1544789821 0.7977135777 0.5829145312
-0.2966561 0.084478229 2.2410002 -0.04672601819 0.9953600764 0.08411316574
-0.043506514 0.094005145 1.4770001 -0.03015999123 -0.0931943357 0.9951910377
0.41097432 -0.13161923 3.0640001 -0.2635822892 0.8554008603 0.4458853304
0.048265759 -0.33630335 1.7760001 0.0427646488 -0.2097507864 0.9768192172
-0.017030127 -0.26628923 1.766 -0.4069790542 -0.1752829254 0.896461904
0.091727391 -0.17238423 1.8040001 0.2507860363 -0.3837884665 0.8887141347
-0.23438561 -0.11865771 1.6710001 -0.1684731692 0.858785212 0.4838437438
0.035245508 -0.49496955 1.748 -0.07386856526 0.1690081507 0.9828426242
0.14398198 -0.060379539 1.7660002 0.04534948245 0.8685240746 0.4935679734
0.20629238 0.01239212 1.6630001 -0.2361039072 0.8199871182 0.5214173198
0.23599546 -0.13371301 1.8230001 0.6227490902 -0.1387455612 0.7700216174
0.10545453 0.41452861 1.6630001 -0.4033444822 -0.2330088168 0.8848842382
-0.11186618 -0.30801508 1.748 0.1074164212 -0.4133726954 0.9042038918
0.17485029 0.22985937 2.2410002 0.7325896621 -0.1406080574 0.6659892797
0.010782124 -0.072394259 1.7570001 -0.219563514 0.9018901587 0.3720027208
-0.36783534 0.32760331 1.6390001 0.8514895439 0.1873969883 0.4897427261
-0.08498057 -0.41428027 1.7310003 -0.008337752894 -0.1042601094 0.994515121
-0.075828157 -0.073845722 1.6960001 -0.325209111 0.86023283 0.3927320838
-0.15477812 0.0066144499 1.5089999 -0.2553106248 0.6469863653 0.7184880376
0.18880244 0.11989644 1.572 -0.7234270573 -0.4224808812 0.5460432172
0.042028565 -0.0023611556 1.6160001 -0.2615739107 0.8321709037 0.4889484942
0.16295707 0.27292961 1.6334002 -0.4663553536 -0.3752317727 0.8010703921
-0.034935165 -0.0074528358 1.594 -0.2072381824 0.840149343 0.5012000203
0.13568257 -0.42534196 1.7390002 0.04793756828 0.02394116297 0.9985633492
0.12540367 -0.29570493 1.7659999 0.1202719584 -0.04556172341 0.9916949272
-0.075222902 0.027377948 1.516 -0.2834888101 0.7644979358 0.5789447427
-0.13434158 -0.12514709 1.748 -0.3754803538 0.8297422528 0.4129676223
-0.16503777 -0.26499456 1.7760003 0.557159245 -0.5127464533 0.6531957388
-0.17385674 -0.06748464 1.6036667 -0.4593755007 0.7539207935 0.4696568847
0.23599164 -0.34326059 1.748 -0.01641073637 -0.1918905377 0.9812791348
0.15545054 -0.024662824 1.705 -0.1919690073 0.8439323306 0.5009253025
-0.0151751 -0.43552542 1.7310003 -0.3037507534 -0.07348487526 0.9499133825
0.15989523 0.040321406 1.5860001 -0.3291631937 0.7840201259 0.5262737274
-0.19794431 -0.04174336 1.536 -0.1626850367 0.7898134589 0.5913782716
0.44566754 -0.21573713 3.2380002 -0.2760371566 0.8575051427 0.4341525435
-0.10469279 -0.054979961 1.6358889 -0.3889243901 0.8187431693 0.4223711789
0.0015981633 -0.10707694 1.8230001 -0.2854897082 0.8278843164 0.4828076363
0.1281897 -0.22368325 1.7760001 0.2803561687 -0.09517911077 0.9551656246
0.064032607 0.075250864 1.5060002 -0.1776862144 0.7564404011 0.6294644475
-0.32602882 0.18081075 1.6240001 0.4625003338 -0.101940304 0.8807392716
0.02396193 -0.18370813 3.0370002 -0.3566215336 0.8455619812 0.3972983956
-0.19413713 -0.13375233 1.7220001 -0.3932077587 0.8452603221 0.3618322909
-0.37753999 -0.4683767 3.2380002 -0.2332219034 0.850969553 0.4705936313
0.21564123 -0.19750524 1.7659999 0.03744585067 -0.4668158591 0.8835614324
-0.26070926 -0.02183952 1.557 0.7450718284 0.04332242534 0.6655758023
0.10474063 -0.3650519 1.7570001 0.06756032258 -0.5491350293 0.832998395
-0.14453672 -0.39404735 1.7354445 0.5224349499 0.04388213903 0.8515492082
-0.03617302 -0.21310627 1.794 0.03936955333 -0.5132188201 0.8573543429
0.24441992 -0.25361443 1.748 0.08162823319 -0.221908167 0.9716448188
-0.17748262 -0.20609176 1.8130001 -0.02348802797 0.105407618 0.9941516519
0.30085534 -0.15708376 3.0370002 -0.2655542195 0.8538982272 0.4475921392
0.1044823 0.14032979 1.4959999 -0.2506593168 -0.2233922929 0.9419478774
0.091638312 -0.4649342 1.7479999 0.1269003153 0.2132567912 0.9687197208
-0.28781143 0.08481399 1.5860001 0.3600588441 -0.0680455938 0.9304447174
-0.065884128 -0.12373361 1.8330001 -0.2702979445 0.9347711205 0.230525434
-0.18360907 0.0590172 1.4960001 0.3750252128 -0.3885324299 0.8416641951
-0.11381324 -0.49189001 1.7310001 0.5018271208 0.1699205488 0.8481135368
0.010726893 -0.37850609 1.748 -0.5757290125 -0.3339096606 0.7463514209
0.1768447 -0.29728204 1.7390001 0.2618922889 -0.09099069238 0.9607981443
0.03479315 -0.20401435 1.8040003 0.09694492817 -0.2755961716 0.9563725591
0.26741138 -0.11056432 2.9330001 -0.2704490721 0.8538110256 0.4448191226
-0.0054213069 -0.27648664 3.0920002 -0.3611917794 0.8157407045 0.4517827034
0.05331799 -0.15995397 1.8430001 0.2986702621 -0.778644979 0.5518225431
0.0091804536 0.080001093 1.4960001 -0.1197790653 0.6182165146 0.776827693
0.49270421 -0.05704996 2.9580002 -0.1860350072 0.8828127384 0.431314975
0.074352726 -0.018223707 1.6630001 -0.1303169131 0.8904480338 0.4360273182
0.42460823 -0.032856591 2.8830001 -0.1936447918 0.8660377264 0.4609558582
-0.025529409 -0.064073808 1.7130002 -0.3030717075 0.8586496711 0.4133622348
0.19973798 -0.042463981 1.794 -0.4806658924 0.8243157864 0.299104929
0.32129598 -0.3427498 1.748 -0.1695351452 -0.3472695053 0.922313273
0.24544825 -0.39485157 1.7390002 -0.03816165403 0.04469639808 0.9982714653
0.19721337 -0.092373833 1.8230002 0.448348254 -0.1244982034 0.8851463199
0.085150629 -0.063475929 1.7660002 -0.04538913444 0.9009161592 0.4316131473
0.16415408 0.27886415 2.256 0.5250393152 -0.2455057204 0.8148992062
0.46326399 -0.10383503 3.0370002 -0.2261103541 0.8743119836 0.4294795394
-0.09582404 -0.3559109 1.7350001 -0.09204162657 -0.4543069899 0.8860775828
0.26237318 -0.15700661 1.7850002 -0.1150785834 -0.4855655134 0.8665927649
0.13916644 0.36476257 1.6710001 -0.5918189883 -0.5247184634 0.6118993163
-0.060379539 -0.29415673 1.766 -0.2152146399 -0.2066569775 0.9544503689
0.0015481933 -0.31428322 1.7660002 -0.3890115023 -0.2413067371 0.8890675306
0.27842233 -0.25029886 3.2080002 -0.2773422003 0.8527604342 0.4425843656
0.17546681 0.074808106 1.5515556 -0.5100780725 0.5116041303 0.691434443
0.16601144 -0.46534285 1.748 -0.07261352986 0.2175744027 0.973338902
0.18496177 -0.25121671 3.1490002 -0.2084752321 0.8391464353 0.502365768
0.2965084 -0.24567838 1.7570001 0.1148727164 -0.4570280015 0.8820031881
0.025276056 -0.040144321 1.6960001 -0.2095586807 0.9022500515 0.376868695
0.025026266 0.024235262 1.5735003 -0.1685521007 0.8230651617 0.5423595905
-0.20550065 -0.095760599 1.6363751 -0.2550994754 0.8684492111 0.4251120389
0.18141825 -0.4039987 1.739 -0.2934906483 -0.08760801703 0.951939106
-0.20084783 -0.30049327 1.7760001 0.6234214306 -0.2483496964 0.7413960695
-0.1022281 -0.13053742 1.794 -0.4078836143 0.8343769908 0.3707370758
-0.054081488 -0.036102328 1.6351819 -0.2485473454 0.8744965196 0.4165094197
-0.37850961 0.3578904 1.6800001 0.9380661845 0.0455538407 0.3434481621
-0.092996798 -0.32001841 3.1200001 -0.2827092707 0.8604940176 0.4238224924
0.1347314 -0.14416783 1.794 0.2967186868 -0.2048641592 0.9327318668
0.43999022 -0.16748016 3.2380002 -0.274276793 0.8567333817 0.4367839098
-0.077803291 -0.00136497 1.557 -0.3015700281 0.805795908 0.5096552968
0.21017294 0.14246622 1.6090001 0.3875191212 -0.1929628551 0.901440084
0.16565667 -0.19507235 1.7660002 0.02249681577 -0.1044410318 0.9942765832
-0.11413148 -0.097612448 1.7130001 -0.4016363621 0.8099122047 0.4274698198
-0.091374964 0.10051246 1.4890001 0.1038601696 -0.2607009113 0.9598166943
-0.087898985 -0.20616306 1.8230001 0.4632564783 -0.7302697897 0.5020951033
0.084997468 0.015871048 1.6044285 -0.1269486696 0.9085537195 0.3980128169
-0.15420742 -0.025701238 1.5430001 -0.2821082473 0.7911787629 0.5426334739
0.17312618 0.1250603 1.5230001 -0.7151367664 0.2218959481 0.662828505
-0.3679966 -0.37336883 3.0640001 -0.2060444355 0.8353645205 0.5096192956
0.19879732 -0.0074735833 1.705 -0.2993022501 0.8600679636 0.4131600857
0.02024048 -0.23821488 1.7760001 0.1262578517 -0.4972388148 0.8583778739
0.18460731 0.029897841 1.6240001 -0.3066456914 0.8304659128 0.4650750756
-0.372877 0.2843731 1.6550001 0.4375410676 -0.07428269833 0.8961248994
0.22526476 -0.2957558 1.748 0.03154833987 -0.2655871809 0.9635705352
0.1217427 0.058165956 1.5430001 -0.18210347 0.8005197048 0.57096982
0.464984 -0.1449656 3.1200001 -0.2531767786 0.8639463186 0.4353140295
0.11515543 -0.019191986 1.684 -0.1727213711 0.8991697431 0.4020709991
-0.11559878 0.034286182 1.4960002 -0.2579084039 0.6391974092 0.7245066762
-0.034276132 0.052730843 1.5037501 -0.2344531864 0.7733567357 0.5890254974
0.11552801 -0.044848073 1.7340001 -0.1040987372 0.9142878652 0.3914602995
0.21438444 -0.15492016 1.7850001 -0.08933170885 -0.6590549946 0.7467706203
-0.034902729 -0.39455259 1.7310003 -0.03500631452 -0.08787895739 0.995515883
0.11046 0.4580408 1.6800001 0.02096889168 -0.6095557213 0.7924658656
0.035810083 -0.28492367 1.7760001 0.04057941958 -0.1547786146 0.9871154428
-0.15557064 -0.31576219 1.7570001 0.1936427206 -0.063082017 0.979041934
0.04531534 0.050726123 1.5430001 -0.1296514869 0.789629221 0.599730134
-0.035907391 0.015906923 1.5554445 -0.2306220531 0.8159274459 0.5301659107
0.16415915 -0.0026242142 1.6630001 -0.2487147599 0.8259394169 0.5059298873
-0.0028474133 -0.012813359 1.6240001 -0.297729373 0.8736000061 0.3849418759
-0.26343921 0.032759279 1.557 0.6579295993 0.123723574 0.7428466082
0.085150629 -0.31428325 1.7659999 0.1927397102 -0.1147584468 0.9745162129
-0.193976 0.0080932109 1.4890001 0.1244183183 0.4517565072 0.8834229708
0.074591182 -0.20812505 1.7850002 0.3663924336 -0.2743544281 0.8890929222
-0.11768935 -0.002423808 1.536 -0.3418101072 0.7316700816 0.5897666812
0.18235719 -0.050569639 1.748 -0.2877799869 0.8362847567 0.4667016864
-0.014709589 -0.093578026 1.7850001 -0.4008887708 0.8093309402 0.4292686582
-0.14544688 -0.071435183 1.6362002 -0.3574359715 0.8461319208 0.3953482807
-0.11020226 -0.44835714 1.7220001 0.1903713495 0.1549747735 0.9694026709
-0.085228659 -0.032910243 1.6042 -0.3051001728 0.8163920045 0.490324378
0.035543926 -0.094049856 1.794 -0.1280133873 0.8624145389 0.4897486567
0.27593872 -0.36436111 1.7390002 -0.1465928257 0.02013779059 0.9889919162
0.025916897 -0.44516084 1.7390002 -0.1085026637 -0.1327038854 0.985198915
-0.06221791 -0.45070046 1.7310001 -0.208089605 0.02463434264 0.9777994752
-0.11426298 -0.077640228 1.6710001 -0.3155862093 0.8532325029 0.4152103066
0.053910617 -0.37429374 1.7570001 0.1412602961 -0.2395175546 0.9605606794
0.12508367 0.48409006 1.853 -0.9482126832 -0.2899168134 0.1297727078
-0.11654962 -0.26647249 1.7570001 -0.02181428112 -0.2736617327 0.9615786076
-0.20488453 -0.17483906 1.8230002 0.3457277715 0.5243167281 0.7781800628
0.19561853 -0.33116522 1.7570001 0.01962531917 -0.1219774634 0.9923388362
-0.053567488 -0.2443049 1.766 -0.09208117425 -0.2030595988 0.9748271108
0.1297528 0.31053197 1.6630001 -0.9029604793 -0.1149072722 -0.4140757322
-0.065022588 -0.087082587 1.7350001 -0.3397643268 0.8253574371 0.4509382546
0.22218485 0.095380977 1.5860001 -0.5082375407 -0.05579646304 0.8594076037
0.025390457 -0.018136043 1.6550001 -0.2034041435 0.8725345731 0.4441961646
-0.0052628047 0.11451183 1.4765333 -0.102999866 0.1312298924 0.9859867096
-0.1376107 -0.35276157 1.7479999 0.3417263031 -0.3163641095 0.8849502206
-0.0045735701 -0.48479834 1.7390002 -0.1960590482 0.01952693798 0.9803976417
0.25503021 -0.21410216 1.7570001 0.1435142457 -0.1184516028 0.9825339317
-0.20507136 -0.066518463 1.576 -0.2029417753 0.8346936703 0.5119581223
-0.29059219 -0.023636686 1.5860001 0.7308424115 -0.1755381227 0.6595875621
0.14940943 -0.26339188 1.7570001 0.1791117489 -0.07821457088 0.980714798
-0.13614196 -0.23524912 1.7850002 0.1558128446 -0.8480288982 0.5065267086
0.46564323 -0.073247254 2.9840002 -0.2082085907 0.8856658936 0.4150241613
-0.19486547 -0.11884093 1.6840001 -0.3343997896 0.8429033756 0.4215337634
0.17512341 0.23408508 1.6358889 -0.8874530196 -0.400932014 0.2273337394
0.096044973 0.46802866 1.7390001 -0.991810739 -0.01296392176 -0.127056703
0.099094018 -0.40552318 1.7390001 0.2507104576 -0.2613835037 0.9321067333
0.1340064 -0.33424586 1.7570001 0.3942345083 -0.1216239482 0.910926342
0.10527714 -0.25545189 1.7660002 0.2033455968 -0.2110903859 0.9560812712
-0.17339766 -0.39169291 1.766 0.6755619049 0.09035935998 0.7317454219
-0.097039111 -0.11244214 1.7570001 -0.4135208726 0.8136543632 0.408616066
-0.33118537 0.15511213 1.5940001 0.7562424541 0.07913394272 0.6494883895
-0.3314808 0.21722573 1.6090001 0.5175124407 0.2319923937 0.823626399
0.2068758 -0.37482828 1.7479999 0.03594169766 -0.2003343254 0.9790681005
-0.16318536 -0.22781323 1.8430001 -0.51800704 0.2239042968 0.8255516887
-0.1547599 -0.042358257 1.5790001 -0.3051434159 0.8553470969 0.4186511934
0.084848188 0.10442852 1.4890002 -0.1660667211 0.3730964363 0.9128093719
-0.075165577 0.064761288 1.4834 -0.05832412839 0.4221847355 0.9046316147
0.044488858 -0.054761861 1.7350001 -0.1496386677 0.8899077773 0.4308972657
0.13568257 -0.3857044 1.7390002 0.1859977096 -0.1726291925 0.9672662616
0.11608002 -0.18597023 1.7760001 0.3130837977 -0.4077712595 0.8577302098
0.23034592 0.044352319 1.6320001 -0.3146823943 0.8383684754 0.4450992048
-0.23479253 -0.023213403 1.5275002 0.5271168947 0.4935939908 0.6917461753
0.14295277 0.13246083 1.4960001 -0.3140601516 -0.05456045642 0.9478340745
-0.072023429 -0.32793647 1.748 0.1660885066 -0.3686637878 0.9146046042
-0.026051024 -0.081217907 1.748 -0.2927345335 0.8780907393 0.3785012066
-0.1625603 -0.14707837 1.766 -0.2379140258 0.8613405228 0.4488756657
0.12540755 0.023073241 1.6021429 -0.1096162722 0.8637070656 0.4919292033
-0.19136231 -0.27043763 1.8040001 0.7332405448 -0.6028941274 0.3144470453
0.12891909 0.27908859 1.6160001 -0.4483297765 -0.4337326884 0.7815858126
-0.052736759 -0.055666581 1.6710001 -0.266965121 0.8531784415 0.4481251538
0.025960146 -0.16476744 1.8130001 0.06949732453 -0.4737709761 0.8779015541
0.10450831 0.078050509 1.5090001 -0.1125986353 0.6907801032 0.7142439485
-0.27317306 -0.055187695 1.57375 0.3937951028 0.645362258 0.6545479298
0.22931847 -0.099634923 1.8040001 0.5369117856 0.01556173246 0.8434948325
0.27288967 -0.32472348 1.739 -0.1285178214 -0.1498557776 0.9803195596
-0.23450658 -0.052905273 1.5562223 0.2599740624 0.7502503395 0.607896328
-0.0047445199 -0.23248148 1.8040003 -0.3426752985 -0.4131225944 0.8437436819
-0.1546782 -0.11663437 1.7129999 -0.3279348314 0.858802557 0.3935948908
-0.24060643 -0.10108317 1.6240001 -0.1940684915 0.8954748511 0.4005773962
0.31294897 -0.27869585 1.7760001 -0.5980842113 -0.09322707355 0.7959924936
0.19448806 0.058830906 1.5790001 -0.3556138873 0.6219497919 0.6976512074
-0.12501705 -0.047761384 1.6023334 -0.3505871296 0.8016107082 0.4842612743
0.091343403 -0.49697006 1.766 -0.1005059406 0.4494549334 0.8876309991
-0.32019636 0.080401726 1.6090001 0.4010604024 -0.2224140167 0.888640821
-0.1377892 -0.48768088 1.766 0.6173275113 0.3783140779 0.6897718906
0.49313027 -0.16716281 3.1780002 -0.2526580393 0.8640499711 0.4354096949
-0.06525293 -0.374825 1.7310001 -0.08126886934 -0.2013551742 0.9761410952
0.17349847 0.16644569 1.6090001 0.08620135486 -0.178782627 0.9801051617
-0.063260265 -0.1881993 1.8040001 0.1757240146 -0.5589299798 0.8103815913
0.22214471 -0.065524697 1.8230001 0.2558117211 -0.2300334573 0.9389595389
0.11423405 -0.071983106 1.785 -0.05593919754 0.910190165 0.4103956819
-0.37644768 0.16789921 2.016 0.1040523872 0.9206857681 0.3761792779
-0.0069212834 0.0096897967 1.5790001 -0.3053338826 0.8031799793 0.5115399957
0.21102156 -0.23566641 1.7570001 0.02140604705 -0.09638272971 0.9951141477
-0.02417496 -0.28741342 3.0640001 -0.285962224 0.8524473906 0.437674582
-0.1676397 -0.24355203 1.8040001 0.6616318822 -0.4677017331 0.5860873461
-0.0069668703 -0.35376221 1.766 -0.2776981592 -0.3658258915 0.8882877827
0.44993427 -0.23213169 3.2690001 -0.276706785 0.8581406474 0.4324672818
-0.16007495 -0.42534199 1.739 0.6466313004 0.0115947891 0.7627145648
-0.0015815067 -0.19768833 1.8040001 -0.1796617806 -0.3648419976 0.9135710001
0.054744244 -0.46470243 1.7390002 -0.1340033114 -0.04481597245 0.9899669886
-0.2103395 0.04100959 1.5090001 0.4304432273 -0.3263007998 0.8415737748
-0.15482101 0.033811569 1.4874001 -0.1216369793 0.3891965747 0.9130884409
0.055045899 -0.17771962 1.794 0.3138116002 -0.261376828 0.912800312
-0.2040801 -0.21532862 1.8330001 0.3595382273 0.1681539863 0.9178543091
0.044897605 -0.069668703 1.766 -0.1736973971 0.896299541 0.4080150723
-0.17497653 -0.095468126 1.6550001 -0.2953215539 0.8378940225 0.4590411782
0.066886157 0.1377068 1.4960001 -0.06104834005 -0.3446353972 0.9367494583
0.274174 -0.4158819 1.7570001 -0.4438877702 0.3531041741 0.8235782385
-0.13301225 -0.14240135 1.7850001 -0.393253386 0.8149822354 0.4256238937
-0.30288792 0.054848213 1.594 0.04035471007 -0.2470502555 0.9681620002
-0.21454927 -0.084657565 1.6055715 -0.1936085969 0.8861880302 0.4209352434
0.19794871 0.15226823 1.5790001 -0.4249063432 -0.6176157594 0.661819756
-0.033844244 -0.11355218 1.8040001 -0.3657361865 0.8165991306 0.4465455413
0.42614591 -0.073473431 2.9580002 -0.1860350072 0.8828127384 0.431314975
0.12500115 -0.46388343 1.748 -0.008393716998 0.4349837005 0.9003992081
0.084833287 0.057902079 1.5359999 -0.166360423 0.8212608695 0.5457607508
-0.22271279 -0.13601921 1.705 -0.281673193 0.8541696072 0.4370978475
-0.084980555 -0.47498071 1.7310003 0.1426408142 0.1866712868 0.972012043
0.15518403 0.014711636 1.6240001 -0.2448658794 0.8715744019 0.4247337878
-0.12378883 -0.41816473 1.7220001 0.2088321894 -0.04776224867 0.9767844677
-0.035426978 -0.31614727 1.7570001 -0.03827242553 -0.2282371223 0.9728530645
0.12540892 0.042721719 1.572 -0.06535883993 0.8392438889 0.5398128033
0.10934225 0.37613735 1.6630001 -0.6292030215 -0.43859905 0.6416653395
-0.034117412 -0.46526489 1.7220001 -0.1433428079 0.07458722591 0.9868584275
0.15158838 0.30533206 1.6390001 0.4379795492 0.02819854766 0.898542583
0.20503217 -0.13827752 1.8130001 0.04145453125 -0.7779479027 0.6269598007
0.24444273 -0.18527824 1.7760001 -0.04824800789 -0.2729356587 0.9608216286
-0.38529149 -0.45560014 3.2080002 -0.2314824313 0.8524302244 0.4688054919
0.26434129 -0.28656128 1.748 -0.08429938555 -0.2097157836 0.9741216302
-0.085150637 -0.26474106 1.7659999 -0.01978756115 -0.3511792123 0.9360991716
0.0045288601 -0.054849532 1.7220001 -0.2888669968 0.861351192 0.4178875089
0.47006866 -0.1208748 3.0640001 -0.2201129198 0.8750987053 0.4309902489
0.044348918 0.093911715 1.4878752 -0.1438704431 0.4816014171 0.8645006418
0.033886675 -0.40509978 1.7570001 0.02290210873 -0.3110165596 0.9501284957
0.07442268 -0.28523508 1.7760003 0.1766715944 -0.2949184775 0.9390475154
0.034554694 0.065786824 1.516 -0.2088098973 0.824018836 0.5266795754
-0.1847347 -0.019935399 1.5160002 -0.3092783988 0.7086629868 0.6341480017
0.023384606 -0.34460792 1.7570001 -0.03789551556 -0.3310475051 0.9428528547
0.075255871 0.002003008 1.6320002 -0.1711913645 0.8478028178 0.5019201636
0.15413903 -0.16503777 1.7760004 0.2213720083 -0.3353997469 0.915697217
-0.083586074 -0.058801834 1.6630001 -0.3057207167 0.8415366411 0.4453660548
0.05422534 0.020855898 1.5860001 -0.1421294659 0.8466364741 0.5128410459
0.16565669 -0.23532538 1.7660002 -0.1177496389 -0.1021461338 0.9877758622
0.28741342 -0.17459694 3.0640001 -0.2661652863 0.8556543589 0.443859905
-0.37268415 -0.43341786 3.1490002 -0.2236941606 0.8567471504 0.4646990299
-0.14324822 -0.28649643 1.7570001 0.125105381 -0.2619297206 0.95694381
-0.04494933 0.032906562 1.5260001 -0.2050435096 0.8133348227 0.5444663763
-0.029817186 -0.30088252 3.0920002 -0.2923402786 0.8708463907 0.3951755166
0.21495779 -0.40399867 1.7390002 0.1474860311 -0.02260334976 0.9888058305
-0.16553511 -0.13354819 1.737667 -0.2526364326 0.8444023132 0.4723976851
0.053951822 -0.031779166 1.6860001 -0.1157465503 0.9050726891 0.40920192
0.16393229 -0.32456392 1.7570001 0.02713170275 -0.2717196643 0.9619939327
0.18839216 -0.21434148 1.7760001 0.03061489202 -0.04508079216 0.9985141158
0.18839216 -0.17593648 1.7760001 -0.2557163239 -0.1483179927 0.9553067088
-0.11533076 -0.38393006 1.7310003 0.103577137 -0.09032922983 0.990511179
0.1161176 0.10441505 1.4960002 -0.2694140673 0.3785521984 0.8855022788
0.27024654 -0.24795815 3.1780002 -0.2778718174 0.8549903631 0.4379254282
0.30634239 -0.1941992 3.1200001 -0.29176566 0.8594812751 0.4197198153
0.08628802 -0.43387938 1.7390001 0.1112782732 0.07689505816 0.9908099174
0.17532018 -0.43448913 1.7390002 -0.2346899062 0.1546861082 0.9596837163
0.24412523 -0.43485177 1.7479998 -0.1661838293 0.3484526873 0.9224768877
0.1044636 -0.010156184 1.6550001 -0.123256214 0.8751516938 0.4678861499
0.015438977 0.0034086055 1.601 -0.141366154 0.8281003833 0.5424622893
-0.0045735701 -0.40399867 1.7390002 -0.3447325528 -0.1206106618 0.9309202433
0.061986469 -0.15417148 1.8130001 0.2915439308 -0.7629036903 0.5770443082
0.075861484 -0.35453629 1.7659999 0.09965082258 -0.3465714455 0.9327153563
0.23510095 -0.23354399 1.7760001 0.1601118296 -0.3978196383 0.9033846259
-0.044007789 -0.42490277 1.7310003 -0.07953225076 -0.0824310109 0.9934182167
0.15540957 -0.042823289 1.7355716 -0.03651947528 0.8863556385 0.4615625441
0.2929031 -0.14513217 3.0100002 -0.2665838003 0.8562700152 0.4424192309
0.40603518 -0.032583069 2.8590002 -0.2232435197 0.8490561843 0.4788172245
0.0046708798 -0.28492367 1.7760001 -0.2218918353 -0.2021702081 0.9538821578
0.1625603 -0.29570493 1.7660002 0.3715782762 0.02470243163 0.9280729294
-0.016377229 -0.3660537 1.7380002 -0.2975641787 -0.6023723483 0.7406774163
-0.014243203 0.078985035 1.4770001 -0.2631112933 0.4463961124 0.8552794456
0.064029977 -0.49547014 1.7390002 -0.2732567489 0.260055989 0.9261218309
-0.25770843 0.0041343602 1.572 0.7491915226 -0.01470687147 0.6621901393
-0.1449393 0.081693061 1.503 0.3358152211 -0.3930806816 0.8559881449
0.26783744 -0.24616274 1.766 -0.2098297179 -0.248295173 0.9456854463
0.19792898 -0.27648446 1.7570001 0.1807840914 -0.3626983464 0.9142029285
0.20507666 0.043262403 1.605 -0.2831754386 0.8157664537 0.5043181181
-0.063376427 -0.22142628 1.7850001 0.05529640615 -0.5669637322 0.8218846917
0.16487208 0.095170066 1.5290002 -0.5146374106 0.4644713104 0.7207043171
0.08628802 -0.050919078 1.7390001 -0.07145749032 0.9057776332 0.4176849723
0.061236043 -0.17838326 3.0370002 -0.3682678342 0.8605229259 0.3519646227
-0.35338783 0.21603872 1.6320001 0.7424009442 0.09817674756 0.6627233028
-0.031328559 0.12139817 1.4890001 0.1405721903 -0.1183416471 0.9829723835
-0.17471614 -0.042314071 1.557 -0.4172727466 0.7708046436 0.4813976288
0.13572377 0.28155464 1.6470001 -0.3904194832 -0.5017240047 0.771910429
-0.31686708 0.1411971 1.6160001 0.1076762974 0.2726254165 0.9560759664
0.24490823 -0.31576219 1.7570001 0.07535772771 -0.0863134414 0.9934139252
-0.016277945 -0.051793467 1.6880001 -0.3130878806 0.8886300325 0.3351307511
-0.19407822 -0.14632882 1.7570001 -0.08796064556 0.9433293939 0.3199884593
-0.18086509 -0.18401058 1.794 0.6610358357 0.4471282363 0.6025844216
-0.0050503011 0.062995866 1.516 -0.2603006959 0.7244070172 0.6383400559
0.14515917 0.074060798 1.536 -0.3457526565 0.7164815664 0.6058954
0.48596877 -0.043711476 2.9330001 -0.1899307817 0.8785221577 0.4383208156
-0.10426775 0.064744808 1.4829999 0.0879323855 0.2330347449 0.9684847593
-0.064125441 -0.015682006 1.594 -0.2564969659 0.8246950507 0.5040708184
-0.064841777 -0.12177601 1.8040001 -0.2696028948 0.9214085937 0.2798580229
0.081984118 -0.38386953 1.748 -0.0141646089 -0.06275819987 0.9979282618
0.17825 0.13895079 1.6010001 0.6311879754 -0.07041744143 0.772426784
-0.30524376 0.10550421 1.6045556 0.3791461885 -0.3857886493 0.8410798311
-0.35429972 0.27282619 1.6362002 0.4300101101 -0.03143167123 0.9022767544
-0.064929441 0.020290449 1.5430001 -0.2888796329 0.7416348457 0.6054141521
-0.21404359 -0.015610102 1.5090002 0.04667706788 0.5942754745 0.8029059172
-0.11386847 -0.22299244 1.8040001 0.2417296916 -0.8022693396 0.5458302498
-0.034793146 -0.18503627 1.8040001 0.018902082 -0.4164524376 0.9089609981
0.10372895 -0.33595794 1.7659999 0.1754721105 0.007561616134 0.9844553471
0.31221899 -0.32254028 1.7660002 -0.3237127066 -0.219752267 0.9202820063
0.27487707 -0.12187946 2.9580002 -0.2716706097 0.855101645 0.4415837824
0.094974563 -0.22575919 1.7760001 0.2101613581 -0.1251621395 0.9696218967
-0.053746682 0.00137812 1.572 -0.3006607294 0.8029384613 0.5146775842
-0.01597462 -0.28488073 3.0370002 -0.3659195602 0.7841281891 0.501244247
0.22448803 -0.27403024 1.7660002 0.1336489022 -0.04629229009 0.9899469614
0.45899287 -0.064829499 2.9580002 -0.1860350072 0.8828127384 0.431314975
0.13631335 -0.0065605347 1.6630001 -0.1870382428 0.8789839745 0.4386385977
-0.18527824 -0.32384768 1.7760001 0.3381943107 -0.08530097455 0.937202394
-0.063740052 0.11206091 1.4838572 0.1577232033 -0.3649128079 0.9175848961
-0.17538819 -0.29482025 1.7659999 0.3312788904 -0.2456779778 0.9109866023
-0.11433924 -0.3353951 1.7390002 0.04389506206 -0.1600311399 0.9861355424
0.14294313 0.33064622 1.6470001 -0.627309978 -0.1902156174 0.7551822662
0.46894303 -0.13553266 3.0920002 -0.2465408444 0.8661587238 0.43472597
0.046508167 -0.23388889 1.7939999 -0.08544105291 -0.4056616127 0.9100211263
0.2136571 0.12189115 1.5860001 -0.5737839341 -0.4114919305 0.7081288099
0.00156485 -0.25820026 1.7850001 -0.01178029552 -0.2806963921 0.9597243071
-0.10139176 0.093691118 1.4640001 0.1124216542 -0.233827427 0.9657567739
-0.084716685 -0.3049801 1.7570001 -0.09892323613 -0.08946923167 0.9910647869
-0.10537283 0.018036792 1.5159999 -0.3239886165 0.690559268 0.6466523409
-0.18698511 -0.23812634 1.8230001 0.4736154675 -0.1668332517 0.8647861481
0.27288967 -0.39180249 1.7390001 -0.2936844826 0.2048778832 0.9336886406
0.064158857 -0.075112805 1.7850001 -0.2052902281 0.8843985796 0.4191599488
0.054493602 -0.30516413 1.7760004 0.1434696764 -0.2347364128 0.9614131451
0.18583542 -0.0047495849 1.6808891 -0.3399566412 0.8357927203 0.4311380088
-0.025144991 -0.030892417 1.6390001 -0.3500985801 0.8443641663 0.4055615067
-0.38303322 0.34385937 1.6550001 0.9421910644 0.1076732874 0.3173049092
-0.18497242 0.034711882 1.4834615 0.07573142648 0.02480234765 0.9968197346
0.30495024 -0.36471435 1.7479998 -0.2023133487 0.06792936474 0.9769620895
-0.095081687 -0.097515322 1.7326 -0.4118643701 0.8112626076 0.4149948359
0.17662555 -0.027676366 1.7220001 -0.35004282 0.791836977 0.5004640222
0.2088597 -0.34911585 1.7390001 0.1921168119 0.01299340371 0.9812860489
-0.16090339 -0.37544128 1.748 0.5425009131 -0.06215023622 0.8377529979
-0.12719031 -0.46738607 1.748 0.5471085906 0.3394140005 0.7651603222
0.10013199 -0.081059232 1.8130001 -0.1103652194 0.9215921164 0.3721391261
0.10463017 -0.032883767 1.705 -0.1045724228 0.8835695386 0.4564750493
0.19283161 -0.067491055 1.8330001 -0.005503236316 -0.17001912 0.9854254127
0.15526301 -0.40506947 1.7317275 0.1031016782 -0.05986079201 0.9928679466
0.0125188 -0.082937047 1.7850001 -0.09173740447 0.8765671253 0.472455591
-0.22999613 -0.24516071 2.8830001 -0.1177554652 0.8873745799 0.4457578063
0.19332604 0.094606362 1.5640001 -0.7960315943 -0.0656164214 0.6016877294
0.21415389 -0.11506775 1.8230001 0.5975994468 0.04356315732 0.8006104827
-0.08524707 0.043279279 1.4960001 -0.2112782896 0.6934950352 0.6887860298
0.054844268 0.037019879 1.5640001 -0.1530816853 0.8399352431 0.5206484199
-0.27808392 0.044717014 1.5940001 0.1292091012 -0.3644808233 0.9222031832
-0.058875181 -0.40457815 1.7220001 -0.08061082661 -0.09818128496 0.9918983579
0.10851906 -0.14941029 1.794 0.4186820388 -0.1206160635 0.900087297
-0.39215052 0.32555893 1.6880001 0.9408374429 0.05426338688 0.3344853222
0.49703491 -0.070631281 2.9840002 -0.2082085907 0.8856658936 0.4150241613
-0.055564005 -0.071582466 1.7129999 -0.3179218471 0.8817709088 0.3484333158
-0.11301811 -0.13159643 1.766 -0.3790636361 0.8330674171 0.4028764665
0.18543415 0.015470034 1.6470002 -0.2588652968 0.8179107308 0.5138198137
0.49424362 -0.11013037 3.0640001 -0.2389570475 0.8705077171 0.4302508831
0.18202808 -0.37594748 1.7390001 -0.1895090044 -0.07326114178 0.9791420698
0.29537269 -0.33521539 1.748 -0.2392908335 -0.2482259274 0.9386819601
0.11613888 -0.48704392 1.7570002 -0.1603029817 0.5798244476 0.7988157272
-0.036125679 -0.021958746 1.6160001 -0.2514949143 0.8473761678 0.4676579535
0.19056542 -0.46193057 1.7390001 -0.1187198013 0.02870832756 0.9925127029
0.23180556 0.018952657 1.6630001 -0.2827000022 0.8180605173 0.5008569956
0.15479079 0.056047369 1.5525455 -0.2789286077 0.7216123343 0.6336200833
-0.035608452 -0.28486755 1.7660002 -0.0227940511 -0.09886574745 0.9948396683
0.10539182 0.028085943 1.5860001 -0.2014895827 0.8316444755 0.5174643397
-0.17025568 -0.078689598 1.6320001 -0.3614503145 0.8425130844 0.3994063437
0.10962629 0.47604841 1.7130001 -0.991810739 -0.01296392176 -0.127056703
0.053163696 -0.010057997 1.6390001 -0.1741020977 0.8878794909 0.4258620739
0.16390668 0.21242984 1.609 0.235190779 -0.311496079 0.9206820726
0.22153717 0.0014868267 1.6960001 -0.1806857288 0.901370883 0.3935520947
0.00227495 0.027754389 1.557 -0.2990145087 0.8008736968 0.5188368559
-0.025037602 -0.23472749 1.785 -0.2605454624 -0.4088207483 0.8746322989
0.063446999 0.12041981 1.4770001 -0.178140685 -0.261032939 0.9487506151
-0.11573471 -0.11303691 1.7345556 -0.3955757916 0.8128554821 0.427534461
-0.35165557 0.18365817 1.6240001 -0.1599736065 -0.1693536937 0.9724853635
-0.09021952 0.01211904 1.536 -0.3281188011 0.7528389692 0.5705887675
0.29575664 -0.22690324 1.7850001 -0.3305436075 -0.328028053 0.8849511147
0.025052899 -0.32540467 1.7760003 -0.07233577222 -0.3395604193 0.9377986193
0.097536176 -0.28951216 1.766 0.2404954582 -0.09939070046 0.9655482769
0.27093384 -0.19352417 1.766 -0.4121979773 -0.4103862643 0.8134346604
0.23817018 -0.14615698 1.7850001 0.04343893379 -0.7504104972 0.659543097
0.038924001 -0.25534144 1.7760001 0.01526068244 -0.08603577316 0.9961751699
-0.2140785 0.023496419 1.4890002 0.2850515246 -0.1901344359 0.9394650459
0.097172357 0.43703148 1.6710001 -0.7743980289 -0.3350884616 0.5366781354
0.14324032 -0.20084783 1.7760001 0.2504236698 -0.1678436846 0.9534760118
0.013672493 -0.03369293 1.6710001 -0.2871246934 0.8469534516 0.4474698305
0.14324822 -0.48314181 1.7570001 0.1044922248 0.7025831342 0.7038879991
-0.090877898 -0.34194735 1.7570001 -0.2179622799 -0.4439662099 0.8691297174
0.024582529 0.036935564 1.5500001 -0.1617670804 0.8049610853 0.5708494186
-0.086308457 -0.013629036 1.577 -0.3137055337 0.8362960815 0.4496639967
-0.044246022 0.065067291 1.4845001 -0.1983340383 0.5640000701 0.8016030788
-0.17787129 -0.12107205 1.705 -0.3020691872 0.8809179664 0.3643318713
-0.14528733 -0.060653936 1.6090001 -0.3178122044 0.82247293 0.4717347324
-0.15017475 -0.24306636 1.766 0.4251135588 -0.5640160441 0.7079296112
-0.12652403 -0.091008514 1.6880001 -0.3886674941 0.8189774752 0.4221534133
0.21587567 -0.01358658 1.7220001 -0.2808683813 0.8575966954 0.430860579
-0.40459394 0.31789249 1.7350001 0.9341548681 0.10837318 0.3400145471
0.24544822 -0.36436108 1.7390002 0.06183963642 -0.1457586288 0.987385571
-0.025797671 -0.49470827 1.7310003 -0.221596539 0.1105784699 0.9688484669
0.085255831 -0.025470672 1.6840001 -0.1481726617 0.8984525204 0.4133133888
0.21658051 0.03032127 1.6470001 -0.2584246993 0.8336668015 0.4880741537
0.11552275 -0.053910617 1.7570001 -0.07313271612 0.9061358571 0.4166166186
-0.116772 -0.25067055 1.7760001 -0.1782976538 -0.6378487349 0.7492389083
-0.18842021 -0.083584905 1.6160001 -0.3230798244 0.8719936013 0.3677588403
0.015865035 0.10377471 1.4834 -0.02880795859 0.2036999911 0.9786094427
-0.084538728 -0.44533786 1.7220001 0.1134880781 0.02569849044 0.9932069778
-0.13592646 -0.44587144 1.7382002 0.4987247884 0.2730402946 0.8226314783
0.18934685 -0.14866075 1.7850001 -0.3121128976 -0.5092745423 0.8020130396
-0.13848177 -0.031535454 1.5640001 -0.3519203067 0.8200052977 0.4513794184
-0.053294498 -0.094574623 1.7570002 -0.3545690477 0.8111756444 0.4650536478
0.13393292 -0.36287552 1.7479999 0.4189707041 -0.4690271616 0.7774812579
0.025916897 -0.47412676 1.7390002 -0.02051827125 0.07035394758 0.9973110557
