# .PCD v0.7 - Point Cloud Data file format
VERSION 0.7
FIELDS x y z normal_x normal_y normal_z
SIZE 4 4 4 4 4 4
TYPE F F F F F F
COUNT 1 1 1 1 1 1
WIDTH 512
HEIGHT 1
VIEWPOINT 0 0 0 1 0 0 0
POINTS 512
DATA ascii
-0.045155607 -0.044799678 1.1628827 -0.06031846255 0.8043102026 0.5911402106
-0.44319004 -0.46053228 2.1980002 0.5891122818 0.8020259142 0.09849431366
0.49095699 -0.11001378 1.8730001 0.0358341895 0.7548233867 0.654948473
-0.3817752 -0.01520666 1.7350001 0.985237956 -0.1033707634 0.1364574581
0.39478317 -0.43613201 1.123 -0.1774647385 0.6436476111 0.7444621921
0.31723499 0.21278483 1.4770001 -0.1989287883 0.8742158413 -0.4429153502
0.09581352 -0.32125711 2.1430001 -0.1503139138 0.983487308 0.1007893607
-0.010958552 -0.46600029 1.31575 0.3736898303 -0.2211222351 0.900811255
-0.29417077 0.21047364 1.404 0.5721646547 -0.3836095035 0.7248940468
0.091139726 0.45607066 1.2729999 0.4912959039 -0.4515283108 0.7448157668
0.32162532 -0.089280613 1.2270001 0.4840123057 0.193398878 0.8534219265
0.15187943 0.19321513 1.0965 0.5533006787 -0.3153215051 0.7709932923
-0.13127601 -0.22664243 1.3430001 -0.4370071888 0.6120045185 0.6591472626
0.14764135 -0.25407499 1.3430001 0.3929252625 -0.3546231091 0.8484410644
-0.26760775 -0.015808053 1.2880001 0.5115013123 -0.3721733093 0.774502039
-0.091718622 -0.47030187 2.2260001 -0.03549430892 0.9991847873 0.01923333481
0.19460703 -0.49504143 1.2234442 0.5122836828 -0.3021120429 0.8039239645
0.15439174 -0.0069585419 1.1335001 0.08623196185 0.8217415214 0.563298285
0.29730499 0.09269274 1.3161666 -0.4993154705 0.6915148497 -0.5220069885
0.29514757 -0.28526363 1.2043635 0.7757969499 -0.2096752822 0.5951263309
-0.0034232954 0.092382163 1.0271 0.2430035472 0.4224097729 0.8732234836
0.38262555 0.16604505 1.6470001 0.491510123 0.8484439254 0.1963689029
0.44598225 0.035991549 1.7850001 0.3619910479 0.7778201699 0.5137686133
0.084907793 -0.11247353 1.2577999 -0.007580391131 0.7454740405 0.6664915085
-0.21332905 -0.0064711641 1.126 0.2522749305 0.4165694118 0.8733998537
-0.3238582 0.20809612 1.572 0.9902263284 -0.09504523873 0.1020695195
0.19048388 0.22385332 1.5860001 -0.254450351 0.870359838 -0.4215788543
0.12518241 0.32485554 1.18625 0.4553981125 -0.4487242699 0.7689337134
-0.21559499 -0.15259148 1.2270001 -0.1574393213 0.2368418425 0.9587068558
-0.015613434 -0.32187691 1.37 0.598298192 -0.3147151172 0.7368810773
0.11549828 -0.39468956 1.2946192 0.1720021516 -0.3538767099 0.9193402529
0.14162023 0.081053093 1.016 -0.1173807755 0.6951553822 0.7092113495
-0.054242432 -0.1362375 1.266 -0.1497778893 0.7101185322 0.687966764
0.38411188 -0.30712718 1.1069165 0.6331524849 -0.2673331201 0.7263958454
-0.30110404 0.088234164 1.3540001 0.1777783483 -0.38344872 0.9062901735
0.033470757 -0.19695605 1.3430002 0.01874405704 0.685772419 0.7275745869
0.28526911 -0.41466779 1.1856894 0.6900414228 -0.1537608653 0.7072484493
-0.10472573 0.035849702 1.0761999 0.1524733901 0.4309301078 0.8894105554
0.19603914 -0.081099167 1.219 0.07660197467 0.7555227876 0.6506285071
0.35834655 -0.1889091 1.169 0.5701160431 -0.2144778669 0.7930743694
0.2444967 -0.21635132 1.28425 0.5469532609 -0.2248672694 0.806397438
0.28863198 0.020087941 1.2060001 -0.9460306168 0.2788964808 -0.1650538892
0.21136978 -0.3345758 1.273 0.5753216147 -0.2495774627 0.7789198756
0.035283126 0.011523703 1.104 -0.08027092367 0.8011904359 0.5930011868
0.087377854 -0.49718174 1.2581111 0.2104022652 -0.3432882428 0.9153600931
0.25142828 0.0047541633 1.085 -0.1515089571 0.6426041722 0.7510691881
-0.15012479 -0.079721436 1.1810001 -0.1634299159 0.691399157 0.7037456036
0.296664 0.1396793 1.4100001 -0.5587407947 0.626994729 -0.5428501964
0.066180192 -0.048116598 1.182143 -0.07499399781 0.7619827986 0.6432403326
-0.33488578 0.070581309 1.7130001 0.9754701257 -0.2169828862 0.03710095212
-0.26016748 -0.081238069 1.1730001 0.1061511859 0.6171984076 0.7796140313
0.075201064 -0.31605297 1.3380002 0.3196798861 -0.436090678 0.8412072659
0.13482827 -0.16363992 1.3145001 -0.01727599278 0.681279242 0.7318197489
-0.045959421 -0.23557682 1.3724 -0.1099875346 0.8202571273 0.5613207221
0.43949491 -0.059132043 1.8230001 0.3619910479 0.7778201699 0.5137686133
-0.33688459 0.24567325 1.4723333 0.6017833948 -0.4065638781 0.6874318719
-0.13895166 -0.16229555 1.268 -0.1778365523 0.7349624038 0.6543732882
0.028286964 -0.38620365 1.317 0.2571928799 -0.3997924626 0.8797827959
0.0053713368 -0.089164183 1.2254002 -0.07092233747 0.7418680787 0.6667846441
0.19463025 -0.41525793 1.2543218 0.5101185441 -0.2829754055 0.8122216463
0.29661229 -0.18771957 1.2250001 0.7766861916 -0.08021456003 0.6247593164
0.097334549 0.43800545 1.3540001 0.9820650816 -0.1420708299 0.1239518449
0.32331038 -0.34571153 1.1547499 0.7130316496 -0.07501000166 0.6971079111
0.24471781 -0.035879683 1.1647334 -0.06530407816 0.7931846976 0.6054695249
0.12648538 0.25498691 1.1441113 0.4791139066 -0.4533847272 0.7515930533
0.024730766 -0.34813309 2.1700001 -0.08811829239 0.9952675104 0.04096062109
0.1125828 0.39458248 1.2256668 0.2868467867 -0.4889906347 0.8237761259
-0.13533722 -0.024309663 1.1246955 -0.04799452052 0.6847470403 0.7271987796
0.10416859 0.037234806 1.0753334 -0.006638263352 0.8028362393 0.5961626768
0.067893274 0.10463963 0.99800003 0.0705658868 0.5454530716 0.8351655006
0.31808847 -0.46566901 1.1374286 0.7099207044 -0.04710434377 0.7027046084
-0.039171219 -0.39527321 1.3540001 0.5445497036 -0.1234458312 0.8295943737
0.26267385 -0.49094999 1.189 0.5924783349 -0.1224454641 0.7962264419
0.18676366 0.037456583 1.0644286 0.3415925205 0.8510115743 0.3988657594
0.19083543 -0.1328036 1.273 0.168369934 0.6091508269 0.774975419
-0.066965058 -0.19050404 1.317 -0.1303424835 0.7349761724 0.6654478312
0.14451492 -0.32420498 1.3139231 0.4729488194 -0.2942726016 0.8304956555
0.26160786 -0.35488608 1.2229999 0.668520391 -0.167835474 0.7245079279
0.014724493 -0.14724495 1.2919999 -0.09229271114 0.6866750717 0.7210820913
-0.084758654 -0.093681261 1.2142501 -0.123275131 0.7352955341 0.666441083
-0.41882223 -0.06383536 1.7760001 0.9830248952 -0.0588340573 0.1737831384
-0.044721399 0.0020376656 1.101 -0.03190527856 0.7527827621 0.6574953794
0.35074645 -0.26179633 1.153 0.5975369215 -0.3753682971 0.7085536718
0.39235464 -0.37525743 1.0836666 0.5253707767 -0.1861880124 0.830252707
0.15102337 0.12475843 1.0700001 0.5515258312 -0.3574608564 0.753684938
0.13467669 -0.055210643 1.195154 0.008416009136 0.7870982289 0.6167702675
0.19784439 -0.26834065 1.2970001 0.5473595858 -0.3699102998 0.750708878
0.063051037 -0.44311917 1.2919999 0.2759846449 -0.3336106539 0.9014080167
0.14556885 -0.4622148 1.2589999 0.3249944448 -0.2665662467 0.9073703885
0.27768943 0.052877028 1.2653333 -0.4582744241 0.7568764687 -0.4659641683
-0.26670566 0.045028228 1.317 0.3264315426 -0.3518183231 0.8773062825
-0.1935759 -0.19879264 1.2763335 -0.4268007874 0.426034838 0.7977063656
-0.2865268 0.14689544 1.381 0.2546662986 -0.4216670692 0.8702539802
0.25534204 -0.27501172 1.2556897 0.6821067333 -0.2361758649 0.6920630932
0.045207128 0.052586086 1.0524 0.01199346408 0.7709672451 0.6367618442
0.3390277 -0.40505949 1.1242001 0.7550758719 -0.0946906209 0.6487635374
0.26114321 -0.081409022 1.2060001 0.008546264842 0.7250711918 0.6886208653
-0.054518081 0.064684279 1.0515171 0.2451437116 0.4426701963 0.8625240326
0.093778782 -0.010974113 1.138 -0.08929391205 0.7810266614 0.6180808544
0.016172746 -0.029313102 1.153 -0.09048039466 0.7844665647 0.613535285
0.23833105 -0.43582869 1.2177501 0.5474231839 -0.2405522466 0.8015375733
0.075776912 -0.15685822 1.3042728 0.01629845053 0.7040542364 0.7099591494
-0.20515512 -0.10244836 1.1955001 -0.04788913578 0.7136992216 0.6988132596
-0.15495074 -0.12490297 1.2242501 -0.1470290273 0.7307467461 0.6666271091
0.034349333 -0.49466729 1.2847502 0.3799029589 -0.28687796 0.8794173002
-0.2059672 -0.057259385 1.1553527 0.04618451744 0.6494733095 0.7589805126
-0.15732923 0.024957573 1.101 0.2139871567 0.4100526273 0.8866038322
0.14451061 -0.096614808 1.24175 0.0486487858 0.7235012054 0.6886067986
0.33421162 -0.14766398 1.2060002 0.4266303778 -0.3629797399 0.8283913732
-0.048207901 -0.27812248 1.4100001 0.3198255897 -0.03638816252 0.9467774034
0.18407106 -0.038048211 1.1730001 0.1062978506 0.7816709876 0.6145659089
0.31678671 -0.23533136 1.1886667 0.7153943181 -0.1639209986 0.6792207956
0.20871329 0.00098449667 1.123 -0.1264308244 0.7268134356 0.6750981212
-0.0047994736 0.033695698 1.0724736 -0.1042462364 0.7298962474 0.6755621433
0.3384617 0.22474664 1.526 -0.06443024427 0.8888804317 -0.4535860419
0.16504841 -0.37434736 1.2849051 0.5046055913 -0.2002799362 0.8397982717
-0.10396202 -0.048709482 1.1610001 -0.1226746961 0.7800650001 0.6135547757
0.31095278 0.13343568 1.3590001 -0.5294809937 0.7595123053 -0.3778768182
-0.015076563 -0.18629725 1.3232002 -0.2122624069 0.6968693733 0.6850677133
0.024724631 -0.340258 1.3430001 0.1652018875 -0.5011208653 0.8494623303
0.094906852 0.068031304 1.0347501 -0.0555078499 0.7857380509 0.6160637736
0.077933475 -0.36773056 1.317 0.3054193258 -0.4397213757 0.8446089029
0.35558382 -0.35486174 1.1159998 0.6957086921 -0.1705087572 0.6977937818
0.30779812 0.18442918 1.4360001 -0.3942256272 0.7092023492 -0.5844810605
0.083355218 -0.080149248 1.2190001 -0.06780829281 0.7464925051 0.6619297266
-0.25194961 -0.039147548 1.1450001 0.06967069209 0.472648859 0.8784924746
-0.12489257 -0.19200389 1.307 -0.1319133043 0.7189447284 0.6824348569
-0.085934214 -0.016399724 1.1243638 -0.03735451028 0.7874938846 0.6151893735
0.1820657 0.096280351 1.041 0.4396876097 0.005087055732 0.8981363773
0.28191093 -0.23449808 1.2335385 0.8039242625 -0.1814961433 0.5663611293
0.035227045 -0.11448866 1.2556877 -0.02500120923 0.7465529442 0.6648560762
0.35102171 -0.44430694 1.097 0.7015216947 -0.09509272128 0.7062752247
0.13220483 -0.13108446 1.2780001 0.005159148946 0.7271218896 0.686488986
0.23390782 -0.10226667 1.2410001 0.07503609359 0.7009367943 0.7092652321
0.2533235 -0.031150598 1.1174001 0.4174561203 0.874687016 0.2462784052
0.10533609 -0.27648807 1.3447649 0.3729300797 -0.3929332197 0.8405513763
-0.034825288 -0.075866923 1.2037779 -0.06551054865 0.7780880332 0.6247298121
0.29283497 -0.33487174 1.1933635 0.7565656304 -0.1665707231 0.6323469877
0.14502576 0.021908466 1.0935 0.07530239969 0.807508111 0.5850300789
-0.092230588 -0.15859163 1.2830001 -0.1673517227 0.6953013539 0.6989631057
-0.10510667 -0.12515849 1.2428668 -0.2034971416 0.6932352185 0.691385448
-0.25187844 -0.12421536 1.2360001 0.4287956655 0.5625985265 0.7068360448
-0.083966255 -0.22115056 1.3490001 -0.0809673667 0.7285165787 0.6802263856
0.14437765 0.052121926 1.0523334 0.01435421873 0.7461372614 0.6656373739
0.22863117 -0.38466382 1.2360001 0.5428760648 -0.2413960844 0.8043714762
0.01250828 -0.061499044 1.189 -0.08146693558 0.7717179656 0.6307253838
0.34784296 -0.30489621 1.1369091 0.6642870903 -0.190450415 0.7228079438
0.1049037 -0.44528264 1.2730001 0.1267508268 -0.4181873202 0.8994740844
0.28690407 -0.011825794 1.1730001 -0.8058847785 0.2016437948 0.5566771626
0.021853546 -0.43132001 1.312 0.3062367737 -0.2428941727 0.9204463363
-0.1540917 -0.22649033 1.302 -0.7168507576 0.1378118545 0.6834712029
0.1769201 -0.22942542 1.302 0.3435709774 0.1011030003 0.933668673
-0.015373811 -0.1174916 1.2525001 -0.1409953833 0.7390315533 0.6587508321
0.098325178 0.35312486 1.2060001 0.2937926948 -0.3721145391 0.8804638982
-0.30907321 0.24095096 1.439 0.5112006068 -0.4498551786 0.7323279381
0.31814262 -0.29469335 1.1685555 0.7507795691 -0.1630415618 0.6401152611
0.3093625 -0.39253539 1.1570001 0.795466125 -0.08318894356 0.600260973
-0.0047480264 -0.21484819 1.3540001 -0.1212991253 0.5990251303 0.7914893627
-0.0051024305 -0.0037659288 1.1171051 -0.2010464966 0.7378309965 0.6443490386
0.12586807 0.21688919 1.124091 0.4798415899 -0.3905631602 0.785628736
0.074790187 -0.19048126 1.3330001 0.02106379718 0.611639142 0.790856421
0.088606447 0.41621327 1.2540001 0.5098423362 -0.4626336098 0.7252799273
0.1254063 -0.028549528 1.163 0.003235328943 0.7749888301 0.6319666505
-0.28742042 0.0081126736 1.322 0.494793117 -0.3230538368 0.8067317009
0.24760322 -0.31542906 1.245 0.5769122839 -0.2660451829 0.7722643018
0.15542337 -0.41462207 1.2755001 0.3548280895 -0.3515770137 0.8663086295
-0.040617719 -0.32617259 1.404 0.7954725623 -0.1275922507 0.5924049616
0.18492571 -0.45502457 1.2432858 0.5079697371 -0.3278031945 0.7965624928
0.084707782 0.013995146 1.1048635 -0.04529179633 0.8005620837 0.5975357294
0.28776732 -0.46469998 1.1675713 0.6998732686 -0.1899843365 0.6885371208
-0.17539835 -0.034886338 1.1318462 0.00823113136 0.6282712221 0.7779508829
-0.1799069 -0.1611436 1.2590001 -0.554400444 0.4448433816 0.7033879161
0.22641864 -0.058020782 1.1946 -0.02428709716 0.7785632014 0.6270960569
-0.031336743 -0.15894902 1.2920001 -0.1892414838 0.6690396667 0.7187305093
-0.11459907 0.0041859164 1.1029047 -0.008069965057 0.6502357721 0.7596896291
0.36823645 -0.22462568 1.149 0.6208739877 -0.2276964933 0.7501131892
0.37593353 -0.41309801 1.087 0.5321540236 0.04509317875 0.8454458714
-0.016749885 -0.42264247 1.3330001 0.5749522448 -0.2630132139 0.7747606039
0.11234599 0.10186896 0.99600005 0.002143438905 0.6215522289 0.7833697796
-0.075251609 -0.065464422 1.1851903 -0.09999079257 0.7733809352 0.6260062456
0.16459328 -0.28482768 1.3145 0.4975683391 -0.3694880605 0.7847957015
0.28039393 -0.048990764 1.189 -0.3252545893 0.6873409748 0.6494395733
0.11277353 0.28827515 1.1730001 0.4784094691 -0.4036048949 0.7798894048
-0.014231346 -0.35494381 1.3461769 0.2577034533 -0.3473680317 0.9016231894
0.32323471 -0.19536808 1.1932354 0.6927155256 -0.1363320202 0.7082081437
-0.06480439 0.028067602 1.0769999 0.07272963971 0.6144471169 0.7855986357
0.2838693 -0.37523738 1.1945003 0.7086423039 -0.199973762 0.676636219
0.22367762 -0.29318827 1.2729999 0.5890898108 -0.2870732546 0.7553556561
0.1155116 -0.35376456 1.3120002 0.2006498873 -0.2254195362 0.9533759356
0.075461939 -0.40590039 1.30425 0.1895890236 -0.3430184126 0.9199969172
0.035049889 0.087055594 1.0180455 0.1590886116 0.5564858317 0.8154841065
-0.30894083 0.17354845 1.404 0.4937038124 -0.4567683041 0.7400130033
-0.12403255 -0.097141095 1.2110001 -0.2687676549 0.6900720596 0.671985507
0.054291382 -0.012454511 1.1363335 -0.05182101578 0.7695364356 0.6364968419
0.23383942 -0.47500485 1.2107998 0.4490056932 -0.2722392678 0.8510462046
0.13865885 0.15586887 1.0908 0.5852513909 -0.3609635234 0.7260758281
0.044723891 -0.076778598 1.2124616 -0.05419888347 0.7625421286 0.6446642876
0.20056731 -0.37121573 1.2640001 0.5480274558 -0.2209138274 0.806760788
0.13861415 -0.4977012 1.245 0.2954117656 -0.5413256884 0.7872092724
0.18447147 -0.31434903 1.2919999 0.4239813685 -0.1932418644 0.884814918
-0.044739805 -0.20839331 1.3430001 -0.1160544455 0.6768421531 0.7269223332
0.18545863 0.015135733 1.0955714 -0.0004667089379 0.7730728388 0.6343171
0.27493274 -0.19905986 1.2545 0.8221618533 -0.0950076282 0.5612694621
-0.018239049 -0.28209731 1.3870001 0.2663020492 -0.2118054181 0.9403306246
-0.0349866 -0.023513954 1.1331111 -0.03854891658 0.7939355969 0.6067785621
0.0051960037 0.05899265 1.046 0.0477860719 0.6851158142 0.7268650532
-0.045059264 -0.10346209 1.2336001 -0.09887616336 0.7271950841 0.679272294
0.30871728 -0.12477772 1.2270001 0.6449047327 -0.06570116431 0.761433661
-0.14504975 -0.05137179 1.149 -0.1188199893 0.7030046582 0.7011891603
0.37573633 -0.2759468 1.1260002 0.5202165246 -0.3163091242 0.7932990193
0.03457135 -0.17285892 1.3145001 -0.05868966877 0.6935690641 0.7179954648
0.21500382 0.014080808 1.0709599 0.347255826 0.824288547 0.4471708536
0.22734728 -0.25646576 1.2774999 0.5432245135 -0.3850615323 0.7460795641
0.30692449 -0.4356167 1.1558887 0.769744873 -0.1859979928 0.61065346
0.21475002 -0.22686045 1.3030001 0.6335732341 -0.1590777338 0.7571520209
0.26488534 -0.44496575 1.1942803 0.5935572386 -0.2172642946 0.7749103308
0.15384842 0.086585745 1.062 0.5813952088 -0.2691068947 0.7678288221
0.054914404 0.031244399 1.08 -0.04786856845 0.8052672148 0.5909765959
0.11496606 -0.30706125 1.3280001 0.1724144667 -0.3967484534 0.901589632
0.28664613 -0.082732081 1.2320001 -0.194821462 0.4362594187 0.8784772754
0.06510403 -0.47553024 1.2769474 0.3252121508 -0.3541229069 0.8768318295
0.19361131 0.062719487 1.0368572 0.1825131625 0.3477994204 0.9196327925
0.28286529 0.01631915 1.2410001 -0.6250612736 0.6574069858 -0.4208496213
-0.27881944 0.11607505 1.365 0.1890390068 -0.5119341016 0.8379664421
-0.15797357 -0.20054802 1.2780001 -0.6995506883 0.2000464499 0.6860104203
0.29809472 0.071136236 1.2880001 -0.5798232555 0.6986289024 -0.4191929102
0.021686981 -0.46569934 1.302 0.4962113202 -0.3240343332 0.8054663539
-0.24284193 -0.10389048 1.194 0.005046295002 0.7451424003 0.6668863297
0.25490576 -0.40501779 1.2134829 0.6352334023 -0.1414577663 0.7592550516
0.03902657 -0.30866468 1.3490001 0.2581246793 -0.3155572116 0.9131239057
0.16441883 -0.068596244 1.21 0.1148757264 0.7450073361 0.6570903063
-0.17491703 -0.0052208933 1.1130433 0.1366662383 0.497477144 0.8566439152
0.18518269 -0.10186867 1.245 0.05103928968 0.7379667163 0.672904253
0.28909838 0.10856201 1.3460001 -0.6101000905 0.6389110684 -0.4685835242
-0.184733 -0.076820955 1.1746002 -0.04562519491 0.6900365353 0.7223351002
0.27270257 -0.30526626 1.2233635 0.7708249688 -0.1614189893 0.6162570715
0.39197344 -0.33616838 1.09 0.6258452535 -0.1902794987 0.7563804388
-0.29369375 0.053795051 1.3366365 0.3615940511 -0.4166944921 0.834035635
-0.20347746 -0.18196031 1.245 -0.3554829061 0.5567649603 0.7507627606
0.054707989 -0.1375857 1.2852223 0.01363359299 0.7347744107 0.6781744957
-0.32150784 0.21141957 1.427 0.5698350668 -0.3710960746 0.7331955433
0.21539368 -0.023116706 1.1463335 -0.0004830778053 0.7711181641 0.6366918683
-0.1152707 -0.074161179 1.18725 -0.1789564192 0.7098708153 0.6812180281
0.30851531 0.22444895 1.5077999 -0.06443024427 0.8888804317 -0.4535860419
0.25937498 -0.23619679 1.2590001 0.7558498979 -0.2391398996 0.6095104814
0.11494765 -0.47764659 1.273 0.1600909382 -0.2746456265 0.948124826
-0.18498895 -0.13717483 1.2340001 -0.1130326241 0.6838824153 0.7207832336
0.36359528 -0.38478786 1.1026152 0.7143011093 -0.148412019 0.6839209199
0.0017949123 -0.49444726 1.3034286 0.4628631175 -0.2705484033 0.8441334367
0.32097396 0.16275316 1.4100002 -0.5529103279 0.5712152123 -0.6066327691
-0.22460249 -0.12172547 1.2167778 0.1118033081 0.6911807656 0.7139812112
0.12521888 0.006983839 1.1159288 0.04933069274 0.8123125434 0.5811323524
-0.0048188423 -0.38542682 1.3363332 0.2824726999 -0.3775924146 0.881835103
0.094177499 -0.13676192 1.2850001 0.003089765087 0.6996114254 0.7145168185
0.095187783 -0.056453228 1.1959476 -0.1037581414 0.7728065848 0.6261023879
-0.01336829 -0.04833151 1.1730001 -0.1082281768 0.7867426872 0.607719183
0.10314684 -0.17731985 1.322 -0.008746000938 0.6582606435 0.7527393103
0.27740332 -0.26664662 1.2270001 0.7555351257 -0.2053318173 0.622097671
-0.22483033 -0.077872634 1.1730002 -0.02095524222 0.6280972958 0.7778525949
-0.063499592 -0.25441831 1.3930001 -0.09062872827 0.6214479208 0.7781959176
0.067196503 0.081531756 1.0220001 0.08422294259 0.6642875075 0.7427170277
0.23657177 -0.34626251 1.245 0.5812648535 -0.2465441525 0.7754657865
0.12605578 -0.077655263 1.2230002 -0.0372784175 0.7364753485 0.6754364371
0.12289289 -0.42644396 1.2919999 0.2553169727 -0.2949391603 0.920773685
-0.02547944 0.068248503 1.0380001 0.1573329121 0.4527013302 0.8776718378
-0.1746618 -0.10522281 1.2047501 -0.0989041999 0.7121710181 0.6950038671
0.16273913 0.15444699 1.0685 0.4864937365 -0.3634224534 0.7945111394
0.33481452 -0.37476882 1.133135 0.7492417097 -0.1690988392 0.6403455734
0.16415811 -0.11793421 1.2640001 0.02621568181 0.724353075 0.6889306307
0.053755451 -0.35458562 1.3330001 0.2083194107 -0.3808163404 0.9008784294
0.11570349 -0.10574567 1.2544215 -0.07563140243 0.733951211 0.6749781966
0.30014876 0.042566549 1.245 -0.4540936649 0.6995506287 -0.5517498255
-0.064284056 -0.16767925 1.2947272 -0.1082630977 0.6941794157 0.7116137147
0.32308432 -0.26395985 1.1741114 0.725497663 -0.2502704561 0.6411067247
-0.095249832 -0.20211814 1.325 -0.1167988852 0.7749173045 0.6211772561
-0.074713238 -0.11697828 1.2434615 -0.1293141395 0.7175788283 0.6843671799
-0.1375227 -0.14079705 1.245 -0.2297907472 0.7235718966 0.650876224
0.18469833 -0.01788765 1.1440001 0.06372327358 0.8058296442 0.5887086987
0.34155068 -0.22401309 1.1735002 0.5933272839 -0.1962127835 0.7806813121
-0.03477532 0.037472144 1.0656667 0.05922998115 0.6313067675 0.7732681036
0.095091157 -0.033744361 1.1663334 -0.08755800873 0.7790893912 0.6207683086
0.17242764 -0.25409409 1.3245001 0.639040947 -0.2514775693 0.726901412
0.19557644 -0.059614211 1.1930001 0.06824489683 0.7660111189 0.6391945481
0.21343043 -0.44524637 1.2333335 0.4980736673 -0.2519709766 0.8297187686
0.035100058 -0.046521749 1.1744547 -0.06912059337 0.7873092294 0.6126716137
0.29814732 -0.25479966 1.2060002 0.7794185281 -0.1599155217 0.6057506204
0.30209312 -0.21428421 1.2109286 0.7656061649 -0.1520278454 0.625087738
0.3051585 -0.36475149 1.1753334 0.7710669041 -0.1056629941 0.6279260516
0.18360506 -0.3435826 1.2834547 0.450163573 -0.3347716033 0.827816844
0.16430038 -0.1420317 1.2846667 0.1417948306 0.6301764846 0.7633948922
0.095650271 -0.33568397 1.3269999 0.3973093033 -0.3361274004 0.8539108038
0.33218065 -0.43386376 1.131091 0.7434596419 -0.1214281321 0.6576647758
0.1343936 -0.28466606 1.3341906 0.3843463957 -0.3910200298 0.8362901211
0.055404231 -0.095039517 1.2341055 -0.04832395539 0.779124856 0.6250033975
-0.075247183 0.0060434761 1.0948 0.04149144888 0.6819561124 0.7302152514
-0.075495474 -0.034992293 1.1456668 -0.03414207697 0.753410995 0.6566628814
0.074792258 0.047869027 1.0556364 -0.04496124759 0.7861632109 0.6163812876
0.025226453 0.035626762 1.0740525 -0.04762556776 0.7702345848 0.6359799504
0.15653203 -0.34603816 1.2970001 0.4745638371 -0.2728614807 0.8368606567
-0.084477425 0.054616485 1.0641818 0.2166610956 0.3861007094 0.8966516852
0.15492715 -0.033034317 1.1675454 0.07407170534 0.8047892451 0.5889207721
0.22875477 -0.0067564701 1.1010001 0.5225625038 0.8229472041 0.2229042351
-0.014031927 0.013802551 1.0928236 -0.1871906519 0.7575166225 0.6254025102
0.17080711 -0.49066243 1.2410001 0.4314458668 -0.4395098388 0.7878360152
0.16335104 -0.43817815 1.2590001 0.3656369746 -0.3365684152 0.8677737713
-0.13373698 0.034576029 1.0855713 0.2285100222 0.4064890742 0.8846184611
0.22409961 -0.41396135 1.2333335 0.4590203762 -0.2628920972 0.8486389518
-0.10874349 -0.030927047 1.138 -0.1060759351 0.7456774712 0.6578092575
-0.034279898 -0.25726569 1.3920001 0.357260555 0.2923432291 0.8870740533
0.11514248 0.053411372 1.0531431 0.03663888574 0.7932156324 0.6078376174
-0.0040949099 -0.13366547 1.274111 -0.1860681474 0.75327456 0.6308375597
0.34550422 -0.16852376 1.1855716 0.5096776485 -0.4202469289 0.7507470846
-0.14437422 -0.0024281475 1.1077499 0.07839383185 0.5954533219 0.7995559573
0.31172362 -0.32330546 1.1745001 0.7991912961 -0.1416963786 0.5841364861
-0.2047276 -0.033972494 1.1380002 0.1458438784 0.5491412282 0.8229054809
0.17952117 -0.00098099001 1.1190001 0.04740466177 0.813513875 0.5796101689
-0.083108 -0.13851333 1.2640001 -0.1832976341 0.6812044978 0.7087752819
0.0044364342 -0.16809155 1.3120002 -0.09235404432 0.7189289927 0.6889207959
-0.28574511 0.17631082 1.3870001 0.3811723888 -0.3791409433 0.8431842923
-0.30845341 0.25540456 1.4640001 0.6002366543 -0.3820224702 0.7026910782
0.083938323 -0.29352978 1.3540001 0.4172381759 -0.4823015332 0.770258069
0.045159776 -0.41523889 1.3067366 0.2241717726 -0.259939611 0.9392435551
-0.11438122 -0.14787069 1.2640001 -0.1611034423 0.7116765976 0.6837851405
-0.17562599 -0.058207016 1.1546665 -0.02891862765 0.6975277662 0.7159739733
0.17801692 -0.39621076 1.268 0.5444604158 -0.2116191387 0.8116527796
-0.042680517 -0.36896706 1.3650001 0.5769880414 -0.3754186034 0.725358963
-0.040256534 -0.17827894 1.312 -0.1465241462 0.7258719206 0.6720421314
-0.27649394 0.07737226 1.344 0.3185089529 -0.398026973 0.8603060842
0.14294139 0.24201742 1.1245 0.4386325479 -0.459767133 0.7721500397
0.13876143 0.28736168 1.161 0.4348511696 -0.418756634 0.7972122431
0.024353111 -0.0056330217 1.1240716 -0.1184839457 0.7667648792 0.6308987141
-0.26428974 0.013428381 1.306091 0.5012732744 -0.3780427873 0.7783371806
0.14400877 -0.39432517 1.2919999 0.3567557931 -0.3057536185 0.8827457428
-0.04012591 -0.30033636 1.3870001 0.3053411245 -0.2290251106 0.9242912531
-0.24472131 -0.064319342 1.1560769 0.05371681601 0.596925199 0.8004966378
-0.090077497 -0.23900563 1.3700001 -0.08612974733 0.7689406276 0.6334919333
0.24266711 -0.018205035 1.141 0.4530903697 0.8196407557 0.3505683243
0.13355491 0.17839816 1.1120001 0.5411860943 -0.3076925874 0.7825872898
0.13621697 -0.36567098 1.2970003 0.4006468058 -0.280027926 0.8723912239
0.05578668 -0.031443402 1.1570001 -0.09557873756 0.7603880167 0.6423977017
0.12487503 0.35153896 1.197 0.4002095759 -0.3773832917 0.8351132274
-0.091313601 -0.17920294 1.302 -0.1599978358 0.7350664139 0.6588460207
0.365087 -0.32514012 1.1168998 0.6229650378 -0.2804605961 0.7302441001
0.21118389 -0.11383151 1.2525001 0.1564064771 0.6716436744 0.7241765857
0.15110226 0.21836714 1.1120001 0.4237325191 -0.4009416699 0.8122170568
0.22395989 -0.082286559 1.219 -0.00499260053 0.6936150789 0.7203285694
0.1148407 -0.15122588 1.2970001 -0.07835423201 0.7027025819 0.7071560621
0.094765335 -0.42172459 1.2919999 0.1840782166 -0.4176643789 0.8897593617
0.3448666 -0.33548167 1.1329091 0.7206821442 -0.2238927931 0.6561167836
0.014890781 -0.3646282 1.3350455 0.3659336567 -0.2745077014 0.8892345428
-0.23406473 -0.019005256 1.141 0.1281926483 0.4804442823 0.867605865
0.35531288 -0.41530874 1.1049998 0.6735267639 -0.1367201954 0.7264084816
0.34305456 -0.46089348 1.117 0.7582835555 -0.06301244348 0.6488724947
0.055291366 -0.38589591 1.314 0.2310963422 -0.4290931225 0.8731973171
0.13475001 0.036574893 1.0731175 0.08433424681 0.8014165163 0.5921311975
0.21488889 -0.044127144 1.1744287 -0.01275536418 0.7953972816 0.6059541702
-0.0049882331 -0.02095058 1.138 -0.1535913944 0.765947938 0.6242863536
0.16573472 -0.051671114 1.189 0.1037051156 0.7764930725 0.6215333939
0.31408599 0.14468701 1.3833078 -0.4659259021 0.8026657104 -0.3723450601
0.28662902 -0.063241854 1.2134445 -0.3700979054 0.6487839222 0.6649112701
0.0076201623 -0.40340671 1.317 0.4261652827 -0.3316302001 0.8416677117
-0.11501165 -0.17146897 1.2880001 -0.0882357955 0.7284662127 0.6793757677
0.37810457 -0.25407028 1.141 0.5046870112 -0.3057262301 0.8073552251
0.11523871 0.079505779 1.0190001 -0.0003704076516 0.697893858 0.716201067
-0.16555373 -0.17423338 1.2770624 -0.5957220197 0.3351403475 0.7299289107
0.16568999 0.031244401 1.08 -0.00398722291 0.8012170196 0.5983605981
-0.15180886 -0.19175856 1.302 -0.6491724849 0.2297100872 0.7251264453
0.19512859 -0.24491128 1.3149546 0.4445813596 -0.2038092613 0.872243762
-0.30436414 0.12760532 1.381 0.1235412732 -0.5394666791 0.8328945041
0.21794656 -0.49525079 1.2060002 0.4277964234 -0.2409783304 0.8711599708
0.33060196 -0.11517603 1.2165 0.5589296818 -0.1207519621 0.8203758597
0.10455576 0.32748312 1.202 0.3830131888 -0.3914460838 0.8367023468
0.25519064 -0.059614211 1.1930001 0.005204695743 0.7485505939 0.6630572677
0.21121618 -0.4706797 1.223 0.4948663116 -0.4044894576 0.769087553
0.16537318 0.064811885 1.0435387 0.1159252599 0.25377509 0.9602913857
0.1034898 -0.09374617 1.2348001 -0.09676027298 0.7479273677 0.6566902399
-0.030025832 -0.34349552 1.3700001 0.5998379588 -0.4856747687 0.6358572841
-0.0048127449 -0.43491828 1.3134707 0.4065229595 -0.1682555377 0.898014009
0.051803987 -0.3308391 1.3430001 0.3314812481 -0.3818071187 0.8627534509
0.33199999 -0.3147926 1.1545999 0.6411086917 -0.1452674866 0.7535761595
0.0026118529 -0.33390769 1.3545001 0.2542881072 -0.4358749092 0.8633369207
0.13484745 -0.44459894 1.2742501 0.3603549898 -0.4348816276 0.8252407312
0.20047964 -0.29335722 1.2920001 0.5660114884 -0.3008061349 0.7675589323
0.11503835 0.023003573 1.0935454 0.03560901061 0.8190408945 0.5726290345
-0.13140649 -0.11916589 1.2320001 -0.276465416 0.6847853661 0.6742669344
-0.0052775331 -0.071776204 1.2040002 -0.09592481703 0.7862856984 0.6103714108
0.015358164 -0.10433073 1.2431818 -0.05186599493 0.78357476 0.6191288233
-0.024659757 -0.088989556 1.223 -0.08010785282 0.7432693243 0.6641787887
0.37891114 -0.35679194 1.097 0.5451768041 -0.2454039454 0.8015978932
-0.10380775 -0.1059604 1.2255 -0.1730432212 0.6812886596 0.7112677693
-0.1957688 -0.12154301 1.2173333 -0.07482654601 0.6997053623 0.7105022073
0.27472061 -0.33507985 1.2144829 0.7183212638 -0.1770061255 0.6728175282
0.30150515 -0.10704293 1.2434 0.3685936928 0.02392473817 0.9292826653
0.035828412 -0.44551757 1.2965657 0.2758957446 -0.3676630557 0.8880909085
0.3179591 -0.17104732 1.197 0.5842210054 -0.2854430974 0.7597421408
0.094408624 0.092046887 1.0106667 0.02509108 0.6179997325 0.7857778072
0.0053140828 -0.19375195 1.3356925 -0.08825697005 0.6825318933 0.7255073786
0.305343 0.20285365 1.4573334 -0.5955452919 0.7075865269 -0.3803250194
-0.064232588 -0.082318813 1.2055558 -0.1238763556 0.7522785068 0.6470947862
0.034576215 0.067336634 1.0352502 0.05239782482 0.7201414108 0.6918459535
0.22614278 -0.31435066 1.2576667 0.5749918818 -0.1997354031 0.7934041023
0.089935482 0.39441586 1.2360001 0.3957280219 -0.539183557 0.7434248328
0.044972125 -0.059614211 1.1930001 -0.05762460083 0.7513921857 0.6573349237
0.024551926 -0.12833962 1.273 -0.01256227773 0.7643765211 0.6446477175
0.31709379 -0.41503131 1.1471541 0.7668458819 -0.135602802 0.627342999
0.33669618 -0.28509507 1.1556665 0.6296908259 -0.1705597341 0.7578910589
-0.2253077 -0.045065925 1.1465002 0.07837180048 0.5222414732 0.8491888642
0.13470931 0.065848961 1.0345001 -0.08308663219 0.7703697085 0.6321606636
0.095075667 -0.3850809 1.3040832 0.2775023878 -0.3448070586 0.8967165351
0.075378269 -0.0020627971 1.1246364 -0.04819175601 0.7911508083 0.6097195745
0.064836912 -0.12310045 1.2667692 -0.04206862673 0.7375974059 0.6739289761
0.25315654 -0.38310245 1.2240909 0.6554609537 -0.2425436974 0.7152226567
-0.066290021 -0.0087736798 1.1120001 -0.01065216679 0.7998448014 0.600112319
0.014970545 0.020385424 1.09 -0.05673660338 0.7830491066 0.6193667054
0.32109639 -0.37163624 1.153 0.7519760728 -0.2132454962 0.6237454414
-0.034166329 -0.057979234 1.181 -0.07084663212 0.7851737738 0.6152095795
0.045315772 -0.46581122 1.2872107 0.2873913944 -0.3028184772 0.9086843133
-0.067909233 -0.23629235 1.3590001 -0.06412303448 0.789962709 0.6097927094
0.29915637 -0.30853757 1.189 0.7483540773 -0.1679551005 0.6416831017
0.16154532 0.17443718 1.0846667 0.5546599627 -0.359414041 0.750449121
0.28213257 0.0085276868 1.1858001 -0.9920976162 0.119585678 0.03796894476
0.10449165 -0.12227747 1.268 -0.0366843082 0.7205447555 0.6924374104
-0.23756815 -0.14432989 1.2325716 0.3339173496 0.3027391136 0.8926635385
0.088334687 0.37355995 1.2140001 0.2518988252 -0.4512051642 0.8561313152
0.22286244 -0.36501518 1.2514286 0.4823664725 -0.2192366719 0.8480907083
-0.31766453 0.18810724 1.4210001 0.4718210399 -0.4638161361 0.7498396635
0.13491078 -0.014437494 1.1452502 0.06378033757 0.8055357933 0.5891045332
0.16607466 0.11350014 1.0454211 0.5645710826 -0.2761786282 0.7778077126
0.2956011 -0.39522752 1.1763045 0.741240263 -0.1163875163 0.6610724926
0.11531235 -0.045714669 1.1849998 -0.02771449834 0.7853778005 0.6183959842
0.10431629 0.43413392 1.2536961 0.4912959039 -0.4515283108 0.7448157668
-0.029675167 -0.22315726 1.3540001 -0.07251000404 0.7083751559 0.7021017671
-0.015742304 0.04825709 1.0563334 -0.01398843713 0.6693801284 0.7427883744
0.11492641 -0.4957605 1.2576193 0.2114176154 -0.4736349285 0.8549693227
0.057433352 -0.49615014 1.268 0.3343959749 -0.3353470862 0.8807505965
-0.17650105 -0.18459326 1.2583333 -0.6159576774 0.240454644 0.7501850724
0.045199636 0.10462612 1.005826 0.1587670594 0.5260315537 0.8355141282
0.0784266 -0.4559947 1.278 0.3524307311 -0.3605178297 0.8636084199
0.21327162 0.032919653 1.0568001 0.08746257424 0.6951742172 0.7135005593
0.30556127 0.12345614 1.3380002 -0.5831014514 0.6612390876 -0.4719698727
0.053720124 -0.18111832 1.3280001 -0.0519512631 0.6533789039 0.7552464008
0.26215863 -0.29465601 1.2415714 0.7601401806 -0.1850988716 0.6228365302
0.015005027 0.077727035 1.027 0.1871785969 0.5691972971 0.8006113768
-0.27589548 0.1008608 1.3430001 0.155318886 -0.4124855697 0.8976255655
-0.16489828 -0.14412433 1.2439476 -0.1484099478 0.7391050458 0.657037437
0.47472551 -0.096360564 1.863 0.04298860207 0.7583079338 0.6504775882
0.38401222 -0.42613429 1.10475 -0.04806453735 0.7253805995 0.6866678596
-0.035486199 0.017420825 1.0842222 -0.02797327004 0.71519804 0.6983618736
0.261704 -0.011970299 1.107 -0.0007143884432 0.7475653291 0.6641879082
0.2696881 -0.39771119 1.197 0.6982120872 -0.1120276675 0.7070711851
0.1459955 -0.15304513 1.2970001 0.1065058857 0.6939693689 0.7120835185
-0.01019388 -0.14724493 1.2920001 -0.1985595971 0.6785134673 0.7072436213
0.064702936 -0.067194268 1.2027273 -0.08078878373 0.7510430813 0.6552918553
0.25548694 -0.46622387 1.1950955 0.5727543831 -0.2224639803 0.7889627218
0.39183053 -0.3993839 1.077 0.5036371946 -0.08462371677 0.8597606421
-0.32714045 0.23421729 1.452 0.6254220009 -0.3375292122 0.7035064697
0.074140966 -0.34213915 1.3330001 0.2776712477 -0.293897301 0.9146163464
0.16459732 -0.088248767 1.2336001 0.06525017321 0.7136885524 0.6974173784
-0.15279423 -0.097999059 1.202 -0.1563142538 0.7041463852 0.6926353574
-0.052599996 -0.11944583 1.25 -0.1401003897 0.7171996832 0.6826393604
0.25423461 -0.33501577 1.2345456 0.6566559672 -0.2421839088 0.7142477632
0.30077207 0.064373635 1.266 -0.4503118396 0.7816644311 -0.4315321445
0.055162124 0.004809292 1.1159614 -0.0589248836 0.7795158625 0.6236047745
0.30812079 -0.27520269 1.1882001 0.7905103564 -0.1665716022 0.5893617868
0.3575851 -0.28347418 1.138 0.5649961233 -0.2685133517 0.780179441
0.26849669 -0.25539929 1.245 0.7945454717 -0.2246285081 0.5641272068
0.085468367 0.027989959 1.0849999 -0.04494395107 0.813634932 0.5796363354
-0.10452918 -0.087003909 1.2044002 -0.1544231921 0.7521311641 0.6406654119
0.20557307 -0.39510146 1.2540004 0.5320901275 -0.2543665469 0.8075752258
0.017298386 0.10147978 1.0172001 0.2412681729 0.4726125896 0.8476007581
0.28796604 -0.43526316 1.1761429 0.7279180884 -0.1284970492 0.6735159755
0.074539453 -0.021153091 1.149 -0.05459353328 0.7769707441 0.6271650791
0.33649832 -0.24575029 1.1687143 0.5544583201 -0.2775007784 0.7845822573
-0.10445659 -0.23146629 1.3540001 -0.2427400649 0.6896193624 0.6822773218
0.063792981 0.018272363 1.097 -0.03440478072 0.797462225 0.6023871899
-0.22371833 -0.17217311 1.2352002 -0.1360818595 0.3916836381 0.9099811316
0.11545075 -0.0054189689 1.1342224 0.00315585942 0.8196730614 0.572822988
-0.12531182 -0.055962369 1.1634002 -0.2104032934 0.7773823738 0.5927959681
-0.093418226 -0.0029125377 1.1067141 0.06271155179 0.7109457254 0.7004451156
0.23065859 -0.0062518022 1.126 0.4414802194 0.8295813799 0.3418916762
-0.066572025 -0.10123249 1.2270001 -0.1530673504 0.716286242 0.680811584
0.11488317 -0.062198751 1.2054288 -0.04262332618 0.7582431436 0.6505771279
0.2418364 -0.4942103 1.202 0.4419524372 -0.1836610138 0.8780356646
0.20537646 -0.094184563 1.2348573 0.1400506049 0.7289372683 0.6701017022
0.21021152 0.01453075 1.105 0.2975802124 0.8959085941 0.329839021
0.11530013 -0.3256399 1.3152144 0.2371160835 -0.4035744071 0.8836875558
0.26461184 -0.42462912 1.2039999 0.633921802 -0.1934853643 0.7488034368
-0.11486635 -0.012983215 1.1174999 -0.04515638575 0.6894325018 0.7229409814
0.26504216 -0.037175827 1.1743335 -0.1232864931 0.7420061231 0.6589593291
0.11846922 -0.38071179 1.312 0.2086206675 -0.3986919224 0.8930409551
-0.025284644 -0.039448421 1.1538 -0.1088317186 0.8068537712 0.5806398988
0.24787179 -0.25675681 1.2665 0.580109477 -0.3048980236 0.7553212643
0.16202804 -0.31433925 1.3038751 0.5705330968 -0.3194048107 0.7566191554
-0.13261737 -0.20679037 1.3219999 -0.6251186728 0.5272440314 0.5755348802
0.096339822 -0.46539545 1.2679999 0.1440994442 -0.1694694161 0.9749438167
-0.074694045 -0.052184876 1.1671333 -0.06525359303 0.7836882472 0.6177173257
-0.092434853 0.018105797 1.087 0.1167909354 0.6249749064 0.7718589306
0.34062797 -0.20292729 1.1810001 0.5656260252 -0.2041420639 0.7989951372
-0.024999755 -0.37452933 1.3470005 0.362765491 -0.2853307426 0.8871232271
0.16318098 -0.021153091 1.149 0.08882856369 0.8039340973 0.5880471468
-0.034691893 -0.14324161 1.2765 -0.1417115331 0.6737139821 0.7252774239
0.29790011 0.1619291 1.4100001 -0.5529103279 0.5712152123 -0.6066327691
0.24597901 -0.29504004 1.2582384 0.5412377119 -0.2965379953 0.7868462205
-0.13551074 0.014413978 1.09628 0.1523126364 0.4889979362 0.8588840961
0.12621458 -0.2674368 1.3455715 0.2313429564 -0.2769806087 0.9326103926
0.29150656 0.03119443 1.2270001 -0.6272751689 0.672375381 -0.3929849863
0.28678381 -0.20520313 1.2344617 0.822299242 -0.1252022982 0.5551111102
0.26410255 -0.21448281 1.2661176 0.7626820207 -0.2005454749 0.6148964763
-0.15512457 -0.063963808 1.1641667 -0.1400614977 0.7380568981 0.6600414515
0.27805936 -0.35523936 1.2060001 0.7226766348 -0.1599359065 0.6724276543
0.19536477 -0.43553793 1.2437274 0.509441793 -0.2825243473 0.8128032088
0.1775822 0.046513524 1.0455 0.2567817271 0.5967094898 0.760263741
