# .PCD v0.7 - Point Cloud Data file format
VERSION 0.7
FIELDS x y z normal_x normal_y normal_z
SIZE 4 4 4 4 4 4
TYPE F F F F F F
COUNT 1 1 1 1 1 1
WIDTH 512
HEIGHT 1
VIEWPOINT 0 0 0 1 0 0 0
POINTS 512
DATA ascii
-0.083618827 0.29382864 1.118077 0.6906358004 -0.2051268965 0.6935020685
0.13380387 -0.4634656 2.2120001 -0.116627939 0.6885224581 0.7157756686
0.33487439 -0.44057497 1.067 0.7274875045 0.02695538662 0.6855912209
-0.41416216 -0.13568257 1.739 0.9500030279 0.04049422964 0.3096037209
0.48666835 -0.035991549 1.7850001 0.01166548021 0.7198654413 0.6940156221
-0.17554145 -0.24635813 1.2427502 -0.444391191 0.1059792787 0.889541924
0.21901938 0.22688834 1.4960001 -0.9776588678 -0.07422041148 0.1966583133
0.26410657 0.0040494036 1.1042725 0.5716097951 0.09035252035 0.8155358434
-0.26430625 -0.4471482 2.0650001 -0.1344758719 0.6437021494 0.7533682585
0.22403128 -0.21708459 1.9810001 -0.0003405377211 0.7186213136 0.6954015493
-0.32264751 0.013703177 1.4210001 0.8573620319 0.03564595431 0.5134780407
0.15722667 -0.25806084 1.2780001 0.5849552751 -0.1667167544 0.7937460542
-0.19183482 0.00091786997 1.0470001 0.2227765769 0.5874516368 0.7779917717
0.37504709 -0.19738148 0.94781816 0.6941139102 -0.1014976948 0.7126739025
-0.48987168 -0.29358163 1.9470001 -0.04849030077 0.7515718937 0.657866478
0.045596018 0.085325964 0.95733339 0.07413365692 0.6019498706 0.7950852513
0.2004586 0.22429691 1.2360001 -0.7139174342 0.572384119 -0.4033588171
0.025554832 -0.074421808 1.1660001 -0.1909605712 0.7279042602 0.6585510373
0.15331936 -0.49533948 1.2229999 0.7697479725 -0.08881428093 0.6321392655
-0.086711101 -0.48365524 2.1980002 -0.1765681356 0.7255399823 0.6651431918
0.27935684 -0.20433521 1.126 0.8899775147 0.1106398255 0.4423786402
0.41131008 -0.18299101 1.9150001 0.04353834689 0.691641748 0.7209272981
-0.15061484 0.43234044 1.2360001 0.4956856966 -0.3681842089 0.7865977883
0.29599336 0.14294313 1.6470001 -0.04213743657 0.7583985329 0.6504276395
0.30495024 -0.035245508 1.748 -0.7688415647 0.4563015401 0.4479638338
-0.014023161 -0.26468712 1.3330001 -0.2383929044 0.5351853371 0.8103983402
-0.27201417 -0.12435166 1.1563333 0.2372476608 0.5311542749 0.8133810163
-0.33766133 -0.01293171 1.6390001 0.9497645497 0.3125810921 0.01550212968
0.24460873 -0.35494038 1.1747394 0.7293335199 -0.08534235507 0.67881459
0.079665333 -0.39139923 1.317 0.7564671636 0.03043698333 0.6533230543
0.20941375 0.31232566 1.365 -0.7716351748 0.5546224117 -0.3114051223
0.11518874 0.019827573 1.077 -0.09817545116 0.7849045992 0.611789465
0.14663565 -0.31680542 2.0650001 -0.03910029307 0.6953507066 0.7176061273
-0.1233172 -0.098047279 1.153 -0.2759536803 0.7153288126 0.6419923902
-0.048368331 0.16883285 1.041 0.7286759615 -0.225195393 0.6467753649
-0.037065469 0.0083397301 1.057 -0.1578384787 0.7711625695 0.6167619824
-0.38107648 0.084833287 1.5359999 0.8786528111 -0.1131169274 0.46386832
0.17295669 -0.072463334 1.1842 0.06884054095 0.6845188737 0.7257375121
0.33967501 -0.30153126 1.036 0.8843286037 0.1625099778 0.4376681745
0.30866554 -0.10386483 1.028 0.8081269264 0.03152569011 0.5881640911
0.18564235 0.12466593 1.135905 -0.7629765272 0.5586668849 -0.3252047896
0.055932336 -0.1665256 1.2651428 -0.1376054734 0.6452941298 0.7514387369
-0.11533765 0.081550166 0.97042865 0.08796340972 0.5904603004 0.8022587299
0.020791026 -0.43472147 2.1560001 -0.1765681356 0.7255399823 0.6651431918
-0.065331079 -0.18071294 1.245 -0.2012346387 0.6305491328 0.7496081591
-0.21496743 -0.4889082 2.1700001 -0.1336390078 0.6568059325 0.7421230078
0.24477109 -0.4720526 1.1471335 0.6369979382 -0.2173898518 0.7395777702
0.33517858 -0.26223817 1.9810001 -0.005193817895 0.7203663588 0.6935743093
0.23208873 -0.41661829 2.1700001 -0.03910029307 0.6953507066 0.7176061273
0.21653962 -0.1743042 1.2176428 0.7155774236 0.06780024618 0.695235312
0.15673997 -0.38538823 1.2350589 0.6686961651 -0.1873233616 0.7195522189
0.26398507 -0.098295964 1.125 0.929068923 0.191884622 0.3162455261
-0.27143878 -0.21266268 1.2190001 -0.2385845482 0.5282723308 0.8148654699
0.44108519 -0.10178889 1.8430001 0.02867589705 0.7048681378 0.7087584734
0.32265824 -0.20522898 1.0348334 0.8958425522 0.2155585885 0.3885880411
-0.12527654 0.35650322 1.1810001 0.5374101996 -0.4261039495 0.7277538776
0.38309181 -0.29407656 0.94700009 0.783673048 0.2341730148 0.5753429532
0.087186255 -0.37286037 2.1160002 -0.08373343199 0.694499135 0.7146045566
-0.20476916 -0.072787002 1.1069999 0.0571042262 0.6263434887 0.7774528265
-0.096429124 -0.28409329 1.2880001 -0.4599305391 -0.2436772734 0.8538649082
-0.18519203 -0.16156529 1.189 -0.1827288866 0.6225631833 0.7609370947
0.075046979 -0.29667079 1.3375835 0.3467083871 -0.2812675536 0.8948082924
0.22382176 -0.2704955 1.21 0.6459880471 -0.1017855182 0.7565310001
-0.11491259 -0.035533935 1.0841429 -0.219374314 0.6850854754 0.694645822
0.29407513 -0.30474389 1.1151363 0.8357378244 0.01791100018 0.5488364697
0.13111076 -0.13111076 1.2360001 -0.02854971215 0.6802029014 0.732467711
0.15050964 0.053690571 1.0040001 -0.3309136927 0.6229498982 0.7088226676
0.035712771 -0.0086868899 1.1010001 -0.1238230243 0.7807394862 0.612465322
0.10555615 -0.036860984 1.1440001 -0.09496489912 0.7287880778 0.6781221032
0.045236003 0.042520091 1.0320001 -0.09459587932 0.7894806862 0.6064419746
-0.30276823 -0.062012769 1.3870001 0.7396543622 -0.2461653501 0.6263498068
0.36702907 -0.38129592 1.0170001 0.8098563552 0.2244413495 0.5419951677
-0.045015257 -0.11725557 1.1942002 -0.1931791157 0.7345592976 0.6504647732
-0.043902993 -0.054216504 1.1243848 -0.2058481425 0.6852683425 0.6985942125
-0.034815121 0.065950871 0.98512536 -0.1251199394 0.7391804457 0.6617833972
0.18421558 -0.015947651 1.1244117 0.0246564094 0.7038960457 0.709874928
0.28693068 -0.39575508 1.1183333 0.7180210352 -0.09701302648 0.689227283
0.11988066 -0.32827133 1.2780001 0.4716183841 -0.3226473033 0.8206551075
-0.11441212 0.023442412 1.0234346 -0.1460274607 0.714753449 0.6839615703
0.18291648 0.079732835 1.0700001 -0.8970879912 -0.05479976535 0.4384406209
0.1189687 -0.44292551 1.27425 0.7569408417 -0.03335667402 0.6526315212
0.19514835 0.2580252 1.312 -0.6750668287 0.6001902819 -0.429017961
-0.063066997 0.23364687 1.0766363 0.6810588241 -0.3049344718 0.6657130122
0.19378892 -0.266682 2.0280001 0.006862781942 0.6970818639 0.7169587016
-0.004769404 -0.20442051 1.286077 -0.2545455098 0.6182022095 0.7436616421
0.19406614 -0.43473929 1.1936153 0.5889188051 -0.2395067215 0.7718880773
0.090990111 -0.088898383 1.1930001 -0.06653604656 0.6952555776 0.7156763673
-0.0074805962 0.13264342 0.98772734 0.4627300799 -0.2556732595 0.8488298059
-0.3531667 0.054706849 1.4770001 0.7676082253 -0.2067361474 0.6066612005
-0.11487341 -0.14621197 1.2038461 -0.2186689377 0.6552113295 0.7231057882
0.1937955 0.172958 1.1885 -0.6393297315 0.5967620611 -0.4849047363
0.024539944 -0.12269679 1.2169999 -0.07885873318 0.7200495005 0.6894273162
0.29137391 -0.052265406 1.0710001 0.8191136122 -0.1898434311 0.5413061976
0.1787874 -0.3196502 1.2360001 0.6671630144 -0.2048272789 0.7161977887
0.33900613 -0.15519717 0.98900002 0.7779709101 -0.05857137963 0.6255642772
0.29438916 -0.15554377 1.0728749 0.8804942966 0.2373167425 0.4103786051
0.34941041 -0.25317079 0.98900002 0.9138957262 0.1727948785 0.3673371077
0.2546621 -0.15452959 1.1644286 0.883965075 0.1386511773 0.4465216696
-0.11495993 -0.22270401 1.2669998 -0.2420592904 0.6706674695 0.7011508346
0.33147073 -0.36505413 1.0714999 0.8065415025 0.02275113016 0.5907394886
0.053852756 -0.22228585 1.307 -0.06342734396 0.6072075367 0.7920075655
0.26231912 -0.25548762 1.1621765 0.8052194715 -0.02272744477 0.5925412178
0.31108978 -0.24519825 1.0821818 0.8539318442 0.1168237999 0.5071021318
0.20344014 -0.37888393 2.1290002 -0.03910029307 0.6953507066 0.7176061273
0.26406339 0.19972308 1.529 -0.969460547 -0.1170551553 0.2155095935
0.19809818 -0.22565731 1.245 0.8229070306 -0.1227468848 0.5547586679
-0.20850903 -0.12188209 1.149 -0.1446026564 0.6454936266 0.7499520779
0.24364164 -0.41364855 1.1612221 0.6396619081 -0.1828442812 0.7465927005
-0.054474752 -0.2352934 1.2945 -0.194537282 0.6654666662 0.7206311822
0.094911084 0.070527121 0.9932 -0.2744168341 0.517907083 0.8102269173
0.21237111 0.03582849 1.0961429 -0.4170675874 0.5337996483 0.7356035113
0.28887537 -0.45353413 1.107 0.6971726418 -0.1331279129 0.7044339776
-0.29597932 -0.16629228 1.1930001 0.2791894078 0.5140500069 0.8110523224
-0.22937807 -0.24267536 1.2640001 0.127508834 0.6742300987 0.727430582
-0.14538094 -0.1938688 1.2270001 -0.2984954417 0.5940085649 0.7470303178
-0.0087315999 -0.16044314 1.245 -0.2316721976 0.6470699906 0.7263803482
-0.15356395 -0.2856741 1.2880001 -0.3807430863 0.400875479 0.8332667947
-0.21558762 -0.20246843 1.2182857 -0.1434265077 0.6446595192 0.7508947849
0.36848488 -0.33206996 0.98900002 0.8381381035 0.2596096098 0.4797159433
-0.28331324 -0.0085115563 1.3870001 0.7535515428 -0.03034935333 0.6566878557
0.032309551 -0.27403286 1.365 -0.3138010204 -0.5266993046 0.7900106311
0.11521907 -0.38522124 1.2749567 0.6262018085 -0.04073746875 0.7785960436
0.25085309 -0.20603788 1.1834 0.8304786682 0.01818848774 0.556753397
0.19929351 -0.36634058 1.2060001 0.6591872573 -0.1445370615 0.737957418
0.07632377 -0.12780631 1.2320002 -0.08296182752 0.7160030007 0.6931501031
-0.17419937 -0.040599309 1.077 0.005119569134 0.6459591985 0.7633547783
-0.14525315 -0.06921459 1.1120001 -0.1786103547 0.7233831882 0.666944623
0.39172271 -0.24569109 0.92800003 0.7153764367 0.105966635 0.6906573772
-0.25208977 -0.086663008 1.1251428 0.1032910123 0.5820610523 0.806558013
0.25864735 -0.30733392 1.1570001 0.7889509797 -0.05956237391 0.6115624905
0.19718225 -0.4837563 1.1758573 0.5922974944 -0.2355637848 0.7705150247
-0.244993 -0.16570103 1.1848259 -0.1366455108 0.6103547215 0.7802532315
-0.016817316 -0.020662813 1.0962501 -0.2546437979 0.7044644952 0.6624849439
-0.065989368 0.09369459 0.95504564 -0.05725004151 0.5981840491 0.7993111014
0.14951813 -0.43564636 1.2270001 0.7436408401 -0.09425495565 0.66190207
-0.067958325 -0.090272993 1.1570001 -0.1644250154 0.7489919066 0.6418532133
0.053207826 -0.041568611 1.138 -0.1214254424 0.7224671245 0.6806593537
-0.065511368 0.036927905 1.0137203 -0.1079834476 0.7849669456 0.6100544333
-0.0052316892 0.042110682 1.0246471 -0.1536736041 0.7944204211 0.587605834
0.28338003 -0.10514609 1.0719444 0.8960794806 0.1552956402 0.4158422947
-0.1115462 0.31499547 1.1545999 0.6518229246 -0.2500314116 0.7159686685
0.081663251 -0.34160542 1.312 0.7696276307 -0.2768025398 0.5753726363
0.16482794 0.017925614 1.0831175 -0.09784368426 0.7067161798 0.7006988525
0.095547892 0.048228938 1.0380001 -0.2686924934 0.6957650185 0.6661196947
-0.16196443 0.034344729 1.0151 0.1815971732 0.6066436768 0.7739546895
0.13507257 -0.007893905 1.1128182 -0.03134783357 0.7775140405 0.6280838251
-0.08803048 -0.00092663668 1.057 -0.1557445824 0.7086551785 0.6881507635
-0.095531121 -0.068237484 1.1234286 -0.1767164022 0.7477316856 0.6400536299
0.083859593 -0.011008595 1.1079999 -0.1750266254 0.7502117753 0.6376111507
0.34560752 -0.20424101 0.98591322 0.8926928043 0.05580232665 0.4471975565
0.10428432 -0.16419703 1.2654999 -0.06741984189 0.6311485767 0.772726357
-0.32532924 -0.034453526 1.424 0.5846375823 -0.2670537829 0.7660816908
0.0053164163 -0.046212807 1.1328235 -0.1567574292 0.700555861 0.6961670518
-0.14492761 -0.007466278 1.0500001 -0.07637663931 0.6967699528 0.7132168412
0.27438948 -0.14528181 1.1149545 0.9059733748 0.1562390327 0.3934483528
-0.15543155 -0.13015257 1.169 -0.2380068898 0.6582955122 0.7141426206
0.016523413 0.070441917 0.99200004 0.1131869555 0.8110738397 0.5738884211
-0.06452968 -0.027963908 1.0905001 -0.2202002555 0.6870380044 0.6924526095
0.27632138 -0.34490559 1.1338181 0.786002934 -0.004180468619 0.6182085872
0.21931833 -0.31586036 1.197 0.6472032666 -0.1232796237 0.7522832751
0.15465188 -0.03942107 1.153 0.008758741431 0.7477908134 0.6638766527
0.092056133 -0.41143456 2.1430001 -0.116627939 0.6885224581 0.7157756686
-0.17040296 -0.49589178 2.184 -0.1366696954 0.6781445742 0.7221089005
0.33355463 -0.25495493 1.0345558 0.8922738433 0.2067637295 0.4013678432
0.064928249 0.015426395 1.07335 -0.06130485609 0.8010812998 0.595407784
0.29042652 -0.25203115 1.123 0.8560398221 0.0482182987 0.5146560073
-0.14061558 0.39224344 1.2060001 0.5172649026 -0.3567160964 0.7779399753
0.015445782 0.013409745 1.0665715 -0.1195834726 0.7771755457 0.6178171039
0.18685012 -0.27554947 1.244 0.735357821 -0.2350511104 0.6356098056
0.22685504 0.006274011 1.13 0.1538331807 0.5606114864 0.8136646152
0.13449995 -0.09439522 1.2040001 -0.05546372756 0.705706358 0.7063301802
-0.01825746 -0.080129966 1.1570001 -0.2146763951 0.730543673 0.6482437849
-0.17502297 -0.095675983 1.1328573 -0.1578349769 0.7197291255 0.6760755181
0.43447232 -0.13431534 1.8730001 0.04353834689 0.691641748 0.7209272981
0.32107419 -0.31436241 1.0818461 0.8302918673 0.07589370012 0.5521373153
-0.48853564 -0.26357424 1.9150001 0.01349591184 0.7512443066 0.659886241
0.29810348 -0.20210218 1.0863999 0.8601057529 0.1889129132 0.4738460183
0.34755892 -0.34453842 1.0354446 0.864439249 0.1345208436 0.4844056964
0.31923378 -0.40499812 1.087 0.7529752851 -0.04455207661 0.6565389037
-0.22108132 -0.037640996 1.087 0.2206192911 0.5186046362 0.8260607719
0.082105093 -0.1934067 1.2880001 -0.03308293223 0.6623723507 0.7484440207
-0.35123476 0.014117841 1.4640001 0.6589468718 -0.295854032 0.6915630102
0.1243927 -0.065656774 1.1745239 -0.06082989648 0.7071137428 0.7044784427
-0.044777658 -0.14721423 1.2240909 -0.1534209549 0.6344159245 0.7576136589
0.34879059 -0.40478069 1.0470001 0.7706147432 0.1532896906 0.6185913086
-0.061424527 -0.26655927 1.322 -0.4281516969 0.3329441845 0.8401394486
-0.10515792 -0.17683421 1.2320002 -0.1922956407 0.618129015 0.762193501
0.31616995 -0.1451024 1.0245908 0.8550020456 0.1049877778 0.5078868866
0.16664258 0.042162579 1.041 -0.7365276217 0.5885672569 0.3333401978
-0.094278671 -0.11707445 1.1818 -0.1767242849 0.687699914 0.7041571736
0.01472305 -0.23466143 1.3155296 -0.1500536352 0.6386600137 0.7547166944
0.30447173 -0.35476455 1.1013477 0.7317508459 0.01085099578 0.6814858317
0.15270554 -0.30392307 1.2729999 0.6631114483 -0.2183224857 0.7159738541
0.22414134 -0.2247939 1.2132609 0.7214159369 -0.1000597998 0.6852350831
0.040207438 -0.45759895 2.184 -0.1765681356 0.7255399823 0.6651431918
-0.084404513 0.25500035 1.1056398 0.6062071919 -0.3069475293 0.733686626
0.18804544 0.2354753 1.273 -0.6943056583 0.6217339635 -0.362472862
0.1413625 -0.46792084 1.25 0.8036372662 -0.01997101121 0.5947842002
0.0052117831 -0.1011086 1.189 -0.1806418747 0.7485684752 0.6379762888
-0.07491862 0.06294588 0.98361123 -0.045024205 0.727555871 0.6845694184
0.2030886 0.31878754 1.404 -0.7716351748 0.5546224117 -0.3114051223
0.074620925 -0.064401314 1.1659602 -0.1129972413 0.7125726342 0.6924390793
-0.11846922 -0.26109236 1.312 -0.5779269338 0.02101607248 0.8158178329
0.3578245 -0.2944026 0.99650002 0.9094468951 0.2084517926 0.3597974181
-0.046945501 0.20757274 1.0500001 0.6307397485 -0.2902907431 0.7196517587
0.2586982 -0.034621321 1.097 0.6163989902 -0.2527546585 0.7457662821
0.17969914 0.097134665 1.108 -0.5049874187 0.7464672923 -0.4333292842
0.15443739 -0.34486091 1.2545241 0.6150388718 -0.2568585575 0.7454870343
0.26592872 -0.4355419 1.1338183 0.6904221177 -0.1786204875 0.701007843
0.051419131 -0.10178889 1.197 -0.1502635032 0.7080694437 0.6899699569
0.30488566 -0.065659322 1.0365556 0.7321571708 -0.03616666421 0.6801748872
-0.13548391 0.054314841 0.99400014 0.1510475576 0.6489722729 0.7456672192
-0.15065955 -0.24886726 1.273 -0.5867512822 0.168430388 0.7920569181
0.36712858 -0.23470858 0.95696139 0.8193744421 0.05001248419 0.5710729361
-0.075219162 -0.21046545 1.268 -0.2244285345 0.6409742832 0.7340189219
0.054473437 0.062130593 0.99260008 0.1607006192 0.9194849133 0.358779639
0.035065793 -0.19552349 1.2863336 -0.1499623954 0.7010418773 0.6971740127
0.22109096 -0.45349351 1.1730001 0.552025497 -0.2552469969 0.7937989831
0.012755499 0.10495955 0.97000021 0.3981343508 -0.05539194494 0.9156531692
0.33707044 -0.11781223 0.99757147 0.6905187368 -0.04707181081 0.7217811942
0.21526888 -0.39532474 1.186692 0.5614028573 -0.178259477 0.8081153631
-0.032135092 -0.18948624 1.2640001 -0.2420396805 0.5859102607 0.7733860016
0.20371249 0.28780508 1.3363335 -0.7061344385 0.5905096531 -0.3907333314
-0.012235308 0.09612903 0.99687505 0.7773536444 0.07497882098 0.6245794892
0.18214396 -0.40406823 1.2118889 0.5504748225 -0.2552338243 0.7948793173
-0.026343694 0.15586317 1.0104738 0.649504602 -0.2567275465 0.7157057524
0.25313574 -0.11846834 1.155 0.8840462565 0.1861193925 0.4287444949
0.13466196 -0.41499695 1.2542633 0.8053402305 -0.04372409731 0.5911982059
-0.078237236 -0.14061558 1.2060001 -0.2322348952 0.6665401459 0.7083722353
0.17343356 -0.46414271 1.202842 0.7127344608 -0.1455094516 0.6861753464
-0.24085189 -0.22789125 1.2320001 -0.2184937745 0.6033971906 0.766923964
-0.014573206 -0.12587969 1.2124287 -0.2139451355 0.7006546259 0.6806692481
0.034639996 -0.14535731 1.2437693 -0.1027523428 0.6676306129 0.7373678684
0.26531908 -0.38493681 1.1452668 0.7772215009 -0.1103537679 0.6194745898
0.186197 0.14486636 1.1670001 -0.6987608671 0.586606741 -0.4094212055
0.32497653 -0.27517343 1.0631599 0.9002338052 0.1467738301 0.4099226296
-0.21492097 -0.14910784 1.1730001 -0.1219020635 0.6391820312 0.7593327165
-0.14598279 -0.16410074 1.2054287 -0.3291963935 0.6026211977 0.7269645333
-0.35844928 0.074598633 1.506 0.8656489849 -0.1356357634 0.4819281399
0.23741412 -0.15433581 1.1952858 0.7977954745 0.1657085419 0.5797094107
-0.20489599 -0.22701751 1.2410001 -0.1521214247 0.5312722325 0.8334320188
0.36095142 -0.1683498 0.96500009 0.7157307267 0.004628751893 0.6983609796
0.10456237 -0.11263278 1.2184443 -0.1612058133 0.7031485438 0.6925278306
0.24309513 -0.28444755 1.1848094 0.7724135518 -0.1136033908 0.624877274
0.20682466 -0.24432261 2.0050001 0.03097365238 0.6919513941 0.7212793827
0.11647903 0.045434121 1.0105716 -0.179595992 0.513681531 0.8389735222
0.014425348 -0.17678942 1.2658461 -0.09705103934 0.6414760947 0.7609792948
0.30932218 -0.17255956 1.0470001 0.9071503878 0.2121526599 0.3634135127
-0.084465079 -0.24997097 1.302 -0.141905427 0.6297211051 0.7637500763
-0.1748189 -0.21246858 1.2340001 -0.1480649412 0.6634830832 0.733394146
-0.17525761 -0.18482062 1.2116002 -0.1949861348 0.6505359411 0.7340186834
0.26679772 -0.21543571 1.1552856 0.8724244833 0.03968942165 0.4871347249
-0.24513328 -0.19227028 1.2060002 -0.170235768 0.6617171764 0.7301713228
0.28514123 -0.17510186 1.1041578 0.8890483379 0.2180716544 0.4025391638
0.12828088 -0.44611111 2.184 -0.116627939 0.6885224581 0.7157756686
-0.21471603 -0.17596561 1.1947502 -0.1288368553 0.6416296363 0.7561166883
-0.14426114 -0.21725617 1.2507143 -0.3002200127 0.6628796458 0.6858997941
-0.12564261 -0.27097189 1.278 -0.3733280301 0.01013835054 0.9276440144
0.20088728 0.0067915362 1.107 -0.5544648767 0.5486239791 0.6257638931
0.32642934 -0.1749358 1.0152223 0.8580582142 0.1300908178 0.4968022108
0.30050203 -0.27572834 1.101 0.8206724524 0.06355705857 0.5678531528
0.24159443 -0.24368615 1.1930001 0.7911034822 -0.06230263412 0.6085011959
0.2774834 -0.28444371 1.1345001 0.8242006302 0.006876249332 0.5662561655
0.26788017 -0.087535173 1.09425 0.9130395651 0.1598148346 0.3752572834
0.3189401 -0.23170562 1.053 0.9281640053 0.1799924225 0.3257518709
0.095010027 -0.36455312 1.2936666 0.6774142981 -0.06871152669 0.7323855162
0.13065577 0.039845377 1.057 -0.01648270898 0.8384627104 0.5447096229
-0.01569039 -0.23391588 1.3052143 -0.2944488525 0.6547682881 0.6961166263
-0.028377481 0.091061339 0.96625006 -0.4129353166 0.242947951 0.8777589202
-0.075912319 -0.29329759 1.312 -0.5636879802 -0.119366087 0.8173173666
0.20205404 -0.29406512 1.2229999 0.7086558938 -0.1369284987 0.6921396852
-0.09485019 0.044165026 1.0036399 -0.07718193531 0.7387753129 0.6695177555
0.17619115 -0.2350567 1.267 0.6440877914 -0.1053965837 0.7576559186
-0.12526497 -0.12196308 1.177 -0.3258282244 0.6690915823 0.6679463983
0.10158638 -0.31845617 1.302 0.7435414791 -0.3659465611 0.559668839
0.1977015 0.19770147 1.2190001 -0.7229167223 0.5542169213 -0.4125954211
0.17856123 -0.35497108 1.2270001 0.6335434318 -0.1941420883 0.7489536405
-0.23538865 -0.06528949 1.105739 0.1401573867 0.5983834267 0.7888556123
-0.21595807 -0.0980727 1.13 0.0190682523 0.6709864736 0.7412243485
-0.073671058 -0.048881929 1.1120001 -0.1961303502 0.7202632427 0.6653974652
0.15671504 0.066325091 1.0807999 0.2868761718 -0.2317943275 0.9295017123
0.37285662 -0.26543704 0.95460606 0.8305040002 0.1344504505 0.5405424237
-0.24142873 -0.13650665 1.1620001 -0.02891522273 0.6313104033 0.7749910355
0.2823869 -0.016835215 1.087 0.6463665366 -0.2416287214 0.7237581015
0.33511183 -0.22507297 1.0144349 0.8944831491 0.168393299 0.4141781926
0.27233925 -0.17516455 1.133579 0.8938683867 0.1723402143 0.4138818383
-0.14484636 -0.05098211 1.087 -0.1302428842 0.6802642345 0.7213025689
-0.0353637 0.043803681 1.0139645 -0.1502285004 0.7901123166 0.5942675471
0.31365383 -0.44466463 1.0908 0.6455134749 -0.08289963752 0.759236455
0.096019246 -0.40336427 1.2936667 0.7644509077 0.02700017765 0.6441163421
0.18651959 0.040712401 1.08 -0.4647810161 0.2227127403 0.8569583893
-0.30278665 -0.028309319 1.404 0.7020852566 -0.2784410715 0.6553982496
-0.064996563 0.014824785 1.0442402 -0.1362203211 0.7634673715 0.6313173771
-0.27429464 -0.15482917 1.1747779 0.2064620256 0.5398232937 0.8160663247
-0.27598432 -0.19203471 1.197 0.03980763257 0.5338727236 0.8446273208
0.20791027 -0.40447998 2.1560001 -0.03910029307 0.6953507066 0.7176061273
-0.17534196 -0.066261195 1.1028823 -0.008423177525 0.691372335 0.7224495411
-0.11526502 -0.014116508 1.0625556 -0.2420933396 0.6589443684 0.7121679187
0.0622258 -0.26924625 1.365 -0.1657101661 -0.6472223401 0.7440721393
0.12783553 -0.35571629 1.268 0.6568610668 -0.1532801241 0.7382674217
0.10412433 -0.14123364 1.245 -0.1170015484 0.6592435837 0.7427708507
0.30100349 -0.1371545 1.0500001 0.8753258586 0.1789372563 0.4492060244
-0.16776595 -0.27041221 1.2590001 -0.4852171838 0.247293517 0.8386955261
-0.18466616 -0.13467988 1.1637999 -0.134999603 0.6430012584 0.7538729906
-0.20503618 -0.25555983 1.25 0.2592915893 0.4007558525 0.8787278533
0.34681281 -0.37501216 1.0447828 0.8678606153 0.07713039964 0.4907839298
-0.034305278 -0.21651693 1.2830001 -0.2464497089 0.6442757249 0.7239967585
0.37184247 -0.30534464 0.97252375 0.8285131454 0.3043936491 0.4700111747
0.33238825 -0.33484316 1.0633159 0.8750004172 0.1248965561 0.4677339792
-0.12283853 -0.078260034 1.13 -0.2505465448 0.746384263 0.6165524721
-0.028657941 0.1261503 1.011 0.654353857 -0.1924126893 0.7312991023
0.2612918 -0.18693031 1.1619999 0.8697511554 0.09567127377 0.484128058
0.2106104 -0.20196997 1.2320001 0.8223443627 -0.005227337126 0.5689660907
0.27900121 -0.12495918 1.0936667 0.9204084277 0.1591867954 0.357082516
-0.11896805 -0.20300969 1.245 -0.27585572 0.6073474884 0.7450051308
0.033445537 -0.24816294 1.3340001 -0.2787537873 0.7379462123 0.6145988107
0.22336651 -0.34483609 1.193 0.6156326532 -0.1687837839 0.7697457075
-0.045097191 -0.075710066 1.1455717 -0.1681508273 0.7609538436 0.6266374588
0.24452251 -0.32492271 1.1757201 0.7065674663 -0.1174363866 0.6978331208
0.2082597 -0.24587169 1.2258002 0.795265913 -0.1456577629 0.5885031819
-0.03461045 -0.096211895 1.1750001 -0.1722183377 0.7175198197 0.6749119759
0.28556547 -0.42508352 1.1149999 0.7249245644 -0.1352548599 0.6754187942
-0.11585045 -0.24479899 1.2880001 -0.3203362823 0.5898420811 0.7412631512
0.20338498 -0.33437026 1.2125555 0.6251186728 -0.2207249105 0.7486702204
0.085118189 0.028196229 1.057 -0.1456481516 0.7726206779 0.6179351807
0.23300321 -0.19517608 1.2034285 0.7714960575 0.0007468051044 0.6362336278
0.015637824 0.032186717 1.0420589 -0.1054811701 0.7894601226 0.6046705246
0.29424071 -0.2247708 1.1038946 0.8665171266 0.1201042458 0.4844822586
0.21771753 -0.42511672 1.177 0.5603964329 -0.2105775625 0.8010074496
0.12894854 -0.29741722 1.2880001 0.4022949934 -0.02792999335 0.9150839448
0.075769983 -0.1080074 1.2110909 -0.077718243 0.6890785694 0.7205072045
0.10906873 0.00096520997 1.1010001 -0.09937746078 0.7866406441 0.6093608141
0.35715294 -0.32483253 1.0144349 0.8792347908 0.1851939708 0.4389183521
0.28856376 -0.084930792 1.0521538 0.8619022369 0.087100178 0.499537915
-0.19338769 -0.022422796 1.0656667 0.1692485511 0.6048806906 0.7781222463
0.27685481 -0.31470051 1.1360003 0.7979018092 -0.03970876709 0.6014781594
0.047788415 -0.29322964 1.3460001 0.1135418117 -0.4555826187 0.8829228282
0.346957 -0.27510163 1.0146958 0.9049997926 0.1867083907 0.3822503686
0.0059402934 -0.13851684 1.2320002 -0.1803493053 0.6697303057 0.7203717828
0.17285442 -0.49168086 1.1950001 0.7509240508 -0.09380468726 0.6536923647
-0.16462068 0.0066361562 1.0347202 0.1467511058 0.591185987 0.7930720448
0.26849848 -0.46296239 1.126 0.7007895112 -0.1739490628 0.6918350458
0.015142662 -0.026862675 1.1141667 -0.1366690844 0.7099403739 0.6908735037
-0.034406189 -0.2519272 1.317 -0.1804023683 0.611525476 0.7703840733
-0.33743954 0.0383454 1.4580001 0.6703297496 -0.242608875 0.7012838125
-0.10699453 0.34509513 1.1623334 0.5770163536 -0.3362533748 0.7443022132
-0.37345648 0.10366408 1.516 0.8656489849 -0.1356357634 0.4819281399
0.16510397 -0.0029138939 1.1078333 -0.04994523525 0.7502844334 0.6592258215
0.15451513 -0.46516156 1.2239999 0.8068631291 -0.03601770476 0.5896393657
-0.063945435 -0.007909663 1.0704286 -0.1908411235 0.73631984 0.6491631269
-0.24442343 -0.11073878 1.138 0.05614253506 0.5821973085 0.8111068606
-0.012887 0.021171499 1.0500001 -0.1906174123 0.7713071108 0.6072481871
-0.095329359 -0.085564986 1.1457275 -0.1624010801 0.770521462 0.6163786054
-0.091105826 -0.22832696 1.2830001 -0.1677062213 0.6536929011 0.7379432321
0.055649702 -0.078944929 1.1810001 -0.1134796143 0.7122687697 0.6926727891
0.18168478 -0.039147548 1.1450001 0.1576862186 0.7164645195 0.6795687079
0.20839068 0.25432625 1.2780001 -0.6832888722 0.6193083525 -0.3867472708
0.11515781 -0.41515565 1.2753686 0.6874422431 0.01122205239 0.7261523008
0.23480095 0.023480445 1.1075908 0.1765776277 0.5965383053 0.7829191685
-0.014198725 0.0032130755 1.0723683 -0.1951085776 0.7677262425 0.6103516221
0.37183815 -0.36133921 0.99800003 0.8143523932 0.2326613963 0.531694293
0.025239289 0.05440012 1.013097 -0.1364705712 0.7686072588 0.6249949336
0.24485962 -0.38506046 1.164125 0.6579432487 -0.1152996048 0.7441886067
-0.01763678 -0.042134646 1.1176666 -0.2618894279 0.7130231857 0.6503936052
0.1719383 -0.43409142 1.2106668 0.6161421537 -0.1615741253 0.770884335
-0.075590268 -0.1622306 1.2270001 -0.24921 0.6245155931 0.7401855588
-0.14445713 -0.029079033 1.0700001 -0.07715900242 0.7014094591 0.7085698247
0.24371029 -0.44551864 1.1549999 0.6285197139 -0.2007209808 0.7514479756
-0.093645096 0.09336222 0.95799994 0.1016652361 0.5978350043 0.7951461673
0.13536628 -0.025432771 1.1341906 -0.03796861321 0.7291911244 0.6832559109
0.24339335 -0.010752317 1.115 0.5803511739 0.14180547 0.8019250035
-0.11540054 -0.055335633 1.1033999 -0.2349326909 0.7267363667 0.6454927325
0.075958781 -0.32486987 1.3330001 0.4483766556 -0.3888250589 0.8048437238
0.10566653 -0.017043212 1.1232308 -0.1105115488 0.7295290232 0.6749626398
0.055033073 -0.02267619 1.1185001 -0.111574918 0.7510514855 0.6507478356
-0.14543925 -0.091310337 1.1374285 -0.2113599926 0.739883244 0.6386703253
-0.017940983 -0.061800618 1.1370001 -0.2571294904 0.6639636159 0.7021657228
0.31217426 -0.20573437 1.0635 0.9186403751 0.1918351799 0.3453971148
0.044661369 0.025702113 1.0532631 -0.1121920645 0.8059689403 0.5812289119
-0.33472311 0.0043850197 1.4449998 0.6968416572 -0.2392687201 0.6761377454
-0.013601922 0.060989261 1.001 -0.1594326198 0.7669855356 0.6215419769
-0.03505335 0.025290567 1.0352502 -0.1476328373 0.7666990161 0.624801755
0.066480555 -0.14720695 1.25 -0.07015464455 0.6698431969 0.7391809225
-0.32124925 -0.052926119 1.404 0.6396551132 -0.3055277169 0.7053326964
-0.13678037 -0.14280286 1.189 -0.3391604722 0.6485130191 0.6814697385
0.28939205 -0.36787128 1.1190001 0.7676126957 -0.06790460646 0.637306571
-0.034432657 -0.16716088 1.243 -0.193483457 0.6714334488 0.7153609395
0.13542733 -0.38497317 1.2576671 0.6853125095 -0.1845737994 0.7044709325
0.26269686 -0.3543362 1.1545999 0.7568769455 -0.08188688755 0.6484071612
0.054026529 -0.12170812 1.219 -0.1263410449 0.7082223296 0.6945927143
0.16696604 -0.28569728 1.2582726 0.6691044569 -0.2837832868 0.6868524551
0.13712381 0.037920214 1.0250001 -0.1622763574 0.8482839465 0.5040642023
0.073734678 0.073734686 0.97800004 -0.1641533077 0.598736167 0.7839443088
0.0051304125 -0.0073896628 1.0907273 -0.1390238702 0.7667270899 0.6267391443
-0.03871097 -0.01038587 1.077 -0.1653400064 0.7436211109 0.6478351355
0.35944474 -0.27417603 0.977 0.8912228346 0.1708118767 0.4201727808
0.13532674 0.011373485 1.0913334 -0.05035377666 0.7584685683 0.6497614384
-0.09841986 0.27935335 1.1340001 0.7036280632 -0.2399434149 0.6688308716
0.37908643 -0.22120228 0.93800002 0.763985455 -0.04744560644 0.6434866786
0.30420128 -0.38525966 1.101909 0.7089930177 -0.006726979278 0.7051833868
-0.08560212 -0.02197415 1.0764287 -0.2159101069 0.6962035894 0.6846045256
0.19202362 -0.25128043 1.2516667 0.7367872 -0.2006992847 0.6456503868
-0.16633873 -0.0195146 1.0600001 0.04221237451 0.6840395927 0.7282224894
0.30260295 -0.32553864 1.1023332 0.7575746179 0.03760373965 0.6516644955
-0.1152466 0.0031469411 1.0433335 -0.220334813 0.7373695374 0.6385442019
0.17382483 -0.055360507 1.1650001 0.1034418494 0.7161911726 0.6901956201
0.024963813 -0.055127293 1.1466669 -0.1699483246 0.6873482466 0.7061656713
-0.13505809 0.032705903 1.0115883 0.06461856514 0.6453174949 0.7611765265
-0.095132306 -0.1960284 1.2509375 -0.242731303 0.6223490238 0.7441526651
0.011296433 -0.26137611 1.3330001 -0.2800287902 0.719815433 0.635176897
0.27809912 -0.23410302 1.1363333 0.8679661155 0.0810521096 0.4899646938
0.33174822 -0.30479947 1.0600001 0.8947206736 0.1186376363 0.4305810332
0.084203839 -0.028728366 1.13 -0.1344589144 0.7253613472 0.6751086712
0.071888417 0.039129138 1.0380001 -0.2376278937 0.7637031078 0.6002420783
0.15799287 -0.40895844 1.2260001 0.6198767424 -0.2168139964 0.7541515231
0.35714123 -0.19465236 0.96537524 0.7029349804 -0.03965268284 0.7101479173
-0.029653249 0.17612496 1.0250001 0.6769441962 -0.2650775313 0.6866443157
0.14472146 -0.075019911 1.1858419 -0.02112885006 0.6919274926 0.721657753
-0.18510439 -0.11350689 1.1471335 -0.1155982986 0.6849839687 0.7193288803
0.27825764 -0.074838288 1.0754999 0.8980767727 -0.03175413236 0.4386909604
0.14426863 -0.11167463 1.219 -0.03509226441 0.6801436543 0.7322384715
0.32199174 -0.34542352 1.0834666 0.7987446785 0.04147889465 0.6002386212
0.06431666 -0.0028816035 1.0949999 -0.0862210542 0.7672122121 0.6355716586
0.24633232 -0.17502433 1.1851817 0.8570168018 0.03215166926 0.5142844319
-0.19399069 -0.051322442 1.087 0.09300563484 0.6572490335 0.7479128838
-0.085315451 0.02693725 1.0244 -0.1304148883 0.7747277021 0.6186993718
-0.054754306 0.074403122 0.9734515 -0.08578642458 0.6855929494 0.722912848
-0.037395094 -0.27228302 1.3330001 -0.2114762664 0.5900332928 0.7791908979
0.26337573 -0.12522781 1.1337143 0.9235577583 0.1720695049 0.342685163
0.0050598281 -0.067804031 1.1543332 -0.1666938812 0.6949798465 0.6994398832
-0.064462774 -0.065614246 1.131263 -0.1550705582 0.7194625735 0.6769983172
0.084694326 0.0076116575 1.0855 -0.1388899386 0.7851177454 0.6035724878
-0.065089487 -0.10558888 1.1758573 -0.1506849676 0.7297819257 0.6668675542
0.1924932 0.018105797 1.087 -0.5011315942 0.4866041541 0.7156001329
0.21359952 0.33276132 1.3870001 -0.7716351748 0.5546224117 -0.3114051223
0.044373848 0.0050716694 1.0829129 -0.1497868598 0.7795715332 0.6081382632
0.077719748 -0.36559504 1.3120002 0.7220154405 0.01076462399 0.6917931437
-0.045959082 -0.03517751 1.1042379 -0.2045123279 0.695902288 0.6884000897
0.39266458 -0.27442011 0.93664998 0.6380208731 0.1883418858 0.7466302514
0.058940053 -0.18732965 1.2846667 -0.1122551039 0.6626675725 0.7404528856
0.13410468 -0.44519228 1.2538891 0.8076028228 0.03027169593 0.5889493823
-0.055213619 0.055447217 0.99540907 -0.1240808889 0.7539240718 0.6451374888
-0.055405334 -0.19724299 1.2640001 -0.1642537266 0.5984635353 0.7841314673
-0.13892537 0.41250145 1.2190001 0.4956856966 -0.3681842089 0.7865977883
-0.095636055 -0.04220809 1.097 -0.2146116644 0.6958518028 0.685370028
0.14483373 0.026328659 1.0727999 -0.06743395329 0.7294330001 0.6807203293
0.35219207 -0.42467487 1.0600001 0.7617747784 0.0559842065 0.6454184055
0.20179376 -0.41359818 1.202 0.5943173766 -0.2293797284 0.770825386
0.12442552 -0.046736158 1.1548946 -0.05582082272 0.736115694 0.6745500565
0.35329345 -0.22517496 0.97393948 0.8392481208 0.1151010618 0.5314267278
-0.10493858 0.064534657 0.98346454 0.01264379639 0.668985486 0.7431679368
0.16503102 -0.31447068 1.254741 0.6850051284 -0.2660367787 0.678227365
0.035642512 0.068712883 0.9780001 0.1594884694 0.7908124924 0.590913713
0.29930189 -0.18033648 1.077 0.8699301481 0.2405973822 0.4305048585
0.22172302 -0.37337318 1.193 0.5591264367 -0.1672561467 0.8120363355
0.25401309 -0.23491354 1.1748184 0.81747365 -0.008783258498 0.5758990049
-0.36590663 0.048525251 1.4960001 0.7971811891 -0.2004507333 0.5694924593
0.02601881 -0.21700197 1.3045001 -0.1579196006 0.6297807693 0.760550797
0.17846566 -0.3772358 1.2190001 0.5788341165 -0.1811986268 0.7950585485
-0.12504628 0.37582716 1.1946 0.4466083944 -0.4537372589 0.7711442709
0.24488382 -0.13553253 1.1744738 0.8487536907 0.1819307208 0.4965062141
-0.14558397 -0.11289637 1.1562499 -0.2573676705 0.6688066125 0.6974665523
0.33597496 -0.39481878 1.0641154 0.8164978027 0.03596704081 0.5762271285
0.25754666 -0.28518438 1.1650001 0.7892043591 -0.06552480906 0.6106250882
0.2222444 -0.4743247 1.162143 0.5398967266 -0.2767536938 0.7949332595
0.31399131 -0.28472376 1.0840499 0.8138332367 0.116612643 0.5692775249
0.15433995 -0.016287848 1.1238824 -0.01464926451 0.7549242973 0.6556482911
0.084877387 -0.17422618 1.2739376 -0.01995165832 0.665550828 0.7460858226
0.11570158 -0.081824996 1.189 -0.1393039972 0.6800959706 0.7197665572
0.2951341 -0.11478414 1.0533478 0.8694570065 0.1241659597 0.4781499207
0.30105779 -0.41460159 1.101 0.6718294024 -0.1103204861 0.7324442863
0.094187893 -0.071844295 1.1763334 -0.1263864487 0.6462054253 0.7526254058
-0.16514166 -0.22751296 1.2525001 -0.3339115381 0.5350505114 0.7760309577
0.14556488 -0.32486287 1.2656 0.6322865486 -0.2896264195 0.7185612321
0.26447448 -0.41462734 1.1440003 0.7536844015 -0.151094079 0.6396329999
0.10749476 -0.34574467 1.2880001 0.6226655841 -0.11066062 0.7746236324
-0.14453693 0.01695561 1.0258571 0.03313434124 0.6525216699 0.757045269
0.044629347 -0.061872505 1.1570001 -0.1491830349 0.7181507349 0.6797087193
0.075093888 -0.044412144 1.1450002 -0.1174389869 0.7294040322 0.6739271879
-0.067023501 0.25651598 1.0904446 0.6158341765 -0.3071560264 0.7255366445
0.33771655 -0.18548162 0.99800009 0.8725438714 0.09464599937 0.4792799652
-0.0046363394 -0.24511477 1.3226001 -0.2249723226 0.6186596155 0.7527600527
0.01578 -0.15714251 1.25 -0.1379147321 0.6254509687 0.767978251
-0.10175996 0.30228695 1.138 0.7355003357 -0.1827915013 0.6524006128
-0.16439325 -0.14687315 1.1820909 -0.2139902711 0.649107933 0.7299774289
-0.094754249 -0.15484671 1.2167083 -0.1779498011 0.6565051675 0.7330312729
-0.1248131 -0.16382712 1.2146845 -0.3357216716 0.5999974012 0.7261501551
0.32395449 -0.10449468 1.0109092 0.7518694401 0.01439737715 0.6591548324
0.054416601 0.056406699 1.0162402 -0.01071710605 0.8901477456 0.4555459321
0.0267471 -0.038634699 1.13 -0.164310813 0.7260788083 0.6676911712
-0.31544131 -0.013962847 1.4222002 0.7528387308 0.02813271992 0.6576035023
-0.012189173 -0.17840517 1.2640001 -0.25503546 0.6232585311 0.7392602563
0.13780674 -0.27897462 1.2780001 0.5645257235 -0.1358683407 0.8141562939
0.094330207 -0.05172947 1.1570001 -0.1190157905 0.7314603329 0.6714171767
-0.014232379 0.074972138 0.98306918 -0.4745282829 0.5111196637 0.7166447043
0.28448552 -0.1554361 1.0931334 0.9010844827 0.2044323385 0.3824319243
0.21569678 -0.29474455 1.2050587 0.6489164233 -0.1290856898 0.7498295903
0.16210355 -0.36119717 1.2410001 0.674559772 -0.2347629368 0.6998967528
0.07739915 0.056527469 0.99200004 -0.09720306844 0.7161409259 0.6911539435
-0.13481353 -0.23312591 1.2676923 -0.3405589461 0.5839250088 0.7369200587
-0.19406156 -0.19835022 1.223 -0.1603860408 0.6306541562 0.7593100071
0.20189194 -0.46176314 1.1810001 0.56245929 -0.246431306 0.7892472148
-0.0045540328 -0.088877097 1.1730002 -0.1880753785 0.7275808454 0.6597376466
0.28795791 -0.13415307 1.0734444 0.8954542279 0.1895599812 0.4027762711
0.03473397 -0.086574785 1.1826667 -0.1501996368 0.7108127475 0.6871574521
0.23737513 -0.30612856 1.1882499 0.7130237222 -0.1532201916 0.6841934919
0.34114611 -0.32515427 1.0444 0.8842692375 0.1233144253 0.4504014254
0.30018032 -0.24998939 1.1010001 0.8595027328 0.06123651937 0.5074496269
-0.18543324 -0.084300362 1.1168 -0.07084256411 0.6735812426 0.7357103229
-0.085126378 -0.10217559 1.1667778 -0.1257203072 0.7511821985 0.6480121017
0.21832418 -0.24687022 1.2060001 0.6924706101 -0.1145813987 0.7122889757
0.30624399 -0.30457905 1.0950869 0.7507301569 0.06141982973 0.6577475667
