# .PCD v0.7 - Point Cloud Data file format
VERSION 0.7
FIELDS x y z normal_x normal_y normal_z
SIZE 4 4 4 4 4 4
TYPE F F F F F F
COUNT 1 1 1 1 1 1
WIDTH 512
HEIGHT 1
VIEWPOINT 0 0 0 1 0 0 0
POINTS 512
DATA ascii
0.48453483 -0.4636538 1.6240001 0.4218405783 -0.2630991042 0.867657423
-0.39501196 -0.30606887 2.9840002 0.003801639425 0.8814554214 0.4722519517
-0.3520062 0.33208132 1.8940001 0.3714375198 -0.2341507673 0.8984473348
0.38932154 0.13918748 2.3010001 0.02635607682 -0.9526870251 -0.3028081059
-0.22597398 -0.33094254 1.6630001 -0.1061236709 0.5898122191 0.800536871
-0.47635874 -0.01905435 2.4150002 0.7107223272 0.5767143965 0.4028327763
0.21363693 0.12504451 1.5790001 -0.7732613683 0.1725972742 0.6101451516
0.10299606 -0.15364985 1.9260001 0.6125754714 0.03134104982 0.7897905111
0.16498429 0.32128519 1.9810001 0.2723023295 -0.9069340825 0.3214374483
-0.20499054 0.084690601 1.5772502 0.6282227039 -0.197719112 0.7524914145
-0.042914588 0.47649989 1.6880001 0.4307909012 -0.2461259365 0.8682402968
0.13469282 -0.49387372 1.7659999 0.297624439 0.2602694631 0.9185202718
0.35237792 -0.15909046 1.6960001 0.6559489369 0.0684633255 0.7516939044
-0.2967692 0.13976872 2.184 -0.264847815 0.899197042 0.34828192
0.47334653 0.30776522 2.0530002 -0.1640403271 -0.9273665547 -0.3362766802
-0.091322362 0.21751328 1.8940001 0.3251382113 -0.2594772577 0.9093716145
-0.12611376 -0.094455577 1.7760001 -0.2471321821 0.807674706 0.5353384614
-0.49485028 -0.18678172 2.7670002 0.003801639425 0.8814554214 0.4722519517
0.20648569 -0.095008746 1.4450001 -0.1349703074 0.7193995714 0.6813569069
-0.035255149 -0.37101847 1.9150001 0.8510133028 -0.1099616736 0.5135024786
-0.0013114933 0.17180562 1.4960001 0.1967900246 -0.4831294417 0.8531469107
0.09604498 -0.012196186 1.7390002 -0.04771037772 0.8074162602 0.5880499482
0.29151708 -0.37062222 1.6710001 0.04003455117 0.1927274764 0.9804353118
-0.32435352 -0.040357351 1.705 0.7347313166 0.3755187094 0.5649386048
-0.0033208132 0.41427147 1.8940001 0.910777092 0.3324007094 -0.2449384332
0.17165485 -0.30516416 1.8130001 0.6594334841 -0.749066174 0.06361842901
0.30485117 0.024027679 1.7130001 0.02598541044 0.8344846368 0.5504181385
0.24343337 0.19333363 2.1980002 -0.08003016561 -0.976642549 -0.1994102746
0.28505507 0.35337594 1.8430002 0.1434355229 0.4492170811 -0.8818334341
-0.12591125 -0.21320972 1.9150001 -0.1392622739 0.9147850275 0.3791758418
-0.034168959 0.041287493 1.6240001 -0.1772089601 0.8829092383 0.4348197877
0.38456911 -0.48421457 1.7760001 0.2052551806 -0.1812141538 0.9617856741
0.23652817 -0.097487964 1.8230001 0.5447708368 -0.5574739575 0.6264563203
0.45049006 -0.29886881 1.6630001 0.9768937826 0.213724643 0.0005886327126
0.35572276 -0.10251652 1.5266001 -0.3832419813 0.671448648 0.634257257
-0.04137516 0.31720957 1.748 -0.2989829183 0.7887910008 0.537045598
-0.23079301 -0.33452022 2.9580002 0.003801639425 0.8814554214 0.4722519517
-0.097536176 -0.33905435 1.766 -0.7417297959 -0.2238050401 0.6322563887
0.28155318 0.33774164 2.0900002 0.2140249461 -0.9269816875 -0.3080556095
-0.24335127 0.22701897 1.863 -0.2984957099 -0.069051072 0.9519097805
0.054793421 0.25736302 1.8940001 0.05147840083 -0.9911673069 0.1222186312
0.044000775 -0.4972918 1.8940001 0.7880285382 0.3427847326 0.511380136
0.16813064 0.047487281 1.4640001 0.6702207327 -0.4202643931 0.6117041707
0.0080346502 -0.088381149 1.8330001 -0.3774565756 0.6693075299 0.6399640441
0.0029456001 0.33638752 2.016 0.3001000881 -0.4741298556 0.8277323246
-0.18515289 -0.034017589 1.6630001 -0.2231167853 0.7953490615 0.5635945201
0.10535429 0.057660121 1.6240001 0.1456116736 0.8985304832 0.4140534103
0.064755857 -0.28392953 1.8940002 0.3453135192 -0.005313949194 0.9384723306
-0.25260976 -0.14016761 1.7570001 -0.08949005604 0.8060307503 0.5850691795
0.258145 -0.24757768 1.7220001 0.7454586029 -0.4983926713 0.4426017106
0.18128853 0.26948294 1.863 0.4913727939 -0.8336446285 0.2521694303
0.071917348 -0.39314818 1.8230001 0.7787118554 -0.497572571 0.3821379542
-0.004490287 -0.20482615 1.97 -0.1298614293 -0.04079664871 0.9906924963
0.26357508 -0.47351572 1.748 -0.3398516774 0.7323812246 0.590015769
0.12196888 0.16131368 1.4960001 -0.429582715 -0.09235598147 0.8982923031
-0.094796591 0.094796598 1.523 0.2999789119 0.4747766554 0.8274054527
-0.025379125 -0.026683854 1.7321428 -0.2887207568 0.7881148458 0.5436131954
-0.26807854 -0.21827158 1.6710001 0.4265279174 -0.389118433 0.8164929748
0.17449524 -0.1938836 1.8430001 0.6366915703 -0.3910822272 0.6645889878
0.40392125 -0.39896515 1.6960001 0.7527301311 0.3777675033 0.5391559005
0.12373361 -0.077668279 1.8330001 -0.114557229 0.8903709054 0.4405862689
0.19393027 -0.38500035 1.732778 0.5448439717 -0.002407739637 0.8385339975
0.34412232 -0.26519081 1.6470002 -0.1294792742 -0.2844035923 0.9499208927
0.38115275 -0.053809799 1.705 -0.1572294533 0.1695385277 0.972900629
-0.27436861 0.015660776 1.6240003 0.7010219693 0.01786922477 0.7129157782
-0.063260265 0.40961021 1.8040001 0.9138737321 0.4059954286 0.00158085872
0.22731073 0.036496159 1.6390002 -0.2023393661 0.7182546854 0.6657094359
-0.18479694 -0.17461972 1.8330001 -0.159255445 0.8065341115 0.5693333149
0.18735771 0.29494926 2.1160002 0.09460987896 -0.9906629324 -0.09816285223
0.035382848 0.085731275 1.5523334 -0.1073741242 0.8866704106 0.4497626126
-0.076813914 -0.14364898 1.8529999 -0.4134783745 0.6318485141 0.6555936933
-0.072066382 -0.27420381 2.0050001 0.9151331782 0.04484586418 0.4006496072
0.3984555 -0.49806941 1.6710001 0.7886162996 -0.4420762956 0.4273790121
0.19150607 -0.02024048 1.7760001 -0.2156136185 0.8156508207 0.5368654728
-0.023185704 0.26560259 1.8330001 0.4241096079 0.6499305367 0.6306515336
0.3166213 -0.04329418 1.7850002 0.413379252 -0.4817254543 0.7726954222
-0.12669821 0.028413936 1.594 -0.08232451975 0.8210527897 0.564884901
0.27712661 -0.16410848 1.766 0.7947050333 0.03403389454 0.6060409546
0.21325092 -0.01470696 1.3980001 0.003290255321 -0.1752150953 0.9845246673
-0.0074341334 0.39103541 1.6960001 0.03360264748 0.6089511514 0.7924956679
0.28995749 -0.068301097 1.47 -0.4153665304 0.6067268848 0.6777559519
-0.02316767 -0.27431864 1.9150002 0.4583995342 -0.3437781334 0.8195648193
0.0056751892 -0.14521807 1.904 -0.4269920886 0.7677857876 0.4776848257
0.48662296 -0.37500435 1.6240002 0.3781993091 -0.1194880605 0.9179803133
-0.09521915 -0.00146491 1.6710001 -0.153950274 0.8581715822 0.4897355139
0.12464134 0.086379342 1.5430001 -0.1027289554 0.8451604247 0.5245479941
-0.062670268 -0.3840563 1.8330001 -0.4127734303 0.7225217819 0.5545992851
0.036134444 0.022950256 1.6710001 -0.2385836989 0.8423804641 0.4831903577
0.16503777 0.019328747 1.6960001 -0.1142002344 0.9036923647 0.4126723409
-0.15528446 -0.30674908 1.705 -0.6150049567 0.5346799493 0.5795570016
0.41163972 -0.21534176 1.6710001 0.4600023329 0.4170097411 0.7839009762
0.17212881 -0.11235419 1.8940001 0.4253764451 -0.008806642145 0.9049736261
0.2356445 -0.24460636 1.804 0.7711468339 -0.3741416633 0.5151218772
-0.2545279 -0.082869545 1.688 0.004440871533 0.632176578 0.7748116255
-0.1667271 0.25256678 1.8830001 -0.1370354295 0.2762390673 0.951269269
0.36529911 -0.34364104 1.6470002 -0.04651190341 0.391377002 0.9190542102
0.071522847 -0.47522959 1.8130001 0.8473666906 0.2449204326 0.4711513817
0.27746764 -0.12197852 1.529 -0.1418696344 0.7870729566 0.6003242731
0.10344578 -0.21603985 1.8730001 0.7037445307 -0.3221753836 0.6332035065
0.33590332 -0.43245646 1.739 -0.2154563367 0.6721537709 0.7083698511
-0.31197935 0.26600346 1.8730001 0.1840139031 0.4733784497 0.8614242077
0.12540364 -0.41491583 1.7660002 0.4580475688 -0.1923497319 0.8678675294
0.024761451 -0.41434163 1.8830003 0.5034959316 0.09183288366 0.8591033816
0.23245694 0.32543969 1.8940001 -0.8147116303 0.2208141983 -0.5361772776
0.24478197 -0.3258754 1.7130002 0.4370357096 -0.1139784157 0.8921931982
0.24930033 0.10642646 1.6630001 -0.8045294881 0.2107489705 0.5552631617
0.036199324 -0.0447626 1.7760001 -0.07280935347 0.813492775 0.5769994259
-0.19781019 -0.26134047 1.6470001 -0.5358605385 0.04388353229 0.8431652784
0.063286744 0.2026778 1.5230001 -0.07553938031 -0.754122436 0.6523750424
-0.18668967 -0.082022697 1.7220001 -0.4679379165 0.5921298265 0.6560612321
0.11533689 -0.3362639 1.853 0.5921064019 -0.3111754656 0.7433571219
-0.055400949 -0.18970628 1.9150001 -0.279615283 0.782083869 0.5569201708
-0.050973784 0.28650782 2.0050001 0.3741595447 -0.8341366053 0.4052416682
-0.44686592 -0.00205929 2.3490002 -0.1981832385 0.8827533126 0.4259929359
-0.055045903 -0.084403709 1.794 -0.2285227627 0.7239367962 0.650916934
-0.16410848 -0.37001821 1.766 -0.3593163192 0.4851876497 0.7971729636
-0.20499808 0.0072850208 1.6046363 0.08306709677 0.7142904401 0.6949021816
-0.035410054 0.067274265 1.5535001 -0.1440375447 0.8543924093 0.4992662668
0.064037867 -0.11001378 1.8730001 -0.2045653909 0.8710852265 0.4465014637
-0.095603131 -0.047042806 1.7310001 -0.1669970453 0.7775434256 0.6062492728
0.055519886 0.12488331 1.4960002 0.03798257187 0.66255337 0.7480510473
-0.14122398 0.13025513 1.5640001 0.5618656278 -0.5355756283 0.6304488778
0.30212036 0.38557905 1.904 -0.1208856776 0.9395296574 -0.3204226494
0.056141291 -0.21485654 1.9260004 0.6333233118 -0.3886920512 0.6691936255
0.19555478 -0.45555526 1.7390002 0.3313091099 0.1140046418 0.936609447
-0.18527824 -0.13389856 1.7760001 -0.2113759667 0.784054637 0.5835911036
0.01485687 -0.33180344 1.8830001 0.01229437813 -0.1871952116 0.9822458029
0.31594014 -0.21679264 1.6880001 0.1356538236 -0.7280345559 0.671984911
0.2071708 -0.28572628 1.7570001 0.6682597399 -0.5198844075 0.5321175456
-0.079809099 0.15826552 1.5430001 0.4787466526 -0.6126483083 0.6288590431
0.2469604 -0.42333698 1.705 0.2771451175 0.2844657004 0.9177526236
-0.06770584 -0.31463304 1.9470001 0.9307535291 0.01912648045 0.3651466072
0.11395457 0.28275186 1.8730001 -0.06510771066 -0.7309914827 -0.6792734265
0.29455999 -0.29456002 1.6800002 0.3018455803 -0.04643398151 0.9522253871
0.39252222 -0.27357608 1.6960001 0.03916451335 -0.2493532002 0.9676203132
-0.27554247 -0.28720564 1.6630001 0.1532713622 0.4886336029 0.8589208722
0.15017475 -0.34834349 1.766 0.3083885014 -0.5321004987 0.788521111
-0.034853511 0.11567079 1.5042858 0.2522646487 0.5116314292 0.8213378191
0.18479694 -0.053028688 1.8330001 -0.1716930121 0.8333812356 0.525354445
0.4288294 -0.43460488 1.647 0.64809376 -0.0694623068 0.7583860755
0.22410491 -0.16370785 1.813 0.5727488995 -0.1936774552 0.7965222597
0.035417333 0.056195501 1.6160001 -0.1708751619 0.8134095073 0.5560275912
0.32500401 -0.49443737 1.7570001 0.2256754786 -0.3556651771 0.9069580436
0.18139841 -0.25720668 1.853 0.4760944247 0.1047885641 0.8731285334
0.098677598 0.022092 1.6800001 0.002425557235 0.910118103 0.4143418372
-0.25925487 -0.24792133 1.6160001 -0.4282732308 0.7516133189 0.5016567707
0.32632339 -0.1439662 1.5640001 0.02468327247 0.7991461754 0.6006298065
0.16594861 -0.012245572 1.4450001 0.5813197494 -0.4173817933 0.6984695792
-0.065627262 -0.22278731 1.9700001 -0.01366665307 0.851067543 0.5248783231
0.22285305 -0.077585876 1.8830001 0.149970144 -0.2888393104 0.9455584884
0.35401905 0.16415408 2.256 -0.04243238643 -0.9646841884 -0.2599691451
0.072303429 -0.37406299 1.8830001 0.4927560389 -0.3587115705 0.7927909493
0.11533689 -0.27453429 1.853 0.2169683725 -0.08329850435 0.9726181626
-0.024903471 0.00292982 1.6710001 -0.1651151925 0.8059020638 0.5685585141
0.4000493 -0.45439562 1.7220001 0.9865837097 0.1105284244 0.1201502532
-0.29888108 0.32501277 1.863 -0.04512084648 -0.1946742535 0.9798296094
-0.12508367 -0.18112767 1.853 -0.1929932684 0.7826080322 0.5918431282
-0.048151795 0.26068383 1.8940001 0.7036201358 0.2799882293 0.6530890465
-0.24437499 -0.032126106 1.6470002 0.01449252758 0.6662560105 0.7455822229
0.1623648 0.043105699 1.6390001 0.108792372 0.931776762 0.3463470638
-0.45846424 -0.23529646 2.7670002 0.003801639425 0.8814554214 0.4722519517
-0.30494326 -0.095106058 1.7220001 0.3887015581 0.678578496 0.6232513785
0.25399208 0.0050243521 1.6864001 -0.4095415175 0.7141408324 0.5676959157
0.43555516 -0.36571929 1.6550002 0.319016397 -0.2986804843 0.8994545341
-0.055751361 0.39329657 1.732143 0.7771598697 0.4165244699 0.4717307389
-0.154907 0.065224007 1.5499998 0.1612659544 0.3347499073 0.9284049869
0.13545552 -0.042037919 1.7760001 -0.1428486705 0.816532433 0.5593469739
0.34479651 -0.39363036 1.6880001 -0.2356427759 0.6813709736 0.6929690242
0.28292224 0.050780915 1.6550001 -0.468216747 -0.5223139524 0.7127139568
0.034721259 -0.0075480998 1.7220001 -0.1621530205 0.8506800532 0.5000497699
0.38344347 -0.11020226 1.7220001 0.2128471583 0.6033739448 0.7685284615
0.13847505 -0.158179 1.8730001 0.7200174928 -0.4663688242 0.5138821602
0.06632378 -0.077510923 1.8230001 -0.05192365497 0.8334580064 0.5501378775
-0.0075875497 0.45980552 1.7310001 -0.7185518146 0.07380646467 0.6915459633
0.24999641 -0.048994269 1.4330001 -0.3621692657 0.6225763559 0.6937089562
-0.2551626 0.1682183 2.1560001 -0.06616480649 0.9547147751 0.2900722325
-0.14498751 -0.034876723 1.705 -0.2646584213 0.7709997296 0.579236865
0.24926527 0.38132632 1.8830001 -0.4442563653 0.7844805121 -0.4326968491
-0.13721792 -0.1425159 1.8130001 -0.5307096243 0.6071232557 0.5913954973
0.24491261 -0.10422272 1.4860001 -0.03374864906 0.7997469306 0.5993878841
0.072940424 0.17242806 1.47 0.1597283632 -0.2231535465 0.9616076946
-0.0047182199 0.30196607 1.794 -0.04772057757 0.8332499862 0.5508331656
-0.19283161 0.25228801 1.8330001 -0.01161594782 0.955303371 0.2953989804
0.28177118 -0.22139165 1.766 0.7233543396 -0.5085469484 0.4670529962
-0.30033284 -0.023214133 1.6550001 0.4992921948 0.3120359778 0.8082950115
-0.14569727 -0.0025863419 1.6390002 -0.3512981236 0.8477258086 0.3974300027
0.15340672 0.065348484 1.5860001 0.0122847585 0.898188591 0.4394386709
0.33629686 -0.025869206 1.7358001 0.8916836977 0.1693922579 0.4197695553
0.3022396 0.34873798 2.0400002 0.3853579462 -0.8954764009 -0.2227583379
-0.10912396 -0.39063215 1.8040001 -0.4446600974 0.6227610111 0.6437749267
0.20305791 -0.13158153 1.853 0.5725383759 -0.4591217339 0.6792694926
0.11439565 -0.3642737 1.804 0.6805388927 -0.5467562079 0.4877750278
-0.060672347 0.42470643 1.6880001 0.7004538178 0.1741871089 0.6921150684
-0.065353453 0.45746949 1.7336668 0.7688366175 -0.2237956226 0.5990040302
0.047060844 -0.16605406 1.9470003 0.2615658045 0.381924808 0.8864066601
0.23269363 0.31514412 2.0900002 0.7748192549 -0.6125199795 -0.1564428955
-0.075359315 0.041989878 1.5860001 -0.2456040233 0.8336712718 0.4946421683
0.40678734 -0.32489967 1.6800001 -0.2316270024 -0.3343496621 0.9135421515
-0.02449845 -0.12902518 1.863 -0.1923907846 0.8193650842 0.5400246382
0.32080162 -0.18604673 1.7310002 0.7860820293 0.05297474936 0.6158480048
-0.24792133 0.060917813 1.6160001 0.6265446544 -0.0605645515 0.7770287395
-0.40712926 -0.3500793 2.9580002 0.003801639425 0.8814554214 0.4722519517
0.23092102 0.092085063 1.6160001 -0.7369278669 0.08773031831 0.6702542305
0.15150905 0.12227045 1.516 -0.2481755316 0.6787756085 0.6911386251
0.44456539 -0.49558985 1.6348001 0.388628006 -0.08528161794 0.91743958
0.025182249 -0.25518012 1.9150001 0.3399019241 -0.6067699194 0.7185381055
0.086054601 0.075194962 1.5760003 0.1538403928 0.9174192548 0.3669810593
0.079807349 -0.43033373 1.7850001 0.7070170641 -0.1200011149 0.6969408989
0.11472805 -0.11142652 1.8830001 0.001026058686 0.715741396 0.698364675
-0.14269942 0.21992499 1.9150001 -0.2350101769 0.8279423714 0.5091971159
0.36358985 -0.22682326 1.705 0.2299577147 0.243582651 0.942224443
-0.095363796 -0.11284716 1.8130001 -0.2902593911 0.7895125747 0.5407581925
0.0027366609 0.24684684 1.8730001 -0.5187925696 0.8026311994 0.2943423688
0.046274852 -0.45567116 1.863 0.9189662337 0.1089285389 0.378992945
0.15607822 0.30053359 1.8940001 0.1296255589 -0.2722200155 -0.953463912
-0.0078242496 -0.067288548 1.7850001 -0.5908536911 0.6384610534 0.4932133853
-0.26944524 -0.35315639 2.9840002 0.003801639425 0.8814554214 0.4722519517
0.23879611 0.29727679 1.853 0.05495515838 -0.4438476264 -0.8944155574
0.085440814 -0.044128768 1.7850001 -0.01468193624 0.8212586045 0.5703672171
0.20278937 -0.33457687 1.748 0.5868060589 -0.2543352842 0.7687472105
0.29468903 -0.41482463 1.6960001 -0.0316384472 0.6101148725 0.7916809916
0.01502256 -0.45902267 1.904 0.5171452761 0.1540648043 0.841917336
0.25522289 -0.37517387 1.705 0.5950106978 -0.05280060321 0.8019815087
0.26474455 -0.12634344 1.794 0.5734456182 -0.5292862058 0.6253129244
0.04582512 0.28004241 1.9360002 0.09622565657 -0.9726882577 0.2112301737
0.14482974 -0.012196187 1.7390002 -0.1906300932 0.788013339 0.5854017138
-0.22747572 0.26068383 1.8940001 0.3555317223 0.8845677972 0.3018891215
0.10620098 0.1125256 1.503 -0.1006314531 0.7532557249 0.6499839425
0.18598248 -0.052125137 1.427 0.15444462 0.6402723789 0.7524613738
0.14635424 -0.45583251 1.7390002 0.03818345442 0.04090762138 0.9984330535
-0.064272813 -0.019431317 1.705 -0.2391046435 0.8040899634 0.5443053246
0.28551859 -0.014292648 1.7342001 -0.4884397984 0.7415550351 0.4599159658
0.24607266 -0.19599746 1.785 0.5878962278 -0.04065181687 0.807914257
0.39618319 -0.16789919 1.6800001 0.5577276945 0.1916452944 0.8075963855
-0.13568258 -0.33285427 1.739 -0.4388877451 0.5789399147 0.6871725917
-0.01669261 0.35357985 1.7310001 -0.2379250824 0.6573347449 0.7150543332
0.47070688 -0.41920096 1.6320001 0.4749997854 -0.1059475243 0.8735847473
-0.015421318 0.43751779 1.6868572 -0.181965515 -0.3714279234 0.9104558229
-0.048945617 -0.26533675 1.9590001 0.8570870757 -0.3234630823 0.4009655118
-0.082981758 0.0214608 1.6320001 -0.3197418451 0.8677482009 0.3804972768
0.32290801 -0.33588293 1.6710002 0.6512033939 0.2292338312 0.723454237
-0.027700474 -0.32485101 1.9150001 0.7012044787 -0.02158997394 0.7126332521
0.31557238 -0.098163441 1.503 -0.09945520014 0.7396748662 0.6655747294
0.0132289 0.10979987 1.5090001 -0.1054195538 0.7857528925 0.6094908714
-0.22459148 -0.10774321 1.7310001 -0.2165404111 0.7359119058 0.6415168643
0.30425125 -0.1374249 1.7390002 0.6261633039 -0.003345894162 0.779684782
-0.051856879 -0.055964354 1.7570001 -0.3627391458 0.7547440529 0.5466092825
0.37843597 -0.49707264 1.7130001 0.6835641265 -0.6417611837 0.34768188
0.37482497 -0.40821019 1.7310001 0.127171427 0.7761663198 0.6175704598
-0.26784971 0.27601588 1.863 0.2312759161 0.3180708587 0.9194250107
-0.49185383 -0.0451045 2.45 -0.1996877789 0.8623762727 0.4652224481
0.065473847 -0.12926888 1.9150001 -0.05356116593 0.7828280926 0.6199284792
-0.044411305 0.16271546 1.5089999 0.5027907491 -0.570722878 0.6492124796
0.19544317 0.31303576 1.863 -0.2082811445 0.05293862522 -0.9766352773
-0.0055896267 0.06078719 1.5940001 -0.272233814 0.8709567189 0.4090514481
-0.18571804 -0.30356193 1.6710002 -0.2458306551 0.598973453 0.7621010542
-0.090791985 -0.17993321 1.8830001 -0.3586067259 0.6674649715 0.6526038051
0.14132831 -0.23554718 1.853 0.2350167632 -0.01566449925 0.9718650579
-0.18832356 0.04276621 1.57375 0.291759342 0.6547412276 0.6972735524
-0.10502598 0.057284761 1.5558333 -0.06422357261 0.7860723734 0.6147890687
-0.0050916797 -0.17481434 1.9360001 -0.4690956175 0.7457690835 0.473051548
0.20594038 -0.20503218 1.813 0.5206216574 0.002213477157 0.8537846208
0.13483046 0.24854289 1.853 -0.6375656724 0.3030247688 -0.7082979679
-0.22413123 -0.23467858 1.6710001 0.1201885492 -0.6100987196 0.7831566334
0.075676672 0.095067136 1.536 0.05259142071 0.9025535583 0.4273537993
0.063354068 -0.49546131 1.853 0.8737995625 0.2906665206 0.3898554742
0.20401436 -0.27570933 1.8040003 0.6005684733 -0.7889761329 0.1297464669
0.47090062 -0.33823204 1.6630001 0.1503463686 -0.7014650106 0.6966655254
0.43139854 -0.25457838 1.6864001 0.234744817 -0.0327928327 0.9715037346
0.22482693 -0.49496952 1.748 -0.2383277565 0.6582078338 0.7141165137
0.37429374 -0.44514766 1.7570001 -0.03514253348 0.3491398692 0.9364114404
0.17511305 -0.49469087 1.7479999 0.2917890549 0.1489544958 0.9448130727
-0.23851821 -0.28449762 1.6390001 0.02178947069 0.4107501209 0.9114875197
0.074284352 -0.32561305 1.8830003 0.4168969989 -0.001399641158 0.9089526534
-0.21271265 -0.15656915 1.8040001 -0.1245598644 0.77070719 0.6248962283
-0.17481399 -0.34389144 1.7220001 -0.5022109151 0.6642005444 0.5537344217
-0.13540672 -0.065425143 1.7354445 -0.08410366625 0.7662028074 0.6370713115
-0.0082538165 -0.38462785 1.883 0.06676061451 -0.007483479567 0.997740984
0.27506292 0.064429156 1.6960001 -0.6020488143 -0.657758534 0.4526487887
-0.21531282 -0.063631974 1.688 -0.2666572332 0.6231310368 0.7352561951
0.29151708 -0.25196451 1.6710001 0.4798603058 -0.02542954683 0.8769763112
0.19761819 0.021535316 1.4450001 0.5880717635 -0.2124352902 0.7804119587
0.0567348 -0.43549949 1.8230001 0.8906881809 -0.109632425 0.4411975443
0.11326883 -0.45657849 1.7760001 0.3867274225 0.06864601374 0.9196355939
0.37577879 -0.29380387 1.6550001 -0.6968403459 -0.4932180345 0.5207201838
0.49887419 -0.40385053 1.5940001 0.7635409236 -0.1542739123 0.627060473
0.16484389 -0.41484618 1.748 0.301384151 0.03078949451 0.9530055523
-0.29378736 -0.064963341 1.684 0.3038266897 0.6003269553 0.7397951484
0.18455499 -0.084927969 1.8630003 -0.01919298247 0.5139678717 0.8575946689
-0.15352099 -0.19313931 1.883 0.08518739045 0.8720847964 0.4818830192
-0.045513906 -0.16295393 1.8830003 -0.3241905272 0.5613338947 0.7614491582
0.23361267 -0.25209633 1.7570001 0.6953351498 -0.6750962734 0.2464834899
-0.00170687 -0.24066867 1.9470001 0.1132667586 -0.7673403621 0.6311571598
0.064974152 0.042834807 1.647 -0.07212942839 0.8714535832 0.4851453006
-0.080656841 -0.35900202 1.8040001 -0.3524359167 0.7068070173 0.6133618355
-0.1228701 0.2507214 1.8940001 -0.2216155529 0.4119354486 0.8838527799
0.014545654 -0.29448986 1.9040002 0.1274108589 -0.3302698433 0.9352477193
0.087631606 -0.18611282 1.904 0.6014919281 -0.56845963 0.5613030791
0.018061964 -0.11986575 1.8730001 -0.2601826191 0.8471149802 0.4633585811
-0.091343403 -0.069668703 1.766 -0.165801391 0.8033619523 0.5719435811
-0.16327216 -0.093958504 1.7570001 -0.6536593437 0.4292784333 0.6232571602
-0.0046445802 0.33440977 1.766 -0.3263528049 0.6702343822 0.6665431261
0.24529396 0.34601068 1.8529999 -0.7843715549 0.1135963798 -0.6098008752
0.30729052 -0.45669994 1.7570001 -0.1991283298 0.5938743353 0.7795262933
0.24078438 -0.28531817 1.7220001 0.7262944579 -0.21937491 0.6514376402
0.003609675 0.032487076 1.6470001 -0.1965701878 0.8204752803 0.5368244648
0.31583142 -0.0061927736 1.766 -0.2761357725 0.8311215043 0.4826863706
0.072227687 -0.24324958 1.8940001 0.5754197836 -0.2724285126 0.7711515427
-0.086558558 -0.21215333 1.9360002 -0.2720708549 0.871009171 0.4090482593
0.41287214 -0.44592732 1.6832001 0.9304243326 0.01028126664 0.3663398027
-0.05584082 -0.11449376 1.8330001 -0.2122207731 0.7829117179 0.5848175287
0.143797 -0.30536667 1.8430002 0.3360008299 -0.2616369724 0.9047925472
0.27469376 -0.33502758 1.682182 0.6919824481 -0.1903892308 0.6963564157
0.13483046 -0.1949356 1.8530002 0.5187538266 -0.2205259651 0.8259919882
0.33662009 -0.064872168 1.748 0.8883453608 -0.0146948155 0.4589407444
0.14180844 -0.33158925 1.8040003 0.6955920458 -0.6412472129 0.3239656091
0.32775849 -0.3032127 1.6470001 0.6038547158 0.0635458529 0.7945573926
-0.26418349 -0.11171188 1.7220001 -0.007331453264 0.7388439178 0.6738367081
0.092326142 -0.49605748 1.7850002 0.7169917226 0.1281484067 0.6852013469
-0.00405809 0.090630673 1.5430001 -0.3112132847 0.774209559 0.5511314273
0.28380856 -0.44382828 1.7220001 -0.3185125291 0.7237569094 0.6121484041
-0.28078142 0.23808952 1.8730001 0.3479375243 -0.1219191551 0.9295564294
0.28531817 -0.21788847 1.7220001 0.5456721187 -0.8214004636 0.1659614295
-0.0029894332 -0.0074735833 1.705 -0.1934647113 0.9136096239 0.3576155007
0.034004323 -0.20505635 1.959 0.6346694231 -0.3094998896 0.708099246
-0.16489398 0.01676888 1.594 -0.1835895032 0.7236921787 0.6652552485
-0.082262017 0.25014368 1.9150001 -0.2781390548 0.06677562743 0.9582169056
-0.071625046 0.1336119 1.5089999 0.4740148783 -0.173864603 0.8631807566
0.28570217 -0.49122086 1.7760001 0.1006565616 0.4037893116 0.9092977643
0.37556401 -0.36967281 1.6799999 -0.2296463251 0.6959164739 0.6804136634
0.20883077 -0.4221904 1.7220001 0.5486716032 0.3028580248 0.7792538404
0.12622686 0.039173849 1.6550001 0.07712351531 0.895614624 0.4380940497
0.18372127 -0.31294897 1.7760001 0.7730412483 -0.2872353196 0.5655997396
-0.037551142 -0.2048244 1.9470001 -0.4489408433 0.6941213608 0.5627145171
-0.12110098 -0.32398444 1.794 -0.8148633838 -0.4536789358 0.3607950807
0.065020174 0.011210375 1.705 -0.2129741013 0.7660403848 0.6064851284
-0.33369023 0.30413425 1.8730003 0.3510633707 0.08357097208 0.9326148033
0.094089709 0.25404224 1.8940001 -0.4968790412 -0.464512676 -0.7330342531
0.03510261 0.1560116 1.4829999 0.1628454626 0.04449595138 0.985647738
-0.11385912 0.13360867 1.5360001 0.4914027154 -0.4694541693 0.7335776687
0.24610487 0.055666581 1.6710001 -0.5854382515 -0.4122074544 0.6981024742
-0.12299984 -0.36744255 1.7760001 -0.4481832087 0.5509265065 0.703997016
0.34791744 -0.035683841 1.6960001 0.8985719681 0.1821668893 0.3992288113
0.3980698 -0.084349357 1.6880001 0.05301985517 0.4380530715 0.8973841667
-0.17198622 0.10783263 1.557 0.4957764745 -0.3821533918 0.7798489928
0.027670231 0.19632687 1.503 0.1679877043 -0.6559219956 0.7358984351
0.17138088 -0.15351179 1.853 0.3042464852 -0.4242464006 0.8529062271
-0.23775901 0.0014237066 1.6240001 0.1367076337 0.639760673 0.7563182712
0.034666028 -0.36481869 1.8830003 0.01226912159 -0.1062808558 0.9942604303
0.14535747 -0.088194422 1.863 -0.1162346974 0.7809599042 0.6136702299
0.15258208 -0.061986469 1.8130001 -0.3238136768 0.8093022704 0.4900760949
0.0046209102 -0.033886675 1.7570001 -0.1347577274 0.8366037607 0.5309750438
-0.054849532 0.085613512 1.5260001 0.003482867731 0.7197934985 0.6941795349
0.055203177 -0.40275449 1.8630002 0.732055366 -0.5422086716 0.4124375284
0.064912781 -0.024864897 1.7570001 -0.05830120668 0.8427508473 0.5351373553
-0.073238194 -0.23611994 2.0050001 0.6504497528 0.5804878473 0.4898458421
-0.13465601 0.094259195 1.5359999 0.1988009959 0.01090849098 0.9799791574
0.22372568 -0.36321455 1.7220001 0.5244951844 -0.1823035479 0.8316671252
0.23503822 -0.45503104 1.7317275 0.112028949 0.3601945341 0.9261260033
-0.19211361 0.22659555 1.8730001 -0.1239633709 0.4976881444 0.8584518433
0.12464359 0.0060069202 1.7130002 0.01097085327 0.8666896224 0.4987270832
-0.23196952 0.034935165 1.594 0.4700535834 0.2251260877 0.8534446955
0.096386492 -0.39565644 1.7939999 0.6398756504 -0.4462986887 0.6256009936
0.21790075 0.28888357 1.8830001 0.353939116 -0.693726182 -0.6272727251
0.25180146 -0.080525339 1.4580001 -0.1762019843 0.7338962555 0.6560099721
0.08772102 -0.089345485 1.853 -0.2168386281 0.8391450047 0.4988152385
0.34689963 -0.072383389 1.7130001 0.7628509998 0.4308674634 0.4820908606
-0.031197937 0.23152153 1.8730001 0.6435017586 0.4151446223 0.6430866718
-0.18384752 -0.0064382399 1.6320001 -0.1516479701 0.8067458272 0.5711076856
0.41930529 -0.39899293 1.6550001 0.7664552331 -0.2135346979 0.6057634354
-0.46547756 -0.0020873433 2.381 -0.1981832385 0.8827533126 0.4259929359
-0.0074341334 0.48321867 1.6960001 -0.3464801908 -0.02250650339 0.9377872348
0.27290985 0.32001927 1.853 -0.2975935638 -0.5145440698 -0.8041656613
0.42220703 -0.47443882 1.6550001 0.7861301899 -0.2327757776 0.5725510716
-0.1533553 -0.11736375 1.7850001 -0.5739251971 0.5524700284 0.6044722795
0.011309877 0.27305272 1.8430001 -0.7055897117 0.4050209522 0.5814647079
0.089827649 -0.29888108 1.863 0.7592812777 0.03184274584 0.6499830484
0.11544999 -0.056934237 1.804 -0.01369438786 0.8503186107 0.5260900259
0.16024064 0.092912637 1.536 0.01416942663 0.5846397281 0.8111692667
-0.055001665 0.015695922 1.655 -0.07917584479 0.7734022141 0.6289516687
-0.025112469 -0.092502885 1.8130001 -0.2959811985 0.7887390852 0.5387817621
0.15327114 -0.38550016 1.7660002 0.5376840234 -0.2340609282 0.8100070357
0.36164954 -0.48730743 1.748 -0.5316080451 -0.2786124945 0.7998549938
0.095730029 -0.36514744 1.8430002 0.6818105578 -0.6988610625 0.2161656022
-0.11148307 -0.1470284 1.8430001 -0.44614923 0.4263261557 0.786890626
-0.285824 0.03046855 1.6550001 0.8088416457 -0.159830898 0.5658880472
0.14295277 0.29077893 1.853 -0.0524696745 0.3583858609 -0.9320979118
0.18698511 -0.16620898 1.8230001 0.557202518 -0.2869682014 0.7792140841
0.19621894 -0.24380869 1.8230002 0.5843624473 0.2911180854 0.7574765682
0.37439278 -0.19533537 1.6879998 0.354406476 0.1378660947 0.9248723984
0.31590301 -0.12415282 1.536 0.02692347392 0.8311293125 0.5554270148
0.26911563 -0.27506292 1.6960001 0.750307858 -0.1126706004 0.6514164805
0.15587221 -0.2731781 1.8330001 -0.1134890094 0.03122553602 0.9930484295
-0.0036259906 0.13677236 1.4890002 -0.05620010197 0.1622164398 0.9851534963
0.34132403 -0.23878033 1.6710001 -0.1904856414 -0.7769129872 0.6001011729
-0.17554724 -0.15604198 1.804 -0.311085552 0.7640121579 0.5652531981
-0.23133393 -0.24857621 1.6390001 0.1474020183 -0.5478162169 0.823510766
-0.11299883 -0.019328747 1.6960001 -0.04746025428 0.7399093509 0.6710303426
0.21800299 -0.09649311 1.853 0.5594400167 -0.4671127796 0.6847134233
-0.049499229 -0.34478775 1.9470001 0.7759554386 0.2311764657 0.5868991613
0.28570741 0.38422722 1.8730001 -0.09289774299 0.8953716755 -0.4355221391
-0.1946165 -0.114931 1.748 -0.2312838137 0.6897598505 0.6861043572
0.040321406 0.073690847 1.5860001 -0.1288245469 0.9200792909 0.3699436486
0.023722598 -0.061678756 1.8040003 -0.08994939178 0.7943180799 0.6008059978
0.24802873 -0.15570258 1.7850001 0.6260164976 -0.1917990744 0.7558547854
0.094582029 0.1439857 1.4829999 -0.211957559 0.3074227571 0.9276665449
-0.26971087 -0.051026382 1.6630001 0.01117414236 0.7580177188 0.6521382332
-0.14356118 -0.01611401 1.6710001 -0.3613319099 0.8446286321 0.3950211108
-0.042847641 0.39590141 1.6960002 0.5354655385 0.4134443104 0.7364376783
-0.38119745 -0.28784299 2.9580002 0.003801639425 0.8814554214 0.4722519517
0.042977531 -0.093387268 1.8430001 -0.07675468922 0.7045437694 0.7054975629
-0.15572201 0.21845102 1.883 -0.151999101 0.4180483818 0.8956181407
-0.21329984 0.2551105 1.8630002 0.1985256225 0.9042674303 0.3780053258
0.24444272 -0.49978417 1.7760001 -0.3414422274 0.710537076 0.6152676344
0.22420749 -0.39311048 1.705 0.3287057579 0.007560180966 0.9444020987
0.18257372 -0.2924411 1.8430001 0.6192525029 -0.5522181392 0.5581948757
0.28197107 -0.098361999 1.4960001 -0.1105024144 0.8123563528 0.5725961328
-0.11532024 0.013762497 1.6240001 -0.237986967 0.8951202631 0.3769905567
0.22728372 -0.12874113 1.8130001 0.4947879016 -0.3391419947 0.8001047969
0.17300141 -0.042463981 1.794 -0.2486110777 0.8526235819 0.4595927596
-0.18783577 -0.32660627 1.6960001 -0.356569171 0.6640513539 0.6571865678
-0.25049961 -0.30909601 1.6710001 0.02851596475 0.6367230415 0.7705650926
-0.0080784829 0.2358917 1.8430001 -0.2974699438 0.7571781874 0.5815434456
0.044830978 -0.31381688 1.8940002 0.2050053328 -0.1826238781 0.9615723491
-0.014943659 -0.3536666 1.8940002 0.4052101374 -0.06663107872 0.9117922187
0.045078758 0.10267241 1.5246364 0.02211483195 0.8620588183 0.5063255429
0.0944148 -0.25697249 1.8730001 0.5878784657 -0.325882256 0.7404050231
0.17987008 -0.017366767 1.4150001 0.56921947 -0.4091871679 0.7131304741
0.2162143 -0.063262679 1.4360001 0.03814499453 0.7744116783 0.6315311193
-0.043565657 0.052371483 1.5860001 -0.2357557267 0.8807502389 0.410728991
-0.17544556 -0.045348212 1.6960001 -0.496163547 0.7517912388 0.4343174696
0.39609113 -0.19006571 1.6550001 0.8360829353 0.3507249653 0.4218498468
0.25845271 0.027433529 1.6470001 -0.3441480398 0.6153286695 0.7091775537
-0.031787932 0.29085958 1.8130001 0.1776208133 0.8456895947 0.5032494664
-0.032247305 -0.24779509 1.9360001 0.5840076804 -0.5331078172 0.6121528149
0.39896515 -0.47628012 1.6960001 0.8396210074 -0.4372202456 0.3222964108
-0.1172042 -0.21294847 1.8830001 -0.2386762053 0.8360973001 0.4939382672
-0.041547865 0.36592153 1.7129999 0.3646965921 0.5875502229 0.7223442197
0.45517999 -0.39417648 1.6470002 0.6124172807 -0.2383703142 0.7537404299
0.11656056 -0.14511953 1.8940001 0.6123048663 -0.2727153599 0.7420977354
0.13376707 0.0229073 1.6860001 -0.09540523589 0.8499445915 0.5181621313
0.17622752 -0.0076620667 1.748 -0.1795091629 0.8115217686 0.5560655594
-0.21722659 -0.042279001 1.6630001 -0.2226649076 0.813098073 0.5378585458
-0.0082538165 -0.30539122 1.883 0.2880144417 -0.2673535943 0.9195486307
0.43542513 -0.33385834 1.6630001 0.1226181015 -0.1972637773 0.9726519585
0.29897839 0.036819998 1.6799999 -0.1590746939 0.8201133609 0.5496447682
0.47551799 -0.49544996 1.6240004 0.4663510025 -0.04993427545 0.883189261
0.23823854 0.076525107 1.6470001 -0.8863182068 0.176964134 0.42792961
0.31733552 -0.27505648 1.6630001 0.6671380997 0.08037468046 0.7405853868
-0.045166306 -0.29590261 1.9260004 0.6229918003 -0.3204538524 0.7135758996
0.11335242 -0.18653625 1.8830003 0.706694603 -0.3934583962 0.5880248547
0.11458734 0.066376813 1.5940001 0.09582780302 0.9300245047 0.3547836542
0.21497971 0.062643096 1.6240001 -0.8118385673 0.09014518559 0.5768812299
0.25378451 -0.23458196 1.7760001 0.6260876656 -0.6846216321 0.3732391
-0.05063013 -0.38707551 1.863 -0.6640954018 -0.602001071 0.4433644414
-0.27424529 -0.014361408 1.6378335 0.4136241972 0.4480773211 0.7925539017
-0.21597297 -0.13624102 1.766 -0.160544619 0.8267653584 0.5391516685
0.10630927 -0.028383544 1.7659999 0.05385216698 0.750602901 0.6585554481
-0.011684213 -0.40894747 1.904 0.01279291604 0.2039773017 0.9788920283
0.40753794 -0.36534852 1.6710001 0.4046741128 0.2077857703 0.8905413747
-0.32264137 -0.072854504 1.6960001 0.5868734717 0.5566090941 0.5880185366
0.34707323 -0.19521001 1.7050002 0.5657374263 0.06775901467 0.8217967153
-0.1447026 0.044099838 1.572 -0.147243768 0.7841432691 0.6028586626
0.064865284 0.066397704 1.6053635 0.06028743088 0.901185751 0.4292198122
0.14893164 0.01400212 1.452 0.3629363179 -0.3203648329 0.8750106096
-0.034297828 0.26403883 1.863 0.6198163033 0.6706496477 0.4075006843
0.025458399 -0.22776783 1.9360001 0.3686329722 -0.5705189705 0.7339059114
0.34552151 -0.36301628 1.6630001 0.2486604899 0.5739475489 0.7802257538
0.45513293 -0.45494217 1.6329334 0.4738745689 0.04650851712 0.8793632984
0.035255149 -0.13934179 1.9150001 -0.2184305936 0.8256451488 0.5201904774
-0.074735835 0.065224014 1.5500001 -0.148064658 0.8167265058 0.5577048659
0.3408927 -0.41297576 1.7130001 -0.4431760013 0.7442660928 0.4996629357
0.14196476 -0.12370029 1.8940001 0.2707921267 0.06679742783 0.9603174925
0.38820437 -0.24318266 1.6880001 0.3836027384 0.03102201223 0.9229770303
-0.31529579 0.34335876 1.8830003 0.1499995589 -0.2268328965 0.962313354
-0.06525293 -0.037937749 1.7310001 -0.2728157043 0.7077254653 0.6516872048
0.41608286 -0.29472974 1.6826668 0.1967402548 -0.1401823163 0.9703825116
0.17775995 -0.35398749 1.748 0.5777750611 -0.4055255949 0.7083255053
-0.01312107 0.41695845 1.6630001 0.5250176787 0.2777977288 0.8044780493
0.31333292 0.0030385267 1.7350001 0.05519437045 0.8940343857 0.4445853829
0.0044184001 0.0103096 1.6799999 -0.2841780782 0.7467349172 0.6013566256
-0.14623064 -0.16511205 1.8330001 -0.2815235853 0.7009244561 0.655323863
0.29575577 -0.1946165 1.748 0.6644422412 -0.03578745201 0.7464822531
0.3751739 -0.39012107 1.705 0.02037195303 0.7980992794 0.6021814346
0.39995989 -0.47198331 1.748 0.8328125477 0.4610292017 0.3063907921
-0.3195976 -0.022092 1.6800001 0.733730197 0.3838133812 0.5606489778
0.13529421 0.053126 1.6160001 0.1261632442 0.8968637586 0.4239319265
0.06525293 -0.0075875497 1.7310001 -0.1663690209 0.8198077679 0.5479384661
0.11988592 -0.37678432 1.7760001 0.6833707094 -0.4006686211 0.6103025079
0.32305866 -0.15549086 1.7220001 0.70679456 0.005662240554 0.7073962092
0.28398389 -0.23491859 1.6960001 0.7264939547 -0.4075485766 0.5532726645
0.035245508 -0.026051024 1.748 -0.1704038382 0.8548125029 0.4901613593
0.055228442 0.18404622 1.4960002 -0.1136539727 -0.7204568982 0.6841232777
0.01545651 -0.17689116 1.9590001 -0.05959524587 0.7658045888 0.6403059959
-0.24389568 -0.05508272 1.6800001 -0.0983594358 0.5965753794 0.7965068817
-0.21614429 -0.02278444 1.6390001 -0.1844887882 0.7389265299 0.6480365992
0.36329767 -0.2636838 1.6710001 -0.6957015991 -0.5477286577 0.4647500217
-0.034948315 0.30305928 1.7850002 0.003113535699 0.8346399665 0.5507870913
0.21565235 -0.042139173 1.4137501 -0.02088209055 0.6094631553 0.7925393581
-0.09522903 0.026967144 1.603909 -0.2388637364 0.8905245662 0.3871822357
0.33559856 -0.46432123 1.748 0.1810525954 0.07810565084 0.9803670049
-0.0056549381 -0.11390661 1.8430001 -0.3465610445 0.7105208039 0.6124178171
-0.27156591 -0.2686922 1.6390001 -0.1698152125 0.6478286982 0.7426175475
0.31520024 -0.3862313 1.688 -0.03796044737 0.3731741011 0.9269844294
0.031197937 0.25779349 1.8730001 -0.6357924938 0.6007038951 0.4846882522
0.26837224 -0.30554289 1.6960001 0.6475921869 -0.0766524747 0.7581218481
0.076375209 -0.16463099 1.936 0.3981911242 -0.005222446751 0.9172875881
-0.22523655 0.064661816 1.594 0.5979024172 -0.07941486686 0.7976251841
-0.12448716 -0.11635371 1.804 -0.3981165886 0.6120108366 0.6833344102
-0.16454858 -0.056862354 1.7220001 -0.4120066166 0.6198415756 0.6678674817
0.028375946 0.2687369 1.904 -0.01428125612 -0.9743958712 0.2243852913
0.35562202 -0.3125163 1.6390001 0.1578550935 0.1099960878 0.9813168049
