# .PCD v0.7 - Point Cloud Data file format
VERSION 0.7
FIELDS x y z normal_x normal_y normal_z
SIZE 4 4 4 4 4 4
TYPE F F F F F F
COUNT 1 1 1 1 1 1
WIDTH 512
HEIGHT 1
VIEWPOINT 0 0 0 1 0 0 0
POINTS 512
DATA ascii
0.14703102 -0.14862919 1.8230001 0.4927529395 -0.6771525145 0.5464970469
-0.26421329 -0.3139168 2.9840002 0.8726738691 0.331820488 0.3582394719
-0.35711718 0.12489344 2.2260001 -0.2329147607 0.8836214542 0.4061573744
-0.024171015 0.49513957 1.6710001 -0.3246580362 -0.1647099853 -0.9313794971
0.49449262 0.16870923 2.2120001 0.1957128644 0.9107239842 0.3637007773
0.47185764 -0.49421617 1.5940002 0.3442737162 0.2152124345 0.9138704538
-0.3004021 0.021355599 1.6240001 0.5529921651 0.1113502383 0.8257122636
0.20587407 0.022919573 1.376 0.8240408301 -0.08063536882 0.5607625842
0.31690535 0.37601721 1.8730001 0.7629953623 0.4293377101 -0.4832258224
-0.33400443 0.34500954 1.883 0.5119991899 0.2225858271 0.8296459317
-0.49746451 -0.077383369 2.5220001 0.8740624189 0.332216084 0.3544676602
-0.20273355 -0.33488578 1.7130001 0.2096845061 0.7318432927 0.6484117508
0.12595333 -0.4947083 1.7310003 0.2172023505 0.1036348119 0.9706096053
-0.048525251 0.1770516 1.4960001 0.4370107651 -0.4015202224 0.8048621416
-0.034666032 0.25916985 1.8830001 0.4317088723 -0.8891140819 0.1519986242
0.27491477 0.093265928 1.6710001 0.8185305595 0.2877406776 -0.4972052574
0.39128876 -0.18914697 1.6470001 -0.01078200433 0.3067442477 0.951730907
-0.086833835 -0.24139805 1.9810001 0.6571441293 -0.08432780206 0.7490329742
-0.46699944 -0.19315684 2.789 0.8722180128 0.3327338696 0.3585022688
0.22957008 0.20344014 2.1290002 0.283839196 0.9532901049 0.1033115014
-0.036995333 -0.010358693 1.6880001 -0.2031858116 0.7830269337 0.5878642201
-0.16509737 0.25413868 2.1160002 0.5286393166 -0.8449444175 0.08129781485
-0.024629951 -0.42363513 1.8730001 0.6836869121 0.3574718237 0.636228025
0.2931056 -0.3842757 1.6470002 -0.1839485019 0.2878428102 0.9398454428
-0.22026338 -0.12630488 1.7570001 -0.1612807065 0.7015771866 0.6941022873
0.11470003 0.075102277 1.5525455 0.1410172135 0.9087367654 0.3928252459
0.3227514 -0.096305773 1.4844999 -0.731980443 -0.05528384075 0.6790789962
0.15587221 0.2619296 1.8330001 -0.02144395746 0.139633432 -0.9899710417
-0.040392417 -0.12764004 1.8430001 -0.1700186431 0.7343889475 0.6570894122
0.15515685 -0.31452787 1.748 0.4395703971 -0.6152596474 0.6543954611
0.011371243 0.43210724 1.853 0.9994838834 0.03208471835 0.001604901976
0.13665743 -0.00750865 1.7129999 -0.09480880201 0.8156743646 0.5706896186
-0.1453373 0.046617623 1.5640001 -0.1594738215 0.7945779562 0.585844636
0.31268159 -0.043128494 1.7570001 0.645231843 -0.313811779 0.6965615749
0.042463981 -0.27438265 1.863 0.5371134877 -0.1425369233 0.8313797712
-0.023997698 0.32717043 1.7326 0.1829911619 -0.7484152317 -0.6374863982
-0.20524958 0.2446575 1.8730001 -0.1489861012 0.4058536589 0.9017127752
0.46167678 -0.33549726 1.6355001 -0.008922749199 -0.5410456061 0.8409458995
0.29270145 0.3237004 2.0400002 -0.5675917268 0.8034300208 0.1798328757
0.36443576 -0.47472149 1.7570002 0.4306312203 -0.88163656 -0.1930641532
-0.24225456 -0.21958746 1.6160001 0.3489059508 -0.1429537088 0.9261904955
0.26526704 -0.20581065 1.7390002 0.4753677547 -0.1179005131 0.8718514442
0.08386106 0.16493519 1.4450001 -0.232596904 -0.1874927431 0.9543296695
-0.18116055 -0.026856683 1.6710001 -0.3562008739 0.7144424319 0.6022399664
-0.015193071 0.065373182 1.5755 -0.2737240195 0.8998209834 0.3397019207
0.054030716 -0.16378061 1.9260001 0.4683638215 0.1870586723 0.8635070324
0.05760752 -0.39702481 1.7760001 0.6455413699 -0.3463020325 0.68069911
-0.1444957 -0.18882962 1.8730001 -0.1118849069 0.8849515319 0.4520426393
0.046945497 -0.061029151 1.7850001 0.0647905618 0.8391630054 0.5400070548
0.24531326 -0.4755303 1.7220001 -0.2974494994 0.7317885756 0.6131959558
0.29795972 -0.26495904 1.6366668 0.5250166655 0.01287489105 0.8509945869
0.372877 -0.056584451 1.6550001 0.4914457202 0.4023474157 0.7723973393
0.21155281 -0.092475183 1.4450001 -0.0507023409 0.784864068 0.6175902486
-0.10535675 -0.07485874 1.7570002 -0.2676323056 0.7900634408 0.5515185595
-0.30628628 -0.069880851 1.6960001 0.2578765452 0.7110068202 0.6541934013
0.22742838 0.33774811 1.9360001 -0.5750464797 0.7555757165 -0.3137305677
0.21721959 -0.066962428 1.863 0.5493556857 -0.8320629001 -0.07667884976
0.39125487 -0.43865037 1.6550001 0.7697254419 0.1529587656 0.6197792888
-0.056453828 -0.31381682 1.8940001 0.847427249 -0.1345430613 0.5135807395
0.046346735 -0.49543065 1.8230001 0.9295576215 0.2535313964 0.26766482
-0.13848177 0.15493505 1.5640001 0.4888047874 -0.7488497496 0.4475421011
0.26156607 0.29779109 1.8230001 -0.3484335542 0.2606753409 -0.9003568292
0.065936737 0.038021907 1.647 0.0347907953 0.895550251 0.4435981214
0.18872003 0.29132509 2.0900002 -0.7710184455 0.6165895462 0.1592102796
0.19823587 -0.38359627 1.6857144 0.6855860353 0.05211335048 0.726123929
0.16999795 0.070299901 1.4580001 0.7857703567 -0.477843672 0.3927217424
0.37536675 -0.14605178 1.557 -0.4036002159 0.6890990734 0.6018715501
0.24651867 -0.11521503 1.7760001 0.5699396133 -0.4800881743 0.6668464541
-0.036447417 0.39800578 1.6630001 -0.1714008152 -0.6534135938 -0.7373414636
0.18636969 -0.23355189 1.794 0.7174332142 0.2331440002 0.6564552188
0.26573467 -0.002636838 1.6710001 0.3525391519 -0.6527453661 -0.6705517769
-0.23316462 0.083466776 1.57375 0.6384720206 -0.07204391062 0.7662656903
0.36798608 -0.33469379 1.6160001 -0.4670604765 0.3146690428 0.8263400793
0.034758374 0.10603429 1.5056666 -0.07814941555 0.8744009137 0.47886917
-0.038612783 -0.19306391 1.9150001 -0.1921460629 0.7215940952 0.6651179194
0.020662157 0.29085958 1.8130001 0.2013224214 -0.8113591075 -0.5487856269
-0.048754938 0.47024927 1.794 0.9820455313 -0.1002655253 -0.1597916037
0.15727401 -0.055045899 1.794 -0.2942997217 0.8359062076 0.463301748
0.22550204 -0.28563592 1.6960001 0.6845694184 -0.3246805072 0.6526463628
0.10428015 -0.3344157 1.8230001 0.6262663007 -0.5337693691 0.5682260394
0.4770759 -0.40070534 1.5743333 0.2655159235 -0.4942494929 0.8277794123
-0.094219163 0.097158924 1.5089999 0.1365852952 0.6158279777 0.7759512663
-0.11312682 0.27184206 1.9260001 0.2204507142 -0.8419396281 0.4924826324
-0.17663343 -0.27096626 1.647 0.02240118571 0.6817715764 0.7312220931
-0.10489053 0.018679136 1.6390001 -0.151086241 0.9089415669 0.3885848522
-0.27305272 0.2924411 1.8430001 -0.2161229253 0.7537264824 0.6206345558
0.15352479 0.037781995 1.6366668 0.1257672608 0.9374352694 0.3246501982
0.41212624 -0.095106058 1.7220001 0.7521911263 0.5751568079 -0.3215636909
0.31668007 -0.15834002 1.6880001 0.6538374424 -0.06397933513 0.7539252639
-0.031897515 0.39116427 1.9150001 0.7549471259 -0.2645180225 0.6000708938
0.075128585 -0.10942641 1.863 -0.03922742605 0.815875113 0.5768960118
0.37794679 -0.27100834 1.6710001 0.1471062452 -0.2695553899 0.951682508
0.043550175 -0.01051211 1.7129999 -0.1902020872 0.8452401757 0.4993918836
0.10605738 -0.22818406 1.8330001 0.5793647766 -0.1675430983 0.7976626754
-0.12810203 -0.14075409 1.8040001 -0.4330853522 0.6397365332 0.6349599957
0.024366949 -0.35575747 1.853 0.1240017936 -0.22976771 0.9653136134
0.12605327 -0.40608779 1.7220001 0.7021962404 -0.2885585725 0.6508873701
-0.21545346 0.0047762548 1.6042 0.02022578381 0.7835549712 0.620993197
-0.13819598 0.22657713 1.8330001 0.1060755625 -0.8074669838 0.5802973509
0.16194662 -0.034880813 1.4210001 0.9536113143 0.2088579386 0.2168036699
0.31538522 -0.43396604 1.705 -0.2161892354 0.7091380358 0.6711075902
0.22851017 0.077580616 1.6090001 0.6932242513 0.06994309276 -0.7173200846
0.26216891 -0.048002761 1.404 -0.2893620729 0.6163408756 0.7323889136
-0.024644854 -0.061612133 1.7570001 -0.297423929 0.6787950993 0.6713986993
0.01668472 0.20150007 1.4640001 0.3776599169 -0.4244411588 0.8229354024
0.3422901 0.0044841501 1.705 0.4226864874 0.9051246047 0.04566885531
-0.22599766 -0.081775464 1.6960001 -0.2155888975 0.7597187161 0.6134727597
0.15344472 0.13246083 1.4960001 -0.3316516876 0.6377066374 0.6952247024
0.39918754 -0.49651593 1.6090001 0.6251757741 -0.3145016134 0.7143136263
-0.11406084 -0.026125671 1.6960001 -0.1196041554 0.7501831055 0.6503230929
0.20415375 0.31194693 1.863 -0.3285901248 -0.1463941187 -0.9330580235
-0.26365066 -0.035230428 1.6470001 -0.03366547078 0.6156333685 0.7873132229
0.25556499 -0.32487074 1.6470001 0.6470968127 -0.04639871418 0.7609946728
0.18170933 -0.44901726 1.7130001 0.4169675708 0.1804372817 0.8908312917
0.41792452 -0.3853406 1.6160001 0.477242291 -0.2256287932 0.8493123055
-0.034337278 0.03004512 1.6320001 -0.02715452574 0.702329576 0.7113338113
-0.17023376 0.10455301 1.529 0.5531737804 -0.06970845908 0.8301442862
0.05422534 0.068129271 1.5860001 -0.05803032592 0.8443393111 0.5326571465
0.069313653 -0.46517161 1.7570001 0.6379698515 -0.1136432067 0.7616295815
0.032942064 -0.42663991 1.8330001 0.9116337895 -0.1947527528 0.3619325459
0.28577352 0.36333609 1.8130001 0.3719139993 0.05311496556 -0.9267463088
0.1001618 -0.17405164 1.8730001 0.6747624874 -0.4758110046 0.5641803741
0.0250376 -0.22366922 1.9040002 0.3900182843 -0.7563745379 0.5251506567
0.16331051 -0.29364103 1.813 0.2583758831 -0.5794901848 0.7729378939
0.21528508 -0.17621957 1.7760003 0.4501425624 -0.1502896845 0.8802185655
0.42284086 -0.28331763 1.6240001 0.7092564106 0.1567000747 0.6873139143
-0.16660134 -0.095358916 1.7344286 -0.6546906829 0.5011825562 0.5658587813
0.015517175 -0.13239121 1.8830001 -0.2879357934 0.7904331088 0.5406556129
-0.082266398 0.0616998 1.5640001 -0.1576364189 0.8759832382 0.4558553398
-0.033939272 0.1083446 1.4890001 0.01897891983 0.6920975447 0.7215544581
0.19155167 -0.026051026 1.748 -0.1376223564 0.8482721448 0.5113652945
-0.056201596 -0.25399259 1.9260004 0.6865988374 -0.4062746763 0.6029286385
0.10166002 -0.038507584 1.7570001 0.1972310841 0.8259108067 0.528177321
0.33727118 -0.2223928 1.6800001 -0.05236637965 -0.3778289258 0.9243933558
0.30796248 -0.49515536 1.7220001 -0.1903276443 -0.4543663263 0.8702451587
0.24589561 -0.42335898 1.6710002 0.2080739141 0.4096227288 0.8882085681
0.26467967 -0.23408401 1.6820002 0.7360934019 -0.5912547112 0.329521507
0.013584388 -0.10148337 1.8230001 -0.2662667632 0.7790678144 0.5675872564
0.35546646 -0.38641858 1.6550001 -0.2522608638 0.679007709 0.689429462
-0.10847698 0.16006969 1.5090001 0.5876727104 -0.2013251334 0.7836510539
-0.084927961 -0.17148915 1.863 -0.2250427753 0.7665733695 0.6014324427
0.094236962 0.11320101 1.4873637 0.08728200197 0.800953567 0.5923303366
0.1336989 -0.086035848 1.8430002 0.103979528 0.729483664 0.676048696
-0.10069656 0.22615458 1.8830001 -0.003152604913 -0.3870233893 0.9220644832
0.2055238 -0.11442848 1.8230002 0.543645978 -0.5648486614 0.6208019257
-0.27183679 -0.27183679 1.6320001 0.3220005035 0.1340368688 0.9372031689
-0.10240781 -0.20649445 1.9150001 -0.2019431293 0.9250492454 0.3217186332
0.26285183 -0.11006112 1.4770001 0.06142990664 0.8008619547 0.5956899524
0.43229136 -0.44492319 1.601 0.5220050812 -0.06139608845 0.8507298231
0.22219993 -0.25284821 1.748 0.7102915645 -0.7017754316 0.05474633351
0.10936154 -0.35889068 1.7570001 0.6619483829 -0.4628674388 0.5895575881
-0.017579796 0.244519 1.8230001 0.9208502769 -0.158443898 0.3562728167
-0.17739613 -0.17100348 1.8230001 -0.261965692 0.8156180382 0.5158887506
0.3969906 -0.12451735 1.6710001 -0.1913510859 -0.2503634691 0.9490537047
0.37493193 -0.43399999 1.7130002 0.5920735598 0.6388996243 0.4911783934
0.0048996899 -0.4785364 1.863 0.5277197957 0.3166095912 0.7882069349
0.0024911945 0.37318096 1.705 0.015360686 -0.8532004952 -0.5213568807
-0.033831194 -0.36514357 1.863 0.6650393009 -0.01515543833 0.7466545701
-0.016177481 -0.26445228 1.8830001 0.1289190948 -0.4497804046 0.8837858438
-0.064482346 -0.095937133 1.794 -0.1646618694 0.7421914339 0.6496447921
0.2837792 0.043105699 1.6390001 0.4988527596 0.1967179328 -0.8440663218
0.01494344 0.01494344 1.6630001 -0.1463853866 0.8233969212 0.5482597947
0.0128344 0.13989496 1.4640001 0.121740669 0.4835187793 0.8668268323
0.15762642 0.022518061 1.427 0.6340689659 -0.2373580635 0.7359468341
-0.15725295 0.0099168532 1.6160001 -0.2575527132 0.8647497892 0.4311315119
0.0079075331 0.46496296 1.8040001 0.9819704294 0.1886844635 -0.01149878185
0.27536985 -0.14453202 1.7354445 0.8027492166 -0.1071987003 0.586602211
0.31332767 -0.32548878 1.6320001 0.6061546803 0.1691448689 0.7771528363
0.34527954 -0.05829395 1.705 0.9113878012 0.1738117039 0.3730438948
0.20587127 -0.033909142 1.3813753 -0.05404902995 0.4446728826 0.8940607905
0.37648186 -0.49074486 1.6710001 0.9464698434 -0.2220988721 0.2342368215
0.32209611 -0.010156184 1.6550001 0.5542188883 0.4269823432 -0.7145121098
0.106252 0.060917813 1.6160001 0.02296304889 0.8774507046 0.4791167974
-0.2212014 -0.30323637 1.6710001 0.197157532 0.7277835011 0.6568562388
0.19334774 -0.33451036 1.7130002 0.6350046396 -0.263959527 0.7260127068
0.098053411 -0.068004787 1.8040001 -0.07942306995 0.8461280465 0.5270287991
0.079305895 0.20411518 1.483 -0.1349219531 -0.6430825591 0.7538175583
0.0014578967 0.44757429 1.6630001 0.5162183046 0.3736453354 -0.7706542015
0.10651838 0.2740702 1.8529999 -0.1449095309 -0.4021580815 -0.9040299058
0.1562802 0.057284206 1.5860002 0.2597723901 0.8702744842 0.418498069
0.35165554 -0.27762279 1.6240001 -0.5440226197 -0.5366626978 0.6450058222
-0.043550171 0.46703804 1.7130001 -0.7237068415 0.4615318477 -0.5130660534
-0.26252922 -0.10470819 1.7310001 0.02775559947 0.7886500955 0.6142154336
-0.011371243 -0.31514588 1.853 0.33119151 -0.2413152903 0.912183702
0.015583627 0.045334186 1.6160001 -0.01226341631 0.8374222517 0.5464188457
0.4035528 -0.32354698 1.655 0.1586821079 -0.09141462296 0.9830886722
0.13605253 0.15226734 1.4450001 -0.003437079489 0.5974146128 0.8019251823
-0.06491366 -0.040759739 1.7220001 -0.1959061772 0.7280132174 0.6569760442
-0.33123273 0.14551264 2.184 -0.00141468225 0.9237585068 0.3829729259
0.088381149 -0.2844266 1.8330001 0.6737235785 0.03440219909 0.7381822467
0.19776022 -0.49968421 1.7220001 -0.1007724702 0.6697289348 0.7357364297
0.34288889 -0.13423169 1.516 -0.4762971401 0.7449971437 0.4670335054
0.094537102 0.014769202 1.6850002 0.03358789906 0.8938744664 0.4470573962
0.28983387 -0.024027679 1.7130001 0.66457057 -0.5892753005 -0.4594568312
-0.28359631 0.35725155 1.8730001 -0.5663198829 -0.3062847555 0.7651610374
0.12215649 -0.12710878 1.8830001 0.526049614 0.07721507549 0.8469413519
-0.0045525301 -0.019727631 1.7310001 -0.2103780508 0.78576231 0.5816516876
0.065655842 -0.21460643 1.8630002 0.6317293048 -0.4462747574 0.6338430047
0.062328368 -0.37556839 1.8230001 0.6630177498 -0.719189167 0.2077845931
0.47303179 -0.45109409 1.5640001 0.2653003037 -0.1984977722 0.9435117245
-0.0219079 0.29888636 1.7850001 0.1374892741 -0.8184217215 -0.557927072
-0.25305158 0.037540618 1.5860001 0.3686485291 0.3637740016 0.8554336429
-0.22529158 0.27607056 1.8329999 0.6557630301 0.5744192004 0.4899157584
-0.19489615 0.054512884 1.5546666 0.2606041133 0.486513257 0.8339006901
-0.14942169 0.2561515 1.8730001 -0.01263152622 -0.7935051918 0.6084323525
0.14643314 -0.35777995 1.7220001 0.5807138085 -0.2769900262 0.7655377388
-0.16068511 -0.04655363 1.7130001 -0.3407031894 0.7513484955 0.5651519895
-0.04423397 0.079084978 1.529 -0.1012919247 0.8313841224 0.5463884473
-0.16970864 -0.13545552 1.7760001 -0.3297549784 0.8001233339 0.501063168
0.17148915 -0.11269287 1.863 0.3275304437 -0.3208768666 0.8886854649
0.063354068 -0.32424289 1.853 0.3195871711 -0.1341456622 0.9380133152
-0.3133198 -0.03032127 1.647 0.3093165755 0.6020955443 0.736073494
0.15182464 -0.19452532 1.804 0.1614691764 -0.3313074708 0.9296036959
0.15518139 0.086507134 1.5260001 0.1885101199 0.8110308647 0.5537985563
0.064929441 0.090630673 1.5430001 0.07077414542 0.9495149255 0.305634439
0.0221972 0.48981822 1.6880001 0.42346856 -0.05140858516 -0.904450953
0.40514988 -0.23708346 1.6470001 0.4610873461 -0.07456366718 0.8842164278
-0.08022289 -0.29187477 1.9470001 0.9814855456 -0.06190932542 0.1812548637
0.24492665 -0.37467948 1.6630001 0.4990803897 0.01457701996 0.866433084
0.0033944533 -0.1782088 1.9360001 -0.1086982191 0.5510803461 0.8273422122
0.28249267 -0.078540564 1.4450001 -0.3431868553 0.649230063 0.678765893
0.20185338 -0.061986469 1.8130001 0.09656877816 0.7164378166 0.6909351349
0.23427233 0.3020401 2.0780001 -0.8243358135 0.5534282327 0.1191120595
0.039318498 -0.45766735 1.794 0.9201303124 0.240462184 0.3090924323
0.36318198 0.0015324134 1.748 0.4306740463 -0.9024927616 -0.005168857053
0.1649536 0.022092 1.6800001 -0.1042462885 0.8375911713 0.5362589955
-0.093201935 -0.12694746 1.8330001 -0.3917819262 0.5319634676 0.7506808639
0.3048512 -0.20487888 1.7130002 0.5178362131 -0.4848977923 0.7047834992
-0.075543351 0.13544904 1.4856251 0.2932807505 0.05679472536 0.9543378353
-0.22239573 -0.26544413 1.6366668 -0.2671672702 0.5864179134 0.7646801472
-0.31358016 0.30541399 1.863 0.7920209169 0.02113407478 0.6101280451
0.090412386 -0.4244785 1.748 0.7207120657 -0.1171252206 0.6832684278
0.013283253 0.41012046 1.8940001 0.9265758991 -0.1031832546 0.3616771102
0.014879663 0.086572587 1.5430001 -0.1399468631 0.8886730671 0.436663568
0.017869096 0.26803645 1.853 0.1729498208 -0.9322513342 -0.3177984357
-0.054956481 -0.21639115 1.9590001 0.6426933408 0.184801966 0.7435008883
0.2580477 -0.27554247 1.6630001 0.718721509 -0.1558003426 0.6776176691
-0.083276905 0.033217192 1.601 -0.1941594034 0.9068915844 0.3739649057
0.19333076 -0.28438136 1.7310002 0.7098532319 -0.5468681455 0.4438959658
0.12746961 -0.26479349 1.8130001 0.3576207459 -0.1258700043 0.9253454208
-0.025421757 -0.16276526 1.8830001 -0.4185365736 0.6911443472 0.5891914964
0.30192399 0.057439201 1.6800001 0.8283599615 0.3214037716 -0.4588239491
-0.067889065 -0.33435366 1.9360001 0.970710814 0.1542667747 0.184180066
-0.035936318 0.1475956 1.4640001 0.2546567619 0.1391206533 0.956972003
0.36662376 -0.095817909 1.688 0.4402649105 0.5312215686 0.7238579988
0.21753256 -0.46022195 1.6880001 0.02856972069 0.4714711308 0.8814185858
0.22485378 -0.33478075 1.6808001 0.5562743545 -0.07392048836 0.8277044296
-0.043445319 0.44407529 1.6630001 -0.3928235769 0.1377056986 -0.909245193
-0.1355844 -0.0043736901 1.6630001 -0.1969053 0.7985351086 0.568832159
0.19549635 -0.063925587 1.4139287 0.1107327268 0.7444133162 0.6584732533
-0.13367009 0.078486741 1.5278 0.05705841631 0.649495542 0.7582215667
0.012322427 0.3173025 1.7570001 0.04558932036 -0.8299924135 -0.5559085011
0.30049592 0.32620677 1.8330001 0.3560579419 -0.2016207874 -0.912453711
-0.13337956 -0.10639226 1.7760001 -0.407058835 0.5787984729 0.7066084146
0.035858475 -0.037084404 1.7479999 -0.09240762144 0.8093785644 0.5799716711
-0.01285544 -0.39048398 1.8330001 -0.07509244978 -0.04488474131 0.9961658716
0.055935722 -0.087898992 1.8230001 -0.08862299472 0.8193335533 0.5664260983
-0.084476478 -0.0043947301 1.6710001 -0.1010199711 0.7421181202 0.6626127362
-0.265104 -0.064803205 1.6800002 -0.02451048978 0.6756634712 0.736802578
0.14481306 -0.032946885 1.748 -0.2431737781 0.8004452586 0.5478630066
0.35281101 -0.1749476 1.6630001 0.5073203444 0.08541566879 0.8575139642
0.12518799 -0.32705364 1.7850001 0.6369096637 -0.7571415901 0.145198971
0.076046623 -0.14312705 1.8940001 0.2133894712 0.4526841044 0.865760982
0.18609062 -0.15551482 1.804 0.5477557778 -0.3826059401 0.7440270782
-0.21983907 -0.02155285 1.6390001 -0.191890046 0.7260110378 0.6603682041
-0.13245964 0.12404249 1.5159999 0.4170345962 -0.2546056211 0.8725010753
0.19617696 -0.27402496 1.7760001 0.7091203332 -0.6991784573 0.09109249711
-0.26492167 -0.0028333867 1.6160001 0.177400589 0.5763351321 0.7977260351
0.27357608 -0.44604802 1.6960001 -0.265162617 0.7921242714 0.5497526526
-0.02423545 0.28274691 1.8430001 0.7883289456 0.5283623338 0.3152311742
-0.014154659 -0.084927954 1.794 -0.3304015398 0.7308148146 0.5972809792
0.46609211 -0.37400705 1.6160001 -0.1053376496 -0.6885764599 0.7174722552
-0.25315064 0.25968358 1.863 0.1599810719 -0.1194396317 0.9798674583
0.13891003 -0.45427334 1.7130001 0.6229891777 0.3046433926 0.720469892
0.16541532 -0.40606466 1.705 0.1042591557 -0.05905726179 0.9927951694
-0.27000368 -0.22957532 1.6470001 0.5924673676 -0.3887522221 0.7055878043
0.095106065 -0.011775036 1.7220001 0.06574647874 0.7818893194 0.6199407578
0.33457109 -0.3616215 1.6240002 0.2752599418 0.5336120129 0.7996813059
0.1838875 -0.0017231759 1.404 0.580324173 -0.6381508708 0.5059518814
0.054172575 0.13414101 1.4713124 0.1704981476 0.6954583526 0.6980458498
0.23439646 -0.21550851 1.766 0.5773160458 0.1677685082 0.7990994453
0.39415663 -0.36449414 1.655 0.3157739639 0.0387224704 0.9480439425
0.1954993 0.27628413 1.8430002 0.2384571284 0.02303491347 -0.9708797932
0.11730589 -0.18801081 1.8330001 0.6883929372 -0.2759634554 0.6707901359
0.10684638 0.03032127 1.6470001 -0.09325026721 0.8303666115 0.5493593216
0.21468662 0.31377271 1.8230001 -0.5619394779 0.06403525919 -0.8246960044
0.29452932 -0.22488692 1.655 0.1780952811 -0.6553152204 0.7340599895
0.30188191 0.0073990668 1.6880001 -0.05828983337 -0.8378401399 -0.5427948236
0.18359154 0.052100301 1.4150001 0.7812897563 -0.1965544373 0.592412591
-0.18492232 0.025490545 1.5860002 -0.09561384469 0.747405231 0.6574522257
0.32374513 -0.40675667 1.6710001 -0.2968336046 0.7409867644 0.6023523808
-0.088001549 0.26732546 1.8940001 0.1121967286 -0.8568598032 0.5031929612
-0.12440864 -0.16964816 1.8430001 -0.2479182929 0.7591151595 0.6018975973
-0.064692743 -0.069313653 1.7570001 -0.1494958252 0.8718878031 0.4663288891
-0.18793629 -0.063631974 1.6880001 -0.5454973578 0.5350973606 0.6450608373
-0.058114234 -0.35532701 1.8940001 0.888209939 0.08006612211 0.4524074495
-0.22510783 -0.045900512 1.6710001 -0.325397104 0.675211072 0.6619718671
0.33592114 -0.15219285 1.5640001 -0.2500782311 0.838606894 0.4839414358
0.0044184006 0.40501997 1.6800002 0.2590173781 -0.5279337764 -0.8088237643
0.35174146 -0.49062648 1.7220001 0.0783867687 -0.8958993554 0.437286973
0.01358658 0.33815485 1.7220001 -0.3388478458 -0.6246075034 -0.7035961747
0.054493602 0.0117824 1.6800002 -0.1592546701 0.8472300768 0.5067929626
0.060721438 -0.49978417 1.7760001 0.8995994925 0.1236087531 0.4188575745
0.24644765 -0.081315219 1.427 0.04335215688 0.7754868865 0.6298735738
-0.20155838 0.11031403 1.5535001 0.6069442034 -0.3267117441 0.7244848013
-0.015589012 -0.22568092 1.9150001 0.07034715265 -0.6426273584 0.7629425526
-0.046114419 0.048210528 1.5940001 -0.2604954243 0.8901711702 0.3738146722
0.1743519 -0.082756892 1.8330001 -0.1629421413 0.7689020634 0.618255198
0.32272625 -0.0058231708 1.7479999 0.270406574 -0.6047943234 -0.7490687966
0.045584287 0.17557992 1.4558572 0.1180339605 -0.3932982683 0.9118028283
0.24757768 -0.23701034 1.7220001 0.4351831079 -0.8649622798 0.2499117702
0.11473931 0.095246911 1.5159999 -0.002564307302 0.8853589892 0.4649009109
0.36852434 -0.22488691 1.6550001 0.4404408336 0.1969061643 0.8759222627
0.39620188 -0.21297623 1.6160001 0.800770998 0.3007367551 0.5179992318
0.16752076 0.094420791 1.489 0.8075172901 0.4604935646 0.368593961
0.25807881 0.091759384 1.6355001 0.7372251749 0.2383265942 -0.6322178841
0.08807344 -0.35543925 1.794 0.6546120644 -0.7396894693 0.1560210586
0.1997748 -0.4247064 1.6880001 0.584852159 0.1118365675 0.8033931255
0.42511883 -0.34766918 1.6240002 0.08597899228 -0.4315567315 0.8979790807
0.33497784 -0.24329209 1.6470002 -0.5178254843 -0.6433021426 0.5639318228
0.063807055 -0.18383074 1.8940001 0.5897828937 -0.4313265681 0.6827250719
0.24490823 -0.15557064 1.7570001 0.7227988839 -0.1538475156 0.6737155914
0.085373312 -0.49547008 1.7390002 0.4726733267 -0.09198819101 0.8764234781
-0.12576661 0.032140352 1.5940001 -0.1796735972 0.8741145134 0.4512661994
-0.2034305 -0.15179045 1.7850001 -0.2056791037 0.756043911 0.6213644147
0.48702952 -0.42667717 1.6010001 -0.3509853482 -0.1689551324 0.9210121632
-0.051472608 -0.27562749 1.8940001 0.7617323995 -0.3768931031 0.5269870758
-0.20530832 -0.10114454 1.7220001 -0.06049886346 0.739808619 0.6700918078
0.36493412 -0.40778556 1.6853334 0.3666028082 0.7163716555 0.5936446786
0.0044604801 -0.0074341334 1.6960001 -0.07174129039 0.8913708329 0.447561413
0.25623885 0.34147421 1.8230001 -0.1131136492 -0.02332571894 -0.9933082461
0.16152933 -0.48458803 1.7220001 0.3199587166 0.3263489008 0.8894508481
0.4020744 -0.2047192 1.6800001 -0.3852471709 -0.1621005684 0.9084646702
0.21673173 -0.13692439 1.7850001 0.6474208832 -0.3066672683 0.6977115273
0.034113731 -0.11208797 1.853 -0.2025414407 0.8619257808 0.464823544
0.28529191 -0.46625495 1.7310001 0.1741582006 0.3783067763 0.9091495275
0.43539196 -0.48450086 1.594 0.3353384733 -0.09941474348 0.9368376732
0.44534275 -0.40557039 1.594 0.3178697526 -0.1232139766 0.9400942326
0.07310085 -0.25504074 1.853 0.4501016736 -0.1316912025 0.8832134008
0.12508367 -0.15432402 1.853 0.6111012697 -0.3746876419 0.6972549558
0.094808869 -0.091595009 1.8330001 -0.160681501 0.858599484 0.4868144691
-0.11624074 -0.052836701 1.7220001 -0.186876446 0.7287383676 0.6588001251
0.40209547 -0.45619628 1.6240003 0.889367044 -0.06534780562 0.4524996281
0.25576049 0.018679136 1.6390001 0.1727089882 -0.528727293 -0.8310348988
-0.13934179 -0.20313682 1.9150001 -0.04511101916 0.9299593568 0.3648843765
0.16370787 -0.25589287 1.813 -0.1705850661 -0.0492127575 0.9841132164
0.17370009 -0.0065074968 1.7129999 -0.05580132455 0.821287632 0.5677788258
0.37637097 -0.30252627 1.6355001 -0.7151904106 -0.4729984105 0.5145630836
0.38294116 -0.47004148 1.7130001 0.9713718295 -0.05045853183 0.2321438342
0.021118023 -0.39799351 1.853 0.3695470095 0.0765138194 0.9260565042
0.14457723 0.29077893 1.853 0.1038511619 -0.3723317683 -0.9222711325
0.10508145 -0.46450269 1.7372223 0.3527413011 -0.03970531002 0.9348781109
0.34610799 -0.022092 1.6799999 0.9280478358 0.2893297374 -0.2345539182
-0.0042236047 -0.12508367 1.853 -0.3848490119 0.7947537899 0.4693160951
0.025991414 -0.30539912 1.853 0.1968371272 -0.333059907 0.9221313596
0.34419334 -0.45137638 1.7220001 -0.1926853359 0.5578967929 0.8072320223
-0.0061135227 0.09914539 1.516 -0.2729605734 0.8297357559 0.4868583679
-0.074718297 -0.18762596 1.8940001 -0.2227182388 0.8440129757 0.4878920913
-0.064974152 0.017326439 1.6470002 0.07182070613 0.7880205512 0.6114453673
0.23406298 -0.095681153 1.8040001 0.6178483367 -0.5561090112 0.5558832288
0.28523889 -0.42252189 1.6710002 -0.07775300741 0.6923080683 0.7174008489
-0.10279793 -0.10754246 1.8040001 -0.4997319281 0.5901922584 0.6339882612
-0.01262926 0.17448997 1.47 0.09547673911 -0.3689273298 0.9245414138
0.19030154 -0.19501975 1.794 0.6023274064 -0.06188472733 0.7958467007
0.29728818 0.37968871 1.8430001 0.5234215856 0.6643229723 -0.5335774422
0.087797292 -0.38969675 1.7570001 0.594001174 -0.282034874 0.7534049153
0.0050075199 -0.16190982 1.904 -0.3910312951 0.7099675536 0.5856966376
-0.18193989 0.26316306 1.853 0.3441549242 0.4183255434 0.8405719399
0.0051157256 -0.055383295 1.7760001 -0.3113672435 0.7007613778 0.6418597698
-0.031223362 0.38508809 1.6960001 -0.1747047007 -0.776421845 -0.6055141687
0.007310085 -0.44429073 1.853 0.3859792352 0.1640766859 0.9077988863
0.18934685 -0.04225095 1.7850001 -0.2314209789 0.8795400858 0.4157565534
0.12535422 0.13439555 1.4740834 -0.2537617683 0.4968895316 0.8298829794
0.033745531 -0.46359932 1.8330001 0.7912424803 0.3986389041 0.4637050331
0.23599166 -0.49803433 1.748 -0.2009095848 0.7090818286 0.6758981347
0.28567323 -0.30422175 1.6390001 0.4705823958 -0.009314090014 0.8823068738
-0.18473607 -0.004297615 1.6335557 -0.2807709873 0.8098820448 0.5150327086
0.3968685 -0.40588263 1.636 0.8178617954 -0.1554741412 0.5540124774
0.12556234 -0.30516413 1.8129998 0.4413194954 -0.2125098556 0.8718237877
0.035035543 -0.19375078 1.9260004 0.6096655726 -0.2141934931 0.7631703615
0.28350285 -0.3451772 1.6390001 0.2815423608 -0.05846526101 0.9577659965
0.24203013 0.34218052 1.904 -0.6201223135 0.734755218 -0.2749236524
0.04457061 -0.24431296 1.8830003 0.3992191255 -0.5328612924 0.7461118698
-0.31547076 0.34666047 1.853 0.1105611101 -0.00531698158 0.9938551188
0.16970864 -0.29737934 1.7760001 0.5918498635 -0.803030014 0.06968857348
-0.053352181 -0.15515685 1.863 -0.3860643208 0.6679694057 0.6362162828
0.13509873 -0.22410494 1.813 0.4965210259 -0.03561654314 0.8672936559
-0.092739061 -0.21467374 1.9590001 0.09854087979 0.7595401406 0.642952919
-0.18695444 -0.12106065 1.748 -0.1586451977 0.7270674706 0.6679854989
0.33712304 -0.3145541 1.6090001 0.3128572404 0.03412358835 0.9491869807
0.12611376 -0.054493595 1.7760001 -0.08419620246 0.8629308343 0.4982583523
-0.10729962 -0.19313931 1.8830001 -0.2045867294 0.8294363022 0.5197880864
-0.26941633 0.057832822 1.6090001 0.6741349101 -0.02369313501 0.7382281423
-0.22009681 0.02906939 1.5790001 0.142128557 0.6348227262 0.7594732046
0.085999459 0.074957117 1.5737501 0.1906025559 0.9142906666 0.3574118912
0.433898 -0.31431594 1.6350001 0.04880413413 -0.08462309837 0.9952170849
0.33712974 -0.097904958 1.5160002 -0.5928727388 0.2278921604 0.7723775506
0.38925841 -0.086015902 1.6630001 0.6013641953 0.541821897 0.5871883035
-0.03496673 -0.10490018 1.813 -0.1312859356 0.782553494 0.6085836291
0.36761087 -0.11984384 1.536 -0.5511602759 0.6366269588 0.5393778086
0.28380856 -0.17511591 1.7220001 0.7419478893 0.2236585319 0.6320523024
0.054573815 -0.43542942 1.7659999 0.6152195334 -0.1294020116 0.7776631713
0.039318498 -0.41992158 1.794 0.935875535 -0.1343592852 0.3257062435
0.055251043 0.048167571 1.6160001 -0.1138055846 0.8559321165 0.5044090152
0.22781323 0.28920969 1.8430001 -0.5999727845 -0.2538542449 -0.7586769462
0.1743519 -0.1309648 1.8330001 0.5109058022 -0.7056643367 0.4909308851
-0.11459494 0.0611475 1.5500001 0.02203249373 0.8330436945 0.5527683496
0.40479645 -0.28437316 1.6550001 0.3478332162 -0.02602260187 0.9371952415
0.1328676 0.011806947 1.684 -0.07338333875 0.8720710874 0.4838459194
-0.082262017 -0.30722344 1.9150001 0.9248577952 -0.06159441173 0.375292182
0.0048654201 0.11641408 1.4890002 -0.09039593488 0.7479451299 0.6575763822
-0.19151661 -0.30033284 1.6550001 0.01002096944 0.7011833787 0.712910533
0.17148915 0.26295003 1.863 -0.1469394118 0.01839579083 -0.9889743924
0.22175634 -0.083560362 1.8330001 0.6213340163 -0.4425029755 0.6466337442
0.17727339 -0.36560768 1.7050002 0.4715297818 -0.08115761727 0.878107667
0.065990075 -0.025045738 1.7390002 -0.05336813256 0.7904897928 0.6101456285
0.037564289 -0.48670253 1.863 0.5085877776 0.5074795485 0.6955595016
-0.27502784 -0.087440923 1.705 0.07124761492 0.8258119226 0.5594269037
0.38551888 -0.48650718 1.6378335 0.781758368 -0.4650791585 0.4153977036
-0.1548544 0.13869567 1.536 0.4005767405 -0.6341465712 0.661359489
0.0208559 0.068129271 1.5860001 -0.1113029718 0.8658548594 0.487757057
-0.2945258 0.27656028 1.863 0.04080151767 0.4788145721 0.8769674301
0.13509871 -0.071522847 1.8130001 -0.1360742152 0.8692802191 0.4752217233
0.28698558 -0.13751394 1.705 0.6746054888 -0.05434698611 0.7361751199
-0.011125777 0.276555 1.8130001 -0.2563439906 -0.7202620506 -0.6446008682
-0.16266444 0.064365573 1.5360001 0.1041309908 0.5467869639 0.8307711482
-0.24661773 0.29234818 1.863 0.4068481624 0.7833894491 0.4698675573
-0.28753 0.3232682 1.853 0.06222262979 -0.4816178083 0.8741696477
-0.29303724 -0.051026385 1.6630001 0.2603222132 0.6667504907 0.6983380914
0.24463998 -0.30470127 1.6710001 0.640434444 -0.1788967401 0.7468866706
-0.12345921 0.25179181 1.853 -0.6252610087 -0.3167993426 0.7132228613
0.32758754 -0.036230877 1.7220001 0.8569908142 -0.1730507165 0.4854072034
0.024174457 -0.075234525 1.804 -0.2055462301 0.7145278454 0.6687306762
-0.076422885 -0.024681324 1.6960001 -0.2224399298 0.7755255103 0.5908305049
-0.034481928 -0.29391742 1.8730003 0.2568574548 -0.193811506 0.9468164444
-0.03530293 -0.33414632 1.8730001 0.4802364707 -0.2341722995 0.8453024626
-0.02415392 0.36532801 1.7220001 0.3461846113 -0.6020276546 -0.7195268273
0.31875598 -0.27908859 1.6160001 0.4293248653 -0.1628837734 0.8883405924
-0.034721259 -0.028682778 1.7220001 -0.2760311365 0.7725626826 0.5717986822
-0.14482972 -0.071652599 1.739 -0.2631464899 0.7079021335 0.6554605365
0.01485687 -0.27402669 1.8830001 0.3191149533 -0.1257874072 0.9393312335
-0.1454253 -0.02488777 1.6879998 -0.2493383586 0.6822954416 0.6872432828
0.085523777 0.13732809 1.464 0.01027640328 0.518150866 0.85522753
0.23139793 -0.057849478 1.404 -0.1558288038 0.6627312899 0.7324647903
-0.025513193 0.0065605352 1.6630001 -0.1542554051 0.8782173991 0.4527024329
0.41823003 -0.41681948 1.6090001 0.6342802048 -0.1703333408 0.7541055679
-0.1640708 0.23554718 1.853 0.1675161719 -0.7099255323 0.6840643883
-0.065932341 0.1055156 1.4960002 0.02018307522 0.7040971518 0.7098167539
0.073998906 -0.35319129 1.8430001 0.5978597403 -0.4150169492 0.6858022213
0.095379196 -0.20537856 1.8529999 0.6017512679 -0.3636721075 0.7110822797
0.1018073 0.1739745 1.47 -0.4048024416 -0.4937113822 0.7696648836
-0.24387364 -0.25399289 1.6160001 0.192888543 0.2544637024 0.9476509094
0.03438497 -0.14722107 1.904 -0.06156865135 0.7359862328 0.6741910577
0.12513541 0.063958086 1.5860001 0.1454862505 0.9414080381 0.304277271
-0.015449497 0.047759045 1.6023334 -0.1554354876 0.8414728642 0.5174584985
0.23486952 -0.1026752 1.4640001 0.04388231412 0.6896858811 0.7227777839
0.031610847 0.027300276 1.6390001 -0.1566722393 0.8326352835 0.5311989188
-0.044560965 0.06238535 1.5640001 -0.169977814 0.9036878943 0.3930086195
0.32487077 -0.38551331 1.6470002 0.08892787248 0.5963169932 0.7978081703
0.29449514 0.025513193 1.6630001 0.07317763567 -0.6606345177 -0.7471325397
0.23937909 -0.25722101 1.6960001 0.6693575382 -0.4832566381 0.5642902255
0.27481657 -0.22375777 1.7130001 0.641277194 -0.7632942796 0.07839246094
0.31815988 -0.19089592 1.6880001 0.7533668876 -0.2540910244 0.6065278649
-0.19255808 0.083486721 1.536 0.4942627251 0.07456392795 0.8661088943
0.21827157 -0.40578008 1.6710001 0.32938236 0.1821561307 0.926459074
-0.075070716 0.074060798 1.5360001 -0.08980881423 0.814616859 0.5730041862
0.34601173 -0.0536157 1.6710001 0.7357574701 0.3214941323 0.596072495
0.11533076 -0.43552542 1.7310003 0.517805934 0.1557396501 0.8412027955
-0.19609544 -0.31575167 1.6850001 0.2096845061 0.7318432927 0.6484117508
-0.0043105702 0.024426561 1.6390001 -0.2492926866 0.7804991007 0.5733012557
-0.0053079976 -0.34420323 1.863 0.2263836861 -0.04276602715 0.9730989337
0.360836 -0.243012 1.6800001 0.0741289556 -0.05070928857 0.9959585667
0.14457725 -0.12508367 1.853 0.3766486645 -0.2635516524 0.8880745173
0.17475855 -0.024273694 1.3843753 0.6739174724 0.1360950768 0.7261634469
0.064263172 0.11235126 1.4959999 0.1910968274 0.8443862796 0.5004935265
0.36496159 -0.36136943 1.6390001 -0.4224531054 0.6142062545 0.6665464044
0.0125188 0.30358088 1.7850001 0.02330561541 -0.8191049695 -0.5731700063
-0.075531848 0.24794149 1.8730001 0.1619081944 -0.5521129966 0.8178979158
0.34453219 -0.42300481 1.705 -0.2042589039 0.4042506218 0.8915490508
0.46533644 -0.45415717 1.5940001 0.3338633478 -0.3367884159 0.8804026246
0.3155106 -0.46496296 1.7220001 -0.07713096589 0.2692063451 0.9599889517
0.29339752 -0.21505511 1.6860001 0.339115113 -0.9287406802 0.1498055756
0.10615995 -0.10942641 1.863 0.01374513097 0.7467149496 0.6650021076
-0.014879663 0.0780055 1.5430001 -0.3214528561 0.8441476226 0.4290487766
0.38550952 -0.39592308 1.6630001 0.5762712359 0.2759845853 0.7692489624
0.079404958 -0.048265759 1.7760001 -0.05630750954 0.7729680538 0.6319413185
-0.2339911 -0.11246669 1.7220001 -0.2284492999 0.7117496133 0.6642464399
-0.065981314 -0.11666592 1.8230001 -0.1080859825 0.751640141 0.6506569982
0.13377231 0.10885394 1.4960001 -0.2597813606 0.7713779211 0.5809386373
-0.27349126 0.02639446 1.6060001 0.5313184261 0.3010106087 0.7918922305
0.27739269 -0.49553275 1.7220001 0.398542881 -0.3126639426 0.8622092605
0.16765636 0.29192564 1.8330001 -0.1685189158 0.004483845085 -0.9856882095
-0.1660582 -0.14708012 1.8040003 -0.2663172483 0.6993969083 0.6632639766
0.045042254 -0.12475055 1.8830003 -0.07442865521 0.7752603889 0.6272413135
-0.10273364 0.12634052 1.4959999 0.559166193 0.103872478 0.8225227594
0.21250662 -0.2463074 1.7850001 0.6023035645 -0.04838763177 0.7967993021
0.14503582 0.074968413 1.5549001 -0.04775880277 0.906915009 0.418598026
0.13458587 0.049584266 1.6160001 0.2684261501 0.8793008327 0.3934175968
-0.065849937 -0.20092674 1.9260001 -0.05727592483 0.8916596174 0.4490686059
0.092094712 -0.31506085 1.8430001 0.4736113548 -0.01749038324 0.8805602789
0.20574115 -0.21552774 1.7760001 0.5667843223 0.04693111777 0.8225284219
0.0045661181 -0.2436647 1.8940001 0.2777080834 -0.6810204387 0.6775613427
0.19610682 -0.47442308 1.7050002 0.2357419133 0.2989265025 0.9246992469
-0.28462699 -0.016055975 1.6348002 0.2889249623 0.601606369 0.7447094321
0.064978532 -0.29402784 1.8530002 0.3737622797 -0.06222823262 0.9254347086
0.36079916 -0.01358658 1.7220001 0.8302351236 -0.5529705882 0.07023687661
0.24306636 -0.18423502 1.7660002 0.6994293332 -0.104388915 0.7070371509
0.26053831 0.064066797 1.6240001 0.7239192724 0.003198897699 -0.6898772717
-0.10519865 0.045111515 1.574154 -0.1529104412 0.8727561831 0.4635893106
-0.043562271 -0.22524056 1.9260002 0.6498810649 -0.3792251945 0.6586675048
-0.12792321 0.15216129 1.536 0.7096327543 -0.546005547 0.4453081489
0.18058369 -0.31412458 1.7310001 0.8070230484 -0.1960743368 0.5570176244
