# .PCD v0.7 - Point Cloud Data file format
VERSION 0.7
FIELDS x y z normal_x normal_y normal_z
SIZE 4 4 4 4 4 4
TYPE F F F F F F
COUNT 1 1 1 1 1 1
WIDTH 512
HEIGHT 1
VIEWPOINT 0 0 0 1 0 0 0
POINTS 512
DATA ascii
0.21491341 -0.48437554 1.3563912 0.2708601058 -0.4466320872 0.8527336121
-0.49470037 -0.49470037 2.3810003 -0.05945234001 0.7513177395 0.6572572589
0.24598566 0.43425927 1.3490001 0.1792813987 -0.519937098 0.8351787925
0.49732774 -0.2204273 2.0780001 0.05221609026 0.7738769054 0.6311798096
-0.26153859 -0.017869096 1.853 0.9966384768 -0.03844764456 0.07234347612
-0.14061558 -0.01691616 1.2060001 0.1519169658 0.4336279333 0.8881936669
0.056481879 -0.36108059 2.3010001 -0.02914300375 0.7511075735 0.6595363021
0.46712542 0.13424222 1.6826668 -0.5602304935 -0.7922626734 0.2417884916
0.35185629 -0.031986937 1.177 -0.05071806163 0.7497383952 0.6597878337
-0.20865719 0.28308266 1.516 0.8964450359 -0.1454530358 0.4186044335
-0.0055159866 -0.22785266 1.452 -0.1924174428 0.8269263506 0.5283638239
0.44281587 -0.31528977 1.2524999 0.4996561706 -0.2322594225 0.8345053792
0.25614622 -0.17280678 1.3980001 0.07529103756 0.6525521278 0.753993988
0.10637046 0.065920696 1.1175716 0.09160192311 0.5153800249 0.8520519137
0.28148732 0.21750362 1.2246001 0.4961027205 -0.376521945 0.7823767066
-0.18760052 -0.35704616 2.3010001 -0.02914300375 0.7511075735 0.6595363021
0.32599989 0.25295427 1.5430001 -0.7867904902 -0.6166197658 0.02721715719
0.066167995 -0.082879364 1.2880001 -0.004280812573 0.800162077 0.599768579
-0.19324188 0.088620484 1.404 0.352124244 -0.4720100462 0.8082172275
0.26304209 -0.31841937 2.256 -0.007816180587 0.7606640458 0.6490986943
0.018843951 -0.44471723 1.4330001 0.4742269814 -0.1326167583 0.8703571558
0.37610886 -0.49574158 1.2561365 0.6134307384 -0.333239615 0.7159986496
0.40593779 0.097427092 1.4731113 -0.3805756867 -0.7085194588 0.5942746401
-0.19877101 0.15814628 1.6550001 0.9797121286 0.1579526663 0.1233492792
-0.12536541 -0.16387592 1.3274546 -0.5167058706 0.5363266468 0.6673595309
0.15400465 -0.32266781 1.4449999 0.2673698366 -0.379032284 0.8859164119
0.30638576 -0.33577344 1.3590001 0.6202613115 -0.2783479691 0.7333472967
0.41237319 -0.15581055 1.3363334 0.3315526247 -0.02439293824 0.943121314
0.22550842 -0.073402479 1.2758124 0.01325473562 0.7988087535 0.6014389992
0.25867629 0.06080823 1.1010001 0.0267045442 0.6997733116 0.7138656974
0.1150429 -0.16740571 1.3920001 -0.09469994903 0.7467792034 0.6582952738
0.0049145548 -0.0055511678 1.1830868 0.05370986834 0.6883502007 0.723387301
-0.16656315 -0.0234596 1.3380001 0.5379116535 -0.3688572347 0.758020699
0.24787399 0.3195073 1.2970001 0.3839971125 -0.3628282249 0.8490594029
0.28984001 0.36328366 1.4960001 -0.949937284 -0.2749731541 0.1483539343
0.42186925 0.17620386 1.5743333 -0.4654988647 -0.7247166634 0.5080320239
-0.20401436 0.080656841 1.8040001 0.968714416 -0.2382436395 -0.06951481104
0.13366787 -0.02069209 1.2060002 -0.07782591134 0.794885993 0.6017469168
-0.054637577 -0.084801495 1.2658823 -0.1452703327 0.787294209 0.599219799
-0.0051626903 -0.15130652 1.3590001 -0.2269894034 0.7059084177 0.6709464788
0.45567906 -0.42184675 1.2060001 0.5892387033 -0.1385683715 0.7959877849
-0.17795423 0.19424757 1.452 0.2767196 -0.5131621361 0.8124597669
0.1277612 -0.42513213 1.404 -0.08067475259 -0.291372329 0.9532018304
0.34498703 -0.085970454 1.2760768 0.104100205 0.7941329479 0.598762095
0.042179938 -0.33104861 1.4580001 0.5239537358 -0.5049835443 0.6859038472
0.35428292 -0.23902142 1.3840001 0.7526849508 -0.396007508 0.5259689689
0.24480963 -0.0067933924 1.1859412 0.1185149923 0.8082205653 0.5768307447
0.36923096 -0.3872973 1.2880001 0.5716767311 -0.2140549719 0.7920644879
0.29822358 0.13015257 1.169 0.4699509442 -0.4366112053 0.7671484947
0.24480541 -0.27478543 1.4247501 0.3262282312 -0.3277753294 0.8866444826
0.15631668 -0.34670237 2.286 -0.02914300375 0.7511075735 0.6595363021
0.22371449 -0.38358888 1.3930911 0.3544923365 -0.3760798872 0.8560952544
0.30628565 -0.45518103 1.3257893 0.6262642145 -0.2476579696 0.7392284274
-0.081761442 -0.22331856 1.3920001 -0.6836516261 0.3866845071 0.6189471483
0.15504454 -0.11141303 1.3253335 0.02916206792 0.770550251 0.6367117763
-0.15207142 -0.091693632 1.2755001 0.1983103454 0.8276725411 0.525005877
0.40561438 -0.24520192 1.3069999 0.6078230143 -0.1620419174 0.7773632407
-0.22558649 0.24282877 1.6390001 0.9717835784 0.1473791748 0.1841632724
-0.26693186 -0.082262017 1.9150001 0.9041028023 0.3654322326 0.2214890122
0.075508639 -0.49468884 1.3857374 0.4193740785 -0.189287886 0.8878600597
0.2816318 -0.11802826 1.3330001 0.1571440995 0.7597966194 0.6308841705
0.18487337 0.033591591 1.1337998 0.06580997258 0.7629954815 0.6430450082
0.35450295 0.18935299 1.6240001 -0.05400227755 -0.9266513586 0.3720229268
0.071906827 -0.22076659 1.439 -0.06454665959 0.6794703603 0.7308582664
0.18437 -0.19225971 1.4210001 0.07612971961 0.6923750639 0.717510283
0.32261625 0.021463722 1.13 0.1480140835 0.4628633261 0.8739847541
-0.07428626 0.013274726 1.1813637 0.1955460608 0.385977149 0.9015449882
0.36409864 -0.31498817 1.3141053 0.6724736691 -0.2659470439 0.6906890273
0.033009131 0.05101411 1.141 0.2742527127 0.375795424 0.885191083
0.29425493 -0.048681296 1.2340001 0.1022906825 0.8264496326 0.5536403656
0.14525156 -0.065713979 1.2665454 -0.07172495127 0.7991078496 0.5968937874
0.054826207 -0.04192378 1.2262002 0.00400007423 0.8503168821 0.5262557864
0.065044284 -0.13363643 1.3490003 -0.07106098533 0.726593256 0.6833831668
-0.15686636 0.045669947 1.3590001 0.6749337316 -0.2882147133 0.6792618632
0.094715416 -0.36515474 1.4216 0.1843611747 -0.320012033 0.9293025732
0.087531656 0.01119591 1.161 9.132327978e-05 0.7357587814 0.6772437096
0.1452812 -0.49032405 1.381 0.07313787937 -0.4222652912 0.9035169482
0.21473451 -0.13648273 1.3554286 0.0887318477 0.754527986 0.6502416134
-0.063501351 -0.13046642 1.317 -0.09621411562 0.7771971226 0.6218580604
0.006932179 -0.28534347 1.4960002 0.4578565061 -0.1975986362 0.8667884469
0.19491912 0.081771091 1.0846001 0.1013112664 0.5485445261 0.8299608231
0.40217081 -0.43285418 1.25 0.7912184 -0.1598073095 0.5902839303
0.0045799264 -0.10417058 1.3057501 -0.1499530375 0.7768293023 0.6115965843
0.28121275 -0.40327105 1.365 0.46434021 -0.2138772458 0.8594444394
-0.074764043 -0.043153513 1.2167271 -0.01642098837 0.6922742724 0.7214476466
0.024616798 -0.19078019 1.404 -0.08053583652 0.7432301044 0.6641708612
0.19495553 -0.034241177 1.22525 0.04812067002 0.7899631262 0.6112631559
0.27367103 0.27485484 1.2537333 0.6489537358 -0.2832997143 0.7061163783
-0.011880587 -0.046442296 1.2320001 -0.1548028737 0.7866811156 0.5976361036
0.0075691398 -0.38224158 1.439 0.2805227339 -0.1280007064 0.9512743354
0.42145222 -0.48211581 1.2140001 0.607441783 -0.1189656258 0.7854053974
0.30242687 -0.2833541 1.3944001 0.6223091483 -0.4010075033 0.6722531915
0.4257746 -0.37508625 1.2438966 0.6001039743 -0.2602393627 0.7564064264
0.41512227 0.13525258 1.5275 -0.3132347465 -0.7103284001 0.6303313375
0.2617557 0.3770695 1.3153334 0.2735943496 -0.5229786038 0.8072419167
0.36868656 -0.073737308 1.2190001 0.4632476866 0.8321570158 0.3048216403
-0.074518673 -0.16655192 1.3649999 -0.0552440919 0.7433366776 0.6666323543
0.18502574 -0.43521923 1.3862503 0.271733284 -0.2223594487 0.9363318086
0.0674069 -0.42527625 1.3980001 0.2710445225 -0.3710759878 0.8881652355
0.21177638 -0.33136773 1.4210001 0.3787670135 -0.4421227872 0.8130577803
0.16808727 -0.37551853 1.4145455 0.3328724504 -0.3811894059 0.8624908924
0.36816084 -0.11705428 1.322 -0.3698621094 0.6844297051 0.6282976866
0.35486448 -0.44528461 1.284667 0.6087588668 -0.201922372 0.7672287822
0.30308387 0.078021586 1.1409999 0.434666127 -0.2905664742 0.8524297476
-0.19974586 0.13944523 1.4330001 0.6457653046 -0.2947330773 0.7043575644
0.28485698 -0.084642224 1.2850002 0.1248941198 0.7777460217 0.6160459518
0.32474923 -0.39569852 1.3247274 0.6092220545 -0.2224927098 0.7611474991
-0.20411517 0.2353175 1.4829999 0.3292384446 -0.5080982447 0.7958883047
0.26960129 0.1638753 1.2060001 0.6000470519 -0.3344476521 0.7266968489
0.18222043 0.0010353433 1.1810001 0.02207399532 0.8038125038 0.5944730043
0.26505205 -0.32580572 1.3965001 0.2762196362 -0.4166738689 0.8660748005
-0.034120869 -0.1933486 1.397143 -0.04727921635 0.8027204871 0.5944783092
-0.1246094 -0.061762918 1.2360001 -0.007403461263 0.6776618958 0.7353363633
0.26596785 -0.49572876 1.3371665 0.2547962666 -0.4284136593 0.8669143915
0.44277278 0.18508187 1.6240001 -0.509539783 -0.725018084 0.4633766413
0.027670523 -0.49478188 1.4133334 0.4700595737 -0.2573690116 0.8442779183
0.3394129 -0.27791649 1.3490001 0.7187858224 -0.2670785189 0.6418847442
0.3037982 -0.0073577384 1.1747143 0.3845074475 0.8232488036 0.4176307023
0.39714941 -0.33616892 1.2772307 0.6627755761 -0.2488660514 0.7062536478
0.16438489 -0.15297994 1.3760003 0.04742716998 0.7223095894 0.6899416447
0.25507054 0.021005809 1.141 0.01500195358 0.7943059206 0.6073327065
0.33166948 -0.49308205 1.293 0.602263093 -0.3206729889 0.7310594916
0.43908727 -0.2590059 1.268 0.5392769575 -0.3168565631 0.7802450657
-0.10533676 -0.10986737 1.2920001 -0.06922642887 0.7467341423 0.6615102887
-0.022900725 0.032569923 1.161 0.1566207856 0.4232966602 0.8923507333
0.20531876 -0.10266138 1.3157501 0.07394942641 0.7833285332 0.6171935201
0.23788089 -0.43803439 1.3590001 0.414414227 -0.3263808191 0.849550724
0.104674 -0.10659754 1.3145002 -0.06278039515 0.8072322607 0.5868855715
0.13526282 0.025240548 1.1443335 0.03182851151 0.7711133361 0.6359018683
0.19561343 -0.28524277 1.4365002 0.4123167992 -0.2399031371 0.8788864017
0.13469136 -0.20307952 1.427 -0.08569283783 0.6716278195 0.7359163165
0.01494892 -0.074065924 1.2667692 -0.05440959707 0.7779221535 0.6260005236
0.095018007 -0.05696483 1.2522223 -0.03886083141 0.8026350141 0.5952032208
0.10472075 -0.31711811 1.4450001 -0.05091936514 -0.4254626036 0.9035423398
0.24504429 -0.043146029 1.2337779 0.01874244586 0.813236773 0.5816310048
-0.14453077 -0.13888504 1.2880001 -0.01497703418 0.06769682467 0.9975935221
0.15504663 0.065127835 1.1065861 0.250579685 0.4479476511 0.8582264781
0.39748979 -0.20517218 1.3330001 0.4228888452 -0.385553956 0.820069015
0.2943759 -0.15197454 1.365 0.1369534135 0.7247176766 0.675298512
0.066141345 -0.16913636 1.3920001 -0.09213110805 0.7343134284 0.6725292802
0.054765128 -0.012770883 1.1868182 0.04309859499 0.7813865542 0.6225572824
0.11492073 -0.13648273 1.3554287 -0.07720496505 0.7534814477 0.6529204845
0.34405425 -0.35450432 1.3241003 0.7223302126 -0.194415167 0.6636579037
0.32090208 -0.10926773 1.312 0.1835155338 0.7250165343 0.663832128
-0.16362107 -0.37837371 2.3330002 -0.02914300375 0.7511075735 0.6595363021
0.39858878 -0.2856741 1.2880001 0.6013255119 -0.2804258764 0.7481770515
0.054826185 -0.3862814 1.421375 0.3311711252 -0.3167876899 0.8888033032
-0.033842184 -0.022823799 1.197 0.025550019 0.7010332346 0.7126708031
0.10250688 -0.46006063 1.3920001 0.04013539851 -0.5682356954 0.8218864202
0.36792472 -0.2467168 1.3380002 0.6945300102 -0.1825557798 0.6959177256
-0.10530521 -0.19864389 1.3649999 -0.4791647494 0.485658437 0.7311204076
0.33632439 -0.044302728 1.2157143 0.5813099146 0.7605038285 0.289331466
0.26599279 -0.3656956 1.3810003 0.2923082709 -0.2779141366 0.9150516987
0.18446118 -0.077608667 1.2830001 -0.006151339039 0.7727248073 0.6347113848
-0.038781103 -0.2239296 1.427 -0.2027701735 0.6762694716 0.7081976533
0.094787017 -0.033020355 1.2148666 -0.09184054285 0.818099916 0.56769526
0.27365005 0.097005799 1.1730002 0.7275465727 -0.3356300294 0.5983548164
0.21781135 0.01221372 1.161 0.03894096985 0.8375759721 0.5449312925
-0.16862507 0.12185316 1.404 0.4635902643 -0.3741415739 0.8031825423
0.21508144 -0.17475824 1.3940001 0.08375696093 0.6782596111 0.7300333381
0.045059789 -0.10619417 1.3143686 -0.1161556318 0.7758587599 0.6201217771
0.07443314 0.044656906 1.1320801 0.2026750445 0.5044982433 0.8392879963
-0.094920203 -0.081675522 1.2589999 -0.0208506044 0.7477747202 0.6636250615
0.25519571 -0.14225198 1.3590001 0.03247885033 0.7471154332 0.6639003158
0.13510837 -0.35528493 1.427 -0.1302994788 -0.3893324733 0.911834538
0.24626419 -0.094686203 1.3033333 -0.08138879389 0.7738170028 0.6281585097
0.15169841 -0.040091719 1.2360001 -0.05332308263 0.7767557502 0.6275405288
0.22660869 0.038258608 1.1190001 0.08148610592 0.7441356778 0.6630400419
-0.16202313 -0.05239683 1.2260001 0.006423688494 0.5954115391 0.8033951521
-0.035157554 -0.10547557 1.2936667 -0.1073339731 0.7257961035 0.6794846654
0.094276734 -0.19227491 1.4150001 0.01118121482 0.7088682055 0.7052523494
0.035012998 0.012348239 1.1632223 0.0870385021 0.6625087857 0.7439801097
0.053277787 -0.46613669 1.4040002 0.5193837881 -0.2429797351 0.8192687631
0.026587546 -0.13176474 1.3380002 -0.06655699015 0.7691254616 0.6356226802
0.27510345 -0.024888361 1.2034116 0.1136283055 0.8084371686 0.5775101185
-0.025600202 -0.13264602 1.3272501 -0.1829863489 0.7447464466 0.6417699456
0.034922894 -0.15534395 1.3736 -0.09094919264 0.7373656631 0.6693430543
0.01155096 -0.30674216 1.4640001 0.3689141572 -0.2998048067 0.8797837496
0.005200387 -0.24831846 1.483 0.3665154576 0.5961838961 0.7143046856
-0.18185456 0.056706011 1.386 0.6569609642 -0.239554733 0.714853704
-0.10479814 -0.0052433419 1.1954004 0.2501473427 0.413991183 0.8752357364
0.031669583 -0.22168708 1.4450001 -0.01561184041 0.8250271678 0.5648773313
0.27473018 -0.44497299 1.3450003 0.4435901046 -0.1818065047 0.8775957227
0.11506338 -0.082347706 1.2867501 -0.04451253265 0.7721819282 0.6338404417
0.12460264 0.0046612364 1.1746473 -0.04301740229 0.788416028 0.6136364937
0.27675492 -0.25818491 1.4125001 0.3584631979 -0.02821025252 0.9331175089
0.31735948 -0.24926703 1.3870001 0.6878603101 -0.2080379426 0.6953908801
0.29800737 -0.49582371 1.317 0.5853296518 -0.2629929483 0.766957581
0.30237046 -0.37306198 1.3552501 0.6002258658 -0.2389147431 0.7633142471
0.18039082 -0.47216392 1.381 0.2347552925 -0.3532682359 0.9055890441
0.33499998 -0.31529149 1.3458238 0.7387450337 -0.2881533504 0.6092810631
0.39812592 -0.39647117 1.258 0.6885325313 -0.2161136568 0.6922556162
-0.036298383 -0.17112094 1.3650001 -0.09248264879 0.7430399656 0.6628261805
0.3340683 -0.0080863731 1.153 -0.06589542329 0.6625556946 0.7461084127
0.42681745 -0.22131275 1.2880001 0.5599724054 -0.2782089412 0.7804042101
0.43094128 -0.41258037 1.2320001 0.5011003613 -0.3300665021 0.7999715805
0.15557817 -0.1755178 1.4040002 0.1048873737 0.7359127998 0.6689028144
0.024397632 -0.028640699 1.21 0.03118548729 0.8124899864 0.5821403861
0.26555926 -0.061307926 1.2584286 0.1245088056 0.8159518838 0.5645529628
0.41399837 0.20241487 1.6090001 -0.05400227755 -0.9266513586 0.3720229268
0.37485701 -0.27573133 1.3166875 0.6108664274 -0.290897876 0.736356318
0.0550985 -0.061712071 1.257 -0.01933765039 0.7959384322 0.605068624
0.061299164 -0.32901388 1.427 0.2078111023 -0.2490501255 0.9459326267
0.24984474 0.28793767 1.2780001 0.6197721362 -0.3877509534 0.6822988391
0.1951008 -0.055690523 1.2546877 0.05008137226 0.8133412004 0.5796273947
0.14956021 -0.44868064 1.3870001 0.1188511476 -0.2956230342 0.9478825927
-0.17381582 0.013573078 1.3580002 0.6463969946 -0.3836874366 0.6595110893
0.2454053 -0.11802826 1.3330001 -0.04050548002 0.7267023921 0.6857572198
0.096928656 -0.4052541 1.4039999 0.160850361 -0.3817507029 0.9101612568
-0.095571324 -0.14298658 1.3280001 -0.2177772671 0.6875123382 0.6927480102
0.28566724 0.046424609 1.1409999 -0.02923168242 -0.1676475257 0.9854135513
0.23092452 0.080776066 1.0840001 0.09432333708 0.6420151591 0.7608676553
-0.0044930922 -0.20639732 1.4234002 -0.09722258151 0.7704721689 0.6300162077
0.23531139 -0.34561357 1.3980001 0.3896332681 -0.3038511872 0.8694022894
0.33243778 -0.43412611 1.3135387 0.6307657957 -0.2424962372 0.7371093035
0.24479066 -0.40597591 1.374909 0.4052500129 -0.316164583 0.8577950597
0.32506916 -0.066558376 1.2536668 0.08254575729 0.8040848374 0.5887560844
0.42781889 -0.44741091 1.219 0.4767315388 -0.246975258 0.8436410427
0.40145108 -0.47107947 1.2410001 0.7174414992 -0.1913105398 0.6698342562
0.37463677 -0.096906044 1.2936666 -0.1785943359 0.7620441318 0.6224088669
0.36908209 -0.3449769 1.2970001 0.5940793157 -0.04126690701 0.8033472896
0.09421391 -0.012371033 1.1867778 -0.1063338518 0.7763778567 0.6212331057
0.27286908 -0.29326472 1.41 0.1580370367 -0.448304683 0.8797995448
0.21496567 -0.017913807 1.202 0.02466824278 0.8094047308 0.5867328644
0.31479552 -0.13219157 1.3373752 0.1986585259 0.7529296875 0.6274007559
0.034889691 -0.41618711 1.421375 0.3345846534 -0.2160958499 0.9172544479
0.45076886 -0.34817255 1.245 0.3881245852 -0.4137082696 0.8235318661
-0.04524301 -0.055204745 1.2346667 -0.1067807004 0.755048573 0.6469154358
0.16247088 -0.41602388 1.4040002 0.2616922557 -0.262288332 0.928828299
0.26721695 0.13724549 1.1842 0.585667491 -0.3581708372 0.7271225452
0.19584766 -0.40468651 1.3980001 0.2651241422 -0.2677945495 0.9262803197
-0.0048532262 -0.17471877 1.3840001 -0.2051822543 0.7499875426 0.6288234591
0.12393546 -0.38482815 1.4137502 -0.02223247848 -0.2001646161 0.9795100093
0.18482813 -0.12182235 1.3380002 -0.001019690302 0.7712171078 0.6365713477
0.28909224 0.0090656104 1.149 0.3087936044 0.7223719954 0.6187287569
0.29460198 -0.31433889 1.3834549 0.6158497334 -0.3283949792 0.7161604762
0.29699856 -0.41593868 1.3380002 0.5050678849 -0.3008881807 0.8089330792
0.17127612 -0.020087941 1.2060001 0.03379150108 0.8246628046 0.5646144152
0.017072907 -0.35288817 1.4532001 0.302839011 -0.5810728669 0.7554090619
0.055560153 -0.1975749 1.4210001 -0.1156927124 0.6784901023 0.7254422307
-0.035052463 0.0051516443 1.1760001 0.1383412778 0.4954785407 0.8575329185
0.26534948 0.34664804 1.2880001 0.3473854065 -0.361225158 0.8653553128
0.16547865 0.016545136 1.1556665 0.0655227676 0.8081258535 0.5853540301
-0.16190864 -0.11505052 1.3036667 0.3579633534 0.2596739829 0.8969011307
-0.20260337 0.1656545 1.4535 0.6337874532 -0.2298875153 0.7385561466
0.37887254 -0.14427654 1.3379999 -0.2273199409 0.2295062542 0.9463891983
0.4527095 -0.38431785 1.2266002 0.5962674022 -0.2298550159 0.7691760659
-0.067985497 -0.1990121 1.4100001 -0.5788783431 0.5139353871 0.6330642104
0.26203069 0.40808102 1.3363333 0.1626382619 -0.5248150229 0.8355345726
-0.014858747 -0.085168041 1.2758571 -0.2222693712 0.7547674775 0.6171891093
0.17453985 -0.34409571 1.422125 0.3260978758 -0.3141867518 0.8915979266
0.024108626 -0.052455932 1.2436666 -0.0384605974 0.8067389131 0.5896550417
-0.072489813 -0.10986737 1.2920001 -0.0808807686 0.7444632053 0.662746489
0.19497786 0.055378452 1.104074 0.03791353479 0.7143679261 0.6987424493
0.23775929 -0.30529672 1.4150001 0.5211099982 -0.3134515584 0.7938466072
-0.11436942 -0.034161538 1.2152942 0.1307071 0.5434432626 0.82920748
0.2643334 0.24549568 1.2426469 0.6595176458 -0.339014709 0.6708990335
0.15479717 -0.084954463 1.2946923 -0.04481197149 0.8048450947 0.5917907357
0.10498574 -0.49456963 1.3715792 0.08257451653 -0.1245300695 0.9887738228
-0.054943621 -0.14795531 1.3430001 -0.07621211559 0.7687074542 0.6350437999
0.38211215 -0.45413908 1.2640001 0.645493269 -0.2220150083 0.7307857275
0.07507696 -0.11152408 1.3266667 -0.02692833729 0.7972669601 0.6030259132
-0.074226648 -0.015897324 1.1953336 0.1255805194 0.5384606123 0.8332404494
0.21509688 -0.42454398 1.3810003 0.3701350987 -0.2112906277 0.9046304822
0.10510502 0.036443442 1.1380002 0.009567528963 0.6399116516 0.768388927
0.4232915 -0.30133349 1.2739999 0.5507667661 -0.2283290327 0.8028211594
0.32127643 -0.29425317 1.3700001 0.6195449233 -0.25713256 0.741651535
0.20450588 -0.36410013 1.41 0.3612940907 -0.2154669166 0.9072158337
-0.096897729 -0.17471543 1.3375456 -0.3977484107 0.4267239273 0.8122209907
0.35452351 -0.41473174 1.2957504 0.6463121176 -0.2481836528 0.7215854526
0.36052915 -0.0756125 1.25 0.380369395 0.8660636544 0.3244269192
0.24906047 -0.4661901 1.3490001 0.3544329703 -0.3157984614 0.8801412582
0.4084653 0.11595143 1.503 -0.3805756867 -0.7085194588 0.5942746401
0.045511879 -0.35642889 1.4389999 0.2881453335 -0.2361770868 0.9280046821
0.40434909 -0.36452794 1.2648696 0.6640588045 -0.2241731882 0.713282764
0.21433115 -0.45513773 1.3726668 0.45211941 -0.2803958058 0.8467385769
0.30554816 -0.031717796 1.2060002 0.07964630425 0.8391809464 0.5379886031
-0.18754354 0.25836417 1.4960001 0.9904125929 -0.04841123894 0.1293800473
0.37906015 -0.41907823 1.268 0.6340447664 -0.2227478027 0.7405205369
0.35609841 -0.47543582 1.2771177 0.6613207459 -0.2109564245 0.71982795
0.19541952 -0.15199296 1.3760002 0.05646300316 0.726323545 0.6850299239
0.18675038 -0.49710751 1.3590001 0.2889974713 -0.5017921925 0.815282166
0.15255842 -0.13127118 1.3490001 0.0492178686 0.7858688235 0.6164315343
0.28334567 0.19294995 1.2060001 0.6044958234 -0.3141914904 0.7320303917
0.18471374 -0.31398246 1.4348463 0.2925534546 -0.4855512083 0.8238036633
0.0050539835 0.04245346 1.153 0.1729412675 0.4093063474 0.8958569169
-0.19140351 0.10883729 1.427 0.4733917713 -0.369109422 0.7997865081
0.094300255 -0.15395997 1.3738827 -0.008158807643 0.7386995554 0.6739854217
0.10558333 -0.2136772 1.43375 1.667049946e-05 0.670276463 0.7421115041
0.31503192 -0.091460876 1.2880001 0.1258166581 0.7677954435 0.6282200217
-0.1531975 -0.075174168 1.25 -0.01427518576 0.7238997221 0.6897574663
0.12515293 -0.051661965 1.245 -0.02755535953 0.7845783234 0.6194171309
-0.17964566 0.16205797 1.4330001 0.6124388576 -0.2780884504 0.7399901748
0.32638559 -0.46582833 1.3048947 0.5949536562 -0.2737058103 0.7557216883
0.13389154 0.051193826 1.123 0.1676734388 0.610325098 0.7742021084
-0.12490256 -0.082312152 1.2586 -0.04268548265 0.7476740479 0.6626926064
0.38970727 -0.17424978 1.3430001 0.3954021633 -0.1852362305 0.8996358514
0.41628844 0.15492202 1.5539999 -0.1963117719 -0.7263846397 0.6586554646
-0.094630904 -0.062485293 1.2360001 -0.007676257286 0.7042996287 0.7098613381
0.034678794 -0.084868297 1.2864376 -0.1082888171 0.7818039656 0.6140489578
0.35080692 -0.38071179 1.312 0.6924489737 -0.1877073944 0.6966207027
0.16624336 -0.29659036 1.4519999 0.2873170078 -0.4295200408 0.8561316729
-0.0057752854 -0.027697796 1.21 -0.1035352722 0.7935312986 0.5996569991
0.29224297 0.15323256 1.1863333 0.4508105218 -0.4377505481 0.7779102325
0.18506256 -0.17403236 1.398 0.07191828638 0.7165386081 0.6938301325
-0.19636631 0.21433449 1.4640001 0.1529509425 -0.5412899256 0.8268078566
0.13510485 -0.15199295 1.3760002 -0.0734038651 0.7380844355 0.6707035899
0.26599857 0.037639435 1.1172857 -0.1909598708 0.751434505 0.6315698624
0.42313844 -0.33417335 1.2640001 0.5102111697 -0.2864472866 0.8109454513
0.2429103 0.35634485 1.307 0.3320490718 -0.4280866683 0.8405267596
0.055374775 0.027183268 1.1484667 0.0671152547 0.6275029182 0.7757161856
0.42176828 -0.21088523 1.3145001 0.5822013617 -0.4526297748 0.6754019856
0.38541883 -0.3159909 1.2946471 0.587015748 -0.2213567197 0.7787257433
0.26747888 -0.0010248233 1.169 0.1069947034 0.8137562275 0.5712730885
0.12427276 -0.11542042 1.3337144 -0.06869982183 0.7855784893 0.6149363518
0.32241434 -0.029358251 1.1750001 0.419323504 0.7992585301 0.4305270612
0.22534442 -0.055756006 1.2531252 -0.008874814026 0.8277848363 0.5609755516
-0.13591841 -0.10873472 1.2920001 0.1975173205 0.6088214517 0.7683250308
0.29486015 0.10414013 1.1551665 0.6178845763 -0.3583755195 0.6998468637
0.39217827 -0.11519103 1.3373752 -0.2649351358 0.4660817385 0.8441428542
0.084722817 -0.35704616 2.3010001 -0.02914300375 0.7511075735 0.6595363021
0.23752846 -0.49675703 1.3380001 0.3206118047 -0.3483884931 0.8808141351
-0.19971956 0.2832624 1.4890001 0.9542902708 -0.08200140297 0.2874122262
0.28507876 -0.34461552 1.3810003 0.5214136839 -0.2781506181 0.8066969514
-0.024805678 -0.067642801 1.25 -0.1444850266 0.7468678951 0.6490858197
0.23467717 -0.15444639 1.3742001 0.03401479125 0.7283086777 0.6844044328
0.27795127 0.076234348 1.1543332 0.5548448563 -0.3321236074 0.7627850771
0.25494632 -0.077233747 1.2830001 0.03992597386 0.7712056637 0.6353328228
0.3374553 -0.25488645 1.3649999 0.7083790898 -0.3258272707 0.6261274815
0.28138983 -0.4721227 1.3430001 0.4612204432 -0.2691802084 0.8454689384
-0.18039082 0.027845563 1.381 0.6620929241 -0.3038481176 0.6850615144
0.29486334 -0.1040051 1.3036667 0.1219392568 0.7604389787 0.6378584504
0.026935585 -0.46343014 1.4125 0.3691406846 -0.217238754 0.9036273956
0.24495885 -0.026874691 1.2112308 0.09183365107 0.826053977 0.5560587645
0.15527909 -0.0036136713 1.1859411 0.01889641769 0.81657511 0.5769298673
-0.1134084 -0.12905094 1.312 -0.3658078611 0.5666540265 0.7383006215
0.38475236 -0.36457497 1.2856191 0.7171482444 -0.1796735823 0.6733615398
0.29475635 -0.069810718 1.2640001 0.1509878635 0.8166578412 0.5570212603
-0.167612 0.094205543 1.3956001 0.2207985073 -0.3738187253 0.9008371234
0.23956232 0.39264846 1.3330001 0.1744804978 -0.5106309652 0.8419100642
0.22296351 0.06080823 1.1010001 0.08365414292 0.6904273033 0.7185485959
-0.15483336 0.0011729799 1.3380001 0.5379116535 -0.3688572347 0.758020699
-0.065496013 -0.18436851 1.3835716 -0.04111012816 0.7837323546 0.6197366714
0.32444769 -0.35556379 1.3430003 0.5597965717 -0.2048496306 0.8029099703
0.12813359 -0.47226384 1.3920001 -0.2541246414 -0.4411484003 0.860702455
0.0051091076 0.015323959 1.1656404 0.1336760968 0.5667750835 0.8129555583
0.085737549 -0.33538839 1.4382498 0.06175997481 -0.3340913951 0.940515101
0.41665509 -0.26534945 1.2880001 0.5511304736 -0.3424144983 0.7609254122
0.34611398 -0.10301552 1.2970001 0.08242583275 0.724280715 0.6845607758
0.38909009 -0.22514115 1.317 0.5705131292 -0.423507601 0.7036733031
0.12856492 -0.30677372 1.452 -0.0141877085 -0.4112195075 0.9114259481
0.0034926396 -0.1222424 1.3280001 -0.1669926047 0.776478827 0.6076134443
0.35405743 -0.051838882 1.197 0.2528216541 0.8349639177 0.4887908399
-0.064395547 -0.07094425 1.245 -0.1022117361 0.7378599644 0.6671696901
0.27141601 -0.16043702 1.376 0.09049965441 0.7102066278 0.6981521249
0.14729053 -0.39400557 1.4040002 0.1713461727 -0.4610232413 0.8706882596
0.076604009 -0.46813563 1.3870001 0.3716111779 -0.289122045 0.8822208047
0.095595241 -0.43508095 1.3980002 0.1263204217 -0.2932655811 0.9476488829
0.027156284 -0.28840336 1.47525 0.491389811 -0.2417743355 0.8367085457
0.26400459 0.19651686 1.2237271 0.5487914085 -0.3229944408 0.7710399628
0.11281244 -0.34245738 1.4330001 0.04394126683 -0.4577268362 0.8880063891
0.44241703 -0.28503314 1.2662222 0.5834376216 -0.2628410757 0.7684497833
0.34307402 -0.12289132 1.3150001 0.02914892696 0.787645936 0.6154382229
0.40325263 -0.49554813 1.2320002 0.6970495582 -0.212682724 0.6847539544
0.41355261 -0.18562451 1.3264999 0.5347425342 -0.2529314458 0.8062729836
0.11527085 -0.065316632 1.2663332 -0.01549721975 0.8090070486 0.5875946283
0.2646682 0.31362024 1.278 0.5710237026 -0.3900689185 0.7223421335
0.34887388 -0.23297679 1.3490001 0.745002389 -0.2386048585 0.6229279041
0.082219064 -0.39240915 1.4210001 0.1405903995 -0.3419792056 0.9291310906
0.26999316 -0.041951131 1.2270001 0.158379212 0.8194599748 0.5508188605
0.35382384 -0.29524383 1.3364376 0.7388576865 -0.264048934 0.6199737787
0.21944807 -0.092099972 1.2970001 0.1023335084 0.7496553063 0.6538690329
0.25708073 0.25818884 1.2640001 0.6642150283 -0.2803287506 0.6929893494
0.26514345 -0.42327219 1.3649999 0.3016844094 -0.3444170952 0.8890238404
0.21673632 -0.29680055 1.427 0.4560139477 -0.2521199584 0.8535143733
0.035295367 -0.38572139 1.4378748 0.4062039256 -0.3548701108 0.8420603275
0.16499378 -0.055005226 1.2547226 -0.03278847784 0.794619143 0.6062222123
0.15526092 0.037933867 1.126 0.08079831302 0.7482298613 0.6585010886
0.13225509 0.074413806 1.1120001 0.2058817446 0.3951879442 0.8952313662
0.17137781 -0.097765863 1.312 0.008921265602 0.7756454349 0.6311057806
0.0959116 -0.12135822 1.3365716 0.02021253295 0.7905701399 0.6120378375
0.044525206 -0.44440562 1.4128951 0.4273558259 -0.2071905136 0.8800222278
0.4336949 0.1810571 1.6010001 -0.509539783 -0.725018084 0.4633766413
-0.0061542001 -0.19078021 1.4039999 -0.1442175061 0.7541795969 0.6406359673
-0.12223393 -0.18119328 1.3450001 -0.1539844424 0.6452407241 0.7483001947
0.17585245 -0.13572191 1.3564999 0.0186537616 0.7802701592 0.6251643896
0.074546471 -0.02389108 1.2038183 -0.04149695858 0.8117845654 0.5824807882
0.34456721 -0.057971835 1.2410001 0.4771245718 0.803745091 0.3554518223
0.45214793 -0.44530901 1.2131428 0.5037774444 -0.174597308 0.8460047841
0.12525299 -0.035263289 1.2241429 -0.09468744695 0.7989734411 0.593865037
-0.12748501 -0.1515308 1.3061668 -0.6172822118 0.2958869934 0.7289811969
0.064475507 0.0051128948 1.1674002 0.0400772132 0.6945295334 0.7183471322
-0.17744558 0.13651577 1.4234 0.560742259 -0.3049698472 0.769780159
0.023230286 -0.26481655 1.483857 0.5822972655 0.2592669129 0.7705261707
0.13535684 -0.095704816 1.3047779 -0.05439831316 0.8059110045 0.5895321965
0.21502179 -0.11685966 1.3330001 0.0821101591 0.754248023 0.6514351964
0.12524147 -0.4474647 1.3870001 0.0009706272976 -0.3519613743 0.9360139966
0.064997822 -0.15407416 1.3730004 -0.07819037139 0.7648876905 0.6394005418
0.20482177 0.022292279 1.1417273 0.02936713584 0.8120490313 0.5828498006
0.075068094 -0.048957448 1.2410001 -0.02284444869 0.8360736966 0.5481413007
-0.084981583 -0.097285308 1.2754999 -0.04602724314 0.7609624863 0.6471611857
0.015534241 -0.40501609 1.4370002 0.4199000597 -0.3123602271 0.8521238565
-0.055053029 -0.0052011227 1.1848397 0.1431393623 0.5113934278 0.8473416567
0.11492646 0.017717579 1.1549999 -0.06278847903 0.7700560093 0.634878993
0.095511079 -0.092099972 1.2970001 0.00338590215 0.762757659 0.6466755271
0.21558958 -0.27271876 1.427 0.4047239125 -0.2045001537 0.8912789822
0.17501263 0.047904868 1.1152669 0.08039236069 0.7327144146 0.6757711172
0.1248194 -0.18695515 1.4122727 -0.1557351202 0.6955532432 0.7013930678
0.21548679 -0.043315046 1.2352002 0.02298799716 0.8092152476 0.5870623589
-0.052909169 0.022329576 1.1756667 0.2335507423 0.4063776433 0.8833522797
0.024330787 -0.20494011 1.4232501 -0.05169561878 0.7619059086 0.6456213593
0.26535088 -0.10293461 1.3146924 0.08637721837 0.7977429628 0.5967789888
0.24535114 0.0056793382 1.1640476 0.09534849972 0.839419961 0.535054028
0.45145002 -0.39858702 1.2060001 0.6455489397 -0.2363796085 0.7262170315
0.38460132 -0.25428495 1.3230591 0.6019970179 -0.2695920169 0.7516114116
0.073842883 -0.070984453 1.268 0.01317553874 0.814104557 0.58056885
-0.084959514 -0.15399177 1.3460002 -0.3601561785 0.7115596533 0.6032995582
-0.20058221 0.18418241 1.439 0.4648999274 -0.3591305614 0.8092547655
-0.18078007 -0.37577879 2.3170002 -0.02914300375 0.7511075735 0.6595363021
-0.1151734 -0.096166387 1.2754999 -0.005709895398 0.7626622319 0.646771729
0.30608177 -0.39519915 1.3446003 0.6255589724 -0.2362262458 0.7435544133
0.2053355 -0.0010318366 1.177 0.05347598344 0.8079342246 0.586841166
0.1669925 0.081577122 1.09475 0.3246003687 0.438452661 0.8380894065
0.10447411 -0.045206383 1.2342223 -0.07351972908 0.8171717525 0.5716862679
0.17526582 -0.04117528 1.2360001 0.06288707256 0.8042857647 0.5909057856
0.024318732 -0.17144707 1.3870001 -0.1131571755 0.7052459121 0.6998740435
0.3461701 -0.32451719 1.3257895 0.7606929541 -0.2324578166 0.6060606837
-0.053920258 -0.03066054 1.2060001 -0.008046592586 0.7125587463 0.7015663385
0.35775891 -0.26861241 1.3380001 0.7195510268 -0.2763360739 0.6370908618
0.044283662 -0.49576226 1.3970529 0.4305780232 -0.2625906765 0.8635095358
0.25537786 -0.38535327 1.3728001 0.4046722353 -0.2754561901 0.8719887137
0.38553959 -0.29516485 1.3049999 0.6380369663 -0.2567824423 0.7259280682
0.43495128 -0.244784 1.2859313 0.6197869778 -0.1976175308 0.7594810128
-0.044999611 -0.20533755 1.414643 -0.1267880201 0.6841624975 0.7182245255
-0.016597711 -0.1135192 1.30575 -0.2480589449 0.7493214607 0.6139903069
0.25519148 -0.34537396 1.3834709 0.2827388346 -0.3715173304 0.8843266368
0.13562046 -0.33500639 1.4381427 -0.07728780806 -0.5024112463 0.8611675501
-0.065665253 -0.22178496 1.4133334 -0.6243454814 0.3512625694 0.6977157593
0.045075249 -0.14387208 1.3562728 -0.07660130411 0.7607152462 0.6445499063
0.14438832 -0.37568927 1.421375 -0.01884891465 -0.3342564404 0.942293644
-0.0032875 -0.058079164 1.25 -0.1603758186 0.7676163912 0.6205196977
0.065802775 -0.36679417 1.427 0.194278568 -0.3849186003 0.9022713304
-0.034349676 -0.04228827 1.219 -0.04131318629 0.7588797808 0.6499189734
0.23095345 -0.47028345 1.365 0.4222034216 -0.2312969565 0.8764964342
0.026621236 0.028348016 1.149 0.2421244979 0.4503287375 0.8594066501
0.31519118 -0.045354843 1.2252221 0.1070159301 0.8142698407 0.5705367923
-0.13571939 -0.041677609 1.2190001 0.01806880161 0.5510483384 0.8342776895
0.29614007 -0.24936819 1.404 0.5464767814 -0.1037850603 0.8310185075
0.28463981 -0.014549321 1.1849999 0.1059332192 0.8088147044 0.5784435272
0.33305004 -0.3742848 1.3330001 0.6502766609 -0.2920100391 0.7013347149
0.2039565 -0.1866511 1.4100001 0.09766057134 0.698043108 0.7093646526
0.27822113 -0.37634644 1.365 0.4651548862 -0.3602555394 0.8086079955
0.31508714 0.0030008301 1.1409999 0.1556605995 0.6286625266 0.7619404197
0.31615493 -0.31615493 1.3649999 0.5291348696 -0.3665952981 0.7652608752
-0.094771095 -0.024043275 1.203263 0.1280427873 0.5538362861 0.8227213621
-0.18739276 0.27510855 1.5160002 0.8964450359 -0.1454530358 0.4186044335
-0.045450199 -0.12069129 1.307 -0.1098594591 0.7705277801 0.6278676987
0.035732135 -0.3129198 1.4700001 0.2203196436 -0.2446111441 0.9442588091
0.23629706 -0.3653889 1.3870001 0.4996280074 -0.1845188737 0.8463596702
0.0231966 -0.33377329 1.47 0.170568347 -0.416107446 0.8931747079
-0.084407508 -0.1218371 1.307 -0.02487498708 0.7882062197 0.614908278
0.30433688 0.034696713 1.1307998 0.3269408941 0.04813929647 0.9438179135
-0.026602449 -0.23182134 1.4450001 -0.2321741581 0.764980793 0.6007491946
0.075985968 -0.44611114 1.3980001 0.1858761162 -0.1900904477 0.9640102386
0.095166631 -0.074041024 1.2743635 -0.06110794842 0.8073444366 0.5869078636
-0.16527779 0.074997261 1.3842 0.3798094988 -0.4131920636 0.8276575804
0.29503694 -0.47508496 1.3250002 0.5854020119 -0.2843628526 0.7592379451
0.084855638 0.059840389 1.1190001 0.1434536427 0.4756676257 0.8678486943
-0.025172982 -0.15120685 1.3490001 -0.185922429 0.7425488234 0.6434703469
-0.0078689605 -0.26098716 1.4960001 0.440107286 0.4048276842 0.8015111685
0.16273913 -0.1976594 1.4225001 0.08474706858 0.694029808 0.7149409652
0.24463749 -0.063254848 1.2658181 0.02198472433 0.8129367232 0.5819368958
0.11460254 -0.013454057 1.1956667 -0.1508650333 0.7804870605 0.6066957116
0.40430111 -0.13506213 1.3367501 -0.01329096593 0.1833538115 0.9829571247
0.044120878 -0.18199863 1.398 -0.164818719 0.7313559055 0.661780417
0.17477928 -0.3938688 1.4039999 0.300691396 -0.3427509069 0.8900036812
0.44064251 -0.46397933 1.21 0.4335430264 -0.2449729592 0.8671959043
0.39530227 -0.26474312 1.3063747 0.6135606766 -0.3143067956 0.7243993878
0.34208888 -0.40481156 1.3145001 0.6812024117 -0.1919367313 0.7064868212
0.32234266 -0.27512628 1.381 0.6876229644 -0.2887488306 0.66618222
0.01414677 -0.2359978 1.467 0.1442798227 0.7588933706 0.6350308657
-0.01597462 -0.013196755 1.1883334 -0.06082728505 0.6611261368 0.7478049994
0.19351538 -0.38224423 1.4040002 0.2700629234 -0.3490685225 0.8973389268
0.26490676 -0.1283326 1.3430001 -0.00221869396 0.718347013 0.6956814528
0.025154948 -0.012353861 1.1884286 0.03278544545 0.7423057556 0.6692587733
0.0053082164 -0.1354561 1.3455001 -0.1060825735 0.7278311849 0.6775014997
0.41146585 -0.41332993 1.2421428 0.6782540083 -0.2547833323 0.6892437935
-0.17448997 -0.01068306 1.3540001 0.5651696324 -0.3568682671 0.7437931895
0.14518476 0.012640831 1.1630001 0.02080659382 0.7872122526 0.6163310409
0.22420415 -0.031418506 1.2190001 0.01752592996 0.8051334023 0.5928347111
0.31532839 -0.42561352 1.324182 0.5701969862 -0.2404899895 0.7855189443
0.00338744 -0.091460876 1.2880001 -0.1342885345 0.7418915033 0.6569350362
0.23900476 0.41443187 1.3430001 0.1792813987 -0.519937098 0.8351787925
0.24359442 -0.32326335 1.4040002 0.3516331315 -0.4202738404 0.8364951015
0.064564437 -0.40467712 1.4147062 0.2015021443 -0.3197595477 0.9258243442
0.08556968 -0.13667671 1.3556668 -0.05797803402 0.747756958 0.661436379
0.064860366 -0.097046427 1.3045 -0.04294592887 0.7974990606 0.6017897725
0.16500866 -0.4949207 1.3730003 0.2745920122 -0.4386190176 0.8556941748
0.27297032 0.11818255 1.1930001 0.5941948891 -0.3143355846 0.7403550744
0.045027938 -0.025682244 1.2037778 0.05181262642 0.7988788486 0.5992562771
0.19467242 0.011211339 1.1626 0.03519522026 0.8392329812 0.5426318645
0.01505938 -0.041951131 1.2270001 -0.03963373974 0.8045144677 0.5926092267
0.035459414 -0.067594506 1.2640001 -0.06560754776 0.7867599726 0.6137624383
0.21451783 -0.34516269 1.404 0.4342975914 -0.2980085313 0.8500450253
0.41474715 -0.46469656 1.22525 0.7132012844 -0.1863106936 0.6757457256
0.23528144 -0.13225968 1.3456669 0.01913020574 0.7455784082 0.6661432981
0.19540149 -0.012454414 1.194778 0.05736158416 0.8246451616 0.5627344251
0.20424293 0.036198821 1.1247145 0.06686252356 0.7481197119 0.6601865292
0.32475501 -0.079235762 1.273 0.1267687529 0.791868329 0.5973895192
0.29533321 -0.35468706 1.3649999 0.5923987031 -0.2608259916 0.762255609
0.15577665 -0.34044737 1.4330001 0.2581059337 -0.4773433506 0.8399551511
0.38651621 -0.3854658 1.275353 0.704380095 -0.2175450772 0.6756647229
