# .PCD v0.7 - Point Cloud Data file format
VERSION 0.7
FIELDS x y z normal_x normal_y normal_z
SIZE 4 4 4 4 4 4
TYPE F F F F F F
COUNT 1 1 1 1 1 1
WIDTH 512
HEIGHT 1
VIEWPOINT 0 0 0 1 0 0 0
POINTS 512
DATA ascii
0.042463981 -0.28744847 1.863 0.6354265809 -0.157664299 0.7558935285
-0.43306106 -0.35267246 2.9580002 0.8848408461 0.2686007321 0.3806708157
-0.03076311 0.47023609 1.6710001 0.194381997 -0.3631146252 0.9112427831
-0.3595289 0.11171801 2.3170002 -0.2169506103 0.8659408092 0.450642854
0.42473301 0.044314038 2.3330002 -0.07442780584 0.8013089299 0.5936029553
0.20386358 -0.039204534 1.376 -0.02035322413 -0.1864410043 -0.9822553396
0.46234173 -0.49141112 1.5790001 0.02448974736 0.08438049257 0.9961326122
-0.29266289 0.021105751 1.605 0.6369642019 0.06954511255 0.7677500248
0.31973699 0.33022016 1.9930001 0.3897972405 -0.8904085159 -0.2350124121
-0.27480605 0.27821982 1.9470001 0.7371239662 0.6308012605 -0.2423592806
0.32027438 -0.044439986 1.748 0.5741372108 -0.2732070684 0.7718318105
-0.24810106 -0.33225229 1.6550001 0.3405711949 0.7519758344 0.5643966794
-0.029902223 0.16251208 1.483 0.260868609 -0.7135860324 0.6501865387
-0.48541471 -0.18469438 2.7010002 -0.1921065748 0.8273370266 0.5278337598
0.024629951 0.23808952 1.8730001 -0.2977840006 0.9381050467 0.1768718213
0.18659675 -0.49585667 1.6960001 0.1989531517 0.1579187363 0.9672017694
-0.0014947166 -0.037367918 1.705 -0.1226665601 0.8933095932 0.4323781729
0.30474332 -0.2746982 1.6320001 -0.0614290759 -0.5413708687 0.8385368586
0.20344014 0.17731021 2.1290002 0.04748290032 0.9043673873 0.424104929
-0.1719415 -0.19765238 1.8330001 -0.2378729731 0.7470906973 0.6207027435
0.19882624 0.0417118 1.5860001 -0.8411476016 -0.1350215375 0.5236792564
0.0042236047 -0.49741068 1.853 0.6231669188 0.2384100258 0.7448648214
-0.26897886 0.15025716 2.1160002 -0.1984143406 0.8944079876 0.4008318186
0.25778559 0.27676368 1.8040001 0.4238794148 -0.1546561569 0.8924167752
0.16407079 -0.12508367 1.853 0.01886659861 0.3499287069 0.9365863204
-0.49678773 -0.022960776 2.381 -0.1629206538 0.823294878 0.5437300801
-0.45951271 0.23936594 1.9930001 -0.005835837685 0.9726463556 0.2322176993
-0.29739514 -0.12227922 1.7220001 0.0715534687 0.7881638408 0.611291945
-0.11300584 0.0206718 1.572 -0.2243858427 0.8491373658 0.4781388044
0.28197283 -0.14889219 1.503 0.05572638661 -0.8250062466 -0.5623693466
0.36441019 -0.4961313 1.7320001 -0.1732134074 0.6684836149 0.7232750654
-0.093201645 -0.29581392 1.9810001 0.9017958641 0.09655775875 0.4212372601
0.16922209 -0.31862536 1.7390001 0.6451464891 -0.6190181971 0.4478866756
0.47083575 -0.36620557 1.705 -0.792907238 -0.5236236453 0.3116350472
-0.15387692 0.26249591 2.0650001 -0.001853999216 0.9945562482 0.1041843593
-0.042178478 0.31659266 1.739 0.3843037486 0.7879136205 0.4811472893
-0.14196564 0.19974236 1.8830001 0.01254272554 0.1832865328 0.9829795361
-0.0056242552 -0.13578558 1.8330001 -0.3380751312 0.7859750986 0.5176372528
0.16454858 -0.037740499 1.7220001 -0.1644792706 0.8146039844 0.5562075973
0.11791605 0.1146943 1.4700001 -0.4835041463 0.2957897186 0.8238520026
-0.15462998 -0.065420367 1.6959999 -0.253774792 0.6664389968 0.7010402679
0.044647075 0.044956047 1.5860002 -0.01524973381 0.8579928279 0.5134352446
0.25284821 -0.18542202 1.748 0.6672904491 -0.1084228531 0.7368636131
0.11635733 0.26918489 1.9810001 -0.3375689387 -0.9239639044 0.1798273325
0.35202989 -0.13362767 1.6390001 -0.4640945196 -0.5173496604 0.7190032005
0.075088255 -0.42404065 1.748 0.6894302964 -0.2647562027 0.6742329001
-0.26225045 0.22410493 1.8130001 -0.2983348072 0.8683484197 -0.3961910903
0.30126095 -0.41333577 1.6390001 0.008303631097 0.6706761122 0.7417038679
-0.062729001 -0.38462785 1.8830003 0.7826221585 0.04967771471 0.6205115914
0.0028783886 0.32640931 1.9700001 -0.07403603196 -0.8919620514 0.4460070729
0.15107509 0.22904932 1.853 -0.3575879335 0.1377755702 0.9236605167
-0.30956414 0.25525466 2.0650001 -0.1646169573 0.8996527195 0.4043838382
0.22628959 0.27335781 2.0650001 0.282674998 -0.9426028132 -0.1777492762
-0.05508272 -0.21532337 1.9039999 -0.3982233703 0.7532855272 0.5234300494
0.13439232 -0.23399454 1.813 0.4714016616 -0.02779522352 0.881480515
-0.13456394 0.12260269 1.5159999 0.3463841081 -0.3410863876 0.873886764
-0.33154568 0.33154568 1.863 0.09106871486 -0.1339977384 0.9867882729
0.28480336 -0.0046925778 1.6470002 -0.2203589678 0.6042423248 0.7657239437
0.076291047 -0.079404958 1.7760001 -0.07555703819 0.7318652272 0.6772477031
0.074303195 -0.18389003 1.8940001 0.4038745761 -0.1979065984 0.8931507468
0.40942436 -0.38959065 1.6160001 0.4794823527 -0.2924801409 0.8273766041
-0.10743024 -0.12299984 1.7760001 -0.2337507755 0.8049935699 0.5452943444
0.25404221 0.33706254 1.8940001 0.7481559515 -0.6334511042 0.1974902302
-0.27546707 -0.26439303 1.5790001 0.5342801809 -0.2573700547 0.8051741123
0.14423232 0.015744308 1.4449999 -0.5222228765 0.5955337286 -0.6104283929
0.033929631 -0.39584571 1.8430002 0.3768923581 -0.1741507947 0.9097382426
0.36984113 0.088999197 2.256 -0.07442780584 0.8013089299 0.5936029553
-0.0043105702 0.37501958 1.6390001 -0.226511389 0.2422527224 0.9434013963
0.19842298 -0.1117487 1.454 -0.2399081886 -0.897401154 -0.370290786
-0.034997702 0.064531632 1.5159999 -0.1547611952 0.7907998562 0.5921862721
-0.24574669 -0.062663957 1.6470001 -0.1420713365 0.6783850789 0.7208393812
0.20479442 -0.39523271 1.671 0.6496964693 -0.1205022633 0.7505822778
0.40479642 -0.29452932 1.655 0.1627316028 0.09775270522 0.981816113
-0.20493354 0.05388242 1.5430001 0.5940257311 0.1028929949 0.7978386283
-0.34425384 -0.04834203 1.6710001 0.6325372458 0.5482771993 0.5470728278
-0.2053434 -0.15324134 1.748 -0.139533475 0.6727258563 0.7266156673
0.085182823 -0.0047902316 1.6630001 0.06019216776 0.8729060888 0.4841610193
0.38213256 -0.48257342 1.6366668 0.8591980338 -0.2634189129 0.4386219084
-0.42406383 0.055745479 2.2710001 -0.2169506103 0.8659408092 0.450642854
0.10966837 -0.33536267 1.8130001 0.4387783706 -0.2401213348 0.8659187555
-0.08560212 -0.015959717 1.655 -0.01695172675 0.7961571813 0.6048523784
0.23640543 -0.26911563 1.6960001 0.6183902621 -0.7468662858 0.2445079833
-0.14269942 -0.2518225 1.9150001 -0.3378058374 0.844614327 0.4153479338
0.27524567 -0.48591688 1.7130002 -0.1420841813 0.7363827825 0.6614774466
-0.033211641 0.25462258 1.8040003 0.1036394313 0.7861673236 0.6092616916
0.12455679 0.05453568 1.536 -0.08398611844 0.8327876925 0.5471846461
-0.17566997 -0.021250401 1.6160001 -0.169929117 0.8410075307 0.513644278
0.31554914 -0.20496295 1.682 0.6340900064 0.3096791506 0.7085398436
-0.063554391 0.23358302 1.8830001 0.2148841321 -0.7426366806 0.6342835426
0.03510261 0.10010745 1.483 0.09600866586 0.7722069621 0.6280754209
-0.056453828 -0.30053359 1.8940001 0.6507227421 -0.5030578971 0.5687641501
-0.22307923 0.23414101 2.1030002 0.1750021577 0.9615537524 0.2116331458
0.037367042 -0.49511328 1.7760001 0.8881751895 0.05454294384 0.4562563896
0.24834564 0.070749633 1.6470001 -0.6088117361 -0.1797813028 0.7726752162
-0.035088584 0.022456693 1.601 -0.1031225324 0.8955582976 0.4328291714
-0.08369308 -0.16706304 1.8430001 -0.2879653573 0.5598831773 0.7769213915
0.33511773 -0.34535959 1.6032857 0.1713628918 0.05247596279 0.9838094711
-0.073971376 -0.07095214 1.7220001 -0.2453130335 0.7578334808 0.6045741439
0.37158743 -0.21355599 1.6240001 0.6833487153 0.5528461933 0.4768601656
0.10386185 -0.49515533 1.7220001 0.6028091908 0.02578446642 0.7974686623
0.18715604 -0.17457414 1.794 0.6743340492 -0.336157918 0.6574735045
0.20307207 -0.25333962 1.7760001 0.5762705207 0.09385839105 0.8118515015
0.27233282 -0.088264368 1.4342 0.3613803983 -0.6247082353 -0.6922021508
0.25432363 -0.33622447 1.6390001 0.6746622324 -0.1926359385 0.7125463486
0.13785881 -0.387146 1.7130001 0.5676543117 -0.310944438 0.7622874379
0.34230065 -0.06201452 1.6710001 0.7118788958 0.6374070644 0.2948570251
0.15492015 -0.083980285 1.7850002 -0.2352212071 0.8445466161 0.4810530245
0.086439773 -0.1236008 1.8430001 -0.07232788205 0.835280478 0.5450460315
-0.013933741 -0.09443979 1.7659999 -0.3883118331 0.6090348959 0.6915854216
-0.052315082 0.38414216 1.705 0.8623486757 0.405846864 0.3027260005
0.018466983 -0.22999789 1.9150001 0.449329704 -0.6516786218 0.611079216
-0.28078142 0.26436147 1.8730001 -0.3511001766 -0.5092585683 0.7857381105
0.12479854 0.024603212 1.604 0.2759830356 0.9031537771 0.3288564384
0.21395312 0.26948294 1.863 0.04172764346 -0.3113378286 0.9493827224
-0.49015048 -0.25809854 2.7010002 0.8650521636 0.2778016031 0.417745173
0.042614471 0.17262734 1.4880003 -0.1141658574 -0.7601938844 0.6395868659
0.28287491 0.3404088 1.8230001 0.7949044704 -0.2315458059 0.5608149767
-0.21558985 -0.10378049 1.6960001 -0.4482071102 0.6379342079 0.6262190938
-0.031506088 -0.43381456 1.8430001 0.5814454556 0.325956732 0.7454350591
0.34521931 -0.4445782 1.688 0.2086527199 0.6588993073 0.7227141857
0.014919989 -0.00144387 1.647 -0.06652961671 0.8338608146 0.547950685
-0.00492599 -0.34317729 1.8730001 -0.04513194412 -0.4178248942 0.9074059129
-0.07380569 0.10747144 1.4770001 0.2197414637 0.1649329364 0.9615148306
0.095106065 -0.040759739 1.7220001 0.04233684391 0.8167655468 0.5754143
-0.1049931 0.059806198 1.5160002 0.08921474218 0.690369606 0.7179349065
0.13922782 -0.061744511 1.381 0.08084011823 -0.2512368262 -0.964543879
0.46737993 -0.42246655 1.6010001 0.1019525081 -0.3491516113 0.9315035343
0.092772901 0.24728434 1.8830001 0.5802354217 -0.1952892989 0.7906889319
-0.20252052 0.22211927 1.863 -0.01541035995 0.1043054983 0.9944258928
0.16279963 -0.29449248 1.813 0.2711087465 0.04024988785 0.9617068172
-0.33424145 0.12064336 2.256 -0.2169506103 0.8659408092 0.450642854
0.2267323 -0.13358822 1.3980001 -0.9229712486 0.07848093659 0.3767822683
-0.093990944 -0.34388301 1.9260001 0.9579008818 0.03537178412 0.2849118114
0.082847632 -0.23554718 1.853 0.5788760185 -0.2971450984 0.759346664
0.23585051 -0.45558697 1.6710002 0.09737746418 0.2719053328 0.9573845267
-0.23497647 -0.0013903934 1.5860001 0.1452883482 0.6936070919 0.7055497766
0.20738527 -0.32534751 1.688 0.8116548657 -0.2971475422 0.5029112697
0.12656291 -0.1782652 1.8430001 0.7162874341 -0.5017375946 0.4849657118
0.27353314 -0.040357351 1.705 -0.1935936511 0.9013800621 0.3873441815
-0.0049812198 -0.17475781 1.8940001 -0.2769507766 0.7384778261 0.6147754192
0.22494565 -0.0014237066 1.6240001 -0.5365078449 0.5220187306 0.6630654335
0.34551889 -0.27305713 1.6800001 0.1528865248 -0.1157966629 0.9814361334
0.13827488 -0.44753483 1.6960001 0.4418768585 0.01074834447 0.8970113397
-0.1147052 -0.21463241 1.8730001 -0.29832232 0.7552388906 0.5836248994
0.17222993 0.25468042 2.0900002 0.03639327362 -0.9993366003 -0.001377094421
-0.24751456 -0.24751456 1.6320001 0.07749996334 -0.7676579356 0.6361564398
-0.1624358 -0.10880134 1.748 -0.4455031157 0.6482701898 0.617472887
0.064214081 0.066887036 1.526 0.1130279377 0.8941634893 0.4332393706
0.073918782 -0.38322428 1.794 0.551281929 -0.7992017865 0.2395093888
0.03460028 -0.43643534 1.794 0.8790693879 -0.3022228181 0.3686439395
0.22092614 -0.12715173 1.8130001 0.62895298 -0.4610158801 0.6260051727
-0.29517937 -0.088627048 1.6710001 0.1528050601 0.6883478165 0.7091035843
-0.29902047 -0.037198719 1.6320001 0.2372763157 0.5707711577 0.7860790491
0.41502976 -0.4555546 1.594 0.5358104706 -0.07369940728 0.8411156535
-0.0074341334 0.34048331 1.6960001 0.1792957783 0.3073553741 0.9345510602
-0.085343495 -0.24749614 1.9470001 0.1503153443 0.7494091392 0.6448187232
-0.24192843 0.070910059 1.5860001 0.653206706 -0.2645800114 0.7094493508
0.37540624 -0.34479615 1.6470001 -0.07272607833 -0.4784285724 0.8751097322
-0.22175634 -0.18558332 1.794 -0.006728975102 0.7600716352 0.6498044729
0.43961763 -0.35836819 1.6550001 -0.6706210375 -0.6340998411 0.3849478066
0.31836677 -0.094608985 1.7130002 0.6984438896 -0.1567876339 0.6982791424
-0.033745531 0.2040801 1.8330001 0.6988521814 0.06060387194 0.7126940489
-0.055352733 -0.12810203 1.8040003 -0.1006321386 0.7464844584 0.6577492952
-0.18072483 0.10598899 1.5500001 0.593821466 -0.4724134505 0.6513075829
-0.14626482 -0.16356494 1.794 -0.344553858 0.6096933484 0.7138323784
0.39176476 -0.12666079 1.6800001 -0.3739923835 -0.1987878233 0.9058769941
0.14209627 -0.00585964 1.6710001 0.001297894516 0.8695145249 0.4939056337
0.095045917 -0.27560139 1.8130001 0.5430518389 -0.128758505 0.8297685981
0.27324125 -0.23449433 1.7220001 0.765263617 -0.4574942589 0.4528472126
0.072206646 0.15074721 1.4450001 0.04540929571 0.0816179812 0.9956287146
0.27803659 -0.16503777 1.6960001 0.7942631841 0.2065262347 0.5713955164
0.035425752 -0.10659355 1.8040001 -0.03117740154 0.7869657278 0.6162084341
-0.17687275 0.0095977467 1.5640001 -0.01081298199 0.7658440471 0.6429354548
0.36529911 -0.40572742 1.6470002 0.066122666 0.4464110732 0.8923816085
0.11706305 -0.35889068 1.7570001 0.7103433609 -0.6506726742 0.2683978081
0.0074735833 0.44692028 1.705 -0.7341373563 -0.06689986587 0.6756972075
-0.2440263 -0.30044857 1.6090001 0.1309596151 0.753659308 0.6440863013
0.054933682 -0.34414336 1.8430003 0.3633516133 -0.1579910815 0.9181581736
-0.01485687 -0.26577291 1.8830003 0.08708566427 -0.6238557696 0.7766724229
-0.016171344 0.10806565 1.4640001 -0.07485334575 0.5793317556 0.8116475344
-0.0059164478 0.29364267 1.7760003 -0.4395347238 0.6570253372 0.6124760509
0.16390686 -0.02200258 1.4100001 -0.5029569864 0.5275930762 -0.6846019626
0.033539511 -0.062505454 1.7390001 -0.08390063792 0.8389364481 0.5377232432
-0.0372805 0.41591707 1.6630001 0.276193589 -0.1818678081 0.9437378645
0.18421572 -0.082192756 1.4040002 -0.01882579364 -0.7201903462 -0.6935210824
-0.064045429 0.036447745 1.5543751 -0.1710893661 0.896124661 0.4094984829
0.15213235 0.092602298 1.5090001 -0.5144007206 0.4416561127 0.7350726128
0.31837463 -0.010463017 1.705 -0.6796233654 0.6771032214 0.2822115123
0.0048564826 0.055392306 1.552 -0.2204398662 0.900153935 0.3756716251
-0.19535816 -0.056129023 1.6630001 -0.3564921021 0.7951384783 0.4905793965
-0.15649289 0.07342872 1.5159999 0.4025883973 0.2339100689 0.8849907517
-0.034989521 -0.024784243 1.6630001 -0.1012362987 0.8673075438 0.4873692691
-0.1355844 -0.027700037 1.6630001 -0.09785336256 0.721128583 0.6858558655
0.25540456 -0.12706056 1.4640001 0.06837344915 -0.8176404238 -0.5716548562
-0.030698236 -0.37645733 1.8430001 0.5527605414 -0.2690603733 0.7887092829
0.27554247 -0.24555145 1.6630001 0.5819120407 -0.6915310621 0.4279757142
-0.12406186 -0.0038453101 1.6160001 -0.2200569212 0.8816871643 0.417375952
0.034481931 -0.14942169 1.8730001 -0.1545022726 0.8162522912 0.5566518307
-0.25256678 0.22285305 1.8830001 0.004933724646 0.722997129 0.6908333898
0.23439218 -0.073841192 1.398 0.1608347148 -0.58678478 -0.7936093807
-0.04655363 0.44601381 1.7130001 0.4416925907 -0.6144211292 0.6537539959
0.25383234 -0.38609082 1.6470001 0.3777948618 0.1142591983 0.9188122153
-0.25038916 -0.13809341 1.7310001 -0.08446584642 0.7645183206 0.6390440464
0.23943257 0.31335133 1.8330001 0.6003118157 -0.5056559443 0.6196271777
0.28858727 -0.44972736 1.6710001 -0.3209072053 0.7333205938 0.5993825793
0.045874212 -0.0221972 1.6880001 -0.09877489507 0.8358077407 0.540063858
0.26468319 0.29150921 2.0400002 0.2635897994 -0.9317056537 -0.2498899549
0.2947073 -0.3644689 1.6240004 0.2602999508 0.1366726905 0.9558056593
0.18675244 -0.44483191 1.6880001 0.580806613 0.239492178 0.7780148983
0.061219387 0.018508187 1.6240001 -0.06761541218 0.8509657383 0.520850718
0.34282207 -0.30495042 1.6362002 -0.7542314529 -0.5301960111 0.3873333037
-0.11416158 -0.094377846 1.7363335 -0.1037972122 0.8014321327 0.5890099406
0.014912101 0.14613859 1.4580001 0.1695718467 -0.1263587177 0.9773836732
-0.097993806 0.20578697 1.863 0.2411103398 -0.4931056201 0.8358903527
0.011187144 0.25091165 1.8230001 -0.7707867026 0.4697956443 0.4303253591
0.21142131 -0.28290558 1.7350001 0.619348526 -0.7783644795 0.1027431563
0.32335705 -0.48378995 1.705 -0.03893302381 0.6286783218 0.7766902447
0.25845271 -0.28733012 1.6470001 0.7081822753 -0.2402232885 0.6639056206
0.013176826 -0.45411843 1.8329999 0.8157705665 -0.1974618435 0.5436241031
-0.08845742 0.1425907 1.506 0.5224268436 -0.5409379005 0.6591330171
0.10465717 0.076853514 1.4960001 0.06419155747 0.800993681 0.5952214599
0.059456408 -0.46802866 1.7390001 0.6534870863 -0.2854813337 0.7010385394
0.1262549 -0.10707694 1.8230001 -0.02396154217 0.8645502925 0.5019747615
-0.33277801 0.28516009 1.8730001 0.1078216434 -0.132035628 0.9853634238
0.20900612 -0.20590971 1.7660002 0.6830216646 -0.3478093743 0.6422694325
-0.076940946 -0.29362023 1.936 0.8613890409 -0.3148052394 0.3986309171
0.18086071 -0.36022672 1.705 0.6534153223 -0.2841322124 0.7016533017
0.22809464 -0.15491752 1.7760001 0.6007810831 -0.2509293258 0.7590102553
-0.065616921 -0.10073584 1.7570002 -0.2103957087 0.7450487614 0.6329581738
0.087750822 0.047988731 1.5640001 0.2291612178 0.9056367278 0.3568014801
0.12412548 -0.066404581 1.748 0.01921836101 0.8013468385 0.5978912711
0.35135311 -0.22888978 1.6630001 0.6270525455 0.2817649543 0.7262324691
-0.070605859 -0.33989331 1.8730001 0.5917751789 -0.04288469255 0.8049615026
-0.12212668 -0.19122466 1.8330001 -0.2841911912 0.602666676 0.7456730008
0.163323 0.27274939 1.863 -0.1300894618 -0.09528851509 0.986912787
-0.10506675 -0.051793467 1.6880001 -0.1594579518 0.729426682 0.6652141213
-0.14473854 0.036522809 1.5430001 -0.07486793399 0.8147470355 0.574962616
-0.25571316 -0.02904221 1.6160001 -0.0221024584 0.6351822019 0.7720460296
-0.025809357 -0.065288 1.731889 -0.2298346609 0.7138149142 0.6615469456
-0.026677668 -0.24347591 1.9260002 0.1705926061 -0.5343695879 0.8278570771
0.17352565 -0.21756236 1.794 0.5052321553 0.04542735592 0.8617869616
0.18839216 -0.29737934 1.7760001 0.7662703395 -0.5404166579 0.3475335836
-0.077580616 0.0098738968 1.6090001 -0.2819328308 0.868550539 0.4075952172
0.10344579 -0.15434767 1.8730001 0.4014410675 0.3553879857 0.8441234827
0.14709589 -0.32548881 1.7850001 0.5358317494 -0.8096555471 0.2394623607
0.11077823 -0.45070046 1.7310001 0.5772790313 -0.1393669099 0.8045656085
0.18801081 0.24907415 1.8330001 0.4599893391 -0.3960885704 0.7946846485
0.24756978 -0.02783329 1.6710001 -0.1819892675 0.8256469369 0.5340290666
-0.12536947 -0.26276067 1.9590001 -0.1905076951 0.8586946726 0.4757628143
-0.045272194 -0.18507649 1.8730001 -0.4024097919 0.6165552735 0.676702261
0.34679669 -0.11372681 1.6847999 0.1514397562 -0.3340344429 0.9303155541
0.074439526 0.1090924 1.4640001 0.03448894247 0.6103233695 0.7914012074
0.051173665 -0.24266221 1.8830001 0.6325157285 -0.5307882428 0.5640813112
-0.29042214 -0.28333867 1.6160001 0.8509799838 -0.1397885382 0.5062531233
0.13301225 -0.026602451 1.4450001 -0.7220400572 0.2406138778 -0.6486625671
0.30613637 -0.042075615 1.6550001 0.6615411639 0.6386085153 -0.3931189179
0.2331758 -0.49475121 1.705 -0.1741707772 0.839743197 0.5142916441
-0.24720159 0.25204867 1.8430001 0.0790932849 0.9703269005 0.2284948826
0.035255149 -0.18970628 1.9150001 0.2211713493 0.6794156432 0.6996268034
0.38383925 -0.25648391 1.655 0.4313935339 0.07953485847 0.898651123
0.18063278 0.016194664 1.4210001 -0.1913657784 0.5669052601 -0.8012475371
0.1434928 -0.49475119 1.705 0.2146386951 0.1166404337 0.9697036743
0.27421695 0.036272082 1.6550001 -0.4813330472 -0.1745707244 0.8589782119
0.28581524 0.35604414 1.863 0.7542194128 -0.537889123 0.3766010106
0.23445924 -0.24518614 1.7479998 0.6274785995 0.004692186601 0.778619647
0.33172366 -0.38724822 1.6240001 0.01769662835 0.4443970323 0.8956550956
0.29166248 -0.31537154 1.6320001 0.50225389 -0.08617289364 0.8604157567
0.45131502 -0.3886719 1.6240001 -0.193326354 -0.6094717979 0.7688751817
0.21958746 0.065167896 1.6160001 -0.7309176326 -0.05089079216 0.6805655956
-0.21462378 -0.035948597 1.6240003 -0.2055006325 0.8112704158 0.5473662615
0.0056141731 0.03368504 1.601 -0.06320993602 0.7724350095 0.6319403648
0.01594832 0.074425489 1.5159999 -0.04497823119 0.8490563631 0.5263841748
0.17547974 -0.40447029 1.7050002 0.5495856404 -0.2041796893 0.8101026416
0.075476117 -0.30444339 1.8430002 0.5638888478 -0.2299078256 0.7932034731
-0.24337143 0.033592112 1.5640001 0.5885748267 0.2080706954 0.7812082171
-0.25479439 -0.095731989 1.6800002 -0.09497477859 0.7250572443 0.682108283
0.1051921 -0.39485154 1.7390002 0.5457895994 -0.3704930246 0.7515640855
0.16390686 -0.16229993 1.8330001 0.386294812 -0.5190868378 0.7624468207
0.1881993 -0.10279793 1.8040001 0.3002179861 0.7576670051 0.5794910789
-0.29878816 0.31529579 1.8830001 -0.4293979108 0.05811276659 0.9012437463
-0.0059005511 0.39681208 1.6826667 -0.8169865608 0.375919044 0.4372846484
0.39436674 -0.43565425 1.6240004 0.7190326452 -0.003328444669 0.6949682832
0.48025903 -0.48592582 1.6160001 -0.3892517984 0.005233594216 0.9211165309
0.40348321 -0.49533564 1.6036667 0.6688802242 -0.07529419661 0.7395471931
-0.095142879 -0.23368427 1.904 -0.3242616355 0.835750103 0.4431434572
-0.10394654 -0.14717813 1.8130001 -0.3533183038 0.6965463758 0.6244912744
-0.040392417 0.2439702 1.8430001 0.7848340869 0.4329056144 0.4434277117
-0.11235126 0.094864689 1.4959999 0.5175651312 0.185866043 0.8352126479
0.23389731 -0.3510901 1.6710001 0.5215707421 -0.2024978846 0.8288296461
-0.055012587 -0.046091631 1.6960001 -0.2456681877 0.7502167821 0.6138582826
0.0049259895 -0.30376938 1.8730003 0.02078825794 -0.5064338446 0.8620281816
0.23412873 -0.10284177 1.42625 0.1452136189 -0.7407340407 -0.655916214
0.17097367 -0.056991223 1.7570001 -0.353200376 0.7752555013 0.5236682296
0.3685244 -0.44542119 1.6550001 0.7762212753 0.1081028432 0.6211234331
0.25043297 0.26982135 1.8430001 0.7915748954 0.2243920267 0.5683814287
0.11423405 -0.089196451 1.7850002 -0.09925431758 0.8504371643 0.5166286826
-0.18558332 -0.20288345 1.794 -0.379319638 0.7084830999 0.59512043
-0.045682728 -0.1540357 1.8330001 -0.1321412474 0.7777811289 0.6144877672
0.14643314 -0.34872222 1.7220001 0.5148676038 -0.499530226 0.6966928244
0.097993806 -0.19762082 1.863 0.6308737397 -0.6127796173 0.4759196043
-0.17570242 -0.094608992 1.7130002 -0.3128329217 0.5590217113 0.7678738832
-0.32198301 -0.070749633 1.6470001 0.1626185328 0.6767863631 0.7179940343
0.3637816 -0.47865999 1.6800001 0.9850329757 0.08151503652 0.1518729329
0.26422822 -0.42449775 1.647 0.2481415868 0.318937242 0.9147157073
-0.0015245234 0.30642918 1.739 -0.3011439443 0.7843215466 0.542357862
-0.01510935 -0.20649445 1.9150001 -0.330065459 0.6292805076 0.7036070228
0.25199607 0.027050426 1.6240001 -0.4973745942 -0.223095268 0.8383597136
-0.16255766 0.23152153 1.8730001 -0.2759690583 0.174077943 0.9452713728
0.083819859 -0.10543378 1.804 -0.1237524971 0.8414591551 0.5259580016
0.037367038 -0.079404958 1.7760001 -0.08419301361 0.7218043208 0.6869570613
-0.0048470898 -0.40553987 1.8430002 -0.2631744444 -0.09890391678 0.9596651793
-0.043121107 0.34732866 1.7130002 0.5103694797 0.5842401981 0.6310201287
0.10466654 0.014331747 1.6355001 0.01864555478 0.840207696 0.5419440866
-0.16565669 -0.14294985 1.7660002 -0.5642817616 0.5899568796 0.5775265694
0.14423774 -0.19509843 1.813 0.3543508053 -0.3937005103 0.848195374
-0.014154661 -0.12110098 1.794 -0.2618362904 0.6987316608 0.6657445431
0.027019743 -0.49112356 1.8130001 0.9208958149 0.1869276166 0.3420656621
0.31610405 -0.24352308 1.6810001 -0.1801840961 -0.5461484194 0.8180804253
0.16542365 -0.25521281 1.7940001 0.2068920285 -0.0849513188 0.974668622
0.11614913 0.25260404 1.853 0.5519534945 -0.2350817025 0.800052464
-0.034114785 0.37701207 1.6630001 0.2500512898 0.6469009519 0.7204120755
-0.02432224 0.0028614399 1.6320001 -0.1753840148 0.7139401436 0.6778863668
0.37158743 -0.37585855 1.6240001 -0.4603330195 0.1011788622 0.8819616437
0.4532682 -0.45465863 1.5860001 0.3235347569 -0.3068984449 0.8950634599
0.28378385 0.30370978 1.8329999 0.1498122364 -0.1259901822 0.9806542397
0.24244259 -0.3142232 1.6710001 0.6551032066 -0.1579396576 0.7388470173
0.41150296 -0.33353397 1.647 0.1272413135 -0.357331574 0.9252696037
0.426209 -0.41502976 1.5940002 0.2514425516 -0.2292436659 0.9403318167
-0.041801218 0.28951216 1.766 0.3232253492 0.6487337947 0.6889628768
0.29636565 -0.072444521 1.7336668 0.44195503 -0.348360002 0.8266323209
0.033745531 -0.13016133 1.8330001 -0.1396657079 0.8350946903 0.5320811868
-0.14460091 0.004866377 1.5860001 -0.217080012 0.8566422462 0.4680174589
0.32136407 -0.05829395 1.705 0.916919589 0.1301198155 0.3772628307
-0.081552498 -0.19758694 1.8730001 -0.3250932693 0.6699455976 0.6674483418
-0.11390267 0.23275763 1.883 -0.001106265467 -0.4550035596 0.8904889226
-0.19517231 -0.12443583 1.7220001 -0.3949243128 0.5758681297 0.7158286572
0.11394563 -0.0221972 1.6880001 0.06568042189 0.8405743837 0.5376995206
0.28698558 -0.20477617 1.705 0.7645927668 0.2846193314 0.5782644153
-0.054981243 -0.26399392 1.9150001 0.6633090377 -0.4586434662 0.5913267136
-0.0065074968 0.3729296 1.7129999 -0.4411085248 0.316672802 0.8397271037
-0.065137506 0.077378109 1.4959999 -0.007756463252 0.7065176368 0.7076529264
-0.027466843 -0.47016773 1.8430001 0.3515416086 0.2949122488 0.8885073066
-0.29077893 0.23554718 1.853 0.3074096441 0.1774290651 0.9348894358
0.14533731 0.043875411 1.5640001 -0.1330924928 0.8318507075 0.5388049483
0.33225229 -0.18716395 1.6550001 0.6415958405 0.4463860095 0.6237742305
0.081506327 -0.36278307 1.8230001 0.6043747067 -0.4587808549 0.6513457894
-0.01180344 0.091804534 1.4960001 -0.1908681095 0.7382845283 0.6469199061
-0.034892429 -0.32306284 1.8730001 0.3345208764 -0.3025575876 0.8924991488
-0.28521764 0.24613 2.0900002 -0.1566284597 0.9174798727 0.3656476438
-0.005552982 -0.15646343 1.8630002 -0.3389667273 0.8090053797 0.4802206755
0.14307199 0.01144576 1.6320001 0.2062414438 0.8912230134 0.40396294
-0.2833176 -0.24914867 1.6240001 0.4559254348 -0.7472962737 0.4834049046
0.11087817 -0.21211475 1.8330001 0.6318942308 -0.5011789203 0.5912100673
0.19272201 -0.30385002 1.7130002 0.6935270429 -0.4024879932 0.5975145698
0.31788546 -0.42921862 1.6710001 -0.2059343457 0.8024769425 0.5600194931
0.12556235 -0.29403839 1.813 0.2601414621 -0.03459211066 0.9649506807
0.023283973 -0.36333832 1.853 0.2462504953 -0.2689134181 0.9311531782
-0.026051028 0.042504307 1.5640001 -0.2925655544 0.8950651884 0.3365467489
-0.19150607 -0.17282256 1.7760001 -0.2580769658 0.7449683547 0.6151572466
0.36183277 -0.30323637 1.6710001 0.2304299474 -0.2950019538 0.92729491
0.12508367 -0.13483046 1.853 0.1575548649 0.4815632999 0.8621329665
0.25828966 0.3362639 1.853 0.78942132 -0.5390405059 0.293682307
-0.077785172 -0.37325692 1.9150001 0.9077931046 0.189867273 0.3739814162
0.065574661 0.08524707 1.4960001 0.09472635388 0.8550594449 0.5098041296
0.31455413 -0.30185914 1.6090001 0.123579368 -0.3282241821 0.9364811778
0.19229595 -0.13123262 1.8330001 0.6718524098 -0.296481818 0.6787583232
0.024366951 -0.32489267 1.8530002 0.2935797572 -0.298885107 0.908008039
0.10537358 -0.36435142 1.794 0.5642846227 -0.781542182 0.2660350204
-0.045104504 0.13402481 1.4700001 0.4341023266 -0.1905671954 0.8804767728
-0.28444239 -0.064974152 1.6470002 0.05656499043 0.6358088851 0.7697710395
0.23180556 -0.41550055 1.6630001 0.4371119738 0.3815096319 0.814483583
-0.14691794 -0.23936068 1.8830001 -0.3168876767 0.8394498825 0.4414817393
-0.05546267 -0.010632739 1.6390002 -0.04331631213 0.7550827861 0.6541969776
0.083212905 0.034500636 1.6027777 0.10580796 0.8730278611 0.4760535657
0.055828135 -0.40636659 1.7760001 0.6790114045 -0.4773605466 0.5577368736
0.024761451 -0.26577291 1.8830003 0.381672889 -0.2877146304 0.8783769608
0.054186769 -0.4443315 1.7659999 0.6991858482 -0.1531921476 0.6983346939
0.075088255 -0.059764121 1.748 0.007934344001 0.7949711084 0.606595397
0.17433743 -0.055691123 1.3810003 -0.2513404489 -0.3073325157 -0.9178097248
-0.021345956 -0.48767301 1.8730001 0.5944219232 0.3679699004 0.7150249481
0.044942755 0.062644415 1.5535001 0.09685818851 0.9465915561 0.3075433671
-0.30609083 -0.013400288 1.6090001 0.4064033628 0.2889750004 0.866792798
-0.23638791 -0.26452893 1.605 -0.3451851904 -0.6245614886 0.7005498409
-0.19292277 0.22631326 2.1160002 0.3560714722 0.8794075847 0.3159991205
0.055855941 -0.043778975 1.7220001 -0.058554966 0.8322975039 0.5512278676
0.046092506 -0.40529618 1.8130001 0.7915807366 -0.5793136954 0.1944108307
-0.050358362 -0.40774029 1.853 0.7797382474 -0.01760294475 0.6258581877
0.046014477 0.12611376 1.4580001 0.1602440029 0.4090661407 0.89832443
-0.33191389 -0.038795128 1.6390001 0.365544945 0.3332489729 0.8690926433
-0.10570358 0.036136325 1.5430001 -0.03754755482 0.8466460705 0.5308300853
0.25582939 -0.15453461 1.735 0.8333985209 -0.0634207502 0.5490216017
-0.26417473 0.015294326 1.5860003 0.3595119715 0.1111983582 0.9264912605
-0.17380823 0.047808427 1.5290002 0.1652903408 0.4629937708 0.8708133698
0.14623062 0.25550187 1.8330001 -0.05797221139 -0.105126068 0.9927676916
0.064978532 -0.2647875 1.8530002 0.4162863195 -0.1870740503 0.889780283
-0.1641199 -0.034171592 1.647 -0.4077846706 0.8305411339 0.3793587983
-0.044097211 0.21395314 1.8630002 0.7843375802 -0.1632632315 0.5984643698
0.0047182194 0.26579306 1.7939999 -0.06585811824 0.7897043824 0.6099423766
-0.24513353 -0.11808261 1.705 -0.06415607035 0.7884912491 0.6116907597
-0.1455705 -0.084107406 1.7220001 -0.2807612717 0.6882662773 0.6689264774
0.16505943 -0.46485689 1.705 0.1830172241 0.04404828325 0.9821224213
0.0040047886 -0.068081409 1.7570002 -0.1433263272 0.8324996233 0.5351653695
0.067321859 -0.20853357 1.8730001 0.6294781566 -0.485891223 0.6063554883
0.31372043 -0.45050848 1.6960001 -0.3506668806 0.6881765723 0.635173738
-0.0038087661 -0.017871901 1.6710001 -0.2687641978 0.7573427558 0.5951451063
0.070605859 -0.15434769 1.8730001 -0.02209073119 0.7682695389 0.6397451758
0.054166313 0.0024181388 1.6550001 -0.04760043696 0.8585147858 0.5105747581
-0.41911593 -0.3368355 2.9330001 0.8848408461 0.2686007321 0.3806708157
0.40494019 -0.36376685 1.6355001 0.3857762814 -0.452188015 0.8041782379
-0.14333537 -0.21396439 1.8430002 -0.3292580545 0.6297470927 0.7035678625
0.13065051 -0.41898265 1.7130001 0.4591602087 -0.04062395543 0.8874241114
-0.037765924 -0.4449811 1.8730001 0.6366144419 0.2755101025 0.7202889919
0.14422219 -0.03122336 1.6960001 -0.08494259417 0.7929225564 0.6033726931
-0.012785306 0.22693919 1.8230001 0.08974277973 0.8626954556 0.4976974726
-0.064461179 0.056424648 1.5272857 -0.009900241159 0.8286161423 0.5597296357
-0.31521338 0.25968358 1.863 0.2026648968 -0.06678602099 0.97696805
-0.27711871 -0.31774345 1.6550001 0.4104225338 0.7239601016 0.5544683337
0.2847501 -0.11461014 1.4580001 0.1638631374 -0.7054289579 -0.6895787716
0.0023422779 0.16486153 1.4854 0.3141208887 -0.7546305656 0.5760735869
0.11569265 0.035616864 1.5748 0.214735806 0.932384491 0.2907709479
-0.19563693 -0.0083844392 1.594 -0.112583831 0.8363622427 0.5364914536
0.3061662 -0.0024415166 1.6710001 -0.6083493829 0.4478778839 0.6552224159
0.43459347 -0.48490012 1.594 0.3531279266 -0.2889382243 0.8898400664
-0.21502878 -0.075112812 1.6800002 -0.3328804672 0.6137437224 0.7158975601
0.094653696 0.13604465 1.464 -0.2379702032 0.2148096412 0.9472206831
-0.20603995 0.023059519 1.5640002 0.1918316334 0.5355696082 0.8224146366
0.25374889 -0.0031610851 1.6390002 -0.3447745442 0.5509198904 0.760011673
0.063012168 -0.37968871 1.8430001 0.5934841037 -0.3188748658 0.7389827371
0.18128853 0.24008481 1.863 0.4935217798 -0.1949480176 0.8476033807
0.15821818 -0.10547878 1.8230001 -0.0607223697 0.7836185098 0.6182675958
0.092375539 -0.38343588 1.7660002 0.6071208715 -0.68547225 0.4019104838
0.10627786 -0.24531807 1.8230001 0.6185969114 -0.2555440664 0.7429906726
0.24849731 -0.21800683 1.7390001 0.3657066822 -0.1446259022 0.9194247723
-0.35271457 0.11423142 2.286 -0.2169506103 0.8659408092 0.450642854
-0.21428332 0.0821006 1.5543751 0.6072876453 -0.1298679113 0.7837958932
-0.043630574 -0.35534415 1.863 0.5410971045 -0.1414250731 0.8289830089
0.30041438 -0.040759739 1.7220001 0.3021823168 0.8550522923 0.4213922024
0.36183277 -0.089359507 1.6710001 0.1015527695 0.3629535735 0.9262568355
0.21754922 0.02105315 1.6010001 -0.7650929689 0.08459274471 0.6383391023
-0.10411995 -0.073084198 1.7130002 -0.2064272016 0.7623602748 0.6133471131
-0.34702498 0.30385441 1.8940001 0.5544221997 0.378175348 0.7413497567
-0.13489006 -0.13551602 1.7850001 -0.4874033928 0.65410465 0.5784332156
-0.024027679 0.31986848 1.7130001 0.2419601977 0.8049348593 0.5417888165
0.13442807 -0.26411164 1.804 0.4330159128 0.03212413937 0.9008136392
-0.013672493 0.44386771 1.6710001 -0.50279814 0.04442569986 0.8632614613
0.33353397 -0.41631588 1.647 -0.1196023449 0.8187353611 0.5615760088
0.074701644 -0.49547011 1.7390002 0.4319947958 -0.03423842043 0.9012259841
0.35490885 -0.47304496 1.7130002 -0.04575655237 0.6709859967 0.7400568128
-0.32111949 -0.093228236 1.6880001 0.1748796999 0.739959538 0.649520576
0.2047192 -0.3652544 1.6800002 0.5452109575 -0.1479779482 0.8251348734
0.13508381 0.11541142 1.4960001 -0.6244125962 0.3764491677 0.6843938231
0.075828157 -0.019328747 1.6960001 -0.07215710729 0.8122286201 0.57885921
0.029732149 -0.46632528 1.7850001 0.8954952359 -0.08217141777 0.4374198318
0.13360137 -0.044533785 1.7220001 -0.04330382124 0.791397512 0.6097661257
0.20443568 -0.47519642 1.6811429 0.4259302914 0.2824452221 0.8595394492
0.32717419 -0.27421695 1.6550001 -0.6986052394 -0.569443047 0.4332267046
-0.23325206 -0.163124 1.7390001 -0.1708659679 0.5814747214 0.795419395
0.094259202 0.060595199 1.536 0.1475169212 0.884049952 0.4435024261
-0.082262017 -0.31561753 1.9150001 0.8045244813 -0.4767923653 0.3541319072
0.12183475 0.21930255 1.853 0.2415312678 -0.008022615686 0.9703598619
0.19078019 -0.0086158803 1.404 -0.4529556632 0.5506741405 -0.7011342049
-0.0033944536 -0.22573115 1.936 -0.04859089851 -0.1088797674 0.9928666353
0.33435807 -0.012645918 1.7310001 -0.9087134004 0.3803118765 0.1720547825
0.27022198 -0.18568325 1.7220001 0.8078244328 0.1795191765 0.5614201427
-0.28547072 -0.111512 1.6960001 -0.002761457814 0.8350460529 0.5501731634
-0.026412217 -0.29548666 1.8830003 0.2327945381 -0.2533841431 0.9389372468
-0.27569601 -0.0086217662 1.601 0.3230400085 0.5238835812 0.7881568074
0.20535874 -0.093006447 1.4240001 -0.04203829169 -0.8448991776 -0.5332712531
0.26316833 -0.24681322 1.6960001 0.6119168401 -0.7864328027 0.08415000886
-0.065367527 -0.23373112 1.9260004 -0.1330880821 0.6351787448 0.7608124018
0.023831528 -0.42452431 1.8430002 0.4943037927 -0.3780517578 0.7827774882
0.21707669 -0.29736531 1.6960001 0.7068457007 -0.419878006 0.5692728758
0.0038947379 -0.25427073 1.9040002 0.3333024085 -0.7737373114 0.5387393832
0.046491385 -0.16770107 1.8940001 -0.03048214689 0.6364358068 0.7707271576
0.22336327 0.28764048 1.8330001 0.2986395061 0.5507651567 0.7794050574
-0.076051705 -0.11673782 1.7850001 -0.1428803951 0.8135154247 0.5637179017
-0.044557855 0.10247125 1.4829999 0.1674399972 0.4929647744 0.8537854552
0.4550952 -0.37261841 1.6800001 -0.7715746164 -0.551471591 0.3170988262
0.35735038 -0.33741847 1.6240001 -0.8057477474 -0.4279473722 0.4094284177
0.39687651 -0.46528259 1.6160001 0.7824201584 -0.2245681882 0.5808508992
0.01408365 -0.097020708 1.785 -0.08760011196 0.7098430991 0.6988912821
0.024203012 0.015660774 1.6240001 -0.08933091909 0.8535518646 0.5132924914
-0.25504074 0.22255148 1.853 0.005125143565 0.8421552777 0.5392107368
0.14752196 0.063793279 1.516 -0.3544748425 0.7064610124 0.6125850081
-0.15735027 -0.21456856 1.8130001 -0.2317847162 0.6648113728 0.7101420164
0.36769241 -0.14209627 1.6710001 -0.4868752062 -0.4483213723 0.7496402264
0.26573518 -0.46687764 1.6800002 -0.2946167588 0.7089018822 0.6408268809
0.046180461 -0.21532334 1.9039999 0.7956995964 -0.3721469641 0.4778794944
-0.047504812 -0.078153081 1.748 -0.1842081547 0.7429640889 0.643484056
-0.084581457 -0.27607042 1.9589999 0.8083164096 0.1011470333 0.5799947381
-0.1340064 -0.10936154 1.7570001 -0.2485117465 0.7463492155 0.6174178123
-0.011309877 -0.35383758 1.8430001 -0.1855343282 -0.2365173995 0.9537486434
-0.06590464 0.024749 1.5860001 -0.1697318256 0.9232136607 0.344771862
-0.065267831 0.15011601 1.4890001 0.4376674891 -0.4739626348 0.7640723586
0.28468084 -0.022950256 1.6710001 0.07845018059 0.9473322034 0.3104952574
0.2558499 -0.15011601 1.4890001 0.002990234876 -0.8384240866 -0.5450102091
-0.015401281 0.14502871 1.4640001 0.02634357661 -0.3854925036 0.9223348498
-0.075113676 -0.14703101 1.8230001 -0.14651604 0.7605505586 0.6325313449
0.22748448 0.041490879 1.6320001 -0.6500434279 -0.09778863192 0.7535787225
-0.14426926 -0.016578268 1.6340001 -0.3271119297 0.8757308722 0.3550961018
0.25512579 -0.258145 1.7220001 0.6016529202 -0.7653724551 0.2285142839
0.137087 -0.33732644 1.7570001 0.6662425399 -0.7359807491 0.120221585
-0.045380648 -0.10797465 1.7850002 -0.139347598 0.8036809564 0.5785146356
0.28331763 -0.39151934 1.6240001 0.280904144 0.1766502112 0.9433385134
0.20356251 -0.15250243 1.804 0.5136885047 -0.62178123 0.5911956429
-0.11650374 -0.24482672 1.9260001 -0.2430428118 0.8874737024 0.3915617466
0.1448445 -0.0049944795 1.4243751 -0.5910195708 0.1403680742 -0.7943505049
-0.18694974 -0.073497392 1.6880001 -0.3550467789 0.6738743186 0.6479469538
0.25603372 -0.26579979 1.6710002 0.6883693933 -0.4507802129 0.5682823062
-0.17231759 -0.048602398 1.6800001 -0.3971081376 0.7282969952 0.5584699512
-0.18229757 0.085787095 1.5290002 0.5243522525 -0.2722056508 0.8068202138
0.095363796 -0.30993235 1.8130001 0.482010901 0.09614760429 0.8708737493
