# .PCD v0.7 - Point Cloud Data file format
VERSION 0.7
FIELDS x y z normal_x normal_y normal_z
SIZE 4 4 4 4 4 4
TYPE F F F F F F
COUNT 1 1 1 1 1 1
WIDTH 512
HEIGHT 1
VIEWPOINT 0 0 0 1 0 0 0
POINTS 512
DATA ascii
0.083141752 -0.3041091 1.2729999 0.6224781275 -0.2157476991 0.7523123622
-0.31562102 -0.46779546 2.1430001 0.4220849574 0.814347744 0.3983491361
-0.20322458 0.42459187 1.2337779 0.5403007865 -0.3627394736 0.7592728138
0.43869188 -0.053028688 1.8330001 -0.1859853119 0.7377653718 0.6489312649
-0.49643397 -0.05244527 1.6390001 0.566564858 0.6354289651 0.5246277452
-0.27362475 -0.035589345 1.0642143 0.1665375382 0.5712659955 0.8036917448
0.17645955 0.22161315 1.5766668 0.983663857 0.01899437048 -0.1790102571
0.13211016 -0.41547689 2.184 -0.6356918216 0.7713747621 0.02961294353
0.13015257 0.1096561 1.169 -0.578068316 0.6307045221 -0.5177343488
0.33146504 -0.25516874 0.96700007 0.6846475005 -0.08351995796 0.7240733504
-0.24821588 -0.29143205 1.2640001 -0.4914591908 0.2539170682 0.8330630064
-0.38651794 -0.056242548 1.365 0.7312187552 -0.1924721897 0.6544260979
-0.1145628 0.2073492 1.08 0.543055594 -0.3039701581 0.7827469707
0.23711437 -0.46084175 1.1176667 0.6882537603 -0.1410326809 0.7116295099
-0.038177956 -0.091833465 1.177 -0.1518912762 0.7186116576 0.6786208749
0.20357592 -0.12495621 1.1342667 0.8794270158 0.1625215709 0.4474313855
0.2088597 0.059456408 1.7390001 0.9427478909 0.2881717682 -0.1678794026
0.0062100631 0.04762429 0.9958334 0.09350415319 0.8252198696 0.5570181012
-0.47123376 0.10181782 1.4890001 0.9111561179 0.1236377284 0.3930752873
0.14093117 0.27824524 1.3740001 0.983758986 0.04790042713 -0.1729850024
0.076646395 -0.49570069 1.2256669 0.648073554 -0.173277691 0.7416033149
-0.36506063 -0.17495164 1.1684002 0.01523264125 0.5776660442 0.8161310554
-0.47392601 -0.45604199 2.0400002 -0.2252528071 0.6790488362 0.6986801028
-0.086331502 -0.28028172 1.3490001 -0.3124127984 0.7227165699 0.616505444
-0.16786239 0.071260728 0.97000009 0.0939572528 0.5648174882 0.8198494911
0.023682274 -0.32973012 2.0780001 -0.3998253942 0.8356855512 0.3765226901
0.20740685 -0.29452693 1.1554998 0.7520868182 0.05660095066 0.6566290855
-0.19503067 -0.14610761 1.1847777 -0.2397631109 0.6590327621 0.7128740549
-0.12537183 -0.024325196 1.0735788 -0.2711831927 0.7153133154 0.6440392137
0.075479113 -0.015800254 1.1151053 -0.1324463934 0.7908137441 0.5975546837
-0.0065177246 -0.41138342 1.312 0.5718763471 -0.169329837 0.8026735783
0.050022598 -0.16340716 1.268 -0.01019704156 0.6104126573 0.7920179367
-0.16197275 0.31360874 1.1562001 0.4650592804 -0.3694731593 0.8044933081
0.30243248 -0.37563089 1.0345296 0.7915353179 0.1772824973 0.584844172
-0.18452959 -0.46988454 2.1700001 -0.196953252 0.6821265817 0.7042107582
-0.085658334 -0.18407331 1.2572858 -0.2116129696 0.6680110693 0.713429153
0.13276349 0.08468096 1.6372501 0.9427478909 0.2881717682 -0.1678794026
0.27889684 -0.15417448 1.0267142 0.6507636905 -0.04283558577 0.7580710649
-0.35379812 -0.42491332 2.0280001 -0.2149417996 0.6936119795 0.687533617
0.15597978 -0.40507436 1.1952858 0.6139762998 -0.2115556002 0.7604454756
0.15526366 -0.20492199 1.2243911 0.8069771528 -0.02970625646 0.5898350477
0.19121559 -0.0083137229 1.138 0.3015899658 0.2448801845 0.9214538336
-0.39525744 -0.0042500799 1.6160001 0.6117720604 0.6125354767 0.5005349517
0.26506054 -0.26423511 1.0625557 0.9136294127 0.1394562423 0.3818811774
-0.075075708 0.12542063 1.0139546 0.5861495733 -0.3150135875 0.7464550734
0.094443299 -0.09199477 1.197 -0.06324478239 0.7026945353 0.7086751461
-0.42838579 0.017587688 1.4330001 0.2728205621 -0.4919613302 0.8267666101
-0.28612572 -0.12198066 1.126 -0.118665114 0.6289833784 0.7683088779
-0.024686396 -0.015450144 1.092261 -0.1975070238 0.7723748088 0.6036788225
-0.27476615 -0.20732598 1.2019999 -0.2223317623 0.6513448358 0.7254781127
-0.25737092 -0.4373506 2.0530002 0.4697191715 0.8174650669 0.3333388269
-0.17538276 -0.22464511 1.2547222 -0.2620561421 0.6401802897 0.7221466303
-0.19497067 -0.078963116 1.1120001 -0.2170025408 0.7352486253 0.642121017
-0.012652053 -0.22198603 1.312 -0.2091923356 0.5993456841 0.772672832
0.094713666 0.032902353 1.0368 -0.5187159777 0.4133716226 0.7483699918
0.075656332 -0.39571598 1.2534819 0.4285970032 -0.2381735444 0.8715376854
0.25053731 -0.36654484 1.1120001 0.770270288 0.06654950976 0.6342356205
-0.49725935 0.038250718 1.6160001 -0.0934632048 0.7388180494 0.6673923135
-0.085183211 0.034828495 1.0138713 -0.1341131777 0.7900050879 0.5982521772
-0.01068306 -0.32880086 1.3540001 0.5193165541 -0.2349101752 0.8216614127
-0.19516708 0.0057247686 1.0233846 0.01549388375 0.677431941 0.7354222536
-0.15751596 -0.30019346 1.302 -0.6136262417 -0.08793458343 0.7846848369
0.22551499 -0.21459243 1.1248463 0.8530893326 0.179826498 0.4897968769
-0.12356213 -0.098320447 1.161 -0.3114494085 0.7031422853 0.6392105818
0.14854327 -0.29494923 1.2190001 0.7274286747 -0.1005247831 0.6787799597
0.250806 -0.088300057 1.0715001 0.689101696 -0.1234183386 0.7140775323
0.17055988 -0.48104015 1.1650001 0.640147388 -0.2480881661 0.7270925641
0.11448565 0.16092795 1.2320001 -0.5306401253 0.6115780473 -0.5868504047
-0.017322058 -0.14291507 1.2350001 -0.268756777 0.6719395518 0.6901210546
0.12479723 0.06376674 1.1066363 -0.4075224102 0.7104376554 -0.5737628341
0.02699432 -0.47352538 1.2830001 0.7130388021 -0.0599033311 0.6985608935
0.02646306 -0.058015171 1.161 -0.1252860725 0.7194404602 0.6831609011
0.30104917 -0.3055664 1.0113639 0.8533838987 0.1507768482 0.4990012944
-0.07613723 -0.052915312 1.1246667 -0.2026002407 0.7122994065 0.6719990373
-0.11497597 -0.23670597 1.2955296 -0.2938657403 0.6105574965 0.7354335189
0.10825168 -0.22766331 1.273 0.5314047933 -0.01624268107 0.8469622731
0.025225841 -0.34576944 1.2950556 0.4933856428 -0.2363042086 0.8370967507
-0.097458594 0.08058276 0.9625001 -0.1753802449 0.6492360234 0.7400907278
-0.12432954 -0.14591281 1.2121538 -0.2841854095 0.6789839864 0.6769191027
0.025090199 0.021373134 1.0600001 -0.14806436 0.7621610761 0.6302281022
-0.1744221 0.37471828 1.1944287 0.4877127111 -0.4190420508 0.7658590674
0.28219926 -0.43374175 1.0723 0.7760142088 0.104987137 0.6219161153
0.37120083 -0.067491055 1.8330001 -0.1859853119 0.7377653718 0.6489312649
0.20194241 -0.36643919 1.1614445 0.7201925516 -0.06037645414 0.6911420822
-0.13448766 0.26459414 1.1163156 0.4849066734 -0.3689212799 0.7929455042
0.17545287 -0.1468519 1.1936666 0.8638584614 0.07564686239 0.4980221689
0.2372386 -0.15470578 1.0844544 0.8418493271 0.1375500411 0.521890521
-0.31314883 -0.25030234 1.2360001 0.02223495394 0.5920003653 0.8056309223
0.29361516 -0.22423765 1.0124 0.7417834997 -0.03202469647 0.6698743105
0.12042391 -0.045540791 1.1543332 -0.05770941451 0.7401357889 0.6699766517
0.12305038 -0.35580352 1.2331766 0.574677527 -0.1518746018 0.804164052
0.19228047 -0.23485722 1.1750001 0.8191635609 -0.006643608678 0.5735214949
0.035583898 -0.10781831 1.2116667 -0.07575324178 0.6833302379 0.7261688709
0.27162766 -0.3263016 1.0700001 0.843800962 0.177754283 0.5063627958
0.20696852 -0.065669954 1.118077 0.4921526611 -0.1716627628 0.8534152508
0.12535329 -0.46478674 1.2034545 0.5480896235 -0.2835265398 0.7868992686
-0.21568881 -0.19452283 1.2162857 -0.281431973 0.6151251793 0.7364896536
-0.034295201 0.090024896 0.97800004 0.4135822058 0.07026208937 0.9077516198
-0.20859495 -0.040222343 1.067 -0.1874712408 0.6757045984 0.7129360437
-0.032853961 0.020990029 1.041 -0.150107637 0.7922829986 0.5914011598
-0.30488503 -0.16643874 1.1625385 -0.1168380752 0.6073561311 0.7857909203
0.13196437 0.0034690949 1.1079999 -0.504170835 0.4150411189 0.7573325634
0.19852684 -0.42517754 1.1569999 0.6712368131 -0.1242778823 0.7307504416
0.25927448 -0.20285659 1.0549999 0.8693159223 0.1156104803 0.4805456102
-0.35042644 -0.12788053 1.1366667 0.1205372512 0.5401288271 0.8329055309
-0.34085062 -0.22410668 1.189 -0.07755565643 0.5732738376 0.815685153
-0.30399594 -0.075622298 1.0953333 0.1374563277 0.5898791552 0.7957062125
-0.13472281 -0.065167129 1.1149582 -0.2862241566 0.7148450613 0.6380221844
-0.13788565 0.0099133467 1.028 -0.1965774 0.7778199911 0.596953392
-0.22443666 -0.11772909 1.1424546 -0.2700089812 0.6967023015 0.6646059752
-0.24505468 -0.23564883 1.2435265 -0.3253519833 0.6046549082 0.7270065546
0.13385735 0.2989898 1.427 0.983758986 0.04790042713 -0.1729850024
-0.087838709 0.17385221 1.041 0.5246072412 -0.3773798943 0.7631328106
-0.2478352 -0.16394678 1.1748183 -0.3484714329 0.6110603213 0.7107551694
0.081595749 -0.12511349 1.2410001 -0.1174597889 0.6887853146 0.7153866291
0.24143869 -0.27718326 1.1120001 0.8414430022 0.06953343004 0.5358533263
-0.064971961 -0.12755719 1.21 -0.1743965149 0.7086642981 0.6836525202
-0.033603668 -0.18711485 1.273909 -0.1839022785 0.6595672965 0.728801012
-0.20414454 -0.26516297 1.2830001 -0.4342028499 0.167856425 0.885037899
-0.4178018 -0.030902499 1.4100001 0.4842872918 -0.2808914483 0.828592658
-0.07543239 -0.0032192173 1.0652223 -0.113714166 0.7825514078 0.6121130586
0.1675494 -0.34384358 1.197 0.6674454808 -0.09898491204 0.7380504608
-0.064786017 -0.24393705 1.3150001 -0.1682819277 0.6546146274 0.7369945049
-0.24492021 -0.0784529 1.0913334 -0.1390683502 0.6935706735 0.7068378329
-0.45177081 0.055187922 1.4640001 0.9267282486 0.2616606653 0.2696451247
0.20204704 -0.17531706 1.153 0.8811170459 0.1000441238 0.4621947408
-0.48236623 0.066484936 1.5270001 0.9111561179 0.1236377284 0.3930752873
0.068761349 -0.44749451 1.245 0.6806419492 -0.112843059 0.7238735557
-0.16438033 -0.17765148 1.2240909 -0.2710743845 0.6361650825 0.722366035
-0.24446596 -0.0046274229 1.0348097 0.1358795613 0.5484598279 0.8250627518
0.024444392 -0.022884039 1.1153334 -0.1152995899 0.7746447921 0.621796906
0.1153765 -0.41534689 1.2248181 0.47746557 -0.2953148782 0.8275359273
-0.024299446 -0.046552744 1.1329334 -0.2127613425 0.7299600244 0.6495313644
0.03371669 -0.39460114 1.2843161 0.6417351961 -0.1829443574 0.7447867393
-0.17183542 -0.10815524 1.153 -0.1977004409 0.7258694768 0.6588079929
-0.12523623 0.047980256 0.98793346 -0.107117787 0.7379016876 0.6663534045
-0.038032431 -0.28641632 1.3556668 0.4464599192 0.3648838401 0.8170271516
0.071756914 0.016995061 1.077 -0.212228626 0.6902965903 0.6917005777
0.2496361 -0.41476503 1.108 0.7397182584 -0.0465692766 0.6713033319
0.27620715 -0.38461438 1.0740434 0.8157869577 0.04210754484 0.5768176317
0.13399442 -0.25491974 1.2426667 0.7782182693 -0.1791148931 0.6019087434
0.049132783 0.029479669 1.0190001 -0.2285305709 0.4308089018 0.8730277419
0.33010972 -0.30793178 0.97300005 0.7966660261 0.1208703443 0.5922107697
-0.45122471 -0.056584451 1.6550001 0.6117720604 0.6125354767 0.5005349517
0.074420996 -0.056071892 1.1628667 -0.06111546606 0.7170154452 0.694372952
0.32118088 -0.34750718 1.001 0.7787109017 0.271324873 0.5656784773
0.01518075 -0.1918295 1.2880001 -0.0008302319329 0.6671029925 0.7449650168
0.23261331 -0.32508025 1.1245788 0.8231881261 0.04849940538 0.5656934381
-0.013564077 -0.36597562 1.3260001 0.5988739729 -0.324182421 0.7322948575
0.21224976 0.091177717 1.705 0.9427478909 0.2881717682 -0.1678794026
-0.0030727165 -0.35827875 2.1030002 -0.2368209362 0.7705769539 0.5917153358
-0.12759562 -0.20334606 1.2583333 -0.3603897393 0.5749443173 0.7345463037
-0.12498449 -0.27504286 1.3229232 -0.3136887252 0.598981142 0.736763835
0.064298578 -0.35445768 1.2729999 0.5176680684 -0.2823289633 0.8076571822
0.17782605 -0.27580756 1.189 0.7210385203 -0.08522106707 0.6876342297
-0.19462685 0.043838438 0.99472749 0.1863082051 0.5878806114 0.7872011662
-0.044534661 0.0515627 1.002154 -0.1146890223 0.6774060726 0.7266136408
-0.16419025 -0.045070235 1.0836955 -0.202900067 0.673322022 0.710963428
-0.15502813 -0.25340974 1.2864616 -0.2118684798 0.6627940536 0.718203187
0.17824298 -0.19179362 1.189 0.8100597262 0.05579854548 0.5836864114
-0.075503498 -0.084058598 1.1552222 -0.1684842408 0.7507844567 0.6386984587
0.025763772 -0.13788038 1.2416667 -0.07940220833 0.7032669783 0.7064777613
-0.49228427 -0.021158351 1.6090001 0.3088442683 0.7289715409 0.6109138727
0.044841498 -0.30769423 1.302 0.520573318 -0.1196694225 0.8453890681
0.22339122 -0.11483865 1.0936667 0.8579546213 0.06182417646 0.509991765
0.2848115 -0.26480961 1.0241426 0.8145891428 0.130785659 0.5651013851
0.002709426 -0.091457903 1.1882001 -0.1986394227 0.6984050274 0.6875847578
-0.075177096 -0.21275912 1.2863334 -0.191305548 0.6336306334 0.74960953
0.11824042 -0.30815271 1.245 0.6039289236 -0.1927369088 0.7733837366
-0.17511475 -0.018434545 1.0513334 -0.1854853034 0.7403973341 0.6460704207
0.20297515 -0.46485415 1.14125 0.5992771983 -0.2527292073 0.7596017122
0.16224574 -0.24539056 1.2128001 0.7453843355 -0.07162342221 0.6627761722
0.24430794 -0.23493512 1.0938334 0.8778689504 0.1332362294 0.4599936903
-0.27847493 -0.2730571 1.2360001 0.08283486962 0.3249282539 0.9421040416
-0.15520021 -0.13505869 1.1864736 -0.2135302424 0.6998873353 0.6815882325
0.2551187 -0.12493151 1.052913 0.7329238057 -0.05314807221 0.6782315373
0.084440105 -0.26536521 1.2871667 0.6325154305 -0.2075467557 0.7462228537
0.16388564 -0.44498903 1.1831999 0.603343606 -0.1466378123 0.78388381
-0.32250047 -0.10373969 1.1190001 0.1576854438 0.4844483733 0.8604911566
0.21513276 -0.25554046 1.1460001 0.790358901 0.04564730078 0.6109411716
-0.055039763 -0.15689771 1.241889 -0.1059481576 0.6786709428 0.726760447
-0.094872206 -0.11359298 1.186 -0.1924972534 0.7201808691 0.6665465832
0.2256946 -0.39472502 1.1341602 0.6764415503 -0.003254900919 0.7364891171
0.11947038 0.13004299 1.2060001 -0.5306401253 0.6115780473 -0.5868504047
0.035472073 -0.43465331 1.2745625 0.6820420623 -0.02728693187 0.7308037281
0.048826534 -0.49415186 1.2563334 0.6968237758 -0.06006753072 0.714722693
0.055385649 -0.082649663 1.1879092 -0.0652962029 0.7194471955 0.6914709806
0.21854807 -0.17455398 1.1171539 0.8421091437 0.1901207119 0.504684329
0.29351896 -0.33554712 1.0354075 0.8283835649 0.1508600563 0.5394644737
0.3001619 -0.18594101 1.01 0.6595723033 -0.1116612703 0.7433008552
0.11046789 0.01793923 1.077 -0.7159788013 0.6689755917 0.1996147037
-0.15611476 0.35219765 1.169 0.4470454454 -0.4013837576 0.7994006872
0.23918709 -0.19535203 1.087 0.8750326037 0.147416532 0.461070776
0.19210133 -0.32441026 1.1740911 0.7260363698 -0.07351598889 0.6837152839
-0.19511138 -0.30225933 1.2865001 -0.371948421 0.4311338961 0.822057128
0.15304233 -0.00900249 1.141 -0.2857031524 0.4375282526 0.852609396
-0.095804609 -0.032042313 1.0965 -0.2199535966 0.7406706214 0.6348444223
0.01027278 -0.4440124 1.302 0.6363788843 0.03503184766 0.7705807686
-0.023763219 -0.11353156 1.2046669 -0.2005919665 0.7191056013 0.6653194427
-0.10281393 0.010965785 1.0425 -0.189444527 0.8034850955 0.5643779635
-0.31496099 -0.19498791 1.1853635 -0.0521171093 0.6168860197 0.7853250504
-0.061319619 0.086546868 1.0040001 0.7863674164 0.1346342117 0.602909565
-0.012225117 -0.067234196 1.1620001 -0.2488433272 0.7037348747 0.6654579043
0.31046626 -0.27481043 0.99200004 0.8293605447 0.07262832671 0.5539730787
0.094700389 -0.33531764 1.255522 0.5305281878 -0.2050549984 0.8224915266
-0.13494948 0.081863806 0.95611107 0.01618625596 0.5794841051 0.814822793
-0.094828688 -0.15703976 1.2320002 -0.1789348722 0.6746173501 0.7161520123
0.15837494 -0.16820656 1.2190001 0.8054448366 0.01540399063 0.5924705863
-0.25488278 -0.10317466 1.1172777 -0.1728028506 0.7044131756 0.6884339452
-0.10989016 0.24271393 1.09 0.4744627774 -0.4092556834 0.7793554068
0.10734736 -0.27520058 1.2583846 0.5459275246 -0.1407623589 0.8259232044
0.27863139 -0.29421416 1.0455 0.8958691359 0.1817206442 0.4054578543
0.27194321 -0.23502091 1.0413333 0.8770034909 0.07515195012 0.4745703936
0.32152042 -0.2265631 0.98766667 0.7121034861 -0.09531088173 0.6955748796
0.0052279392 -0.16510086 1.2651428 -0.1131477281 0.6521655321 0.7495850325
-0.26558879 -0.14135635 1.149 -0.2128961682 0.6452876925 0.7336750031
-0.10468502 -0.072541907 1.1357143 -0.2196391821 0.7149475217 0.6637836099
-0.31508714 -0.13903846 1.141 0.03713087738 0.5926564932 0.8045990467
0.11871995 0.080809377 1.138 -0.5457718968 0.6974023581 -0.4645029008
-0.30643851 -0.22430606 1.206 -0.1634131521 0.6774124503 0.7172227502
0.0072343629 0.041591588 1.0313751 -0.06770914048 0.8411590457 0.5365322828
0.033352785 -0.00095293665 1.087 -0.1305771172 0.8036100268 0.5806552768
0.15128286 -0.37263682 1.2110001 0.6560210586 -0.1133123264 0.7461881042
0.25791529 -0.29510534 1.0856153 0.8459141254 0.1227850989 0.5189923644
-0.26779187 -0.46089348 2.0780001 0.4697191715 0.8174650669 0.3333388269
-0.15372175 0.031329732 1.002 -0.1112131178 0.736743629 0.6669635773
0.18395828 -0.39477691 1.1740911 0.6075677276 -0.1516109407 0.7796638012
0.29375571 -0.40633917 1.0517501 0.8025907278 0.06126108021 0.5933761001
0.096677795 -0.44520238 1.219 0.3721942902 -0.1878907531 0.9089381099
0.25859818 -0.16532138 1.0534999 0.8286277652 0.06516377628 0.5559943318
0.13505489 -0.19791736 1.2525001 0.7361005545 -0.01716984063 0.6766543984
-0.055289697 -0.031041801 1.1065 -0.1755360663 0.75172925 0.6356809139
-0.074175201 0.062557183 0.98200005 -0.1946818233 0.6885768175 0.6985419989
-0.27616772 -0.2344777 1.2239521 -0.2586304843 0.560331285 0.7868539691
-0.20846695 -0.23029594 1.245 -0.2389729023 0.6072890759 0.7576885223
-0.13678251 0.2955696 1.132 0.5213630199 -0.3357460797 0.78450948
-0.0050366558 0.006139297 1.0733529 -0.1456561685 0.8137614727 0.5626513958
0.11689474 -0.018822033 1.13 -0.0877982229 0.7349532843 0.6724099517
0.099777818 0.039717384 1.105 -0.2457458675 0.1497076303 -0.9577038288
-0.039634101 -0.31827384 1.3700001 0.5277509093 0.1626347601 0.833683908
-0.18518355 0.40123105 1.2140001 0.5403007865 -0.3627394736 0.7592728138
0.26262364 -0.45190826 1.0960001 0.7217719555 -0.006670482457 0.6920987964
-0.12542208 -0.17255692 1.2360001 -0.3186883628 0.6271156073 0.7107487321
0.1046286 -0.49484947 1.2055556 0.5017593503 -0.2800540328 0.8184175491
0.047013 -0.039010789 1.141 -0.08552458137 0.7785836458 0.6216856241
-0.27756405 -0.18057142 1.177 -0.2108903378 0.6132614017 0.7612067461
0.10500503 -0.38495988 1.2358401 0.5281577706 -0.1873017102 0.8282315135
-0.15508652 -0.086890742 1.1312308 -0.2109291106 0.7578695416 0.617367506
-0.24414027 -0.051447183 1.067 0.06962432712 0.6390097141 0.7660411596
-0.068248503 0.019109581 1.0380001 -0.1370706707 0.7854570746 0.6035468578
0.11285242 -0.069368005 1.1810001 -0.1464633793 0.6944466829 0.7044801712
0.22740221 -0.07707727 1.0945001 0.8149095774 -0.243742764 0.5258439183
0.1441649 -0.48467806 1.1849997 0.5006734133 -0.2198127508 0.8372624516
-0.24685968 -0.21159403 1.219 -0.3453039229 0.6217108369 0.7030225992
-0.21498945 -0.015770651 1.0442226 -0.08346808702 0.6360021234 0.7671599388
0.19142172 -0.13534747 1.1630001 0.8651536703 0.144477725 0.4802450836
0.1717618 -0.31085724 1.202 0.7023305893 -0.05404460058 0.7097964287
-0.27518356 -0.065526389 1.0831599 0.1105718315 0.5881538391 0.8011547327
0.22452308 -0.43504933 1.1334484 0.6925026178 -0.1122314706 0.7126319408
-0.23195723 -0.26303682 1.266 -0.468346566 0.04808830097 0.882235229
-0.043464255 -0.069744967 1.153 -0.2155266702 0.7042520642 0.6764445901
0.13670595 -0.32566503 1.2246666 0.6354782581 -0.1384207457 0.7596098185
0.26675305 -0.3549383 1.0845925 0.7999446392 0.0775801912 0.5950377584
-0.095724106 -0.25389606 1.3155715 -0.2541146874 0.6637940407 0.7034224868
0.22696078 -0.35483515 1.1360003 0.7900646329 -0.01701204292 0.6127874851
-0.34304124 -0.44239002 2.0530002 0.1054667681 0.7952104807 0.5970905423
-0.41056931 -0.060053419 1.3980001 0.7101180553 -0.2196449935 0.6689457893
0.20857739 -0.097921915 1.1170001 0.8476345539 -0.009106186219 0.5305023789
-0.19199876 -0.16866189 1.21 -0.2768984437 0.6188897491 0.7350528836
-0.041273467 0.00093803334 1.0700001 -0.1547842175 0.7934201956 0.5886647701
-0.22178265 0.021758366 1.0159999 0.1108628809 0.5496121645 0.8280313611
-0.12550744 -0.12343458 1.1862309 -0.2871141136 0.7321369052 0.6176900864
0.20431131 -0.034889005 1.1258695 0.396237731 -0.2771725357 0.8753119707
-0.22540045 -0.14234214 1.1681112 -0.2906545401 0.6492768526 0.7028225064
0.19742364 -0.20481989 1.165923 0.8597956896 0.06268507987 0.5067760944
-0.45853525 0.076422542 1.503 0.9111561179 0.1236377284 0.3930752873
-0.33573443 -0.16228852 1.1569999 0.08317695558 0.6056059599 0.7914057374
0.0053353934 -0.11522952 1.217 -0.1478378922 0.7002770901 0.6983952522
0.27353725 -0.1848066 1.0335519 0.7489811182 -0.005400561262 0.662569344
-0.17363948 -0.27332243 1.3045001 -0.5627892613 0.09367516637 0.8212753534
-0.2258067 -0.17260279 1.1954615 -0.282843262 0.6123030782 0.7382984757
0.13414879 -0.43475044 1.2042221 0.5435386896 -0.1575930566 0.8244574666
0.012942668 -0.37348321 1.3028334 0.6267905831 -0.1870553792 0.7564018965
-0.007060498 0.072158255 0.98220003 0.04847178981 0.5701250434 0.8201267719
0.097100124 0.001351294 1.1010001 -0.2344506234 0.6979473829 0.6766848564
-0.36239266 -0.20186974 1.189 0.03077912703 0.5516903996 0.833480835
-0.065056145 -0.10513239 1.1845294 -0.1950864792 0.7290022969 0.6561226249
-0.045380283 -0.21555446 1.2940832 -0.1864093244 0.6324574351 0.7518305779
-0.22571276 -0.093152307 1.117 -0.251544416 0.7324431539 0.6326550841
0.013846851 -0.041980058 1.1371112 -0.1109365895 0.7539227605 0.6475288272
-0.21582155 -0.068391271 1.09 -0.2035068125 0.7133416533 0.6706181169
0.084627353 -0.3649739 1.2524167 0.5163704753 -0.2371512949 0.8228735328
-0.052695751 0.11203869 0.98900002 0.5173165798 -0.1038233191 0.84947294
-0.14433557 -0.22803532 1.2729999 -0.3391018212 0.6129165888 0.7136828899
-0.1158336 0.02682312 1.015286 -0.1948978901 0.7681986094 0.6098242998
0.14339286 0.3002671 1.3980001 0.983758986 0.04790042713 -0.1729850024
0.25231716 -0.33458358 1.1021427 0.782543838 0.07116664201 0.6185147166
0.1667683 0.0068669301 1.1190001 -0.1221899241 0.5637239218 0.8168751001
-0.18552954 -0.20310731 1.2360001 -0.2752332389 0.5523758531 0.7868466377
-0.16610028 -0.070908308 1.108 -0.2268659323 0.7278519869 0.6471192837
0.065493383 -0.11205629 1.219 -0.09268581867 0.6982778907 0.709800899
0.059844773 -0.2856741 1.2880001 0.5127445459 -0.1794247031 0.8395830989
0.2135669 -0.32432136 1.153 0.731836319 -0.009113322012 0.6814195514
-0.024912041 -0.16522965 1.2536668 -0.2183833122 0.6670970321 0.7122431397
0.064502381 -0.32461199 1.2844287 0.6065621972 -0.2122610062 0.766177237
0.056956813 -0.14199086 1.2435 -0.04065674543 0.6826773286 0.7295880318
-0.15529774 -0.20472482 1.245 -0.3095372915 0.5530514717 0.7735119462
-0.10559642 -0.21321218 1.2759999 -0.2650802732 0.6248927116 0.7343307137
0.20850903 -0.22664025 1.149 0.8154681921 0.05603170395 0.5760833621
0.034784634 0.052357294 1.0025713 -0.2346865386 0.5402318239 0.8081285954
-0.19451198 -0.125019 1.1638237 -0.2302693725 0.7062221169 0.6694970727
0.1845113 -0.45486218 1.1638801 0.6023716331 -0.2274350226 0.7651285529
0.04780408 -0.46433008 1.2575455 0.6320860386 -0.06042426825 0.7725387216
0.21719062 -0.14501972 1.115737 0.8687902093 0.1090301499 0.483027935
0.14175455 -0.22504181 1.2427778 0.7843138576 -0.07364480942 0.6159774065
-0.1455981 -0.0124327 1.0559286 -0.2534365654 0.710683465 0.6562765241
-0.0047986647 -0.02521698 1.1163334 -0.1730491221 0.7790560722 0.6025990844
-0.094148234 -0.13705607 1.2105715 -0.1856989115 0.6901857853 0.6993993521
-0.25337943 -0.18881559 1.1943334 -0.3659148514 0.6229765415 0.6913801432
-0.088280335 0.19607526 1.0600001 0.5472047925 -0.3648341894 0.7533013225
-0.27508485 -0.088606283 1.1010001 0.03791315481 0.6288573742 0.7765957713
0.12170862 0.043742049 1.084625 -0.4751291871 0.2195073068 -0.8520966768
0.085144147 -0.038065225 1.1425999 -0.1052244157 0.7479708791 0.6553375721
0.19828758 -0.26547039 1.1675454 0.7783436179 -0.007495049387 0.6277937293
0.086986363 -0.41581601 1.2357647 0.4568949938 -0.3640842438 0.8115969896
-0.19553874 -0.10076232 1.138 -0.2293582559 0.7346017361 0.6385570168
-0.43044773 -0.004961933 1.4150001 0.3686125576 -0.2582158744 0.8930001855
-0.13456763 -0.046817854 1.0928 -0.3005694747 0.6730246544 0.6757926941
0.014514387 -0.41450876 1.2927142 0.6098352075 -0.05495075509 0.790620923
-0.19449726 -0.24411607 1.2657143 -0.2655713856 0.6746999025 0.6886594892
0.18177947 -0.36485177 1.1815001 0.6473988295 -0.04840362072 0.7606127858
-0.024190739 0.0403179 1.0220001 -0.1880849153 0.7805773616 0.5960898399
0.22579412 -0.29446793 1.1338334 0.8298024535 0.08101069182 0.5521458983
0.054274026 -0.4153612 1.2655385 0.594637394 -0.1100936085 0.7964205742
-0.0038661 0.0222761 1.0500001 -0.1529395282 0.7881795168 0.596139729
-0.16445449 -0.15519202 1.2042221 -0.2446575016 0.656360805 0.7136758566
-0.024350293 -0.3920508 1.3226666 0.5294275284 -0.2089734972 0.8222144246
0.20607698 -0.39542806 1.1546469 0.6996398568 -0.04437541217 0.7131162882
-0.36085442 -0.14858711 1.153 0.07828152925 0.5694811344 0.8182684779
-0.21380031 -0.29186025 1.268 -0.4999510348 0.09404768795 0.8609320521
0.26853755 -0.41395569 1.087 0.7884452343 -0.004288365133 0.6150899529
-0.16550912 0.0074238111 1.0240453 -0.1473029405 0.7240000963 0.6738885045
-0.24994205 -0.26740524 1.245 -0.6809201837 -0.07499228418 0.7285079956
-0.068947203 -0.26527143 1.3330001 -0.2411826551 0.716504693 0.6545624137
0.28446588 -0.35509968 1.0532001 0.8812714815 0.1317643672 0.4538708925
0.006423838 -0.34714985 1.3155715 0.7257874608 -0.2153756022 0.6533344984
-0.084057428 0.14823031 1.031 0.5574049354 -0.2929960191 0.7768224478
-0.011704084 -0.19745924 1.2920001 -0.1847038865 0.6376494169 0.7478553653
-0.061029151 -0.27403286 1.365 0.09624919295 0.7265321612 0.6803580523
0.18698266 -0.16451314 1.1758001 0.8567112088 0.08953883499 0.5079652667
-0.19015777 -0.058289565 1.09 -0.2141046077 0.7126615644 0.6680364609
0.17334782 -0.2152189 1.2025713 0.7853643298 -0.002121957019 0.6190302372
0.23067862 -0.24842453 1.1245 0.8463400602 0.06322099268 0.5288776755
0.13520437 -0.39455876 1.2137998 0.5950005054 -0.1629749686 0.7870283127
-0.1455037 -0.11395984 1.165222 -0.2338890284 0.7125336528 0.6615071893
-0.39741755 -0.032948639 1.3920001 0.6988217831 -0.3005365133 0.6490961909
-0.24537897 -0.027220499 1.0500001 0.1366299093 0.5528090596 0.8220306635
-0.03795616 -0.240389 1.312 -0.1716351211 0.6489238739 0.7412416935
0.074259982 0.017483538 1.028 -0.3873425126 0.4056847692 0.8278802037
0.13164115 -0.28177732 1.2410001 0.7401071787 -0.1463972479 0.6563605666
-0.4368746 0.03476334 1.455 0.9372932315 0.3482467532 0.01433954388
-0.30135417 -0.27286249 1.25 0.1346149445 0.3637691736 0.9217107892
0.054851107 -0.38507947 1.2665999 0.5699062347 -0.2801333368 0.7724844813
-0.1542858 0.051084589 0.98100007 -0.02133525722 0.6607125998 0.7503356934
0.064033486 -0.0027439669 1.0948571 -0.09545380622 0.7637578249 0.6384062767
-0.044400211 -0.13632859 1.2244545 -0.1345691979 0.6929864287 0.7082802653
0.042822976 -0.36400297 1.2855 0.5070717931 -0.2549172342 0.8233439922
-0.0716675 -0.018155767 1.09 -0.172433719 0.7779646516 0.6041834354
0.024981981 -0.078400984 1.1818891 -0.1042796671 0.7249940634 0.6808152199
-0.34153792 -0.19088978 1.177 0.02638559975 0.5738417506 0.81854105
-0.1342814 -0.25668985 1.3025 -0.3386425972 0.6712539792 0.6593476534
-0.1047518 -0.054239776 1.1167334 -0.2414812148 0.7196339369 0.6510098577
0.25900668 -0.23417689 1.0642308 0.8928215504 0.1382998824 0.4286523759
0.081004001 -0.46658304 1.2320001 0.6750735641 -0.141108498 0.7241299152
-0.10483082 -0.005051462 1.0629584 -0.1987098902 0.7465415597 0.6349725127
0.16078193 -0.27382934 1.21 0.7688872218 -0.09923898429 0.6316360235
0.31720132 -0.32500309 0.98860013 0.7907155752 0.233783856 0.5657861829
0.23819317 -0.12522471 1.0749999 0.7783640027 0.05150036514 0.6256973743
0.24256514 -0.30458719 1.1124002 0.8187810183 0.07035086304 0.5697792768
0.0038468132 -0.010578737 1.097 -0.1058765575 0.7799922824 0.6167675257
0.29788142 -0.25540581 1.0041876 0.8007976413 0.02837417834 0.5982625484
0.10251226 -0.25396895 1.2729999 0.6418613791 -0.220383659 0.7344692349
-0.051512934 -0.048541032 1.13 -0.209852457 0.7126482725 0.6693985462
-0.15298183 -0.28510252 1.322 -0.5100395679 0.09059715271 0.8553664684
0.25904411 -0.38451964 1.0961429 0.80403018 0.05483090505 0.5920549631
0.18815668 -0.29450053 1.1754 0.7160605192 0.03398676217 0.6972103119
-0.02348352 -0.30596155 1.3490001 0.6343790889 0.1863726974 0.7502189279
0.17634366 -0.42490807 1.1745654 0.5997609496 -0.1610793918 0.7837985754
0.21255881 -0.19455381 1.1409999 0.8573693633 0.155078575 0.490783453
0.24639343 -0.1751786 1.0729523 0.843750298 0.09449780732 0.5283517838
-0.12812746 -0.0809514 1.133 -0.3178442419 0.7040312886 0.6350708604
0.1870383 -0.031786472 1.1450001 0.2277020216 -0.2292899489 0.9463497996
0.071168087 0.040795099 1.0190001 -0.3172181845 0.3606159985 0.8771138787
-0.084201679 -0.23592275 1.302 -0.2301289886 0.6201882362 0.7499381304
-0.2949906 -0.098070249 1.1120001 0.07226383686 0.5851882696 0.8076711297
-0.12574819 -0.00091786997 1.0470001 -0.2359392792 0.7628170848 0.6020321846
-0.054297227 -0.17840517 1.2640001 -0.1645144522 0.6612585783 0.7318962812
-0.11428277 0.064086311 0.97309691 -0.1489546448 0.701444447 0.6969850659
0.25098208 -0.26820567 1.0913334 0.8613360524 0.1441234797 0.4871639013
-0.031195307 -0.028270746 1.1120001 -0.1568683088 0.7752322555 0.6118882895
0.30796951 -0.20910428 0.99800003 0.7617318034 -0.05803278089 0.6452881694
0.30469507 -0.33453616 1.0137502 0.8426959515 0.2084439248 0.4964016974
-0.034718513 0.066718474 0.98500001 0.2605842948 0.5144469738 0.8169701099
0.32828599 -0.28441563 0.96700007 0.7629472017 -0.03431211039 0.6455495358
0.14706866 -0.18489471 1.2360001 0.7961791754 -0.01497349516 0.6048756242
-0.095230393 -0.094401792 1.1646367 -0.1804843098 0.7436212301 0.6437801719
-0.093052901 0.051309545 0.99200004 -0.1354952753 0.751033783 0.6462115049
-0.1718635 -0.23993929 1.273 -0.2556390464 0.6831350923 0.6840870976
0.045603495 -0.012615585 1.1067998 -0.07287590951 0.7862167358 0.6136386395
-0.18254128 -0.037708938 1.0700001 -0.2181724012 0.6803269982 0.6996827722
-0.064778529 -0.067212783 1.1418571 -0.2228009105 0.6783407927 0.7001525164
0.3126311 -0.36416891 1.0159999 0.7856947184 0.2476036251 0.5669005513
-0.29212025 -0.14858711 1.153 -0.1468628049 0.6331118941 0.7600004077
-0.17542493 -0.287747 1.2855 -0.4866372347 -0.1083260179 0.866861999
-0.33201995 -0.23124713 1.21 -0.1280034333 0.6661968231 0.7347087264
-0.25470403 -0.12426677 1.1364001 -0.2364143431 0.6637678742 0.7095917463
-0.054794844 0.033457763 1.0246249 -0.1180881262 0.8087402582 0.5761895776
0.14560059 -0.45580003 1.1948668 0.5479744673 -0.2652071416 0.7933405042
0.24817054 -0.14461383 1.06425 0.8109090328 0.07811419666 0.5799351335
0.11510774 -0.33486351 1.2434 0.596173048 -0.1487599462 0.7889538407
0.26521128 -0.14464422 1.0442649 0.7527351379 -0.0190385934 0.6580481529
-0.075109854 -0.14582688 1.2255455 -0.2019305378 0.6957211494 0.6893447638
0.23201509 -0.19594553 1.1120002 0.8591006994 0.1808227599 0.4787996411
0.094724774 -0.47552463 1.2151539 0.5361998081 -0.2437943667 0.8081176281
0.1253041 -0.23515879 1.2588185 0.6657685637 -0.08102692664 0.7417458296
0.084963083 -0.075979359 1.1828668 -0.09061493725 0.7038230896 0.7045722008
0.28075251 -0.31849301 1.0500001 0.8773934841 0.1754009575 0.4465592504
-0.057139378 -0.20054802 1.2780001 -0.1483993381 0.6336398721 0.7592616081
-0.22450872 -0.21780679 1.2336003 -0.2629624009 0.6148415208 0.7435191274
0.16897759 -0.38509288 1.189 0.6516933441 -0.1502197236 0.7434580326
-0.14757265 -0.031713564 1.0745001 -0.2410110086 0.6898926497 0.6826139688
-0.13139305 0.23497297 1.0940001 0.4879344106 -0.38913849 0.781339407
-0.0040005911 -0.38542226 1.3137649 0.5471630096 -0.1459755003 0.8241989017
-0.14583836 -0.16251163 1.215909 -0.3192531466 0.6228737235 0.714216888
0.28486985 -0.20540655 1.0225804 0.7006341219 0.001892925007 0.7135182023
-0.011531965 -0.17893147 1.273 -0.2228999138 0.6789544821 0.6995258927
-0.015723769 0.05270607 1.0044286 0.1473910362 0.8806856871 0.4501872957
0.044717137 -0.12247271 1.2270001 -0.05844018981 0.6959611177 0.7156974673
0.17649902 -0.24512956 1.1946473 0.7648599148 -0.07047885656 0.640329659
0.044933062 0.013057756 1.0727776 -0.1845016181 0.7644056082 0.617772758
0.250902 -0.21776399 1.08 0.8659071326 0.1587398946 0.4743485153
0.28813842 -0.38361907 1.0544287 0.8273925185 0.09664671868 0.5532459021
-0.10447254 -0.27742487 1.3330001 -0.3342775702 0.6481475234 0.6842246056
-0.1850297 0.025152206 1.0038966 0.08034303039 0.6230234504 0.7780660391
0.054176249 -0.025612166 1.1235998 -0.1013726145 0.7819056511 0.6150992513
0.14363891 0.013478107 1.1248001 -0.4408489168 0.4928378761 0.7501753569
-0.013978265 -0.3448965 1.334579 0.6086016297 -0.3321508467 0.7206107974
0.11867349 0.093315899 1.1570001 -0.574344933 0.6575716138 -0.4875730872
-0.24394983 -0.13641021 1.153923 -0.3230350316 0.6575800776 0.6806150079
-0.016024113 -0.084813908 1.1759092 -0.2268510014 0.6782733798 0.6989161968
-0.47756329 0.087310739 1.5090001 0.9111561179 0.1236377284 0.3930752873
0.23865628 -0.34597999 1.118 0.7866100669 0.05802091584 0.61471802
0.1121169 0.026694501 1.0500001 -0.7562834024 0.3318150342 0.5638565421
0.023638839 -0.17703766 1.2729999 -0.006987634581 0.6570712328 0.7537961006
0.045100451 -0.33499292 1.2933888 0.441209197 -0.2934313715 0.8480757475
0.14569424 -0.34536141 1.2179545 0.6393252611 -0.09704024345 0.7627885342
0.14602549 -0.26521412 1.2247999 0.7340501547 -0.05797674507 0.6766158938
0.10744812 0.061097704 1.0924001 -0.4387271404 0.6860820055 -0.5803533196
-0.1511312 0.33370578 1.1570001 0.455483526 -0.3703740537 0.8095417619
0.091671154 -0.28234714 1.2729999 0.639572978 -0.2483496815 0.7275086641
0.20724694 -0.15468979 1.1335557 0.8938323855 0.09146933258 0.438972652
0.21520746 -0.41497728 1.145741 0.6485905051 -0.08578716218 0.7562875748
0.11485999 0.01640857 1.1010001 -0.4889515936 0.1931988448 0.8506471515
0.25053731 -0.44160855 1.1120001 0.7123662829 -0.06114046276 0.699139595
-0.11481327 -0.18592909 1.2507143 -0.2646656036 0.6174104214 0.7407810092
-0.1761138 -0.13192472 1.1748183 -0.2318084091 0.6864346862 0.68925488
0.26888943 -0.28616637 1.0650001 0.88511765 0.2072730809 0.4166588485
0.094492309 -0.022094542 1.1251001 -0.1637128592 0.7442646027 0.6475092769
-0.21899484 -0.00090121332 1.028 0.007000034209 0.6092359424 0.7929580808
0.12445774 -0.49155578 1.193 0.5191584826 -0.2584945858 0.8146502376
-0.023987707 0.011528693 1.0606 -0.1789194345 0.8049842715 0.5656749606
-0.17355351 0.35581309 1.1826001 0.4521068037 -0.4363761842 0.7779301405
0.23355579 -0.17471929 1.0935625 0.8592349887 0.1470059603 0.4900045395
0.07625667 -0.33548492 1.2679999 0.5856400728 -0.2134032398 0.7819749117
-0.098953754 0.22241208 1.075 0.5380693674 -0.3168930113 0.7810634971
0.046274852 -0.068898112 1.1730001 -0.07803691924 0.7161346078 0.6935859323
0.068761349 -0.42457405 1.245 0.6484878063 -0.2242380977 0.7274481654
-0.044598233 -0.11280727 1.1970001 -0.1621587276 0.7177824378 0.6771210432
0.12664174 -0.37577456 1.22425 0.5706966519 -0.2020151615 0.7959241271
0.29087698 -0.30625108 1.0315 0.8327799439 0.2009411901 0.5158489943
0.21554063 -0.37514511 1.1463336 0.6767425537 -0.06257268786 0.7335557938
-0.075227447 -0.16572469 1.2436669 -0.2189113945 0.6456879973 0.731549561
-0.14456263 -0.18331946 1.2336668 -0.319240272 0.592092514 0.7399406433
0.2076423 -0.34539822 1.1553998 0.6864205599 -0.04590023309 0.7257547975
-0.1038324 -0.0198828 1.08 -0.2240959108 0.7258439064 0.650331974
0.23552018 -0.41524723 1.1248748 0.721861124 -0.0731921941 0.6881565452
-0.21484141 -0.15558517 1.1849998 -0.3063668311 0.6240138412 0.7188504934
0.22188872 -0.049851649 1.115 0.4504057765 -0.2249280959 0.8640266061
-0.26398623 -0.24645118 1.2409999 -0.539524436 0.2390134037 0.8073326349
0.064204812 -0.095404878 1.2034286 -0.0492422469 0.7178787589 0.6944244504
0.0054107867 -0.13419065 1.2344 -0.1345944703 0.7142062187 0.6868724823
0.3144466 -0.25424969 0.98572224 0.7408316135 -0.02930287085 0.6710513234
-0.054620452 -0.084541872 1.1646001 -0.2349948138 0.7300563455 0.6417127252
-0.18319352 0.058016043 0.9780001 0.1721727401 0.578312993 0.797440052
0.23176315 -0.094675146 1.0824616 0.7648328543 -0.08658932149 0.6383830905
-0.065221578 0.045130678 1.0041362 -0.1461183876 0.7781785131 0.6108090281
0.09448871 -0.061694361 1.1689999 -0.1400987953 0.705585897 0.694637239
-0.058163851 0.13231581 1.0022 0.6212000251 -0.3117794394 0.7189604044
0.2952359 -0.2848683 1.0144001 0.8171781898 0.1216905788 0.5633925796
-0.19408573 -0.010269774 1.0380001 -0.05416277424 0.6819241643 0.7294147611
0.025325146 -0.15415567 1.2560003 -0.0572633706 0.6185480356 0.7836576104
-0.22542481 -0.034829237 1.0545833 -0.1396436989 0.6149438024 0.7761080861
0.0054000714 -0.057043433 1.1549999 -0.153097868 0.7373136282 0.6579738855
0.31522384 -0.29506862 0.98650002 0.8327148557 0.06225704029 0.5501909256
-0.17953432 -0.26083288 1.2880001 -0.2577103376 0.6609026194 0.7048355341
-0.056508474 -0.29504073 1.3649999 0.2515662313 0.3909205496 0.885378778
0.25494611 -0.31451961 1.0942857 0.8329039216 0.1127631441 0.5418076515
0.16413032 -0.36503199 1.1948003 0.6778127551 -0.08339339495 0.73048985
-0.071081012 0.10881537 1.001 0.7246429324 -0.006427533459 0.6890945435
-0.06381575 -0.22693504 1.302 -0.1794028878 0.6479583979 0.7402462959
-0.1355699 0.062976807 0.97142845 -0.0009057295392 0.6643520594 0.7474192381
0.19800848 -0.1544577 1.1553332 0.875828445 0.09616044164 0.47294572
