# .PCD v0.7 - Point Cloud Data file format
VERSION 0.7
FIELDS x y z normal_x normal_y normal_z
SIZE 4 4 4 4 4 4
TYPE F F F F F F
COUNT 1 1 1 1 1 1
WIDTH 512
HEIGHT 1
VIEWPOINT 0 0 0 1 0 0 0
POINTS 512
DATA ascii
0.15452126 -0.45473397 1.2590001 0.3908447325 -0.2415502667 0.8881969452
-0.49597591 -0.48282504 2.1430001 0.1710692495 0.9442374706 0.2813377082
0.034892585 0.43521428 1.2550002 0.457398355 -0.5106651187 0.7280163765
0.48201239 -0.17311712 1.9360001 -0.05673397705 0.7523178458 0.6563529372
-0.36529911 0.011550959 1.6470001 0.9573355317 0.1163285822 0.2645303309
-0.20110293 -0.051992465 1.1190001 0.26862064 0.4501745403 0.8515784144
0.03637816 -0.39633048 2.184 -0.1885518879 0.8902660012 0.4145776033
0.27881944 0.019405017 1.1650001 -0.01953177899 0.8735784888 -0.4862912297
0.30963778 0.20240392 1.529 -0.9955458641 0.04148870334 0.08465904742
0.42161968 -0.31598309 1.057 0.4005552232 -0.2189136744 0.8897372484
-0.43415076 -0.22285305 1.8830001 0.07490124553 0.8063354492 0.5866966844
-0.093146704 -0.2625488 1.3450001 -0.3995069861 0.6706915498 0.624953568
0.040725552 0.095169179 0.97800004 0.1451461166 0.5329878926 0.8335805535
-0.28830409 0.045839146 1.376 0.568033874 -0.2839772701 0.7724599838
0.15064289 -0.17216331 1.2920001 0.08541660756 0.6022415161 0.793731153
-0.21524972 -0.45958725 2.2120001 -0.04793578014 0.9373195171 0.3451583087
0.024818433 -0.052823111 1.1476668 -0.1621688753 0.7307488918 0.6631042957
0.084997736 0.26170462 1.1248 0.5859960914 -0.3154593408 0.7463872433
0.32843441 0.057439201 1.6800001 -0.9461670518 -0.2184703946 0.2388274819
0.20464292 -0.30788621 2.1030002 -0.2856759429 0.9223780036 0.2600156069
0.31871676 -0.18574655 1.1758001 0.7967610955 -0.03143176436 0.6034764647
0.2887249 0.14086981 1.3280001 -0.2453829795 0.8086282015 -0.5347033143
0.32488945 -0.47160915 1.1450001 0.6701159477 -0.06063565984 0.739775598
-0.23276603 -0.18586527 1.2442 0.2919772565 0.6546033025 0.6973118186
-0.35148019 0.16524816 1.4960001 0.7938987017 -0.2753823698 0.5421156287
0.014639749 -0.40160394 1.3540001 0.5964439511 -0.1087291986 0.7952563167
0.24366115 -0.31401917 1.2504545 0.5515041947 -0.1804405451 0.8144227266
0.18494029 0.033341069 1.0319287 -0.04121885449 0.6592823267 0.7507647872
-0.074022226 -0.1464273 1.2326669 -0.2307703644 0.6928850412 0.6831218004
-0.090869129 0.039468411 1.0470001 0.2848716378 0.4507580101 0.8459700942
0.47571993 -0.065524697 1.8230001 -0.05072370172 0.7755653858 0.6292260885
0.21524972 -0.41498595 2.2120001 -0.2927523255 0.9244101048 0.2444628179
0.16781943 -0.071922608 1.189 0.006381951272 0.7758304477 0.6309092045
0.12516871 -0.30532092 1.3344001 0.3614341319 -0.3057894707 0.8808281422
0.019553173 -0.1989823 1.312 -0.1210689619 0.7217167616 0.6815183759
0.33128858 -0.33457369 1.153 0.7596652508 -0.003205672139 0.6503064632
0.12260314 0.15409283 1.0627 0.4497529268 -0.409581989 0.793703258
-0.27413476 -0.064080015 1.3143079 0.3615604639 -0.4037466645 0.8403943777
-0.39894471 -0.30223083 1.9700001 -0.1066988334 0.7859466076 0.6090183258
0.07519301 0.017745487 1.0655 -0.06289397925 0.811937809 0.5803459287
-0.086327128 -0.05101148 1.1190001 -0.07620920241 0.7758829594 0.6262570024
0.0036925201 -0.276939 1.404 0.6321300268 0.4275971949 0.6461983323
0.065013602 -0.12135871 1.2360001 -0.125842765 0.7516331077 0.6474652886
0.056602072 -0.49646431 1.2965 0.6110318899 -0.1466702223 0.7778996825
0.38819239 -0.42186689 1.067 0.7732638121 0.1120590493 0.624104023
0.25698021 -0.20595706 1.2653333 0.7637742162 -0.09757380188 0.6380660534
0.04671523 0.33885971 1.193 0.3688112199 -0.4694570005 0.8022395968
0.31226224 -0.078328997 1.202 0.4947953522 0.2985565364 0.8161137104
0.25543898 -0.4150998 1.2141073 0.5664871335 -0.1880465746 0.8023283482
-0.27075824 -0.11633571 1.1743335 0.1373572648 0.56515944 0.8134665489
0.3916184 -0.2257833 1.103 0.6117808819 -0.3109587133 0.7273436785
-0.164012 -0.12724553 1.1826001 -0.1751774251 0.6561590433 0.7340083122
-0.35843796 0.086494915 1.5762 0.9524102807 0.1310774535 0.2751968503
0.26847917 0.07342083 1.25 -0.4126440585 0.8218272328 -0.3928420246
-0.15673748 -0.24788977 1.268 -0.5751935244 0.1922967285 0.7950939536
-0.02489032 -0.47291607 2.184 -0.192682758 0.9296131134 0.3141542077
0.19497071 -0.014258653 1.1147916 -0.07170239836 0.7939501405 0.6037399769
0.29909411 0.1969344 1.404 -0.3314392269 0.7865229249 -0.5210852027
0.094831996 -0.39517805 1.305958 0.3117167056 -0.2573803961 0.9146518707
-0.3225899 0.11503378 1.42625 0.2613927424 -0.4334860742 0.8624173403
0.19593237 -0.25704187 1.307 0.5333996415 -0.2838488817 0.7968152761
-0.017541574 -0.0026426241 1.0757999 -0.2123009861 0.7330877185 0.6461507082
0.21885282 -0.49585494 1.2060001 0.3887809515 -0.2689844966 0.8811904788
0.17617974 -0.36468366 1.278 0.4942221045 -0.1869549155 0.8489949107
0.10466874 -0.026988311 1.1340001 -0.088333942 0.7809097171 0.6183665395
0.3003197 -0.26449209 1.202 0.8003911376 -0.09397287667 0.5920668244
0.20360273 -0.12394944 1.2431819 0.1493901312 0.6453243494 0.7491589189
-0.06456124 -0.20727554 1.2919999 -0.1538877785 0.7066531181 0.6906228662
-0.034511734 -0.093155682 1.1849999 -0.1177491769 0.7597152591 0.6395059228
0.30417529 0.25027078 1.4640001 -0.9961370826 0.006633684039 0.08756068349
0.11159244 0.071893901 1.00625 -0.4480882883 0.4982244372 0.7422865033
-0.14531973 -0.0047521996 1.0833999 0.2767527103 0.3933315277 0.8767544031
-0.015438695 0.056013141 1.0168402 0.0805022046 0.5897939205 0.8035312891
0.24459612 -0.051172443 1.1673999 0.02422472462 0.7563152313 0.6537587047
0.13811532 -0.33782262 2.1290002 -0.2897028625 0.9233633876 0.2519370019
-0.1438805 -0.1786947 1.2410001 -0.2559001446 0.6746069193 0.6924020648
-0.0055106464 -0.15239647 1.2571818 -0.2485554963 0.6825543046 0.6872698069
0.33820221 -0.26038578 1.138 0.8379208446 -0.06992436945 0.5412940979
0.34465215 -0.40488914 1.1243333 0.8208256364 -0.04058988392 0.5697347522
0.060045529 -0.34379011 1.3430001 0.5090736747 -0.2265657634 0.8303685784
0.085168391 -0.074786901 1.1847501 -0.1535965055 0.7393420339 0.6555772424
-0.024750579 -0.24636422 1.3446003 -0.257032901 0.6586338878 0.7072026134
-0.145439 -0.45376968 2.2120001 -0.1914140433 0.9278797507 0.3199996948
0.36516383 -0.34465796 1.0927942 0.8085672259 -0.02798541635 0.5877378583
0.135445 -0.11269025 1.2360001 -0.004296936095 0.7367830276 0.6761155725
0.096193127 -0.20281683 1.322 -0.03342979401 0.7020536065 0.7113389969
0.36707011 -0.16626033 1.126 0.6905251741 -0.1161587685 0.7139202356
0.2831459 -0.34497657 1.2040952 0.7165472507 -0.1162889004 0.687776804
-0.10451513 -0.096962355 1.1752223 -0.1950995475 0.7349521518 0.6494470835
0.14404884 0.01095583 1.08 -0.0003592334397 0.7981562018 0.6024504304
0.088295892 0.2025032 1.09475 0.4624192417 -0.4086158276 0.7868936062
0.25251237 -0.0055572628 1.0862499 0.2955832183 0.8924697638 0.3407759666
-0.27715132 -0.0072996528 1.3430001 0.3114148974 -0.3914870024 0.8658860922
0.27462626 -0.47472242 1.184478 0.6401820779 -0.1957102269 0.7428758144
0.10743599 -0.49700674 1.2576667 0.3005932868 -0.2716550827 0.9142467976
0.30384967 -0.40479434 1.1749201 0.7337852716 -0.08792615682 0.6736677289
0.20321037 -0.41459027 1.2522223 0.5749514699 -0.2198656052 0.7880926132
0.0084440531 -0.33293694 1.376 0.6234026551 -0.1061644107 0.7746601105
0.34383318 -0.12615721 1.1672857 0.6071367264 -0.3464453816 0.7150948048
-0.14489549 -0.072950929 1.1346668 -0.1411889046 0.7038345933 0.6961914897
0.37831587 -0.28492808 1.087 0.7342616916 -0.1513929069 0.6617703438
0.065021962 -0.1657822 1.2848182 -0.06689395756 0.6859329343 0.724583447
-0.21498619 -0.10273463 1.1556665 0.09056633711 0.6097764373 0.7873820066
0.024731468 -0.092852153 1.1954 -0.1067945883 0.7703621387 0.6285993457
0.04350765 -0.44457421 1.3235002 0.5111432672 -0.2235097438 0.8299252391
-0.22407623 -0.14877406 1.193 -0.09150867164 0.6772298813 0.7300587893
0.050020847 0.3948454 1.2140001 0.4009031653 -0.4563505054 0.7943682075
0.056279369 0.049132783 1.0190001 -0.009155280888 0.7540225387 0.6567847133
0.045562379 -0.013575271 1.1057998 -0.1074875519 0.7889232635 0.6050177813
0.42066848 -0.37648448 1.0500001 0.5219867229 -0.0006199162453 0.8529533744
-0.085762106 -0.011487402 1.0769999 0.06176068261 0.645383954 0.7613574862
-0.02497638 -0.041631583 1.1173334 -0.2323511541 0.7580396533 0.6094168425
0.23442943 -0.08804363 1.21 0.01036696974 0.7112411261 0.7028716803
0.16828144 -0.30813694 1.2970001 0.5454398394 -0.3280234337 0.771295011
0.28733978 -0.17905128 1.223 0.8327651024 0.004093709402 0.5536113381
-0.12034968 -0.20808122 1.2830001 -0.179211393 0.7214409709 0.6688842773
0.098753497 -0.4463914 1.278 0.2820876241 -0.4450392723 0.8499215245
0.2345504 -0.2583707 1.268 0.5321987867 -0.345613867 0.7728618979
0.06219219 0.29601553 1.1630001 0.5200022459 -0.3542286754 0.7772513628
0.23946676 -0.36624327 1.2360001 0.5984942913 -0.176622197 0.7814148664
0.35648486 -0.45389283 1.1058822 0.7521936893 0.03412722796 0.6580577493
0.043630823 -0.23228598 1.3450001 -0.05082429573 0.6203429103 0.78268224
0.02453444 0.023944769 1.0528948 -0.07438163459 0.7857530713 0.6140516996
0.2590287 0.04546218 1.2060001 -0.1945659965 0.8017885089 -0.5650479794
-0.19453263 -0.22213748 1.2427778 -0.2038323432 0.1912076473 0.9601520896
0.13303827 -0.35157371 1.312 0.3311896026 -0.3631575108 0.8708789349
-0.11511668 -0.26315716 1.295 -0.645163238 -0.4471980929 0.6194984317
0.14172018 -0.41053861 1.2830001 0.4018475115 -0.3508179486 0.8458400369
0.15488935 -0.033993077 1.1445001 0.01261597499 0.8115116954 0.584199965
0.13067593 0.11445409 1.028 0.4131330848 -0.3181254566 0.8532978892
0.17437044 -0.49526557 1.2347274 0.4403088391 -0.4124955237 0.797480762
0.27889922 0.11178552 1.2880001 -0.5183770061 0.6281773448 -0.5802400708
0.13571814 0.041328195 1.041 0.05644401535 0.8017006516 0.5950547457
-0.32650399 0.15784208 1.452 0.6706798077 -0.3752292693 0.6398371458
-0.12446329 -0.13825326 1.21 -0.3017622828 0.6877874732 0.6602181196
0.20685314 0.0028144759 1.0704286 0.2580484748 0.9019064307 0.3463752568
-0.044700027 0.024861062 1.0441253 0.07080730051 0.6486650705 0.7577729821
0.27313197 -0.24483892 1.2412666 0.786380589 -0.1516255438 0.5988449454
0.10479106 -0.14527632 1.2664615 -0.1267783046 0.6956207752 0.707134366
-0.011793797 -0.11901013 1.223 -0.2039646357 0.7361366749 0.6453690529
-0.19191724 -0.16832964 1.223 -0.1753461063 0.6745545268 0.7170982361
0.35477519 -0.21501371 1.1309654 0.7278125882 -0.1797507107 0.6617994905
-0.31597421 0.073674567 1.4040002 0.6032967567 -0.2981671989 0.7396818995
0.29317924 0.17112094 1.365 -0.2753795385 0.7823851705 -0.5586049557
-0.055400949 -0.071517587 1.149 -0.1139538661 0.7951304317 0.595635891
0.2320746 -0.45469472 1.2229999 0.480102092 -0.2107586414 0.8515179157
-0.024521312 -0.18552072 1.2849231 -0.2307649702 0.6806481481 0.6953169703
0.16521029 -0.13749288 1.2648 0.03378479183 0.6930203438 0.7201259732
0.20464407 -0.32493883 1.2744585 0.5830664635 -0.1749880761 0.7933553457
0.34848288 -0.30412313 1.1245002 0.8216589093 -0.04312853515 0.5683454871
-0.24106668 -0.069019087 1.141 0.179467082 0.4495773315 0.8750267625
0.054301605 -0.39386764 1.3250002 0.5422965288 -0.2869212925 0.7896775603
0.19440171 -0.049363784 1.161 0.04640330002 0.7939163446 0.6062536836
0.27314001 -0.29458809 1.2233075 0.7549895048 -0.1931125075 0.6266565323
0.28698054 -0.045972619 1.1850002 -0.2805422843 0.7548226714 0.5929070711
0.12592351 -0.079031497 1.202 -0.08998684585 0.7513236403 0.6537699699
0.31681317 -0.29461965 1.1659524 0.8104975224 -0.04376567155 0.5841047168
0.10506609 -0.0016829808 1.097 -0.05664588511 0.8266640902 0.5598372817
0.23577073 -0.018822033 1.13 -0.07544335723 0.7664103508 0.6379055381
0.15607238 -0.26694557 1.322 0.5351819396 -0.1907888502 0.8229094148
-0.12385774 -0.037423205 1.1020665 -0.01980216242 0.6685297489 0.7434216738
0.31666005 -0.23477501 1.175261 0.8064724803 -0.0861178115 0.5849665403
-0.025480315 -0.21783225 1.3127145 -0.2507875264 0.6777152419 0.6912363172
0.3737959 -0.38533896 1.0837857 0.818577528 -0.00739849126 0.5743484497
0.066568181 -0.04895144 1.153 -0.09403670579 0.7579559684 0.6454919577
-0.074243151 -0.17713876 1.2640001 -0.2454254478 0.6475917101 0.7213815451
-0.064387411 -0.11610848 1.2039999 -0.1408094913 0.7502267361 0.6460127831
-0.064546049 -0.23615997 1.3226666 -0.1974681914 0.7067770958 0.6793176532
0.12515771 -0.05357438 1.1665384 -0.02039374597 0.7706220746 0.6369659901
0.32669771 -0.37594301 1.149 0.7483853698 -0.1242493168 0.651522398
0.035263043 -0.14325786 1.2570001 -0.07092363387 0.7489471436 0.6588231921
0.22237761 -0.22640483 1.2919999 0.6086378098 -0.1217828989 0.7840465307
0.15240394 0.072832771 1.0149286 0.204129532 0.1145414263 0.9722198248
-0.1654792 -0.036090385 1.1021738 0.204208672 0.4930850565 0.8456748724
0.094453901 0.044336785 1.034182 -0.07480725646 0.797667563 0.5984398723
-0.014672916 -0.067297459 1.1543332 -0.1910194457 0.7679535747 0.611358285
0.19147803 -0.45367238 1.2410001 0.4862087667 -0.3147645295 0.8151836395
0.29814732 -0.21462376 1.2060002 0.8570172787 -0.05356641859 0.5124958754
-0.12457082 -0.24099216 1.3280001 -0.2279035002 0.3291716576 0.9163547754
-0.16363041 -0.20573846 1.2640001 -0.6490021348 0.1924305856 0.7360480428
-0.17493911 -0.09629105 1.1544285 -0.09394159168 0.678298831 0.728756249
0.17154613 -0.099711187 1.223 -0.002760732779 0.7323772907 0.6808934808
-0.054602306 -0.27182454 1.3540001 -0.1406026185 0.6160444617 0.7750613689
0.39400339 -0.34481171 1.0626487 0.6499547362 -0.114031598 0.7513691783
0.094956152 -0.10242448 1.2169999 -0.1211232692 0.7628813982 0.635091424
0.096271485 -0.33556208 1.3279999 0.3182134032 -0.346729815 0.8823370337
0.085854821 0.093045674 0.98425013 -0.09491241723 0.6671522856 0.7388501167
0.0052210609 0.085331596 0.99325013 0.1856034547 0.4730219543 0.8612790108
0.10453874 -0.17374896 1.2941428 -0.0838367939 0.6174721718 0.7821121812
0.02273635 -0.29796585 1.365 0.6769015789 -0.04424446076 0.7347425818
0.25040931 0.016959993 1.138 -0.5857221484 -0.1353827119 0.7991251945
0.30366921 -0.44483417 1.1638967 0.6810055971 -0.1435451061 0.7180711627
0.02362003 -0.16983926 1.2830001 -0.07355285436 0.6943130493 0.7159045935
0.0059078569 -0.017296145 1.1027778 -0.1447856575 0.7686868906 0.6230229139
0.027200337 -0.36543059 1.3490001 0.4677915573 -0.427508384 0.7735680938
0.15207711 -0.0087736798 1.1120001 0.03413090855 0.8252575994 0.5637242198
0.20951106 -0.28569689 1.2780001 0.6780877709 -0.2692424357 0.6838899851
0.30671906 -0.35456151 1.1755265 0.7440456152 -0.08189659566 0.6630905867
-0.10529085 -0.16563652 1.2430001 -0.1930221319 0.6711519957 0.7157495618
0.27629429 -0.38477588 1.2048235 0.6709120274 -0.1652843803 0.722881794
-0.11470798 0.014787029 1.0631999 0.134373948 0.4761689901 0.8690263033
0.28133723 -0.43298739 1.1930001 0.6612606049 -0.1914568543 0.725312829
0.34713632 -0.3544853 1.1246365 0.849119246 -0.006442098878 0.528161943
0.34063849 -0.16475984 1.153 0.7319881916 -0.0902005136 0.6753200293
-0.30215412 0.012564825 1.365 0.4455193579 -0.432936877 0.7836313844
0.07343135 -0.43221772 1.302 0.5298128128 -0.243264854 0.8124780655
-0.054697517 -0.025113449 1.09308 -0.1008331552 0.7376224399 0.6676419377
0.36754638 -0.25421825 1.1067998 0.7047767043 -0.07569953799 0.70537889
0.0049491203 -0.22537686 1.334154 -0.1902735531 0.6717472672 0.7159270644
-0.10562619 -0.074548364 1.1453811 -0.1413659006 0.7551679015 0.6401070952
0.29408187 -0.30455032 1.1938003 0.7311965823 -0.1096627712 0.6732946038
0.20528086 -0.37541291 1.2574446 0.566565454 -0.2254981846 0.7925617695
0.11415713 0.082649723 1.04175 0.6889563799 -0.05795592442 0.722481966
-0.051219251 0.060205083 1.0250001 0.1940534562 0.5023492575 0.8426081538
0.024994895 -0.11715797 1.2244288 -0.02824842371 0.7850214839 0.6188241243
-0.094517618 -0.22448502 1.3042221 -0.1758244485 0.7156117558 0.676007092
0.056011546 -0.19642346 1.3128334 -0.06353422254 0.7285194397 0.682072401
0.31794244 -0.12445775 1.1930001 0.6820448637 -0.1418902129 0.7174134254
-0.037924599 -0.14194636 1.2360001 -0.1168525815 0.675401628 0.7281333208
-0.17758286 -0.46249601 2.2260001 -0.1698237509 0.9460432529 0.2759747207
0.020606926 0.051069338 1.0220001 6.4049098e-05 0.7270353436 0.6866000295
0.40118635 -0.25633997 1.087 0.6438831687 -0.1865528524 0.7420327067
-0.014027838 -0.26661652 1.3720001 -0.3442956209 0.7252119184 0.5962617993
0.20457712 -0.074753702 1.1957695 -0.02567938529 0.7696003318 0.6380093694
0.33120927 -0.4347561 1.1440002 0.7073052526 -0.1079324931 0.6986199617
0.058342166 -0.098651297 1.21 -0.1403152645 0.7568801045 0.6383134723
0.11495829 0.023407439 1.0628752 -0.02359475195 0.8103694916 0.5854439139
0.17468007 -0.40436277 1.2730001 0.4846073985 -0.307594806 0.8188657761
0.071868256 0.22938772 1.123 0.5116919875 -0.4306400716 0.7434517145
0.044293579 -0.072519623 1.1750002 -0.1434721649 0.7456141114 0.6507498622
0.40398562 -0.28593919 1.0634999 0.6217903495 -0.1506642699 0.7685551643
-0.28503415 -0.041054301 1.3380001 0.3831683695 -0.3960115016 0.8344800472
-0.15443352 -0.15544969 1.213158 -0.2317977697 0.6951204538 0.6804978848
0.026000585 0.0025490769 1.08 -0.1055438668 0.7781572938 0.6191378236
0.17364341 0.023918681 1.0630001 0.2906134129 0.8829495311 0.3687058091
0.2578674 -0.33472893 1.2270001 0.655058682 -0.2244262993 0.7214782834
0.14410587 -0.49465784 1.2507143 0.3596922457 -0.4702039659 0.8059340715
-0.33602002 0.18429023 1.4723334 0.7938987017 -0.2753823698 0.5421156287
-0.13525562 -0.09686166 1.1612858 -0.2626521587 0.683770299 0.6807878017
0.075536229 -0.02060079 1.1190001 -0.08850099891 0.7955473661 0.5993930101
0.10184864 0.17596956 1.08 0.5728492141 -0.2955104411 0.7645373344
0.36714011 -0.42510739 1.09324 0.785133779 0.08971556276 0.6127936244
-0.0558124 -0.0012472045 1.067 -0.02205739729 0.691367805 0.7221661806
0.12583207 -0.3850764 1.2970001 0.2778112888 -0.3462798893 0.8960530758
0.25758219 -0.27504539 1.245 0.7466885448 -0.2018309534 0.6338142753
0.38540173 -0.31496072 1.075074 0.6950587034 -0.1326406747 0.7066115737
-0.012417808 0.031593662 1.0416001 -0.09174593538 0.7047153711 0.7035331726
-0.097591408 -0.12067755 1.197 -0.2007853538 0.7123826742 0.6724553108
0.063496716 -0.46522948 1.3034286 0.6003068089 -0.1941162199 0.7758547664
-0.066126086 -0.092945263 1.1765556 -0.1091172844 0.7517563701 0.6503505111
-0.25510979 -0.095161058 1.1547499 0.08593936265 0.5011273623 0.8610957265
0.22631957 -0.39607731 1.2360001 0.5263150334 -0.2400744259 0.8156940341
0.083414003 -0.36516398 1.3248235 0.4764488041 -0.4067294002 0.779466331
0.17535964 0.0028717262 1.0930667 -0.07344699651 0.7727686763 0.6304237843
0.46727061 -0.15389152 1.9150001 -0.05673397705 0.7523178458 0.6563529372
0.02925612 0.40525144 1.2360001 0.457398355 -0.5106651187 0.7280163765
0.27132612 -0.037022069 1.1570001 -0.1815564185 0.7169344425 0.6730841398
-0.19489165 -0.13501398 1.184158 -0.05516991392 0.6996150613 0.7123868465
0.28153625 -0.21451081 1.233143 0.8146719337 -0.05998538062 0.5768114328
0.085148886 -0.47504109 1.278 0.5809586644 -0.1275154054 0.8038823605
0.10504711 -0.12400959 1.243 -0.1379649192 0.7271791101 0.6724405289
-0.04519736 -0.16391692 1.2574615 -0.1470675021 0.6917036176 0.7070482373
-0.00122558 -0.31252289 1.3980001 0.5858542323 -0.02082131058 0.8101489544
-0.23605096 -0.12195399 1.169 0.0002706779924 0.5565395951 0.8308210373
0.42009512 -0.34565565 1.044 0.4768520296 -0.1785183847 0.8606644869
0.21080501 0.022566453 1.0464001 -0.1190602258 0.7085716128 0.6955220699
0.12601517 -0.46494463 1.2671109 0.2632746398 -0.246228531 0.9327690005
-0.25435114 -0.14389528 1.1865237 0.06182360649 0.6399213672 0.7659493685
0.024486244 -0.032220066 1.124154 -0.1564657986 0.7561125755 0.6354621649
0.33424824 -0.2153262 1.1545 0.7890531421 -0.08592450619 0.6082862616
-0.14466359 -0.23672321 1.3045001 -0.8066884279 -0.02217307687 0.5905608535
0.1076985 0.1297905 1.0500001 0.4339849949 -0.4298562706 0.7917579412
0.11178552 -0.41778427 1.2880001 0.2053023726 -0.2584184408 0.9439654946
0.1368956 -0.14768356 1.2729999 -0.008558520116 0.7341338396 0.6789508462
0.37488213 -0.19502924 1.1169999 0.6446031332 -0.1373938769 0.7520702481
-0.17466079 -0.18663281 1.2413334 -0.1947191209 0.6473366022 0.7369123697
-0.054078627 -0.052390542 1.1245002 -0.1178861111 0.7897224426 0.6020309925
0.20263886 -0.099711187 1.223 0.0902980119 0.7058074474 0.7026251554
0.075053185 -0.14017287 1.2590001 -0.07593768835 0.7281963825 0.6811486483
0.038650919 0.3659623 1.2135001 0.4181897342 -0.3957095146 0.8176376224
0.22554281 -0.3455593 1.2544786 0.5480713844 -0.2503791451 0.7980777025
0.25612783 -0.4457694 1.205619 0.5497394204 -0.1617445648 0.8195274472
0.2462447 -0.47554049 1.2050475 0.4656521082 -0.228429243 0.8549784422
0.33274975 -0.096682161 1.1880001 0.6443935633 0.0144171128 0.7645580769
-0.18521659 -0.074689724 1.1325185 0.055414211 0.587112844 0.8076062202
0.25746208 0.019804776 1.189 -0.1777033508 0.8241327405 -0.5377980471
-0.13433976 -0.11894149 1.1827143 -0.3210612237 0.6526746154 0.6862474084
-0.005720655 -0.097095616 1.1948462 -0.1648198813 0.7682330012 0.6185890436
0.1004099 0.22714083 1.1120001 0.3706902862 -0.439267844 0.8183107376
0.20475172 -0.47483903 1.2233074 0.4457045496 -0.3483095765 0.8246380091
-0.22480763 -0.1721217 1.2127777 -0.01278697047 0.7550697923 0.6555197239
-0.10527013 -0.18948624 1.2640001 -0.1628868729 0.6842919588 0.7107829452
0.39701289 -0.39489907 1.0552857 0.6054971218 0.006631668657 0.795819819
0.075266719 0.066098094 1.0024997 -0.0818304047 0.7475625873 0.6591312289
0.071284398 -0.21619038 1.3330001 -0.00422711065 0.6810325384 0.7322409153
-0.2045047 -0.19501723 1.2335557 -0.1358110309 0.4225848615 0.8960900307
-0.11518265 -0.01477044 1.0834091 0.06429297477 0.5583017468 0.8271430135
0.030714016 0.071081012 1.001 0.05219945684 0.702041328 0.7102205157
0.20451757 -0.030927047 1.138 -0.05850873515 0.7695218325 0.6359345913
0.31175992 -0.32479128 1.1736668 0.8005411625 -0.04830078781 0.5973280668
0.17840517 -0.33648568 1.2880001 0.4500240386 -0.2764232457 0.8491575718
0.32176977 -0.26509488 1.164077 0.7789924741 -0.06644235551 0.623503089
0.074680425 -0.0027536682 1.0949334 -0.07961633056 0.7903767824 0.6074255109
0.0056014131 -0.078297347 1.1734446 -0.1204742268 0.7796366215 0.6145345569
0.22571726 -0.42580098 1.2263683 0.4871068597 -0.2415941805 0.839261055
0.24682656 -0.073465899 1.1870002 0.06626792997 0.748144865 0.6602180004
0.053200297 0.028433587 1.04625 -0.06411574036 0.8195179701 0.5694554448
0.035173126 -0.34452501 1.3700001 0.374927789 -0.4205794334 0.8261610866
0.32535908 -0.4055945 1.1477828 0.7277433872 -0.04421146959 0.6844230294
-0.29602346 0.074311823 1.382 0.5842391253 -0.2603918016 0.7686746716
0.15182288 -0.30132785 1.322 0.5667019486 -0.2785941362 0.7753929496
0.065086462 0.26574135 1.146412 0.6567490697 -0.301564306 0.6911870837
0.23362146 -0.28660014 1.2589999 0.4798783362 -0.255141139 0.8394163251
0.1848824 -0.2847549 1.3044999 0.5136496425 -0.3267976046 0.7933267951
0.094767436 -0.054995012 1.1650001 -0.1693398803 0.7605999112 0.6267470121
0.26687449 0.086717412 1.2780001 -0.4637056589 0.6658637524 -0.5844677091
0.034798209 -0.41433242 1.3330001 0.5949474573 -0.1636846215 0.7869211435
0.0035610199 -0.24689738 1.3540001 -0.1810279787 0.7239646316 0.6656606793
0.15441282 -0.052058224 1.1675713 -0.01962758787 0.7614548206 0.6479207277
-0.08456327 0.012080465 1.0600002 0.1845300794 0.55435884 0.8115632534
-0.09584976 -0.03173621 1.097 -0.02368788794 0.7164191604 0.69726789
0.17568479 -0.43501356 1.2568184 0.4107640684 -0.2904703915 0.8642336726
0.15701559 -0.38486624 1.2856923 0.4866008162 -0.3204194605 0.8127428889
-0.31362224 0.04759248 1.3920001 0.5783590674 -0.2583019137 0.7738093734
0.32348117 -0.1550508 1.173889 0.7605617046 -0.2028148919 0.6167755127
0.3587895 -0.37358877 1.1068751 0.826213181 0.01424133684 0.563177526
0.28039393 0.037524842 1.189 -0.2345486283 0.7544000149 -0.6130803823
0.27235752 -0.00099764671 1.138 -0.6386122704 0.1246314719 0.7593690157
0.064014107 0.32466191 1.1756668 0.4406431615 -0.4207076132 0.7929934859
0.096993521 -0.30734092 1.3330001 0.1832064092 -0.3778642416 0.9075538516
0.30682698 -0.16662343 1.1934999 0.8072562814 -0.01773171499 0.5899346471
0.36298829 -0.31516412 1.1030908 0.7843310237 -0.1008636951 0.6120877266
0.15526503 -0.35571778 1.2945002 0.4255269468 -0.2360273898 0.8736234307
-0.11537389 -0.058178406 1.1248 -0.120426856 0.7723896503 0.6236277819
-0.025327979 -0.021343596 1.0950769 -0.2154382169 0.7482131124 0.6275057793
0.29570496 -0.47521317 1.1661669 0.6431905627 -0.1673919857 0.7471852899
0.14516491 -0.094637394 1.2154285 -0.006324174348 0.7191889882 0.6947857141
0.16455016 0.048060797 1.0190001 0.1750587672 0.5730007291 0.8006401062
0.14704476 -0.3280817 1.307 0.5139576793 -0.2971841693 0.8046919107
0.17572345 -0.12115095 1.245 0.06730059534 0.7036720514 0.7073304057
0.12496188 -0.012965627 1.1158125 0.003040722338 0.8149995804 0.5794535279
0.25220802 -0.23323385 1.2648889 0.6816103458 -0.1784054637 0.7096328735
0.12953188 0.08843901 1.0190001 0.4658704102 -0.16739057 0.8688758016
0.28203908 -0.26401061 1.2242001 0.7709079385 -0.153546378 0.6181621552
0.26958814 -0.19318666 1.245 0.8180705905 -0.03179481253 0.5742382407
-0.09521082 -0.24500424 1.3245002 -0.3225110769 0.4972520173 0.8054359555
0.27990389 0.060663581 1.2140001 -0.3081018925 0.7558877468 -0.5776737332
0.062171448 0.35932988 1.202 0.422883749 -0.4021056294 0.8120840192
-0.14901054 -0.224076 1.2780001 -0.7595828772 0.2355383039 0.6062635779
-0.16578731 -0.061802369 1.1190001 0.04415452108 0.6296855807 0.7755942345
-0.21517491 -0.074718021 1.1363337 0.1833020747 0.4464039505 0.8758561015
-0.0356365 -0.11166716 1.2045002 -0.1412355453 0.7580420375 0.6367297769
0.33444336 -0.2942723 1.1456404 0.8124322295 -0.01792320423 0.5827800632
0.13552032 -0.43605772 1.2775832 0.430185616 -0.3174451292 0.845085144
0.0048014359 -0.18530482 1.2943077 -0.1784525961 0.6727868915 0.7179919481
0.29027924 0.086090416 1.2590001 -0.5204145908 0.7331120968 -0.4378530979
0.35032037 -0.1927264 1.1450001 0.7534316182 -0.07529325038 0.6532011628
0.21655683 -0.057097301 1.1735002 -0.05828211829 0.7791053057 0.6241779923
-0.14160481 -0.26272228 1.2840002 -0.5923368931 -0.3021294475 0.7468968034
0.23104462 0.013095647 1.067 -0.2009878606 0.6376745701 0.7436228991
0.054338995 -0.035274491 1.1342354 -0.1333980262 0.7632781863 0.6321482062
-0.094185077 -0.20676173 1.2841111 -0.1741300374 0.7334737182 0.6570350528
0.29511216 -0.37467438 1.1874284 0.7092112899 -0.1288216114 0.6931264997
-0.3003127 -0.011870067 1.3540001 0.3827381432 -0.3735772967 0.8449565172
0.31062141 -0.053339031 1.1930001 0.3118390739 0.410887152 0.8566960692
-0.051803987 -0.24842367 1.3430001 -0.1365083009 0.6619969606 0.7369704843
0.22641845 -0.03942107 1.153 -0.08929111063 0.7748662829 0.6257869601
0.11616885 -0.18863061 1.312 -0.0305407308 0.6434570551 0.7648727298
0.28853729 -0.23510449 1.219 0.82234025 -0.1183326915 0.5565553308
0.21653974 -0.25714427 1.2865001 0.6562348008 -0.295271486 0.6943850517
0.21964094 -0.31014624 1.2590001 0.6042403579 -0.1302411407 0.7860857844
0.00099764671 -0.050879981 1.138 -0.1713099331 0.7358822227 0.6550803185
0.015263937 -0.13410692 1.2436666 -0.08566305041 0.7579623461 0.646649003
0.26053569 -0.37311286 1.223 0.6238929033 -0.1300994903 0.7706048489
0.0349264 -0.21188684 1.3280001 -0.08215979487 0.6977303624 0.7116333842
0.10491262 -0.35486314 1.3135792 0.3102412522 -0.3333365917 0.8903017044
0.2281788 -0.0104148 1.08 0.2728447616 0.89350456 0.3566585183
-0.10451235 -0.14747764 1.225154 -0.2108606249 0.6861740947 0.6962060332
0.35604033 -0.2749097 1.1159667 0.72081846 -0.06094997004 0.6904388666
-0.30674037 0.095812656 1.4120001 0.5944351554 -0.3350466788 0.7310202122
-0.17508475 -0.23362063 1.2582 -0.4698808789 0.3961304128 0.7888552547
0.20258749 0.0046072342 1.0952001 0.1338303685 0.9047265053 0.4044247866
0.084763438 -0.18610232 1.3036667 -0.06081781536 0.6632324457 0.7459383011
0.004767362 0.012739863 1.0637223 -0.1172153577 0.7831394672 0.6106988788
0.0283642 -0.38749522 1.3370001 0.5195479393 -0.2157680988 0.8267490864
0.035519902 -0.46175873 1.307 0.4902947545 -0.2084696442 0.846257329
0.35388198 -0.14489911 1.1451669 0.6996437311 -0.2874770463 0.6541066766
0.3417685 -0.46064448 1.13 0.7362276912 -0.05495071784 0.6744992137
0.1254082 -0.036123049 1.1444002 -0.04108980671 0.7879341841 0.6143869758
-0.031285312 0.010841444 1.0600001 -0.09489081055 0.728120029 0.6788496971
0.054636013 0.0058639436 1.0829999 -0.08534548432 0.7905723453 0.6063922048
0.38421315 -0.36488432 1.0734848 0.773948133 -0.05448015407 0.6309010983
0.098217346 0.15247074 1.067 0.4642634392 -0.4053641856 0.7874892354
-0.035696056 -0.076495893 1.1634002 -0.0936036557 0.8107044697 0.5779243708
0.0060610343 -0.29421708 1.383182 0.6616043448 0.1527215391 0.7341361046
-0.13309659 -0.19676574 1.2651999 -0.2728073001 0.7200549245 0.6380415559
0.28585857 0.18312812 1.3852001 -0.2828694582 0.763953805 -0.5799649954
-0.33108896 0.13595523 1.4360001 0.4489940703 -0.3904407918 0.8037165403
0.32397246 -0.077300079 1.1756667 0.7093005776 0.2620524168 0.6543861628
-0.19487092 -0.11427526 1.1637999 -0.04348747805 0.6590154171 0.7508711815
0.055489495 0.078899123 0.98900002 0.05551777408 0.6711813211 0.7392113805
0.12469357 -0.32905245 1.317 0.3161902726 -0.5014991164 0.8053088188
0.17546397 -0.0258529 1.1340001 0.01585831493 0.8118383884 0.5836668015
-0.054680329 -0.12973176 1.223 -0.1862825006 0.6987214684 0.6907149553
0.28671381 -0.061986465 1.2035 0.1117587462 0.4545347095 0.8836901188
0.055453785 -0.41547263 1.3135791 0.5626874566 -0.1549663991 0.8120149374
0.11514803 0.053525891 1.025 -0.1702406555 0.6271694303 0.760050416
0.25923645 0.06131319 1.2270001 -0.3691172004 0.7818410993 -0.5024709105
0.30595148 -0.28470999 1.1854441 0.8131472468 -0.08059728146 0.5764508843
0.041406721 -0.48537874 1.3120002 0.5388473868 -0.1301196814 0.8322934508
-0.064442508 0.037417632 1.0374286 0.2047642022 0.5601300001 0.8026992083
-0.26580182 -0.035978399 1.324 0.3790431023 -0.395085901 0.8367995024
-0.054797221 -0.18542266 1.2756667 -0.2189656198 0.6523733139 0.7255777717
-0.0043707089 -0.20634349 1.3120002 -0.2562289238 0.670627296 0.6961362958
0.28226691 -0.4047491 1.193 0.705619216 -0.09372325987 0.7023656368
0.10755964 0.10537568 1.0380001 0.5696676373 -0.1861244887 0.8005226254
0.24257398 -0.2133301 1.2830001 0.6052024364 -0.09782265872 0.7900384068
0.14483362 -0.06671045 1.1847777 -0.02227604948 0.7767938375 0.6293609142
0.30561733 -0.19537276 1.193889 0.8361546397 -0.04338674247 0.5467751026
-0.18651433 -0.14857922 1.202 -0.09471998364 0.7330771685 0.6735176444
0.19141841 -0.31147966 1.2920001 0.492305249 -0.2616393566 0.8301689029
0.14455709 -0.12676512 1.253 -0.01437500585 0.7344192266 0.6785438657
0.25507057 -0.02755308 1.1409999 -0.2825097442 0.553868413 0.7832100391
0.35626283 -0.23560111 1.1190002 0.7242078781 -0.1802977026 0.6655942202
0.34212393 -0.23522282 1.1440591 0.8194301724 -0.1108409092 0.5623597503
0.12533528 -0.16211319 1.2880001 -0.06493522972 0.6352302432 0.7695881724
0.29421809 0.24517764 1.4850001 -0.9961370826 0.006633684039 0.08756068349
0.080984712 -0.45362765 1.2920001 0.6181616187 -0.2713166475 0.737742126
0.045086268 -0.15780193 1.2729999 -0.1086467206 0.6832631826 0.7220438719
0.3479678 -0.43489969 1.1173126 0.8043208122 -0.013820922 0.5940345526
0.084926784 -0.15532953 1.2746665 -0.01101736631 0.6948306561 0.7190889716
0.27634916 -0.32526097 1.2153333 0.7218637466 -0.1060983837 0.6838536859
0.045306131 -0.17669393 1.2919999 -0.09490738809 0.6903508902 0.7172225714
-0.084930696 -0.13445257 1.2154707 -0.1953413337 0.6731849313 0.7132067084
0.34246835 -0.32510346 1.1334784 0.8682276011 -0.02663551085 0.4954507053
0.074790187 -0.32720706 1.3330001 0.2669034004 -0.2450077981 0.9320588708
-0.0166742 -0.17007683 1.268 -0.2709379196 0.7029038072 0.657661736
0.17516589 -0.24891151 1.3145 0.4550764859 -0.2523538768 0.8539454937
0.20723085 -0.43694556 1.2360001 0.5637077689 -0.3190760314 0.7618556619
0.15486617 0.033469144 1.0526363 0.2172991633 0.8508731127 0.4783262908
0.16511753 -0.47429553 1.2515001 0.4605851471 -0.3397879004 0.8200033903
0.074873284 -0.385896 1.3139999 0.4282638431 -0.3594817221 0.8290735483
0.085969068 -0.038478278 1.1421429 -0.1196964979 0.7711203694 0.6253368258
0.11501899 -0.06654726 1.1831051 -0.06293589622 0.7444829941 0.6646684408
0.25544506 -0.25553203 1.2576542 0.679527998 -0.228208825 0.6972534657
-0.036146719 -0.20289122 1.2953333 -0.2226866335 0.6408811212 0.7346305847
0.28863198 -0.2854602 1.2060001 0.7700555921 -0.1857245266 0.6103448272
-0.086215772 -0.080129966 1.1570001 -0.133997336 0.7933256626 0.593867898
-0.13617612 -0.16233791 1.2263335 -0.2922279835 0.686935544 0.6653738618
0.04465976 0.01724113 1.0647894 -0.09427811205 0.8165958524 0.5694583654
0.18477409 -0.083415061 1.2043999 0.007850593887 0.7617163062 0.6478631496
-0.27997664 0.01548807 1.3590001 0.3917749822 -0.4387859702 0.8086898327
0.2251543 -0.10507201 1.223 0.05977316201 0.6747967601 0.7355790138
-0.21694364 -0.1320751 1.177 -0.08344741911 0.6361756325 0.7670183182
0.046265315 -0.36662826 1.3361251 0.4978711307 -0.353012383 0.79215312
0.26146585 -0.49155575 1.1930001 0.5961875916 -0.2597022653 0.7596809268
0.30422729 -0.23490135 1.1946002 0.8253117204 -0.04844714701 0.5625953078
0.28333399 0.07452368 1.2320001 -0.3605251014 0.8283475041 -0.4287914038
-0.016077384 -0.28385365 1.3870001 0.8902342916 0.4521864057 -0.05486696213
-0.14507264 -0.13553432 1.1943333 -0.2578328252 0.7118032575 0.6533440351
0.0053126002 -0.10752878 1.2120001 -0.1442367435 0.782581389 0.6056089401
0.30847183 -0.37713498 1.169 0.763453722 -0.1299032867 0.632663846
0.2884452 -0.4557904 1.177 0.6639376879 -0.1724065989 0.7276418805
-0.026183529 0.075008854 1.0100001 0.1934790909 0.4873350263 0.851510644
0.31133762 -0.25529587 1.1838 0.843642354 -0.04586681724 0.5349427462
-0.16457751 -0.17198768 1.2270001 -0.171248123 0.7067613006 0.6864128113
0.20289823 -0.35427955 1.2657143 0.5820329785 -0.2818910182 0.7627418041
0.075086273 0.034486089 1.0445002 -0.1085009873 0.8018841743 0.5875451565
0.29329059 0.15492368 1.3490001 -0.2083515078 0.8059384823 -0.5541235209
0.26346228 -0.061566252 1.177 -0.2630721033 0.7695652843 0.5818610787
0.22188872 -0.0087973503 1.115 0.03711642697 0.8392704129 0.5424458981
0.29856077 -0.33519211 1.189 0.7366491556 -0.1010348722 0.6686852574
0.27949536 0.12767072 1.312 -0.3905960917 0.77189821 -0.5016052723
-0.20100038 -0.47030187 2.2260001 -0.04793578014 0.9373195171 0.3451583087
-0.074558549 -0.036317714 1.1032271 -0.0575504452 0.7496692538 0.6593056321
0.1580714 -0.42619258 1.268 0.4428998828 -0.3329488635 0.8324570656
0.3003723 0.22879422 1.4580001 -0.9961370826 0.006633684039 0.08756068349
-0.036393832 0.041591592 1.0313751 0.1113644466 0.5770374537 0.8090894818
-0.14487883 -0.025260493 1.0928929 0.184828952 0.4552796781 0.8709527254
-0.085095175 -0.10352071 1.1847333 -0.1316519082 0.722312808 0.6789197326
0.19453155 -0.49494398 1.2238419 0.4971114695 -0.3207910657 0.8062092066
0.31311524 -0.21463303 1.1847647 0.8197603226 -0.05532607064 0.5700281262
0.14256881 -0.28396901 1.3330001 0.5275217295 -0.2368978858 0.8158432245
0.0047574947 -0.0028558294 1.0851998 -0.1460721195 0.7649140358 0.6273511648
-0.24130951 -0.16122426 1.202 -0.05342473462 0.6749919057 0.7358883619
-0.016074209 -0.08449699 1.1754001 -0.137732029 0.7893262506 0.5983259678
-0.14453863 -0.045708563 1.1052915 0.01046627946 0.6321046948 0.7748123407
0.014587033 -0.15512678 1.2669332 -0.1227451116 0.7042154074 0.6992955804
0.13598579 -0.0018162584 1.0966668 0.007175646257 0.8268940449 0.5623119473
0.034861524 0.037890702 1.0373334 -0.01253052615 0.7704567909 0.6373690367
0.24582872 -0.39537352 1.2249258 0.5978272557 -0.1881318092 0.7792361379
0.095577709 0.011566388 1.0816 -0.06387546659 0.8161361217 0.5743185282
0.36219501 -0.40466431 1.101 0.8087867498 -0.01148177218 0.5879899263
0.31246763 -0.42442667 1.161 0.7042588592 -0.1346601844 0.6970553398
0.35313132 -0.33488092 1.1155832 0.8443331122 -0.03965579718 0.5343492031
0.14316434 0.053498879 1.0228002 0.2554352582 0.5430688858 0.7998931408
-0.16486469 -0.015249265 1.094 0.2526007295 0.3875631094 0.8865594864
0.17486784 -0.03942107 1.153 0.05715756491 0.798052907 0.5998704433
-0.035328962 -0.2331225 1.3256 -0.1627897471 0.7203154564 0.6742737889
0.24385467 -0.34509897 1.2417998 0.6611077189 -0.231128186 0.7138041854
0.33398083 -0.19436371 1.1620526 0.7371851802 -0.06145519391 0.6728901863
0.33112752 -0.24461366 1.1610001 0.7723057866 -0.1065605208 0.626249671
0.25815818 -0.30529302 1.2360001 0.7276661396 -0.1693624705 0.66469419
-0.15449211 -0.11247436 1.169 -0.1557003558 0.6590023041 0.7358487248
0.10494938 -0.4753128 1.2679999 0.15797171 -0.1607183963 0.9742764235
0.10178889 -0.082900226 1.197 -0.1621945351 0.7209239602 0.6737667322
-0.075330697 -0.062130645 1.1347274 -0.09422115237 0.7912636399 0.604172349
0.18551686 -0.47442812 1.2360001 0.5096552372 -0.3293205798 0.7948581576
-0.12236806 -0.17789029 1.25 -0.2618736029 0.672636807 0.6920852065
0.18558304 -0.38628414 1.2664616 0.5377932787 -0.2955012321 0.7895932198
0.17507185 -0.057360534 1.1740911 0.04290470108 0.7672666311 0.6398914456
0.0054882038 0.066612504 1.004923 0.1405696422 0.6335368752 0.760835886
