# .PCD v0.7 - Point Cloud Data file format
VERSION 0.7
FIELDS x y z normal_x normal_y normal_z
SIZE 4 4 4 4 4 4
TYPE F F F F F F
COUNT 1 1 1 1 1 1
WIDTH 512
HEIGHT 1
VIEWPOINT 0 0 0 1 0 0 0
POINTS 512
DATA ascii
-0.29348636 0.3232682 1.853 -0.4738682508 0.1187133715 -0.8725571632
-0.24851747 -0.30606887 2.9840002 0.1438800097 -0.9830954075 0.1132340729
0.47334498 -0.49580166 1.601 0.08234053105 -0.0121625429 -0.996530056
0.49583656 0.045307007 2.4150002 0.90757972 0.005434412044 -0.419844687
-0.18568327 -0.33664525 1.7220001 0.4417708516 -0.636245966 -0.6324788928
-0.48824021 -0.010660267 2.4320002 -0.8841547966 -0.1419057399 -0.4451214075
0.47782102 0.39900517 1.8730001 0.0326772444 0.7338839769 -0.6784883738
0.18317805 0.051686805 1.4150001 -0.4376852214 0.1098336354 -0.8923946619
0.19331114 -0.092594407 1.853 -0.3974614441 0.1216925904 -0.9095137715
-0.20383786 0.045703549 1.5640001 -0.287628442 -0.6077151895 -0.7402378917
0.014260444 0.49564862 1.6826668 -0.6402993202 0.1380892694 0.755611062
0.17406216 0.29498956 2.0900002 -0.06456784904 0.9862911105 -0.1518579423
0.13560736 -0.49471086 1.7342001 -0.2043862194 -0.1368511915 -0.9692770839
-0.49727601 -0.17707877 2.7670002 -0.8889697194 -0.2061844617 -0.4089263976
-0.086128116 -0.23729175 2.0050001 -0.4604732394 -0.7382791638 -0.4928572774
0.3932139 -0.19588502 1.647 -0.3954641223 -0.09428741038 -0.913629055
-0.15767726 0.26341379 2.1160002 0.01904316619 -0.993501842 0.1122117192
-0.017772663 0.26658994 1.8430001 0.5370453596 0.7393993139 0.4060429633
-0.074734084 -0.077848002 1.7760001 0.1251276284 -0.839281559 -0.5291026235
0.49224922 0.24889004 2.1030002 -0.144357115 -0.8908831477 -0.430683434
0.30528358 0.05277586 1.6630001 0.5806699991 0.03083437681 -0.813554883
0.24073881 0.29890388 1.8430001 0.3871761262 -0.8306509852 -0.4001419842
-0.011716649 0.19397914 1.485 -0.1720986217 0.446067363 -0.8782972097
0.32633039 0.19382048 2.256 -0.1763247699 -0.918717742 -0.3533656597
0.079169139 -0.29890388 1.8430001 -0.5079379678 0.07816917449 -0.8578395247
-0.31249133 -0.083029099 1.7220001 -0.4278053045 -0.7551266551 -0.4967558682
0.074599952 0.041872229 1.647 -0.1303461343 -0.870475173 -0.4746397138
0.29483825 -0.38320309 1.6470001 0.06791807711 -0.3322245479 -0.940751791
0.3133505 -0.10358693 1.4770001 0.1670285016 -0.7486563325 -0.6415724158
-0.33443078 0.30581641 2.0400002 -0.3170227408 -0.9439817071 -0.09162501246
0.23445924 -0.24058889 1.748 -0.6982831955 0.7112340927 -0.08091150224
0.011493976 -0.46796906 1.8730001 -0.7789292336 -0.2848503292 -0.5586855412
0.01944096 0.34110048 2.016 -0.5949748755 0.5467140675 0.5891592503
0.028375946 -0.13854139 1.904 0.1524622291 -0.739497602 -0.6556665301
-0.25625113 -0.22709961 1.6090001 0.008079960942 0.2755475938 -0.9612534642
0.0081661502 0.43280596 1.863 -0.9693889022 -0.07454648614 0.2339400202
-0.36843932 -0.22808149 2.8590002 -0.9006638527 -0.1277582347 -0.415310055
0.37237644 -0.48577502 1.748 0.3223559856 -0.4398455322 -0.8382257819
0.44856754 -0.3353776 1.5940001 -0.8051291704 -0.009476240724 -0.5930238366
-0.16168977 -0.1747556 1.863 0.1082301363 -0.8452509642 -0.5232944489
-0.076896816 0.017410601 1.6550001 0.09060509503 -0.7113636732 -0.6969593763
0.0074735833 0.34527954 1.705 0.1545168012 0.7413824201 0.6530518532
-0.16584167 0.2446575 1.8730001 0.1469891816 0.2286860198 -0.962339282
-0.056453828 -0.33374172 1.8940001 -0.8595744371 -0.02570201829 -0.5103637576
0.07239864 -0.052158162 1.7760001 0.0547477603 -0.7789748311 -0.6246606112
0.30982977 -0.02673658 1.794 -0.8553341031 -0.3907572627 -0.340165168
0.29512808 0.34313083 2.0280001 0.2687381208 -0.9290264249 -0.2543418109
0.13015869 0.1739745 1.47 0.6344517469 0.1469476968 -0.7588658333
0.15230396 -0.35436597 1.733 -0.4689317942 0.4070399106 -0.7838504314
0.37529624 -0.0649371 1.6800002 -0.5156987309 -0.2661105394 0.8143954873
-0.072714239 0.082140163 1.536 0.09232229739 -0.8118570447 -0.5765108466
-0.49185294 -0.095573321 2.6590002 -0.891307056 -0.1896031201 -0.4118523896
0.16658683 0.3280215 1.9590001 -0.1577422768 0.9475214481 -0.2780655921
-0.18694974 -0.052780006 1.6880001 0.5179830194 -0.5088957548 -0.6875454187
0.11471447 0.26335856 1.8430001 -0.2382327914 0.3059244156 -0.9217675328
0.17662553 0.00150962 1.7220001 0.009053767659 -0.8050592542 -0.5931252837
0.15236269 0.081620522 1.5517501 0.0338299796 -0.897313714 -0.4400950372
-0.30359879 0.012876479 1.6320002 -0.6912001371 -0.2006101757 -0.6942607164
0.20141153 -0.07130719 1.427 -0.1947454065 -0.8310752511 -0.5209493041
0.27927971 -0.1283177 1.7220001 -0.8697814345 -0.06841391325 -0.4886714518
0.13668811 -0.19549578 1.8130001 -0.6073524952 0.2088042051 -0.7665009499
0.25437096 -0.4672274 1.7220001 0.2256126851 -0.7260425687 -0.6495853066
0.2931056 -0.26422819 1.6470002 -0.4371406138 0.170221433 -0.883138001
0.054804992 -0.40574378 1.7760003 -0.6475300789 0.2440155894 -0.721914947
0.31197935 0.3858692 1.8730001 0.02058178745 0.9725152254 -0.2319279015
-0.052638572 0.43813872 1.766 -0.9384767413 -0.06989414245 0.3381955922
-0.21210249 -0.13159643 1.766 0.2802309096 -0.759662509 -0.5868420005
0.03905024 0.100992 1.536 0.07250375301 -0.9248998761 -0.3732337952
0.39829969 -0.42342013 1.6372501 -0.8521639109 0.01763029769 -0.522977829
-0.15826552 0.14473854 1.5430001 -0.4095377326 0.3691231608 -0.834282279
-0.014113456 -0.23660795 1.8940001 -0.1419571638 0.7284936905 -0.6701829433
0.0045051896 -0.00750865 1.7129999 0.02727266401 -0.906845212 -0.4205804765
0.33317891 -0.15219285 1.5640001 -0.162838906 -0.9133643508 -0.3731608689
-0.065520018 -0.14566022 1.853 0.443164289 -0.627725482 -0.6399735808
-0.43935028 -0.17621 2.6800001 -0.9021821022 -0.1240948141 -0.4131197631
0.38484681 -0.29416662 1.655 0.317150116 0.4087090492 -0.8557877541
0.17440017 -0.28421304 1.8129998 -0.1707129329 0.4923665524 -0.8534824252
-0.17285937 -0.25635925 1.6710001 0.7628263831 0.1327642947 -0.6328266263
0.09909226 -0.10234119 1.853 0.02390636317 -0.7658512592 -0.6425731778
0.22494967 -0.31581944 1.6834286 -0.6043334007 0.2145709693 -0.7672942281
0.2261987 0.045806423 1.6160001 0.2034907639 -0.6604813933 -0.7227418423
-0.045412213 0.42628875 1.6710002 0.6884712577 0.4253139496 0.587465167
0.21438444 -0.15492015 1.7850001 -0.5823736787 0.3289933801 -0.7433735728
0.0043378719 -0.094291635 1.8230001 0.243880555 -0.787430048 -0.5661062002
0.013691905 -0.37478688 1.8529999 -0.3517059386 0.06883946061 -0.9335759282
-0.0065825973 0.056892455 1.6090001 0.1656838953 -0.7929882407 -0.5862751007
0.058191381 -0.49384034 1.794 -0.8926706314 -0.2945187092 -0.3411712646
-0.27393818 -0.28712237 1.6710001 -0.5257700086 -0.6103448868 -0.5924904943
-0.099619143 -0.20092674 1.9260001 0.1697581559 -0.9408054352 -0.2933722436
0.20490786 -0.40538961 1.684 -0.5624083877 -0.1669481993 -0.809830308
0.065655842 -0.21460643 1.8630002 -0.7154085636 0.2526188791 -0.6514401436
-0.090591751 0.15324888 1.4890001 -0.5640395284 0.1923449636 -0.8030335307
0.4699389 -0.41619223 1.572 -0.5360112786 0.214013651 -0.8166334033
-0.15803143 0.0085422397 1.6240001 0.2864058912 -0.8673350215 -0.4070646763
0.33413491 -0.41673008 1.7130001 0.1365661621 -0.61097157 -0.7797842026
0.28382698 -0.01051211 1.7130001 0.5329822898 -0.7486764789 -0.3942251205
-0.025080731 0.29632419 1.766 -0.3421961665 0.7912304997 0.5068097115
0.36738995 -0.49568486 1.6630001 -0.8496096134 0.3566562235 -0.3885354698
0.31646866 -0.19681516 1.688 -0.5183783174 0.533711195 -0.6681588292
0.15255578 -0.05190042 1.794 0.2306101024 -0.8502988219 -0.4730865359
0.053904485 0.14502871 1.4640001 -0.08688370883 -0.5284522176 -0.8445054889
0.093858123 -0.002252595 1.7130001 0.04466907308 -0.7647072077 -0.6428278089
-0.10490656 -0.035826985 1.7130002 0.1101285219 -0.792783618 -0.599471271
-0.084188931 0.24266221 1.883 -0.1393883228 -0.5081229806 -0.8499305248
0.22075167 -0.0084440531 1.376 0.153838709 -0.2943734229 -0.9432274103
-0.24529396 0.25828966 1.853 0.06723301858 -0.3596827984 -0.9306492209
-0.26621193 -0.051609538 1.6630001 0.1038080156 -0.7736276388 -0.6250793934
-0.13126506 -0.12810203 1.8040001 0.4580018818 -0.5879024267 -0.6667870879
0.15391654 0.037829392 1.6470001 -0.03303235397 -0.9226423502 -0.3842394352
0.01519614 0.39003426 1.9260001 -0.9769838452 0.208875373 -0.04328494146
0.27346933 -0.047788329 1.427 0.3891172111 -0.5012619495 -0.7728675604
0.0068152067 0.47549173 1.794 -0.2625249624 0.9409172535 0.2139050215
-0.024785995 0.1147916 1.4880003 0.01116036903 -0.6463630199 -0.7629483938
0.276555 0.35761425 1.8130001 -0.3048544228 0.231778726 -0.9237653613
-0.15477376 -0.084282734 1.748 0.5256937146 -0.5542111397 -0.645365119
-0.15298271 0.30056605 2.0530002 0.02048327401 -0.9940778017 0.1067226157
0.13665743 -0.42498961 1.7130002 -0.5165002942 0.02552132681 -0.8559066057
0.38309896 0.15127496 2.2410002 -0.1855396628 -0.9146488905 -0.3591551185
0.1032801 -0.34270215 1.7850001 -0.5986713767 0.7544574738 -0.2690474391
-0.10706028 0.043102194 1.5860001 0.1544731557 -0.8875815272 -0.4339781702
0.00492599 -0.30267474 1.8730001 -0.01400626358 0.230785206 -0.9729039073
0.11541141 0.10797962 1.4960002 0.1336355954 -0.8199716806 -0.5565860271
-0.23517109 -0.0014166933 1.6160001 -0.02824055962 -0.6968094707 -0.7167001367
-0.26690468 0.061951697 1.5940002 -0.4992476106 -0.07745341212 -0.8629906178
0.46361113 -0.32365304 1.6630001 0.6001235843 0.5784702301 -0.5524706841
0.34425649 -0.34283981 1.6160001 -0.1738655567 -0.3205075264 -0.9311528802
0.084813997 0.076471634 1.5860001 -0.1446235627 -0.9263088703 -0.3479022086
-0.14579572 0.075774603 1.5360001 -0.01354429498 -0.6453602314 -0.7637583017
0.25194085 -0.095455848 1.7850001 -0.6203112602 0.4542285502 -0.6394453645
0.23715149 0.31318477 2.0650001 0.4920493364 -0.8688482642 -0.05468262732
0.17475562 0.31194693 1.863 -0.2023522407 0.1685077846 -0.9647065401
-0.0077409665 -0.051090378 1.766 0.5098489523 -0.6023551822 -0.6141842604
-0.24440655 -0.09498442 1.7130002 0.09960570186 -0.7939016223 -0.5998324156
0.33094254 -0.010205276 1.6630001 -0.813054204 -0.5297220349 0.2415313423
-0.069226861 -0.2617113 1.9260001 -0.654990077 0.4836071134 -0.5806136131
0.18422286 -0.29445273 1.7343335 -0.7498571277 0.4272372723 -0.5051559806
0.091322362 -0.16105944 1.8940001 -0.627061069 0.3649182022 -0.6882071495
0.40671054 -0.49698612 1.6090001 -0.5822111964 0.1196108535 -0.8041911125
0.2474304 -0.1043847 1.4700001 -0.1341936439 -0.8140758872 -0.5650420189
0.31686503 -0.49507031 1.7129999 0.05571328476 0.4867123067 -0.8717839122
0.063146301 0.21005809 1.47 -0.0396986492 0.5385347009 -0.8416676521
0.16370171 -0.020924279 1.404 -0.9212579131 -0.1376093328 -0.3637960255
-0.0033944531 -0.18499772 1.936 0.2034499496 -0.1944437921 -0.9595831037
0.25748754 -0.22937107 1.6880001 -0.6825107336 0.6165785193 -0.3924411237
0.19254829 -0.22535117 1.7939999 -0.7008479834 -0.1567621976 -0.6958718896
0.08734756 -0.45512676 1.748 -0.5850861669 -0.05424897 -0.8091546297
-0.22390768 -0.27684432 1.6320001 0.04505981505 -0.6014985442 -0.7976021171
0.34417582 -0.27787966 1.6090001 0.1455091387 0.2956594229 -0.9441465139
0.40458629 -0.35452765 1.6352309 -0.4809993207 -0.082322523 -0.8728474379
0.19732733 -0.49226707 1.7130001 -0.1576584131 -0.4496161044 -0.8791980147
0.35524082 -0.38634261 1.6630001 0.01494421344 -0.8355030417 -0.5492826104
0.27593872 -0.19513901 1.7390002 -0.5455145836 -0.08638044447 -0.8336379528
0.1558722 -0.13787459 1.8329999 -0.388330549 0.7726721764 -0.5021723509
0.27433529 -0.3248708 1.647 -0.4092189372 0.1124001741 -0.9054866433
0.072706349 -0.36030036 1.8430001 -0.6612189412 0.4711694121 -0.5837712884
-0.33540213 0.34204376 1.8940001 -0.5293017626 -0.5185175538 -0.6715498567
-0.015234276 0.01704788 1.655 0.2164239883 -0.8172533512 -0.5340951085
0.25688139 0.012537912 1.6630001 0.3465364575 -0.7424679399 -0.5732833743
0.38508812 -0.44604802 1.6960001 -0.9766272306 -0.1812637448 -0.1155107915
-0.040357351 0.47980404 1.705 0.7166867852 -0.4446497262 0.5372584462
0.11550362 -0.25439855 1.8230001 -0.4946118593 0.2251219898 -0.8394517303
0.033745531 -0.42744339 1.8330001 -0.8898627758 0.03995416313 -0.4544754326
-0.014947167 0.080171168 1.5500001 0.2896952033 -0.8600147367 -0.4200611115
0.35310259 -0.24463506 1.6630001 0.5548614264 0.3021758199 -0.7751248479
-0.20720243 0.1045567 1.557 -0.5456643701 0.2887104452 -0.7866998911
0.17031266 0.089706667 1.483 -0.9057451487 -0.4107503593 -0.1044503972
0.33121064 -0.044382825 1.7220001 -0.9206798673 -0.08946826309 -0.3799263239
-0.049804311 -0.21295635 1.9590001 -0.7080736756 0.0534068644 -0.7041159868
0.26447278 -0.42732239 1.6800002 0.02932314016 -0.6395157576 -0.7682185173
-0.015957378 -0.41544211 1.883 -0.7690916061 -0.4306680858 -0.4722532034
0.42133212 -0.24930033 1.6630001 0.05193930864 0.06824347377 -0.9963157773
-0.32081529 -0.035157841 1.6710001 -0.5630550981 -0.5158207417 -0.6456763148
-0.04830784 -0.031702019 1.7220001 0.23097758 -0.7917360663 -0.5655116439
0.10267169 -0.3922978 1.748 -0.6492969394 0.29266119 -0.7019707561
0.00146491 0.39406076 1.6710001 0.3211955726 0.7229532003 0.6116960645
-0.10508779 -0.18226163 1.8730001 0.2333175242 -0.8199137449 -0.5227851868
0.39698273 -0.11448565 1.6960001 -0.1285457015 -0.1397556812 0.9818066955
-0.139916 -0.0073639997 1.6800001 0.05651321635 -0.7675105333 -0.6385403872
-0.4750455 -0.20290889 2.723 -0.9021821022 -0.1240948141 -0.4131197631
-0.037082415 -0.17212881 1.8940001 0.3361658156 -0.7573854327 -0.5597855449
0.14652461 0.023224361 1.4450001 -0.3581005037 0.1396932304 -0.9231737852
0.18229757 0.12197852 1.529 0.5328300595 -0.7320795059 -0.4244428575
0.12412548 -0.032180678 1.748 -0.007283773739 -0.8144148588 -0.5802373886
0.29774141 -0.12951085 1.5230001 -0.1375606656 -0.9025085568 -0.4081119299
0.014233561 0.29574174 1.804 -0.08117406815 0.8017143607 0.5921696424
0.34260571 -0.15599494 1.6630001 -0.6506869793 -0.09627020359 -0.7532187104
-0.036528945 0.27064627 1.8940001 -0.4390786886 0.8978696465 -0.03224914148
0.04580408 0.014772418 1.6853334 0.1514180303 -0.8429367542 -0.5162656903
0.43868312 -0.38790309 1.6090001 -0.4911423922 0.3921960294 -0.7777926326
-0.014699069 -0.12902518 1.863 0.3799628913 -0.7614580393 -0.5251760483
-0.21159226 -0.31468827 1.6799999 0.4850491583 -0.6448517442 -0.5906721354
0.042144582 -0.26217213 1.8730001 -0.3568137288 0.5305214524 -0.7689154744
-0.17771962 -0.16199222 1.794 0.3569790721 -0.6646162868 -0.6563925147
0.43509841 -0.44492328 1.601 -0.350536108 0.1243770793 -0.9282535911
0.24244259 -0.3647626 1.6710001 -0.5653722286 0.06297314912 -0.8224285245
0.14479728 -0.30879709 1.7760001 -0.595566988 0.7863026261 -0.1644022912
-0.49727601 -0.23044498 2.7670002 -0.9021821022 -0.1240948141 -0.4131197631
0.056574982 -0.083424129 1.8230002 0.1716682166 -0.8384202719 -0.517282784
-0.055615731 0.056310929 1.5860001 0.2898769379 -0.8790103793 -0.3785659373
0.14316142 0.061755903 1.6010001 -0.2554065883 -0.9197591543 -0.2980110347
0.21972334 -0.26755428 1.705 -0.6700797081 0.3764763474 -0.6397333741
-0.046728261 -0.10331078 1.8130001 0.2021841109 -0.7728456259 -0.6015241146
0.2295052 -0.49751797 1.7570001 0.2558965683 -0.7925800681 -0.5534742475
-0.12355793 0.11482686 1.5089999 -0.349873513 -0.0790246278 -0.933457911
0.043649234 -0.19306391 1.9150001 -0.7050481439 0.3936944604 -0.5898404121
-0.15834002 -0.30336174 1.6880001 0.4447598457 -0.652929008 -0.6130843163
0.28236556 0.34066039 2.0780001 0.2687381208 -0.9290264249 -0.2543418109
0.1957655 -0.35634279 1.6960001 -0.4435536861 0.3421121538 -0.8283836246
-0.033631124 0.37592119 1.705 -0.0007006807718 0.5650150776 0.8250802755
-0.044983298 -0.28516936 1.8830003 -0.6446903348 0.2683922648 -0.7157792449
-0.026817232 0.3440268 1.748 -0.03267263994 0.7025475502 0.7108863592
0.035245508 -0.027889922 1.7479999 0.03765027225 -0.8312206864 -0.5546662807
0.10490018 -0.071522847 1.8130001 0.1200398877 -0.887806952 -0.4442851245
0.046855204 -0.49440318 1.8430001 -0.8707383871 -0.1803266704 -0.4574898481
-0.13658905 0.23621871 1.8330001 0.317304641 0.6382828951 -0.7013648748
-0.15607429 0.035907827 1.5755 0.191571027 -0.8682017326 -0.4577404261
0.034759831 0.074617781 1.5860001 0.1262988299 -0.8568549156 -0.4998482168
-0.054843388 0.18304011 1.5074999 -0.3703412414 0.6156513691 -0.695572257
-0.2138602 -0.026986429 1.6550001 0.33556512 -0.7537038326 -0.5650898814
-0.075017415 -0.31466582 1.9360001 -0.7828354239 -0.2099048346 -0.5857548118
0.11208797 -0.18031543 1.853 -0.5724653602 0.3389662504 -0.7465823889
0.087526396 0.092912637 1.536 -0.1311531663 -0.9215956926 -0.3653221428
-0.1962506 -0.092086822 1.7220001 0.2116889656 -0.6874091029 -0.6947348714
0.045730442 -0.10942641 1.863 0.1447159201 -0.8799062371 -0.4525730312
0.14379703 -0.085631914 1.8430002 -0.1212826818 -0.7518604994 -0.6480712295
0.18598546 -0.4449985 1.705 -0.2884897888 -0.1372762769 -0.9475910664
0.32104057 -0.0045972401 1.748 -0.3812763393 -0.7285856605 -0.5690265894
-0.032664601 -0.36421031 1.863 -0.5210988522 -0.08092932403 -0.8496508002
0.23434019 -0.1949316 1.766 -0.6111215949 0.1730900407 -0.7723795772
0.23449431 -0.051065832 1.3980001 0.1994336098 -0.6285955906 -0.7517272234
0.20296673 -0.055935718 1.8230001 -0.202197507 -0.7183514833 -0.6656479836
0.0043815798 0.1512934 1.47 -0.1381655782 -0.3713481128 -0.9181562066
0.21297915 -0.11602595 1.8130001 -0.6508917212 0.4561884701 -0.6068212986
0.26577291 0.37802479 1.8830001 -0.1688968688 0.968837738 -0.1811828911
0.18423501 -0.029415673 1.766 0.04627870396 -0.9131467938 -0.4049953222
0.25342944 -0.27540305 1.6710001 -0.6253345013 0.1641490459 -0.7628970146
0.1304103 -0.12215649 1.8830001 -0.6131919026 0.07779052854 -0.7860943079
0.49228427 -0.45278868 1.6090001 0.2983437777 -0.1725394428 -0.9387338161
-0.29294488 0.27561727 1.853 -0.05492147803 -0.02269340493 -0.9982327819
0.117824 0.022092 1.6800001 0.04230220616 -0.8924056888 -0.4492467344
0.29508996 -0.4437612 1.7130001 0.251441747 -0.6688925624 -0.699542582
0.024426563 0.037358273 1.6390001 0.1567603648 -0.8504880071 -0.5020919442
-0.016036861 0.46506903 1.6630001 -0.1883802116 -0.1331543773 0.9730276465
0.18257372 0.26982135 1.8430001 -0.2721719742 -0.04176537693 -0.9613417983
-0.074755117 0.10698038 1.4960002 -0.1585643739 -0.66599226 -0.7289112806
-0.13283253 0.27064627 1.8940001 0.01560747158 0.4494451284 -0.8931716084
0.11642331 -0.3071509 1.813 -0.5601812005 0.2310017943 -0.795509398
0.065312371 0.11305072 1.4960001 -0.1974435598 -0.8703399301 -0.4511368275
-0.045161266 0.15482862 1.4717501 -0.4590974152 0.03907537088 -0.8875261545
-0.10637876 -0.15522943 1.8329999 0.3661691546 -0.6025549173 -0.7091175914
0.092475183 0.16341504 1.4450001 0.1240188479 -0.322622031 -0.9383679032
0.42674646 -0.30892417 1.6390001 0.0008068385068 0.3093988299 -0.9509320259
0.19773392 -0.26935408 1.7760001 -0.8056330681 0.5881502032 -0.07095558196
0.25415009 -0.14478852 1.7570001 -0.5865445733 0.3219389617 -0.7431828976
0.17744505 -0.17491464 1.8040001 -0.7431771755 0.1353440285 -0.6552630663
0.30894434 -0.30324951 1.6240001 -0.6633319259 -0.09785377234 -0.741899848
-0.11988592 -0.0934176 1.7760001 0.4203598201 -0.7101003528 -0.5648496747
0.28640437 -0.21792269 1.6550001 -0.4109266102 0.6212617755 -0.6672129631
0.31173798 -0.14620464 1.6960001 -0.6601811051 0.1628704518 -0.7332354188
0.025837872 -0.062684931 1.7939999 0.06885325164 -0.7893288136 -0.6100977063
-0.27183679 -0.26468319 1.6320001 -0.2367657274 -0.8139190078 -0.5305448771
0.04386051 -0.32489267 1.8530002 -0.2694152296 0.2340453267 -0.9341510534
-0.1954993 0.26012716 1.8430001 0.1318822503 -0.6282830834 -0.7667251229
0.37693423 -0.034539789 1.7130001 -0.346020937 -0.902593255 0.2561149895
0.17017853 0.031076079 1.6880001 0.175799951 -0.8121620417 -0.5563157201
-0.31514588 0.36225533 1.853 -0.1984739304 -0.1917940229 -0.9611572027
-0.29057115 0.34038335 1.8940001 -0.4640490413 0.01273775008 -0.8857179284
-0.21774173 -0.23323032 1.6362002 0.6721767187 0.3586711287 -0.6477140188
-0.075470477 -0.011838506 1.6880001 0.1584681123 -0.7609293461 -0.6291855574
0.14890622 0.13466302 1.4770001 0.3181907237 -0.467554003 -0.8247107863
0.15417148 -0.23586646 1.813 0.02704498731 -0.1038107798 -0.9942293167
-0.11384443 0.022687132 1.6320001 0.2585375607 -0.8740007877 -0.4114376307
-0.16875307 -0.12540366 1.766 0.421889782 -0.7485074401 -0.511610806
-0.045558617 0.037016377 1.6240003 0.08461227268 -0.7836179137 -0.6154540777
-0.28537837 -0.082802914 1.6866668 -0.1227441803 -0.6998938918 -0.7036209106
0.11463397 0.052697148 1.6326365 -0.004405215848 -0.8076755404 -0.5896106958
-0.10726893 -0.062828943 1.748 0.2993481755 -0.7625953555 -0.5734448433
-0.14492352 -0.049817462 1.7220001 0.07233598083 -0.7620683312 -0.643443346
-0.19439074 0.013333661 1.6010001 0.139226079 -0.7827035189 -0.6066228747
0.048265759 -0.44840449 1.7760001 -0.8363876939 -0.07471054792 -0.5430229902
-0.094410166 -0.1077611 1.8130001 0.2881859243 -0.7264934778 -0.6238237619
0.39417648 -0.46492621 1.647 -0.7736078501 0.3004346788 -0.557915628
0.049271297 -0.3798658 1.8130001 -0.7528663874 0.6337397695 -0.1776683629
0.47134334 -0.37262541 1.5860001 -0.4297065735 0.105100967 -0.8968310952
0.29405677 0.33283353 1.8430001 0.3558211327 -0.5176226497 -0.7781118751
-0.11415647 0.1635575 1.5230001 -0.5359940529 0.4615176618 -0.7069029808
0.33677414 -0.071436934 1.6630001 -0.4872046411 -0.3776090145 0.7874281406
0.3003723 -0.06774354 1.4580001 0.4714541435 -0.3912869096 -0.7903325558
0.34568882 -0.45737749 1.7310002 0.495721221 -0.0829744786 -0.8645089269
0.17570241 -0.39495498 1.7130002 -0.2914389968 0.0804644078 -0.9531992674
0.078361288 -0.25285652 1.8430001 -0.4842645228 0.1509254575 -0.8618058562
0.024813173 0.19294381 1.4640001 -0.1306841671 0.3495420218 -0.9277618527
0.062473021 -0.15702678 1.9260001 -0.4516726434 -0.09171611816 -0.8874570131
-0.094986834 -0.21587916 1.9700001 -0.4164877832 -0.776587069 -0.4727054536
0.2040801 0.31656522 1.8330001 -0.2755332887 -0.3025200069 -0.9124489427
0.30486959 -0.41680241 1.6799999 0.3928672075 -0.7474711537 -0.5356698632
0.077015169 -0.49443737 1.7570001 -0.7645570636 -0.07960166037 -0.6396218538
-0.2816239 -0.02155285 1.6390001 -0.1803931445 -0.6606957912 -0.7286558747
0.13515571 -0.0035040367 1.7130002 0.06849149615 -0.8004062176 -0.5955323577
0.35281101 -0.19584411 1.6630001 -0.5923852324 -0.1996273845 -0.7805309892
0.143797 0.2924411 1.8430001 0.01455021929 0.07007271796 -0.9974357486
-0.30903816 -0.071093284 1.6550001 -0.01027624123 -0.6251150966 -0.7804649472
0.19576579 -0.04012591 1.3870001 -0.06507859379 -0.6962715387 -0.7148221731
0.025570264 -0.22614738 1.8940001 -0.3849793971 0.6783753633 -0.6257777214
0.32477346 -0.24293625 1.6320002 -0.02980992198 0.614955008 -0.7879985571
-0.24794149 0.29391739 1.8730001 0.04195259884 0.2517298758 -0.9668878317
0.015213321 0.1172475 1.4960002 0.1041452438 -0.8200263977 -0.5627703667
0.24588624 -0.082803093 1.4354001 -0.005264603999 -0.8298564553 -0.5579521656
0.0077015166 0.3188428 1.7570001 -0.194412455 0.8280329108 0.5258947015
0.37259033 -0.30600578 1.6160001 0.6356557012 0.2247058451 -0.738545239
0.244519 0.33401614 1.8230002 -0.3085293174 -0.252450794 -0.9171031713
-0.33481652 -0.052315082 1.705 -0.6498714685 -0.6038818955 -0.4615124166
-0.17591961 -0.012695229 1.655 0.3686043024 -0.7865816355 -0.4953990579
0.084282734 -0.025540223 1.748 -0.01245240308 -0.8341692686 -0.5513678789
-0.12643373 0.23677592 1.8730001 0.1605107635 -0.02626121789 -0.98668468
0.09484832 0.13222061 1.4700001 0.008994454518 -0.5959307551 -0.8029854894
-0.22486803 -0.065309092 1.6853334 0.2406419069 -0.5981702209 -0.7643846273
0.021004057 0.27628413 1.8430001 -0.1352065653 0.8387622833 0.5274438262
0.22451082 -0.45050848 1.6960001 -0.06576491147 -0.439178139 -0.8959897161
0.10536869 -0.2141808 1.8330001 -0.6679985523 0.2194656879 -0.7110645175
-0.034197014 -0.004956089 1.6960001 0.2320714295 -0.7954385281 -0.5598396063
0.064755857 -0.1261909 1.8940001 -0.06817056984 -0.6942700744 -0.716478765
-0.23497646 0.034759834 1.5860002 -0.1297920197 -0.508808136 -0.8510395288
-0.10527066 0.062289797 1.5514001 0.1094770283 -0.8270996809 -0.5512901545
-0.081789494 -0.29210532 1.904 -0.6862781048 -0.1468334198 -0.7123638391
0.30748734 -0.34484556 1.6390001 -0.4370943606 -0.07955888659 -0.8958899975
-0.23583545 0.074472688 1.5731668 -0.5852254629 -0.207360521 -0.7839086056
0.39113095 -0.40431517 1.6710001 -0.8992807269 -0.0004522304225 -0.4373716414
0.29542354 0.014649101 1.6710001 -0.102919586 -0.7096362114 -0.6970107555
-0.27330959 0.025354952 1.6070001 -0.4514147639 -0.3813197911 -0.8067341447
0.27951553 0.38292012 1.8430001 -0.4694574177 0.7004361153 -0.5375862122
-0.1707699 0.10535727 1.529 -0.4516547024 0.04560753703 -0.8910263777
-0.038834579 -0.23131903 1.9260001 -0.5433252454 0.4928945005 -0.6795974374
-0.32150295 0.30442616 1.8730001 -0.7385438085 0.02393532544 -0.6737805009
0.44380936 -0.34365892 1.6320002 -0.2439218611 0.5380452871 -0.8068515658
-0.036617495 -0.077929527 1.7850001 0.06214177981 -0.7890694737 -0.6111528277
0.0028141001 -0.2223139 1.9260001 -0.1884791404 0.6419796348 -0.7431942821
0.055855941 -0.0075480998 1.7220001 0.06333486736 -0.8323803544 -0.550573945
0.184626 0.014770079 1.404 -0.7169237733 0.4014235735 -0.5699819326
0.1627786 -0.11378169 1.863 -0.3108574748 0.2572493255 -0.9149811268
-0.04474419 -0.19332868 1.9260001 -0.02234814689 -0.7295909524 -0.6835185885
0.11697421 -0.3560307 1.748 -0.7285754681 0.4223454893 -0.5392606854
0.14466666 -0.46403456 1.7129999 -0.3747006655 -0.48994717 -0.7871157527
-0.19358115 0.26548272 2.1030002 -0.1832688898 -0.9823066592 0.03855120763
0.056195501 0.054306578 1.6160001 0.05513231456 -0.838218689 -0.5425402522
0.007310085 -0.33545166 1.853 -0.06915226579 0.1173758283 -0.9906769991
0.14752196 0.11030921 1.516 0.03487160802 -0.7239200473 -0.6890019774
-0.1539564 -0.15715273 1.8230001 0.2994685769 -0.79065907 -0.5340194106
0.14787877 -0.31557631 1.739 -0.3568124473 0.4628771544 -0.8114367723
0.075901799 -0.36705333 1.7760001 -0.6085088849 0.5504591465 -0.5715870261
0.11517296 0.075410865 1.5640001 -0.1478138715 -0.9298199415 -0.337025106
0.10228245 -0.3404088 1.8230001 -0.6382108331 0.6409164071 -0.4265126884
-0.023089999 0.29384392 1.8040001 0.05164882913 0.9289249778 0.3666480184
0.12508367 -0.14457725 1.8529999 -0.665545702 0.4857348204 -0.5666661859
0.29433906 -0.17570241 1.7130002 -0.6446262002 -0.2180731148 -0.7327353954
-0.027092945 -0.32429433 1.8730001 -0.4316785634 0.1528992951 -0.8889743686
0.33204538 -0.12567455 1.5090001 -0.1982664764 -0.9009227753 -0.3860422373
0.18341883 -0.33287123 1.7220001 -0.6592156291 0.3839594126 -0.6465368867
0.34282342 -0.035022248 1.6880001 -0.9323442578 -0.2762883604 -0.2332357615
-0.04422871 -0.054790791 1.7570001 0.2599394619 -0.7838713527 -0.5638946891
0.04315041 -0.46186921 1.8230001 -0.9386841059 -0.2500750721 -0.2373492271
-0.034744553 0.092841998 1.5159999 0.07986911386 -0.837857306 -0.540014863
0.0053364886 -0.26477197 1.8730001 -0.3808230162 0.3416948617 -0.8591964245
0.0014578967 0.43007952 1.6630001 -0.2414299399 0.1260538399 0.9621964693
0.28507489 -0.49476001 1.7315336 -0.3167448938 0.2452777326 -0.9162486196
0.0052795056 -0.41383207 1.8529999 -0.4201406538 -0.1225807294 -0.8991417289
0.2726337 -0.10628093 1.7570001 -0.7315897346 0.2906425297 -0.616687417
0.36625496 -0.41284218 1.6960001 -0.450014025 -0.6657581329 -0.5951920152
-0.0755485 -0.18181452 1.8940001 0.263746798 -0.8533168435 -0.4497643411
0.26446247 -0.3953816 1.6630001 -0.4336668849 -0.3662568331 -0.8232793808
0.23173404 -0.084873781 1.8130001 -0.6684291959 0.3407720029 -0.6611179113
0.13445139 -0.39121407 1.7310002 -0.4327555001 0.3608576953 -0.826138258
0.10511226 -0.42502257 1.7331821 -0.4732994735 0.1042402387 -0.8747122884
-0.074118786 -0.052387971 1.7355715 0.1007247567 -0.7571855187 -0.6453871727
-0.070412986 -0.24215199 1.9590001 -0.7948976159 0.2997137606 -0.5275503993
0.094974563 0.19508289 1.4640002 0.1233388484 0.3734923005 -0.9193971157
-0.0083020329 -0.151097 1.8940001 0.4998271167 -0.6526884437 -0.569359839
-0.17572205 0.064465158 1.5514001 -0.2375804931 -0.5225889683 -0.8188139796
-0.10596181 -0.0034181238 1.6710002 0.08235806972 -0.7360426188 -0.6719065309
-0.17932129 -0.29012144 1.6630001 0.7194754481 0.1398448944 -0.6802929044
0.11521504 -0.051379681 1.7760001 0.05504326522 -0.8196798563 -0.5701711774
0.40092158 -0.10351066 1.6630001 -0.06665795296 -0.1263864189 -0.9897389412
-0.22497608 -0.11390366 1.7390002 0.222359702 -0.6715379953 -0.7068188787
0.20552662 -0.26489606 1.7366003 -0.7142464519 0.6489692926 -0.2620894015
0.32802674 -0.22014239 1.6630001 0.4213422239 0.6654180288 -0.6161895394
0.38089502 -0.45677051 1.7310001 -0.7713951468 -0.3624498844 -0.5230484009
0.38506442 -0.25535548 1.655 -0.391595155 -0.08883078396 -0.9158396721
0.26418349 -0.22292055 1.7220001 -0.4324862659 0.8585918546 -0.2752737701
0.4498834 -0.48310557 1.5790001 -0.4391645789 0.1619244516 -0.8836939335
0.25384569 0.034028832 1.633077 0.1641708165 -0.7681401372 -0.6188769341
-0.015219516 -0.035013776 1.7363335 0.3831684291 -0.6634448767 -0.6426685452
0.43671587 -0.28002048 1.6550001 -0.03735554591 0.08989333361 -0.9952505827
0.37481153 -0.16781883 1.6550001 -0.3567681909 -0.05521149561 -0.9325600266
0.0047944901 0.4570747 1.8230001 -0.9753670096 -0.07283195108 0.2082177997
0.21504195 0.28799289 1.863 0.05102781206 -0.07066987455 -0.996193707
0.17184946 -0.28951216 1.766 -0.6670450568 0.7406361699 -0.08067765087
-0.13542204 0.027307291 1.6058 0.2553171217 -0.8671425581 -0.4276411533
0.16461082 -0.065524697 1.8230002 0.2477079481 -0.7336978316 -0.6327149868
0.3980093 -0.38938814 1.6390001 -0.7959730029 0.01660701632 -0.6051042676
0.065480269 -0.18708652 1.8830003 -0.6212486029 0.5371626616 -0.5705316663
-0.24690177 -0.027433529 1.647 0.02491980605 -0.7015073895 -0.7122263908
0.27565622 -0.091887601 1.45575 0.1522443891 -0.741838336 -0.6530678272
0.28398389 -0.20964256 1.6960001 -0.5265567899 0.8368282318 -0.1498548388
0.41893533 -0.41611421 1.6090001 -0.6213735938 0.05532495677 -0.7815586925
0.015015328 0.015015328 1.6710002 0.1958066374 -0.8065952063 -0.5577310324
-0.23214133 -0.30033284 1.6550001 -0.1390247643 -0.7535180449 -0.6425594687
0.083949603 0.022092 1.6799999 -0.05594567955 -0.9008901119 -0.4304265976
0.36818686 -0.35952362 1.6470001 0.2816010416 -0.5094445944 -0.8131217957
-0.02783329 0.49562788 1.6710001 0.683369875 -0.378172487 0.6244927049
0.005093609 0.097314738 1.529 0.2028808296 -0.8830373287 -0.4231836498
0.12449806 0.088350467 1.5270001 0.04951320961 -0.8279781938 -0.558570087
0.040392417 -0.39261428 1.8430001 -0.6845504045 0.2634724677 -0.6796860099
0.0253269 -0.16378063 1.9260004 0.02989855967 -0.4613884985 -0.8866942525
0.23316264 -0.1232754 1.7850001 -0.4576169252 0.410325408 -0.7888091207
0.36065102 -0.27731332 1.6390001 0.7061550617 0.5929223895 -0.387024641
-0.10463069 0.085358046 1.5262001 -0.1195036322 -0.7110711336 -0.6928901076
0.013970384 -0.11338754 1.853 0.2507897317 -0.8286156058 -0.500500381
0.20499536 -0.19560625 1.7850001 -0.4865551889 -0.0169133544 -0.8734861016
0.054844268 0.091864146 1.5640001 -0.01775312796 -0.9269511104 -0.3747618198
0.47756854 -0.45265192 1.5790001 0.237945959 -0.006078090519 -0.9712593555
0.33295798 0.011838507 1.6880001 -0.7490515709 -0.6338468194 -0.1927691698
0.194966 -0.1441053 1.8130001 -0.479249388 0.4406247437 -0.7590585351
0.13664296 -0.16381174 1.8230001 -0.7325416207 0.2891604304 -0.6162540317
0.017676231 -0.482079 1.8330001 -0.7754453421 -0.1955036074 -0.6003856063
0.38439634 -0.49527749 1.6335001 -0.7412638068 0.4291856885 -0.5160694122
0.18766476 -0.0060314662 1.3760002 -0.2390882224 -0.209535569 -0.9481200576
-0.045067683 -0.25621811 1.904 -0.6063843966 0.5752468109 -0.5489891171
-0.069097988 -0.11730589 1.8330001 0.113708213 -0.680817008 -0.7235735059
0.47860828 -0.40281692 1.6010001 -0.3592446744 0.2484485805 -0.8995646238
0.11504447 -0.46561864 1.7332859 -0.2894460857 0.02476342954 -0.9568739533
0.15477373 -0.019921374 1.748 0.1393826306 -0.8504968882 -0.5071760416
0.26711595 -0.36529911 1.647 -0.5411601067 -0.114124462 -0.8331394196
0.11759256 0.29234818 1.863 -0.317871511 0.288168937 -0.9032809138
0.22575919 -0.22575919 1.7760001 -0.5200874209 -0.04451705143 -0.8529521227
0.056036748 0.17575371 1.4527498 -0.2238101214 0.1941117793 -0.9551071525
0.39706424 -0.32487077 1.6470002 0.1872707456 0.31231457 -0.9313373566
0.073714517 -0.4244636 1.7570001 -0.671310246 0.1316865981 -0.7293841243
-0.045044009 0.069613472 1.557 0.1939260811 -0.877946496 -0.4377243221
-0.31496996 -0.013819898 1.6470002 -0.373374939 -0.4641087055 -0.803239882
-0.19781019 -0.26422819 1.6470001 0.8069254756 -0.3052548766 -0.5056587458
0.094093509 -0.1172042 1.883 -0.06126822159 -0.6991916895 -0.7123041153
0.31184828 -0.4651168 1.7310001 -0.1555745602 -0.1924592704 -0.9688941836
0.21174394 -0.31386158 1.7130001 -0.5514862537 0.2044354528 -0.8087453842
-0.17870587 -0.30184773 1.7130001 0.2974545658 -0.6122947931 -0.7325407267
0.31235984 0.0045051901 1.7130001 -0.1238399968 -0.9756062031 -0.181262821
-0.20316224 -0.0071536 1.6320001 0.2701886892 -0.8091794848 -0.5217533708
-0.0049812198 -0.44997022 1.8940001 -0.843686223 -0.3267473578 -0.4259456396
-0.077194884 0.037895668 1.6010001 0.2169112712 -0.9067515135 -0.3615953922
-0.045777954 0.011371593 1.6630001 -0.06128294766 -0.8594863415 -0.5074717999
0.3336488 -0.40303171 1.684 0.2002567202 -0.858225286 -0.4725956321
-0.15433262 -0.033602286 1.6960001 0.1924254298 -0.7015028596 -0.6861969233
0.32775849 -0.38262555 1.6470001 0.06046791747 -0.6271955371 -0.7765110135
0.4045724 -0.22726515 1.6470001 -0.1863546818 -0.2532707751 -0.9492765069
0.26971087 -0.24492665 1.6630001 -0.6977772117 0.2375683337 -0.6757723093
0.19187428 -0.042463981 1.794 0.1814871877 -0.8792794943 -0.4403747916
0.034297831 -0.29561463 1.863 -0.3597664237 0.1107399613 -0.9264473915
-0.0047182199 -0.071559668 1.794 0.3777304292 -0.7213820815 -0.5804546475
0.23727335 -0.23727334 1.7130001 -0.6583614945 0.6944956779 -0.2902342379
0.41483352 -0.46428901 1.6159999 -0.7281280756 0.1505361348 -0.6687064767
0.0049812198 0.42672452 1.8940001 -0.9542385936 0.1621838212 0.2512471378
-0.017995337 0.067828573 1.5790001 0.2489722222 -0.9095116258 -0.3328685164
-0.13625708 -0.17395668 1.8430001 0.2006209046 -0.7776039243 -0.5958887339
0.23585051 -0.40578005 1.6710002 -0.3380849957 -0.1500264555 -0.9290804863
-0.18848684 -0.10880134 1.748 0.07485117763 -0.7363524437 -0.6724450588
0.089251682 0.060917813 1.6160001 0.1227092892 -0.843721509 -0.522567153
0.22694619 -0.48257521 1.7220001 0.4240649939 -0.652172029 -0.6283633709
0.16454858 -0.49364579 1.7220001 -0.2648585737 -0.3869369924 -0.8832495213
-0.17058706 -0.067932896 1.7220001 0.5694074631 -0.4212009013 -0.7059496641
0.27488407 0.3180345 1.8230001 0.3689783514 -0.6345276237 -0.6791389585
-0.055827886 0.2512255 1.8730001 -0.02167977765 0.7102729678 -0.7035924196
0.074963406 -0.066739582 1.8040001 0.09016758949 -0.8317354321 -0.5478010178
0.042700678 -0.43491432 1.8040003 -0.9610210657 -0.122201398 -0.2480026931
0.1660582 -0.20401436 1.804 -0.1689567715 0.0257407669 -0.9852873087
-0.22048604 0.27438265 1.863 -0.3098959923 -0.3818593025 -0.8707169294
0.13668811 -0.27496561 1.8130001 -0.2726402283 -0.1197902113 -0.9546296
0.015082174 0.084551573 1.5640001 0.1647959054 -0.8883875608 -0.4284972548
-0.024103949 -0.11087817 1.8330001 0.2380515486 -0.7735174894 -0.5873688459
0.015269955 -0.44445318 1.853 -0.6443712711 -0.2019439042 -0.7375664711
-0.0059788665 0.39012104 1.705 0.1060732901 0.5442820787 0.8321691155
0.18586822 -0.11516332 1.8330001 -0.6081379652 0.5216835737 -0.5983430743
-0.0046945498 0.31140515 1.7850001 -0.2235362977 0.8626764417 0.4536748528
-0.25412431 -0.075201422 1.6879998 0.0526368469 -0.6201416254 -0.7827219963
0.21511237 -0.37571183 1.6806668 -0.4683379829 0.1266194731 -0.8744295239
0.2681697 0.32936278 2.0530002 0.4822401702 -0.8619532585 -0.1564639062
0.19231699 -0.25907165 1.8130001 -0.6837465167 -0.06466002017 -0.7268491983
0.21639639 -0.081466883 1.452 -0.1559365988 -0.8908771873 -0.4266398847
0.043860514 -0.35575747 1.853 -0.05156653747 0.2334946096 -0.9709897637
0.34143975 -0.49015573 1.7310001 0.4427792132 -0.2949219048 -0.8467394114
0.02539002 0.056422271 1.6090001 0.08798778802 -0.7759213448 -0.6246632338
-0.025509497 0.40204734 1.6834288 0.2406492531 0.7184541225 0.6526190639
0.27561784 -0.1644574 1.7370001 -0.6975702047 0.09896218777 -0.709649384
0.32259929 0.04883384 1.6880001 0.6223211288 0.03088995814 -0.7821522951
-0.076781973 0.058957588 1.5640001 0.1753482819 -0.8865668178 -0.4280797243
0.10511225 -0.49491605 1.7331821 -0.3562783599 -0.03639398888 -0.9336708188
0.0082538165 -0.12710878 1.8830001 0.3182717264 -0.7781600952 -0.5414516926
0.31720957 -0.036777921 1.748 -0.9099382162 -0.2011124045 -0.3627206385
0.14761752 0.028531117 1.4150001 -0.4349875152 0.1671360731 -0.8847888708
0.2580477 -0.3047004 1.6630001 -0.6905502677 0.04373434931 -0.7219609618
-0.065264851 0.13495003 1.4829999 -0.1922619939 -0.224498421 -0.9553197026
0.38601863 -0.43396723 1.6630001 -0.9390416145 -0.005015467759 -0.3437669277
-0.17638883 0.27274939 1.863 0.3665416241 -0.5627978444 -0.7408818007
-0.23517109 -0.25358814 1.6159998 0.1113692522 -0.2361423224 -0.9653153419
0.25049961 -0.33546439 1.6710001 -0.6403429508 0.112712428 -0.7597742081
-0.20500973 0.074595392 1.5528001 -0.4002772272 -0.3700978756 -0.8383350968
0.24901715 -0.17546134 1.748 -0.7032538056 0.1067691073 -0.702875793
0.082238346 -0.3574205 1.8040001 -0.6458028555 0.7563272715 -0.104440175
0.17744558 -0.053161241 1.4234 -0.2785470784 -0.7932091355 -0.5415079594
-0.024618713 0.17559792 1.464 -0.08430945873 0.257148385 -0.9626871943
0.12556234 -0.22410494 1.813 -0.5022830367 0.01310299616 -0.8646039963
-0.13299735 0.051416501 1.5640001 0.1683718264 -0.8230336308 -0.5424633622
0.10508541 0.032955777 1.655 0.06606050581 -0.8591367602 -0.5074643493
-0.043239247 -0.14832704 1.8730001 0.2898102403 -0.6253253818 -0.7245538235
