# .PCD v0.7 - Point Cloud Data file format
VERSION 0.7
FIELDS x y z normal_x normal_y normal_z
SIZE 4 4 4 4 4 4
TYPE F F F F F F
COUNT 1 1 1 1 1 1
WIDTH 512
HEIGHT 1
VIEWPOINT 0 0 0 1 0 0 0
POINTS 512
DATA ascii
0.10912308 -0.20985208 1.9150001 0.5386146307 -0.6798455715 0.4976989627
-0.22758968 -0.27467719 2.9840002 0.8891680241 0.332603246 0.3142535388
0.025037602 0.49717522 1.6800002 0.2977575958 -0.3407358229 0.8917620182
0.49704632 0.1768149 2.2410002 -0.05441942438 0.8684222698 0.4928298593
0.28719601 0.01076985 1.365 -0.2226908058 0.3208892047 0.9205644727
0.4991512 -0.49637043 1.5860001 0.7865908146 -0.4412952065 0.4318951666
-0.25117552 0.096910238 2.256 -0.1648578048 0.8742457032 0.456635952
-0.17243998 0.045555457 1.5940001 0.5501645207 0.1633578986 0.8189219832
0.49489778 0.41739559 1.8730001 0.2270405591 0.5830047727 -0.7801012993
-0.24870682 0.30212036 1.904 -0.8288753629 -0.2541042566 -0.4983940721
0.47382519 -0.0014947166 1.705 -0.723720789 -0.5148556232 0.459512651
-0.15390059 -0.30780119 1.6880001 -0.1709277332 -0.8251487613 -0.538435936
0.17193098 0.31781182 1.9810001 -0.1743271351 0.9426460862 -0.2846548259
-0.36259633 -0.084016226 2.5220001 -0.2643841207 0.8088098764 0.5252881646
0.2101896 -0.49978417 1.7760001 0.8715627193 0.3896138668 0.2976230383
0.14751379 0.025072666 1.6826668 -0.3200422823 0.7776532173 0.5411362052
0.0834236 0.20663384 1.4640001 0.2043250501 -0.480689317 0.852753818
0.34601173 -0.26573467 1.6710001 0.8331082463 -0.02050388791 0.5527297854
-0.072790511 0.2482343 2.1290002 0.08016256988 0.9956224561 0.04806123301
-0.052370314 -0.093958504 1.7570001 -0.4365254045 0.5197666287 0.734362483
-0.026600346 0.22561033 1.8730001 -0.03764866665 0.1466926038 -0.9884654284
0.28287491 -0.094291635 1.8230001 0.7326886058 -0.280644387 0.6200048923
0.30681229 0.31788284 1.8040001 -0.5773852468 0.3379719555 -0.7432370186
0.40535313 -0.099676996 1.516 -0.452652514 0.7181010246 0.5286176801
0.0031787932 -0.3798658 1.8130001 0.6885008812 -0.5638527274 -0.4561103284
0.32289124 0.2239708 2.1290002 0.4689327776 0.8821079731 -0.04458186775
0.32156783 0.10286824 1.6074002 -0.6392965913 -0.323354423 0.6976688504
-0.049270421 -0.33970657 2.9580002 0.6956349611 0.6700810194 0.2590047121
0.23173404 -0.31565419 1.8130001 0.7847954631 -0.3803622127 0.4893062711
0.072394259 0.33270553 1.7570001 0.1908483654 0.7577632666 0.6239966154
0.37891462 -0.45137638 1.7220001 -0.1046893448 0.5968033671 0.7955287099
0.0049034599 0.067274265 1.5535001 -0.1948738843 0.8310824633 0.5208897591
-0.34588182 -0.3032732 2.8590002 0.8857524395 0.344733566 0.3108075857
-0.21748127 -0.076977909 1.705 0.5042380095 0.7029345632 0.5016244054
0.4954499 -0.19504784 1.6240004 0.4177641571 0.1422562152 0.897349596
0.10596094 -0.080656841 1.8040003 -0.06716135144 0.6956269741 0.7152569294
0.071397483 0.4200829 1.8940001 0.926104784 0.07618103176 -0.369494766
0.17639937 0.098298877 1.536 0.07855296135 0.9017565846 0.4250464141
0.4841114 -0.35353193 1.6550001 0.2446885109 0.7940532565 0.5564233661
-0.2159756 0.31136483 2.0530002 0.5855591893 0.8023828864 -0.1153347567
0.37914079 -0.1174593 1.6960001 0.8188357353 -0.1194673181 0.5614584684
0.12710878 -0.42424616 1.8830001 0.7768443823 0.4286809564 0.4612433314
-0.0076167719 0.28416419 2.0050001 -0.3153491318 0.9131222963 -0.2583847046
-0.023409629 -0.18455499 1.863 -0.4081926048 0.7997366786 0.4402272701
0.005127185 -0.002197365 1.6710001 -0.06825172901 0.7282307744 0.6819249988
-0.019328747 -0.31372043 1.6960001 -0.09538090229 -0.7064073682 -0.7013494968
0.2726374 -0.006340404 1.7220001 0.08274778724 0.8481981158 0.5231756568
0.17056865 0.28428108 1.853 -0.08706180006 0.714884758 -0.6938011646
0.2597993 -0.39495501 1.7129999 0.6444967985 -0.06756430864 0.7616159916
0.29604483 -0.21419321 1.7760001 0.3939968348 0.08309611678 0.915347755
0.36550424 0.41748708 1.853 0.2418944389 0.8791379333 -0.4106136858
-0.030164346 0.16918264 1.4960001 0.4231618941 -0.2710855603 0.8645499349
0.18430513 -0.11788888 1.8940001 0.05848476663 0.7491226196 0.6598445177
0.040427484 -0.25135347 2.0050001 0.7707180977 0.173548758 0.6130859852
0.49015573 -0.49622577 1.7310001 -0.8049591184 -0.2234985083 0.54962641
0.072189115 -0.3223328 1.9150001 0.9502278566 -0.05819042772 0.3060732782
-0.11614577 -0.032559689 1.6630001 -0.3166064322 0.7270684838 0.6092059016
0.31441563 -0.07524693 1.4450001 0.1600688249 0.8310243487 0.5327067375
0.26657739 0.31272745 2.0780001 0.3848783672 0.922077775 0.04051162302
-0.16168977 0.23681834 1.863 0.2777086198 0.8530350924 -0.4418247342
0.4027687 0.085722215 1.686 -0.7825470567 -0.4213184714 0.458378464
-0.15745284 -0.19973184 1.6630001 0.09504409879 0.7739202976 -0.6261102557
0.42421272 -0.27449059 1.594 0.4232509732 0.284170568 0.8602939844
0.20411636 -0.2138105 1.8430001 0.7542419434 -0.2448395044 0.609239459
-0.12238354 -0.15576088 1.8130001 0.1822806895 0.8211923242 0.540755868
0.37877524 -0.3749249 1.6470002 0.32280761 0.2324359715 0.9174795747
-0.10237275 0.12148233 1.557 0.6887201071 -0.2163890451 0.6919829249
0.064627871 0.26820564 1.8430001 0.1730112582 0.9053647518 0.3877908885
0.098248035 0.071580708 1.6010001 -0.1531780064 0.8272531629 0.5405448079
0.17693326 -0.40498054 1.794 0.8944491744 -0.1819407344 0.4084828198
0.22209823 0.061219387 1.6240001 0.07188045979 0.9152443409 0.39643538
0.19208819 0.16727501 1.4640001 -0.2990184426 0.4640297294 0.833825171
0.056099653 0.4015519 1.684 0.4261971712 0.6566656828 0.6222106814
0.18500911 -0.028641576 1.766 0.01218958385 0.7927289009 0.609452486
0.08201918 0.10979987 1.5090001 -0.1372473687 0.843552947 0.5192124248
-0.075459957 0.027249429 1.594 -0.1760033667 0.8248561621 0.537247777
0.14457725 -0.29402784 1.853 0.1386968195 -0.1041461527 0.9848435521
0.39465147 -0.18593609 1.6240003 0.6148362756 -0.5610688925 0.554236412
0.20678112 0.05046444 1.404 -0.008712038398 0.1549054533 0.9878908992
0.2939446 -0.4975276 1.7220001 -0.07878565788 0.5243433714 0.8478542566
0.063695967 -0.14535747 1.863 -0.4189979136 0.6278610826 0.6559201479
0.074357986 -0.019727631 1.7310001 -0.1807886213 0.7390819192 0.648901701
-0.16880743 0.26155877 2.1160002 0.07190518826 0.9972715378 0.01670666412
0.49235967 -0.070749633 1.6470001 0.03348600864 -0.3700047433 0.9284262061
-0.22014239 0.0072894832 1.6630001 0.7016596794 0.05653184652 0.7102659941
0.28073934 -0.29287943 1.7310001 0.8096056581 -0.2895054221 0.5106127262
0.34337568 0.025632272 1.6550001 -0.2832897007 0.7455028892 0.6033012271
-0.13435617 -0.10235224 1.7220001 -0.1270353049 0.7093415856 0.6933228374
-0.06315244 -0.35889068 1.7570001 0.06566727906 -0.7889301777 -0.6109640002
0.1743473 -0.49446037 1.863 0.8242508769 0.1907197386 0.5331383348
0.43882689 -0.47964799 1.6630001 0.05219165608 -0.6347686052 0.7709376216
0.020559587 -0.10279793 1.8040001 -0.2089895904 0.6839012504 0.6990010142
0.35777995 -0.19474098 1.7220001 0.7446048856 -0.4044249952 0.5310404301
0.018669493 -0.20875888 1.9360001 -0.2212635875 0.8940846324 0.3894291818
0.34627926 -0.085150629 1.7660002 0.575489223 -0.6497773528 0.4965899289
-0.12598577 0.29336685 2.0530002 0.08308372647 0.9964772463 0.01141163521
-0.19629969 -0.26768139 2.9080002 0.8891680241 0.332603246 0.3142535388
0.39401078 0.0055352733 1.7220001 0.3456893861 -0.1482413262 0.9265653491
-0.098481223 0.26539856 1.904 0.07549382746 0.5016588569 -0.8617650867
0.42818329 0.0014368567 1.6390001 0.3224482238 -0.03943346068 0.9457653761
0.49482006 -0.41823179 1.7130001 -0.2297156751 0.4248567224 0.8756297231
0.38442183 -0.039460521 1.452 -0.6467292309 0.4403891265 0.6227348447
0.2040801 -0.072311848 1.8330001 -0.0845643729 0.8168345094 0.5706402063
0.31605411 -0.3456153 1.686 0.4818675816 -0.2027659714 0.8524609208
0.051558521 0.32890779 2.0280001 -0.2759670615 0.9374797344 -0.2120706588
-0.11668401 -0.26244518 1.6381251 0.3575728238 -0.5071744919 -0.7841656208
0.49645984 -0.43493888 1.6320001 0.9483497739 -0.2383320183 0.2093574107
0.21532336 0.3188121 1.904 -0.5270411968 0.8079702854 -0.2634609044
0.49584267 -0.27342179 1.6160001 -0.8528630137 -0.293964535 0.4315200746
0.23686147 0.311423 1.8329999 -0.5163077116 -0.2680283785 -0.8133800626
0.25589287 -0.16370787 1.813 0.6603806019 -0.1913345605 0.7261463404
0.19006221 -0.36225533 1.853 0.5687794089 -0.4267649353 0.7031085491
0.0053112847 -0.046284057 1.7310001 -0.2908875346 0.7632989287 0.5768528581
0.074352734 0.021868451 1.6630001 -0.08895099163 0.8531877398 0.5139634013
0.4449515 -0.12630838 1.6372501 0.2275183648 -0.3434225619 0.911206007
0.23104812 0.1083446 1.4890001 0.3602017462 0.4706258476 0.805460155
0.25507057 -0.039121252 1.7850002 -0.1261532605 0.8502162099 0.5110946298
0.25760704 -0.041762937 1.4150001 0.01077882294 0.8692563772 0.4942440689
0.31815988 -0.43210548 1.6880001 0.3210584819 0.2237686068 0.9202440381
0.10942641 -0.35767737 1.863 0.8052928448 0.01842671633 0.5925908685
-0.042700678 -0.14708012 1.8040001 -0.276550144 0.6519886255 0.7059963346
0.30499411 -0.14398198 1.7659999 0.3414876163 -0.08715813607 0.9358363748
0.036083601 0.15464401 1.4699999 0.2646453977 0.2140919864 0.9402804971
0.42790872 -0.40709314 1.6960001 0.1825349331 0.6203039289 0.7628263235
-0.055012587 -0.040144321 1.6960001 -0.1090632081 0.7358275056 0.6683285832
0.34193683 -0.02818834 1.3980001 -0.2121237963 0.460714221 0.8618270755
0.02550048 0.044625837 1.6160001 -0.2729479969 0.855584681 0.4398570359
0.36079305 0.36079305 1.8130001 0.2228050083 0.4141143858 -0.8825345635
0.2088597 -0.43448916 1.7390001 0.667565465 -0.0213118922 0.744246006
0.22334398 -0.35581011 1.7570001 0.7395093441 -0.2374487519 0.629876256
-0.045186907 0.1049931 1.5159999 0.3384365737 0.2721040845 0.9007885456
0.17275944 -0.18444365 1.904 0.4397318065 -0.515260458 0.7356239557
0.011684213 0.27207527 1.904 0.03797028586 0.510302484 -0.8591563702
0.0045051901 0.43399996 1.7130001 0.9559038281 0.21183227 0.203408286
0.21490444 0.025334071 1.6821818 -0.04506288096 0.830724299 0.5548571348
0.12480446 0.15394256 1.4707001 -0.05928144231 0.6333861351 0.771561861
0.066676758 -0.25725108 1.936 0.8041473031 -0.3214192688 0.5000367761
0.12657532 -0.11514271 1.863 -0.2878032923 0.8082645535 0.5136902928
-0.18426219 -0.050780915 1.6550001 0.02237319946 0.6707407832 0.7413543463
0.25271407 -0.24635649 1.8130001 0.5707831383 0.004790155217 0.8210868835
0.38331741 -0.30503246 1.6335557 0.64610219 0.1207066998 0.7536457181
0.15660773 0.058371972 1.6240001 0.04444882274 0.8490103483 0.5265033245
0.1377068 0.21639639 1.4960001 -0.1065032184 -0.7896894813 0.6041917205
0.46457288 -0.32562205 1.601 -0.1535931975 0.6337422132 0.7581424713
-0.0577548 -0.00144387 1.6470001 -0.3239722252 0.8420566916 0.4312569499
0.34754574 -0.090493038 1.4960001 0.02189118601 0.8141933084 0.5801810026
0.016521661 0.10682447 1.5075001 -0.01418334059 0.7432516813 0.668861568
0.31430286 -0.24184112 1.7220001 0.6206950545 -0.7249191999 0.2987136543
0.096294522 -0.2679739 1.883 0.562610507 -0.3422517478 0.7525510788
0.37627935 0.072966717 1.6320001 -0.5771792531 0.07453922927 0.8132084608
-0.15518403 -0.0054914397 1.6240003 -0.04280223697 0.6499367952 0.7587820292
0.027315181 0.37482497 1.7310001 0.1083852425 0.6636198759 0.7401764989
-0.35945788 -0.33651376 2.9080002 0.8826382756 0.355201602 0.3078660369
0.14832704 -0.23699485 1.8730001 0.4580924213 -0.5415471792 0.7048956752
-0.21395312 0.27438265 1.863 -0.4825500548 0.03014624305 -0.875349462
0.053799719 -0.06425003 1.7659999 -0.2936080098 0.7513578534 0.5909786224
0.13536908 -0.015216479 1.735 -0.2792415321 0.8286972046 0.4850619733
-0.12477071 0.065813124 1.5640001 0.5343722105 0.1430795193 0.8330513835
0.074262433 -0.20897104 1.9700001 0.5447254181 0.1402760744 0.8267991543
0.24335128 -0.11269287 1.863 0.47068578 -0.2631787956 0.8421352506
0.44036719 -0.042711198 1.6800001 0.6034784913 0.5638869405 0.5637776852
0.23701034 -0.48458803 1.7220001 0.4322911501 0.03895515949 0.9008922577
0.35718468 -0.20702133 1.6630001 0.8008811474 -0.4956976771 0.3359660506
0.22257631 0.077239007 1.5640001 0.1654176712 0.918235302 0.3598345816
0.20276994 -0.27547628 1.8430001 0.6728888154 0.02447653189 0.7393385768
-0.09443979 -0.13237053 1.766 -0.0811175108 0.773591876 0.6284708381
-0.0054186769 -0.34756941 1.766 0.7340037227 -0.3277384043 -0.5948328376
0.44441277 -0.2160629 1.6078573 -0.4352860451 -0.5922430158 0.6780665517
0.38553971 -0.24430807 1.6240003 0.7445017099 0.06797428429 0.6641511321
0.26413825 0.046525754 1.404 0.5939126611 -0.3179521263 0.739035964
0.44345072 0.043901131 1.6880001 -0.6222535968 -0.5172815919 0.5875543952
0.4109112 -0.162008 1.6800001 0.8440259695 -0.3355230987 0.4183830917
0.31628993 -0.049271297 1.8130001 -0.1605414003 -0.4996260703 0.8512345552
-0.17278312 -0.26615337 1.647 -0.5230928659 -0.3042349517 -0.7961249948
-0.2237525 0.33236229 1.863 0.1810110509 0.172220394 -0.9682846665
0.43350816 -0.36387977 1.6320001 -0.173217684 0.6875215769 0.7052019238
-0.10662283 -0.3258754 1.7130001 -0.06629887223 -0.8982589841 -0.4344367087
0.1719415 -0.44672656 1.8330001 0.823902905 0.3962344527 0.4051941335
0.11422011 0.096970044 1.5531112 -0.190920338 0.9151530862 0.3550270796
0.36197129 -0.49135676 1.7570001 -0.03322817758 0.6983283758 0.7150058746
0.12518799 -0.15578951 1.9040002 -0.3107023239 0.7270773053 0.6122276187
-0.053487059 0.056984715 1.5530001 0.1016351804 0.7732843757 0.6258606911
0.20633139 -0.15733449 1.863 0.6713051796 -0.5283307433 0.5198230147
0.0474452 0.30206776 1.8040001 0.3069398999 0.7836812139 0.5400292873
0.31365588 0.04901759 1.6159999 -0.2368528396 0.7817081809 0.5769168139
0.23570971 -0.0021713281 1.376 0.4269559681 0.03639933839 0.9035395384
0.05508272 -0.18527824 1.904 -0.3309356272 0.796320796 0.5063148737
0.18568325 0.0045288601 1.7220001 -0.06049612164 0.7495620847 0.6591637731
-0.092086822 -0.067932896 1.7220001 -0.4206618369 0.5531385541 0.7190836668
-0.062991127 -0.29737672 1.6710001 0.2944442034 -0.6372154951 -0.7122211456
0.0040173251 -0.14382024 1.8330001 -0.5361807942 0.5565263629 0.6346562505
0.055117641 0.083237022 1.5523334 -0.2920604348 0.8628027439 0.4126404524
0.14433557 -0.39476857 1.8430001 0.3614300191 0.1733255833 0.9161477089
0.37850961 -0.41974801 1.6800001 -0.2819216847 0.6770077944 0.6798386574
0.39259589 0.03369293 1.6710001 0.09701151401 0.8459879756 0.5243024826
0.45887801 -0.4558886 1.705 -0.7385208011 -0.1447824091 0.6585021615
0.35398749 -0.14557926 1.748 0.6496213675 -0.1824364364 0.7380440235
0.10510512 -0.04386548 1.7659999 -0.1939018518 0.7509536743 0.6312453747
-0.02406645 0.034314092 1.594 -0.2759371698 0.8602513075 0.4287498295
0.2660245 -0.2879324 1.7850001 0.8037711382 -0.5696296096 0.1716799289
0.15530396 -0.064841777 1.8040001 -0.1738134623 0.7738534212 0.6090482473
0.40282613 -0.49400386 1.705 0.5729134083 -0.5358688831 0.6201731563
0.27331486 -0.44451207 1.7130002 0.4883343875 0.1597397476 0.8579118252
0.16520345 0.12707698 1.4867501 0.05530931056 0.8010918498 0.5959804654
-0.1001618 0.22495355 1.8730001 0.06107247993 0.1277670413 -0.9899221063
0.2658062 -0.33788925 1.7130001 0.7267261744 -0.3092787564 0.6133642793
0.19247656 -0.45224166 1.7850001 0.9214676023 0.2445678413 0.3018013537
0.4437494 -0.18144631 1.6470002 0.02636092529 -0.342761308 0.9390525818
-0.12563957 0.023755914 1.594 0.01227188855 0.6652705073 0.7465015054
0.035157837 0.44533268 1.671 -0.1331945211 0.02173808962 0.9908514619
0.47537762 -0.49542615 1.6333126 0.7282429338 -0.5296144485 0.4349375963
-0.16573909 -0.082869545 1.6880001 -0.2135503739 0.6478790641 0.7311969399
-0.062670268 -0.18319002 1.8330001 -0.326009959 0.6689337492 0.6680158377
0.10407786 -0.0014868267 1.6960001 -0.1016213447 0.800314188 0.590906322
0.19452532 -0.35900202 1.8040001 0.7785137296 -0.6168029904 0.1160622016
0.31270728 0.36491394 1.8230001 -0.3982982039 0.5132527351 -0.7602171898
0.0627781 0.47830933 1.705 -0.680111289 0.03220756724 0.732401073
0.077132642 -0.10766431 1.8330001 -0.2139319181 0.8054400682 0.5527200103
0.34021679 -0.38734639 1.6800001 0.6305820346 0.1432266235 0.7627925277
0.017151983 0.18251586 1.5050001 0.456469655 -0.6800901294 0.5736836195
0.17472608 0.08203321 1.5860001 0.1495107263 0.9379156232 0.3129870296
-0.23529032 -0.031076079 1.6880001 0.6484329104 0.4734452665 0.5961411595
0.31818089 -0.2958785 1.6960001 0.5739855766 -0.3226925433 0.7526022196
-0.18568325 -0.11020226 1.7220001 0.05093390867 0.8111048937 0.5826788545
0.1161284 0.037334353 1.6470002 -0.2065958828 0.799623549 0.5638442636
-0.054489221 0.27771923 2.0050001 -0.1790771186 0.9681064487 -0.1752179265
-0.15023349 -0.32929966 1.7310001 -0.1375563741 -0.8963786364 -0.4214067161
0.35135311 -0.32365304 1.6630001 0.6920897961 -0.1830222756 0.6982224584
-0.066654712 0.14408192 1.536 0.6387242079 -0.3062492013 0.7058631778
0.03475216 -0.016068203 1.705 -0.2669181824 0.7774540782 0.56949085
-0.055855941 -0.32758754 1.7220001 0.3623117507 -0.6898961067 -0.6267164946
-0.18193989 0.24703765 1.904 0.3859434724 0.6293751001 -0.6744883657
0.46584138 -0.396014 1.6710001 0.1108911037 0.4334556758 0.89432621
-0.14088559 -0.12850004 1.766 -0.07187657058 0.9051842093 0.4188977182
0.15456887 0.1939873 1.4571429 -0.09240494668 -0.6204990149 0.7787440419
-0.11517384 -0.3017846 1.6630001 -0.1218016595 -0.636085093 -0.7619449496
0.33188233 -0.47304496 1.7130001 -0.0698530972 0.6648090482 0.743740201
-0.20985208 0.32401162 1.9150001 -0.6792447567 0.3274336159 -0.6568209529
0.021345956 -0.18226163 1.8730001 -0.2559647262 0.7769239545 0.5752140284
-0.0052638575 -0.074003644 1.766 -0.4034106135 0.7229145765 0.5609405637
0.23599166 -0.019921374 1.748 -0.09409981966 0.8246749043 0.5577244163
-0.20074263 0.025626719 1.6240001 0.6992174387 0.1961387247 0.6874769926
0.27585635 0.33531269 1.8330001 -0.1024088264 0.2646994591 -0.9588778019
0.10344578 -0.31362134 1.8730003 0.6318770051 0.009401937947 0.7750116587
-0.051472608 0.25736302 1.8940001 -0.05513824522 0.2288751602 -0.9718929529
0.48358569 -0.14616722 1.6240002 0.2926790118 0.09804869443 0.9511705637
0.38626879 -0.078394689 1.4756001 -0.254077822 0.6163824797 0.7453301549
0.32500404 -0.1848364 1.7570001 0.6938791275 0.08655744791 0.7148703337
-0.096812055 -0.0014237066 1.6240001 -0.1802791953 0.8065299392 0.5630354285
0.46538714 -0.28488007 1.5790004 0.02107149549 0.1478535384 0.98878479
-0.01494366 -0.21585287 1.8940001 -0.3135481775 0.7311642766 0.6058765054
0.1470284 -0.33768061 1.8430001 -0.1567014009 -0.2234007269 0.9620482326
0.42174679 -0.0029596267 1.6880001 0.9769055843 -0.03984926268 0.209922567
0.21442915 0.27615875 1.853 -0.4191427827 0.3152359724 -0.8514373899
-0.25432363 0.29187477 1.9470001 -0.9902059436 -0.1149867326 -0.07918450236
0.090145878 0.28941572 1.8040001 -0.132851094 0.8825796247 0.4510031044
0.16472058 -0.09454377 1.853 -0.2795850039 0.8111745715 0.5136419535
0.30342749 -0.39161575 1.705 0.4185917974 -0.125026226 0.8995273113
0.24798883 -0.3173025 1.7570001 0.7106093764 -0.5998240709 0.3677572608
-0.083486713 0.084833272 1.5360001 0.2858919799 0.1941553205 0.9383866191
0.30553696 -0.095847063 1.785 0.4072522223 -0.4715226293 0.782184124
0.46348226 -0.024545791 1.6470001 -0.1462068409 -0.09193052351 0.9849732518
0.47786045 -0.23463808 1.6320001 -0.2389506549 -0.2684983313 0.9331726432
0.35236594 -0.062133163 1.427 -0.286367476 0.7688592076 0.5717072487
0.29725313 -0.25700009 1.766 0.7216107845 -0.6454399228 0.2503700852
0.36446714 0.2254436 2.1430001 0.4699673653 0.8815773129 -0.04418275505
0.12531461 0.11551599 1.5047143 -0.0602395609 0.8873850703 0.4570764899
0.19018143 -0.48584163 1.8230001 0.9359068871 0.253726989 0.2443377078
0.4069728 -0.11389434 1.6550001 0.8237498999 0.2038068771 0.5290546417
0.244519 -0.059132043 1.8230001 -0.06514015049 0.7901103497 0.6094936132
0.21677248 0.32601216 1.9470001 -0.4786085784 0.8530082107 -0.2081124485
0.18356435 -0.31352141 1.853 0.493065685 -0.07771235704 0.8665142655
-0.01347086 0.023789227 1.6348002 -0.3580646217 0.883942008 0.3007262349
0.2662203 0.2978504 1.8040003 -0.4660488069 0.2672235668 -0.8434394598
0.29165646 -0.02806736 1.3920001 -0.05949161574 0.6670663953 0.7426190972
0.49422696 -0.46506903 1.6630001 0.8437004685 -0.4876168966 0.22449781
0.18571307 0.042075615 1.6550001 -0.003990020603 0.8795756102 0.4757423699
0.37286624 -0.095745735 1.7336668 0.6792200804 -0.4833114743 0.5523315072
0.42075792 -0.3173393 1.6160001 0.2600263059 0.3358955681 0.9052957892
0.20574053 -0.3954179 1.7570001 0.779051125 -0.1202779189 0.6153149605
-0.12614182 0.25784871 2.1160002 0.001730573829 0.9999343753 -0.01132514514
0.49900919 -0.31535104 1.6240001 -0.5670912862 0.4443536699 0.6935108304
-0.016969636 0.12531422 1.4890002 0.1298233122 0.04189089313 0.9906518459
0.086014152 0.13743767 1.4770001 -0.07578192651 0.6762769222 0.7327391505
0.41581586 -0.45480374 1.6960001 0.6864891052 -0.3276607692 0.6491310596
-0.040972769 -0.05918289 1.7310001 -0.1732679158 0.7129842639 0.6794348359
0.25871575 -0.20602894 1.794 0.7870780826 0.001958316891 0.6168502569
-0.022690326 -0.10719223 1.7850001 -0.4961341321 0.631056726 0.596337378
-0.19499905 -0.014340954 1.6355001 0.5195780993 0.4245117307 0.7415041327
0.38369203 -0.15542905 1.7130001 0.6920929551 0.1979955286 0.6941218376
0.21546538 -0.048754942 1.794 -0.08900380135 0.8954622746 0.4361486137
-0.12468104 -0.068606429 1.6960001 -0.312199086 0.6115662456 0.7269927263
-0.1297528 -0.23180556 1.6630001 0.1515230834 0.8726189733 -0.4643026292
0.034652881 0.018770309 1.6470001 -0.08593711257 0.8149080276 0.5731838346
0.28926319 0.074062556 1.5940001 -0.6279963255 0.2215153128 0.7460238338
0.13068645 -0.18160325 1.9360001 0.4658947289 -0.1635040343 0.8696025014
0.097542316 0.17101575 1.4450001 0.2773612142 0.2167860419 0.9359885454
0.036267702 -0.22451434 1.9700001 0.1913095117 0.7267298698 0.6597456336
0.065490507 0.048406024 1.6240002 -0.0953764841 0.7926622629 0.6021543145
0.33229494 0.39584568 1.8430001 -0.6513256431 0.5663395524 -0.5050093532
-0.014868267 -0.032710187 1.6960001 -0.242803216 0.6540920734 0.7163868546
0.21626402 0.097087324 1.5275002 0.2115223408 0.8662450314 0.4526343346
0.34048331 -0.22451083 1.6960001 0.7982630134 -0.5790705085 0.1656910181
-0.1467277 0.082446992 1.5940001 0.5953276157 -0.1703061163 0.7852266431
0.44896054 -0.24593627 1.5790001 -0.01260204427 -0.324696511 0.9457343221
0.22676122 -0.0015017299 1.7130001 0.03335690126 0.8113359809 0.5836277008
-0.083819844 -0.16289519 1.8040003 0.005251780618 0.7298823595 0.6835525632
0.058515746 -0.086982869 1.8040001 -0.2020214945 0.7425470948 0.6386009455
0.41550055 -0.38780051 1.6630001 -0.312137723 0.7627001405 0.5664438009
0.01784192 0.39995638 1.6960001 0.4000718594 0.527443707 0.7494969368
-0.22369991 -0.28283897 2.9330001 0.8891680241 0.332603246 0.3142535388
0.097963996 -0.38023314 1.8940001 0.8011201024 0.1428876519 0.581196785
0.13486816 0.08481399 1.5860001 -0.1561863273 0.8685437441 0.4703589976
0.22501925 0.014837307 1.4103124 0.4360575974 -0.2826706171 0.8543717861
0.20415376 -0.10289349 1.863 0.06245023385 0.6842243075 0.7265927792
-0.026425714 -0.35208279 1.7326 0.2055452466 -0.4820097983 -0.8517145514
0.061570931 0.36642212 1.7130001 0.3024974763 0.718570888 0.6262197495
0.16704226 -0.14689647 1.9150001 0.254797399 0.35513708 0.8994197845
0.085344896 -0.15641031 1.8940001 -0.3643827438 0.6643247008 0.6526085734
0.2761282 -0.13592967 1.7939999 0.7849521637 -0.3794132173 0.4897915125
0.043102194 0.062567696 1.5860001 -0.2409851551 0.8910771608 0.3845875859
-0.097061314 -0.10417577 1.7390002 -0.3503418267 0.6619793177 0.6626039743
0.47473252 -0.49436983 1.6800002 0.2061269134 -0.9431794882 0.260622561
0.0030034599 0.47304493 1.7130001 0.919936657 -0.1824255288 0.3470409513
0.28492367 -0.17593649 1.7760001 0.3639982641 0.07714557648 0.9281992316
0.21364455 0.1432973 1.4860001 -0.4287210107 0.4527187049 0.7818210125
0.23493004 -0.19497593 1.8230001 0.5167362094 -0.03089252859 0.8555871248
-0.23577775 0.26566505 1.8940001 -0.7101686597 -0.03666162863 -0.7030763626
-0.014019215 0.082112543 1.5230001 -0.2255761772 0.6962736249 0.6814091802
-0.12314975 0.2561515 1.8730001 0.01777082309 0.5158705711 -0.8564822078
0.40832224 -0.21715698 1.5940001 0.4883036911 0.01737019606 0.8725008965
0.14442432 -0.036493126 1.7659999 -0.1758886725 0.723905623 0.6671010256
0.37245336 0.10437483 1.6710002 -0.6953469515 -0.5232921839 0.4926031828
0.038924001 0.33163247 1.7760001 0.4309511185 0.7091091275 0.558072865
0.33193538 -0.22257383 1.7570001 0.7693617344 -0.3334673047 0.5448688865
0.208919 -0.47402653 1.748 0.7791067362 0.1753122211 0.6018790007
0.31632325 -0.052100301 1.4150001 0.1616958678 0.7972894907 0.5815358162
0.27494416 -0.020794095 1.7570001 -0.102932632 0.8872303963 0.4496966302
-0.073495351 0.24988419 1.863 0.142976284 -0.03561201692 -0.9890851974
0.45265719 0.01025437 1.6710001 -0.6719455719 -0.5546600819 0.4907559156
0.034454226 0.33874908 1.7390001 0.1476244628 0.7570046782 0.6365147233
-0.21738528 0.31635743 2.016 -0.4886152744 0.8270616531 0.2778922319
0.23481458 -0.143797 1.8430001 0.7767766118 -0.4148466885 0.4738357365
0.25224388 0.025072666 1.6826668 0.1028224751 0.7839751244 0.6122177243
0.33908063 0.075828157 1.6320001 -0.1868356764 -0.1020845398 0.9770727754
-0.25504294 0.33593032 1.8830001 -0.5825927854 0.003391892882 -0.8127571344
0.042583644 -0.12132322 1.8330001 -0.3140447438 0.6982348561 0.6433070898
-0.14521809 -0.24345385 1.6240002 -0.2775057554 0.3468937278 -0.8959103227
-0.054493602 -0.12559478 1.7760001 -0.4556627572 0.652302444 0.6057003736
0.17487264 -0.20442858 1.8730001 0.6367049217 -0.4760801494 0.606592536
-0.093822874 0.045638263 1.5640001 0.1661389023 0.6543035507 0.7377565503
0.3886719 -0.3402659 1.6240001 0.5234639645 0.2378469706 0.8181774616
0.08846619 -0.23869179 1.904 0.8165981174 -0.3194830716 0.4807266295
0.077054098 -0.19518106 1.9360001 -0.04502413049 0.7192219496 0.6933199763
0.36677849 0.39554542 1.8230001 0.4981189668 0.3564459085 -0.7904579639
0.06279739 -0.2936202 1.9360002 0.7215526104 -0.1370548606 0.678658843
0.19533229 0.11746062 1.5055002 -0.03328449279 0.8062978387 0.5905725956
-0.076175317 -0.021973649 1.6710001 -0.3401942551 0.8005321622 0.4933722019
0.18268844 -0.24428453 1.863 0.5209773779 -0.0270288866 0.8531424403
0.13807938 -0.44185403 1.853 0.5903351903 0.2494434863 0.7676472664
-0.14561205 -0.05244378 1.6710001 -0.1808552146 0.7349252701 0.6535871625
0.31606287 -0.00122032 1.3920001 -0.353017956 0.1249234229 0.9272391796
0.47768632 0.1868083 2.2120001 -0.07697566599 0.8658643961 0.4943213463
-0.1954993 0.25043297 1.8430001 -0.1642503887 -0.479803741 -0.8618643284
0.24272113 -0.44564843 1.7326 0.4556034207 0.2556781173 0.8526747227
0.25623885 -0.1187968 1.8230001 0.6443812847 -0.4684534073 0.6044205427
0.047213759 0.12196888 1.4960001 -0.01241088472 0.699349165 0.7146724463
0.055265065 -0.26078203 1.9700001 0.8548204303 -0.2343979329 0.4629683495
0.37165213 -0.27346894 1.6470001 0.6866040826 -0.009028024971 0.726975441
0.13498211 -0.091595009 1.8330001 -0.2260026187 0.8219307065 0.5228314996
0.14445536 -0.20423004 1.8940002 0.4170226455 -0.4966269433 0.7612186074
0.21575205 -0.24132268 1.8230001 0.4168717861 0.01888178103 0.9087691903
0.28391552 -0.058206867 1.4330001 0.01212137938 0.8006476164 0.5990128517
0.21721959 0.31194693 1.863 -0.6612595916 0.5170742869 -0.5434794426
0.20729397 -0.33263451 1.8330001 0.8042672873 -0.1644858122 0.5710503459
0.23468482 -0.38555536 1.7383336 0.498952657 -0.2710883021 0.8231387138
-0.046750877 0.017472552 1.6160001 -0.25003016 0.8629020452 0.4391866922
0.35386473 -0.45050848 1.6960001 -0.225085035 0.622138679 0.7498534322
0.23286676 0.047153704 1.6550001 -0.08955455571 0.8599461913 0.5024664402
0.1198491 0.1997485 1.47 -0.0008670380339 -0.7823284268 0.6228654981
0.0069519668 0.05283495 1.5860001 -0.3494782448 0.8443009257 0.4062276781
-0.024103951 -0.16551378 1.8330001 -0.4261325002 0.6832361817 0.5929581523
0.32755348 -0.11655684 1.7659999 0.702663064 -0.3028890491 0.6438344717
0.11502606 -0.39360842 1.863 0.7685758471 0.09175561368 0.6331445575
0.34128457 0.33813909 1.794 -0.4505932331 0.5192263126 -0.7262023091
0.043830048 -0.043830045 1.7390002 -0.2020304948 0.6378626227 0.7431789637
0.21087165 -0.14113456 1.8940001 0.6863662601 -0.3490261436 0.6380298734
0.34781224 -0.075722963 1.4640001 -0.1441498101 0.8729658127 0.4659951925
0.42204136 -0.11497921 1.5430001 -0.3450635076 0.7951438427 0.4986756742
0.36523774 0.016615462 1.6850001 -0.3192975223 0.8310326934 0.4554489553
0.23493004 -0.27488407 1.8230001 0.3589414358 0.01002739836 0.9333062172
0.055444606 0.18558542 1.464 0.2588732541 -0.3051846921 0.9164316058
0.15352099 -0.1304103 1.8830001 -0.2712843716 0.6730995178 0.687998414
-0.15814628 -0.29743108 1.6550001 0.06108584628 -0.6638870239 -0.7453338504
0.46463332 -0.42151538 1.6960001 -0.3743943274 0.4233438969 0.8249902129
0.095326103 0.28436261 1.8430001 -0.1938176155 0.9074499011 0.3727859855
0.0049603553 0.15429315 1.4890002 0.3921788633 -0.2064269781 0.896428287
-0.17663167 0.27402669 1.8830003 0.7299749851 -0.09013304859 -0.6775046587
0.28152046 -0.2437747 1.794 0.5718604326 0.07738128304 0.8166931868
-0.17283659 0.072251357 1.6160001 0.6970163584 -0.3490562141 0.6263608336
0.38634261 -0.17932129 1.6630001 0.6206775308 -0.7660490274 0.1671175361
0.18842021 0.072251357 1.6160001 0.006982864346 0.870824039 0.49154526
0.049401045 0.10013725 1.5230001 -0.1905175149 0.824518919 0.5327960253
0.17739613 -0.38675553 1.8230001 0.8422479033 -0.4590372145 0.2826717496
-0.035157841 -0.01025437 1.6710001 -0.2022384554 0.7748202682 0.598960042
0.46215323 -0.062689558 1.6630001 0.3096292913 -0.09103263915 0.9464896917
0.054255147 0.00405546 1.6839999 -0.07795814425 0.8509908915 0.5193621516
0.2159493 -0.3380076 1.7850001 0.733703196 -0.6468788385 0.2079119831
0.49725935 -0.47600895 1.6160001 0.8522250652 -0.387847662 0.3511219621
0.01502256 -0.19863163 1.9039999 -0.2881438732 0.8139303327 0.5044705272
0.40006158 -0.27477539 1.6240001 0.58907938 0.102899462 0.8014968634
0.15352099 -0.4770706 1.8830001 0.7648227811 0.3685314357 0.5284228325
0.42198613 0.079591691 1.7130001 -0.713583231 -0.529411912 0.4588267505
0.40303826 0.032329272 1.6390001 -0.408126533 -0.3687779307 0.835126102
0.14867127 0.01051211 1.7130001 -0.3451138735 0.7945578694 0.4995739758
-0.16007495 -0.12348639 1.7390001 -0.1645003557 0.7825646996 0.6004433036
-0.01485687 0.25531808 1.8830003 0.1416800022 0.3066267371 -0.941226244
-0.096927769 -0.043654494 1.6880001 -0.4204364717 0.672018826 0.6096096635
-0.13092139 0.10198088 1.572 0.6609170437 -0.146163255 0.7360876203
0.17382231 -0.27648252 1.863 0.08431971073 0.03918783367 0.9956678748
0.03281416 -0.15302446 1.853 -0.3506686985 0.5728728771 0.7408428788
0.0054072798 0.45483568 1.6826668 0.8300517201 -0.10087502 0.5484873652
-0.15790695 0.015371474 1.5940002 0.2028939426 0.5586897135 0.8041765094
0.29095688 -0.039318498 1.794 -0.1323487312 0.7977129817 0.5883347988
0.12575871 -0.26866633 1.863 0.5085548162 -0.3024744093 0.8061521053
-0.21534176 -0.051271845 1.6710001 0.4100167751 0.5732527375 0.7094135284
0.07434389 0.076353997 1.5783639 -0.2093302459 0.8506467938 0.4822664559
0.39103541 -0.18287967 1.6960001 0.870985508 -0.2895255685 0.3969372511
0.15494382 0.15778422 1.4580001 -0.05090432614 0.5821110606 0.811514318
0.12466901 0.058084425 1.6160001 -0.1985048503 0.8068801761 0.5563634038
-0.15449409 -0.031765141 1.6470002 -0.2324055582 0.7083518505 0.6665022969
0.067681298 -0.32850191 1.8830001 0.7790435553 0.04633161053 0.6252555847
0.42536411 -0.15420531 1.6470001 0.5931133628 0.01533844694 0.8049728274
0.096360564 -0.12793635 1.863 -0.2901894152 0.7748219967 0.5616413355
0.39809287 -0.42798722 1.705 -0.3760174811 0.5101116896 0.7735611796
-0.043117974 -0.28993121 1.6960001 0.3442151248 -0.7459241152 -0.5701869726
0.26174286 -0.079169139 1.8430001 0.4067104757 0.5377513766 0.7385188341
0.063835353 0.30672109 1.7760001 0.1732784659 0.7947980762 0.5816103816
0.37530747 -0.21532086 1.6352668 0.6787193418 -0.21634987 0.7018068433
0.28349793 -0.36570731 1.705 0.6379147172 0.08205282688 0.7657232881
0.14473854 0.10280494 1.5430001 0.09562717378 0.9406966567 0.325492382
-0.1242469 -0.016115544 1.6337501 -0.1698031425 0.7513459921 0.6376881003
0.32280093 0.071267739 1.5940001 -0.3637859225 0.5334490538 0.7636045814
0.46538946 -0.20496659 1.637091 -0.07609026879 -0.2415514141 0.9674001932
0.48660085 -0.45439562 1.7220001 -0.2106041163 0.1755903512 0.9616724849
0.42424789 0.026728107 1.6630001 -0.7089523673 -0.2667119503 0.6528792381
-0.072854504 -0.31818092 1.6960001 0.177514568 -0.7689012885 -0.6142306924
-0.21459924 0.30869275 1.8830001 0.798398912 -0.3394003808 -0.4973596334
0.18585332 0.028249705 1.6960001 0.04289084673 0.8961438537 0.441686064
0.23796239 -0.030508 1.3920001 0.02676535025 0.6296439171 0.7764226794
0.27496561 -0.061986465 1.8130001 0.2481478453 0.62901932 0.7367206812
-0.02467992 0.047988731 1.5640001 -0.2302678674 0.8158581853 0.5304263234
0.49422696 -0.38294086 1.6630001 0.4594896734 0.4738039374 0.7512516975
0.35135311 -0.35572678 1.6630001 0.6033905149 0.05478886142 0.7955614924
0.37710306 -0.48338032 1.7220001 0.56441468 0.09482242167 0.8200272918
0.12120969 -0.23079653 1.8940001 0.3180555701 -0.3650429547 0.8749767542
0.2305721 0.068472929 1.5940001 0.1498454362 0.9457290173 0.2883452773
0.29445922 -0.31538522 1.705 0.4968504012 -0.171647951 0.850691855
0.30556276 -0.4567427 1.705 0.06135596335 0.4085462391 0.9106730819
0.25505844 0.02374051 1.3835716 0.6134284139 -0.5368317366 0.579238534
0.18401058 -0.053997409 1.794 -0.1631480008 0.8205759525 0.5477570891
0.26488328 -0.014719279 1.3810003 0.08322267234 0.4086210132 0.9089019895
-0.063908122 0.22709787 1.8830003 0.02289586887 0.123526372 -0.9920771122
0.1051921 -0.024392374 1.7390002 -0.1315408349 0.8436501622 0.5205299258
0.32412821 -0.26465514 1.6960001 0.7565248013 -0.1206043214 0.642747879
0.3353627 0.38463399 1.8130001 -0.5510289073 0.3462047279 -0.7592821717
0.23459494 -0.41695705 1.7220001 0.5086019039 -0.3193468153 0.7995884418
-0.22198515 -0.023214133 1.6550001 0.5052710772 0.2950091362 0.8109689951
0.33018336 -0.065723702 1.7850001 0.4159193337 -0.3971119821 0.818115592
0.37623465 -0.072206646 1.4450001 -0.5192387104 0.6721490026 0.5278322697
0.19476274 -0.42637244 1.766 0.8385906219 -0.1688517928 0.5179332495
-0.19211361 0.24137351 1.8730001 0.5880600214 0.6972293854 -0.4099470675
0.36658987 -0.40286192 1.6550001 0.2199665159 0.4320965409 0.8745898008
0.024392374 -0.07732901 1.7760001 -0.08435955644 0.8227456808 0.5621147156
0.10459457 0.018457865 1.6710001 -0.2334291935 0.8101566434 0.5377332568
0.34966287 -0.23649397 1.6550001 0.7474816442 -0.02327648737 0.663874507
0.29669896 -0.26623526 1.7130002 0.6514471769 -0.2974842191 0.6979395747
0.4740724 -0.25480303 1.6032858 -0.6829138398 -0.5564326644 0.4732984006
0.17238423 -0.43491432 1.8040001 0.9337896705 0.2379076928 0.2672765851
0.24727769 -0.34667665 1.7390001 0.616781354 -0.3031253219 0.7264267206
0.16551378 -0.41619483 1.8330001 0.9086685777 -0.01452908292 0.4172652364
0.36381841 -0.12529844 1.7220001 0.8154895902 -0.1579443365 0.5568037033
-0.014233559 -0.13442807 1.804 -0.5538313985 0.4642729759 0.6911739111
0.31766453 -0.2347275 1.7850001 0.6402072906 -0.2286879718 0.7333733439
0.36529911 0.046203841 1.6470002 -0.2755648196 0.6757678986 0.6836678982
0.23212351 0.044431511 1.4210001 0.1531133205 -0.07996309549 0.9849681258
0.15466416 0.043816678 1.6550001 -0.1088341698 0.8559892178 0.5054083467
-0.14368585 0.046234172 1.5790001 0.4133721888 0.3140922487 0.8546750546
0.025135785 0.083037861 1.5360001 -0.1481891423 0.7986391783 0.5832798481
0.20581064 -0.011891282 1.7390001 0.1337485313 0.7268233895 0.6736758351
-0.079447038 0.11580416 1.536 0.6412251592 -0.1436062604 0.7537953854
0.0559664 0.4992792 1.6800001 -0.3106710613 0.4535064697 0.8353534341
0.078451149 -0.28209031 1.904 0.8960183859 -0.1225227043 0.4267776906
0.26580623 -0.4745467 1.7129999 0.319635123 0.05760784075 0.9457879066
-0.044411309 0.13512377 1.5090001 0.6103413701 -0.1067968234 0.7849062681
0.28474352 -0.41627857 1.705 0.4040988684 0.1114806682 0.9078965783
0.45412648 -0.36562258 1.6550001 -0.2987137437 0.7566593885 0.5815811753
0.08521989 0.093336068 1.5430001 -0.1858062297 0.9168000817 0.353487879
-0.19619644 -0.075235151 1.6826668 0.2656534016 0.7043620944 0.6582570672
0.2221583 -0.1753031 1.8430001 0.7631648779 -0.2938560545 0.5755241513
0.21597297 -0.036382545 1.766 0.03212581947 0.853523612 0.5200628042
0.077345051 -0.22573115 1.936 0.758423686 -0.3800022304 0.5295203328
0.15511639 0.11258756 1.5159999 0.1058130115 0.8797869086 0.4634421468
0.42808071 -0.24281299 1.6010002 0.3368082643 -0.2427188009 0.9097514749
0.46498403 -0.34766495 1.6320001 -0.1513964534 0.8256049752 0.5435582399
0.42642471 -0.19287267 1.6160001 -0.394913137 -0.7086451054 0.5846928358
0.086849183 -0.066506125 1.7850001 -0.2321643829 0.7823267579 0.5779831409
0.45496893 -0.15451777 1.6320001 0.4335915446 0.1215373501 0.892875731
0.12739193 -0.058191381 1.794 -0.1455375403 0.7464286089 0.649355948
0.41607827 0.056904435 1.6860001 -0.6106293201 -0.5593106747 0.5606276393
0.46186745 0.0269049 1.705 -0.6598434448 -0.5215834379 0.5408856869
0.039363209 0.41550055 1.6630001 0.2019961178 0.1592276841 0.9663560987
