# .PCD v0.7 - Point Cloud Data file format
VERSION 0.7
FIELDS x y z normal_x normal_y normal_z
SIZE 4 4 4 4 4 4
TYPE F F F F F F
COUNT 1 1 1 1 1 1
WIDTH 512
HEIGHT 1
VIEWPOINT 0 0 0 1 0 0 0
POINTS 512
DATA ascii
0.045380652 -0.07667765 1.7850002 -0.252189666 0.8124197125 0.5257133842
-0.40408108 -0.48432413 3.2690001 -0.2082725614 0.8544026613 0.4760447443
0.49485028 0.055791944 2.7670002 -0.2972890735 0.8362853527 0.4607016444
-0.39734918 0.010739166 2.45 0.7405253053 -0.6248611212 0.2473273277
0.16437675 -0.26467443 3.1780002 -0.2029415816 0.8566329479 0.4743361175
-0.33191389 0.38364074 1.6390001 0.9714218378 0.1781699657 -0.1568280607
0.26699761 0.30259728 2.256 -0.9724023342 -0.01772280596 -0.2326361239
0.16550064 0.47658056 1.748 -0.9111000896 -0.3738093078 0.1736755818
-0.1340064 -0.48827615 1.7570001 0.6730383039 0.4123831391 0.6139703393
0.27384874 -0.42407435 1.7850001 -0.2430066913 0.2646306157 0.9332301021
-0.17566617 0.04100316 1.4770001 -0.1479662657 0.2304190397 0.9617759585
-0.1170876 0.15026242 2.2260001 0.5291447043 -0.7039222121 0.4738136828
0.19302097 0.14074445 1.529 -0.2901960909 0.04095133767 0.9560905695
0.45709398 -0.23433299 3.3000002 -0.2036834955 0.8562616706 0.4746883512
0.38948548 -0.077897094 3.0640001 -0.2083395422 0.8517713547 0.4807080328
-0.28461859 -0.30630383 3.0920002 -0.2155711502 0.8465742469 0.4866632223
-0.19452533 -0.21305154 1.804 0.3237321675 -0.08802249283 0.9420453906
0.045151837 -0.32540461 1.7760001 -0.05103459582 -0.2004150003 0.9783809781
0.2642372 -0.17602567 1.813 -0.3456245661 -0.3160201907 0.8835580945
0.12853248 0.30232289 2.0650001 -0.3568784297 0.861915946 0.3601925969
0.015850484 0.013625855 1.5860001 -0.1891943216 0.8524714708 0.4873375595
0.22451083 0.0014868267 1.6960001 -0.166822046 0.9117804766 0.3752688766
-0.27808392 0.18725249 1.5940001 -0.1458804309 -0.2952442765 0.9442191124
-0.21031584 -0.097288959 1.6320001 -0.3613809943 0.8513227105 0.3803332746
-0.030087199 -0.2954016 3.1200001 -0.2096629292 0.8090358377 0.5490923524
0.37473553 0.25194085 2.4150002 -0.5172251463 -0.803870976 0.2937168777
0.39175165 -0.048021171 2.8830001 -0.2298831791 0.8473415375 0.4787128866
0.096531525 -0.49978417 1.7760001 -0.06560620666 0.2675256431 0.9613146782
-0.11624074 -0.32154906 1.7220001 -0.01512075774 -0.2025482655 0.9791555405
0.034809511 0.13271126 1.4890002 0.02465263754 -0.1025882736 0.9944183826
-0.25315326 0.08702144 2.256 0.5918544531 -0.7133584023 0.3752706647
0.3037352 -0.25263956 3.2380002 -0.2036834955 0.8562616706 0.4746883512
-0.095820546 -0.10267039 1.7350001 -0.4116903543 0.832608521 0.3705051541
0.18839216 -0.30516416 1.7760001 -0.4111910462 -0.1381850094 0.901014328
-0.025388518 -0.20423153 1.7939999 -0.2405918986 -0.518055439 0.8208130598
0.42069304 -0.18387908 3.1780002 -0.2068564892 0.8538592458 0.4776346087
0.18161377 -0.15992855 3.0920002 -0.2083395422 0.8517713547 0.4807080328
0.12493903 -0.18548813 1.804 0.3010106385 -0.3491595089 0.887400806
-0.015096201 -0.43477052 1.7220001 -0.4043448269 -0.1404738426 0.9037545919
0.19549578 -0.058807675 1.8130001 -0.3194274008 0.9018613696 0.290881753
-0.11300584 -0.028940519 1.572 -0.4230701327 0.7888945937 0.4457094967
0.14533028 0.037729979 1.5940001 -0.1752305478 0.8384875059 0.5159776807
-0.27654743 -0.35529312 3.2080002 -0.2082725614 0.8544026613 0.4760447443
0.25916457 0.24257804 2.365 -0.2496014386 -0.8463335633 0.470551461
0.17733915 0.21689434 2.256 0.2172376513 -0.7210217118 0.6579783559
0.25655192 0.095957831 1.6240002 -0.8387796283 0.1805532873 0.5136626363
0.094708048 -0.0221972 1.6880001 -0.1218672469 0.907659173 0.4016257524
0.30747068 -0.30589792 1.794 -0.62837255 -0.1283433586 0.7672522068
-0.057268541 0.045902263 1.4959999 -0.2847724259 0.6385881305 0.7149194479
-0.25228363 0.074039757 1.5640001 0.3882492185 -0.1155071929 0.9142869711
-0.37540355 -0.35410407 3.0370002 -0.2017532587 0.8621873856 0.4646810591
0.16481246 -0.41434163 1.7570001 0.04060554504 0.1459309161 0.9884610772
-0.22387131 -0.033141069 1.5430001 0.3505281806 0.3361339271 0.874153316
-0.014759559 -0.048718117 1.684 -0.3655299842 0.8694905639 0.3322257996
-0.31909525 0.27866691 1.6470001 0.7694632411 0.07724924386 0.6340022683
-0.19433391 -0.13446285 1.7363334 -0.05565818772 0.9514172673 0.3028322756
0.1142963 0.089044787 1.516 -0.2115104645 0.609534502 0.7640228868
-0.10612489 -0.41403651 1.705 -0.02570628375 0.05656539649 0.9980679154
0.20853357 -0.13300173 1.8730001 -0.06808695942 -0.3141330779 0.9469342828
0.06777335 -0.4143416 1.7570001 -0.3978182077 -0.3388241827 0.8526070714
-0.19768132 -0.28962612 1.748 0.2827966511 -0.416139394 0.8642072082
-0.10434822 -0.24368563 1.766 -0.06376595795 -0.4143852592 0.9078649282
0.042008113 -0.16964816 1.8430001 -0.001355402987 -0.5133845806 0.8581575751
-0.12477596 -0.079073139 1.6550001 -0.3214354515 0.857626915 0.4014415741
-0.034632541 -0.34418005 1.7479999 -0.5096675754 -0.3218994737 0.7978845239
0.055352733 -0.24513353 1.804 -0.1777987331 -0.4082478881 0.8953889012
-0.035124525 -0.11271303 1.794 -0.3691503704 0.8380360603 0.4017755687
0.12540366 -0.054186765 1.7660002 -0.1273978502 0.9300922155 0.3445261419
0.19560625 -0.22377355 1.7850001 -0.1423204094 0.03179690614 0.9893097878
0.024834037 0.060616415 1.5230001 -0.1916445792 0.8321665525 0.5203567743
-0.06491366 -0.49515533 1.7220001 -0.07482219487 0.3592330813 0.9302436709
-0.17134187 -0.37589538 1.7220001 0.3643044233 0.05427356437 0.9296970963
0.024518613 -0.49650192 1.748 -0.1383069009 0.2003459781 0.9699137807
-0.045334186 -0.028333865 1.6160001 -0.2866912782 0.8692971468 0.4026544094
0.20594022 0.073765531 1.5640001 -0.3343621492 0.6788395047 0.6537422538
0.11735306 -0.35515553 1.766 0.1156019419 -0.1015956551 0.9880862832
0.2454807 -0.35446787 1.7760001 -0.1656851023 -0.2326332331 0.9583476782
-0.01393374 -0.27403024 1.7659999 -0.3867476583 -0.2013261616 0.8999411464
0.10123659 -0.088381149 1.8330001 -0.07154214382 0.9246327281 0.3740803003
-0.048479665 0.17452681 2.2120001 0.4807147682 -0.7563453913 0.4436834157
0.12639683 -0.26510784 1.7760003 0.1468564719 -0.2287376672 0.9623472691
-0.039786641 0.1090924 1.4640001 -0.03947281092 0.03070183471 0.9987488389
0.15891074 0.0014578967 1.6630001 -0.2536581755 0.839050591 0.4813020527
0.18661779 -0.14708012 1.8040001 -0.2063999176 -0.5297148824 0.8226792812
0.21355599 0.034168959 1.6240001 -0.2128490061 0.8434233665 0.4932872355
0.081151277 0.0085422397 1.6240001 -0.177870065 0.8477595448 0.4996658862
-0.11990433 0.080375433 1.503 0.328664273 -0.5219157934 0.7871363759
0.29885653 -0.24132267 1.8230001 -0.5066108704 -0.4246948659 0.7503197193
-0.11542216 0.0069451723 1.5089999 -0.3096253276 0.6649383307 0.6796978712
-0.053930692 0.0062610656 1.5535001 -0.3499240577 0.7744715214 0.5270171165
0.19308409 -0.032180678 1.748 -0.2034074068 0.8593914509 0.4691181183
0.083637506 0.047988731 1.5640001 -0.2482262254 0.7985050082 0.5484281778
0.097511634 -0.2813907 3.1780002 -0.2042073309 0.8303329945 0.5185040832
0.21443586 -0.45590621 1.7760003 -0.1713408232 0.1716032177 0.9701518416
-0.17101838 -0.059786912 1.5860001 -0.2567366064 0.8465746641 0.4662592709
0.15744348 0.42599428 1.705 -0.8744205832 -0.2632605731 0.4075321853
0.044785392 -0.048811048 1.7220001 -0.1659539193 0.9059820771 0.3894300759
0.24568145 -0.27384877 1.7850001 -0.04129873961 -0.02896402776 0.998726964
-0.13234159 -0.13856944 1.7760001 -0.3629927039 0.8603302836 0.3578660488
-0.21034038 -0.15024313 1.8040001 0.7158312798 0.2545066774 0.6502398849
-0.27930513 0.25123426 1.6010001 0.1267412603 -0.4258359373 0.8958796859
-0.02744142 -0.080799736 1.7390001 -0.2697630525 0.8753322363 0.4012746811
-0.085827418 -0.19867459 1.8130001 0.3321987092 -0.7551886439 0.5650965571
0.14864409 -0.47658053 1.748 -0.1061355025 0.4627462626 0.8801143169
-0.27330172 -0.33403543 3.1490002 -0.2096629292 0.8090358377 0.5490923524
0.023823854 -0.016604505 1.6470001 -0.2512991428 0.8752528429 0.4132567942
-0.2480616 0.13505577 1.572 -0.2463350445 -0.2823278308 0.9271515608
0.013791719 -0.38616812 1.748 -0.478274554 -0.4912162721 0.7279835343
0.25029886 -0.25029886 3.2080002 -0.2029415816 0.8566329479 0.4743361175
-0.16521099 -0.022495441 1.5272001 -0.1533315778 0.7254927754 0.6709319353
-0.16553746 -0.1108545 1.6860001 -0.273955375 0.8819031715 0.3836603761
0.22484134 -0.07240653 1.863 0.2578065395 0.2578605711 0.9311518073
0.30344588 -0.37621099 1.766 -0.1555830389 -0.3929827213 0.9062883258
-0.072167203 -0.069221601 1.6800001 -0.3022699654 0.8705259562 0.3883522153
-0.34183687 0.3536754 1.6880001 0.9705357552 0.1227759644 0.2073317766
-0.30752063 0.33314738 1.6240001 -0.1491157115 -0.444298476 0.883381784
-0.22587992 0.024563525 1.55 0.4509576857 -0.04139779881 0.891584754
-0.06501811 -0.29531795 1.748 -0.4076017141 -0.4061107039 0.8178844452
0.1347633 0.14273745 1.516 -0.3271715343 -0.3943998814 0.8587243557
-0.055424619 -0.39314818 1.7220001 -0.1582660824 -0.3578837514 0.920255959
0.17405428 -0.35735038 1.7570001 -0.1231750995 -0.193618685 0.9733137488
-0.15326852 -0.43249035 1.7310001 0.5357943773 0.07323645055 0.8411663175
0.14491694 -0.026280275 1.7130001 -0.188432768 0.8544331193 0.4841870666
-0.16410848 -0.24925913 1.766 0.4303775728 -0.6647399068 0.6106520891
0.22488432 -0.40509978 1.7570001 -0.1085628793 0.01555488352 0.9939678907
-0.39522237 0.02522696 2.398 0.5121175051 -0.7617415786 0.3968442976
0.15432464 0.073182873 1.5500001 -0.2261188924 0.7619692683 0.6068550348
0.11552276 -0.43590587 1.7570001 -0.1475742161 -0.0607893765 0.9871810675
0.086471178 0.13861531 1.4870001 -0.09806995839 -0.05676883832 0.9935590625
-0.095388353 -0.049829733 1.6240001 -0.3698970079 0.8261322975 0.4250665605
0.25145957 -0.22615544 1.8040001 -0.05894197524 -0.05982301012 0.9964672923
0.2615079 0.04597941 1.6390001 -0.5494633317 0.6072079539 0.5739238262
0.064841777 -0.1945253 1.804 0.03100420721 -0.2035192847 0.9785799384
-0.11513263 -0.46403456 1.7130002 0.4306050241 0.1155452803 0.8951137066
0.062505454 -0.46193057 1.7390001 -0.3330616355 0.01159077231 0.9428338408
0.09497457 -0.30516413 1.7760004 0.09957885742 -0.10766197 0.9891880155
-0.054186765 -0.2353254 1.7660002 -0.2144871056 -0.3001442254 0.9294669032
-0.064274043 -0.44361106 1.7130001 -0.2597749829 -0.1328243315 0.9564908147
0.31628993 -0.35205138 1.8130001 -0.748583734 -0.001866919105 0.6630376577
0.2317719 0.11656843 1.557 -0.6252913475 0.3765490651 0.6835360527
-0.17489851 -0.17593648 1.7760001 0.7354379296 0.2269851118 0.6384425163
0.065309472 0.085536808 1.5050001 -0.2533257902 0.7073170543 0.6599459648
-0.01413888 0.031644158 1.536 -0.4579653144 0.7510479689 0.4755993187
0.30049327 -0.2568984 1.7760001 0.1708890945 0.04051092267 0.9844570756
-0.0060916641 0.078756511 1.4890002 -0.3493537307 0.4710857272 0.8099569082
-0.13263352 -0.27593872 1.739 0.0105361836 -0.2861908972 0.9581146836
-0.1832961 -0.34348765 1.7570001 0.6580494642 -0.1018733382 0.7460514307
-0.0150962 -0.48458806 1.7220001 -0.370521158 0.2470798194 0.8953578472
-0.14112844 -0.11988329 1.7310001 -0.3919567168 0.8072282076 0.4413078129
-0.095106058 -0.36532804 1.7220001 -0.06913926452 -0.2728610039 0.9595658779
0.014304571 -0.10013199 1.8130001 -0.1615727544 0.8411287665 0.516136229
0.069313653 -0.3665922 1.7570001 0.07971928269 -0.3712295294 0.9251126647
0.22565889 -0.15679047 1.8330001 0.01446644496 -0.8847544789 0.4658328891
0.14642525 -0.22332644 1.785 0.4707491994 -0.07959698141 0.8786692023
0.087247618 -0.15672258 1.8430001 0.149658218 -0.6634739637 0.733078897
-0.085632801 -0.12299984 1.7760001 -0.3963702321 0.8167428374 0.4193110764
0.017396573 -0.1881993 1.8040001 0.05561438203 -0.1615321189 0.98529917
0.075474866 -0.054937486 1.7570001 -0.1250010133 0.9234650135 0.3627494276
0.0047182203 -0.24251649 1.794 -0.2532753646 -0.3787770867 0.8901569843
-0.21273018 -0.079252422 1.5860001 -0.3118344545 0.7993241549 0.5136536956
0.22280483 -0.1819136 1.794 0.0653873384 -0.4850490391 0.8720389605
0.035810079 -0.27558193 1.7760001 0.01737008989 -0.2204278558 0.9752486348
-0.075405605 0.085806377 1.4829999 0.1142228991 -0.03643826395 0.9927866459
-0.20068303 0.00398708 1.516 0.7498131394 0.4532985389 0.4819757938
0.14312635 -0.071958549 1.8040001 -0.1027291119 0.8603352904 0.4992694259
-0.16477008 -0.085014164 1.6343335 -0.2702189088 0.8822388053 0.3855339885
0.15096638 0.47681463 1.705 -0.8777824044 -0.2564950883 0.4046088457
0.14543286 -0.14862919 1.8230001 0.1332369447 -0.5385170579 0.8320139647
0.14479727 -0.31606287 1.7760001 0.1412092596 -0.1911597997 0.9713484645
0.097509876 -0.23433825 1.794 0.3854075968 -0.1340770572 0.9129536152
-0.12390222 -0.098626167 1.6960001 -0.3450751305 0.8369926214 0.4246958494
0.025916897 -0.43448913 1.7390002 -0.219697088 -0.1183644608 0.9683610201
0.12447263 0.01144576 1.6320001 -0.09396478534 0.8838023543 0.4583274126
-0.10403501 0.044213474 1.4833748 -0.154419139 0.44498083 0.8821262717
0.003406025 -0.31552178 1.766 -0.4230144918 -0.2029954195 0.8830920458
0.26535383 -0.31453484 1.785 -0.1470234543 -0.1528042108 0.9772589207
-0.0046708798 -0.084594823 1.7760001 -0.3956484497 0.8445490003 0.3608313501
-0.026417473 -0.0041711801 1.5860001 -0.3467611372 0.8056722283 0.4802592397
0.059132043 -0.091095306 1.8230001 -0.2811867893 0.8876541257 0.3646973372
0.09593714 -0.067627817 1.794 -0.03426356986 0.8734820485 0.4856491983
0.17386055 -0.061759412 1.7760001 -0.2645376325 0.8731780648 0.409365207
0.042314071 0.03958413 1.557 -0.2194651663 0.7711265087 0.5976612568
-0.0065267831 0.12139817 1.489 -0.1766857058 -0.3048447669 0.9358695745
0.18385015 -0.011459495 1.705 -0.2381412983 0.8854317069 0.3991232812
-0.045557734 -0.046138085 1.6550001 -0.3210771084 0.8333586454 0.4499143064
0.24053805 0.08620438 1.5860001 -0.7323593497 0.4172442555 0.538105011
0.41903964 -0.21373835 3.2080002 -0.2048283219 0.8560230136 0.4746260941
0.025117084 -0.034477547 1.6853334 -0.2624891996 0.879322052 0.3973564506
-0.20655231 -0.11279807 1.6710001 -0.249852702 0.8549948931 0.4544858038
0.1756534 -0.26510784 1.7760003 -0.3093658686 -0.2038668543 0.9288331866
0.10527715 -0.39478931 1.7660002 0.128994137 -0.1409045309 0.9815836549
-0.2960889 0.29325554 1.6160001 0.2754855752 0.002648204565 0.9613015652
0.1048055 0.02934554 1.5940002 -0.1252392381 0.8569175601 0.500007391
0.1649345 0.10463535 1.5257691 -0.3663598001 0.3238244653 0.8723062873
-0.13316917 -0.063751198 1.6160001 -0.3573313355 0.8337892294 0.4208441675
0.16468833 -0.1849093 1.7939999 0.1000665724 -0.5197164416 0.8484583497
-0.15410046 0.0085247066 1.4960001 -0.1483768076 0.6479648352 0.7470782399
-0.070910059 -0.018075114 1.5860001 -0.3041124046 0.8382505178 0.4526054263
0.18492348 0.047046021 1.594 -0.1278793216 0.834331274 0.5362258554
0.005159534 -0.057968885 1.7310002 -0.3094888926 0.8568732738 0.4122921228
0.23407584 0.017894229 1.6550001 -0.2200528681 0.812320292 0.5401040912
-0.093786962 -0.008567079 1.5430001 -0.2953549922 0.8247714639 0.4822006822
-0.15416534 0.13465074 2.2260001 0.5284755826 -0.715506196 0.4569074512
0.054498855 0.0209611 1.5940002 -0.2372339368 0.8332568407 0.4994027913
0.23824906 -0.01214008 1.7310001 -0.09966345131 0.8590582013 0.5020818114
-0.15358801 -0.31477132 1.7345557 0.2948693037 -0.2483080029 0.9227107763
0.066015191 -0.011607067 1.6550001 -0.1606845856 0.8601912856 0.4839952588
-0.13265282 -0.37526563 1.7130002 0.1298431605 -0.09124869108 0.98732692
-0.18553723 -0.045817621 1.5523334 0.03488178551 0.8313578367 0.554641664
0.22586001 -0.31244838 1.7850002 -0.05920740217 -0.1586713195 0.9855546355
0.19504018 0.014301564 1.655 -0.084257707 0.8232108951 0.5614485741
-0.06491366 -0.082525894 1.7220001 -0.3980038166 0.810761869 0.4292529821
0.081782475 -0.27208403 1.794 0.3793175519 -0.3057145178 0.8733022809
-0.01488054 -0.39573613 1.7220001 -0.3700385988 -0.1772650182 0.9119476676
0.084538721 -0.037740499 1.7220001 -0.1570008993 0.8992612958 0.4082644284
-0.0028333867 -0.0099168532 1.6160001 -0.319927156 0.8406184316 0.4370437562
0.1646754 0.023253875 1.6240001 -0.3183140159 0.8166561723 0.481403023
-0.05545092 -0.10011972 1.7570001 -0.3591015339 0.8163074851 0.4524248242
-0.11402365 -0.21625175 1.794 0.1752129495 -0.8929267526 0.4147073627
-0.24542809 -0.0095977467 1.5640001 0.409167558 -0.03631798178 0.9117361903
-0.074392356 -0.33491489 1.7318001 -0.1065263748 -0.2480357289 0.9628760815
0.20396177 -0.34408817 1.7760001 -0.05620621145 -0.2701101899 0.9611874819
0.1817558 -0.45438948 1.7570001 -0.2764532268 0.1231735945 0.9531012177
0.0046445802 -0.35453629 1.7660002 -0.190206185 -0.2628702521 0.9458968639
0.26474103 -0.38505784 1.7659999 -0.1963593513 -0.1465479285 0.9695187807
-0.054769751 -0.18308745 1.7850001 0.09299904853 -0.4608135521 0.8826109171
0.065165259 -0.15735027 1.8130001 0.04517986253 -0.7020660639 0.7106772065
-0.14670841 -0.042504307 1.5640001 -0.331307888 0.8588023782 0.3907601833
-0.074425489 0.019935399 1.516 -0.3773089349 0.7584210038 0.5314466953
0.12442793 0.056558151 1.5640001 -0.1332428455 0.7752274275 0.6174696088
0.28480271 -0.34583187 1.785 -0.3820080459 -0.2627991736 0.8860058784
0.24430493 -0.43504232 1.766 -0.4089775681 0.401207 0.8196159601
-0.12792321 -0.020198399 1.536 -0.3764657676 0.7785542607 0.502122283
-0.095009625 -0.27430204 1.7479998 -0.1123755574 -0.5052323341 0.8556354642
0.086179838 0.071367681 1.536 -0.2081678808 0.7747454643 0.5970222354
0.21438445 -0.25507054 1.7850001 0.03895602003 -0.1274288744 0.9910823703
-0.15884674 -0.22647455 1.794 0.4809833467 -0.2996210754 0.8239430785
0.12451735 -0.01025437 1.6710001 -0.1632209718 0.8842037916 0.4376557469
0.10887367 -0.15417148 1.8130001 0.2577465475 -0.5293458104 0.808306694
0.2830897 -0.20559587 1.8040001 -0.4940901399 -0.2888738811 0.8200163841
-0.010156184 -0.027566783 1.6550001 -0.3525600433 0.8086176515 0.4709977508
0.033939272 0.09659639 1.4890002 -0.08908671141 0.3120801449 0.9458697438
0.14088559 -0.38240376 1.766 0.1634944677 -0.1844037175 0.9691567421
0.034000643 -0.0014166933 1.6160001 -0.28808406 0.8184690475 0.4971076548
0.15477373 -0.044439986 1.748 -0.1434575617 0.8806622028 0.4515019953
-0.2810041 0.15503675 1.5790001 -0.2744356096 -0.4079743326 0.8707709312
-0.31387442 0.35740092 1.6550001 0.75867939 0.3824324906 -0.5274001956
0.063521802 -0.4975028 1.739 -0.4013765156 0.2606459558 0.878043592
0.21281961 -0.045380648 1.7850001 -0.1927264035 0.9162253141 0.3512658179
-0.14459921 0.063966461 1.4835454 0.1054256335 -0.1916464865 0.9757853746
0.092638247 -0.46627185 1.7570001 -0.06081788987 0.2909074128 0.9548162222
-0.31120029 0.25264364 1.6160001 0.4576632679 -0.474370569 0.7520085573
0.4442026 -0.22353423 3.2690001 -0.2036834955 0.8562616706 0.4746883512
0.2922003 -0.39586791 1.739 0.2670474052 -0.4430883229 0.8557794094
0.20434691 -0.37532058 1.7570001 -0.1072659716 -0.3036239743 0.9467346668
0.21767808 -0.10559011 1.853 0.3483147025 0.1260923445 0.9288582206
0.136234 -0.49355632 1.7760001 -0.08484787494 0.3116899431 0.9463880062
-0.19462 -0.26312625 1.7760001 0.4217123985 -0.6785804629 0.6014043689
0.24171804 -0.13719133 1.863 0.2081922144 -0.4352853596 0.8758896589
0.19523923 0.10415763 1.5430001 -0.3838876784 0.5578843951 0.7357956171
0.23499875 0.05670438 1.609 -0.4666891992 0.6576061249 0.5914012194
-0.1346928 -0.22758442 1.7660002 0.1669418812 -0.6275311708 0.7604834437
0.27758861 -0.28387958 1.794 -0.2437177896 -0.2736214697 0.9304476976
0.11836578 -0.037937749 1.7310001 -0.08866041899 0.8907616735 0.4457386434
-0.025049873 0.052739393 1.5040001 -0.3941167295 0.6806742549 0.6175391078
-0.094167151 -0.49674416 1.705 -0.1513221711 0.1826512218 0.9714629054
-0.037550263 0.076395363 1.4770001 -0.1419335604 0.2277957797 0.9633088708
-0.094307423 -0.064322494 1.6550001 -0.3859351873 0.8465934396 0.3665154278
0.085632801 -0.34408817 1.7760001 0.03033067286 -0.2783187628 0.9600097537
-0.19306304 -0.14324032 1.7760001 0.7305621505 0.5464757085 0.4094426632
-0.13809341 -0.3475098 1.7310001 0.1191541106 -0.1805429161 0.9763229489
-0.26308087 0.10550741 1.576667 0.2596103251 0.1556094438 0.9530940056
0.024952915 -0.065000802 1.7570002 -0.2356991023 0.8783224821 0.4159273803
0.03619713 -0.36274144 1.7570001 -0.1435332745 -0.1757990867 0.9739059806
0.093721338 0.10562566 1.4960002 -0.2673946321 0.3973312974 0.8778541684
-0.068004787 -0.12177601 1.8040001 -0.3036670983 0.8826141953 0.358857125
-0.16498983 -0.28451809 1.748 0.3153179884 -0.2394493669 0.9182802439
-0.086324781 -0.21537948 1.7760001 0.2457493991 -0.7311879396 0.6363736987
0.19476274 -0.42451459 1.766 -0.1881414801 0.0895030424 0.9780551791
0.015196725 -0.4648917 1.7330002 -0.1686633974 0.03517570719 0.9850458503
-0.035146922 -0.30512011 1.7570001 -0.1792814285 -0.1955328584 0.9641706347
0.064528272 -0.031818092 1.6960001 -0.1888208091 0.8940120935 0.4063116312
-0.033631124 -0.065020174 1.705 -0.2910941243 0.8807210922 0.3736234903
-0.25091252 0.039762095 1.5640001 0.3430525661 -0.1213003546 0.9314510822
-0.20654267 -0.0013588333 1.5500001 0.5923418403 0.07887396216 0.8018167019
-0.047749404 -0.2695531 1.7570001 -0.3146262169 -0.1682395041 0.9341872334
-0.19281845 -0.12705092 1.705 -0.1886953562 0.9042652845 0.3830122352
0.060721438 -0.29737934 1.7760001 -0.08750393987 -0.2418602854 0.96635741
-0.021797441 -0.24288575 1.7760001 -0.4319058061 -0.2916493118 0.8534623981
0.03479315 -0.2150849 1.8040004 -0.168565616 -0.1550071985 0.9734261036
-0.09367007 -0.086731553 1.6960001 -0.4007562697 0.8239417076 0.4006425738
0.094569102 -0.18357532 1.8130001 0.04363248497 -0.3935343325 0.9182738662
0.034013089 -0.16243634 1.8130001 -0.0273907017 -0.6014845371 0.7984147668
0.056555517 0.060595199 1.536 -0.2195108384 0.799929738 0.5585045815
0.14557926 -0.43827021 1.748 -0.1269300729 -0.07699949294 0.9889185429
-0.045484975 0.026753236 1.5260001 -0.2283083349 0.8343152404 0.5017901063
-0.015209289 -0.3650378 1.7350004 -0.4387350976 -0.4443066716 0.7810909748
-0.28172559 -0.32001841 3.1200001 -0.2096629292 0.8090358377 0.5490923524
-0.163124 -0.40399864 1.739 0.352030009 0.05942741036 0.9341002703
-0.27303258 -0.34546977 3.1780002 -0.2096629292 0.8090358377 0.5490923524
-0.015082173 0.014625139 1.5640001 -0.4397664666 0.7791032791 0.446770072
0.19873069 -0.066243567 1.8430001 -0.3123228848 0.800417006 0.5116512775
0.27418098 -0.2448232 1.794 -0.4600835443 -0.380050987 0.8024240732
0.064966597 0.11477097 1.4890002 -0.1072223186 0.02770189382 0.9938490987
-0.29059219 0.22663411 1.5860001 -0.170650512 -0.1481097192 0.9741364717
-0.18426217 -0.097209185 1.6550001 -0.1902690083 0.8615202904 0.4707233608
-0.18431653 -0.080201849 1.605 -0.1927765012 0.862421155 0.4680459499
-0.18395083 0.0076404 1.488143 -0.03898643702 0.5747175813 0.8174226284
-0.21471529 -0.057860702 1.5640001 -0.1588387787 0.7296078801 0.6651635766
0.12437153 -0.46703836 1.7659999 -0.0932546705 0.3448303044 0.9340212345
-0.11346901 -0.1237377 1.7570001 -0.3318248689 0.8461277485 0.4170852304
0.044056881 -0.39727813 1.748 -0.02259159274 -0.580312252 0.8140806556
0.19452532 -0.17712875 1.804 -0.3050990105 -0.35997805 0.8816634417
-0.13521005 0.03510261 1.4829999 -0.05490384251 0.3337215781 0.9410714507
-0.095643453 -0.30493596 1.7368184 -0.1974364817 -0.291801542 0.9358796477
-0.20085135 -0.18345477 1.8040001 0.6931174397 0.1141057834 0.7117359638
-0.014154661 -0.17614688 1.794 -0.3472144604 -0.2456264496 0.9050468206
0.22529499 -0.2150722 1.7939999 -0.2923003733 -0.08455976844 0.95258075
0.096161738 -0.0037540621 1.6470001 -0.1927992851 0.8241749406 0.53250736
0.14413147 0.11595976 1.506 -0.3883049488 0.2019138485 0.8991385102
-0.15405108 -0.095249243 1.6630001 -0.3516310751 0.8172201514 0.4566254318
-0.045552477 -0.47404602 1.7129999 -0.2357714623 0.2700816989 0.9335243702
-0.093868211 -0.44452873 1.7050002 0.1405642927 -0.04313030839 0.9891316891
0.22129025 -0.036453847 1.7570001 -0.007331124973 0.9048604965 0.4256450236
-0.063735418 -0.36268488 1.7310001 -0.1799450964 -0.2106469125 0.960857749
0.21438445 -0.28480273 1.785 -0.01930023357 -0.1144660711 0.9932396412
-0.1022921 0.074668914 1.4770001 0.176147148 -0.207214728 0.9623067379
-0.075086504 -0.41597918 1.7129999 0.01930078305 -0.2009800524 0.9794051647
-0.22560939 0.054111041 1.5526251 0.3511467576 -0.1928631961 0.9162421823
-0.11988329 -0.49015573 1.7310001 0.6613725424 0.4087587595 0.6288900375
-0.13737541 -0.40306854 1.7220001 0.4669842124 -0.1217793599 0.875839889
0.17638132 -0.33385667 1.7760001 -0.1430953443 -0.03754085302 0.9889966846
0.004744519 -0.21494113 1.8040001 -0.2553639412 -0.3773555756 0.8901640177
0.15413904 -0.28492367 1.7760001 0.06265811622 -0.08268671483 0.9946038723
-0.075474866 -0.25453514 1.7570001 -0.06366666406 -0.3049973845 0.950222671
-0.33049631 0.35052639 1.6320001 0.9227435589 0.1787400544 0.3414620161
0.17147863 0.4537355 1.7310001 -0.908970654 -0.2425474375 0.3390325606
0.19223721 -0.2563163 3.1780002 -0.2029415816 0.8566329479 0.4743361175
0.16525589 0.13465799 1.5235455 -0.3295494318 -0.07889470458 0.9408362508
0.0045735696 -0.41508609 1.7390002 -0.34513551 -0.08259869367 0.9349111915
0.16387197 0.056363046 1.5766667 -0.2454701066 0.7612091899 0.6002541184
-0.095023662 -0.033537757 1.594 -0.3529241979 0.8145205975 0.4604353905
0.12611376 -0.29426542 1.7760001 1.782744903e-06 2.4802805e-06 1
-0.19386658 -0.023298645 1.5272001 0.4969807267 0.5640926361 0.6594009995
0.11521503 -0.32540464 1.7760004 0.1543649286 -0.2097045034 0.965502739
0.085486837 -0.436676 1.7570001 -0.05260288715 -0.01877990924 0.9984388947
0.18733139 -0.39633751 1.766 -0.1441746205 8.495210932e-05 0.9895522594
-0.18401057 -0.24377471 1.794 0.2973382175 -0.4396355152 0.8475320339
0.14398199 -0.34524709 1.7659999 0.0948221758 -0.2581976652 0.9614274502
-0.17713489 -0.31576219 1.7570001 0.5320903063 0.04077409953 0.8457052708
-0.12464359 -0.43399996 1.7130002 0.3434638679 0.1986186206 0.9179233313
0.014947166 0.042123836 1.5500001 -0.2488734275 0.7581399679 0.6027319431
0.198828 0.0014728 1.6800001 -0.12130519 0.894718945 0.4298406839
-0.051640049 -0.21125475 1.7850001 0.002130876761 -0.6359401345 0.7717354894
-0.1263655 -0.0473122 1.594 -0.3656282723 0.82841748 0.4243117273
-0.065067604 -0.042711549 1.6348002 -0.3351673186 0.846364975 0.41391927
0.21690136 0.059786912 1.5860001 -0.395960778 0.7037959099 0.5898188949
0.1340064 -0.41434163 1.7570001 0.04121554643 -0.08339335769 0.9956640005
-0.0031153811 0.053851586 1.5230001 -0.4216826856 0.7065692544 0.5682812929
0.23821488 -0.38145518 1.7760001 -0.09661649913 -0.1993064582 0.9751626253
-0.25852025 0.16209918 1.5940001 -0.08165775985 -0.2957474291 0.95176965
0.10936329 0.13835114 1.503 -0.3761627972 -0.1885654181 0.9071629643
0.14553016 0.46910259 1.766 -0.9182395935 -0.3114974201 0.2445515245
0.11228697 -0.21034038 1.8040001 0.1832712144 -0.2316650003 0.9553758502
-0.16669202 -0.12164012 1.7129999 -0.2250772417 0.8390951753 0.4952367842
-0.034721255 -0.41514549 1.7220001 -0.3192569017 -0.06847007573 0.945191443
0.0044841501 -0.048329171 1.705 -0.2603216469 0.9030978084 0.3415362537
0.12340661 -0.022302398 1.6960001 -0.1923328489 0.8819813728 0.4302521646
-0.16558158 -0.344827 1.732778 0.4213817716 -0.2171331793 0.8805058599
0.24755664 -0.40948048 1.7760001 -0.4552406371 0.1295488626 0.8808933496
0.14410923 0.086502247 1.5253078 -0.2846177816 0.6533493996 0.70151788
0.25091165 -0.15182552 1.8230001 0.1034033373 -0.7395653129 0.665094614
0.059456408 -0.43448916 1.739 -0.2536642551 -0.04176313803 0.9663903713
-0.042711198 -0.057439201 1.6800001 -0.3339496851 0.8564542532 0.3936542869
0.11497921 0.071692921 1.5430001 -0.143202424 0.8291730285 0.5403379798
0.24513353 -0.19452532 1.804 -0.3062301278 -0.334302932 0.8913274407
0.14585103 0.46337181 1.733 -0.8589382172 -0.2288210094 0.458111465
0.13053742 -0.2437747 1.794 0.2178401649 -0.2829141617 0.9340798855
-0.1448639 -0.0079741599 1.5159999 -0.1507829577 0.7273684144 0.6694771647
0.02988206 -0.25321114 1.794 -0.2225232869 -0.4054985642 0.8865970373
0.17593648 -0.20707569 1.7760001 -0.2168150991 -0.3369665146 0.9162122011
0.24523436 -0.24657562 1.785 -0.04103164375 -0.4268839061 0.9033750892
-0.13356631 -0.25326988 1.7570001 0.02547052689 -0.5052497387 0.8625972271
0.05579808 0.00143072 1.6320001 -0.2249327302 0.8478409648 0.4801780879
0.11552275 -0.49597767 1.7570001 -0.05074829236 0.2654204667 0.9627962112
0.28492367 -0.40013871 1.7760001 0.2616818845 -0.1170934439 0.958024919
0.083602265 -0.082330748 1.8130001 -0.1283288449 0.8854582906 0.4466489553
-0.23994367 0.10009079 1.5640001 0.3750973642 0.04872308671 0.925704062
-0.14039466 -0.46194372 1.7220001 0.4909287095 0.2458198071 0.8357999921
0.21275648 0.12388352 1.536 -0.4346836209 0.3979022801 0.8079133034
0.20440254 -0.014190428 1.7220001 -0.1494782716 0.8795518279 0.4517132044
0.054493602 -0.35498688 1.7760004 -0.1079766378 -0.2590992153 0.9597961307
0.30206776 -0.27992669 1.8040001 -0.07512999326 -0.09449525923 0.9926863313
-0.10193968 -0.38474005 1.7050002 -0.004003036302 -0.3536190093 0.9353809953
0.045412213 -0.024903471 1.6710001 -0.1718995571 0.8828838468 0.4369972944
0.074330807 -0.22615544 1.804 0.1711144447 -0.006096126046 0.9852322936
0.078957863 -0.39169291 1.766 -0.08507372439 0.003021819517 0.9963700771
0.076471627 0.033369441 1.5860001 -0.2236969322 0.7989849448 0.5581959486
-0.17562263 -0.19764097 1.794 0.4804733396 0.3033068478 0.8228914142
-0.2722874 0.21193504 1.6010001 -0.1222326234 -0.08388897032 0.9889498353
0.16616735 -0.028073935 1.7310001 -0.2374970764 0.8368265629 0.4932711422
-0.027867479 -0.091343403 1.766 -0.3716879487 0.8013083339 0.468778193
0.17503896 0.087384209 1.5430001 -0.3349097967 0.6500401497 0.6821167469
0.1439171 -0.16763969 1.804 0.1197261736 -0.4729962051 0.8728919029
0.15506481 -0.012451672 1.6845714 -0.1481606364 0.8983715177 0.4134936631
0.024911361 -0.30516416 1.7760005 -0.1754118502 -0.1799203753 0.9679149389
-0.17559458 -0.14324822 1.7570001 -0.02632410824 0.9398061633 0.3406926095
0.071983099 -0.070418246 1.7850001 -0.2077386975 0.8744199872 0.4384453595
-0.0063821333 -0.28537253 3.1200001 -0.2096629292 0.8090358377 0.5490923524
0.16481246 -0.3850759 1.7570001 -0.07239282876 -0.2105671018 0.9748952389
0.012233256 -0.26535049 1.7760001 -0.1567146629 -0.1817322075 0.9707800746
-0.0214608 -0.02718368 1.6320001 -0.3914695978 0.8370041251 0.3823291957
-0.098125301 -0.33966449 1.7220001 -0.103121087 -0.2424722761 0.9646622539
-0.32033399 0.29328358 1.6240001 0.7155025601 0.1998878866 0.6694034338
-0.02853287 -0.45502415 1.7129999 -0.3445139825 -0.08978658915 0.9344776273
0.14211996 0.49364573 1.7220001 -0.9111000896 -0.3738093078 0.1736755818
0.30353883 -0.36330295 1.794 -0.5062935948 -0.4514477849 0.7347528338
0.024348855 -0.33623946 1.766 -0.1796404719 -0.3492977023 0.9196305871
0.26754463 0.074397437 1.6320001 -0.7728437185 0.2733604908 0.5727011561
-0.11309438 -0.065649934 1.6330001 -0.3467794657 0.8274399638 0.4416866601
-0.11624074 -0.11020226 1.7220001 -0.3581343591 0.8494018316 0.3876290619
0.11465923 -0.081447594 1.8040001 -0.07216540724 0.8368495107 0.5426555872
0.2452212 -0.32696161 1.7760001 0.03299868107 -0.05632227659 0.997867167
-0.052003868 0.096207149 1.483 -0.01848802716 -0.04456530884 0.9988353848
-0.073584773 -0.46703804 1.7130001 -0.03152295202 0.2631906569 0.9642286897
-0.083148681 0.032525033 1.4960002 -0.2785328627 0.6843670011 0.673840642
0.20296673 -0.14862919 1.8230001 -0.4085444212 -0.7306847572 0.5469837785
0.22349039 0.093920805 1.5640001 -0.6015191078 0.4311645925 0.6725116372
0.23576051 -0.17218465 1.813 -0.04468363151 -0.5200683475 0.8529550433
0.23526864 0.034423962 1.6363751 -0.3830946982 0.7490551472 0.5405135155
-0.33805582 0.36562261 1.6550001 0.9714218378 0.1781699657 -0.1568280607
0.075474866 -0.48519558 1.7570001 -0.4868814349 0.1945156157 0.851534009
-0.1863015 -0.15656915 1.8040001 0.6870775819 0.2672564983 0.6756466031
0.014154661 -0.08414159 1.794 -0.1055256352 0.8675878644 0.4859584272
0.045629915 0.072210446 1.5159999 -0.2368870974 0.7717034817 0.590218842
0.106252 0.016716983 1.6159999 -0.1265376508 0.878631115 0.4604297876
-0.0045972397 -0.073045038 1.748 -0.3980525434 0.8340833783 0.3819150031
-0.01386273 -0.33424583 1.7570001 -0.4652923048 -0.1230433658 0.8765634298
0.10573652 -0.050569639 1.748 -0.07668618113 0.9115979671 0.4038668275
-0.055492651 -0.31618613 1.7390001 -0.4753716886 -0.2679559588 0.8379864693
-0.27010801 0.12751292 1.5640001 -0.05838054791 -0.1622059196 0.9850283861
-0.15471062 -0.066108562 1.6043333 -0.2712605 0.8328623176 0.4824500978
0.16488259 -0.47297305 1.766 -0.1742242873 0.2755989134 0.9453523755
0.18502013 0.034283981 1.6159999 -0.1997693032 0.8631907105 0.4636744559
0.22448805 -0.36382541 1.7659999 -0.1154186279 -0.3055268526 0.9451623559
0.10431632 -0.27558196 1.7760001 0.1208433136 -0.2362369448 0.9641519785
-0.075407356 0.0060595199 1.5360001 -0.4427084327 0.7072733641 0.5511566401
-0.084716685 -0.10782123 1.7570001 -0.3573620617 0.8041770458 0.4749648273
0.15413903 -0.25378445 1.7760001 -0.0007343785837 -0.2043156326 0.9789047837
0.054186765 -0.062443804 1.7660002 -0.200977236 0.8760764599 0.4382900298
-0.0053899968 0.0049907384 1.594 -0.3645330369 0.7738652229 0.5179268718
0.19344702 -0.26343393 1.794 -0.1555055529 -0.1195363924 0.9805758595
-0.080009863 -0.39401081 1.7220001 -0.2649940252 -0.2426650822 0.9332158566
0.21645974 -0.14417113 1.8529999 -0.1516778916 -0.642374754 0.7512313128
-0.01336829 -0.098296247 1.794 -0.4429436624 0.7888867259 0.4259795845
0.27814442 -0.23046252 1.8130001 -0.5542501211 -0.2635785043 0.789514482
0.10491355 0.044168107 1.5746253 -0.09161388874 0.776917398 0.6229014993
-0.035282109 -0.38355064 1.7310001 -0.1770212203 -0.2627643049 0.9484821558
-0.011736374 -0.22299112 1.7850001 -0.5371965766 -0.31256181 0.7834060192
0.16654137 -0.30543643 1.7659999 0.1997027844 -0.1689008474 0.965189755
-0.21440461 -0.091686182 1.6090001 -0.351318419 0.8431752324 0.4069777429
0.044211179 -0.48327386 1.7390002 -0.1221360713 0.09689986706 0.9877718091
0.20382711 -0.083948031 1.8630002 0.1227028146 0.1418132782 0.9822591543
0.11924551 0.11661025 1.503 -0.3036889136 0.2039464414 0.9306873083
0.0045688939 -0.48582888 1.7372223 -0.3154984713 0.1529311836 0.9365216494
-0.026146388 0.10444109 1.4829999 -0.1373788863 -0.05908263847 0.9887549281
0.27558193 -0.36588559 1.7760001 -0.1799552292 -0.2341679931 0.9553959966
0.053567488 -0.38488087 1.766 -0.1049081013 -0.3325092494 0.9372469783
-0.1817558 -0.2695531 1.7570001 0.3809266984 -0.4767563045 0.7922109962
0.094439797 -0.36382544 1.7659999 -0.09703186899 -0.4350781441 0.8951490521
0.013121069 -0.030615829 1.6630001 -0.2747484744 0.842651248 0.4630898237
-0.28758875 0.26775503 1.6160001 0.456774056 -0.3042942584 0.8359200954
0.054769747 -0.26445964 1.7850001 -0.3131741881 -0.3820915818 0.8694411516
-0.14648223 -0.11210375 1.705 -0.2999904454 0.8774151206 0.3743640184
-0.16743194 -0.13708174 1.7310001 -0.1458085626 0.8983728886 0.4143259227
0.017142341 0.072516114 1.5040002 -0.2166766822 0.6978487372 0.68268466
0.30681229 -0.32737187 1.8040001 -0.6455301046 0.1820697933 0.7417151928
0.21829526 -0.42730135 1.766 0.02058762312 0.3803704679 0.9246050119
0.09434358 -0.4147267 1.7570001 0.03715163097 -0.435733825 0.8993085027
0.14240135 -0.057899449 1.7850001 0.00827681832 0.899630487 0.436573565
-0.072668649 -0.0095977467 1.5640001 -0.3607189953 0.8274701238 0.4303196371
-0.17453517 -0.0056375246 1.5051819 -0.06660241634 0.7311207056 0.6789894104
-0.048909232 -0.0209611 1.5940001 -0.2996476293 0.8185660839 0.4900621176
0.015925352 0.11461032 1.4890002 0.04598890617 -0.06376762688 0.996904552
0.086007014 0.085627295 1.5159999 -0.1939408928 0.7758921981 0.600315094
0.12540239 0.026767846 1.6072223 -0.1529492587 0.8509448767 0.5024931431
-0.066181608 -0.032389034 1.6063334 -0.3134839833 0.8483806252 0.4265889525
0.035136264 0.025578436 1.574154 -0.2271015346 0.8122850657 0.5372316837
-0.071821786 -0.20393194 1.794 0.1786489338 -0.7328907847 0.6564720869
-0.0038599633 -0.1855053 1.813 -0.1759751588 -0.1835708171 0.9671269059
-0.065020286 0.065020286 1.483375 -0.06328352541 0.3287713826 0.9422869086
-0.06383536 -0.11054417 1.7760001 -0.2788950801 0.854374826 0.4384759963
0.03617302 -0.09593714 1.794 -0.1246361285 0.8465442061 0.517521739
0.046092499 -0.18437003 1.8130001 0.0750933066 -0.42710495 0.9010784626
0.1752632 -0.2347275 1.785 -0.2312330902 -0.01746772975 0.9727415442
0.18534297 0.064621501 1.5745456 -0.1574422717 0.772243619 0.6155093312
-0.19525096 -0.064156719 1.5860002 -0.2193230093 0.828796804 0.5147750378
-0.014089786 -0.066926487 1.7220001 -0.4252893031 0.7977061868 0.4275439978
-0.15420742 -0.035170112 1.5430001 -0.2439107299 0.796087563 0.5538521409
0.11736375 -0.22690324 1.7850001 0.1377981901 -0.1929952204 0.9714754224
0.074734069 -0.3160629 1.7760004 -0.03084568121 -0.1467352211 0.9886947274
0.0046708798 -0.29426545 1.7760001 -0.4381143749 -0.1694557071 0.8828026652
0.0045525301 -0.44463041 1.7310001 -0.3087808192 -0.1122892871 0.9444816113
-0.055012587 -0.06839402 1.6960001 -0.315153718 0.8991974592 0.3035161197
0.20524257 -0.19659249 1.7939999 -0.123805061 -0.5015839338 0.8562043309
0.29262695 -0.32079425 1.7850001 -0.340734899 0.1373698711 0.9300695062
0.17678089 -0.0056078611 1.6832001 -0.259242475 0.8486549854 0.4610618353
-0.09233404 -0.01791556 1.572 -0.2862825394 0.8635338545 0.4151524901
-0.11389653 -0.08591333 1.6800002 -0.3518890738 0.8262460828 0.4398766458
-0.094882041 -0.47495621 1.7130001 -0.117936112 0.08402127028 0.9894602299
-0.036199324 -0.22536996 1.7760001 -0.1759683937 -0.4432402551 0.8789614439
0.035064038 -0.45583248 1.7390002 -0.2239990234 -0.05332555994 0.9731293917
