# .PCD v0.7 - Point Cloud Data file format
VERSION 0.7
FIELDS x y z normal_x normal_y normal_z
SIZE 4 4 4 4 4 4
TYPE F F F F F F
COUNT 1 1 1 1 1 1
WIDTH 512
HEIGHT 1
VIEWPOINT 0 0 0 1 0 0 0
POINTS 512
DATA ascii
0.090656973 -0.30022764 1.3430001 0.3791630566 -0.2449454665 0.8923211694
-0.18515463 -0.4997184 2.2710001 -0.109040603 0.7080891728 0.6976531148
-0.056714907 0.44576108 1.2640001 0.4645134211 -0.3881717026 0.7959585786
0.41476941 -0.16556638 1.9470001 0.05352561176 0.7347062826 0.6762703657
-0.42360836 -0.065400206 1.7350001 0.9580753446 0.06036664173 0.2800848186
0.29615903 0.20459296 1.6320001 -0.9629918933 -0.1615167558 0.2157752812
-0.16672288 0.013169128 1.08 0.1588855684 0.5055641532 0.8480331898
0.22176291 0.087526836 1.2250001 -0.5276933908 0.6745637655 -0.5162396431
0.38055837 -0.3367531 1.041 0.5746108294 -0.09396146983 0.8130151629
0.20295185 -0.40785512 2.2260001 -0.1012172475 0.7090917826 0.6978136301
-0.46794713 -0.3239634 2.0530002 -0.07837369293 0.7645203471 0.6398173571
-0.33785152 0.034724765 1.398 0.5582392216 -0.3564967215 0.7491855621
-0.22855753 -0.247604 1.278 -0.1151195168 0.6877105832 0.7167996168
0.21931833 -0.49425328 1.197 0.4925159812 -0.1997392774 0.8470727205
0.0068634232 0.22448468 1.1182002 0.5068592429 -0.3101249933 0.8043110371
0.26600415 -0.16441937 1.1946 0.856805861 0.04578833655 0.5136021376
0.02451445 -0.085268319 1.2157502 -0.110710986 0.7558413148 0.6453270316
0.21417578 -0.23577335 2.0530002 -0.06224024296 0.687202096 0.7237951756
0.10476124 0.043242898 1.0421667 0.1934420168 0.7688781023 0.609431386
0.35543922 -0.02201836 1.794 -0.01179009862 0.7355854511 0.6773293614
-0.0044388552 -0.3760345 2.1700001 -0.1127444878 0.6811711192 0.7233910561
0.036822956 -0.49366295 1.3126251 0.7181653976 -0.06969735026 0.6923732758
-0.29485649 -0.096594468 1.1730002 0.2015127689 0.5047192574 0.8394349813
0.24257015 0.26524428 1.4640001 -0.9515503645 -0.2008199394 0.2328588217
-0.40348145 0.16536126 1.5090002 0.5373185873 -0.3823379278 0.7517356277
0.03227536 -0.49825087 2.3010001 0.100903742 0.7338743806 0.6717490554
-0.34299058 -0.44897079 2.1980002 -0.09651466459 0.7116398215 0.6958833933
-0.05562976 -0.2051347 1.3220001 -0.1795272678 0.6606473923 0.7289135456
0.27671778 -0.33481264 1.1763334 0.7758340836 -0.03330365196 0.6300573945
-0.04812023 0.095365554 0.99799997 0.1679567099 0.5020028949 0.8484006524
-0.13638656 -0.1110123 1.2060001 -0.3197649419 0.7007839084 0.6376929283
-0.41509116 0.058084425 1.6160001 0.9481178522 0.1003465801 0.3016671538
0.16528867 -0.044707723 1.1857997 0.02360006608 0.7727227807 0.6343048215
-0.024252987 -0.0029121111 1.1065999 -0.1859568954 0.774266839 0.6049221754
0.10944657 -0.30978945 2.1160002 -0.4007377923 0.8167692423 0.4150869846
0.1673571 -0.3848336 1.2656666 0.5627467632 -0.1567572802 0.811629951
0.12232656 -0.14554596 1.2920001 -0.03540074453 0.6778172851 0.7343776226
0.33047527 -0.44258341 1.1120001 0.7005828619 0.06992951781 0.7101362944
-0.010896089 -0.38257384 1.381 0.7585781217 -0.2406242192 0.6055238843
0.34688902 -0.2171648 1.0961001 0.793140769 -0.07032558322 0.6049644351
-0.030431731 0.3284528 1.197 0.4817790687 -0.3560751975 0.8006868362
0.20225693 -0.25478038 1.2746665 0.7208319902 -0.2203282267 0.6571580768
-0.4784084 -0.15099268 1.8130001 0.962821722 0.1659007221 0.2131930739
-0.031143583 -0.27032632 1.4210001 0.3502482474 0.3235868812 0.8789867163
-0.30849373 -0.064513899 1.3380001 0.6490728259 -0.2831348479 0.7060729861
0.052345529 0.14426707 1.0542728 0.6207560897 -0.3548668921 0.6990932822
0.25569999 -0.30609342 2.1289999 -0.06744910032 0.7175940871 0.6931877732
0.081310831 -0.41826293 2.2260001 -0.06847960502 0.7306506634 0.6793085933
0.27780426 -0.16947807 1.9930001 0.07451530546 0.6767528057 0.732429564
0.27347729 -0.056064297 1.1946 0.5983706713 0.1763588339 0.7815690041
-0.1268449 -0.27403286 1.365 -0.3413148522 0.6478350759 0.6810388565
0.19381416 0.0045880587 1.0941579 0.1901176125 0.9343397021 0.3014376163
-0.07415022 -0.49901095 2.286 -0.08138067275 0.7234405279 0.6855734587
-0.1299255 -0.43243861 2.2120001 -0.08502937853 0.705530107 0.7035604715
0.12692818 -0.48582223 1.2589999 0.3593193889 -0.4309159219 0.8277686834
0.083436884 -0.0083586415 1.1311429 -0.07479046285 0.8127820492 0.5777471066
0.14362431 -0.47229013 2.286 -0.1006883234 0.6982661486 0.7087215185
-0.14386368 -0.1859313 1.2744706 -0.3635298908 0.6260110736 0.6898957491
0.064343043 -0.39546466 1.3143685 0.4363020957 -0.34303087 0.8318475485
-0.2251543 -0.15653585 1.223 -0.2176989019 0.6712679267 0.7085242271
0.32660627 0.13331878 1.6960001 -0.9821795225 -0.06094107404 0.1777907759
-0.20532086 -0.065335885 1.1437695 -0.07417597622 0.6349838972 0.7689560056
0.042459011 -0.19619438 1.3330001 -0.08961509913 0.6693942547 0.7374824882
0.33625337 -0.10411907 1.9470001 0.05352561176 0.7347062826 0.6762703657
-0.41143456 -0.40391979 2.1430001 -0.09651466459 0.7116398215 0.6958833933
-0.055188794 -0.133913 1.2540667 -0.2104945779 0.7005808949 0.6818199158
-0.10314655 -0.049070831 1.1423334 -0.1602823883 0.7637380362 0.6253108978
-0.36522549 0.10493226 1.4525999 0.2754320204 -0.5800397396 0.7666101456
0.32654464 -0.3046051 1.1059089 0.7977042794 0.01761739515 0.6027914286
0.014424891 0.048083633 1.0447501 -0.0425776653 0.7795841098 0.6248485446
0.31555149 -0.13721061 1.126 0.6097119451 -0.0822218582 0.7883469462
-0.085563868 0.033580896 1.05128 0.01504952647 0.6860289574 0.7274185419
0.28907645 -0.24241848 1.1570001 0.8636248708 0.0204409603 0.5037204027
0.26930937 -0.42511669 1.177 0.7186146975 -0.07917363197 0.6908867359
-0.0032743502 -0.44596648 2.2410002 -0.01375416946 0.7677832842 0.6405619979
0.1540917 -0.35954729 2.1700001 -0.009252835065 0.6579415798 0.7530121207
0.10553771 -0.087738961 1.2332308 -0.1171500385 0.7105074525 0.6938695908
0.21996267 -0.32615158 1.2360001 0.7405150533 -0.06601207703 0.6687898636
0.044474233 -0.13387495 1.2746665 -0.0118022738 0.7842221856 0.6203678846
0.28145209 -0.35612303 2.184 -0.09803592414 0.7180119753 0.6890919805
0.15074897 -0.2454053 1.3330001 0.6628593206 -0.2951716781 0.6881069541
-0.051247302 -0.07843975 1.1930001 -0.1438127458 0.7762423158 0.6138125062
0.22010382 0.041586436 1.1570001 -0.4744051993 0.7903929353 -0.3875806034
0.1552192 -0.31493595 1.2956959 0.6251589656 -0.2362678349 0.7438775301
0.077997036 -0.36715677 2.1700001 -0.09056066722 0.6695640087 0.7372128963
0.2257694 -0.18547134 1.2550001 0.7652722001 0.08511845767 0.6380543113
0.00119665 -0.30753905 1.365 0.7619184256 0.2555544972 0.5951237082
0.33829251 -0.37450412 1.087 0.8202062249 0.04002637416 0.5706659555
0.20881177 -0.42836508 1.2256669 0.5874371529 -0.1946911216 0.7855017185
0.25207511 -0.24564011 1.2235715 0.8101477623 -0.09122227877 0.579084754
0.015578742 -0.037852708 1.1624287 -0.1367260218 0.7559643388 0.6401748657
-0.17152509 -0.23874438 1.322 -0.6039245725 0.1988413036 0.7718401551
-0.29528472 -0.15658991 1.2123333 -0.006298534572 0.5476349592 0.8366937041
-0.02897997 0.39391527 1.2243334 0.3815738261 -0.4323123097 0.8170112967
-0.22051498 -0.4585931 2.2260001 -0.08810921758 0.7129671574 0.6956397295
0.0043801186 0.28639242 1.153 0.4849880934 -0.3451018631 0.8035491705
0.0081801768 -0.43354937 1.3330001 0.5434166193 -0.1436691284 0.8270776868
-0.0083765499 -0.23095345 1.365 -0.2808272541 0.6419670582 0.7134523988
0.22631675 0.13108446 1.2780001 -0.7591466904 0.5573228598 -0.3362849653
-0.27041221 -0.19756646 1.2590001 -0.08998890966 0.6012884974 0.7939484715
0.12281198 -0.42701033 1.2919999 0.314312458 -0.2828412652 0.9062055349
0.17119195 -0.094068669 1.2333335 0.06213631853 0.704954803 0.706525147
0.094322614 -0.046645395 1.1823335 -0.08394802362 0.7790084481 0.6213683486
0.37135512 -0.27875018 1.067 0.6655337214 -0.2004217952 0.718954742
0.13175336 0.024042584 1.097 0.1214839742 0.9058567286 0.4057895839
-0.34020016 -0.030266916 1.381 0.607414782 -0.3056384921 0.7332342267
0.22425251 -0.018229114 1.177 -0.5742467046 0.529907763 0.6240500808
-0.004443239 -0.16648161 1.3036667 -0.1939250231 0.6754645109 0.7114356756
0.21507789 -0.35676125 2.184 -0.1057042181 0.7193523645 0.6865557432
0.1207696 -0.36460918 1.312 0.4424994886 -0.2172591984 0.8700532317
0.17222993 -0.2638416 2.0900002 -0.0564395003 0.6861926913 0.7252269983
-0.23422693 -0.11040653 1.177 -0.1719367057 0.6391546726 0.7496126294
0.14538114 -0.42632037 2.2410002 -0.09583432972 0.7130748034 0.6945070624
0.013998613 0.091865897 0.99800003 -0.008804149926 0.6451783776 0.7639812827
0.03519335 0.014890539 1.0930455 -0.08722081035 0.8138103485 0.5745478868
-0.07060235 -0.24770655 1.365 -0.2943875492 0.6354295611 0.7138383985
-0.087514997 -0.010578737 1.097 -0.1206738949 0.7401883006 0.6614824533
0.30145061 -0.38500336 1.1436669 0.8493703008 -0.03033192456 0.526925087
0.075246409 0.094269812 1.0261785 0.3020794094 -0.01424395759 0.9531763196
0.0454772 -0.34608909 1.3486003 0.4035148621 -0.2776697874 0.8718229532
-0.20540257 -0.19291532 1.2665 -0.2136157304 0.7181459665 0.6622949839
-0.15453818 -0.03460817 1.115 -0.01409407333 0.7071002126 0.7069728971
0.24461296 -0.37447691 1.2111537 0.7459519506 -0.1321149617 0.65276438
0.28842071 -0.47376204 1.149 0.7791162729 -0.1611284912 0.6058179736
0.15762818 -0.010974113 1.138 -0.0260902103 0.788195312 0.6148719192
-0.11528993 -0.22395055 1.3245715 -0.1950896084 0.7468318939 0.635753274
-0.21372537 -0.016591443 1.1132001 0.3047707379 0.4635402858 0.832012713
-0.26105085 -0.052210171 1.138 0.1627846956 0.4766862094 0.8638700247
-0.045678712 -0.042567823 1.1486365 -0.1635888666 0.7406575084 0.651663363
-0.11287083 -0.13917083 1.25 -0.2100339383 0.6866621971 0.695974648
0.28531227 -0.11432754 1.1749202 0.6673488021 -0.271500349 0.6934934258
-0.16686824 -0.15061484 1.2360001 -0.2631610036 0.6559351683 0.707457006
0.16466922 -0.44490919 1.2555221 0.483179599 -0.2477909774 0.8397244215
0.022010596 0.17787893 1.0917143 0.5812782645 -0.3480439186 0.7355141044
0.074803755 -0.45518163 1.2940589 0.5550940037 -0.2479809225 0.7939622998
0.29606596 -0.18490051 1.1466473 0.8064697981 0.001760088839 0.5912726521
-0.084936298 -0.17471273 1.2869285 -0.1859186888 0.6748646498 0.7141371965
-0.15477999 -0.076272041 1.1620668 -0.1516200006 0.7528091073 0.6405386925
-0.034042139 -0.41171718 2.1980002 -0.06748449802 0.7217558026 0.6888500452
0.17287824 -0.49433726 1.2338825 0.4968557358 -0.3472952247 0.7953115106
0.25723946 -0.29497555 1.2060002 0.7868087888 -0.06908731163 0.6133179069
0.18441771 -0.21576889 1.3050001 0.7210983634 -0.124015972 0.6816430092
0.24858759 -0.19851241 2.0400002 -0.05702213943 0.6857469678 0.7256028652
-0.033969861 0.03169832 1.0600001 -0.08329020441 0.7811707258 0.6187366247
-0.0054791672 -0.11834998 1.25 -0.2261072993 0.7544617653 0.6161679029
0.29714003 -0.29528421 1.1477693 0.8857465982 0.04567873105 0.4619160295
0.075623021 -0.16270407 1.307 -0.03449264914 0.7166747451 0.6965540648
0.20665663 -0.32689321 2.1430001 -0.09797021002 0.7167989016 0.6903631091
0.025209427 -0.41498595 2.2120001 -0.1030793115 0.7225500941 0.6835905313
0.067243844 -0.45686257 2.256 -0.03326510265 0.6953665614 0.7178849578
-0.18574275 -0.11493034 1.1945001 -0.2043352574 0.6559475064 0.7266222835
-0.1046377 -0.079775438 1.1818001 -0.1334873885 0.7911239862 0.5969120264
0.31504825 -0.25509846 1.1164999 0.7141412497 -0.05099728331 0.6981415153
-0.13288513 0.045534067 1.0600001 0.2210156471 0.4922507405 0.8419271111
0.10082543 -0.32340235 2.1700001 -0.4228675961 0.658197701 0.6228633523
-0.084993802 0.073381655 1.0227896 0.1670877635 0.5786693692 0.7982627749
-0.00200406 -0.46694598 2.286 0.1257964224 0.7385107279 0.6624025702
0.085206419 0.025863029 1.0833199 -0.1095747501 0.7894383073 0.6039706469
-0.18034436 -0.436317 2.2120001 -0.08810921758 0.7129671574 0.6956397295
0.20495501 0.047945775 1.202 -0.6821383834 0.5744789243 -0.4523949325
0.27087861 -0.21440199 1.1930001 0.8452780247 -0.004718210548 0.5343058705
-0.024897423 0.062122356 1.0238948 -0.07177650928 0.7092279196 0.7013158202
-0.36228248 0.063715257 1.4250001 0.4771640599 -0.3184501827 0.8190872669
0.13539006 -0.11221188 1.2589999 0.05122125521 0.7068916559 0.7054647803
0.035911772 -0.35439247 2.1560001 -0.1036734954 0.7089325786 0.697614789
0.063576959 -0.10286917 1.245 -0.1073075086 0.7259994745 0.6792715788
-0.37583959 0.14377652 1.4750911 0.4838888943 -0.3656507134 0.7950792909
0.20576376 -0.37508598 1.2423846 0.6891536713 -0.1523427218 0.7084200382
0.31487918 -0.34579375 1.1241051 0.7956274748 0.02634828165 0.6052129269
-0.085345998 -0.11244713 1.225154 -0.115050219 0.7593227029 0.6404626966
0.084864058 -0.49533188 1.2747647 0.4999938905 -0.1869507879 0.8456095457
0.24201202 -0.45522141 1.202 0.5804337263 -0.1610976756 0.7982131243
-0.021013699 -0.31273329 1.4100001 0.6205314398 0.09127565473 0.7788513899
0.18373364 -0.34362552 1.2729999 0.5721217394 -0.2253222018 0.7886105776
0.035377007 -0.0085960096 1.1313334 -0.09604501724 0.8248515725 0.5571312308
0.026772793 -0.38557559 1.3368462 0.5256583691 -0.2685797215 0.8071853518
0.22397478 -0.27538669 1.2416154 0.6792725325 -0.1632430702 0.7155002356
0.35146415 -0.32204437 1.0710001 0.7635205388 -0.08969543129 0.6395241022
-0.011685966 -0.19866145 1.3330001 -0.2051314414 0.7173154354 0.6658676267
0.3001312 -0.43162686 1.1450001 0.8129455447 -0.0532159321 0.5799031258
0.085504994 -0.34486583 1.3279997 0.4466567934 -0.2718412876 0.8524083495
0.20337439 -0.057956435 1.202 -0.1554775536 0.7756216526 0.6117497683
0.13454157 -0.28479412 1.3248422 0.5540709496 -0.2990896702 0.7768852711
0.14436667 0.034567103 1.0566841 -0.4222695529 0.2921159565 0.8581122756
0.16790241 -0.26796165 1.2970001 0.6343772411 -0.3013516366 0.7118656635
0.33147886 -0.1761999 1.1171819 0.6983882785 -0.1286247075 0.7040663958
0.35991549 -0.3746435 1.0500001 0.7345988154 0.06220008433 0.6756446958
0.095100559 -0.12336178 1.2677143 -0.07856075466 0.7143734694 0.6953407526
0.05561661 -0.062962197 1.1970001 -0.0848775804 0.7408630848 0.6662715077
0.13514484 -0.067620486 1.2103637 0.002688795794 0.7558397055 0.6547512412
-0.22348689 -0.4885067 2.256 -0.09813283384 0.714902997 0.6923031211
-0.12531845 0.0056501166 1.0747999 -0.03967064619 0.6801681519 0.7319819331
-0.27205509 -0.13029458 1.189 0.03166916966 0.6502212286 0.7590845823
0.19582443 -0.29570132 1.2677332 0.644174099 -0.1955215484 0.7394667268
0.072814174 -0.48565054 2.286 -0.04533357918 0.7134380937 0.6992502809
0.043489676 -0.38593671 2.184 -0.1024651974 0.6762324572 0.7295276523
0.054375429 0.057283152 1.0372002 -0.14984712 0.6489939094 0.7458905578
0.15319574 -0.39753327 2.2120001 -0.08105125278 0.7121428847 0.6973400712
-0.0053964676 -0.06472218 1.1861427 -0.1943566799 0.739507556 0.644479692
-0.044688959 -0.10420604 1.2254002 -0.1098467782 0.7809428573 0.6148673892
-0.044805992 -0.16423716 1.2869288 -0.1402665526 0.6952291727 0.7049692869
0.11437853 -0.023282923 1.1545999 -0.02809070796 0.8006777763 0.598436296
0.21518311 -0.29680428 2.1160002 -0.07069548965 0.6890687346 0.7212395072
0.31505418 -0.21433297 1.1248212 0.6545363665 -0.09278361499 0.7503154874
0.25151595 -0.19534647 1.2243334 0.8289328218 -0.005398401991 0.5593221188
-0.35817444 -0.00123084 1.404 0.5986921191 -0.236035347 0.765411675
0.0051137912 -0.34491995 1.3826669 0.6991225481 -0.2375085056 0.6744015217
0.061872505 -0.031443402 1.1570001 -0.07949585468 0.7845577598 0.6149386168
0.27531031 -0.38502479 1.1762002 0.7362046242 -0.0364054814 0.6757791042
-0.19367523 -0.26113942 1.2970001 -0.4633606076 0.1441724747 0.8743633628
-0.17103066 -0.20954086 1.2920001 -0.2065568417 0.6743776798 0.7089069486
0.040563367 -0.4543097 1.322 0.612528801 -0.1876338869 0.7678554654
0.22565444 -0.22529303 1.2546253 0.7098852992 -0.04136604071 0.7031015158
0.27452856 -0.2651743 1.1861999 0.8430461287 -0.01295790263 0.5376851559
0.035219163 -0.16455269 1.3048946 -0.0810053423 0.6536649466 0.7524362206
0.23831044 -0.050226863 1.2190001 0.2772854865 0.5397085547 0.794875741
-0.31306335 -0.12505196 1.1936666 0.09096893668 0.5647853017 0.8202086687
0.34272429 -0.41380185 1.0853498 0.8258216381 0.0686006844 0.5597432852
0.1998388 -0.46807161 1.2190001 0.5974881053 -0.2437882572 0.7639209628
0.11555732 -0.49536914 2.3010004 -0.0700692609 0.7037965059 0.7069376111
0.35487437 -0.23855297 1.0643334 0.7521279454 -0.03128968552 0.6582739353
0.23999801 -0.41550317 1.2060001 0.6638885736 -0.1394443363 0.7347157598
0.1150584 -0.40529004 2.2120001 -0.09088566899 0.7196183205 0.6883961558
0.1216901 -0.32103008 1.322 0.3733741045 -0.3368775845 0.8643525243
-0.057551414 -0.021254783 1.1190001 -0.1563282609 0.746140182 0.6471756101
0.036831833 -0.47483203 2.2710001 0.08446276188 0.7240043283 0.6846048236
-0.054793414 0.0077036689 1.0861818 -0.1387674809 0.7543312311 0.6416603327
-0.1476327 -0.27306208 1.3330001 -0.7027105093 0.1436262727 0.6968281269
0.14465964 -0.33440799 2.1430001 0.04801387712 0.7326430678 0.6789173484
0.19455142 -0.013964617 1.1465558 -0.1200193614 0.7667080164 0.6306775808
-0.26311591 -0.23226878 1.275 0.139411822 0.5472514629 0.8252758384
0.34113729 -0.26278085 1.09 0.7170307636 -0.1052228659 0.6890537739
-0.25478679 -0.085101359 1.1555998 0.06952586025 0.5247728229 0.8483982682
-0.074960522 -0.062822402 1.165706 -0.1236625463 0.7993511558 0.5880010724
0.042036165 0.10831217 1.0500001 0.7252172232 -0.005583605263 0.6884974837
0.26114818 -0.48182917 1.1836667 0.6113877296 -0.1533583254 0.7763286829
0.0045315316 0.026150215 1.0746666 -0.1070332304 0.810526073 0.5758396983
0.15347452 -0.35470927 1.2919999 0.5392702818 -0.2314600945 0.8096997738
0.32275289 -0.4051058 1.1154737 0.7652902007 0.001608078601 0.6436833739
0.0041080597 -0.14079441 1.278 -0.1447556317 0.7267331481 0.6714943647
0.29427144 -0.1449209 1.1559999 0.8117269278 -0.05103814974 0.5818027854
-0.25576922 -0.17347409 1.2352002 -0.2529064417 0.6788178086 0.6893799305
0.18544185 -0.41457251 1.2535419 0.5522173643 -0.2499725223 0.795342505
0.08507812 -0.34272793 2.1429999 -0.370741576 0.6881948113 0.6236494184
-0.11529492 -0.19308758 1.2964444 -0.235577479 0.6469243765 0.7252531052
-0.042574439 -0.23061155 1.3490001 -0.1249003038 0.6508535743 0.7488588095
0.13888504 -0.3895556 1.2880001 0.5317064524 -0.2372158319 0.8130294681
-0.0058433595 -0.021520665 1.138 -0.1979038268 0.7435290813 0.6387476325
0.16183074 0.0062315222 1.077 -0.4354149699 0.2437211722 0.866610527
-0.19642527 -0.091938883 1.1685001 -0.1710664481 0.7006598115 0.69268471
-0.23533835 -0.2120375 1.2589999 -0.13906914 0.2853405774 0.9482829571
-0.098490871 -0.268722 1.3870001 -0.1994228065 0.8591070771 0.4713444114
0.25400856 -0.33493814 1.2045454 0.7531831264 -0.1023923904 0.6497930288
-0.32712486 0.004600571 1.381 0.5697998405 -0.2403644472 0.7858454585
0.10472266 -0.45500252 1.2738334 0.2390093505 -0.3218307793 0.9161328673
-0.12237231 -0.017593471 1.1026001 -0.1321473718 0.6900626421 0.7115831971
0.16922735 -0.45193657 2.2710001 -0.08862597495 0.7018897533 0.7067504525
-0.0371093 0.42239115 1.245 0.4274634421 -0.4093255103 0.8060568571
-0.06277284 -0.26955396 1.404 -0.0952616334 0.8139304519 0.5730990171
0.044888001 0.035702985 1.0640799 -0.04814922065 0.8116486073 0.5821582079
-0.02339072 0.3625986 1.2048572 0.5082902908 -0.4025010765 0.761336863
-0.0059407651 0.3161884 1.1742309 0.4092835188 -0.4308713675 0.8042616844
0.12536508 -0.0019742537 1.1260002 -0.01736567356 0.7891460657 0.6139600277
0.0056716832 0.25520182 1.1358001 0.5519974232 -0.3921507001 0.7358781695
0.10386922 -0.39404356 1.302 0.3224190772 -0.2357031256 0.9167823792
0.20764376 -0.20577647 1.278 0.7559191585 -0.04665290192 0.6530005932
0.034572665 0.21032503 1.0955 0.5755061507 -0.347700268 0.740200758
-0.10374439 -0.24760959 1.3540001 -0.1215761602 0.6549956203 0.745788157
0.21894312 0.10452058 1.2550001 -0.7591466904 0.5573228598 -0.3362849653
-0.31583634 -0.035441954 1.35525 0.6314579844 -0.3090675473 0.7111526132
0.2454053 -0.34813309 2.1700001 -0.09803592414 0.7180119753 0.6890919805
-0.01380199 -0.086914487 1.2111429 -0.2083259523 0.7332037091 0.6473118663
-0.0015877895 -0.40640911 1.3581667 0.6070742011 -0.2755101323 0.7453556657
0.084058657 -0.42380944 1.304 0.348904103 -0.3958531022 0.8494505286
-0.054598801 0.04777395 1.0380001 -0.01697472855 0.7120606303 0.7019127607
0.24766971 -0.15975234 1.223 0.7853569388 0.1294810027 0.6053504348
-0.2212882 -0.12961166 1.202 -0.1948053986 0.6519321799 0.7328269482
0.075447157 -0.080576703 1.2190001 -0.08794294298 0.7349586487 0.6723852158
0.020772617 -0.21722223 1.3540001 -0.01489354111 0.699801743 0.7141818404
0.25275028 -0.027541066 1.1930001 0.09777208418 0.6275517344 0.772411406
0.065044455 0.0077660396 1.1073999 -0.009371012449 0.8086104989 0.5882697105
-0.17517596 -0.054537579 1.1326666 -0.04514520615 0.7181674242 0.6944043636
-0.014185928 -0.28736636 1.3870001 0.7028731108 0.1753818542 0.6893551946
0.025022695 -0.10770639 1.2410001 -0.0528902337 0.7545520663 0.6541053057
0.036672719 -0.41620624 1.3280001 0.5454931855 -0.119148992 0.829602778
-0.17521353 -0.17626591 1.2553687 -0.1751182377 0.6821253896 0.7099567056
-0.11083557 0.056964744 1.0380001 0.13217327 0.5625832677 0.8161067963
-0.18525904 -0.011802722 1.097 0.2081965208 0.5771018267 0.7896883488
0.26997039 -0.088600315 1.189 0.4773376286 -0.2996557951 0.8260479569
0.20221017 -0.25686157 2.0780001 -0.07586811483 0.6804237366 0.7288810015
-0.13519512 -0.057084739 1.1423334 -0.1390781701 0.796160996 0.5888844728
0.14572646 -0.027738612 1.1639092 -0.03222237527 0.8075858355 0.5888690948
0.19503182 -0.036347881 1.1742309 -0.02583265118 0.7348024845 0.6777890325
0.15065955 -0.42073074 1.273 0.5155184865 -0.2234341949 0.827235043
0.3754088 -0.30463085 1.0470001 0.6450843811 -0.1776294112 0.7431782484
0.029479669 0.068785898 1.0190001 -0.113115944 0.7618884444 0.6377544403
0.29446271 -0.35513917 1.1555262 0.8153166175 0.03986939788 0.5776411295
0.10004871 0.0087421201 1.108 -0.1118843108 0.8064697981 0.5805931091
-0.20274495 -0.21803577 1.2920001 -0.4534263611 0.1575439423 0.8772596121
-0.036818944 -0.25290117 1.3724 -0.166490227 0.828843236 0.534134686
0.045186028 -0.43810803 2.2410002 -0.0987592116 0.713591218 0.6935662627
-0.14492351 -0.21911056 1.312 -0.2448642105 0.7100316286 0.6602246165
0.10314202 -0.43712568 2.2410002 -0.08175334334 0.7052482367 0.7042310238
-0.1956967 -0.14344211 1.2164999 -0.1573733836 0.6821027994 0.7141214013
-0.22413182 -0.043553784 1.128 0.1787439585 0.4968287945 0.8492418528
0.32986423 -0.33563447 1.097 0.8473106623 -0.01364288758 0.5309222937
-0.11369787 -0.16708548 1.2739999 -0.2270450592 0.6952495575 0.681966722
-0.082970358 -0.21852757 1.3330001 -0.1874855906 0.7206625342 0.6674538851
0.17427957 -0.068408802 1.2111429 0.07138752192 0.7483792901 0.6594181061
-0.13762966 -0.24280687 1.3380002 -0.472142756 0.5277302861 0.7061033845
-0.086062945 -0.14922504 1.2640001 -0.1629551351 0.6998209953 0.6954826713
-0.016595738 0.10046381 0.99650002 -0.01670829765 0.6144384742 0.7887877822
0.1285544 -0.44895151 2.256 -0.1059436426 0.7079709768 0.6982499361
0.19912694 0.01819434 1.153 -0.3510884643 0.06822902709 0.9338531494
-0.0019269133 -0.40657872 2.1980002 -0.07653637975 0.7035875916 0.7064748406
0.13537745 -0.45579559 1.2663157 0.4513961077 -0.2715304494 0.850007534
0.014991986 -0.35552281 1.3546251 0.5536230803 -0.3372101784 0.7614399195
0.27756408 -0.29510531 1.177 0.8290033937 -0.01677857153 0.5589918494
0.054718025 -0.36789143 1.3280001 0.3709097803 -0.3373437822 0.865231216
-0.13481496 -0.088153213 1.1830001 -0.2476317734 0.757316649 0.6042764187
0.12545907 -0.04554224 1.1847894 -0.01230659895 0.7784916759 0.6275342703
0.30798352 -0.45901391 1.126 0.7354803681 0.005480697844 0.677523911
0.22440441 -0.39506978 1.2235998 0.527631402 -0.1465824693 0.836730957
-0.02512246 -0.14161955 1.268 -0.1737372577 0.7123664021 0.6799628735
0.054835375 -0.31671074 1.3472859 0.4346185923 -0.2175630629 0.8739410639
-0.31664151 -0.45681697 2.2120001 -0.09651466459 0.7116398215 0.6958833933
0.28300074 -0.18494532 1.1745386 0.8353706002 0.03692148626 0.5484457612
-0.25140169 -0.14744657 1.21 -0.1647209078 0.6556971669 0.7368366718
-0.014135999 -0.045625363 1.1638572 -0.2347684652 0.7608590722 0.6049605608
0.0052133282 0.0052075675 1.1050475 -0.08009584993 0.8102787733 0.5805454254
0.041742481 0.16931501 1.0700001 0.5848209858 -0.2766538858 0.7625267506
0.29865578 -0.32583508 1.1483334 0.8701483011 0.003632527078 0.4927765429
-0.095080607 0.014521881 1.0730369 -0.07607474178 0.7234988213 0.6861210465
-0.2226558 -0.18008925 1.245 -0.1783375889 0.7108484507 0.6803603768
0.22595061 -0.35463417 1.2246 0.6180090904 -0.1149567515 0.7777208686
0.084662199 0.065424435 1.027357 0.2390555441 0.5414648056 0.8060200214
0.063263997 -0.48489597 1.2933333 0.6143224835 -0.1983001381 0.7637309432
-0.13747063 -0.13273768 1.2270001 -0.3278517425 0.6627800465 0.6732279062
-0.075417742 -0.093605474 1.2038462 -0.09995881468 0.7689906955 0.6313965321
0.056236412 -0.40916839 2.2120001 -0.08751019835 0.7329849601 0.6745924354
0.34890544 -0.35171166 1.067 0.8231781125 0.009284202941 0.5677073598
0.18398604 -0.35682964 2.1700001 -0.09608113021 0.7327925563 0.6736345887
0.3191275 -0.37472677 1.1174999 0.7948282361 0.05827045441 0.6040303111
0.15510231 -0.47522184 1.2548184 0.4697899222 -0.297524184 0.831129849
0.2729789 -0.45464209 1.1734707 0.7132768631 -0.1044575498 0.6930546165
-0.16480125 -0.096809424 1.1834615 -0.165181011 0.7240191698 0.6697099805
-0.093527183 -0.028550403 1.123 -0.1758526117 0.7441427708 0.6444590092
0.13522723 -0.086547695 1.2340001 0.008239704184 0.7271248698 0.6864557862
0.162534 0.037556399 1.08 -0.2259885818 0.5274091363 0.8190047741
0.31085482 -0.28378114 1.123 0.7977337837 0.006171314046 0.6029782295
0.17137781 -0.2415392 1.312 0.6737152934 -0.2550393343 0.6935868263
0.023974203 -0.061499044 1.189 -0.1567176282 0.7342443466 0.6605489254
0.015100582 -0.18817914 1.3250002 -0.09124311805 0.7144976854 0.6936625242
-0.22475486 -0.084333792 1.1554998 -0.06433910131 0.6651780009 0.7439077497
-0.034339122 -0.18599562 1.3145001 -0.1595798135 0.6776402593 0.7178704739
-0.17500195 -0.27351299 1.322 -0.629363656 0.05790527165 0.7749505639
0.30173725 -0.1186472 1.1450001 0.7627022862 -0.3016267121 0.5721070766
-0.26551482 -0.10653498 1.1730002 0.03384521231 0.6316531897 0.7745119333
0.085430242 -0.37444568 1.3137649 0.4491383135 -0.3624857664 0.8166264892
0.084685996 -0.14227247 1.2880001 0.002414433286 0.6967826486 0.7172782421
-0.16467631 -0.12553747 1.2118948 -0.2262366861 0.6707860231 0.7063024044
0.15305197 0.010723387 1.1120001 -0.06535071135 0.7370282412 0.6726951003
0.10659612 -0.27676302 1.336182 0.3217044771 -0.1430800855 0.9359670281
-0.12306208 -0.038395371 1.123 -0.1687167138 0.7374253273 0.65401721
0.10604686 -0.067275688 1.2116667 -0.09914488345 0.7477470636 0.6565398574
0.10147592 -0.37718406 2.184 -0.1605833471 0.5671967864 0.807775259
0.20516755 -0.34511483 1.2533638 0.6658936739 -0.2231646776 0.711887002
0.34272468 -0.29513666 1.0837725 0.7581254244 -0.07599982619 0.6476649642
0.18853945 -0.44751027 1.2360001 0.5905712247 -0.2421408743 0.7698009014
0.074469544 -0.18326037 1.3272501 -0.09782918543 0.6927960515 0.714466989
0.18663795 -0.42632037 2.2410002 -0.08496190608 0.7155358791 0.6933901906
0.28646711 -0.21505179 1.1656667 0.8708335161 -0.00818340946 0.491509974
0.06172917 0.12346229 1.0355 0.5042793751 -0.2961323559 0.8111768961
-0.083963625 -0.1989823 1.312 -0.1889152974 0.6764754653 0.7118229866
0.2363168 -0.30452466 1.2266189 0.6424082518 -0.120507516 0.7568286657
0.057519328 -0.43425947 1.307 0.5738092661 -0.155350104 0.804120183
0.22524109 -0.040857047 1.1950001 -0.4190937877 0.6319881082 0.6518830061
-0.035255555 -0.063146502 1.1748463 -0.1910614669 0.7532852888 0.6293303967
-0.02141083 0.29363775 1.163 0.4443549514 -0.3669454753 0.8172513247
-0.15468603 -0.013453196 1.09595 0.04602798074 0.6241956949 0.7799109817
0.044660665 -0.045412365 1.1748183 -0.1014829278 0.7863346338 0.6094087362
0.076583259 0.041235182 1.061 -0.09861589223 0.8110505342 0.5766037703
-0.053599402 0.068785898 1.0190001 0.08708105981 0.6373075843 0.7656735182
-0.18459935 -0.034189194 1.1141199 0.08133757859 0.6294912696 0.7727385759
0.051970057 0.081970088 1.0505716 0.7506999969 0.06110768765 0.6578110456
0.17651168 -0.31481233 1.277375 0.6144220233 -0.1293970495 0.7782942653
0.30044857 -0.26435676 1.1436667 0.8967435956 -0.006476838607 0.4425030947
-0.015133898 0.045746092 1.0447145 -0.109669216 0.7711796165 0.6271002293
-0.025160648 0.014694049 1.0849091 -0.1541513056 0.8068941832 0.5702272654
-0.14391944 -0.15816529 1.25 -0.3176168203 0.6394693255 0.7001418471
0.25542688 -0.39484569 1.195286 0.7118950486 0.001964823343 0.702283144
-0.11477461 -0.11679108 1.2249999 -0.1967646033 0.7118508816 0.6742047071
0.10332832 -0.31749973 2.1430001 -0.4307912886 0.7993320227 0.4189118743
0.01169824 0.19789523 1.1120001 0.5594995022 -0.3233265877 0.7631645799
0.22159503 -0.37960193 2.1980002 -0.1025389209 0.7112561464 0.6954138875
0.12707283 -0.2584466 1.3379999 0.4392029345 -0.3832099736 0.8125582337
0.26265112 -0.36444846 1.1930001 0.734901309 -0.09905344993 0.6709012389
-0.36151472 0.036624853 1.4210001 0.547334671 -0.3570184112 0.7569429278
0.24572815 -0.27560452 1.2249999 0.7532917261 -0.09253832698 0.6511437893
-0.10396877 -0.096341223 1.2035383 -0.1244719848 0.7584986091 0.6396769285
-0.16636197 -0.45517805 2.2260001 -0.08502245694 0.7045922875 0.7045004368
0.19594468 -0.49508685 1.217913 0.5707268119 -0.2752702832 0.7736259699
0.28873834 -0.40504512 1.1570001 0.7769877315 -0.05763376132 0.6268719435
-0.061636679 -0.17920294 1.302 -0.2124738693 0.6631245017 0.7177191377
-0.0070972745 0.08075393 1.0122499 -0.02745296992 0.6687341332 0.7429946065
0.14004751 -0.13108446 1.2780001 0.01093374286 0.6990168691 0.7150216103
0.30809319 -0.31445467 1.126 0.8306171894 0.02384849451 0.5563328862
-0.02489032 -0.38611904 2.184 -0.1131328493 0.6950505972 0.7100039124
0.025942847 -0.47374907 1.3330001 0.6798431277 -0.07981453836 0.7290013433
0.12745857 -0.35954729 2.1700001 -0.02730898745 0.5136759877 0.8575495481
-0.38346362 0.11789326 1.467 0.1856690943 -0.5224362612 0.832218349
-0.19612436 -0.16145045 1.2360001 -0.1723937839 0.7041689157 0.6887862682
0.0060516298 -0.49421644 2.3010001 0.1257964224 0.7385107279 0.6624025702
0.017231761 -0.3886719 2.184 -0.1118207648 0.6737854481 0.730417192
0.33563447 -0.19330236 1.097 0.7637827396 -0.05177964643 0.6433932185
-0.074949145 -0.046513695 1.1450001 -0.1543661803 0.7589176893 0.6326255202
-0.01333673 -0.32614017 1.383 0.7770721316 0.1713147759 0.6056485176
0.22297621 0.066762984 1.204 -0.5157031417 0.6137132645 -0.5978346467
0.18763298 -0.36533242 1.2589999 0.6346389055 -0.1811863929 0.7512688637
0.33047527 -0.23104024 1.1120001 0.687748313 -0.1508933157 0.7100939751
0.3517625 -0.38928384 1.0700001 0.8187360168 0.04868149012 0.5721026063
0.27724731 -0.14532416 1.1756668 0.8070275784 -0.03570246696 0.5894334316
-0.040791299 -0.29171962 1.4100001 0.1583230942 -0.1633568555 0.9737804532
0.13630639 -0.33580288 1.3065835 0.5088330507 -0.2874645293 0.8114511967
-0.034385446 -0.026333522 1.1321176 -0.1653359085 0.7421113849 0.6495650411
0.032831166 0.13882893 1.0700001 0.5842697024 -0.3306386769 0.7411524653
0.20358217 -0.23057649 1.2830001 0.7361212373 -0.112664789 0.6674070358
-0.32907873 -0.055045899 1.365 0.6511971951 -0.2839814425 0.7037732005
0.0058543799 -0.42736974 2.2260001 -0.08253035694 0.7534790039 0.6522715688
0.22811306 -0.2488506 1.245 0.7026450038 -0.233845219 0.6720166802
-0.11518956 0.024978733 1.0612222 0.04852222279 0.6393137574 0.767413497
0.3001312 -0.22283989 1.1450001 0.8476900458 -0.007470733952 0.5304392576
-0.37214938 0.084522069 1.439 0.3678624034 -0.423262924 0.8279648423
-0.0075454698 -0.36655101 1.3590001 0.6492912769 -0.2603597343 0.7145863771
-0.22600116 -0.25567806 1.302 -0.1130262315 0.6158015728 0.7797521949
0.29403752 -0.090592541 1.1810001 0.3641753793 -0.320846498 0.8743190765
0.25988784 -0.071071364 1.21 0.5327340364 -0.04346841946 0.8451656103
0.00107567 -0.10003731 1.2270001 -0.1822081208 0.7631614804 0.6199876666
0.0053945682 0.062911578 1.0252498 -0.04404702783 0.7615716457 0.6465821862
-0.15122354 0.028373903 1.067 0.2114901096 0.4627576768 0.8608874679
0.11419372 0.032693531 1.081 0.2136914581 0.9130085707 0.3474929333
0.30723226 -0.16486233 1.1361054 0.6450095773 -0.05608186126 0.7621138096
-0.39475948 0.14557576 1.4960001 0.5373185873 -0.3823379278 0.7517356277
-0.087679811 -0.13279308 1.245 -0.1160296351 0.6954267621 0.7091675997
-0.11513121 -0.066048279 1.1635 -0.1562001705 0.7940487862 0.5874419212
-0.24473202 -0.12794395 1.193 -0.1492963582 0.6695370078 0.727619946
-0.039670043 0.36882418 1.223 0.4294190407 -0.4348776042 0.7915053964
-0.23481779 -0.065377489 1.1424546 0.01281448547 0.5503534675 0.8348334432
0.17103066 -0.29222459 1.2920001 0.6199257374 -0.1902005672 0.7612593174
0.10519087 -0.10684192 1.2520834 -0.08892026544 0.7371134758 0.6698932052
0.26391715 -0.23541673 1.2041998 0.8491877913 -0.001303310972 0.5280893445
0.24043548 -0.20997307 1.2410001 0.7945577502 0.02096807212 0.6068264246
-0.033928752 -0.20944035 1.3346667 -0.2625569105 0.6439933777 0.7185655236
0.32585666 -0.27541372 1.1051666 0.7715526223 -0.07250215858 0.6320205927
-0.034144413 -0.11805164 1.243 -0.08583278209 0.7659396529 0.6371571422
0.22492111 -0.33738166 2.1560001 -0.09999924898 0.7190801501 0.6876946092
-0.065156169 0.026011104 1.0630414 -0.08206846565 0.7741642594 0.6276419759
0.17513499 -0.028063774 1.162091 -0.01235395484 0.7865240574 0.6174360514
0.036113009 -0.027842851 1.153 -0.07567286491 0.7630889416 0.6418480277
0.054472554 -0.15320699 1.2945 -0.03876251355 0.6731008887 0.7385340929
0.075310051 -0.43679824 2.2410002 -0.08359768242 0.7083723545 0.7008709311
-0.064921714 -0.15555117 1.2748181 -0.2132338434 0.7062286139 0.6751092076
-0.18489645 -0.074467137 1.1556665 -0.1021424383 0.7218017578 0.6845210791
0.26503742 -0.31552324 1.1944739 0.7994403839 -0.06579205394 0.5971319079
0.085340865 -0.025301479 1.1543332 -0.09266871214 0.8030183315 0.5887054801
0.25365049 -0.43416432 1.1933635 0.6693034172 -0.1498029381 0.727730751
0.28607753 -0.27526274 1.165706 0.8426383734 -0.03384599835 0.5374151468
0.0083090467 -0.38459015 1.3540001 0.683907032 -0.08320543915 0.7248089314
0.054482203 -0.34568018 2.1430001 -0.07248806953 0.7380197644 0.6708742976
0.2590287 -0.26854402 1.2060001 0.8200519681 -0.06355812401 0.5687487125
0.065133579 -0.12520126 1.2654285 -0.08218222857 0.7185670137 0.690584898
0.14684199 -0.49577016 1.245 0.446474582 -0.4601884484 0.7673897743
0.22712679 -0.21997319 2.0400002 -0.06224024296 0.687202096 0.7237951756
-0.3423734 0.073188514 1.4150001 0.5089941025 -0.3231689632 0.7978011966
0.1060826 -0.34554681 1.3153332 0.4014076889 -0.274345547 0.8738457561
-0.24472663 -0.18715712 1.2518462 -0.08924256265 0.5975135565 0.7968772054
0.056127168 -0.46602708 1.3066154 0.60655725 -0.2344379574 0.7596888542
0.10621518 -0.47897035 2.286 -0.07285442203 0.6970297694 0.7133314013
0.13492525 -0.015395045 1.144778 -0.0282596834 0.8031557798 0.5950984955
0.096322067 -0.43646058 1.2875835 0.3212416172 -0.3920561969 0.8620300293
0.075086094 -0.32496926 1.3372104 0.4487548172 -0.2524475455 0.8572568893
0.22196762 0.048133384 1.1850001 -0.6440808177 0.6453470588 -0.410715282
0.17716205 -0.46863973 1.2360001 0.5615680814 -0.2718845904 0.781485796
0.15546368 -0.077195764 1.2229999 0.03993197531 0.7178131938 0.6950896382
0.0079110395 -0.46081808 2.256 0.1149605587 0.7772044539 0.6186576486
-0.31827384 -0.016814467 1.3700001 0.6036415696 -0.2977149487 0.739582777
0.20762262 -0.27531767 1.2589999 0.721205771 -0.2002810687 0.6631363034
0.22430542 -0.44464788 1.2140001 0.5022338033 -0.2109883279 0.8385971189
0.054718234 0.02446999 1.0833077 -0.053716328 0.8430837393 0.5350928903
-0.35827789 0.022468967 1.3980001 0.5942137837 -0.2851531804 0.7520622611
-0.37966943 0.16536126 1.5090001 0.5604254603 -0.3576561213 0.7469975948
0.21209022 -0.30433837 1.2526667 0.7388694286 -0.09413392097 0.6672411561
0.10615908 -0.47854954 1.268 0.2016092837 -0.2969035208 0.9333820343
0.055314161 -0.17285894 1.3145001 -0.1030425206 0.6993772388 0.7072861195
0.014988787 -0.15447439 1.2941054 -0.1151386276 0.665817976 0.7371767163
0.28571609 -0.31559175 1.1653811 0.8145514727 0.01926569827 0.5797712207
-0.015505221 -0.15450709 1.2864376 -0.2504059076 0.6662151814 0.7024629712
0.23383813 0.2664063 1.4860001 -0.9515503645 -0.2008199394 0.2328588217
-0.13720243 -0.20201349 1.2970001 -0.313618958 0.6748236418 0.6680241227
0.20630094 -0.40546322 1.2346668 0.6867044568 -0.1306469887 0.7151002288
-0.21441087 -0.22584984 1.273 -0.5566192865 0.1582751274 0.8155513406
0.27871054 -0.23422691 1.177 0.8451780081 -0.005436380394 0.5344573259
-0.034723599 0.078275234 1.0070001 0.01354717277 0.6531427503 0.7571136355
0.18934421 -0.27561349 1.2780001 0.635938704 -0.2270269096 0.737591207
-0.18595555 -0.23908997 1.2950001 -0.603658855 0.1190241352 0.7883078456
0.16519415 -0.34437498 2.1560001 -0.07466254383 0.695778966 0.7143648863
0.044102471 -0.091431953 1.2270001 -0.1247319207 0.7217510343 0.6808211207
-0.024823455 -0.076562092 1.1933635 -0.1808414161 0.756819427 0.6281088591
0.19465402 -0.32453883 1.2651999 0.6088984609 -0.09339524806 0.7877309322
0.22863115 -0.17228603 1.2360001 0.7436454296 0.08547760546 0.6630874872
-0.064866565 -0.0074613099 1.1013635 -0.1684994698 0.7701442838 0.615211904
-0.15707412 -0.436317 2.2120001 -0.08502937853 0.705530107 0.7035604715
