# .PCD v0.7 - Point Cloud Data file format
VERSION 0.7
FIELDS x y z normal_x normal_y normal_z
SIZE 4 4 4 4 4 4
TYPE F F F F F F
COUNT 1 1 1 1 1 1
WIDTH 512
HEIGHT 1
VIEWPOINT 0 0 0 1 0 0 0
POINTS 512
DATA ascii
0.34767285 -0.44921538 1.2590001 0.6828382015 -0.132211253 0.7185069323
-0.49417856 -0.49417856 2.3810003 0.2355633974 0.850864172 0.4696168602
-0.21738526 0.20228907 1.7220001 0.9995725751 0.01444123965 0.0254180003
0.4341788 -0.41846192 2.2410002 -0.265722394 0.8535397053 0.4481758475
0.44835189 0.19881046 1.5640001 -0.5080369115 0.7950438857 -0.3313663602
-0.031660818 0.025532916 1.1650001 0.275854826 0.4097397029 0.86949265
-0.29313716 -0.18251938 2.1030002 -0.01266598608 0.7632166147 0.6460185647
0.029902223 -0.26391962 1.483 -0.1314517558 0.6903603077 0.7114232779
0.18629055 0.42493868 1.3380002 0.7044605017 -0.4029833078 0.5842429996
0.37132233 -0.033913676 1.2320001 -0.5293959379 0.7298618555 -0.4324831069
-0.19888498 0.027869234 1.4450001 0.4720100164 -0.4548516572 0.7551930547
0.4748728 0.0077848001 1.7760001 0.4608999491 0.7122076154 0.52946347
0.20847133 0.19075127 1.189 0.4323308468 -0.4730660617 0.7676578164
0.10804941 -0.49578652 1.3760002 0.2954598963 -0.4854634106 0.822817564
0.13558672 -0.11114293 1.307 -0.01431127451 0.7694985867 0.6384881735
-0.14783755 -0.0080346502 1.8330001 0.9937824607 0.001051162952 0.11133416
-0.14669088 -0.17346779 1.3280001 -0.04504462332 0.4232147038 0.9049090147
0.27398497 -0.2752158 1.4040002 0.6054555178 -0.2622138262 0.7514436245
0.4413552 -0.24792835 1.2190001 0.4964455962 -0.3043472469 0.8129665256
0.25294462 -0.45612967 2.365 -0.1192535982 0.8931663632 0.4336271286
0.49653524 -0.27300277 2.0900002 -0.8289452195 0.4587717354 0.3199661076
0.25836417 0.25049523 1.4960001 0.4048487246 0.8968861103 -0.1780248433
0.38525292 0.080004603 1.404 -0.03091682866 0.6406677365 -0.7671955228
0.17573424 0.0015883947 1.153 0.0919873789 0.8267980218 0.5549263954
-0.18986496 0.19255808 1.536 0.4022947252 -0.4702952802 0.7854815722
0.33138001 0.1752632 1.6800001 0.1967117935 0.9552817345 0.220774278
0.45872429 -0.41723576 1.1450001 0.5364437103 -0.1807442307 0.8243541121
-0.15270643 -0.045405123 1.2353847 0.1848366708 0.4744176865 0.8606760502
0.29437414 -0.13675649 1.322 0.1281038672 0.7675622106 0.6280426979
0.14559755 -0.35595852 1.427 0.07492532581 -0.4506779313 0.8895367384
-0.016107811 -0.10325699 1.2862145 -0.1453044862 0.7663385272 0.6257889867
0.24484667 -0.35481015 2.256 -0.1161944345 0.8922390938 0.4363579154
0.14741297 -0.20720863 1.4210001 -0.01335465629 0.6794068813 0.7336401939
0.23691888 -0.43796483 1.3490001 0.4674653113 -0.4159249067 0.7800529599
0.218297 0.30916175 1.2640001 0.06362997741 -0.5526394248 0.8309879303
0.34821749 -0.31581196 1.2970001 0.7822554708 -0.2097269744 0.5865926743
-0.024284873 -0.19429111 1.3851252 -0.06478722394 0.7579323649 0.649107933
0.3030479 -0.0088841403 1.126 -0.001145072514 0.6313095093 0.7755301595
0.075258076 -0.043488182 1.214 -0.06372680515 0.80346632 0.5919297338
0.076477356 0.064303145 1.1079999 0.2682650983 0.459302038 0.8468030691
0.2458061 -0.061722942 1.2352002 0.1146357656 0.804505825 0.5827769637
0.41171619 -0.14465545 1.2835555 0.4226060808 -0.1388834864 0.8956090212
0.24461713 0.094750568 1.13025 0.4975364506 -0.3473970592 0.7948413491
0.048358392 -0.41504118 1.439 0.3169958293 -0.3656878769 0.8750920296
0.40448785 -0.35480881 1.2132905 0.7810469866 -0.2262199372 0.5820568204
0.4211134 0.14855336 1.4735 0.7391929626 0.4159123003 -0.5297270417
0.36871669 0.014316551 1.324 -0.4774552584 0.7653908134 -0.4315244853
0.40756145 -0.49094999 1.189 0.7661325932 0.01220729109 0.6425666213
0.074545167 -0.16472436 1.3715 -0.009714039043 0.7065843344 0.7075622082
0.23437475 -0.1838689 1.3819234 0.06960996985 0.6957279444 0.7149245143
0.16329181 0.07684046 1.0684999 0.1421059966 0.6110539436 0.7787290812
-0.16779926 -0.04012591 1.3870001 0.3582113385 -0.3627281487 0.8602981567
0.34143537 -0.23429531 1.3430001 0.8104502559 -0.1041131467 0.5764814019
-0.19623204 0.11470408 1.4840001 0.103872329 -0.4977225065 0.861093998
0.28469086 -0.35408288 1.3547144 0.6490213275 -0.3190704584 0.6906268001
-0.054680329 -0.048247349 1.223 0.04233010113 0.723413229 0.6891164184
-0.10432591 -0.10644827 1.2844708 0.06162062287 0.7295030951 0.6811960936
0.28589976 -0.49518001 1.3045001 0.5306022763 -0.2608501613 0.8064852357
0.15503192 -0.058476958 1.2410001 0.002931794152 0.7883431315 0.6152288318
0.16554372 -0.43398058 1.3948574 0.3274419904 -0.2868252993 0.900284946
0.0673806 -0.33561954 1.4640001 0.7606166005 -0.2345945388 0.6053327918
0.21944807 -0.11029255 1.2970001 0.1174795702 0.7554919124 0.6445389986
-0.10092274 -0.22251642 1.3870001 -0.06494687498 0.507810235 0.8590173125
0.38821632 -0.2254855 1.2761817 0.7736312151 -0.188605234 0.6049155593
0.34468779 -0.10331271 1.2653333 -0.09305486828 0.7877966762 0.6088654995
0.045578659 0.0070884349 1.1553999 0.08429479599 0.6981920004 0.7109305859
0.22032036 -0.34094268 1.404 0.4284913838 -0.3434222937 0.83573699
0.44562018 0.14664179 1.6240001 -0.9101197124 0.3109937012 0.2737974524
-0.18148577 -0.10615206 1.302 0.3661188781 0.6350215673 0.6802238822
0.064982042 -0.090750776 1.2780001 0.02046403848 0.7999401093 0.5997308493
-0.046481747 -0.2537652 1.4330001 -0.5607868433 0.3961258531 0.7270504832
0.045106631 -0.21733181 1.4235715 -0.07618498802 0.7836636305 0.6164959073
-0.065160967 -0.15256327 1.3352224 -0.06734324992 0.7500634193 0.6579284072
0.32606038 -0.060878363 1.177 0.3040225506 0.9260744452 0.2235091776
0.18573684 -0.49526459 1.356222 0.2619077563 -0.4277355075 0.8651280999
0.24531382 -0.018624198 1.1730002 0.09850730002 0.7824031115 0.6149322391
0.30480647 -0.41564515 1.317 0.6490294933 -0.2758155167 0.7090038657
0.15436785 -0.15915444 1.3650001 0.08787741512 0.7301186919 0.6776461601
0.23544714 0.024419514 1.1143999 0.1191466376 0.5198220015 0.8459250331
0.01407576 -0.14193058 1.3380001 -0.08441157639 0.7460323572 0.6605379581
0.20466155 0.24672829 1.2337779 0.6532507539 -0.3362327218 0.678388536
0.35905111 -0.37906015 1.268 0.6991292834 -0.1580970734 0.6972973347
0.39450783 -0.42563614 1.2122858 0.8575922847 -0.1006178036 0.5043922067
0.18869592 0.36367071 1.3045001 0.6683038473 -0.3157069981 0.6735718846
0.45263031 -0.33238438 1.169 0.5894315839 -0.1864982843 0.7859954238
0.0052468502 -0.030431729 1.197 0.05662662536 0.7855734229 0.6161718965
0.39681211 -0.29515493 1.2442 0.7903825641 -0.1499030143 0.5939903259
-0.22385332 0.21829174 1.5860001 0.8072164655 -0.2234758586 0.546315074
0.11463406 -0.0070656841 1.1750002 -0.03607286513 0.7980322242 0.6015341282
0.13522185 0.034175839 1.1139998 0.1641765684 0.7469510436 0.6442904472
0.31335691 -0.29236165 1.3556668 0.7103778124 -0.2679904997 0.6508029103
-0.10430361 -0.0087583382 1.2110001 0.2905245423 0.3803654909 0.8780191541
0.2931056 0.21513663 1.6470001 0.2220304459 0.9385902286 0.2641039193
0.10342299 -0.43442136 1.4123334 0.5015211701 -0.1571497172 0.8507528901
-0.17210807 0.082913384 1.4330001 0.673925519 -0.2313153446 0.7016534805
0.28502449 -0.09836375 1.2749999 0.1596660167 0.7847217917 0.5989311337
0.3130708 -0.45820299 2.365 -0.1197238788 0.8943240643 0.4311040342
0.19532992 -0.034381479 1.2036842 0.1221109033 0.8109310865 0.5722584128
0.4171485 -0.45804673 1.1324 0.7805267572 -0.5291546583 0.3328262866
0.025054494 -0.064273752 1.2426001 0.03381176665 0.8048120737 0.5925658345
0.23534589 0.14479558 1.1611903 0.5630544424 -0.4285846353 0.7066009641
0.21356475 -0.29019684 1.4330001 0.3987204731 -0.3882199824 0.8308473229
0.066090591 -0.47271311 1.436 0.637139678 -0.2727284729 0.7208829522
0.07472235 -0.12561326 1.3238462 -0.0434076637 0.7843417525 0.6188083887
0.21452773 -0.39376339 1.3814288 0.4172087908 -0.2933131754 0.8601768613
0.41612589 0.1766866 1.5230001 -0.5142860413 0.7597458959 -0.3978642821
0.21404465 -0.14811231 1.3430001 0.1229796037 0.7380746007 0.6634168625
0.39559406 0.060045529 1.3430001 -0.5397262573 0.7247134447 -0.4283526838
0.30349502 -0.068043359 1.2320001 0.08765801787 0.8152732253 0.5724033713
0.093142949 -0.38316032 1.433 0.4334860146 -0.3529025912 0.8291861415
0.36509398 -0.49499619 1.2335002 0.7504082918 -0.1930979937 0.6321396828
0.095531724 -0.23315243 1.439 0.0109398663 0.6790307164 0.7340283394
0.32529151 -0.36486655 1.3147779 0.6734360456 -0.2035076469 0.7106817365
0.39647549 0.10426147 1.4528571 -0.5740144253 0.7227383256 -0.3849113286
0.23749952 -0.4971191 1.3280001 0.4067229927 -0.2440963984 0.8803370595
-0.10630723 -0.071817413 1.245 0.1030626222 0.6689155698 0.736158967
0.18657045 0.039429836 1.097 0.05356243998 0.7498811483 0.6594007611
0.17477927 -0.090750776 1.2780001 0.04072575271 0.7881640196 0.6141163111
0.36183015 -0.2625266 1.302 0.7772092819 -0.2058757395 0.5946099162
0.38130224 -0.0067069381 1.2755001 -0.3037511408 0.8162871003 -0.4913355708
0.4212997 -0.19973534 1.245 0.6641766429 -0.4018231034 0.6304027438
0.42786825 -0.38418719 1.177 0.6654610634 -0.2006088048 0.7189698815
0.1052 -0.067941666 1.25 -0.07867125422 0.7949068546 0.6016094089
0.024111399 -0.17602478 1.3752501 -0.08997803181 0.6783278584 0.7292292118
-0.16536751 0.0054766624 1.4107143 0.2356028408 -0.4706431627 0.8502860069
0.3918139 -0.098235756 1.2880001 0.3964415491 0.5444117785 0.7392225266
-0.004859753 -0.22278523 1.4250001 -0.08196048439 0.7479732037 0.658649087
0.42568719 -0.30536753 1.204909 0.6479009986 -0.205013454 0.7336168885
0.093778789 0.018955287 1.138 -0.03032725304 0.7618602514 0.6470310688
0.32786739 -0.49543318 1.2664615 0.6673997045 -0.2495063245 0.7016581893
0.069509149 -0.29770899 1.4960001 0.327580303 -0.2570439279 0.9091861844
-0.11241847 -0.13791545 1.322 -0.05065741763 0.7394374609 0.6713166833
0.096005514 -0.19816524 1.404 -0.04640197381 0.7090159655 0.7036641836
0.18475467 -0.18758374 1.3956923 0.08162202686 0.7110007405 0.698438108
-0.094535351 -0.17830084 1.3650001 -0.3371342123 0.5605410337 0.7563955784
-0.051770378 -0.012160827 1.189 0.3083288372 0.4942222834 0.8128207922
-0.055921983 -0.08130762 1.2589999 -0.0756374076 0.7511941195 0.6557334661
0.16888545 -0.30899781 1.427 0.3700404763 -0.1524439752 0.9164229035
0.27113503 -0.40075985 1.3565001 0.499056071 -0.2456001788 0.8310376406
0.018157169 0.042898804 1.138 0.4085329175 0.3479884565 0.843803823
-0.15513493 -0.084216103 1.2640001 0.1227115169 0.5602510571 0.8191828728
0.28475973 -0.042698756 1.1956668 0.0885085538 0.8019048572 0.5908593535
-0.20758212 0.068038397 1.4830002 0.6154205799 -0.2628827691 0.7430680394
0.11911708 0.075282 1.087 0.2346727401 0.4921635091 0.8382743001
0.42346475 -0.43479887 1.1752859 0.672637701 -0.08989085257 0.7344917655
0.37907591 -0.33720103 1.2570001 0.7910519242 -0.1221873313 0.599422276
0.26232848 -0.15787189 1.3540001 0.03643887118 0.7911069393 0.6105915308
0.27598482 -0.45536989 1.327625 0.5211362839 -0.2794195116 0.8064376712
-0.19499399 0.15451355 1.5089999 0.05767505988 -0.4894275665 0.8701345921
0.12452699 -0.038040318 1.212 -0.04043543711 0.7837215662 0.6197947264
0.17487396 -0.3843061 1.404 0.3325787485 -0.3605745435 0.8714225888
0.25585324 -0.31732598 1.3858001 0.3217359781 -0.4421908557 0.8372294903
0.31543389 -0.45511118 1.2953334 0.6219283342 -0.2456113398 0.7435591817
0.03432643 -0.11212929 1.3051251 -0.03066729195 0.7559401989 0.6539219618
0.17483753 -0.12761559 1.3246667 0.01659254916 0.7915123701 0.6109278798
0.11559683 -0.14508875 1.3455001 -0.02952551655 0.758790493 0.6506652236
-0.064490229 -0.1198491 1.302 -0.08702842146 0.7226682901 0.6856942177
0.15133458 -0.48184931 1.381 0.4170117974 -0.4134437144 0.8094229102
0.20460774 -0.068411306 1.25 0.07502011955 0.8178624511 0.57050246
-0.19913922 0.23270619 1.5523334 0.7185186148 -0.25639534 0.6465233564
0.33598688 -0.41557539 1.2846669 0.747428596 -0.1960574389 0.6347535253
-0.058698971 -0.23113754 1.3950001 -0.6621153355 0.3929549456 0.6381141543
0.20232035 -0.45311832 1.3710002 0.4205776453 -0.4378868639 0.7945876122
0.31106764 -0.24861389 1.3700001 0.7521156073 -0.1535000354 0.6409054399
0.13080305 -0.4023751 1.4210001 0.2460138351 -0.3879006505 0.8882625103
0.24539623 -0.36451486 1.3749411 0.5027089715 -0.2555296421 0.8258258104
0.24917497 -0.12864383 1.322 -0.002323662164 0.7616323233 0.6480052471
-0.0051035145 -0.25154239 1.4565001 -0.08488449454 0.6785559058 0.7296276689
0.38391829 -0.38548219 1.2340002 0.8718905449 -0.09817167372 0.4797595441
0.054790791 -0.24561174 1.4535 0.0726377517 0.7434330583 0.6648541689
-0.025544753 -0.13585748 1.3245001 -0.1478447914 0.7484478951 0.6465042233
0.40734547 -0.24601823 1.2446923 0.7974989414 -0.2355180681 0.5554517508
0.15457167 -0.015758812 1.1846664 0.09165354818 0.8300213814 0.5501492023
-0.017336961 -0.061762918 1.2360001 -0.1223139986 0.7664394379 0.6305631399
0.065315939 -0.017627021 1.1826001 -0.02136456594 0.7585829496 0.6512261629
0.0051056016 0.0051019546 1.1648402 0.1690773815 0.6296272874 0.7582759261
0.245041 -0.087207161 1.2729999 0.02444727905 0.8031742573 0.5952423215
0.057281394 -0.37423849 1.4519998 0.3748215735 -0.3498213887 0.8585649729
0.077542916 -0.49849018 1.404 0.5268449783 -0.1647430956 0.8338429332
0.352157 -0.070431396 1.2360001 -0.3290341496 0.5527112484 0.7656675577
0.32141733 -0.12301452 1.2932501 0.1596684456 0.7328217626 0.6614214182
-0.025129588 -0.16521464 1.3557857 -0.1635373831 0.6892127991 0.7058620453
0.11571138 -0.17287111 1.3760002 -0.08701489866 0.6938795447 0.7148143649
-0.1489518 -0.13075921 1.2970001 -0.06549107283 0.6971904635 0.7138882279
0.26092231 0.00099589338 1.136 0.4384759665 0.8449103832 0.3063743711
0.38614506 -0.46584275 1.214393 0.7882738709 -0.1705880165 0.5912055373
0.3780134 -0.13236322 1.3053334 0.6750739813 0.3168659806 0.6662365198
0.44656697 -0.22494565 1.2640001 0.6518219709 -0.3731106222 0.6602397561
0.21501453 0.0050106659 1.1445297 0.0251696948 0.8345582485 0.5503444672
0.39704144 -0.18221167 1.2830001 0.5853390694 -0.3066823781 0.7505491972
0.13463239 -0.085944489 1.2756922 -0.0475383848 0.8011026382 0.5966361165
0.22311714 0.22452824 1.2046666 0.6153845191 -0.3226616085 0.7191601992
0.10622387 -0.34642112 1.4385383 0.2875716388 -0.2733696103 0.9179170132
0.31339478 -0.33340541 1.3352729 0.6635724306 -0.321193397 0.6756525636
-0.20766713 0.18497665 1.6880001 0.9995725751 0.01444123965 0.0254180003
0.25157878 0.063137531 1.108 0.4798721075 -0.1120825708 0.8701495528
0.36652309 -0.41518468 1.2546401 0.7227582335 -0.158333838 0.6727190614
0.05435947 0.036239102 1.1248751 0.2535867691 0.5599232316 0.7887837291
0.37357026 -0.29485023 1.2761817 0.788161993 -0.1727059036 0.5907396674
-0.12285519 -0.20238464 1.3540001 -0.1886133105 0.5870370865 0.787281692
0.20243284 0.39911476 1.312 0.7371147871 -0.3136055768 0.5985928178
0.024883784 -0.086229086 1.2743635 -0.01569105685 0.8018931746 0.5972613096
0.3061139 -0.036736399 1.1551818 0.2351689339 0.7849823833 0.5731477141
-0.065518565 -0.19413431 1.3840003 -0.3753001094 0.508892417 0.7747117877
0.20689683 0.34320974 1.278 0.4645703435 -0.3311294615 0.8212963343
0.235378 -0.037999991 1.2040002 0.07008450478 0.8360139132 0.5442140102
0.064490668 -0.064856239 1.2433335 0.01175506692 0.810742259 0.5852852464
0.18335079 -0.34325889 1.4210004 0.4424554706 -0.3629944324 0.8200415969
0.33671728 -0.28454104 1.3275 0.795633316 -0.1856831461 0.5766189098
0.095326982 -0.10440794 1.2945 0.03164251149 0.8125826716 0.5819863677
0.19661692 0.28580397 1.245 0.2496330589 -0.4191619158 0.8729184866
0.46061382 -0.37175927 1.1650001 0.4748865068 -0.2509080172 0.8435211778
0.055583734 -0.18752295 1.3935002 -0.07050987333 0.7188399434 0.6915905476
0.13497686 0.0090656104 1.149 0.1061598584 0.8107329607 0.5757101774
0.43250263 0.11594267 1.4860001 0.6963123083 0.3809046149 -0.6083262563
0.039118621 -0.041233141 1.2060001 0.06613016874 0.7958305478 0.6018974781
0.28759488 -0.31671336 1.3649999 0.7067482471 -0.3462946415 0.6169173121
0.0085790595 -0.20222069 1.3980001 -0.07083062083 0.7577579618 0.6486800909
0.44071174 -0.46310353 1.161 0.6461105943 -0.1489887238 0.7485609055
0.20297463 -0.16934569 1.3700002 0.08502034098 0.7601571679 0.6441526413
0.053960588 -0.1445156 1.3464288 -0.04158880562 0.7785131335 0.6262488961
-0.094260193 -0.04245773 1.218375 0.1891232431 0.5731087923 0.7973573208
0.36123252 -0.22841112 1.3136667 0.7682093382 -0.1630328 0.6190918088
0.2410395 -0.29171962 1.4100001 0.561221242 -0.3676362038 0.7415351272
0.10539961 -0.46583974 1.395474 0.3510108292 -0.3838157356 0.8540942073
0.21760269 -0.47659719 1.3490001 0.4679934084 -0.2993091643 0.831502378
0.29503429 -0.38518712 1.3355 0.6146455407 -0.1492094249 0.7745627165
0.2047272 -0.017245349 1.1742501 0.07516629249 0.829506278 0.5534161329
0.14643839 -0.17938703 1.3920001 0.009053255431 0.7201063037 0.6938046813
0.40500075 -0.3937836 1.2042499 0.7894214392 -0.1633618325 0.5917150974
0.15430835 0.053064641 1.0917778 0.1565780789 0.685100615 0.7114214301
-0.16959555 0.041456688 1.4330001 0.432680577 -0.4721721411 0.7680110335
0.34935385 -0.3482247 1.2855 0.7476196885 -0.1792086512 0.6394912601
0.27432361 -0.077438883 1.25 0.1278568953 0.7923069 0.5965755582
0.42757469 -0.34752172 1.189 0.6545703411 -0.2448038608 0.7152683139
-0.18738224 0.088557363 1.4640001 0.4690693617 -0.4126223028 0.7808436155
0.17393927 0.021932447 1.1232728 0.08811811358 0.7849026918 0.6133212447
0.22685504 0.055475466 1.13 0.6953575611 -0.22768341 0.6816437244
0.38703802 -0.26521543 1.2665714 0.8188363314 -0.2141837478 0.5325714946
0.41662338 -0.27586609 1.219 0.6808844209 -0.1888186485 0.7076326013
-0.11436556 -0.17154832 1.3380002 -0.239421919 0.4305877984 0.8702133894
0.2750822 -0.11756625 1.302 0.1965209395 0.7397322059 0.6435649395
0.272634 0.021121822 1.1120001 0.2641415 0.5341245532 0.8030816913
0.39907357 -0.32485235 1.2270001 0.7620803714 -0.1935751736 0.6178690195
0.10502835 0.04737737 1.1076841 0.09065880626 0.6658582687 0.740549624
-0.012189173 -0.078675576 1.2640001 -0.1298570633 0.7472305894 0.6517542005
-0.034641482 -0.21527536 1.41125 -0.2340255231 0.6705648303 0.7039707899
0.1346287 -0.44551182 1.3961252 0.2204333991 -0.2596150041 0.9402176142
0.14631349 -0.32492992 1.4450001 0.1174181476 -0.2422505021 0.9630823731
0.094708733 -0.027308656 1.193 -0.0914933458 0.7839280367 0.6140730977
-0.12758744 -0.028233634 1.223 0.2573812604 0.4015598893 0.8789224029
0.16431481 -0.037758764 1.2131666 0.07240630686 0.79301548 0.6048833132
0.40729204 0.10130614 1.4150001 -0.3412703574 0.8164052963 -0.4658507407
0.1414002 -0.12971424 1.3330001 0.01978676952 0.8001369238 0.599490881
-0.026519166 -0.039248366 1.21 -0.03381902725 0.7667534351 0.6410502195
0.29419446 -0.28494921 1.3810002 0.6632834673 -0.2647890151 0.6999584436
0.074933954 -0.42586994 1.4246 0.4976942539 -0.280462563 0.8207564354
0.18398602 -0.14837584 1.3540001 0.0820896253 0.7130283117 0.6963130832
0.0038397999 -0.12184614 1.3153334 -0.1177207306 0.7631067038 0.6354604363
0.40291882 0.064787075 1.3736 -0.5073468685 0.7451056838 -0.4329164028
0.19343919 -0.42427489 1.3810003 0.3637592494 -0.2759374082 0.8896840811
0.21577431 -0.05227381 1.2245383 0.01968177781 0.8163307309 0.5772492886
0.23867513 -0.4078525 1.3590001 0.5540527105 -0.2501765192 0.7940008044
-0.19044882 0.057518099 1.4580001 0.5673869848 -0.351107955 0.7448457479
0.27509034 -0.42474863 1.3358947 0.5901267529 -0.3089846075 0.7458410859
0.2825453 -0.018748686 1.1663333 0.400962472 0.8354871869 0.3757528961
0.31717801 -0.051805738 1.2060001 0.3676878512 0.8730620146 0.3202628791
-0.055518776 -0.1732281 1.3590001 -0.0284902025 0.7378370166 0.6743773818
0.19166653 0.063259393 1.077 -0.02212211676 0.6231014132 0.7818281651
0.23360781 0.17190398 1.177 0.4101275802 -0.2940331399 0.8633307219
0.18491003 -0.1084349 1.302 -0.0003903373727 0.7444957495 0.6676270962
0.02584238 -0.23739521 1.4449999 -0.06299873441 0.6710512638 0.7387295961
0.43863666 -0.27808306 1.197 0.5890088081 -0.252577126 0.7676414251
0.31446862 -0.095481746 1.2650909 0.1355676055 0.7757310867 0.6163300276
0.27523962 -0.058356319 1.2230002 0.1048993021 0.8201213479 0.5624918342
0.034196783 -0.016746504 1.1820527 0.02967576496 0.725399375 0.6876882315
0.11472937 -0.21449795 1.4225 -0.01885060407 0.6904652119 0.7231199145
-0.13521343 -0.10519738 1.2841115 -0.05808775872 0.667504251 0.74233675
-0.085640803 -0.087382123 1.2640001 0.00537310075 0.7305059433 0.68288517
0.34092864 -0.38510215 1.2920001 0.7497667074 -0.1604143977 0.6419634819
0.37692487 0.034984555 1.3450001 -0.577316165 0.6547846794 -0.4878145456
0.35570225 -0.018837813 1.2640001 -0.2396630496 0.898203671 -0.368499428
0.37464294 0.057918444 1.386 -0.3791976571 0.7352336049 -0.5618190765
-0.025288537 -0.004470624 1.1762382 0.1417860091 0.5514726639 0.8220551014
0.08490365 -0.14265476 1.3468184 0.009617751464 0.7518831491 0.6592262387
0.37517434 -0.44508001 1.2336365 0.8202390671 -0.1680943519 0.5467651486
0.40939632 -0.42719615 2.256 -0.3035702705 0.8502622247 0.4299990833
0.20577645 -0.091124237 1.278 0.06327693164 0.7828631997 0.6189678907
0.24524289 -0.46453035 1.3372855 0.3361634016 -0.2905778587 0.8958563805
0.062504582 -0.4730739 1.3980001 0.5135616064 -0.317550391 0.7971299887
0.038033307 -0.28984001 1.4960001 -0.146667704 0.06878206134 0.9867915511
-0.18369304 -0.085485347 1.273 0.338917017 0.5848273635 0.736961484
0.22753711 0.11460751 1.1447335 0.576670289 -0.4528025687 0.6800156236
0.074300125 0.00101781 1.161 0.02481580712 0.7679848075 0.6399871111
-0.21430029 0.20747544 1.557 0.7838163972 -0.264113456 0.5620284081
0.20185776 -0.37171367 1.404 0.2924678624 -0.3866616189 0.8746172786
0.26395473 -0.48457116 1.3227503 0.4638477564 -0.3081047237 0.8306122422
0.20560038 -0.12806496 1.3228571 0.0977037698 0.7546557188 0.6488056183
0.17474476 -0.46559513 1.3729999 0.297211051 -0.4027962983 0.865690887
0.33215606 -0.31477177 1.3220001 0.7757101655 -0.2938052118 0.558526814
0.074551798 -0.21541269 1.4228463 0.07503862679 0.7410822511 0.6672078967
-0.075712882 -0.06700056 1.2426666 0.03272970393 0.7222682238 0.6908381581
0.17515185 -0.21231902 1.4130001 0.1597569883 0.660351038 0.7337671518
0.32609731 -0.26510262 1.3466669 0.7721533775 -0.203486383 0.601973772
0.20430721 0.025599129 1.1157058 0.00342868967 0.7703942657 0.6375585794
0.10490368 -0.087047733 1.2729999 -0.02615726553 0.7576711178 0.6521121264
0.077530205 -0.45463714 1.4150001 0.5612425208 -0.307231158 0.7685153484
-0.074295923 -0.023431724 1.2037998 0.2788321078 0.4983863831 0.8208919764
0.0038714693 -0.16284861 1.3583751 -0.1783850044 0.6877243519 0.7037144303
0.41471735 0.12703744 1.452 0.4016527236 0.5525332689 -0.7303301692
0.10560916 -0.1217581 1.3155715 0.007439987268 0.7965284586 0.6045552492
0.40389735 -0.45456973 1.1942002 0.8140412569 -0.07925470918 0.5753742456
0.3848297 -0.49512061 1.212069 0.7505215406 -0.05255131796 0.6587531567
0.065544941 -0.10709575 1.3033637 -0.001391680096 0.7844789028 0.620153904
0.42492384 0.16655965 1.4960001 -0.3910338879 0.7927762866 -0.4675449729
0.42249313 0.19489586 1.5766667 -0.5377331376 0.788630724 -0.2981687486
-0.045067511 -0.10422225 1.2851876 -0.09392813593 0.746129632 0.6591418982
0.096344203 -0.40646502 1.4150001 0.4263493121 -0.3114012778 0.8492676616
-0.12626992 -0.084834084 1.2643077 0.05222538486 0.6752548218 0.7357332706
0.050498631 -0.30817115 1.4770001 0.3040584028 -0.2727857828 0.9127630591
0.42880484 0.2015518 1.5430001 -0.5377331376 0.788630724 -0.2981687486
0.31147966 -0.49723482 1.2920001 0.6621224284 -0.2224083692 0.7156314254
0.15489152 -0.40468726 1.4039998 0.2778837383 -0.2964789867 0.913718164
0.28635308 -0.25595465 1.3870001 0.6411550045 -0.1243941188 0.7572624087
0.26416963 -0.34407431 1.3810002 0.3484725654 -0.3688926995 0.8616757393
0.10429659 -0.051611554 1.2265002 -0.09901323169 0.7719134688 0.6279697418
-0.18093348 -0.017231759 1.404 0.3959389031 -0.3694893122 0.8406604528
0.18613526 -0.051100522 1.2252858 0.09729476273 0.8001821041 0.5918127298
-0.0043801195 0.034992818 1.153 0.3014749587 0.3874664307 0.8711960912
-0.14410967 -0.14559233 1.3247273 -0.09619116783 0.7056116462 0.7020395398
0.12595595 -0.19652413 1.4040002 -0.06025125086 0.7153397202 0.6961745024
0.21412624 0.044989575 1.0961819 -0.2125775665 0.6803205013 0.7014091611
0.42449084 -0.22455662 1.2324213 0.7042837143 -0.1766938865 0.6875781417
0.34599921 -0.25518486 1.3238752 0.8037519455 -0.1774785221 0.567876935
0.077020422 -0.35571277 1.4449999 0.4938137233 -0.3672632575 0.7882041335
0.2088147 -0.31797722 1.4150001 0.4153080881 -0.400275439 0.816883564
-0.060878363 0.011350203 1.177 0.341861397 0.3911855519 0.8544616103
-0.085275993 -0.13367808 1.3145002 0.03239624575 0.7309897542 0.6816189885
0.22141093 0.26893327 1.2320001 0.5605274439 -0.4535338283 0.6929040551
0.1269428 -0.37545297 1.4150001 0.1939040869 -0.2625027597 0.945247829
0.0056363093 -0.051260233 1.2245001 0.0248947069 0.8085742593 0.58786726
0.42073074 -0.1718635 1.273 0.4101284742 -0.4086610377 0.8153470159
-0.18785039 0.18123592 1.5090001 0.3602930903 -0.4588572979 0.8121815324
-0.12490711 -0.054833394 1.2336001 0.1371196806 0.5804537535 0.8026652932
0.40333301 -0.20409128 1.26525 0.6859776378 -0.2967004776 0.6643820405
0.34037897 -0.47206658 1.273 0.6701914072 -0.2786357701 0.6878994107
0.36411297 -0.00114142 1.302 -0.3884504735 0.7714567184 -0.5039452314
0.21909478 0.087141536 1.136 0.5858511925 -0.2853005826 0.7585393786
0.3657015 -0.086011522 1.266 -0.4364791512 0.6772089005 0.592346251
0.045068912 -0.12708038 1.325 -0.03109739162 0.7653858662 0.6428198814
0.36150324 -0.47400883 1.25 0.72441715 -0.1616576314 0.6701392531
0.23611009 -0.16256633 1.3575001 0.07759106904 0.7406276464 0.6674206853
0.12623474 -0.41547158 1.3980001 0.1806986332 -0.3611441255 0.9148349166
0.15422302 -0.38393807 1.4210001 0.2962093651 -0.4708147347 0.8310195804
-0.18479659 0.015255228 1.4262 0.4320940673 -0.5118347406 0.7425091863
0.38226807 -0.41390267 1.2327275 0.8384106159 -0.113651745 0.5330580473
0.17491253 -0.17274119 1.3760002 0.05066052079 0.7585343719 0.6496607661
0.24548084 -0.10576744 1.2947272 -0.01464090031 0.7633036375 0.6458740234
0.38025415 -0.36272082 1.25 0.851130724 -0.201394558 0.4847852886
0.40964615 -0.41485795 1.189 0.745156765 -0.1206929758 0.6558769941
0.36804372 -0.10677734 1.2957501 0.1847934574 0.5948280096 0.7823241353
0.32634354 -0.083106115 1.245 0.1050408557 0.7414147258 0.6627749205
0.03421735 -0.20111926 1.404 -0.08293456584 0.7487015724 0.6576988697
0.35098138 -0.053837854 1.1810001 0.2687015533 0.9320729375 0.2429805547
-0.073985994 -0.22155584 1.376 -0.2662888765 0.289963901 0.9192448854
0.44359565 -0.40534601 1.1627144 0.4768335819 -0.1250391155 0.870054543
0.22429481 -0.36585194 1.3920001 0.5235949755 -0.3247228861 0.7876569033
0.36554253 -0.32478127 1.2755002 0.6960290074 -0.2096551061 0.6867229342
-0.17278017 -0.065990053 1.258 0.2493274212 0.5470966101 0.7990751863
0.01019388 -0.098540843 1.2920001 -0.0839144513 0.7789940834 0.6213908195
0.17599624 -0.0733786 1.2586666 0.05059661344 0.769836843 0.6362320781
0.21845745 0.15116012 1.1810001 0.4402397275 -0.3442669809 0.8292582631
0.067869954 -0.39788446 1.439 0.3473798633 -0.2767944932 0.8959419727
0.26834029 -0.3750082 1.3580002 0.5422698855 -0.2215507627 0.8104681373
0.22219117 -0.43437374 1.3700002 0.4897892177 -0.3310627043 0.8065382838
0.3316772 -0.039557829 1.1570001 -0.09882631898 0.7557265162 0.6473876834
0.23164733 0.19759673 1.177 0.3545558155 -0.4350685775 0.8276506066
0.31755123 -0.39562955 1.307 0.6554384828 -0.2037845552 0.7272360325
0.41833287 -0.47285348 1.169 0.7095807195 -0.04153837264 0.7033987045
-0.025151128 -0.23516977 1.4345003 -0.4166498184 0.5688714385 0.7090755701
0.37651235 -0.24524124 1.287167 0.788531661 -0.131404236 0.6007917523
-0.095614381 -0.15454699 1.3355001 -0.11795865 0.7031748295 0.7011639476
0.19632025 0.3163707 1.2743635 0.2106763124 -0.5827749968 0.7848495245
0.23832358 -0.3355985 1.3870001 0.5998271108 -0.2838174999 0.748100996
0.15517351 -0.098540843 1.2920001 0.02642982639 0.7737141252 0.6329833269
0.4441402 -0.43364057 1.1609999 0.5529916883 -0.1516989768 0.8192604184
0.35719195 -0.28669566 1.2970001 0.7676284909 -0.207500875 0.606374383
0.17387894 -0.40977067 1.3870001 0.3324541152 -0.3233159781 0.8859689832
-0.081761442 -0.24040304 1.3920001 -0.04845263064 0.7359239459 0.6753282547
-0.12539016 -0.12593192 1.3037648 -0.1443257332 0.7203558087 0.6784228683
0.04617111 -0.078306206 1.2640001 0.005365373101 0.8001096249 0.599829793
0.044674937 -0.15835668 1.3649999 -0.04881980643 0.7242521048 0.6878048182
0.085115567 -0.18117456 1.3870001 0.03254406899 0.7183628082 0.6949070096
0.29543975 -0.44550464 1.3155295 0.6330678463 -0.1982865185 0.7482696772
0.06883762 0.018955287 1.138 0.1140274256 0.7074309587 0.6975236535
-0.1868878 0.13442807 1.4960001 0.07365767658 -0.5422927737 0.8369546533
0.23262878 -0.31431177 1.4040002 0.608940959 -0.3705193698 0.7013603449
0.22245416 0.2860125 1.25 0.06818398088 -0.5074996948 0.8589499593
0.15533455 -0.45508343 1.3843002 0.3508988321 -0.3783096969 0.856593132
0.44495937 -0.31559926 1.1855333 0.6274185181 -0.2730020583 0.7292570472
0.32108882 -0.023006363 1.141 0.04644237831 0.7233213186 0.6889479756
0.38467106 0.014369395 1.3050555 -0.4801947474 0.7557376623 -0.4452792406
-0.20198399 0.21410304 1.5360001 0.409447372 -0.40023911 0.8198545575
-0.034460012 -0.090040676 1.268 -0.08150091022 0.7505402565 0.6557796597
0.20695242 -0.1938203 1.3870001 0.1553297937 0.677288115 0.7191338539
0.085564129 0.037386619 1.1190001 0.1256890744 0.6601948142 0.7405032516
0.27500194 -0.14687428 1.3360002 0.1411404759 0.7494411469 0.6468518972
0.19220829 -0.30401573 1.4330001 0.252684176 -0.2990988791 0.9201579094
0.061556902 -0.44471723 1.4330001 0.560328424 -0.07614416629 0.8247630596
0.39097285 0.028288865 1.3260001 -0.5263636708 0.7191807628 -0.453564018
-0.1652807 -0.1059215 1.2836252 0.2871232331 0.6417654157 0.7111240029
0.28695577 -0.022287276 1.1425 0.4303666353 0.8197903633 0.3777939975
-0.075228244 -0.10606062 1.2848424 -0.07690197974 0.7456490993 0.6618863344
0.26078597 -0.44386598 1.3430001 0.4502030015 -0.2054381967 0.8689720631
0.14201474 -0.32264751 1.4210001 0.01605352573 -0.1131680831 0.9934461713
0.18933609 0.33559304 1.2932501 0.5323777795 -0.3698893785 0.7614169717
-0.044682816 -0.066480964 1.2431334 -0.02461118065 0.7575607896 0.652300477
-0.097283706 -0.20537671 1.37 -0.336556673 0.3419236839 0.87739259
0.30201975 -0.47437415 1.302 0.6582353711 -0.2357194722 0.7149563432
0.12827167 -0.47399044 1.3935001 0.1573278755 -0.4285465181 0.8897166848
0.12119391 -0.098540843 1.2920001 -0.08884505928 0.7979914546 0.5960840583
0.10467127 0.0060751038 1.1554443 -0.04240486026 0.8002532721 0.5981609225
0.13496722 -0.066937886 1.2516668 -0.008873781189 0.7738900781 0.6332577467
0.25473499 -0.1750403 1.3722502 -0.009998489171 0.7543606758 0.6563839912
0.1945201 0.012423827 1.1339999 0.03465972468 0.8141118288 0.579672873
0.2344373 -0.0037170667 1.1559998 0.09592313319 0.829220295 0.5506291389
0.05345124 -0.26723871 1.4870001 0.1713465899 0.5891294479 0.7896624804
0.095988229 0.07153146 1.0959091 0.2464467436 0.4697937965 0.8476778865
-0.15809982 -0.020834859 1.3980001 0.3582113385 -0.3627281487 0.8602981567
0.01611664 0.019138509 1.149 0.2774901688 0.5179038644 0.809181571
-0.014128361 -0.14834778 1.3430001 -0.1930069327 0.7236781716 0.6625995636
0.3195073 -0.42752576 1.2970001 0.6535605192 -0.2340939939 0.7197628617
0.14296679 0.072430201 1.08 0.2795889974 0.5729321837 0.7704405785
0.07411661 -0.30725268 1.4746667 0.4753877819 -0.3907574415 0.7882354259
-0.044528656 -0.12898521 1.3120002 -0.1126673818 0.7369340658 0.6665089726
-0.0060314666 -0.18215029 1.376 -0.2045523822 0.7204084992 0.6626989841
0.34793732 -0.42677882 1.2666668 0.6903987527 -0.1556590796 0.706484139
0.055217199 -0.05242607 1.2254 -0.03973947093 0.8276196122 0.5598807931
0.27581513 -0.30457297 1.3860003 0.4825475812 -0.3601486683 0.798398912
0.21933179 0.1275208 1.1636667 0.5469343066 -0.4726498425 0.6909884214
0.035620466 0.0269292 1.1377145 0.2420399338 0.5651327968 0.7886961699
0.41530535 0.10876248 1.4369999 -0.6223910451 0.7015776634 -0.3470131457
0.13481192 -0.023942018 1.1947144 -0.01298170723 0.7974737287 0.6032140255
0.33772013 -0.33564082 1.3042728 0.761359036 -0.1488064826 0.6310222149
0.26238456 -0.038988873 1.202 0.1507553458 0.815102756 0.5593570471
0.22051322 -0.078675576 1.2640001 0.08720211685 0.7852117419 0.6130565405
0.39194307 -0.31742641 1.25 0.8500359058 -0.1770475209 0.4960777164
0.15483063 0.015740154 1.1354547 0.1218971014 0.8101459742 0.5734148622
-0.13417925 -0.18370777 1.3450001 -0.04011312127 0.3962010741 0.9172871113
0.16478555 0.037073582 1.1053683 0.1036549807 0.7511345744 0.6519604921
-0.016156528 -0.021889489 1.189 0.01804638654 0.6652686596 0.746385932
0.30481085 -0.10797727 1.2830001 0.1396677643 0.7453063726 0.6519289613
0.15489736 -0.0030686262 1.1650001 0.107913591 0.8475711942 0.5195937753
0.16205797 -0.34044737 1.4330001 0.3300583363 -0.4663825929 0.8207001686
0.33314049 -0.44467768 1.2841538 0.7170246243 -0.1979627609 0.6683460474
0.22532073 -0.02413157 1.18375 0.08009151369 0.8225111961 0.5630813837
0.16424163 -0.48659772 1.3590001 0.3196376264 -0.4533572793 0.8320450783
0.38127986 -0.02093743 1.2570001 -0.2485109717 0.8972899318 -0.364846617
0.17535758 -0.013384654 1.1743335 0.107943736 0.8426119685 0.5275918841
0.11623417 0.027886331 1.126 0.09112071246 0.7586322427 0.6451156139
0.14515802 -0.045079298 1.2242498 -0.01023628563 0.7786549926 0.6273688078
-0.074256293 0.0010458634 1.1930001 0.3676281869 0.4163138866 0.8315842152
0.15496549 -0.14299658 1.3464288 0.06770763546 0.7571873069 0.649679184
0.26504788 -0.027954269 1.1810001 0.09920656681 0.8142282367 0.5720055699
0.38899803 -0.346378 1.2360001 0.8523415923 -0.1468761116 0.501937449
0.066440232 -0.23169981 1.439 0.08530559391 0.6341246367 0.7685108185
0.39452383 -0.12127034 1.2880001 0.4206143022 0.1841505319 0.8883536458
0.1542218 -0.07877516 1.2656 0.001315873931 0.7802491784 0.6254674196
0.29525933 -0.085374177 1.2570002 0.08955913037 0.7751424909 0.6254064441
0.20907184 0.22300997 1.223 0.6370801926 -0.3085159063 0.7063615918
0.17533545 -0.026055532 1.1955715 0.09014406055 0.8186480999 0.56717664
0.085324213 -0.078675576 1.2640001 0.001505944063 0.7918482423 0.6107161045
0.12606555 -0.3354502 1.4340911 -0.1006981209 -0.08455148339 0.991317749
0.41485167 -0.37504438 1.1950002 0.7411453724 -0.1603823006 0.6519057155
0.19572835 -0.47468385 1.359 0.3484866619 -0.3141272962 0.8831087351
0.30549845 -0.35497794 1.3358126 0.6413097978 -0.2528153062 0.724435091
0.41159159 -0.30509004 1.223 0.7335101366 -0.2150569558 0.6447583437
0.047571439 -0.098540843 1.2920001 -0.01762067899 0.8033779263 0.5952087641
0.19454969 -0.3949815 1.3925456 0.3989666402 -0.3154476881 0.8609984517
0.32494965 -0.064956762 1.2246666 0.02283276431 0.7997248769 0.599932313
0.21700129 -0.49792999 1.3380001 0.4576874375 -0.3362407684 0.8230822086
0.44366351 -0.35455775 1.1744548 0.5347775221 -0.1756695211 0.8265308142
0.46172103 -0.39387846 1.155 0.483708024 -0.2032996416 0.8512906432
0.096130885 -0.16154775 1.3650001 0.03308326378 0.6970667839 0.7162425518
0.035936322 -0.25283769 1.4640001 -0.1230896786 0.8229111433 0.554676652
-0.13361214 -0.068137661 1.2507143 0.1077781096 0.6516198516 0.7508497834
0.22212783 0.25356007 1.21525 0.6698502898 -0.3492744267 0.6552159786
-0.044630613 -0.15745313 1.3436668 -0.09691593051 0.7177944779 0.6894768476
0.40556249 -0.22502993 1.2531667 0.7772575021 -0.1637198478 0.6075085402
0.35191095 -0.4043628 1.2729999 0.6925413609 -0.2193611711 0.6872169375
0.012667833 -0.25969058 1.4450001 -0.04040927812 0.6803469062 0.7317753434
0.25516248 0.034777507 1.1072757 0.2815238833 0.1937897205 0.939781785
0.40441403 0.078832671 1.3920001 -0.05973154679 0.7503370643 -0.6583513021
0.39383581 -0.15510197 1.2926667 0.5810959935 -0.1936528534 0.7904593945
-0.01718705 -0.12145516 1.307 -0.1730505973 0.7518590689 0.6362085938
0.24531324 -0.38711625 1.365 0.452683568 -0.346634835 0.8215363026
0.073440112 -0.19734468 1.4040002 0.007037648 0.7133129835 0.7008103132
-0.20390478 0.17664851 1.5242001 0.4260069728 -0.4853166342 0.7635350823
0.41362688 -0.3343344 1.2107058 0.7589962482 -0.2113384306 0.6158415079
0.049643878 -0.39587811 1.452 0.2126993835 -0.2527870834 0.9438525438
0.086684793 -0.061762918 1.2360001 -0.01735490747 0.7939988375 0.6076714993
0.02469453 -0.15424046 1.3556668 -0.1171813011 0.7525082231 0.6480739713
0.2246294 -0.4554472 1.3557498 0.5200003982 -0.3206725717 0.7916872501
0.035536557 0.050343461 1.126 0.3672051728 0.4172474444 0.8313031197
0.12585506 0.055541806 1.0950953 0.2270329148 0.6225173473 0.7489513755
0.38532129 0.054248128 1.3649999 -0.5076753497 0.7419703603 -0.437887758
0.26431936 -0.096954599 1.2830001 0.1888406575 0.7938427925 0.5780595541
0.18743834 0.40281782 1.3280001 0.7351443768 -0.3671184778 0.5699006915
0.35096911 -0.49289706 1.2550001 0.6284532547 -0.2879297733 0.7225946188
-0.055306707 -0.24435622 1.4125 -0.617765367 0.3844130337 0.6859975457
0.18402286 -0.44552898 1.3810003 0.3546293378 -0.3036952615 0.8843117356
0.095118508 -0.48538011 1.393895 0.5254458189 -0.2868129909 0.8010274768
