# .PCD v0.7 - Point Cloud Data file format
VERSION 0.7
FIELDS x y z normal_x normal_y normal_z
SIZE 4 4 4 4 4 4
TYPE F F F F F F
COUNT 1 1 1 1 1 1
WIDTH 512
HEIGHT 1
VIEWPOINT 0 0 0 1 0 0 0
POINTS 512
DATA ascii
0.26709226 -0.26750255 1.4040002 0.3202938735 -0.5712857842 0.7556747794
-0.4841114 -0.47463229 2.3170002 -0.01431933418 0.7851439714 0.619147718
0.25564125 -0.32199091 2.2260001 0.008749443106 0.8063028455 0.5914382339
-0.24321188 0.25783116 1.516 0.4648840129 -0.4911285937 0.7366651297
0.24206609 0.26374108 1.2570001 0.3858966827 -0.3683404326 0.8458185792
-0.31714293 -0.095142879 1.904 0.1601485312 0.7894467115 0.5925590992
0.43517032 0.11801102 1.6826668 -0.8689727187 -0.4067803025 0.281808883
-0.18179262 -0.15017651 1.2880001 0.1108699366 0.4681018591 0.8766918182
-0.11823954 -0.38277546 2.286 -0.02241323516 0.7873821259 0.6160576344
-0.0036749865 -0.49523947 1.396 0.3005736768 -0.07139922678 0.9510823488
0.025596913 0.050209329 1.123 0.2679697275 0.3778051138 0.8862592578
0.39012894 -0.49268317 1.2060001 0.544809103 -0.1781716943 0.8194131255
0.32366118 -0.04492829 1.1838572 0.08445003629 0.7226271629 0.6860598922
0.49134448 -0.21777539 2.0530002 0.05042029172 0.7678288817 0.6386678815
0.36682889 0.048994269 1.4330001 -0.4900600016 -0.6581343412 0.5715770721
0.0048137764 -0.23891535 1.4450001 -0.1797185093 0.7961347103 0.5778155327
-0.29865402 -0.2638416 2.0900002 -0.09439848363 0.77150172 0.6291851997
-0.19744726 0.0741923 1.365 0.5822811723 -0.2842523754 0.7616752982
0.11648288 -0.097107135 1.2850001 -0.1023284867 0.7828284502 0.6137658358
0.20996343 -0.47740284 1.3379999 0.3536760509 -0.4022292495 0.8444672227
0.21622545 -0.4962889 2.3490002 -0.00742583815 0.8104683161 0.5857353806
0.41366482 -0.29501212 1.2640001 0.2181950808 -0.1946553439 0.9562950134
-0.27879491 0.016943337 1.7570001 0.9861413836 -0.02793299407 0.1635386348
0.2042755 0.065226018 1.0837824 0.05703327432 0.6764330268 0.7342925668
-0.13471036 -0.0080318013 1.182 0.1028294489 0.3515636325 0.9304993749
0.21459752 0.41639286 1.3466924 0.4947187006 -0.4615139067 0.736381948
0.36499605 -0.13620518 1.3344287 0.367849946 0.4157137275 0.8317863345
0.052105561 -0.37876734 2.286 -0.00742583815 0.8104683161 0.5857353806
0.12413698 -0.35532561 1.4144448 -0.01807407849 -0.3852522671 0.9226343036
-0.02554661 -0.1440005 1.3246253 -0.2136223763 0.7501147985 0.6258540154
0.38687125 0.14473854 1.5430001 0.1613129526 -0.8228584528 0.5448688865
0.1348138 -0.19241606 1.3980001 -0.09663786739 0.6989225149 0.7086384892
0.30698738 -0.37651813 1.317 0.6466090083 -0.2369125336 0.7250994444
-0.0053362697 -0.051213115 1.217 -0.08927763253 0.8118659258 0.5769776702
0.26075134 0.14232245 1.1850001 0.5077829361 -0.3156169951 0.8015874028
-0.26492167 0.16433643 1.6160001 0.9792553186 -0.08766886592 0.1826833189
0.18539058 -0.022485124 1.189 0.08554424345 0.8430410624 0.5310027599
-0.033520225 -0.37720862 1.452 0.451002121 -0.4168737531 0.7891852856
0.23488793 -0.13789441 1.3330001 0.01880106516 0.7621933818 0.6470763087
-0.1148784 -0.23095345 1.365 -0.6857511997 -0.05290912837 0.7259103656
-0.23111476 -0.39882636 2.3330002 -0.02241323516 0.7873821259 0.6160576344
-0.23250778 0.16572069 1.4375 0.01154113654 -0.4494464397 0.8932327032
0.10371462 -0.4612678 1.381 0.09528952837 -0.516800642 0.8507860899
0.30779412 -0.49495262 1.286077 0.6770371199 -0.2050408125 0.7068089843
-0.20473015 -0.032757089 1.3345001 0.218895331 -0.3998872042 0.8900421858
-0.094971977 -0.094462693 1.2554117 -0.08342675865 0.7192533016 0.6897207499
0.22375506 -0.36529419 1.3810002 0.4551885724 -0.2082271576 0.8657047749
0.42211676 -0.38657269 1.2128572 0.595030427 -0.2748864889 0.755232513
-0.17534912 -0.3757481 2.1980002 -0.02316239662 0.7830261588 0.6215573549
0.34173107 -0.2465739 1.3330001 0.6618335843 -0.2583605349 0.7037230134
0.25453082 -0.075120687 1.2538891 0.1304801702 0.8045166731 0.5794202685
0.085486278 -0.015451386 1.1748464 -0.1042418182 0.7920928001 0.6014338136
-0.19281383 -0.073414482 1.2270001 0.1443642229 0.6125875115 0.7771071196
0.28233051 0.032407861 1.13 0.1756789088 -0.0172043182 0.9842971563
0.0061778701 -0.4345102 2.3490002 -0.01782886125 0.8047446609 0.5933533311
0.064930663 -0.14638647 1.3466001 -0.0661509037 0.7915219069 0.6075500846
0.11492515 0.055038661 1.1031665 0.1347141564 0.5384088159 0.8318461776
0.23081844 0.34338507 1.2970001 0.1521403193 -0.4688901007 0.870054841
-0.054933906 0.022021644 1.155 0.2434459031 0.451511085 0.858412385
0.044577621 -0.39501023 1.4125001 0.1528038681 -0.4481838346 0.8807849884
0.35489947 -0.42486858 1.2544763 0.6427077651 -0.1414041072 0.7529485822
0.18514849 -0.28647971 1.427 0.2593920827 -0.3229863346 0.9101623893
0.33387792 -0.093863726 1.2662221 -0.02498404309 0.7789676785 0.6265661716
0.034994278 -0.092998162 1.2758571 -0.03786949441 0.8008181453 0.5977091193
0.40092421 0.17708667 1.6160001 0.1512184739 -0.8418836594 0.518039465
-0.10506587 -0.15124866 1.317 -0.03776132688 0.7728274465 0.6334917545
-0.034046225 -0.20062955 1.3870001 -0.105981566 0.7651743293 0.6350402832
0.17433742 -0.42494744 1.3810003 0.3504697382 -0.2633717954 0.8987804055
0.22521457 0.19565335 1.2262501 0.03768303245 -0.3915435076 0.9193876386
0.34610581 -0.31526676 1.2960479 0.6773549914 -0.2597497404 0.6882733703
-0.029902223 -0.29382184 1.483 0.09303628653 -0.1292272359 0.9872409105
0.051474359 -0.20344627 1.3980001 -0.06578762829 0.7188947201 0.6919988394
0.15491927 -0.13635358 1.3358573 -0.02625920996 0.7816899419 0.6231142282
0.12543312 -0.051764887 1.2250001 -0.03997384012 0.7982164025 0.6010429859
0.20530799 -0.18376653 1.3847501 0.07929059118 0.7283480167 0.6806042194
0.29108512 -0.31424928 1.3552501 0.6859104633 -0.3532590568 0.6361877918
0.18452781 -0.081147775 1.268 0.04231936112 0.7722556591 0.6339008212
0.25493234 -0.017668579 1.1730002 0.01752184518 0.7731324434 0.6340025067
-0.074205451 -0.042874269 1.1970003 -0.01144187897 0.7140945196 0.6999557614
0.24937555 -0.41593871 1.3380001 0.4459221363 -0.3101679385 0.8396126032
0.015302216 -0.0071433731 1.163667 0.05758829042 0.7232888937 0.6881400347
0.37560207 0.094093166 1.4866003 -0.4460069239 -0.6603426933 0.6041733027
-0.063862287 -0.24484111 1.4364288 -0.09399414808 0.8196703792 0.5650712848
-0.14620958 -0.38920581 2.3490002 -0.02241323516 0.7873821259 0.6160576344
0.17537951 0.018755406 1.126 0.07569933683 0.7720857263 0.6309939027
0.062813163 -0.33039725 1.4330001 0.2216933668 -0.4826100469 0.8473131657
-0.023357688 -0.43538728 1.4210002 0.2489945889 -0.2797685564 0.9272169471
0.40336573 -0.23702699 1.2936667 0.4015651047 -0.3914884329 0.8279385567
0.30132785 -0.14023335 1.322 0.1374189705 0.7960591912 0.5894113779
0.37857711 -0.35760635 1.2590001 0.5620392561 -0.2541610599 0.7870921493
0.24850431 0.080129966 1.1570001 0.4602345228 -0.4694692194 0.7535136938
-0.034663834 -0.10287552 1.2754999 -0.1223185286 0.7388533354 0.6626718044
-0.2311507 0.1038324 1.4100001 0.6630083323 -0.3165031672 0.6784141064
-0.22600116 0.21567246 1.4731113 0.4456572831 -0.4292308986 0.7855892181
0.064803198 -0.059402931 1.2320001 -0.04010778666 0.785847187 0.6171187758
0.15502238 -0.49575201 1.3584117 0.1991305351 -0.4668414593 0.8616299033
0.043931518 -0.45395908 1.3920001 0.1578967124 -0.2581371963 0.9531179667
0.30768213 -0.4341206 1.2970001 0.6390157938 -0.1849316359 0.7466318607
0.2508713 -0.44990972 2.365 -0.00742583815 0.8104683161 0.5857353806
-0.13584071 -0.062555291 1.2156923 -0.05902834609 0.6901524067 0.7212526202
-0.215397 0.017949751 1.365 0.3435853422 -0.530603528 0.7748606205
0.37502629 -0.19432378 1.3223753 0.3110222518 -0.2315076441 0.9217751026
-0.1449016 -0.19340496 1.325 -0.803599 0.2938431501 0.5175759792
0.42424318 -0.44426063 1.2060001 0.3542799056 -0.170981735 0.9193753004
0.0022802099 -0.32353646 1.4450001 0.416583091 -0.2548959553 0.8726319671
0.34708109 -0.48460379 1.245 0.5885075927 -0.2857166231 0.7563232183
-0.15467097 -0.10344218 1.2575884 0.0002920603147 0.7339290977 0.6792260408
0.0143598 -0.16573602 1.3649999 -0.1066333577 0.6733927727 0.7315541506
0.26783043 -0.16454157 1.3700001 -0.006556583103 0.7790747285 0.6268967986
-0.085329615 -0.18375941 1.3581667 -0.09229870886 0.7341583967 0.67267555
0.26327559 -0.47459137 1.3220001 0.4398926198 -0.2953652442 0.8480883837
0.073387295 0.023427162 1.1312499 0.04760608822 0.6728910208 0.7382081747
0.23331498 -0.31267592 1.3947272 0.5219233036 -0.3840824962 0.7616276741
0.17724097 -0.33601931 1.4040002 0.5025220513 -0.3267127275 0.8004563451
0.10537194 -0.40433192 1.3976252 0.1217846274 -0.3925873041 0.9116159678
0.068209052 -0.49900305 1.365 0.2083913684 -0.3937406838 0.8952884078
0.13557854 -0.0010143033 1.1570001 0.05740527809 0.8295571208 0.5554634929
0.13538276 -0.30611554 1.4343333 0.1576362401 -0.2140994966 0.9640083909
0.2152421 -0.052931257 1.225 0.003207306378 0.8213061094 0.5704787374
0.26462051 -0.10675915 1.2955 0.1220832318 0.756436646 0.6425723433
0.22746344 0.0089788204 1.138 0.03037204407 0.8189136982 0.5731124878
0.2856214 -0.053155541 1.2175 0.1065625325 0.8004667163 0.5898283124
0.30600047 -0.26616916 1.3649999 0.7168428302 -0.3751981556 0.5876756907
0.30244672 -0.015824072 1.1475456 0.03553088754 0.7525678277 0.6575554609
-0.18154101 -0.033579841 1.197 0.1891277879 0.4236571491 0.8858584762
0.26845551 -0.36661321 1.3490001 0.5192466378 -0.3405586481 0.7838384509
0.1148784 -0.15915444 1.365 -0.08789624274 0.7450849414 0.6611525416
0.1945574 -0.11160125 1.307 0.01841664687 0.7676922679 0.6405539513
0.025572719 -0.12418299 1.314 0.001790702809 0.8022622466 0.5969690681
0.33947513 -0.38204959 1.2780001 0.7082726359 -0.1583816409 0.6879426837
-0.055740803 -0.071980171 1.2346667 -0.1258651018 0.7696782947 0.6259019971
-0.034463342 -0.022081304 1.177 0.04536596313 0.7039421201 0.7088070512
0.10454251 -0.1277768 1.325 -0.02206095308 0.7748119831 0.6318067312
-0.095179699 -0.2187897 1.4100001 -0.05572925135 0.7410438061 0.6691399813
0.16320938 -0.38180658 1.404 0.3541318774 -0.3179772794 0.8794777393
0.045450307 -0.035350952 1.1955457 -0.01189035736 0.8162244558 0.5776125789
0.37414181 -0.27478155 1.2928332 0.4460183978 -0.3074819446 0.8405488729
0.21679352 0.30194241 1.2780001 0.3822993636 -0.4142759442 0.8259677291
0.091795765 -0.22204651 1.4150001 -0.07891009003 0.6899613738 0.7195321321
-0.065948129 -0.13075921 1.2970001 -0.1465188265 0.7492907643 0.64582932
0.15498361 0.07131245 1.0846001 0.2006679326 0.4680719376 0.8606050611
0.20839418 0.37371248 1.3280001 0.5275484324 -0.4282406569 0.7336910963
0.16502199 -0.16646323 1.3700001 0.05012730882 0.7338136435 0.6774989367
-0.011041617 0.032121066 1.1450001 0.06726764888 0.4342446029 0.8982798457
0.0087570231 -0.36529297 1.427 0.236714974 -0.40948686 0.8810712695
0.32486022 -0.081746534 1.2110001 0.4569297433 0.8486638069 0.2664300799
-0.12532073 -0.12494982 1.2859169 -0.1628323197 0.7564804554 0.6334216595
-0.20203133 -0.11300058 1.302 0.5802925229 0.3471684754 0.7367052436
0.37692744 -0.45564118 1.227 0.6262158751 -0.2767060697 0.7288946509
0.41362303 -0.33501336 1.2433529 0.5845948458 -0.3647267818 0.7247228622
0.2331053 0.037098855 1.1040832 -0.08832806349 0.7277028561 0.6801813841
-0.0051805368 -0.076002173 1.2537858 -0.1222037449 0.7997359037 0.5877829194
0.21546184 -0.43595746 1.3578887 0.4524033964 -0.3173502088 0.8334386349
-0.093258925 -0.0020496466 1.169 0.2263051122 0.3834604621 0.895401597
0.32432705 -0.29464838 1.3345791 0.6854622364 -0.2748498321 0.6742396355
0.37540621 0.15850484 1.5860001 0.1512184739 -0.8418836594 0.518039465
0.073050879 -0.1084349 1.302 -0.0005968511687 0.8097894192 0.5867203474
0.083112381 -0.36842355 1.4150001 0.09553495795 -0.2049656659 0.9740955234
0.014633319 -0.42463976 1.4040002 0.2297221422 -0.3058989048 0.9239337444
0.0012361 -0.2089009 1.4100001 -0.1548731476 0.7390555143 0.6555999517
0.044471718 -0.22889118 1.4330001 0.08947792649 0.6626650095 0.7435514331
0.31272632 -0.33415312 1.3238462 0.6757701635 -0.2529662251 0.6923458576
0.38649604 -0.40538102 1.2340001 0.5747391582 -0.242231667 0.7816640735
0.19546041 -0.14480117 1.3468184 0.119189024 0.719530344 0.6841564775
-0.045412734 -0.1733726 1.3490001 -0.1290897727 0.7254302502 0.6760818958
0.085130714 -0.18188091 1.3844287 0.01661001518 0.725638032 0.6878761649
0.17444612 -0.054782782 1.2349335 0.04812900349 0.8110297322 0.58302176
0.14734013 -0.45649591 1.3760002 0.3134587407 -0.2429176569 0.9180057645
0.075088784 -0.085513301 1.2667693 0.01080674306 0.8043980002 0.5939924717
0.14512454 -0.07404913 1.2577692 -0.04601483792 0.7958105206 0.6037948728
0.37782499 -0.31508064 1.268 0.4759455919 -0.2673900425 0.8378415108
0.3461324 -0.11512577 1.3045001 -0.2522173226 0.8090856075 0.5308172107
0.22618964 -0.27648312 1.413 0.6197111607 -0.3129642904 0.7197301388
0.13496083 -0.025588021 1.1947143 -0.02961237542 0.816962719 0.5759297013
0.29505402 -0.084293775 1.2574002 0.04131411016 0.7775848508 0.6274192333
-0.035936322 -0.25626019 1.4640001 0.04206562415 0.7821765542 0.6216351986
0.13522534 0.025969209 1.125 0.09199493378 0.752638042 0.6519761682
-0.20869796 0.13497028 1.4255 0.3921231329 -0.4077261388 0.8246204257
0.22538023 -0.092212804 1.2765 0.058378499 0.7835684419 0.6185567975
-0.095093042 -0.067336969 1.2251538 -0.08924122155 0.7239710093 0.6840335727
0.36814037 0.12094142 1.516 -0.1355410963 -0.7770960331 0.6146140099
0.1543832 -0.10826264 1.3045001 0.02360738069 0.7578276992 0.6520274878
0.11469781 -0.49544111 1.3587058 -0.01819774136 -0.6000819206 0.7997315526
-0.14496844 -0.15474944 1.3124169 -0.7292865515 0.3070102036 0.6114620566
0.23336866 0.15805423 1.21 0.6042739153 -0.3467761278 0.7173557878
0.17354845 -0.20062692 1.404 0.02913809381 0.7638918757 0.6446861029
0.331451 -0.46090662 1.273 0.6737509966 -0.2947357893 0.6776359081
0.075513728 0.055443991 1.1077142 0.1167692244 0.467889607 0.8760389686
-0.01116435 -0.39695466 1.4150001 0.168682307 -0.3433076441 0.9239513874
0.2560831 -0.32907873 1.365 0.3332442343 -0.3550834656 0.8734208345
-0.22135395 0.066041932 1.3950001 0.4970408678 -0.3876225352 0.7763369679
0.30355108 -0.10986737 1.2920001 0.09330815822 0.7694260478 0.6318838
0.24536438 -0.038372871 1.2046667 0.08668652922 0.835396409 0.5427690744
0.25131491 0.22955604 1.2410001 0.1474438757 -0.4682412744 0.8712120652
0.1990384 -0.39566419 1.376 0.3856779933 -0.1997159123 0.9007586241
0.031477593 -0.49032405 1.381 0.3944944143 -0.3194411397 0.8615866303
0.19553494 -0.003041741 1.1556666 0.03698480874 0.8218899369 0.5684444308
0.098680817 -0.3178843 1.4370002 0.2218592614 -0.6244341135 0.7489061952
-0.31033736 -0.073889852 1.8730001 0.9003924131 0.3651565611 0.2365463674
0.055683371 -0.0027278492 1.1548461 -0.0003653918684 0.7306367755 0.6827662587
-0.1895555 0.0011773633 1.3430001 0.1887906343 -0.4783779085 0.8576203585
0.029374469 -0.068540432 1.2410001 -0.01265393198 0.7965164185 0.6044844985
0.24788538 0.04563313 1.1421429 0.3455775082 -0.4054962993 0.8462558389
0.36722997 -0.2377542 1.307 0.557413578 -0.3972032964 0.7290539742
0.28547469 -0.40604812 1.3251579 0.6489592791 -0.3226619661 0.689014554
0.075606927 -0.43418363 1.3923531 -0.005830350798 -0.2363617569 0.9716476202
0.26836696 -0.00099764671 1.138 0.3369333446 0.5802462101 0.7414784431
-0.011984909 -0.11813697 1.302 -0.1841715425 0.7605798244 0.6225746274
-0.034880813 -0.22797103 1.4210001 -0.06938346475 0.7479791045 0.6600857377
0.094942994 -0.036924612 1.2033333 -0.1327079087 0.7877182961 0.6015717387
-0.22751693 0.25351885 1.4830002 0.4648840129 -0.4911285937 0.7366651297
0.23857255 0.11568712 1.1730001 0.4877402186 -0.3844085634 0.7837981582
-0.0046194936 -0.45676422 1.398 0.2072969079 -0.3597238362 0.9097399712
-0.1146114 -0.03584145 1.1945556 0.03650667146 0.5657556057 0.8237644434
0.28629693 -0.032920629 1.1871052 0.5040863156 0.7671068311 0.3967922032
0.10519999 -0.069037497 1.25 -0.1141211838 0.7566056848 0.643835485
0.18069415 -0.4714801 1.365 0.3067955077 -0.2794871628 0.909815073
0.22517271 -0.16083765 1.3590001 0.05025482923 0.7423763871 0.6680956483
0.33331969 -0.35464379 1.303 0.7342931032 -0.180421114 0.6544172168
0.27447772 -0.29384851 1.3809999 0.4429443479 -0.3133076131 0.8400229812
0.0052117831 -0.030228343 1.189 0.005091013853 0.7736648321 0.633574605
0.024941165 0.017957641 1.1380001 0.1330551058 0.615252316 0.7770205736
-0.12181021 -0.18094137 1.3490001 -0.572819829 0.4098545611 0.7098568082
0.13440983 -0.42399389 1.3938001 0.00204228214 -0.336750865 0.9415915608
0.18387251 0.042227935 1.101 0.04896890745 0.7109079957 0.7015780807
0.10515179 0.013016456 1.1423334 -0.06942556053 0.7530784011 0.6542575955
-0.06496311 -0.15297762 1.3280001 -0.1377051324 0.771369338 0.6213104129
0.28162566 -0.44503808 1.322 0.5586069226 -0.1392256171 0.8176640868
0.23788089 -0.38799605 1.3590001 0.4196374416 -0.3732884228 0.8273814917
0.22156347 -0.019671524 1.1810001 0.05839923397 0.8083341122 0.5858203769
0.23731662 -0.49636018 1.3170002 0.3673500121 -0.3873125315 0.8456021547
0.045765504 -0.17583548 1.3737499 -0.1114635468 0.6949560642 0.7103604674
-0.21987589 -0.39537317 2.3010001 -0.02241323516 0.7873821259 0.6160576344
-0.074866958 -0.20410366 1.3870001 -0.02092841268 0.7901760936 0.6125224233
0.23538013 -0.45503226 1.3372104 0.4246072173 -0.1945132911 0.8842359781
-0.12539159 -0.086476758 1.2437693 -0.1020535827 0.7231669426 0.6830919981
0.39983365 -0.36949396 1.2360001 0.5839536786 -0.3423412442 0.7360710502
0.34488493 -0.27471298 1.3153334 0.6301891208 -0.3129301071 0.7105888128
0.20395651 -0.3131828 1.41 0.3293152452 -0.5139270425 0.7921050787
-0.035324134 -0.045719519 1.2041539 -0.04273699969 0.8001912236 0.5982203484
-0.18076275 -0.11417028 1.2767501 0.4721072316 0.5545936227 0.6852303743
0.27081898 0.10447324 1.1570001 0.4270409644 -0.3946032524 0.8135873079
-0.017968159 -0.34139505 1.4640001 0.5129349828 -0.1513737291 0.8449755311
0.27333057 0.064842083 1.1337649 0.3412057757 -0.3317695856 0.8794927597
-0.016431713 -0.0014200247 1.1570001 0.0233014673 0.6259176731 0.779540956
0.37229228 0.071907707 1.456 -0.4900600016 -0.6581343412 0.5715770721
0.30019346 -0.46569937 1.302 0.6358996034 -0.1903803051 0.7479218245
0.25210887 0.18492699 1.21 0.494970113 -0.4521287084 0.7420136333
0.068758719 -0.46804184 1.376 0.2288675159 -0.4106810689 0.8825874925
0.26424137 -0.12864383 1.322 0.09305619448 0.7788778543 0.6202337146
0.33313978 -0.41350549 1.2841538 0.7282702923 -0.1892057955 0.658652842
0.34967694 -0.16365351 1.3430001 0.3682263792 -0.004879550077 0.929723382
-0.071051784 -0.10750768 1.273 -0.1400801539 0.7374816537 0.6606801748
-0.0143598 -0.18069415 1.365 -0.2212066054 0.7145439386 0.66369766
-0.1613505 -0.080675252 1.2270001 0.03154352307 0.6775035858 0.7348427176
0.12208284 -0.21302211 1.4210001 -0.08852390945 0.7350606322 0.6721974611
-0.13887978 -0.20772617 1.3540001 -0.5946663022 0.3259941936 0.7349147797
-0.1442178 -0.38796622 2.3170002 -0.02241323516 0.7873821259 0.6160576344
0.0042187832 -0.14364824 1.3365002 -0.1685380489 0.7473667264 0.6426802278
0.015401863 -0.19171268 1.3870001 -0.07106807828 0.7455247641 0.6626780033
-0.15005991 -0.040925428 1.197 0.2201993167 0.4666863084 0.85657233
0.23568465 -0.11560778 1.3056364 0.01184276398 0.7779825926 0.6281741858
0.16478136 -0.31458744 1.424 0.3484243453 -0.2726172805 0.8968167901
0.073850393 -0.40424305 1.404 0.05675446987 -0.5044115186 0.8615961671
0.32146052 -0.074101128 1.243 0.2058619708 0.8640208244 0.4594441056
0.0044990536 -0.097854413 1.2830001 -0.1318986118 0.7656590343 0.6295784712
0.27550304 -0.14952514 1.3430001 0.07092529535 0.7655644417 0.6394377947
-0.21766932 0.18966508 1.452 0.0711395517 -0.5513759255 0.8312182426
0.045644533 -0.35620162 1.4265 0.2356629223 -0.3976714611 0.8867470622
0.055661976 -0.12755784 1.3227501 -0.04173437506 0.7631382942 0.6448861957
-0.065044187 -0.014270241 1.175737 0.09492961317 0.5746259093 0.8128920197
0.21373698 -0.068529658 1.2521429 0.07324335724 0.8118008375 0.5793226957
0.3645671 -0.39448598 1.2640001 0.6163680553 -0.3018226624 0.7273193598
0.15447217 -0.35192245 1.4210002 0.3877923489 -0.4930569828 0.7787887454
-0.00128344 -0.29904151 1.4640001 0.4041444361 -0.3332800567 0.8518167138
0.19534847 -0.3658514 1.3936669 0.3148910403 -0.3463413715 0.8836805224
-0.23680562 0.12437007 1.4330001 0.3407548666 -0.3923566341 0.8543666601
-0.1841 -0.098077089 1.25 0.1123001352 0.7672977448 0.6313816905
-0.064391166 -0.22537345 1.4125001 -0.06972967833 0.7669597864 0.6378953457
0.16465624 -0.0065868846 1.1650003 0.08728063107 0.8464688659 0.5252356529
0.15452266 -0.036594648 1.215611 0.008085099049 0.7795704007 0.6262623668
-0.15571056 -0.13439758 1.2849231 -0.2052267194 0.5166996717 0.8312060237
-0.28949726 0.01095395 1.7850001 0.9857506156 -0.02495718375 0.1663516164
0.13226269 -0.38442707 1.4100002 0.1223353371 -0.2783703506 0.9526510239
0.40552595 -0.26799104 1.2754999 0.5103302598 -0.3657158315 0.7783411741
-0.2060836 0.095658354 1.3947692 0.5803650022 -0.2680076361 0.768991828
-0.095022373 -0.12270112 1.2861819 -0.06517348439 0.7897292972 0.6099836826
0.2044657 0.026595727 1.1168333 0.0005053915665 0.7414666414 0.670989573
0.29535636 -0.35447457 1.3379999 0.6569309235 -0.252877146 0.7102780938
0.27596685 -0.49537188 1.304143 0.519572854 -0.2331816256 0.8219917417
0.03508449 -0.15019317 1.3490001 -0.02559074946 0.7831687927 0.6212823391
-0.20435692 0.044006694 1.3752501 0.3425334692 -0.4616113007 0.8182822466
0.044120878 -0.42405069 1.3980001 0.214569062 -0.3242285252 0.9213229418
0.35675246 -0.3454006 1.2756922 0.5385354757 -0.1985449046 0.8188769817
0.14497431 0.045149472 1.1040868 0.174455598 0.6409580708 0.7474877834
-0.0090209004 -0.2680496 1.47 0.4223629236 0.3921689093 0.8171983361
0.18709101 -0.49599218 1.3490001 0.3847562671 -0.3599246144 0.8499510884
0.3958585 -0.43530366 1.2161156 0.5694921613 -0.2286560237 0.7895537615
-0.021892559 -0.36591846 1.427 0.3689841628 -0.3695307374 0.8528175354
0.094433211 -0.14519659 1.3465003 0.0361604169 0.7626377344 0.64581424
0.11453386 -0.011350203 1.177 -0.09448131174 0.7875880003 0.6089158058
0.41214165 -0.47334495 1.2036 0.44040218 -0.2169563323 0.8711922169
0.36724535 -0.49519041 1.2264287 0.6866541505 -0.1568279415 0.709866941
0.35247734 -0.45376229 1.25125 0.6258747578 -0.1283926666 0.7692828774
0.10475785 -0.4341836 1.3923531 0.1477232724 -0.2396557927 0.9595534801
0.24683513 -0.28696105 1.3870001 0.4501562417 -0.3513444364 0.8209241629
0.37488434 -0.16571169 1.3269092 0.3910060525 -0.1056665108 0.9143024087
-0.024312889 -0.066460103 1.2326669 -0.1342536658 0.7585869431 0.6375906467
0.023663109 -0.050837524 1.219 -0.01432218589 0.8204659224 0.571516037
0.42225099 -0.41439804 1.2054287 0.4908204377 -0.2031403035 0.8472480774
0.28499714 -0.2583223 1.3834001 0.6381137371 -0.3537946045 0.6838422418
0.19220799 -0.039291617 1.2113334 0.1337586343 0.7860345244 0.6035382152
0.2149476 -0.33463553 1.3931251 0.4729724526 -0.3014913797 0.827888906
0.2545765 -0.055346154 1.2257999 0.1229702681 0.8019199967 0.5846388936
0.39180642 -0.22125444 1.3145001 0.4389438629 -0.4348272383 0.7862910032
0.025335666 -0.34836543 1.4450001 0.1712671518 -0.5972012877 0.7835931182
0.30834857 -0.40674627 1.3051251 0.6363078952 -0.246007964 0.7311581969
-0.12511285 -0.10595193 1.2645714 -0.1331241876 0.7522041202 0.6453424692
0.2517173 0.022703914 1.126 -0.2570023239 0.06157086417 0.9644474387
-0.16032217 -0.17282957 1.2970001 -0.03184039146 0.5379831791 0.8423539996
0.22266369 0.22373936 1.2270001 -0.1065840423 -0.4117202163 0.9050559998
0.20878576 0.32658172 1.2920001 0.1565278769 -0.4671711028 0.87020123
0.24444298 -0.35562265 1.3649999 0.4763163328 -0.2221485525 0.8507483602
0.21985134 0.2689552 1.273 0.3125929534 -0.3212722838 0.8939070106
0.094701812 -0.34391621 1.421375 0.142230764 -0.3649144173 0.9201129675
0.10585224 -0.19816524 1.404 -0.03289138526 0.7031930089 0.7102378011
-0.05524753 -0.18856223 1.3700001 -0.1109948456 0.7652744651 0.6340624094
-0.039796282 -0.12166292 1.2970001 -0.1701503992 0.7660813332 0.6198130846
0.094407223 0.035996813 1.1184288 0.008549700491 0.6238419414 0.781503737
-0.025485452 -0.31334272 1.464 0.4141991138 -0.2627562582 0.8714345694
0.32318622 -0.26431802 1.3430003 0.7324103713 -0.2988546789 0.6117687225
0.37755316 0.1810571 1.6010001 0.1512184739 -0.8418836594 0.518039465
-0.034952227 -0.085061148 1.255 -0.1074755639 0.7909880877 0.6023178697
0.12425884 -0.11194914 1.306375 -0.106369935 0.7938886285 0.5986871123
0.32717511 -0.49651784 1.2589999 0.692085743 -0.1874270588 0.6970569491
0.015888788 -0.3961342 1.414091 0.289835453 -0.3359298706 0.8961844444
0.30874974 -0.057956435 1.202 0.5498899221 0.7745819092 0.3124802709
0.063760839 -0.22403128 1.4150001 0.0660090223 0.6220023632 0.7802280784
0.095545977 -0.053250838 1.2246001 -0.124984175 0.7995935678 0.5873917937
-0.10048616 -0.19976164 1.381 -0.4619920254 0.6168564558 0.637221694
0.12505229 -0.47546506 1.3738822 -0.05187953636 -0.4850334525 0.8729553819
0.044293582 -0.018543253 1.1750001 -0.0006983689964 0.7442780137 0.6678695679
0.085361041 -0.16194664 1.3649999 0.04880405217 0.7310694456 0.6805553436
0.25176966 0.20609491 1.2260001 0.1614427567 -0.4615208805 0.8723157048
0.28530499 -0.12191348 1.307 0.1189485043 0.7646942735 0.6333197355
0.16533791 -0.093379088 1.2855002 0.01795479842 0.7725989223 0.6346404552
0.14574294 -0.15416418 1.3566924 0.01960027032 0.7410811186 0.6711294055
0.1147503 -0.18190706 1.3843335 -0.06574124098 0.720445931 0.6903881431
-0.17514397 -0.055198092 1.2107998 0.1651428789 0.5216080546 0.8370500803
0.28139773 -0.019371703 1.1630001 0.4972817302 0.7933808565 0.3510808051
0.30361471 -0.035305995 1.1652222 0.06108887494 0.8003962636 0.596350491
0.26490387 -0.39564845 1.3441432 0.4791071117 -0.1937882006 0.856097281
-0.018006442 -0.24413383 1.4330001 -0.1160481423 0.8052937388 0.5814076662
0.40275416 -0.32297045 1.2640001 0.3714762628 -0.4269357324 0.8244581819
0.15383561 -0.40377426 1.3932632 0.3217913806 -0.2212923914 0.9205867648
0.13510837 -0.33526886 1.427 -0.02978859469 -0.3293246031 0.9437467456
0.15170863 0.011669894 1.141 0.09024620801 0.7842441797 0.6138539314
-0.16260764 -0.017720064 1.189 0.2419639975 0.3182092011 0.9166222215
-0.094360545 -0.024889449 1.1828001 0.06442610919 0.5537445545 0.8301904798
-0.028894056 -0.40200427 1.4330001 0.4064040184 -0.3354035318 0.8499060273
0.19405268 -0.16591419 1.37 0.07309480011 0.7357077003 0.6733433604
-0.12573504 -0.16182566 1.3280001 -0.332882911 0.6074592471 0.7212365866
0.20541298 -0.12766002 1.3238001 0.09355769306 0.7545198202 0.6495743394
0.095081814 -0.48341584 1.37 0.1537609696 -0.4506150484 0.8793768287
-0.0050671338 -0.35343254 1.4449999 0.254080534 -0.5306099653 0.8086384535
-0.18460715 -0.017731899 1.3265001 0.2265234143 -0.410576582 0.8832406402
0.19435456 -0.44295949 1.3704617 0.3797881901 -0.4335653186 0.8171793222
0.025448756 -0.2169373 1.4210002 0.0004338291765 0.7182407975 0.6957944632
0.14004751 -0.090750776 1.2780001 -0.08167594671 0.7807258964 0.6195127964
0.17483753 -0.12529302 1.3246667 -0.02919017896 0.7931084633 0.6083805561
0.054996222 -0.075900048 1.2546667 -0.00578244403 0.847882688 0.5301523805
0.26445496 -0.091549426 1.2752222 0.1781479418 0.8022204638 0.569829464
0.38261443 -0.38362598 1.25 0.6196535826 -0.3094466627 0.7212989926
0.22274783 -0.41284424 1.3649999 0.4668475986 -0.1969302893 0.8621321321
0.044420701 0.028626675 1.126 0.1088816002 0.5359762907 0.837182343
0.32789788 -0.31519759 1.3170002 0.7457002401 -0.2553240955 0.615419209
0.23476294 -0.0071336874 1.162143 0.06002191454 0.7955949306 0.602848351
0.27493885 -0.067918748 1.2410001 0.1033712626 0.8022614121 0.5879549384
-0.064759374 -0.087808684 1.2520001 -0.1480221599 0.7603972554 0.6323649883
-0.21230938 -0.0082108602 1.3380001 0.1649687737 -0.4033042192 0.900072813
0.085468479 0.0019092826 1.153 -0.04985743016 0.7650699019 0.6420142651
0.13474192 -0.12661608 1.3250002 -0.02612428553 0.7662369609 0.6420268416
0.209682 0.35176161 1.307 0.3045902848 -0.5088718534 0.8051547408
0.1454916 -0.17580585 1.383 0.009474406019 0.7316479683 0.6816168427
0.25437722 0.16489777 1.193 0.5217350721 -0.3883410692 0.7595944405
0.22902916 0.23560417 1.25 0.1490134448 -0.4934855402 0.8568938375
0.12532154 -0.14460702 1.3465 -0.08787300438 0.7574209571 0.6469867229
0.01464384 -0.47592476 1.3920001 0.294169277 -0.14472574 0.9447321892
0.3900632 0.12465937 1.5289999 0.02688526921 -0.8275639415 0.5607272387
0.23800862 0.13730691 1.193 0.4619545341 -0.4162130952 0.7831760049
0.0059122401 -0.06355051 1.2350769 -0.04082034156 0.7895804048 0.612287879
-0.045337938 -0.0048262887 1.1633638 0.177842021 0.5629479289 0.8071318269
-0.12511709 -0.14172578 1.3063751 -0.1418541223 0.7692516446 0.6230002642
0.12448141 -0.4457669 1.3836253 0.1225702539 -0.3394622207 0.9325995445
0.1949632 -0.094666407 1.2855 0.02333490551 0.791998744 0.6100766659
0.3331421 -0.064431056 1.1950001 0.09168697894 0.7047462463 0.7035099268
0.064846858 -0.044650909 1.2126001 -0.03903708607 0.8096716404 0.5855833888
0.15762642 -0.29148379 1.427 0.2456521541 -0.2699784338 0.9310030341
0.056091219 -0.10119461 1.2861251 -0.02724615112 0.8029251695 0.595456779
0.2759915 -0.3456378 1.3587058 0.5702195764 -0.3115753829 0.7601121068
0.17533804 -0.39420664 1.3870003 0.3660899699 -0.3164019585 0.8751388192
-0.20791201 0.11446285 1.4100001 0.3799847066 -0.5055111647 0.7746419311
0.23529102 0.28570238 1.2648 0.3287750185 -0.3147264719 0.8904235959
0.32405543 -0.12166292 1.2970001 -0.1065516397 0.7843934298 0.6110431552
0.26059705 -0.44056094 1.3330001 0.4406658411 -0.1685077846 0.8817135096
0.33180517 -0.43753293 1.2830001 0.7115508914 -0.1820497215 0.6786407232
0.29025558 0.0049531665 1.13 0.1039095744 0.3428676724 0.933619082
0.38639605 -0.29427564 1.2763333 0.6017836928 -0.319737643 0.7318635583
-0.095947027 -0.16239931 1.336182 -0.1214769781 0.7807703018 0.6128956079
0.1434253 -0.011866122 1.177 0.043527551 0.8291583061 0.5573166013
0.22399774 0.39828086 1.3342501 0.4947187006 -0.4615139067 0.736381948
0.21499334 -0.10419709 1.294353 0.1024423167 0.7855615616 0.6102446914
-0.21155281 0.15708113 1.4450001 -0.05602346361 -0.4277321994 0.9021676779
0.024465311 -0.10714902 1.2919999 -0.02505099028 0.7682495713 0.63966012
-0.08524777 -0.1427671 1.307 -0.1030260399 0.742518127 0.66185534
-0.05470771 -0.031961046 1.1877694 0.02084338292 0.6817133427 0.7313224077
0.074377902 -0.20168194 1.4040002 -0.006805096287 0.6591767073 0.7519572973
0.21455975 -0.037286676 1.2036667 0.02909108438 0.7991433144 0.6004362106
0.30550519 -0.062590428 1.2260772 0.4316702783 0.8247104287 0.3653949499
0.28474906 -0.38516998 1.3361818 0.6073594093 -0.182344839 0.7732172608
0.17481281 -0.18209659 1.3847501 0.03990982473 0.7314881682 0.6806851029
0.17570582 0.058497436 1.086 0.1381931305 0.5866949558 0.7979296446
0.065360241 -0.024901895 1.1833999 -0.08802426606 0.7909281254 0.6055447459
0.081494935 -0.13155611 1.3280001 -0.04503272846 0.7754816413 0.6297620535
0.045127638 -0.11466816 1.3050555 -0.09098210186 0.7748796344 0.6255268455
-0.054498862 -0.21271031 1.3953333 -0.06673249602 0.7605702281 0.6458170414
-0.11344405 0.0019227804 1.1810001 0.1769555807 0.3406616151 0.9233831167
0.30305192 -0.29410371 1.3540001 0.7231092453 -0.3107009232 0.6169100404
0.29513085 -0.42489174 1.3150556 0.6073905826 -0.2083676457 0.766589582
-0.014938401 -0.092972651 1.2675555 -0.1686771065 0.7554892898 0.6330750585
0.30706134 -0.31592 1.3374447 0.6587111354 -0.2642371058 0.7044702768
0.41755503 -0.35790443 1.2260002 0.5129257441 -0.3059362173 0.8020662069
0.3638722 -0.30467129 1.2836525 0.4781752825 -0.3375951648 0.8107884526
-0.054271765 -0.055343229 1.2139499 -0.1057995483 0.7771088481 0.6204097867
-0.013551514 -0.15656801 1.3445001 -0.2406151891 0.6957764626 0.6767565608
0.23643349 -0.33534953 1.3760002 0.5160399675 -0.2212615907 0.8274938464
0.38573799 0.15493506 1.5640001 0.4757424891 -0.7434982061 0.4699782133
-0.0050250534 -0.38316032 1.4330001 0.1895359457 -0.3147490025 0.9300587177
-0.034916025 0.024886666 1.1433336 0.1681556404 0.4865485728 0.8573180437
0.38757962 -0.2563163 1.2880001 0.446100384 -0.2517408729 0.8588486314
0.094837099 -0.10595639 1.2939999 0.01209161151 0.8197830319 0.5725465417
0.0057919179 0.008310142 1.149 0.1104637012 0.6373103857 0.7626488209
0.062287167 -0.38244319 1.4210001 0.08276941627 -0.3922423422 0.9161305428
0.23481019 -0.064063393 1.2432222 0.05002576485 0.813380301 0.5795773864
0.32593316 -0.39463905 1.2958003 0.6577336788 -0.1886945665 0.7292329669
0.10401115 -0.38512605 1.4105556 0.2156012505 -0.4142918289 0.8842388988
0.24480303 -0.1513758 1.3490001 0.02431172505 0.747897923 0.6633684039
0.24333112 -0.10105862 1.2880001 -0.02183868922 0.7671719193 0.6410696507
0.34644875 -0.12632552 1.3246667 -0.1478961706 0.7418609262 0.654040575
0.40576497 -0.39509678 1.2266798 0.5115807652 -0.2625330389 0.8181451559
0.13524376 0.064264551 1.0941199 0.2182241231 0.4600283206 0.8606696129
0.36622927 -0.21556535 1.3220003 0.2393238991 -0.3016126752 0.9229051471
-0.083771639 -0.079419866 1.2410001 -0.08765850216 0.7538434267 0.6511805058
0.034619182 -0.37569591 1.4216666 0.07183741778 -0.3725264072 0.925237
-0.02502708 -0.21293533 1.4040002 -0.1776863039 0.761826098 0.6229354739
0.35704055 -0.18429764 1.3365716 0.4241788387 -0.1411341429 0.8945129514
0.26235479 0.12195398 1.169 0.3425167501 -0.4319759607 0.8343135118
0.35571629 -0.36683238 1.268 0.5321602821 -0.2373917252 0.8126811385
-0.044829283 -0.13587333 1.3156668 -0.1794627607 0.7395322323 0.6487566829
-0.24051788 0.23011711 1.483 0.4794902802 -0.4827866554 0.7328070402
0.014754551 -0.085677885 1.266857 -0.0129375197 0.8015443683 0.5977953076
0.20584045 -0.27819178 1.423 0.4051057398 -0.3661982119 0.8377280235
0.20485012 0.0086462721 1.138 -0.01990775019 0.8073894382 0.5896829367
0.29389605 -0.097844034 1.2754999 0.09765546024 0.7947800756 0.5989891887
0.29921421 -0.050731823 1.1810001 0.3860129416 0.782897234 0.4879200161
-0.11486044 -0.055508126 1.21175 -0.02050184086 0.6971363425 0.71664536
0.31519762 -0.35560751 1.3169999 0.6732905507 -0.1884817928 0.7149506211
0.37869999 -0.4761667 1.2180909 0.6123579741 -0.1820118576 0.7693434954
0.24140769 -0.17174776 1.3700001 -0.003941587638 0.7487209439 0.6628736258
0.2332342 0.31585404 1.284 0.2098543495 -0.47959885 0.852024734
0.33724809 -0.29752693 1.307 0.6982412934 -0.3005035222 0.6497359276
-0.073826186 0.013641261 1.1635002 0.2051421851 0.3794477284 0.9021840692
0.24189951 -0.48146182 1.3330001 0.3669209778 -0.3491291106 0.8622516394
0.17474408 0.0066432706 1.1447502 0.06545888633 0.817538619 0.5721413493
0.23288564 -0.0805718 1.2590001 0.05468302593 0.7777403593 0.6262025833
0.37752289 -0.42580697 1.2344617 0.6051484942 -0.2153585404 0.766430676
0.22276159 -0.46253693 1.3540001 0.4894002378 -0.3200921416 0.8111895323
0.25363678 -0.31376705 1.3810002 0.2955615222 -0.3547026217 0.8870340586
0.23534204 -0.42929229 1.3490001 0.4580425024 -0.3471383154 0.818347156
0.24564125 -0.26735148 1.398 0.3023974597 -0.6339172721 0.7118319273
0.33524758 -0.1066693 1.2849231 -0.1480925232 0.7735244632 0.6162211299
-0.083464801 -0.23419975 1.4210001 -0.0470536314 0.7541663051 0.6549955606
-0.075351253 -0.1671856 1.3430002 -0.06927473843 0.7280470729 0.682017982
0.10493592 -0.084276803 1.2661538 -0.0661765933 0.7648070455 0.6408516765
0.16538061 -0.066960163 1.2520834 -0.0111221429 0.7960846424 0.6050831079
-0.016868295 -0.031865604 1.1878002 -0.1109723747 0.7540098429 0.6474212408
0.014952077 -0.44635627 1.3980001 0.2359885871 -0.2334751934 0.9432914257
-0.094856761 -0.04767042 1.2034545 0.002343472093 0.6785060763 0.7345910668
0.053612549 -0.16083765 1.3590001 -0.05190013349 0.7537599802 0.655097127
-0.0055219638 -0.017505199 1.1744547 -0.05740210786 0.7244340181 0.6869500279
0.20583384 0.04373176 1.1015713 0.009959141724 0.7193700075 0.6945556402
-0.0047425083 -0.42443165 1.4144121 0.3191619217 -0.2177558541 0.9223437905
0.14578441 -0.059836883 1.2410001 -0.04210454971 0.7983615994 0.6007046103
0.1569584 0.02844871 1.1190001 0.1158137545 0.7547789812 0.6456747651
0.27390912 -0.31374329 1.3718752 0.5233370066 -0.3462220728 0.7786197066
-0.074805968 -0.060913429 1.2190001 -0.06103862822 0.75207901 0.656240344
0.35474706 -0.25524059 1.3147779 0.6772815585 -0.2337132841 0.6976158023
0.31199858 -0.47357893 1.2848182 0.7195379138 -0.2002881616 0.6649434566
0.26587811 -0.034938432 1.1944546 0.07262100279 0.8223746419 0.5642926097
0.39546406 -0.34540662 1.2527242 0.5482860208 -0.3046054542 0.7788439989
0.16506547 -0.026209431 1.1957694 0.05816297978 0.8344725966 0.5479713082
0.022770541 -0.20370401 1.404 -0.0376342833 0.7724956274 0.6339039207
-0.2262063 0.08096455 1.4100001 0.647870779 -0.1954481751 0.7362496257
0.2918511 -0.2846449 1.3700002 0.6774896979 -0.3451746404 0.6495091915
0.15501823 -0.43461406 1.3826671 0.2634681165 -0.4445243776 0.856144011
-0.012042184 -0.22714053 1.4210001 -0.1790570617 0.6893465519 0.7019543648
0.025709128 -0.139063 1.3330001 -0.02459939569 0.779681623 0.6256927848
0.1149687 -0.038501449 1.2115 -0.1051158533 0.7716318369 0.6273236275
0.22457892 0.052484419 1.0915385 -0.01720933244 0.6921564937 0.7215422392
0.1565617 -0.47526947 1.3649999 0.3451220989 -0.408634007 0.8449313641
0.23960088 0.091521367 1.1730001 0.3350095451 -0.3810157478 0.8617398739
0.32388923 -0.37399256 1.3026249 0.6942839622 -0.2467195541 0.6760911345
