# .PCD v0.7 - Point Cloud Data file format
VERSION 0.7
FIELDS x y z normal_x normal_y normal_z
SIZE 4 4 4 4 4 4
TYPE F F F F F F
COUNT 1 1 1 1 1 1
WIDTH 512
HEIGHT 1
VIEWPOINT 0 0 0 1 0 0 0
POINTS 512
DATA ascii
0.3568714 -0.35497481 1.1552498 0.8000593185 -0.1050864235 0.5906453729
-0.47317293 -0.47317293 2.2710001 -0.1147185043 0.651678741 0.749769628
-0.02058764 0.49627048 1.2360001 0.5090844631 -0.4609180987 0.7269027233
0.45624843 -0.21147609 2.0530002 0.02977028675 0.761269629 0.6477517486
-0.20301209 -0.096605286 1.2421429 0.1133857816 0.5828024149 0.8046644926
0.41635939 0.2390296 1.5640001 0.196408093 0.7880879641 0.5833877325
0.04295053 -0.43973163 2.3330002 -0.004662197549 0.7704290748 0.6375086308
0.20534818 0.1046896 1.0221249 -0.1917730272 0.4508425593 0.8717591763
-0.35468093 -0.13802853 1.9930001 -0.1121238545 0.6489363909 0.7525355816
-0.27326939 0.20636095 1.5530001 0.5730642676 -0.3306337595 0.7498524189
0.11704288 -0.20283347 1.3980001 -0.05117222667 -0.03114065528 0.9982042313
0.42436892 0.00476819 1.8130001 -0.7714781165 0.4271607995 0.4715455174
0.3042115 0.28123817 1.268 -0.4920631051 0.7322532535 -0.4708280861
0.42487606 -0.10754158 1.0055001 0.7874619961 -0.01590133458 0.6161580682
-0.081447765 0.092630528 1.0630001 0.2740190029 0.5828440189 0.7649878263
-0.21877216 -0.29867157 2.1700001 -0.1121238545 0.6489363909 0.7525355816
0.30571207 -0.10988227 1.2410001 0.8606355786 -0.0007521533989 0.5092208385
0.21417141 -0.24986665 2.1430001 0.01894446835 0.7788709998 0.6268979907
0.055140235 0.30461308 1.0845383 0.6591556072 -0.2869936824 0.6950888038
0.056824658 -0.039670043 1.223 -0.09138894081 0.777050972 0.6227679253
0.19882624 0.27390748 1.5860001 0.2010514587 0.7919189334 0.5765784979
0.19420743 -0.39204901 1.2939999 0.7959062457 0.02817806043 0.6047637463
0.24257804 -0.45612967 2.365 0.006227792706 0.7769340277 0.6295512319
-0.058883071 -0.20204975 1.317 -0.1941015124 0.5859959126 0.7867231965
0.35806134 0.036296632 1.1190001 0.70397681 -0.02534400858 0.7097706199
0.44713989 -0.29397351 1.0070001 0.875208497 0.2124916464 0.4345772564
0.48241913 0.12874375 1.6880001 0.1880942881 0.7659419179 0.6147792339
0.063993163 -0.31996581 2.2120001 -0.004662197549 0.7704290748 0.6375086308
0.33438256 0.40004316 1.3870001 -0.4456247389 0.7361022234 -0.5094822049
0.054229274 0.15293515 0.97799993 0.00788734667 0.7092338204 0.704929173
0.20519057 0.014207785 1.1746002 -0.03678730875 0.7449970841 0.6660525799
-0.21652369 0.087171875 1.4580001 0.3309789598 -0.5067203641 0.7960448265
0.37786701 -0.20185828 1.1253999 0.8975651264 0.1200837418 0.4242131114
0.28833699 0.17360762 1.148 -0.5053724647 0.7050076723 -0.4975568652
0.074795499 0.062764011 1.1039284 -0.1113300547 0.8023771048 0.5863416791
0.24488655 -0.24488983 1.29325 0.4598110914 -0.2409797311 0.8546944261
-0.085938759 -0.022106903 1.169 -0.09742389619 0.7519777417 0.6519494057
0.27330172 -0.48158193 1.2060001 0.6778823137 -0.01729799062 0.7349668741
-0.080009863 -0.34931135 2.2260001 -0.04978949204 0.7269709706 0.6848607659
0.17398502 -0.10778266 1.302 -0.03052492626 0.7037687898 0.7097730041
0.015104366 0.39571413 1.1654212 0.5764837265 -0.3610667884 0.7330056429
0.04830784 -0.12997109 1.312 -0.1571598351 0.7053380013 0.6912301183
0.35611433 -0.084256418 1.1335715 0.9244988561 0.1288499832 0.3587472141
-0.084835134 -0.10566123 1.2533686 -0.1231899187 0.6976812482 0.7057372928
0.37283933 0.32535204 1.4640001 -0.9534825683 -0.1117196679 0.2799815834
0.3214123 -0.25617516 1.21 0.7679811716 -0.09869662672 0.632822156
0.14600182 -0.30268669 1.3540001 0.6911330223 -0.1319366097 0.7105827332
0.27456737 -0.37477818 1.2237058 0.5714284182 -0.225605756 0.789032042
0.46208924 -0.19779529 0.97000009 0.6963663697 0.1414283663 0.7036134601
0.26509249 0.073635496 1.1045713 -0.106618233 0.7310320139 0.673961997
0.33994415 0.19042514 1.6090001 0.189211756 0.7709911466 0.6080884337
0.4235557 -0.36343887 1.07575 0.7628081441 0.09677562863 0.63934201
0.085865118 0.22867236 1.031 0.731862545 -0.2048807442 0.6499239206
-0.01765782 0.02648673 1.1190001 -0.2046434581 0.7337270975 0.6478931904
0.39559424 -0.027025178 1.0558001 0.7261552811 -0.1286779791 0.6753817201
0.15402031 -0.040710896 1.2360001 -0.004072761629 0.7283408642 0.685202837
-0.18057142 -0.023732243 1.177 0.2175048441 0.5343725085 0.8167849183
0.11481723 0.11292583 1.0340002 -0.06944380701 0.8242983818 0.5618804693
0.40006772 -0.26363909 2.1030002 0.02752319537 0.7658542395 0.6424248815
0.015040344 0.097430721 1.0442859 -0.04269716889 0.8030720353 0.5943502784
-0.13272282 0.035409909 1.1159333 0.2707988918 0.604231894 0.7493809462
0.16541296 0.068280935 1.097 -0.003083579242 0.8238030076 0.5668677688
0.3434543 -0.44591385 1.1610001 0.4843783081 0.1265688986 0.8656546474
-0.31676421 -0.19437805 2.0530002 -0.1121238545 0.6489363909 0.7525355816
-0.14039466 -0.15637454 1.302 0.1312084943 0.6442151666 0.7535058856
0.25381252 -0.033481654 1.2320001 -0.009914341383 0.7155658603 0.6984749436
0.11620129 0.011311631 1.1730001 -0.1315821409 0.726459384 0.6744945645
0.41351181 -0.20510559 1.0438697 0.9184905291 0.1778808534 0.3531763852
0.39428103 -0.28542757 1.1033844 0.8628717065 0.08837817609 0.4976360798
0.31666601 0.34111449 1.3280001 -0.4175674319 0.6876024604 -0.5940036774
0.038433068 -0.19216533 1.3700001 -0.3300744891 0.6896831989 0.644505918
0.33424574 -0.17452514 1.1945655 0.7749180198 0.03731030971 0.6309595704
0.43850166 0.18650557 1.6240001 0.1867927015 0.7636817694 0.6179794669
0.26390824 -0.15970412 1.2920001 0.7833514214 -0.09127987176 0.6148402691
-0.025482265 -0.051796675 1.2167777 -0.1885158122 0.7251098752 0.6623272896
0.49496952 0.073555842 1.748 0.1659244597 0.7435805798 0.6477321982
0.38683888 -0.13423991 1.0747367 0.9031654 0.1865226328 0.3866542876
-0.23673421 0.15504114 1.5030001 0.07272636145 -0.4926806092 0.8671659231
0.292418 0.22735767 1.21 -0.6717276573 0.597538054 -0.4378700852
0.2281802 -0.32505113 1.2672001 0.5722672343 -0.1683193594 0.8026075363
-0.030621966 0.14261088 0.99800003 0.1643111259 0.6127061844 0.7730413675
0.11773633 -0.14834777 1.3430001 -0.1541100144 0.7062164545 0.6910198331
-0.00200406 -0.39880794 2.286 -0.04978949204 0.7269709706 0.6848607659
0.10514408 -0.085176297 1.2749999 -0.1713416278 0.6798692942 0.7130355835
0.21894312 -0.45218906 1.2550001 0.6692454219 -0.1868895292 0.7191542983
-0.025231343 -0.13541918 1.2946923 -0.2015695721 0.7136310935 0.6708951592
0.28193337 0.02646306 1.161 0.03632586822 0.7527525425 0.6573005915
0.035979357 0.0045402562 1.1635457 -0.106499441 0.7727376819 0.6257270575
-0.13393238 -0.066740878 1.2111429 -0.1375589967 0.6967555881 0.7039951086
0.17036878 -0.23589522 1.3590001 0.778922677 -0.212651819 0.5899649858
0.26586932 0.14484638 1.087 -0.4034526944 0.6836832166 -0.608114481
0.015892798 -0.087586589 1.2646667 -0.1665340513 0.6865364909 0.7077669501
0.47563809 -0.16487381 2.0050001 0.03709505126 0.7535033822 0.656396687
0.38504952 -0.40495324 1.1173159 0.711491704 0.1585703343 0.6845692396
0.11413119 0.17675382 0.99580002 0.4355312884 -0.02755342238 0.8997517824
0.29289815 -0.20469812 1.2523888 0.7854319811 -0.07171235979 0.6147795916
0.28348169 -0.30500281 1.2342223 0.6724331975 -0.2888065577 0.6814869046
0.36132255 -0.28396899 1.161 0.7833167911 -0.03903961182 0.6203956604
0.19375941 -0.28431088 1.3130001 0.6103817821 -0.267575264 0.7455451488
0.011504496 0.45495054 1.1930001 0.540781498 -0.393905282 0.743232131
0.016109804 -0.35638028 2.2410002 -0.04978949204 0.7269709706 0.6848607659
0.04173182 0.35325095 1.1245 0.4922508597 -0.3861651421 0.7801061273
0.33781385 -0.072164573 1.1930001 0.8626613617 0.03710728511 0.5044189095
0.21351533 -0.072653927 1.2672001 0.02048933879 0.7383753061 0.6740787029
0.36246154 -0.14558877 1.1453079 0.9189732671 0.1398209035 0.3686979711
-0.14544012 -0.11580656 1.2520834 -0.1497250646 0.6498726606 0.7451496124
-0.025584113 -0.012282452 1.1674 -0.1663928181 0.7880726457 0.5926676989
0.29335535 -0.42545214 1.1935 0.6374649405 -0.1990796328 0.7443156242
0.31918207 0.082618818 1.13 -0.1868174076 0.5016072392 0.8446830511
-0.025762264 0.066289686 1.0751666 -0.1340294629 0.7301765084 0.6699838638
0.31572065 -0.33613345 1.1940001 0.7428050637 -0.1488193125 0.6527583599
0.41839483 -0.26451781 1.0531667 0.9170412421 0.1239103377 0.3790535331
-0.074555568 0.036533512 1.1044735 0.05842792615 0.7281289101 0.6829454899
0.172066 -0.34552222 1.3226001 0.6320579052 0.01488373056 0.7747781873
0.21372958 0.051863015 1.1304444 -0.04526714236 0.7760354877 0.6290626526
-0.011627229 -0.17509176 1.3455715 -0.4835830033 0.2637795806 0.8346064091
0.15389353 0.13471311 0.99431837 -0.1215491965 0.4541357458 0.8826021552
0.42860928 -0.16521128 1.0042 0.8395479321 0.00980415754 0.5431972146
0.36295879 -0.035727672 1.1038398 0.9201567173 -0.03240126371 0.3902073205
0.26341763 0.097280897 1.0528001 -0.7394174337 0.5430777073 0.3979050815
-0.085002802 -0.14545837 1.2946316 -0.2308075279 0.5570662022 0.7977500558
0.35299781 -0.22518273 1.1744287 0.81541574 0.02695382386 0.5782479048
0.38883913 -0.082451373 1.0541111 0.8502264023 0.06464457512 0.5224328637
0.43526402 -0.23576443 1.00304 0.9096704125 0.08861278743 0.4057678282
0.21477106 0.085510626 1.083125 -0.1215987727 0.7604753971 0.6378800273
0.15476617 0.036070697 1.1446192 -0.01326042321 0.7677028179 0.6406688094
0.022119178 0.058663905 1.097 -0.09582430869 0.7612435818 0.6413469315
0.2349267 -0.39520729 1.2522503 0.6657652259 -0.1346932352 0.7339035273
-0.13539265 -0.0070903539 1.1549999 0.1208120361 0.6419731379 0.7571492195
0.20504689 -0.024394127 1.2141817 -0.002287706593 0.7239938378 0.6898026466
0.39737898 0.24852799 1.516 0.1913223416 0.7919735312 0.5798048377
0.065136865 0.11777876 1.0178 -0.06492814422 0.8206258416 0.5677654147
0.364447 0.24159969 1.557 0.196408093 0.7880879641 0.5833877325
0.058395892 0.2553651 1.067 0.8037207127 -0.1686030179 0.5706189871
0.3909162 -0.34509805 1.1120001 0.7953242064 -0.003124044277 0.6061762571
0.10605045 -0.026779626 1.2121 -0.1493956745 0.7395459414 0.6563175321
0.075731531 0.091021568 1.0606667 -0.1346481889 0.7959940434 0.5901383758
0.20722362 -0.22667028 1.3242501 0.672401607 -0.2610735893 0.6926158071
-0.035203338 0.10316088 1.0350001 0.1219473332 0.6833125949 0.7198699713
0.42770559 -0.31505832 1.0525 0.9091110229 0.1167208776 0.3998666406
-0.075412951 -0.063292593 1.215875 -0.1536204219 0.6918717027 0.7054886818
0.16563258 0.098082781 1.0555 -0.02849162556 0.8234505653 0.5666722059
-0.035199918 -0.094605707 1.25475 -0.1440466642 0.6505867839 0.7456456423
0.28262299 -0.25435451 1.2531334 0.7062188387 -0.161842078 0.689247489
0.32896829 -0.394557 1.169 0.5727695227 -0.1332317293 0.8088166118
0.33243039 -0.1242488 1.1943333 0.8440467715 0.009886245243 0.5361784697
0.3955521 -0.23525281 1.092762 0.8816680312 0.08054933697 0.4649444222
0.075070545 0.031030318 1.1418002 -0.1106167957 0.7483406663 0.6540261507
-0.19587481 -0.056091469 1.2110001 0.306119144 0.6015303135 0.7378701568
0.25425234 -0.43533847 1.2250868 0.6556966901 -0.1438003927 0.7412039638
0.015335879 0.12768362 1.0053999 0.07372488081 0.7401405573 0.6683985591
0.014752547 -0.02845134 1.202 -0.1003894433 0.7785696387 0.6194766164
0.26283053 -0.0044776145 1.1944544 0.1100417599 0.7316890955 0.6726974249
0.29245612 -0.15470228 1.2534209 0.7942090631 -0.08306963742 0.6019396782
0.097393282 -0.12030935 1.307 -0.0899766013 0.7105568647 0.6978632808
0.16481496 -0.0059903888 1.1952858 -0.00391206285 0.767475307 0.6410665512
0.085304044 -0.17624946 1.3649999 -0.09229999036 0.7110357285 0.6970716715
0.39198211 -0.1857572 1.0826428 0.9118559957 0.1522075534 0.3812498748
0.22293369 -0.42746004 2.3330002 0.006227792706 0.7769340277 0.6295512319
0.12402849 0.058495261 1.1171819 -0.02979171276 0.7855314612 0.6181042194
0.2360756 -0.19578031 1.3027143 0.5560383797 -0.1541493237 0.8167369962
0.16518573 -0.07269951 1.268 0.003778557526 0.7350727916 0.6779776812
0.3822169 0.0039647878 1.0911429 0.876547873 -0.1967101842 0.4392822385
0.064981751 -0.073795162 1.2563336 -0.05758667737 0.7233179212 0.6881096959
0.12517005 0.087521449 1.0735334 -0.03461766988 0.8238576055 0.5657386184
0.075807698 -0.0064065251 1.182647 -0.1130052879 0.7642311454 0.6349650025
-0.09459877 0.0069680978 1.1358666 0.07830262929 0.7182015181 0.6914154291
0.35698071 0.026153013 1.1623334 0.7573875785 0.381411761 0.5299897194
0.25336856 -0.28449062 1.2749231 0.5383038521 -0.3032394648 0.7863045335
-0.24441816 0.11635865 1.4829999 0.3239740431 -0.5049955249 0.8000127077
0.4629963 -0.24496228 0.97000021 0.666809082 0.1119933128 0.7367653251
0.37457383 -0.24493061 1.1336365 0.9013556242 0.03205350414 0.4318919182
0.088079453 0.1552569 1.0237143 0.9874145985 -0.02415997908 0.1562967598
0.31158575 0.262822 1.2270001 -0.7070610523 0.5920884013 -0.3866471052
0.37377664 -0.094883084 1.09325 0.9288735986 0.1055280417 0.3550459743
0.031670459 -0.16069826 1.3380001 -0.1517120302 0.678413868 0.7188449502
0.40599605 -0.13447073 1.0358847 0.830845058 0.04920825362 0.5543239117
0.32178137 0.31154805 1.2970001 -0.4344403446 0.6559503078 -0.6172445416
0.30335888 -0.46373999 1.1767334 0.4610579014 0.004241757561 0.8873599172
0.025508808 0.031452611 1.13 -0.1493160278 0.7260733843 0.6712095141
0.32799488 -0.29533437 1.189 0.6695671082 -0.1148132607 0.7338240743
0.36132255 -0.18524142 1.161 0.8824240565 0.08389716595 0.4629136622
0.33117485 0.3715331 1.3540001 -0.4456247389 0.7361022234 -0.5094822049
0.11411716 -0.052268323 1.245 -0.1017291173 0.7523064017 0.6509118676
0.243801 -0.48110062 1.2360001 0.7540319562 0.07833737135 0.6521495581
-0.10195428 -0.18382092 1.2970001 -0.1508259326 0.4550749958 0.8775866032
0.25488278 0.046524905 1.1349412 0.02137254179 0.7699286342 0.6377720237
-0.10511583 0.06188653 1.0916667 0.2776075304 0.587110579 0.760417819
0.015380436 -0.055636577 1.2335558 -0.1226960719 0.7088236213 0.6946328282
0.32705367 -0.21486731 1.205 0.7830963731 -0.02615965344 0.6213499308
0.19580489 -0.32501903 1.29575 0.6868889928 -0.05546508357 0.7246427536
0.01290015 0.16082187 0.98100013 0.1822463125 0.5858080983 0.7896930575
0.065059572 -0.10191288 1.286889 -0.08541654795 0.6812498569 0.7270506024
-0.12527654 -0.037272356 1.181 -0.08764515072 0.6960542202 0.7126197219
-0.054101802 0.012588259 1.1315385 -0.04260491207 0.7648488283 0.6427993774
0.295578 0.20357673 1.1747779 -0.6075223684 0.6021231413 -0.5180389285
0.25534746 -0.34489226 1.2438236 0.6032523513 -0.2603000402 0.7538769841
-0.04849194 -0.16048522 1.317 -0.1380219758 0.5687222481 0.8108667731
0.015227894 -0.1179218 1.2919999 -0.1226207837 0.6880629659 0.715215683
0.13480145 -0.10257246 1.296091 -0.08652056009 0.7199809551 0.6885794401
0.15287738 -0.13229927 1.3254286 0.02297932841 0.6642400026 0.7471660972
-0.054534305 -0.038099308 1.193 -0.1568140239 0.7435340881 0.6500510573
0.37573552 -0.3149589 1.1331249 0.8454796076 -0.05315538868 0.5313555598
-0.25524062 0.18575251 1.5243334 0.5730642676 -0.3306337595 0.7498524189
0.30794373 -0.37546331 1.1966366 0.6585688591 -0.1427334994 0.7388600707
0.21368054 -0.36466825 1.273 0.7235015035 -0.1131857038 0.6809805632
-0.1638604 -0.091431953 1.2270001 0.09243731946 0.698207438 0.7099026442
0.24442036 0.019471643 1.169 0.04060981423 0.7539948225 0.6556239128
0.15159087 -0.20627616 1.376 0.3060454428 -0.1653244793 0.9375521541
-0.11215767 -0.12778161 1.273 -0.1306495517 0.6989868879 0.7030988932
0.0023740134 -0.21010017 1.3540001 -0.4027661383 -0.05418188497 0.9136978388
0.084216841 0.19555597 1.0112416 0.6978517771 -0.172977522 0.6950407624
0.074883699 -0.14626016 1.3346667 -0.08733053505 0.7294626236 0.6784228683
0.1157679 0.13653141 0.99514991 0.3384507 0.4806001782 0.8089960217
0.40827116 -0.32467285 1.084857 0.7838357091 0.1029684171 0.6123717427
-0.18211435 -0.12361701 1.2590001 0.0218355339 0.6127734184 0.7899569273
0.34778339 -0.10555608 1.165 0.9103752971 0.07998341322 0.4059796333
0.41237319 -0.075802378 1.0249999 0.7247194052 -0.107560873 0.6805971265
0.16673073 -0.27498004 1.3380002 0.7177496552 -0.2736681104 0.6402665377
0.30837947 -0.17514369 1.2256668 0.8334525228 -0.02078687958 0.5521999002
0.27001157 -0.22071485 1.2780001 0.7441571951 -0.2125092596 0.6333007812
0.37567738 -0.16542201 1.1152856 0.8990400434 0.1399510801 0.4148984253
-0.055606823 -0.12241524 1.2771667 -0.1137010083 0.7230456471 0.6813788414
-0.11485736 -0.092102602 1.2360001 -0.09127666056 0.7070572972 0.7012407184
0.35815516 -0.42000926 1.138 0.6125134826 0.01934751868 0.7902233601
0.3710618 -0.12588331 1.1131251 0.9142752886 0.1462126225 0.3777864277
0.19419788 -0.047325537 1.2410001 0.04552758113 0.7470743656 0.6631795764
-0.0353209 -0.21310276 1.3430001 -0.2493041307 0.3825536966 0.8896629214
-0.065329202 0.062383592 1.08 0.06627296656 0.6580016613 0.7500944734
0.035957944 0.081608899 1.0700001 -0.1065135598 0.8138125539 0.5712827444
0.2165871 -0.29598027 1.2863334 0.6112856269 -0.2533610463 0.7497586608
0.27036312 0.10884722 1.0923333 -0.8445034027 -0.1265767217 -0.5203770995
0.34543386 -0.32539994 1.1754445 0.6528237462 -0.06398767978 0.7548024058
0.11532302 0.035091031 1.1438804 -0.1258957833 0.7593942881 0.6383342147
0.28522292 0.15387134 1.1166364 -0.01944114082 0.8115628958 -0.5839415193
0.20684299 -0.4235155 1.2739999 0.8129050732 -0.09119781852 0.575211525
0.37784705 -0.055154167 1.0754999 0.8971057534 0.03143876046 0.4406959414
0.0030218698 0.0090656104 1.149 -0.1606526524 0.7712696195 0.6159008741
-0.0044040224 -0.14904138 1.322 -0.1997258961 0.7046210766 0.6808955669
0.39796004 -0.16336684 1.0552 0.8990728855 0.1770042479 0.4004215598
-0.012650551 0.46557513 1.2168572 0.5090844631 -0.4609180987 0.7269027233
0.34598964 -0.057161734 1.1539999 0.9365907311 0.0851598531 0.3399199545
-0.16449556 -0.053436749 1.1951333 0.1863078922 0.6307620406 0.7532785535
0.16881093 -0.30851653 1.3280001 0.7635272741 -0.2513798475 0.5948397517
0.23350754 0.087565325 1.0340002 -0.2978988588 0.4451619387 0.8444448709
0.37245497 -0.37537268 1.1311765 0.7988185883 -0.04110411555 0.6001660824
0.32906035 0.048712861 1.1340001 0.3085914254 0.2234920859 0.9245661497
0.34272659 -0.26457205 1.1840588 0.7220831513 -0.08238358051 0.6868834496
0.30159977 -0.23398806 1.2330911 0.775110662 -0.113106586 0.6216191649
0.14779899 0.11986137 1.028 0.1744637042 0.9507740736 0.2561075389
0.44218192 -0.13785671 0.98900002 0.7550854683 -0.02494747192 0.6551516056
0.29091361 -0.33630192 1.223 0.6592196226 -0.1517626196 0.736476481
0.30133489 -0.2732535 1.2320001 0.7326424122 -0.1780395955 0.6569147706
0.40056214 -0.3754667 1.1010001 0.759937942 0.003949529491 0.6499836445
0.18988512 -0.35816655 1.2970001 0.7632197142 -0.1495931298 0.6285837293
0.038853865 0.32418692 1.1079999 0.5770540833 -0.3954413235 0.7145870924
0.21591948 -0.25569564 1.30575 0.6288402081 -0.3231394887 0.7072063684
-0.095216133 -0.046447463 1.1950003 -0.1078820601 0.699026227 0.7069114447
0.31836471 -0.095025659 1.2139999 0.8450716734 0.05134332925 0.5321820378
-0.010944657 -0.10655111 1.2739999 -0.2605467737 0.6688224673 0.696269989
0.29148114 0.092611067 1.1120001 -0.5740022063 0.249985978 0.7797617912
0.33441588 -0.3634055 1.1810001 0.5812237263 -0.1609017998 0.7976776361
0.42655912 -0.20502114 1.013706 0.8921597004 0.100688979 0.4403552711
0.23442943 -0.0095469002 1.21 -0.001257549622 0.699056685 0.7150651813
0.045019466 -0.018845528 1.1941999 -0.07282362133 0.7593364716 0.64661026
0.31762788 -0.14530973 1.2143126 0.8447441459 -0.03964808956 0.5336997509
0.44837993 -0.17180914 0.95600003 0.8912602663 0.1166887656 0.4382224381
0.42194352 -0.23505166 1.0343335 0.9273258448 0.1487827003 0.3434101045
0.29195297 0.058002543 1.1138 -0.3721984923 0.6677994132 0.6446023583
0.17352828 0.052765045 1.124091 0.003639304778 0.8215229511 0.570163846
-0.043048363 0.042276196 1.1010001 -0.06810053438 0.724337697 0.6860737801
0.4141756 -0.29510093 1.0737499 0.8476992846 0.1184715927 0.5170787573
0.26823282 -0.40715823 1.2190001 0.5980551839 -0.1460387409 0.7880372405
0.17510982 0.11366118 1.0126088 0.05715495348 0.7801421285 0.6229859591
0.034518577 0.38130054 1.138 0.4938500524 -0.3756515086 0.7842181325
0.43259493 -0.26583686 1.024647 0.9118294716 0.1393257529 0.3862063587
0.0060340972 -0.0086853867 1.1752857 -0.1413597018 0.7786386013 0.6113423109
0.13454241 -0.015017886 1.2042222 -0.08980780095 0.7459340692 0.6599370241
0.18515958 0.032621164 1.153 -0.04036596417 0.7755851746 0.6299509406
0.084087968 0.13647602 0.99605888 -0.3137958348 0.6602692604 0.6823318005
-0.0010388499 0.42696735 1.1850001 0.526272893 -0.3256003857 0.7855069637
0.14891323 -0.24334602 1.381 0.3955908716 -0.2499792129 0.883752346
0.4443509 -0.2652345 0.99425012 0.8716011047 0.2244545966 0.4358115196
-0.016014729 0.11837281 1.01525 0.03459218517 0.7045862675 0.7087746859
0.27401417 -0.18505627 1.2764375 0.7952193618 -0.07230895013 0.6019946933
0.3459996 -0.14530161 1.1754763 0.842875421 0.08155153692 0.5318932533
-0.059595801 -0.081266999 1.2360001 -0.1857175678 0.6802576184 0.7090547085
0.035044748 0.11321755 1.025 -0.01531114429 0.7901851535 0.6126769185
0.22504181 -0.052176759 1.2427778 -0.004477459472 0.7254070044 0.6883056164
0.10470834 0.074370027 1.093174 -0.132398814 0.8389002085 0.5279365182
0.085753493 -0.047021765 1.2330002 -0.0922158137 0.7549892068 0.649220705
0.066620529 0.20624985 1.041 0.7394140363 -0.2131943256 0.6386039853
0.20124304 -0.095067143 1.294 -0.04874310642 0.7275851369 0.6842835546
-0.013537755 0.087406769 1.0512308 -0.1258680969 0.7715633512 0.6235761642
0.0043102927 0.073961355 1.0737367 -0.1137319878 0.8011243939 0.5875923038
-0.056007605 -0.00694896 1.1555712 -0.08225432038 0.7901127338 0.6074175239
0.19048126 -0.25124827 1.3330001 0.6324455142 -0.4455448687 0.6336422563
0.13471411 -0.068860911 1.2640001 -0.02537081204 0.715688765 0.6979584098
0.19506449 0.066960678 1.1069999 -0.07871176302 0.8062790036 0.5862752199
0.41300866 -0.23534065 1.0638748 0.9120722413 0.1328953505 0.3878956735
0.1553122 0.013370862 1.1732669 -0.02377211116 0.7535122633 0.6570038795
0.32263854 -0.42444319 1.1730002 0.5648208857 -0.2054691166 0.7992244959
-0.10471608 -0.3374185 2.2120001 -0.1081089079 0.6726634502 0.7320084572
-0.14186855 -0.13684437 1.27425 -0.171437189 0.7425470948 0.6474820971
0.23485197 0.068903364 1.107 -0.02225578018 0.8228646517 0.5678014159
0.19646791 0.10173026 1.064625 -0.1637533307 0.7774304152 0.6072781682
-0.035159241 -0.18627413 1.3280001 -0.3171567917 0.1496766955 0.9364873171
0.11443481 -0.1746583 1.3740001 -0.2747068405 0.7767481804 0.5667437315
0.25487819 -0.31440669 1.2573203 0.5919005871 -0.2996734381 0.7482309341
0.37573168 -0.28461951 1.1338668 0.8547091484 -0.0170000121 0.5188288093
0.05578931 -0.16974194 1.3540001 -0.1500623673 0.6724492311 0.7247712016
-0.44895151 -0.46279585 2.256 -0.1147185043 0.651678741 0.749769628
-0.16386741 0.00101781 1.161 0.3049422503 0.5333537459 0.7890145779
0.2334125 -0.42518333 1.25 0.6672664285 -0.1137223691 0.7360860705
-0.14384204 0.01749205 1.137273 0.3106749356 0.5646068454 0.7646569014
0.054147314 0.04134886 1.123 -0.1434531659 0.7553941607 0.639375329
0.17521383 -0.024338977 1.2169048 0.01306527853 0.7402635813 0.6721898317
-0.01705943 -0.033076759 1.1949999 -0.1969838291 0.7573289871 0.6226155758
0.40676105 -0.048228938 1.0380001 0.6225967407 -0.1513657272 0.7677640915
0.30436283 -0.30480766 1.2129312 0.7196912169 -0.1513215303 0.6776034236
-0.01547498 -0.075636052 1.2431334 -0.2356069386 0.6503483653 0.7221747637
0.36253694 0.0055282591 1.1133335 0.7309393287 -0.1666106731 0.6617919803
0.40281886 -0.26484299 1.0838259 0.848390758 0.07461834699 0.5240851045
0.40679246 -0.10485492 1.0351516 0.7966341972 0.003796026343 0.6044498086
0.40445629 0.25836506 1.5430001 0.196408093 0.7880879641 0.5833877325
0.095526382 0.047089908 1.1254547 -0.1664500833 0.7691221237 0.6170458198
0.27361283 -0.28328541 1.2534667 0.6597480178 -0.2271680832 0.7163289785
0.36132255 -0.2544525 1.161 0.8247959018 -0.02632099576 0.5648176074
0.30776113 -0.20545298 1.2270001 0.8188170195 -0.03932605311 0.5727059245
0.04475471 0.13075395 1.001 5.268585301e-05 0.7796888947 0.6261671185
-0.05480944 0.08602684 1.05252 0.2394312173 0.6575585604 0.7143454552
0.3659133 -0.064947009 1.1042271 0.9187161922 0.09010462463 0.3845019639
0.065139845 0.01119591 1.161 -0.1236439571 0.7244912982 0.6781036258
0.19551131 -0.0050881724 1.1944286 -0.008866857737 0.7064393759 0.7077180147
0.12469355 -0.12238441 1.317 -0.1428982168 0.7303673625 0.6679398417
-0.11178551 -0.1546931 1.2880001 -0.02920627408 0.4064827561 0.9131915569
0.045186028 -0.3555944 2.2410002 -0.004662197549 0.7704290748 0.6375086308
0.21552329 0.033233717 1.1551818 -0.001081928262 0.7816659808 0.6236963868
0.44399396 -0.31551346 1.0262221 0.9111508131 0.07752827555 0.4047141671
0.42976829 -0.34400225 1.052 0.9193388224 0.08337629586 0.3845315576
0.44091424 -0.19219339 0.99200004 0.8178383112 0.05230398476 0.573066175
0.277787 -0.45506313 1.1951334 0.6482929587 -0.173707664 0.7413108945
-0.075518854 -0.17739119 1.307 -0.3757868707 0.217874676 0.9007301927
0.035066664 -0.069037497 1.25 -0.1656188667 0.7199043632 0.674023807
0.35221842 -0.38516629 1.1548181 0.6967387795 -0.1403149813 0.7034676671
0.057494432 0.10129971 1.041 -0.09853424877 0.8326733112 0.5449276567
-0.10472566 -0.07325872 1.2169166 -0.07145695388 0.6853398681 0.724709034
0.38951001 -0.31568766 1.108 0.8207728863 -0.0128424922 0.5711103082
-0.1045429 0.027181691 1.1182729 0.1470625997 0.6985602379 0.7002757788
-0.043749217 0.12487303 1.0164288 0.2560829818 0.6146873236 0.7460435629
0.047425911 0.27697757 1.082 0.7159901261 -0.2050833255 0.6673072577
0.43166453 -0.28929737 1.041 0.8976129293 0.167080909 0.4078908861
0.42443579 -0.13481486 1.0135834 0.7830010653 -0.02174259536 0.621640265
0.36733314 -0.21473436 1.1484287 0.876591742 0.07583968341 0.4752213061
0.24409801 0.086446807 1.0868 -0.01051964145 0.7561826706 0.6542760134
0.21295246 -0.3947584 1.2729999 0.7741084099 -0.06878611445 0.6293048859
0.18460324 0.08323358 1.0826499 -0.06704083085 0.8124080896 0.5792223811
-0.062142808 0.11124783 1.0373334 0.3090092242 0.596930027 0.7403970957
0.087610558 0.11042581 1.041 -0.1280537397 0.8485393524 0.5134035945
0.22743328 -0.22514775 1.3046925 0.575648427 -0.2884236872 0.7651409507
0.015035417 -0.17844667 1.3540001 -0.2275455594 0.4009574652 0.8873872161
0.26349303 -0.25455749 1.2746667 0.6951974034 -0.186230436 0.6942757368
-0.092716262 -0.19354521 1.322 -0.3033619225 0.2896946073 0.9077712297
0.23713483 -0.35126981 1.2640001 0.5624476671 -0.2103585005 0.799626112
0.0058585131 0.042393718 1.1135715 -0.167071104 0.7402402759 0.6512538195
-0.05457776 -0.14212959 1.2970001 -0.1318812966 0.6915179491 0.7102184892
0.35851982 -0.11651951 1.136 0.9290652871 0.08134452999 0.3608611822
-0.024827836 0.004466936 1.1453638 -0.1926350594 0.7776444554 0.5984653831
0.16154775 -0.26206633 1.365 0.7445783019 -0.3432353735 0.5725317597
0.0746077 -0.023950936 1.2038462 -0.09550984949 0.7697921395 0.6311084628
0.25359881 -0.37550032 1.2415333 0.689519763 -0.2376881838 0.6841540933
0.41261876 -0.17460097 1.0348637 0.8712387681 0.1248693243 0.4747111201
0.28234714 -0.1383836 1.273 0.81038028 -0.1119120866 0.575116992
0.094330207 0.018866042 1.1570001 -0.1756627113 0.7444217801 0.6441884637
0.13502513 0.10233946 1.0528235 -0.01827926934 0.8354192972 0.5493091345
-0.085301816 -0.12394051 1.2757272 -0.1187110245 0.7215561271 0.6821029782
0.23415941 -0.26553005 1.278 0.3859013021 -0.3766204417 0.8421622515
0.45274681 -0.16229336 0.98369998 0.8533265591 -0.04182250053 0.5196966529
0.39843971 -0.21149409 1.077 0.8740542531 0.1508789361 0.4618058801
0.054635033 0.069246732 1.087 -0.07905366272 0.7904081941 0.6074581146
0.0616735 0.2347275 1.0500001 0.774204433 -0.2021437585 0.5997877717
0.38326311 -0.15496041 1.0917274 0.9095407128 0.1680186689 0.3801386356
0.022546113 0.42120239 1.169 0.5638076663 -0.2857917249 0.7748832107
0.36172548 -0.32382157 1.1540666 0.782335043 -0.06177432835 0.6197869182
0.04687186 -0.088163733 1.273 -0.1567682326 0.6905169487 0.7061232328
-0.01731066 0.048085168 1.097 -0.1815438569 0.7340009809 0.6544343829
0.37843597 -0.015990742 1.0729443 0.8406151533 -0.1800458133 0.5108323097
-0.1539797 -0.022289908 1.169 0.2412912697 0.5663035512 0.7880855203
0.3743715 -0.34512529 1.1325947 0.8072565794 -0.07224120945 0.5857627988
0.025400542 -0.1420121 1.317 -0.1224791482 0.7543151379 0.6449864507
-0.085522182 -0.085231446 1.2334548 -0.1382872611 0.7068812251 0.693682611
0.13518813 0.073822051 1.0936667 0.001638567424 0.8467949033 0.531916976
0.38392404 -0.22525714 1.1150398 0.890157938 0.02375610545 0.4550323784
0.44790274 -0.22468232 0.97711766 0.7560786009 0.02131792717 0.6541335583
-0.20510191 -0.075018704 1.2263333 0.2333801836 0.5693280101 0.7882888317
0.35042995 0.061201856 1.126 0.5490625501 0.2413234413 0.8001832962
0.24043548 -0.45584825 1.2410001 0.7004652619 -0.09074682742 0.7078936696
0.10507791 0.098179817 1.0556364 -0.06837654114 0.8240237832 0.5624139905
0.28666848 -0.39450899 1.2060002 0.606541872 -0.222519964 0.7632770538
0.38918623 -0.25514039 1.1079999 0.8755289912 0.08448323607 0.4757221937
0.34533051 -0.19517818 1.183769 0.7655599117 0.04486091807 0.6417986751
0.2825821 0.04676228 1.135 -0.08038108796 0.7902171016 0.6075325012
0.15484288 -0.08701168 1.2865715 -0.03789743409 0.7104881406 0.7026879787
0.094807275 0.12373246 1.0154648 -0.1129559875 0.7553607225 0.6455006599
-0.1045794 -0.0078193089 1.1540909 0.01077798381 0.6986079216 0.7154234648
0.045966744 0.022480842 1.1420909 -0.1592853367 0.7568053603 0.6339352131
-0.0057200976 0.14282626 0.9936958 0.1010263041 0.5985538363 0.7946867347
0.06836696 0.27439702 1.053875 0.8027355075 -0.1662088484 0.5727043748
0.10685515 -0.0083826864 1.1950001 -0.1749821752 0.7453972101 0.6432450414
0.098865204 0.15660949 0.99799997 0.6378015876 0.1490575522 0.7556394935
0.3070192 -0.13441026 1.2341539 0.8706397414 -0.009457086213 0.4918302596
0.35275263 -0.046808742 1.1325715 0.933177352 0.08206861466 0.3499210179
0.24782865 -0.4052735 1.2337145 0.6972442269 -0.1321671307 0.7045440674
0.07415548 -0.33760259 2.2260001 -0.004662197549 0.7704290748 0.6375086308
0.3350856 -0.23533705 1.1938279 0.7538787723 -0.06080946326 0.6541933417
-0.17459717 -0.10475882 1.2447501 0.07060679048 0.6163126826 0.7843298912
0.22480977 -0.034067515 1.2252858 -0.03501253948 0.6973531842 0.7158719897
0.23528354 0.11209454 1.03325 -0.2622285783 0.4370870292 0.8603435755
0.10479336 -0.13552822 1.3247694 -0.1606498212 0.7153580189 0.6800400615
-0.045122031 -0.06446436 1.2255 -0.1921277493 0.6877929568 0.7000198364
0.386949 -0.10499077 1.0635998 0.8815343976 0.1034388989 0.4606490135
0.035625361 -0.10575396 1.2860003 -0.1602850258 0.6485589743 0.744096756
0.34244677 -0.41332337 1.1610001 0.6636568308 -0.1561093032 0.7315664887
-0.013206607 -0.19714129 1.335143 -0.5376045704 -0.02790376544 0.8427352905
0.25681451 -0.46540722 1.2139602 0.6805498004 -0.05685634911 0.7304924726
0.045257274 0.055025578 1.104818 -0.1097021773 0.7878927588 0.6059624553
0.13613208 0.022137366 1.1610001 -0.05649811774 0.7532984018 0.6552476287
0.30657554 -0.40551949 1.1887646 0.649292469 -0.226692006 0.7259683609
0.22556224 0.006782461 1.1857058 -0.03001091257 0.7642567754 0.644213438
0.1848627 -0.082908116 1.278 0.02279301547 0.7350567579 0.6776223779
0.32688272 0.37773114 1.381 -0.4456247389 0.7361022234 -0.5094822049
0.12526567 -0.035557542 1.2240665 -0.09549106658 0.7590554953 0.6439846158
-0.075314 0.02067443 1.123 0.01500265021 0.7158386111 0.6981045604
0.09403152 -0.15621938 1.3455716 -0.04797535762 0.6929952502 0.7193441391
0.12412071 0.12619257 1.0153334 0.1464680135 0.9223949313 0.3573999703
0.18527825 -0.063967742 1.2580001 0.02003442682 0.7370551825 0.6755355597
0.33495295 -0.094499893 1.1845553 0.8541874886 0.03439642489 0.5188261271
0.27210671 -0.32505327 1.2410001 0.6628679037 -0.1715542525 0.7288177609
0.094945401 -0.064501144 1.2527275 -0.1476204097 0.7029652596 0.6957356334
0.29641327 0.24557011 1.2340001 -0.7185447216 0.5843119621 -0.3771908879
0.297883 -0.35576797 1.2060002 0.6644280553 -0.1765801311 0.7261919975
0.075528339 0.2502445 1.0380001 0.7555996776 -0.2118100673 0.6198431849
0.054669153 -0.058476955 1.2410001 -0.09251036495 0.7088868022 0.6992291212
-0.17501736 -0.073208317 1.2160833 0.1723640859 0.6360120177 0.7521830201
0.42744339 -0.0080346502 1.8330001 -0.7714781165 0.4271607995 0.4715455174
0.27279383 -0.43438396 1.21 0.6738244891 -0.2112063617 0.7080624104
0.20773391 -0.34522238 1.2855 0.7316454649 -0.1729938388 0.6593694091
0.27137303 0.0092865303 1.177 0.05480734259 0.7120249271 0.700011909
0.13464968 0.045243897 1.1344001 -0.03677949682 0.7856426835 0.6175863147
0.28151873 0.11910525 1.0740001 -0.8646005392 0.3430937231 -0.3670867085
0.071171306 -0.19180064 1.376 -0.1080951989 0.7006344199 0.7052849531
0.15496454 0.08742132 1.07375 -0.02338682115 0.8353552222 0.5492127538
0.095005766 0.085030615 1.073 -0.1323050708 0.8096165657 0.5718534589
0.051418252 -0.14841178 1.3330001 -0.1318312138 0.7558968663 0.6412803531
0.4030962 -0.18577391 1.0606002 0.886905849 0.2055823356 0.4136834145
0.075337224 -0.12709564 1.3120002 -0.1054387391 0.698900044 0.7074047327
0.22240332 -0.44480664 2.3490002 0.006227792706 0.7769340277 0.6295512319
0.00519101 0.11300151 1.0240868 0.003149464959 0.7731202841 0.6342516541
0.035129059 -0.036554124 1.2142779 -0.08140192181 0.7800424099 0.6204091907
0.38888064 -0.053209089 1.0525556 0.7949224114 -0.06139122695 0.6035971642
0.38573846 -0.19477436 1.1045712 0.911645174 0.1480289698 0.3833934367
-0.02557357 -0.16508782 1.326125 -0.2915705442 0.4334153831 0.8527237177
-0.22588456 0.10713188 1.4723333 0.3309789598 -0.5067203641 0.7960448265
0.15586695 -0.32443416 1.317 0.7309268117 -0.1129023582 0.6730520129
0.36654779 -0.17509015 1.1343079 0.9075467587 0.1236301437 0.401340872
0.32613316 -0.46486914 1.1810001 0.4044124484 0.0867664516 0.9104516506
-0.044368975 -0.02166857 1.177 -0.1109345853 0.771312952 0.6267135143
-0.11457695 -0.056275938 1.2041539 -0.06399045885 0.6984990835 0.7127441764
0.1881409 -0.30638781 1.307 0.6650505662 -0.1865671873 0.7231185436
0.0042707212 -0.13385066 1.307 -0.150993526 0.7145047784 0.683142662
-0.1347328 -0.084280834 1.2260587 -0.1487961411 0.6918957233 0.7064984441
-0.094015434 0.075040407 1.0763683 0.2708063722 0.5732070804 0.7733676434
0.34840441 -0.084540963 1.1556668 0.930244565 0.1265654564 0.3444215357
0.3807556 -0.42052123 1.1340001 0.6288887858 0.1251114458 0.7673630118
0.1460717 0.062602147 1.1123002 0.002095515607 0.8128995299 0.5824002028
0.28724399 -0.17631981 1.2589999 0.7848572135 -0.008754582144 0.6196147799
0.23507559 -0.30405647 1.2732502 0.4493964612 -0.3196618557 0.834181726
0.13546965 0.0040154615 1.183 -0.07065704465 0.7480291724 0.6598938704
0.30517408 0.064705312 1.1326667 -0.3685235381 0.4451051354 0.8161322474
-0.18492153 -0.043109816 1.1948462 0.2453802824 0.6070864797 0.7558006048
0.3657127 -0.095098123 1.1158947 0.9310129285 0.1161444038 0.3460136652
0.24650596 -0.21516626 1.296643 0.5150517225 -0.129731074 0.8472848535
0.16471373 -0.056370471 1.2518182 0.008286131546 0.7248055935 0.6889036298
0.095601082 -0.1012468 1.2880001 -0.06715854257 0.7124055624 0.6985471249
0.0053321058 -0.044786483 1.2162502 -0.1603674293 0.7479979396 0.6440352201
0.019138509 0.36866814 1.149 0.5436820388 -0.367500335 0.7545550466
0.31668913 -0.44563931 1.1673639 0.4408743083 0.03284757584 0.8969675899
0.37193346 -0.012770841 1.1037 0.8196083307 -0.163765803 0.5490199924
0.19668192 -0.10811755 1.312 -0.04689320177 0.718963325 0.6934643388
0.40425101 -0.35469374 1.0926452 0.7701406479 0.03212696314 0.6370645165
0.25560784 -0.1860982 1.296474 0.5941884518 -0.219011724 0.7739340663
0.054594416 -0.0041220868 1.1750001 -0.09524298459 0.7662603855 0.6354320049
0.37888658 -0.11509296 1.0838749 0.9106762409 0.1458438635 0.3865207732
-0.11533795 0.045550503 1.1055598 0.1926710904 0.5655105114 0.8019199967
0.025721692 0.13930175 0.98900002 0.0829269439 0.7221459746 0.6867519617
0.28770885 0.13465162 1.105 -0.9140847325 0.3407927454 0.2197939903
0.024847759 0.015614943 1.1462729 -0.1403221786 0.7660266757 0.6273059845
-0.073932149 0.0020036215 1.1435001 -0.027009774 0.7579529881 0.6517497301
0.32215431 -0.18505839 1.2104001 0.8096581697 0.03194726259 0.5860316157
0.28587255 -0.2254319 1.2577275 0.7059408426 -0.1717722863 0.687125802
0.43759832 -0.21479888 0.9951306 0.8721495271 0.04738271236 0.4869394898
0.13736139 0.11986312 0.99800003 0.2033419758 0.7042551637 0.6802034378
0.29571983 -0.12568636 1.2535264 0.8503803015 -0.05788300931 0.5229750276
-0.16178358 -0.1318647 1.2640001 -0.09875896573 0.7179197073 0.6890848279
0.34854668 -0.30424234 1.1684999 0.7310952544 -0.02815288492 0.6816943288
0.37349635 0.023251129 1.1048999 0.6918384433 -0.1438558698 0.7075768709
0.15239184 -0.11114293 1.307 -0.001984674716 0.6963225603 0.7177262306
-0.055725452 -0.10305694 1.2577692 -0.1529576033 0.6612302661 0.7344239354
0.31725806 0.35544538 1.3470001 -0.4441375136 0.7433198094 -0.5002174973
0.23532647 0.037153073 1.1455334 0.01506192982 0.7780011296 0.628082335
0.31308424 -0.28434789 1.2106154 0.7582744956 -0.198646903 0.6209341288
0.35066053 -0.16967446 1.1730001 0.8387207985 0.08810789883 0.5373866558
