# .PCD v0.7 - Point Cloud Data file format
VERSION 0.7
FIELDS x y z normal_x normal_y normal_z
SIZE 4 4 4 4 4 4
TYPE F F F F F F
COUNT 1 1 1 1 1 1
WIDTH 512
HEIGHT 1
VIEWPOINT 0 0 0 1 0 0 0
POINTS 512
DATA ascii
0.18287967 -0.16503777 1.6960001 -0.2226164341 0.3493905365 -0.9101473093
-0.31482327 -0.49870235 3.1780002 -0.2830375433 0.7908902764 0.5425701141
0.45558614 0.1413888 2.5600002 -0.1777229905 0.841797471 0.5096974969
-0.43363237 0.055370558 2.1290002 -0.9336228967 0.006152505055 -0.3582043946
0.31195045 -0.21532862 3.1490002 -0.2610784173 0.8956891298 0.3599708974
-0.087736621 0.45504561 1.609 -0.2188789994 -0.4756036997 0.8519936204
-0.37115261 -0.072132133 1.4960001 0.324440062 0.2542163134 0.9111052155
0.084541351 0.26113883 2.1430001 -0.2416700572 0.9620909095 -0.1263987124
-0.18278266 -0.49443737 1.7570001 -0.5897356272 -0.3105521202 -0.7454993725
-0.14663565 -0.26096174 2.835 -0.1929407418 0.7627440691 0.6172481775
-0.0050671333 0.082340918 1.4450001 -0.5475392342 -0.07039599866 0.8338136077
-0.49953431 0.20362249 1.6710001 -0.970256269 -0.1267393529 -0.2062520534
-0.15324134 -0.15783857 1.748 -0.3340514898 0.8133910298 0.4762400985
0.42608631 -0.08521726 2.8590002 -0.2531312406 0.8700433373 0.4230237901
0.1442222 -0.49288303 1.6960001 0.0409280248 -0.649779737 -0.7590199113
0.13256603 -0.15041146 2.9080002 -0.04980918765 0.8286761642 0.5575077534
-0.1984598 0.17199849 2.1560001 -0.4190634191 0.9058243036 0.0621949546
-0.045261424 -0.33546704 3.0370002 -0.2259096056 0.7552782297 0.615239501
-0.28762555 -0.32984585 3.0100002 -0.2830375433 0.7908902764 0.5425701141
-0.0151751 -0.33536971 1.7310003 0.03773836792 0.2269762158 -0.9731688499
-0.15420742 -0.047344383 1.5430001 -0.2374408245 0.8329014778 0.4998970032
0.04582512 0.31350201 1.936 -0.2297104448 0.9261286855 0.2991969287
-0.015515245 0.26599962 1.5528001 0.1820079088 -0.3958660662 0.9000906348
0.044466287 -0.043058537 1.6050001 -0.2332012355 0.8642150164 0.4458133578
0.44368976 0.19696508 2.365 -0.2049306482 0.8563412428 0.4740075469
-0.44728935 -0.46326399 3.0370002 -0.2830375433 0.7908902764 0.5425701141
-0.32257974 -0.18426217 1.6550001 -0.2736119032 0.8552963734 0.4400052726
-0.23236978 -0.31628996 1.8130001 -0.6485758424 0.2971630692 -0.7007449865
0.25259233 -0.33588293 1.6710002 0.1356842369 0.1080251411 -0.9848453403
-0.36809394 0.036065191 1.9590001 -0.6830579638 0.3958213329 -0.6138055921
0.0015815067 -0.1881993 1.8040001 -0.1900054663 0.9260803461 -0.3259955943
-0.015599407 -0.49817458 1.7220001 0.3190327585 0.007745010778 -0.9477120638
0.20500763 -0.25293148 3.0370002 0.2451224625 0.9694859385 -0.00346328225
-0.1941992 -0.42395601 3.1200001 -0.2830375433 0.7908902764 0.5425701141
0.49441895 -0.13341464 2.9840002 -0.3626696169 0.8821926117 0.3003447652
-0.25499693 0.024285421 1.4580001 0.2874639332 -0.1584425271 0.9445953965
0.11427351 -0.29490891 1.6820002 -0.6389400959 -0.09754884988 -0.7630463839
0.26317096 -0.14286423 2.8590002 -0.07388501614 0.7491769195 0.6582362056
-0.074478678 -0.087536626 1.6550001 -0.221397832 0.8677779436 0.4449094832
-0.12561168 0.02793373 1.439 -0.02231715992 0.6443967223 0.7643656135
-0.26736578 -0.11105964 1.5640001 -0.3219000101 0.7492703199 0.5787697434
0.052836701 -0.095106058 1.7220001 -0.1581215262 0.9056639075 0.3934087753
-0.14498705 -0.37513611 1.7375457 -0.28405568 0.1729779541 -0.9430752993
-0.033757277 -0.014087683 1.516 -0.09822382033 0.8616705537 0.4978714287
0.081070624 0.030567612 1.516 -0.1683719307 0.6611146927 0.7311486006
-0.10527714 -0.26474106 1.7660002 -0.2255231291 0.3643294871 -0.9035503864
-0.25635085 -0.21607028 1.748 -0.2037089914 0.8096010685 0.5504986644
0.0134656 0.15216129 1.536 0.4552883506 -0.138649568 0.8794821501
0.06839402 -0.40590367 1.6960001 -0.3399673998 -0.04010167345 -0.9395818114
-0.39881319 0.116246 2.0400002 -0.8598608375 0.1403396428 -0.4908605516
-0.18311813 -0.29560497 2.9840002 -0.2810609341 0.7862330079 0.5503111482
-0.18337148 -0.11839734 1.6470001 -0.4455699027 0.8216782212 0.3554044962
-0.32256773 -0.39846605 3.0920002 -0.2830375433 0.7908902764 0.5425701141
-0.38791972 -0.13486816 1.5860001 0.3726160526 0.854319334 0.3623475432
0.31150508 -0.24228173 3.0370002 -0.2610784173 0.8956891298 0.3599708974
0.065432519 -0.20616606 1.7130002 -0.6013488173 0.2535755038 -0.7576800585
-0.063958094 0.3545503 1.5860001 -0.2525573075 -0.3445678353 0.9041503072
0.16530396 -0.39493045 1.6550002 -0.06106808037 -0.2205636054 -0.9734590054
-0.14643401 -0.37540355 3.0370002 -0.2888348103 0.7876607776 0.5442103744
0.2031298 -0.21855739 2.9330001 0.03620760143 0.8920460939 0.4504916966
0.046282738 -0.195416 2.9330001 -0.1602022052 0.705491662 0.6903743744
-0.045684855 -0.134002 1.7370002 -0.1633662581 0.8360791206 0.5237205029
0.12420613 -0.046638668 1.6799999 -0.5258921981 0.7833271623 0.3314151466
0.11513614 0.22832082 2.2260001 -0.3258089423 0.8511531353 0.4115663171
0.20508741 -0.25489435 1.671 0.007428280078 0.1700682491 -0.9854043126
-0.061894421 -0.41514549 1.7220001 -0.1509147584 0.1006410569 -0.9834104776
-0.48024237 0.11461978 1.6550001 -0.6507581472 -0.1432951242 0.7456408739
-0.015245231 -0.24697277 1.7390002 -0.1712403893 0.2510871887 -0.9526972175
-0.27672508 -0.055519883 1.4959999 -0.2181093246 0.7174652219 0.6615678072
-0.22103353 -0.41357145 1.7570001 -0.2889780104 -0.004635582212 -0.9573245049
-0.10416379 -0.496665 1.7220001 -0.01047083363 0.03764503077 -0.9992362857
-0.24301198 -0.1676888 1.6800002 -0.3458601534 0.7585556507 0.5522446036
-0.074541979 -0.053148899 1.5746253 -0.180470258 0.8687162995 0.4612618387
-0.18516164 -0.012948367 1.4770001 -0.2819170952 0.7573770285 0.588984549
0.12958448 -0.11281472 1.7390001 -0.5411257744 0.05278224126 -0.8392835855
0.064272813 -0.49475119 1.705 -0.1022199392 -0.2006567568 -0.9743140936
-0.244519 -0.23812634 1.8230001 -0.6910168529 -0.2543333173 -0.6766167879
0.2106104 -0.4521496 1.6800001 0.06716559082 -0.5231354237 -0.849598825
0.0037905313 -0.073186412 1.6630001 -0.2062020451 0.906265676 0.3690030277
0.047660861 -0.28488684 1.7220001 -0.6914795637 0.03662905842 -0.7214667797
-0.17432657 -0.30685192 1.766 -0.1003121436 0.4830709994 -0.8698160052
-0.2653144 -0.44583759 3.1200001 -0.2830375433 0.7908902764 0.5425701141
-0.13501893 -0.082986139 1.6043334 -0.2679629326 0.8309877515 0.4874989688
0.13436781 -0.22431062 1.6843636 -0.5749437213 0.1738969833 -0.7994995713
-0.1043574 -0.012927578 1.4960002 -0.07756560296 0.8158791065 0.5729963779
-0.055402003 0.027061123 1.4562 -0.1349070817 0.7765209079 0.6154797673
-0.085815139 -0.33559856 1.748 -0.1467992961 0.4540935755 -0.8787769675
0.034222435 0.086386733 1.5159999 0.2077604532 -0.4292954504 0.8789431453
-0.19560625 -0.20186564 1.7850001 -0.4832805395 0.7998813987 0.3558505476
-0.19128428 0.054471683 1.4450001 0.4356897771 -0.4787445068 0.7622191906
0.016043292 0.023845039 1.4836667 -0.2638916373 0.7011238337 0.6624096632
-0.33519822 -0.11660246 1.5430001 -0.1799432933 0.7722392678 0.6093167663
0.17578919 -0.32521003 1.6710002 0.02299652249 0.1899321675 -0.9815278649
-0.12510584 -0.12255699 1.6960001 -0.2457167059 0.8831448555 0.3995978236
0.035170116 -0.012850619 1.5430001 -0.2182059586 0.848107934 0.4828033745
-0.2035933 -0.095142625 1.5860002 -0.384647727 0.7572786808 0.5278021693
0.24473596 -0.39923006 1.6470001 0.2447090596 -0.04591960832 -0.9685086012
-0.067627817 -0.21546538 1.794 -0.5414636731 0.5030694008 -0.6736009717
-0.27477539 -0.14711635 1.6240002 -0.3717700541 0.7740012407 0.5125516057
0.0063072657 -0.42559028 1.7130001 -0.3124755025 0.1527075022 -0.9375710487
-0.08560738 0.083088279 1.4360002 0.09752120078 -0.0524488166 0.9938504696
-0.14416344 -0.44463041 1.7310001 -0.1638794988 -0.000517828681 -0.9864802361
-0.01515932 0.1998274 1.572 0.271523118 0.3736613691 0.8869342804
-0.46623236 -0.49333888 3.0920002 -0.2830375433 0.7908902764 0.5425701141
0.10986825 -0.36329767 1.6710001 -0.5283868909 0.05993879214 -0.8468852639
0.044841502 -0.34677425 1.705 -0.4359914958 0.2280892134 -0.8705669045
-0.21477707 -0.063412338 1.529 -0.1456221342 0.6850337982 0.7138087153
0.074352726 -0.08310011 1.6630001 -0.1195700616 0.7753577828 0.6200994253
-0.23168284 0.18497753 2.1030002 -0.1945537478 0.9174954295 -0.3469164073
0.20872031 -0.28461859 3.0920002 -0.09900777042 0.9541954398 0.2823269665
0.11584054 -0.16815563 1.705 -0.4246267378 0.5016059875 -0.7537131906
0.0026387665 -0.30609691 3.0100002 -0.2061631531 0.7124398351 0.6707653999
0.11865771 -0.43214846 1.6710001 -0.4758383334 -0.1794710308 -0.8610273004
0.10341862 -0.028333865 1.6160001 -0.3448807299 0.7604514956 0.5502461195
-0.015371474 -0.051704045 1.5940002 -0.1967706829 0.8905422688 0.4101411998
-0.21674708 -0.35298806 1.766 -0.4844695628 0.07433597744 -0.8716440797
-0.094826832 -0.15327114 1.7659999 -0.2329446375 0.8004342318 0.5523058772
-0.32918483 -0.026229866 1.4960001 0.3282072246 0.00105478859 0.9446051717
-0.39460737 0.064156659 2.0050001 -0.7238081098 0.3706616461 -0.5819894671
-0.32629445 -0.15301603 1.5940001 -0.2645116448 0.7853794694 0.559654057
-0.18734016 -0.15016949 1.6960001 -0.4760108888 0.7355138659 0.4821130335
-0.28732926 -0.20443867 1.6960001 -0.4264992774 0.7358157635 0.5259976983
-0.0045051901 -0.10161707 1.7129999 -0.1456043273 0.8922083974 0.427508533
-0.052612856 -0.2875829 1.748 -0.374968648 0.2493430078 -0.892875433
0.026051028 -0.18746524 1.748 -0.623886764 0.3782135546 -0.6839004159
-0.20533724 -0.18353951 1.7350001 -0.5612074137 0.6846277714 0.4651139677
0.19358203 -0.23282163 2.9840002 0.03620760143 0.8920460939 0.4504916966
0.13354087 -0.05918289 1.7310001 -0.6533993483 -0.7286026478 -0.2054446638
-0.035648778 0.31535453 1.5639999 0.2459958047 -0.04076166824 0.9684134126
-0.075459965 0.40524796 1.594 -0.0426187925 -0.34006688 0.9394350052
0.078552842 -0.0096468404 1.572 -0.3907939792 0.8419322371 0.3720620275
-0.23609188 -0.023738671 1.4770001 -0.182476595 0.7080568075 0.6821714044
-0.023617985 -0.19767226 1.7570001 -0.08664121479 0.5166602135 -0.8517954946
0.15818179 -0.2762714 1.6630001 -0.1306709945 0.09750504047 -0.9866194129
0.087722771 -0.25424734 1.6960001 -0.6376014948 0.101606071 -0.7636364102
-0.14941029 -0.18401058 1.794 -0.3413458169 0.8249996305 0.4503983557
-0.25179181 -0.27778322 1.853 -0.7217097878 -0.0532056354 -0.6901479363
-0.055855941 -0.46496293 1.7220001 -0.3221931159 0.123840414 -0.9385388494
0.20602545 -0.36562261 1.655 0.1177179888 0.1332087666 -0.9840720892
-0.077725261 -0.11210375 1.705 -0.2017190158 0.9151768088 0.348942548
-0.31617072 -0.08201918 1.5089999 -0.185505867 0.5903998017 0.7855034471
-0.29446706 0.0024020667 1.4760001 0.4468150139 -0.1753854007 0.8772663474
-0.41456252 0.077843614 2.0650001 -0.9236062169 -0.02389273047 -0.3825973272
0.16474232 -0.44465849 1.6630001 0.1369058937 -0.2011740357 -0.9699411392
-0.22494566 -0.12670989 1.6240002 -0.3024662137 0.8436365128 0.4436120689
0.20471922 -0.20471922 1.6800002 -0.1470784843 0.1508114934 -0.9775601625
-0.13200645 -0.32596618 1.748 -0.3032304049 0.1586319953 -0.9396207929
-0.02566354 -0.38495311 1.7220001 -0.1007995829 0.03149306774 -0.9944081903
-0.034386374 -0.074507892 1.6343335 -0.1375714839 0.9073454142 0.3972384036
-0.13427991 -0.10251477 1.647 -0.2841469646 0.8604826331 0.422883153
-0.095603123 -0.38393006 1.7310001 -0.09711650014 0.1209192127 -0.9879002571
-0.15102512 -0.26779711 1.7760001 -0.3368982971 -0.01135258097 -0.94147259
0.085046485 -0.45407686 1.6960001 -0.2960728109 -0.1043352112 -0.9494498968
0.23530452 -0.29362038 1.6630001 -0.08921533078 -0.01621419936 -0.9958803654
0.0045735701 -0.29423299 1.7390002 -0.04193129763 0.04985916615 -0.9978756309
-0.49513957 0.15528047 1.671 -0.8449397087 -0.1749533564 0.5054386258
-0.10907136 -0.04174336 1.536 -0.1918958127 0.7922616601 0.579221487
0.089227132 -0.16570753 2.9080002 -0.06864602864 0.7007190585 0.7101271152
0.02566354 -0.38495308 1.7220001 -0.2622440457 0.1876542121 -0.946580112
0.034902733 -0.23521402 1.7310001 -0.3094091117 0.1929158121 -0.9311549067
-0.18868716 -0.44591781 1.7570001 -0.5378015637 -0.05292547494 -0.8414085507
-0.098638147 -0.44159541 1.7310001 -0.09853736311 0.1263352484 -0.9870814681
-0.10659355 -0.23690967 1.8040001 -0.4478853643 0.7009670734 -0.5550169945
0.15326852 -0.15023349 1.7310001 -0.5014628172 0.4117791653 -0.7609027028
0.043550167 -0.45502421 1.7130002 -0.1798800677 -0.03485148773 -0.9830709696
0.084749125 -0.32561505 1.6960001 -0.2973604798 0.05360568687 -0.9532592297
-0.13372147 0.071906827 1.439 0.2660847306 -0.3428203762 0.9009290338
-0.044974223 0.06524194 1.4330003 -0.02242346853 0.102193065 0.9945118427
-0.3752515 -0.10435227 1.526 0.1549972743 0.6208812594 0.7684284449
-0.18534984 -0.3825087 1.7570001 -0.05714252591 0.1118976995 -0.9920754433
-0.2188274 0.042729609 1.4770001 0.3437598348 -0.4685221016 0.8138281107
-0.14433439 0.0012887 1.47 -0.1034938097 0.8088741302 0.57880193
-0.035431687 -0.034750737 1.5543751 -0.1393515766 0.8963857293 0.4208013117
0.20556343 -0.40966895 1.6630001 -0.08993477374 -0.4315854907 -0.897577703
-0.25494871 -0.078549333 1.5360001 -0.230374977 0.7687524557 0.5966129899
-0.035431355 -0.094487146 1.6840001 -0.1553350836 0.9002180696 0.4067904651
0.02627516 0.064177945 1.473889 -0.8151593804 -0.2080445141 0.5405855179
-0.15534478 -0.024834611 1.5051819 -0.1881382614 0.7583515644 0.6241048574
0.0040580905 0.22454764 1.5430001 -0.3360307515 -0.02648529783 0.9414785504
-0.055734958 -0.24538864 1.766 -0.2878350019 0.2565999925 -0.9226632118
-0.16539347 -0.072513923 1.5755002 -0.3275999427 0.8062442541 0.4925936759
-0.026001934 0.01170087 1.483 -0.1885561943 0.7926210761 0.5798261166
-0.24062921 -0.3743121 1.794 -0.8245931268 -0.01816773042 -0.5654343963
-0.085001595 -0.074376397 1.6160001 -0.2258798778 0.8948602676 0.3849719763
0.15395582 -0.10612489 1.705 -0.7297763824 -0.07463168353 -0.6796002984
-0.17156717 0.017661326 1.439 -0.07627810538 0.5333759785 0.8424320221
0.064481758 0.06491892 1.4960002 0.04023658112 -0.1088471189 0.9932438135
-0.095117159 0.01383263 1.464 -0.08485102654 0.7810112238 0.6187259555
-0.2143108 -0.14287387 1.6630001 -0.3862785995 0.818490386 0.4252791405
-0.21407147 0.0050929952 1.4534999 0.03255163506 0.3618928194 0.9316512346
0.07379429 -0.05082177 1.6376002 -0.199716866 0.8771725893 0.43667081
-0.14416344 -0.49470827 1.7310003 -0.3455668986 -0.05234386027 -0.9369331002
0.0057591158 -0.0031010623 1.5159999 -0.2314307094 0.8324571848 0.5034430027
-0.24538267 -0.1919211 1.7130001 -0.2902576029 0.8257316351 0.4836504459
-0.11438424 -0.1356777 1.7345557 -0.2518735826 0.8556329012 0.4521637857
0.16595338 -0.19567011 1.6710002 0.07231002301 0.4204977453 -0.9044075012
-0.065505542 -0.0043156948 1.4876156 -0.09536842257 0.8150410056 0.571500659
-0.11538975 -0.063320264 1.575 -0.1417586058 0.8967297077 0.4192616045
0.034197189 -0.062359579 1.6390002 -0.173442468 0.8932326436 0.4147928953
-0.28428984 -0.17494759 1.6630001 -0.3259646595 0.8293322325 0.4538227618
-0.01145628 0.043279279 1.452 -0.4747291505 0.5289289951 0.7034673691
0.095652521 -0.07483694 1.6960001 -0.5239650011 0.7581570148 0.388147682
0.025028834 -0.49507034 1.7130002 -0.3370417356 -0.04288288951 -0.9405125976
0.1367507 -0.32569411 1.6630001 -0.2276879996 0.1991716325 -0.9531468153
0.015194606 -0.034188248 1.5755 -0.1835051477 0.8645355701 0.4678718746
-0.07486733 -0.025404921 1.5250002 -0.08906591684 0.8488218188 0.5211226344
-0.054744769 -0.35581055 1.7345003 -0.1137684509 0.2261920869 -0.9674161077
-0.22251552 -0.27814442 1.8130001 -0.8389308453 0.1611881405 -0.5198205709
0.080428027 -0.17451365 1.7310001 -0.4313625395 0.513092339 -0.742066443
-0.29758975 -0.10368512 1.5359999 -0.4767639041 0.6434186697 0.5989228487
0.10513989 -0.49596289 1.6960001 -0.2413228154 -0.2497805953 -0.9377488494
-0.38846004 0.027372748 1.9930001 -0.674947679 0.3322399557 -0.6588340402
-0.17405428 -0.34502801 1.7570001 -0.2644837201 0.3898212314 -0.8820928335
-0.29669234 -0.13242723 1.5790001 -0.2968455851 0.7852392197 0.5433986783
0.036883119 -0.078182302 1.6826668 -0.09886419773 0.9232020974 0.3713808358
0.17139447 -0.23585051 1.6710001 0.2160905898 0.1101994514 -0.9701344967
-0.16858651 -0.10058523 1.6160001 -0.3284231722 0.8312398195 0.4485293627
0.04226305 0.1241311 1.516 -0.1474387199 -0.1879885048 0.9710417986
0.04598432 0.012492851 1.516 -0.3589231372 0.7073433995 0.6089658737
0.075470477 -0.36255425 1.6880001 -0.434907496 0.09150328487 -0.895813942
-0.17532019 -0.41467035 1.7390002 -0.3285751939 0.04938426241 -0.9431858659
-0.20467186 -0.037332848 1.5030001 -0.2038600445 0.8283011913 0.5218794942
-0.014889599 -0.1237377 1.7570001 -0.2174817324 0.8536548615 0.4732601047
0.025797671 -0.32474712 1.7310003 -0.4015808105 0.1355793923 -0.9057323337
0.19608709 -0.2908504 1.6630001 0.03359501436 0.09391335398 -0.9950134158
0.21431081 -0.32511094 1.6630001 -0.01403720491 0.2755856514 -0.9611740112
-0.35785884 -0.14122398 1.5640001 -0.1346071362 0.8254978657 0.5481187105
-0.20708181 -0.31453484 1.7850002 -0.5934625864 0.6152378321 -0.5189263821
-0.085650772 0.045339227 1.4367499 -0.01507365704 0.394280076 0.918866694
-0.24454618 -0.11505315 1.5940002 -0.2963403761 0.8210853338 0.4878536761
0.12647253 -0.3961834 1.6630001 -0.2604609728 0.03957380354 -0.9646729827
0.097493343 -0.21516506 1.6960001 -0.3867863119 0.02417422086 -0.9218524694
-0.23308814 -0.08912193 1.5640001 -0.2731203437 0.7557705641 0.5951606035
-0.15317646 -0.13966089 1.7130001 -0.3836641908 0.8051812649 0.4522000849
0.0060069202 -0.46403456 1.7130002 -0.2639628947 -0.141177848 -0.9541448355
-0.44320759 -0.49424362 3.0640001 -0.2830375433 0.7908902764 0.5425701141
-0.1250166 -0.29531789 1.7659999 -0.1918323636 0.3683773875 -0.9096693993
-0.39197081 0.10018985 2.0050001 -0.9373679161 0.01746315509 -0.3479028344
-0.22180368 -0.21102156 1.7570001 -0.392426312 0.7804735899 0.486685276
-0.02566354 -0.44571528 1.7220001 -0.01024743449 0.02209952287 -0.9997032285
-0.17713489 -0.18432297 1.7570001 -0.4892322123 0.6484649181 0.5832195878
-0.243204 -0.047060341 1.5050001 -0.2684120238 0.7583660483 0.5939999223
-0.12612936 -0.40512434 1.7334001 -0.1140053198 0.1807231456 -0.976904273
-0.32555893 -0.19681518 1.6880001 -0.2146064043 0.8040852547 0.5544285774
-0.10547352 -0.10693843 1.6710001 -0.2341727912 0.8685292602 0.4368294775
0.14433177 -0.36447418 1.6630001 -0.3030180931 0.08674503118 -0.9490286112
0.0013526967 0.18802483 1.5430001 0.5099825859 -0.2552851439 0.8214299679
-0.34567317 -0.17283659 1.6160001 -0.3024024665 0.805536747 0.5095716715
-0.24834564 -0.15160635 1.6470001 -0.3559634387 0.8183586597 0.4511974752
0.0076620667 -0.2176027 1.748 -0.5354619026 0.4491561055 -0.7152197957
0.1148784 -0.46603605 1.6800002 -0.3837020397 -0.2421514839 -0.8911427855
-0.16454282 -0.12704553 1.6822859 -0.3055959642 0.8413954377 0.445718348
0.092563093 0.00405809 1.5430001 -0.04722813517 0.8312020898 0.5539608002
-0.29522273 -0.032370917 1.4770001 0.1696497947 0.2713738084 0.9474044442
-0.24255174 -0.33957246 1.7850001 -0.9050555825 0.3316947222 -0.2661823928
-0.054413322 -0.064055659 1.6032857 -0.1812652797 0.8976816535 0.4016348124
0.050908908 0.033939272 1.4890001 -0.5113248229 0.3915905952 0.7649860978
-0.12385546 -0.17184946 1.766 -0.2477227598 0.7850462794 0.567746222
0.11406573 -0.038984489 1.647 -0.4690021873 0.7810055614 0.4123920798
-0.26202691 -0.01150362 1.4580001 0.2564804852 0.2838526666 0.9239293337
-0.21748127 -0.17263977 1.705 -0.4158821702 0.7639725804 0.4933435619
-0.084716685 -0.29419795 1.7570001 -0.1703476459 0.174479723 -0.9698136449
-0.30528337 -0.16209917 1.6240003 -0.2853310108 0.8087555766 0.5142962337
-0.11646342 -0.36011714 1.748 -0.1408173293 0.2947751284 -0.9451339245
0.25197008 -0.36562261 1.6550001 0.3784736991 0.154334873 -0.9126545787
0.055304512 -0.25509828 1.705 -0.3729511797 0.09834951162 -0.9226238728
0.18585332 -0.46835041 1.6960001 0.3770540357 -0.6148599982 -0.6926596761
-0.045352243 -0.10782421 1.7130001 -0.1586010307 0.9007258415 0.4043991268
0.0013588333 -0.017664833 1.5500001 -0.2257985324 0.8659459949 0.4462651312
-0.12378883 -0.46949181 1.7220001 -0.3221625686 0.1483187079 -0.9349935055
0.41197109 -0.10362463 2.8830001 -0.2531312406 0.8700433373 0.4230237901
-0.043944672 -0.49505013 1.7050002 -0.2767356634 -0.0952443853 -0.9562143683
-0.0028474133 -0.058371972 1.6240001 -0.2673158646 0.8740019202 0.4057866931
-0.40092421 -0.14025263 1.6160001 0.4017344117 0.8554712534 0.3267697096
-0.35321164 -0.04762404 1.5090001 0.3205240369 -0.09930392355 0.9420207143
0.074328184 -0.29418743 1.705 -0.3782544136 0.1169413254 -0.9182855487
-0.2325858 -0.38045493 1.7570001 -0.666621387 0.1615585536 -0.7276776433
-0.15390585 0.045414839 1.4389998 0.1368690133 -0.069641307 0.9881381392
-0.34474954 -0.096487343 1.516 -0.1222148091 0.7172814608 0.6859816313
0.035873201 -0.41403651 1.705 -0.245657891 0.03960388526 -0.968547225
-0.19543135 -0.072863281 1.5535001 -0.2876373529 0.844075799 0.4525492191
-0.17492218 -0.46542937 1.735 -0.4825328588 -0.06966040283 -0.8731033802
0.14199194 -0.18510991 1.6960001 -0.1604340672 0.3605231047 -0.9188492894
-0.054374665 -0.3237071 1.7390002 -0.2605537176 0.2357876152 -0.9362242818
-0.42403489 0.071901567 2.1030002 -0.9214739203 -0.05431098863 -0.3846246004
-0.025899364 -0.3046709 1.737667 -0.2651226819 0.1438368559 -0.9534258842
-0.37338549 0.060783684 1.9810001 -0.5374913216 0.5246341825 -0.6601985097
0.075089574 -0.028772637 1.6010001 -0.3763920367 0.7747780085 0.5079842806
0.014524738 -0.3546637 1.7310003 -0.2063077241 0.1895977706 -0.9599425793
0.23369899 -0.26523095 1.6808001 0.2349800467 0.2788572013 -0.9311407208
0.12518799 -0.265104 1.6800002 -0.3958551586 0.1605172455 -0.9041752815
0.094763279 -0.058315866 1.6630001 -0.4366144836 0.8175225854 0.3755324781
0.1151934 -0.33525428 1.6846666 -0.6267088056 0.2814335227 -0.7266575694
-0.1844945 -0.046795592 1.5250001 -0.231343165 0.7527167201 0.6163585782
0.074566633 -0.17741717 2.9330001 -0.06864602864 0.7007190585 0.7101271152
0.04955709 -0.31536329 1.7130001 -0.6122481823 -0.08277478069 -0.7863208652
-0.084410727 -0.12661996 1.7318001 -0.2410796136 0.8492372632 0.4697623849
-0.16813064 0.062888563 1.4640001 0.2389799356 -0.7542333007 0.6115723848
0.15023349 -0.089533091 1.7310001 -0.7231732011 -0.05564869195 -0.6884211898
0.12259307 -0.08275032 1.748 -0.5284895301 -0.2649871409 -0.8065237999
-0.19869913 -0.32500401 1.7570001 -0.06925203651 0.4482691288 -0.8912120461
0.1023596 -0.40575641 1.6800001 -0.5785677433 -0.1495332867 -0.801809907
0.30907759 -0.20513999 3.1200001 -0.2610784173 0.8956891298 0.3599708974
0.39600962 -0.09273643 2.8590002 -0.2222061306 0.8507717848 0.4762476385
0.019727631 -0.10774321 1.7310001 -0.2523964047 0.8905156851 0.3785205781
0.17700775 -0.3554664 1.6550001 -0.2528949976 0.2741284072 -0.9278457165
0.025809357 -0.26570216 1.731889 -0.3366727531 -0.03714524955 -0.9408887625
0.044802669 -0.027043667 1.5760001 -0.2541665435 0.86897403 0.4245980084
0.16441883 -0.13900866 1.705 -0.6072955728 0.455024004 -0.6512643695
-0.31535453 -0.054725047 1.4960002 0.05953221023 0.4877788723 0.8709349632
-0.073971383 -0.49515536 1.7220001 -0.05872039497 0.2126065344 -0.9753718972
-0.06525293 -0.38393006 1.7310001 -0.1219957843 0.1199727356 -0.985253036
-0.02566354 -0.41514549 1.7220001 -0.01886737719 0.09784197807 -0.9950230718
-0.10776425 -0.090521969 1.6390001 -0.1985704154 0.8893641829 0.4118265808
0.063338816 -0.083559655 1.6960001 0.01805132255 0.9273274541 0.3738153577
-0.12456605 -0.025493147 1.5159999 -0.1594312936 0.8083516359 0.5667003989
-0.034810856 -0.22550042 1.7570002 -0.378342092 0.2142043263 -0.9005408287
-0.085113816 -0.24496172 1.7760001 -0.4869297147 0.563837111 -0.6670736074
-0.035374556 0.28546444 1.5639999 0.1023111865 -0.2773568928 0.9553039074
0.023168107 -0.09341979 1.705 -0.2682566345 0.8132662773 0.5163684487
0.14538641 -0.46771923 1.6800002 -0.2410535514 -0.5157294869 -0.8221412897
0.01089872 -0.19150607 1.7760001 -0.3069155216 0.8671169281 -0.3923150301
0.2212014 -0.22999087 1.6710001 -0.01229005959 0.04757556319 -0.9987920523
0.064272813 -0.43496254 1.705 -0.322152555 -0.0230218973 -0.946407795
-0.28498128 -0.075754523 1.5159999 -0.3311619461 0.7860503793 0.5219736695
-0.40002298 0.083560362 2.0280001 -0.859193325 0.1304686517 -0.4947370887
-0.058830906 0.38274696 1.5790001 0.008410139941 -0.2640010118 0.9644857645
-0.19550368 -0.11262712 1.6160001 -0.4342346787 0.7884525061 0.4356407523
-0.17541786 -0.15669855 1.7220001 -0.4168812633 0.8152152896 0.4020373225
0.055304512 -0.3751739 1.705 -0.4070388675 0.06531722844 -0.911072433
-0.075474866 -0.26493222 1.7570001 -0.08993083239 0.2553243041 -0.9626640081
0.015473265 -0.046424463 1.6045556 -0.1735044569 0.9056100249 0.3869969547
-0.02588027 -0.27551246 1.7363334 -0.4081647694 0.2168613225 -0.8867765665
0.17432429 -0.41749933 1.6710001 0.0249443464 -0.2609248459 -0.9650368094
0.044070911 -0.20517945 1.7336668 -0.4832971394 0.2231092751 -0.8465495706
-0.08379472 -0.039406165 1.5500001 -0.1767258793 0.8438886404 0.5065767169
-0.27927971 -0.21436603 1.7220001 -0.4798920751 0.7316601872 0.4841249883
-0.068120509 -0.14243379 1.766 -0.1523865312 0.8642240763 0.4794737399
0.49011102 -0.12187946 2.9580002 -0.3626696169 0.8821926117 0.3003447652
-0.11133929 0.053793143 1.427 0.003123377217 0.04154779017 0.9991316199
0.015082173 0.20840821 1.5640001 0.5500124097 0.09199459106 0.8300743103
-0.084538721 -0.46496299 1.7220001 0.02093975432 0.07940129936 -0.9966228008
-0.037540618 0.34342715 1.5860001 -0.06379729509 -0.316568166 0.9464219809
0.31964669 -0.24712181 3.0640001 -0.2912839055 0.8905992508 0.3492658734
0.19629969 -0.20649707 2.9080002 0.03620760143 0.8920460939 0.4504916966
0.1782088 -0.265104 1.6800001 0.1502350718 0.1177675202 -0.9816110134
0.065668471 -0.2347459 1.7220001 -0.5620477796 0.09709120542 -0.8213863969
-0.025379123 -0.11475755 1.732143 -0.227207914 0.8384416103 0.4953707755
-0.26567733 -0.18365113 1.6860001 -0.3445241749 0.7712600231 0.5352205634
-0.092633858 0.42667717 1.6010001 -0.2188789994 -0.4756036997 0.8519936204
-0.26371506 -0.032370917 1.4770001 -0.08294873685 0.6021417975 0.7940685153
-0.23667784 -0.26422521 1.8330001 -0.7045660019 -0.2262480855 -0.6726058125
-0.10573652 -0.31567714 1.748 0.1389212459 0.4495011568 -0.8824112415
-0.47571439 0.1369704 1.6800001 -0.2906965613 -0.1940268129 0.9369360209
0.093858123 -0.19147056 1.7130001 -0.4615783095 0.5283554792 -0.7125909925
-0.026196847 -0.47371238 1.7130002 0.3087683618 0.115225099 -0.94413203
0.033225667 0.15150905 1.516 0.3444554806 -0.1366641819 0.928802073
0.22413123 -0.42921862 1.6710001 -0.06732007116 -0.4346239269 -0.8980924487
0.15449166 -0.30549008 1.6710001 -0.155364871 0.0007188527961 -0.9878568649
0.14433177 -0.42424792 1.6630001 -0.1855671108 -0.1028141752 -0.9772379994
0.061547697 -0.0033817417 1.5430001 -0.3465319872 0.780739069 0.5199635625
0.11887833 -0.19878827 1.6880001 -0.2627317011 0.2536911964 -0.9309204221
-0.054019324 0.091707222 1.4330001 -0.01654505171 -0.04621373862 0.9987945557
-0.047064729 -0.051217496 1.5790001 -0.1782389134 0.8700692058 0.4595763683
-0.020290449 0.23807462 1.5430001 0.05981254578 -0.01272797305 0.9981284738
-0.33967677 -0.074755125 1.4959999 -0.1057410166 0.4012143016 0.9098603725
0.053771228 0.090493038 1.4960001 0.1483670026 -0.3481343389 0.9256293774
0.25342944 -0.38820115 1.6710001 0.3492180109 0.06345555186 -0.934890449
-0.095603123 -0.41428021 1.7310001 -0.06785187125 0.1245410591 -0.9898917079
0.14498752 -0.15843996 1.705 -0.28098014 0.7182109356 -0.6365714073
-0.27389169 -0.12995882 1.5940001 -0.3678005934 0.8136261702 0.4502612352
-0.15804985 -0.29262695 1.7850001 -0.2678080797 0.4412710071 -0.8564804196
-0.14122398 -0.058957588 1.5640001 -0.1353042424 0.8651973009 0.4828316569
0.093245275 -0.42586967 1.6960001 -0.3674938977 -0.04817798361 -0.9287772179
-0.32563785 -0.13094069 1.5640001 -0.2196563482 0.8056113124 0.5502195358
0.056673869 0.30397803 1.9590001 -0.2326073647 0.9312509298 0.2804737985
0.19526872 -0.24012777 3.0100002 0.1088008881 0.9634845257 0.2446629107
-0.35284516 -0.15650955 1.5940001 -0.1268898845 0.7776201963 0.6157969236
-0.25075471 -0.12891909 1.6160001 -0.3080218434 0.8125355244 0.4948823452
-0.29407346 -0.14352261 1.6050001 -0.3140750229 0.8144447207 0.4878900051
-0.23068081 -0.32512063 1.766 -0.5225894451 0.6860324144 -0.506221056
-0.19639336 0.024912862 1.4519998 0.3264636993 0.01937284693 0.9450111985
0.00151751 -0.37785998 1.7310001 0.1301041245 0.07400345802 -0.9887347221
0.11413148 -0.066076115 1.7130001 -0.6248811483 0.6237308979 0.4695565104
-0.13623662 -0.11377468 1.6710001 -0.2637220323 0.8699473739 0.4167040884
-0.36441645 -0.12634186 1.5430001 -0.08966124058 0.7985628843 0.5951958895
0.14502609 -0.24463995 1.6710002 -0.3044689 0.102993913 -0.9469376802
-0.19768132 -0.3570523 1.748 -0.01011016872 0.2138733268 -0.9768090844
-0.0073990668 -0.093228236 1.6880001 -0.2190142572 0.8527544737 0.4741757214
-0.17227113 -0.36436105 1.739 -0.2711591423 0.1243078336 -0.9544737935
0.055021837 -0.17624535 1.7381113 -0.4055952132 0.3250638843 -0.854298532
-0.037480716 -0.26390532 1.7570001 -0.4831700325 0.1805926561 -0.8566989303
-0.1051211 -0.12389272 1.7130001 -0.2891045809 0.8811278939 0.3742087185
-0.031702019 -0.35476071 1.7220001 -0.2577590942 0.2557246089 -0.9317538142
-0.074032746 0.43850163 1.6240001 -0.2188789994 -0.4756036997 0.8519936204
-0.12049345 -0.25507054 1.7850001 -0.3846572042 0.7652356029 -0.5161911249
-0.024784243 -0.08310011 1.6630001 -0.2182047963 0.8984743357 0.3809600472
0.19708169 -0.22301349 2.9580002 0.03620760143 0.8920460939 0.4504916966
0.22488692 -0.38448408 1.655 0.269287616 0.04282460362 -0.9621071815
0.057986241 -0.46835041 1.6960001 -0.257583797 0.0858547464 -0.9624341726
0.10654656 -0.23824994 1.6880001 -0.3657799065 0.2590839863 -0.8939130306
-0.14553016 -0.31118685 1.766 -0.3174972534 0.3696313202 -0.8732514977
-0.19869913 -0.19869913 1.7570001 -0.4967449903 0.7322984934 0.4658146799
0.021681193 0.17478788 1.5266001 0.4720222056 -0.2116492242 0.8558034897
-0.095704429 -0.35394141 1.7327778 -0.170793727 0.2404027134 -0.955529213
-0.4229522 0.098988816 2.0530002 -0.9071320295 0.03724952042 -0.4191944003
-0.18026546 -0.088036619 1.5940001 -0.3176473677 0.8303463459 0.4578483701
-0.49131116 0.17932129 1.6630001 -0.9285372496 -0.1216130555 -0.3507545888
-0.060384799 -0.098677598 1.6800001 -0.1983676404 0.8912821412 0.4077578187
-0.11724716 -0.42621604 1.7220001 -0.01445405558 0.1604258865 -0.9869420528
-0.49582496 0.13312481 1.6470001 -0.6507581472 -0.1432951242 0.7456408739
-0.14689496 0.023167145 1.452 -0.03194268793 0.6699697375 0.7417008877
0.037158977 0.058142871 1.4959999 -0.4936791658 -0.4277291 0.7571847439
-0.095023654 -0.067075513 1.594 -0.2134126276 0.8804578781 0.4233781099
0.053682685 -0.063355237 1.6550001 -0.1997839063 0.8697587848 0.4512272179
-0.10108317 0.43992534 1.6240001 -0.2188789994 -0.4756036997 0.8519936204
0.22888978 -0.34552151 1.6630001 0.4102909863 0.2619689703 -0.8735179305
-0.035329178 0.037018225 1.4449999 -0.1298427582 0.6995540261 0.702684164
0.1841 -0.449204 1.6800001 0.2968737185 -0.495762974 -0.8161403537
-0.015159319 -0.039965481 1.572 -0.1902615875 0.8608372211 0.4719743729
-0.0053916946 0.006848909 1.4960002 -0.2619481385 0.7763116956 0.5733439922
0.10259104 -0.27803659 1.6960001 -0.5017210245 -0.07213825732 -0.8620162606
-0.27459744 -0.09198337 1.5430001 -0.2673731744 0.6902322173 0.6723772287
-0.18604356 -0.1318419 1.6710001 -0.4533879757 0.800445199 0.3920800984
-0.15559343 -0.17455879 1.7659999 -0.3902898431 0.7240993381 0.5686422586
-0.15738183 -0.11117799 1.6470001 -0.2765751183 0.8754566908 0.396335423
-0.16396822 -0.3907654 1.748 -0.3190395534 0.297124058 -0.89996171
0.01150362 0.049849018 1.4580001 -0.4951602221 0.3562341332 0.7924100161
-0.065067604 -0.077107742 1.6348002 -0.1825979501 0.9101927876 0.3717621565
0.15240137 -0.11728185 1.7310001 -0.5097426772 0.02515447885 -0.8599590659
-0.49660447 0.12354074 1.6710001 -0.6507581472 -0.1432951242 0.7456408739
-0.13508382 -0.014426427 1.4960001 -0.131708622 0.8068065047 0.575948
-0.17056865 -0.19247656 1.7850001 -0.4243040979 0.8057307601 0.4132359922
0.018961422 0.12655647 1.5090002 0.1877641827 -0.1281304806 0.9738209248
0.13477173 -0.28565747 1.6710001 -0.2678114772 0.05552791059 -0.9618698955
0.19588239 -0.23417521 1.6800002 -0.1246725097 0.1262525022 -0.9841326475
-0.14632882 -0.34348765 1.7570002 -0.1940474212 0.2374725789 -0.9518153071
-0.20451823 -0.39453745 1.7479998 -0.2315792888 0.0468390286 -0.9716877937
-0.26387668 -0.3245683 3.0100002 -0.2830375433 0.7908902764 0.5425701141
-0.14474352 -0.093490064 1.6240001 -0.3015653789 0.8707082868 0.3884911537
-0.004604253 0.025420705 1.471 -0.3658296764 0.6567056775 0.6594742537
-0.053413544 -0.027380055 1.5359999 -0.1315821558 0.8687424064 0.4774649739
-0.023340374 -0.024686933 1.5360001 -0.1927339584 0.8735660911 0.4469182491
-0.12322427 -0.14940943 1.7570001 -0.2735733092 0.7809745669 0.5614591837
-0.30513108 -0.11543348 1.5557274 -0.3666531742 0.8101584911 0.457393378
-0.23262876 0.033232681 1.4580001 0.1793202907 -0.4230853617 0.888168335
0.00750865 -0.39795846 1.7130001 -0.1696963608 0.2212336212 -0.9603430629
-0.069313653 -0.31268159 1.7570001 -0.246552065 0.3142513633 -0.9167650342
-0.0125188 -0.19247656 1.7850001 -0.09524077922 0.9363774657 -0.337826103
-0.30470127 -0.18531111 1.6710001 -0.2707630396 0.7955958247 0.5419545174
0.025368104 0.10814823 1.5230001 -0.02331953682 -0.05150592327 0.9984003901
-0.19400354 -0.47167683 1.7479999 -0.7096354961 -0.1489286125 -0.6886492372
-0.11439483 0.0028375946 1.4728 -0.08940585703 0.8338342309 0.5447266102
-0.20407383 -0.12569749 1.6355001 -0.3681228757 0.8292762637 0.4204598069
0.18661077 -0.38780051 1.6630001 -0.2125101835 -0.2186588049 -0.9523800611
-0.01051211 -0.36792386 1.7130001 0.1158221513 0.1275770962 -0.9850428104
-0.20717387 -0.022012223 1.4770001 -0.1440641433 0.7790096998 0.6102371812
0.025084941 0.0070387567 1.506 -0.2987514734 0.7715408206 0.5616692305
0.18642144 -0.18641986 1.6862222 0.03513847291 0.5336005688 -0.8450063467
-0.26314729 -0.066451333 1.516 -0.2581272721 0.8036910892 0.536144495
-0.11129019 -0.33691967 1.739 -0.25129807 0.03546418995 -0.9672598243
-0.17705159 -0.02754136 1.4959999 -0.2647644877 0.7799062133 0.5671384931
-0.25689578 -0.25689578 1.8430001 -0.6869701743 -0.274744302 -0.6727463007
0.092228845 -0.013974067 1.5940001 -0.3959904909 0.7862545252 0.4743367136
0.023417227 -0.44542554 1.705 -0.02936355025 -0.001148623298 -0.9995681643
0.1782088 -0.21502879 1.6800001 0.275601387 0.09477059543 -0.9565889239
-0.055274073 0.33526927 1.5726365 -0.04737414047 -0.2385410815 0.9699761868
0.084618419 -0.38434792 1.6879998 -0.4154028893 -0.06119891629 -0.9075765014
0.13037699 -0.34718367 1.6710001 -0.329651624 0.0987246111 -0.9389266372
-0.34069809 -0.048298195 1.4890001 0.1761533767 0.0276983697 0.9839729667
-0.074245855 -0.43518227 1.7220001 -0.0863103494 0.2092314661 -0.9740496278
-0.22280483 -0.29200539 1.794 -0.7338755727 0.1306797564 -0.6665953994
-0.025500478 -0.062806733 1.6160001 -0.1640352905 0.8883513808 0.4288639128
-0.068945453 0.4249326 1.605 -0.3349186778 -0.4554382861 0.8248669505
0.065167896 -0.043917492 1.6160001 -0.2652061582 0.8520441055 0.4513164163
-0.1946165 -0.4244785 1.748 -0.3506960273 -0.1877902299 -0.917467773
-0.23486604 -0.0048567331 1.4576001 -0.06926594675 0.5009526014 0.8626984954
-0.086117886 -0.10482011 1.6840001 -0.2424636334 0.8895075321 0.3872825205
0.035125844 -0.47531989 1.705 -0.2239034623 0.105690673 -0.9688636065
0.16620022 -0.46798483 1.6630001 0.1923761666 -0.4984281361 -0.8453170061
-0.22497809 -0.19609982 1.7340001 -0.4114331007 0.75443995 0.5114129186
0.095156908 -0.30479944 1.6960001 -0.3234578967 0.03021020815 -0.9457601905
0.064544588 -0.33440885 1.705 -0.4847279191 0.1886281222 -0.8540832996
-0.053799719 -0.2155859 1.7659999 -0.4781377017 0.3187983334 -0.8183837533
0.014136876 -0.082492828 1.6845714 -0.2226369381 0.8623815775 0.4546765983
-0.16396368 -0.43489629 1.7382002 -0.3178936839 0.03981260583 -0.9472901225
-0.19672664 -0.16619146 1.7130002 -0.5147061348 0.7695482373 0.3779855669
0.16503777 -0.18287967 1.6960001 -0.01385306567 0.4811459482 -0.8765310645
-0.28634453 -0.16290987 1.6372501 -0.3661319911 0.8046604395 0.4674065709
-0.025842581 0.084888235 1.4353079 -0.266630441 -0.1331875026 0.9545518756
-0.32407975 -0.095989965 1.5260001 -0.1315790564 0.6881783605 0.7135106325
-0.18513839 0.0050205151 1.4541177 -0.06014503539 0.6074684858 0.7920635343
-0.27450538 0.013711768 1.4756 0.5582211614 -0.1854411066 0.8087031245
0.19006571 -0.33660495 1.6550001 -0.04601984099 0.5150644779 -0.8559151888
-0.33356181 -0.17712486 1.6350001 -0.3426357806 0.8327148557 0.4349559546
0.21534176 -0.27540305 1.6710001 0.04214578122 0.2530402243 -0.9665372968
-0.0045618806 -0.31509244 1.7363335 -0.01356081013 0.07839648426 -0.9968300462
-0.055561379 -0.0132289 1.5089999 -0.1145653129 0.8741053939 0.4720323384
-0.084622227 -0.013222982 1.50825 -0.09265882522 0.8689832687 0.486088872
-0.0045972401 -0.26510751 1.748 -0.140992105 0.2667239308 -0.9534041882
0.24427374 -0.31458941 1.6710002 0.02053366974 -0.005535141565 -0.99977386
-0.11274371 0.078540564 1.4450001 0.09246125072 -0.185795173 0.9782285094
-0.16887274 -0.061285574 1.5535001 -0.369136095 0.790754199 0.4883097112
-0.1439402 -0.037880477 1.5250001 -0.1622048616 0.8368670344 0.5228222609
0.07475511 0.044590771 1.4960002 -0.4155892432 0.3549475074 0.8374353051
-0.092326149 -0.2253384 1.7850001 -0.5738226771 0.5856127739 -0.5725252628
0.19483304 -0.4280467 1.6710001 0.03788831457 -0.378811121 -0.9246981144
0.077725261 -0.22570221 1.705 -0.4341788888 -0.0552290976 -0.8991320133
-0.2090061 -0.45052427 1.766 -0.3833962381 -0.1482122988 -0.9116141796
-0.095009625 -0.13944961 1.748 -0.2602781653 0.8021902442 0.5373510122
0.14795591 -0.20948213 1.6710001 -0.3938719332 0.2532233596 -0.8835965395
-0.05550703 0.045414835 1.4389998 -0.0570194535 0.4895433784 0.8701126575
