# .PCD v0.7 - Point Cloud Data file format
VERSION 0.7
FIELDS x y z normal_x normal_y normal_z
SIZE 4 4 4 4 4 4
TYPE F F F F F F
COUNT 1 1 1 1 1 1
WIDTH 512
HEIGHT 1
VIEWPOINT 0 0 0 1 0 0 0
POINTS 512
DATA ascii
0.064089209 -0.044659641 1.1665558 -0.1276920736 0.7566304207 0.6412527561
-0.2175536 -0.42126289 2.256 -0.03285634145 0.7509054542 0.6595918536
0.4556843 -0.13353387 1.904 0.01761991717 0.7606880069 0.6488785148
-0.33839419 0.098148972 1.6710001 0.9778051972 0.08433380723 0.1917937845
0.37932754 -0.44689223 1.1010001 0.6939179897 0.1344527006 0.7073897719
0.060945865 0.45617056 1.2640001 0.6550326347 -0.2936595976 0.6962013245
0.24164703 -0.41846192 2.2410002 0.002736635972 0.7145258188 0.6996037364
0.00353209 -0.46505851 1.3430001 0.8011462688 0.01364202145 0.5983130932
0.31869289 0.24787223 1.4960001 -0.8017466664 0.4974283278 -0.3313115537
-0.28229237 -0.010968415 1.317 0.5520169735 -0.3769876063 0.7437456846
0.35356405 -0.14859939 1.169 0.6379393339 -0.3181116581 0.7013118863
-0.43310225 -0.1262549 1.8230001 0.9553726912 0.2523990571 0.1534851342
0.13207707 0.22513898 1.1057501 0.5949851871 -0.3193630874 0.7375634313
-0.094540499 -0.21214005 1.315125 -0.1958685815 0.7511894107 0.6303569674
0.28466308 0.085471809 1.2843637 -0.5657393336 0.6710374355 -0.4792158008
0.16681515 -0.25296694 1.3280001 0.5575261712 -0.107466802 0.8231739998
-0.32401988 0.21307047 1.4381429 0.6370543838 -0.324532032 0.6991714239
0.42649132 0.034539789 1.7130001 -0.2513507009 0.6784675121 0.6902931333
0.49732774 -0.30422613 2.0780001 -0.04090245441 0.7473299503 0.6631929278
-0.1711832 -0.00096170331 1.097 0.2041049153 0.473175317 0.8569984436
0.25686157 -0.25686157 2.0780001 -0.02535406128 0.744420886 0.667229116
0.19463642 -0.49503762 1.2232499 0.4706738889 -0.326033324 0.8198587298
-0.02106104 -0.38484263 2.184 0.002883690875 0.686409533 0.7272095084
0.22351998 0.035018083 1.05575 -0.3223977983 0.419064194 0.8487902284
0.0053263339 0.085265614 1.0131669 0.1971059442 0.5317540169 0.8236424923
0.28715178 -0.32584751 1.2060002 0.7381256223 -0.1137902066 0.6649979949
0.11087116 0.37247726 1.4210001 -0.9787005782 -0.1256628036 0.1623391807
-0.22326119 -0.13281326 1.2037144 -0.0565950796 0.7651889324 0.641313374
0.206082 -0.10608332 1.2414705 0.1043416113 0.6965770125 0.709854424
0.40097013 -0.28421566 1.0916001 0.6243118644 -0.2521348 0.7393664122
0.045078199 -0.14650634 1.2855 -0.0474498421 0.7052235007 0.707395494
-0.07441292 -0.0965809 1.2040001 -0.1377649009 0.7268202901 0.6728693247
0.0039730538 -0.31449836 1.3704617 0.6579771042 -0.1162954047 0.7440036535
0.078818478 0.3352437 1.1830001 0.3994934857 -0.4774706066 0.7825769782
0.11396068 -0.38491341 1.2956114 0.1900882721 -0.4206691682 0.8870760202
0.31324244 0.17435761 1.3843334 -0.3488442004 0.7204292417 -0.5994075537
0.27277309 -0.02951649 1.161 -0.2063236386 0.6663759351 0.7165009975
-0.28727013 0.10563684 1.3760002 0.5281922817 -0.4311703742 0.7315087318
-0.045507699 -0.014529385 1.1044798 -0.06123042852 0.786898613 0.6140370369
0.27438837 -0.21368328 1.2545002 0.8072598577 -0.1569830775 0.5689356923
-0.048786499 -0.49567086 2.2260001 -0.03285634145 0.7509054542 0.6595918536
0.13469984 0.11690351 1.0500001 0.4738999307 -0.3554315865 0.8056595325
-0.34875903 0.14946815 1.536 0.9430392981 0.05539514124 0.3280369639
0.48104715 -0.052739389 1.8230001 0.05651656538 0.7650964856 0.6414306164
0.2891722 -0.44549546 1.177 0.6627388 -0.1976325661 0.7223009467
0.084524356 -0.49410242 1.2662855 0.3950591981 -0.3128329217 0.8637498617
0.075009063 0.028430007 1.077 -0.07947776467 0.8111391068 0.5794278383
0.16392839 -0.014067745 1.1342858 0.05591364205 0.8257912993 0.5611972809
0.2143428 -0.39458644 1.2502779 0.5796862841 -0.2397702634 0.7787644267
-0.25264627 -0.055618364 1.1441112 0.1833840162 0.4375033677 0.8803187609
0.0050386814 -0.21611196 1.3457274 -0.1267775297 0.6893912554 0.713209033
-0.18062139 -0.20943215 1.2640001 -0.1792072058 0.5591617227 0.8094584346
0.14505339 -0.16129677 1.2970001 0.04171386361 0.6866351366 0.7258045077
0.32937583 -0.24501422 1.1672223 0.7239440084 -0.212031886 0.6564659476
0.3484557 -0.35832697 1.126 0.836130619 -0.06169941276 0.5450493097
-0.27762279 -0.39633048 2.184 -0.04833589494 0.7522395253 0.6571144462
-0.15486154 -0.07484588 1.1561577 -0.11649023 0.719173789 0.6849956512
-0.080083497 0.0616735 1.0500001 0.2802757025 0.3469142318 0.8950396776
0.10755385 -0.097824603 1.233 -0.1204819903 0.744979918 0.6561166048
-0.16657367 -0.39441586 2.184 -0.03285634145 0.7509054542 0.6595918536
0.21898782 -0.29902399 1.268 0.5623954535 -0.2325894237 0.7934818864
0.090656973 -0.30022764 1.3430001 0.2639647424 -0.315351516 0.9115239978
-0.044571996 -0.15450148 1.2665713 -0.1321929544 0.6801761389 0.7210307717
0.41455233 -0.37542781 1.0626398 0.3645090759 -0.1022057608 0.925573945
0.30449438 -0.083271354 1.223 0.2596988678 0.1934062988 0.9461239576
0.32489267 -0.21758866 2.0400002 -0.03508438915 0.7458930016 0.6651411653
0.29215619 0.041937981 1.2060001 -0.556371212 0.668889761 -0.4929884076
0.014633006 -0.093450092 1.2172142 -0.0806087628 0.7675103545 0.6359481812
0.026418688 -0.38445902 1.3279999 0.4572694898 -0.2268036008 0.8599213362
-0.1350093 -0.14474498 1.2336668 -0.2681631148 0.6902136803 0.6720815897
0.081789203 0.097684629 0.98900002 -0.01523825433 0.6012860537 0.7988885045
0.14739722 -0.44580385 1.2589999 0.3552348018 -0.4097067714 0.8402074575
0.16475108 -0.061912827 1.197 0.02725370787 0.7490615845 0.6619395614
0.068264283 0.38683093 1.2360001 0.6053799391 -0.316408366 0.7303429842
0.45671704 -0.0077409665 1.766 0.04532890022 0.7694877386 0.6370509267
-0.025277117 -0.055225801 1.1631054 -0.1663975418 0.7772664428 0.6067691445
0.14589487 0.041816998 1.0600001 0.02291925438 0.793033123 0.6087471843
0.38300514 -0.21716787 1.126 0.6618367434 -0.2395768315 0.7103344798
0.11480608 0.28639209 1.14125 0.4582736194 -0.405557245 0.7908909917
0.15759328 -0.32496506 1.2970001 0.5137624741 -0.2219073027 0.8287371397
-0.042373683 -0.25787413 1.381 -0.2646709681 0.6181607246 0.7401530743
-0.0042224983 0.032271788 1.0611539 -0.121388182 0.7279447913 0.6748046279
0.024419619 -0.0071397079 1.114154 -0.1485554427 0.7559810877 0.6375138164
0.072452992 -0.19983003 1.3330001 0.02840621956 0.6763545871 0.736028254
0.26424804 -0.0052598319 1.0945715 0.1439798772 0.8466491699 0.5123035908
0.064933978 -0.43476951 1.2945 0.4197853804 -0.2980909944 0.8572759032
-0.11477584 -0.031391677 1.1190002 -0.1061840802 0.7323486805 0.6725996733
0.21582547 -0.21923658 1.29575 0.5971701145 -0.05210533366 0.8004204631
0.30907321 0.21445897 1.439 -0.6756803989 0.6501997113 -0.3474138081
0.48440966 -0.17512485 1.9470001 0.001740229432 0.7581951618 0.652025342
0.27668038 0.1377515 1.3430001 0.03087503091 0.8378775716 -0.5449842811
-0.27799627 0.051611118 1.3380001 0.4067011178 -0.3665120602 0.8368172646
0.30766267 -0.18502048 1.2060001 0.7714230418 -0.01779067889 0.6360738277
-0.29536477 0.17035562 1.3980001 0.487709403 -0.3484985828 0.8004300594
0.17955799 0.079505779 1.0190001 0.1624862701 0.1037193015 0.9812443852
0.23795421 -0.44634226 1.219 0.4893529415 -0.2073098868 0.847086966
0.24289015 -0.067967087 1.202 0.09244690835 0.7312945724 0.6757675409
0.26482242 -0.38507149 1.2118634 0.6066871881 -0.1738245487 0.775703311
0.35254201 -0.29345587 1.1314286 0.7598459721 -0.1234662235 0.6382712722
-0.11455928 0.017729416 1.0769999 0.1313699484 0.4983775616 0.856949091
0.096053518 -0.0064042695 1.1237501 -0.09535261244 0.7881402373 0.6080648303
-0.0180155 -0.37832549 1.3700001 0.8383129239 -0.263501972 0.4772820175
0.26980644 -0.27522424 1.2360001 0.7665691972 -0.1771831512 0.6172339916
0.1438605 0.17599541 1.0709999 0.493416518 -0.3215370476 0.8081794977
0.311584 -0.38870874 1.1730001 0.7567523122 -0.1380030662 0.6389688253
0.028425917 -0.49347392 1.2970001 0.5995998383 -0.08771777898 0.7954782248
0.32805994 -0.46623516 1.1374285 0.6949923635 -0.149733603 0.7032535076
-0.22352195 -0.41428638 2.1980002 -0.03285634145 0.7509054542 0.6595918536
-0.0043725041 -0.17563048 1.3043529 -0.2226990461 0.6630766988 0.7146568298
-0.12622948 -0.1811281 1.278 -0.2088945657 0.701844871 0.6810116172
0.2138339 -0.032937679 1.1559999 -0.0283922758 0.7734869719 0.6331759691
0.054456562 0.061235387 1.031 0.002523877192 0.7674694657 0.6410805583
0.075279072 -0.35433713 1.3245001 0.3348235488 -0.4071770012 0.8497647047
-0.16390173 -0.11624024 1.193 -0.1496839374 0.670861125 0.7263195515
0.26146585 -0.49155575 1.1930001 0.5651661158 -0.25355497 0.7850459814
0.15452127 -0.12140957 1.2589999 0.0007238319376 0.7178635597 0.6961834431
-0.21262409 -0.18250535 1.2270001 -0.3301737309 0.1297047585 0.9349663258
-0.14402962 -0.23929815 1.2936667 -0.7114995718 0.1240117922 0.6916570067
-0.19515476 -0.046559762 1.13 0.1243424416 0.5599603057 0.8191357851
0.16612181 -0.37736437 1.278 0.4732494056 -0.2526130378 0.843932271
-0.094826505 -0.065422729 1.1631052 -0.1423748732 0.7497442365 0.6462298036
-0.36065102 0.058911122 1.6390001 0.9848936796 0.05221026763 0.1651015729
0.21272492 0.0087421201 1.108 -0.1550341398 0.7404096127 0.6540321112
0.12469584 0.074812509 1.0160003 -0.05462761596 0.7279244065 0.6834777594
-0.20554002 -0.093124673 1.1672858 -0.04422173277 0.6747228503 0.7367451787
0.23757227 -0.34598961 1.245 0.5489083529 -0.2424442023 0.799950242
0.37253377 -0.39425755 1.0903637 0.7492756248 -0.04860844463 0.6604719758
0.38283604 -0.33479005 1.0909413 0.6688309312 -0.1210345179 0.7334955931
0.12532231 -0.035732254 1.1643335 -0.08737643808 0.7776254416 0.6226267219
0.3420043 -0.41506627 1.1313335 0.8036634326 -0.066925928 0.591308713
0.13664953 -0.49617314 1.245 0.298129946 -0.4854654372 0.821852684
0.32232094 -0.32435715 1.1616668 0.7081602216 -0.112372525 0.697052002
0.10538197 -0.13822417 1.2729999 -0.05476189405 0.7054721713 0.7066187859
-0.034810331 -0.1165444 1.2332002 -0.1637272537 0.737210989 0.6555252671
0.30019698 -0.24291556 1.21 0.8327271938 -0.0796270147 0.547927916
0.054181214 -0.11199534 1.2443334 -0.1216428578 0.7577081919 0.6411561966
-0.04486176 -0.21397895 1.3273335 -0.1264098287 0.7151213288 0.6874751449
-0.056281999 0.021574767 1.0700001 0.07489006966 0.6353919506 0.7685496211
-0.083090469 -0.24452338 1.3540001 -0.1082438231 0.6222259998 0.7753180265
0.28702241 0.01933839 1.161 -0.8916007876 0.419741869 -0.1698963791
-0.084134281 -0.1374435 1.2410001 -0.2028467655 0.6777840257 0.706726253
0.0055186166 -0.13134308 1.2590001 -0.1538417935 0.7184734941 0.6783277392
0.32494876 -0.12456828 1.2041817 0.4808122814 -0.3557079136 0.801430881
0.19452477 -0.44505668 1.2420434 0.4254178703 -0.3204279244 0.8463720083
0.24378239 -0.25452405 1.2759999 0.5435172319 -0.3263473213 0.7733604908
0.064831659 -0.07700491 1.2032307 -0.09458474815 0.7606666088 0.6422149539
0.10010657 0.37408242 1.202 0.502027154 -0.3891451657 0.772356689
0.35114443 -0.2025442 1.161 0.6671711206 -0.203494221 0.7165701389
0.16501297 0.014124773 1.0943637 0.02838982269 0.8200966716 0.5715203285
0.13621296 -0.28988913 1.3280001 0.4114158154 -0.3520998955 0.8406918049
0.30865338 -0.28502664 1.189 0.7963476181 -0.1430084854 0.5876895785
0.082826592 0.43134367 1.2270001 0.6070219874 -0.2939336598 0.738327384
-0.035669941 0.064789429 1.0334077 0.2127929926 0.4820366502 0.849917531
0.01819434 -0.03942107 1.153 -0.1354499459 0.776789248 0.6150217652
-0.25210655 -0.10145751 1.169 0.01999600977 0.6389633417 0.7689772248
0.044864733 -0.32585764 1.3467503 0.3152492046 -0.297852397 0.9010559916
-0.11947038 -0.1110123 1.2060001 -0.2803496718 0.6728803515 0.6845700145
0.19784437 -0.2672036 1.2970001 0.5407301784 -0.3818320334 0.7495433092
-0.064733058 -0.041829273 1.136 -0.07317726314 0.7839691043 0.6164718866
0.11510766 -0.33495724 1.3130002 0.1882397085 -0.3391001821 0.9217249155
0.10502087 -0.17633246 1.3120002 -0.06846589595 0.6169599295 0.7840107679
0.29203695 0.068650886 1.243 -0.5786962509 0.6947636008 -0.4270997345
0.30249208 0.12030935 1.307 -0.5755577087 0.6445815563 -0.5032374263
-0.064661182 -0.18581909 1.294 -0.2075433135 0.6898017526 0.6936132312
0.10188357 0.048647109 1.0470001 -0.06528787315 0.8180343509 0.5714519024
0.1064361 -0.42910555 1.2780001 0.1232508197 -0.4779542685 0.8696947694
0.025184561 -0.43499178 1.3154211 0.5352925658 -0.1350209713 0.833805263
-0.18486804 -0.14740919 1.2240909 -0.1797620207 0.6888322234 0.7022789717
-0.2517997 -0.024841227 1.2880001 0.5495527983 -0.3943836093 0.7365142703
-0.00353209 -0.41325453 1.3430001 0.4622615874 -0.2365366966 0.8546137214
-0.17877951 -0.40667427 2.2410002 -0.03285634145 0.7509054542 0.6595918536
0.19552843 -0.33491391 1.2772857 0.525613606 -0.2628385127 0.809102118
0.1140815 -0.062512472 1.1969999 -0.0620742701 0.7473113537 0.6615682244
-0.034590635 -0.082810231 1.1956668 -0.08358291537 0.7611011267 0.643225491
-0.005657847 -0.27701262 1.3920001 0.1027691215 -0.1543302089 0.9826599956
0.11439429 0.020712128 1.0904446 0.008325067349 0.8166300654 0.5771014094
0.16565318 -0.091431953 1.2270001 0.05002355576 0.7046414018 0.7077981234
0.10719659 0.24544993 1.1329334 0.6090011001 -0.3345878422 0.7191443443
0.036805972 -0.17827894 1.312 -0.1224106625 0.7144168019 0.6889297962
0.29493347 -0.044972122 1.1930001 -0.3514738381 0.722546339 0.5953090787
0.065310791 -0.39530209 1.3069997 0.2955571115 -0.3712440729 0.880240798
0.36456656 -0.25388026 1.1301903 0.6377778053 -0.2166264057 0.7391294837
0.182522 0.041067451 1.041 0.2287287414 0.7729622722 0.5917875171
0.24270517 -0.0089157 1.13 0.2722797692 0.8629246354 0.4257050753
0.17374013 -0.2290058 1.2953334 0.2001328766 0.3300513923 0.9225035906
-0.085591599 -0.010578737 1.097 0.03882396966 0.7203539014 0.6925192475
0.035149183 0.017807508 1.083625 -0.07628585398 0.7961631417 0.6002538204
0.025065977 -0.065590769 1.1835263 -0.07472416759 0.7588522434 0.6469618082
-0.15477107 -0.043277711 1.126 -0.0375337936 0.6640066504 0.7467840314
0.0070957402 -0.34887388 1.3490001 0.5716562271 -0.5127630234 0.6405335069
0.17501797 -0.036967605 1.1660527 0.09403354675 0.7773219943 0.6220355034
-0.31197819 0.13386056 1.398 0.4365659952 -0.3004017174 0.8480383158
0.20510952 -0.07638748 1.21225 0.01910400204 0.733455956 0.6794684529
0.11094129 0.32061014 1.161 0.4370959401 -0.3861398697 0.8123072982
-0.1649688 -0.17364524 1.2573335 -0.4923489094 0.3794159591 0.7833492756
0.1817295 -0.41221568 1.2640001 0.4501360059 -0.284601301 0.8463921547
0.29910725 0.2188274 1.4770001 -0.8045676947 0.5005226731 -0.3196058273
0.04475471 0.091264509 1.0010002 0.1646616608 0.5450687408 0.8220624328
-0.012983183 0.0034159943 1.0914286 -0.2168882638 0.7166979909 0.662799716
0.2616815 -0.31475919 1.2328891 0.7001011968 -0.2093876749 0.6826530099
0.19062473 -0.13288397 1.2666668 0.1324234009 0.6457226276 0.752001524
-0.014427382 -0.025540171 1.1243638 -0.1954560727 0.7827907801 0.5907922983
0.41550618 -0.33730644 1.067 0.3641106188 -0.2322453707 0.9019343257
-0.087817453 -0.17007683 1.268 -0.2084323913 0.6884617805 0.6946771145
0.29179588 -0.36291456 1.1930001 0.7077361345 -0.09894512594 0.6995136738
0.2664144 -0.42536986 1.2047499 0.6061182022 -0.1953027695 0.7710237503
0.16843309 -0.28988823 1.307 0.5065106153 -0.3824498653 0.7727736235
0.11523726 -0.46465436 1.2679999 0.1881500185 -0.2073446512 0.9600040317
0.06478145 0.0053712577 1.105909 -0.0522409454 0.7844136357 0.6180340648
0.014804836 0.057134528 1.0364708 0.002437184099 0.7162916064 0.6977968216
0.055033788 -0.022213621 1.1376365 -0.1063824818 0.7508682609 0.6518279314
-0.0012159366 -0.34775788 1.3870001 0.8279419541 -0.3160008788 0.4633094072
0.31734401 -0.21658157 1.1882728 0.7782220244 -0.1009793803 0.6198174357
0.29310143 -0.48151028 1.1680001 0.6382057667 -0.1780367047 0.7489968538
0.37139982 -0.17591305 1.1450001 0.746391058 -0.08596085012 0.659932673
0.3174769 -0.42499301 1.1569998 0.7132751942 -0.1284702867 0.6890093684
-0.024961658 -0.23743495 1.355875 -0.2828389406 0.7461234331 0.6027453542
-0.12502481 -0.083352208 1.1758573 -0.2360893786 0.7210612297 0.6514080763
0.33305004 -0.28419513 1.1610001 0.742577672 -0.06681768596 0.666418612
-0.3389281 0.22294509 1.47 0.6155471206 -0.3539839387 0.704128623
-0.26516625 0.024630828 1.317 0.3720810413 -0.421576798 0.8269393444
-0.12534468 -0.055921108 1.1438574 -0.2019417882 0.747874558 0.6323789954
0.39180371 -0.24781263 1.1068001 0.5808286071 -0.1571531147 0.7987120748
-0.22685504 -0.028728366 1.13 0.2119690776 0.3718109727 0.9037840962
0.32915589 -0.17850775 1.177 0.6797468066 -0.08689881861 0.7282807231
0.19274867 0.031840708 1.0746 0.2541559637 0.8978058696 0.3596516848
-0.13463846 -0.010578737 1.097 0.05041249469 0.602278173 0.7966929078
0.23381072 0.0075494144 1.0765001 0.06298187375 0.7716460824 0.6329262257
0.088699378 0.070780315 1.0220001 -0.0525810793 0.7580040097 0.6501269937
0.16608439 -0.47572285 1.2436666 0.4407592416 -0.3551522791 0.8243774176
0.24741726 -0.21548642 1.278 0.5221374035 -0.149454698 0.8396641016
-0.1333238 -0.20641193 1.3026251 -0.7004407644 0.2470564246 0.6695863008
0.11908683 0.19352022 1.0955 0.5312473774 -0.3410180807 0.7755532861
0.14541161 -0.4064106 1.2774737 0.336543709 -0.3987299204 0.8530842662
0.23018636 -0.49219573 1.21 0.3874836266 -0.3058258295 0.8696706295
-0.16870923 -0.4246819 2.2120001 -0.03285634145 0.7509054542 0.6595918536
0.23879874 -0.40552759 1.2270001 0.4819768071 -0.2201849669 0.8480665684
0.075044416 -0.16145921 1.2970001 -0.03556011617 0.6765364408 0.735550046
0.044610936 0.039315872 1.057 -0.02513113245 0.7963457704 0.604319334
0.1347712 0.0025075173 1.1128573 0.03436278552 0.8165100217 0.576307714
0.30499583 0.15130652 1.3590001 -0.1725277603 0.7879223228 -0.5911113024
-0.30168322 0.076303601 1.3460001 0.219798848 -0.479608953 0.8495079279
0.21510105 -0.055418719 1.184826 -0.05350995809 0.7904075384 0.6102398038
-0.32098654 0.17564981 1.4210001 0.4946544468 -0.4162705839 0.7629126906
0.3573564 -0.32532886 1.1183335 0.7515588999 -0.1369968504 0.6452837586
0.29048088 -0.18603832 1.2410001 0.8592487574 -0.0369838737 0.5102193952
-0.31497407 0.099271983 1.3980001 0.5398101211 -0.3361113071 0.7717733979
0.33360186 -0.38485163 1.1462002 0.7542995811 -0.09286236763 0.6499298215
0.23475368 -0.093930334 1.2262501 0.04759763554 0.7059726715 0.7066378593
0.29790011 0.19159549 1.4100001 -0.4256992042 0.7457230687 -0.5125204921
0.1453559 0.085016325 1.0428001 0.2426494062 -0.131141454 0.9612092376
0.13778816 -0.35506555 1.2970001 0.4004940987 -0.365316093 0.840326488
0.16325052 0.11414583 1.0314616 0.3596124053 -0.2793634236 0.8903005123
0.33159566 -0.088965893 1.2033334 0.5123761296 -0.05131691322 0.857226491
0.045090418 -0.46428028 1.2923332 0.4913550317 -0.2347858101 0.838716805
0.035408501 -0.20534009 1.336077 -0.09294941276 0.6734781265 0.7333400249
0.1348034 -0.080759905 1.219 -0.05263460055 0.7407167554 0.669752419
0.38241664 -0.42269713 1.0755713 0.6674515605 0.05737892166 0.74243927
0.15305428 0.14470398 1.0527368 0.3876594007 -0.4550545812 0.8016517162
-0.224178 -0.072412953 1.149 0.03898654133 0.5402904749 0.8405749202
0.24515811 -0.045327172 1.1750001 0.02729882114 0.7720565796 0.6349672079
-0.065359563 -0.07248798 1.1766365 -0.1433032155 0.7483836412 0.6476002336
-0.14784457 -0.21231815 1.268 -0.6418567896 0.2403938621 0.7281693816
0.34724969 -0.44481722 1.1178889 0.765506804 -0.02894605882 0.64277637
0.075545125 -0.12717329 1.2645714 -0.04991978779 0.7247311473 0.6872210503
0.19977392 -0.36643612 1.2590001 0.5417121053 -0.2142977417 0.8127880692
0.09402594 -0.033063643 1.1555455 -0.08392284065 0.7675255537 0.6355009675
0.26385942 -0.3544572 1.2229998 0.6751165986 -0.1674940437 0.7184451222
0.084883407 -0.4552058 1.2750589 0.4565674365 -0.2859837711 0.8424722552
0.28696877 -0.40563709 1.189 0.6789157987 -0.1219782755 0.7240129113
0.24695811 -0.28558841 1.2589999 0.5088045597 -0.2034863681 0.8364874721
-0.23222494 -0.15529984 1.2248183 0.02144348994 0.4580672383 0.8886588812
0.19495752 -0.010858393 1.126 -0.0145583814 0.7974560261 0.6032013893
-0.19450395 -0.014813143 1.1139582 0.2968583107 0.4107716084 0.8620567322
0.28501949 -0.29487729 1.2136668 0.7355497479 -0.1998909265 0.6473099589
0.035084203 -0.35434684 1.3340001 0.2104168534 -0.3610264063 0.9085068703
0.014674524 -0.15576309 1.2875001 -0.1231915057 0.6859802008 0.7171157598
-0.034244265 -0.17667381 1.2934999 -0.1361632049 0.7154967785 0.6852181554
0.32730785 -0.35524029 1.1569998 0.6723880768 -0.1101689637 0.7319542766
-0.18534136 -0.071517587 1.149 -0.01574063301 0.6470988989 0.7622435689
0.1931174 -0.30241844 1.2919999 0.5140489936 -0.2992754579 0.8038581014
0.29398397 -0.21542244 1.2238889 0.8252189159 -0.1226464435 0.5513362288
-0.0052117831 -0.071922608 1.189 -0.1276762784 0.7479290366 0.6513838768
-0.19540149 -0.12138627 1.194778 -0.02573339827 0.6906482577 0.722732842
0.27423796 -0.24493766 1.2429999 0.7826946974 -0.1688778251 0.5990570188
0.11271303 0.099707685 0.98900002 -0.01991283149 0.6771567464 0.7355692983
0.38899803 -0.36539379 1.0769999 0.6574843526 -0.1643518209 0.7353249788
-0.015053716 -0.15373334 1.2756922 -0.2732464373 0.6625028253 0.6974427104
0.26565492 -0.45463783 1.1951821 0.6055530906 -0.2292088717 0.7620818615
-0.015927179 -0.20431954 1.3255292 -0.2380302697 0.7096001506 0.6631811261
0.32296488 -0.14858449 1.177 0.515214324 -0.2453678101 0.8211874366
-0.065786034 -0.11590562 1.2259473 -0.1714758575 0.7042524815 0.6889299154
-0.19076441 -0.40657872 2.1980002 -0.03285634145 0.7509054542 0.6595918536
-0.1440455 0.023704259 1.0815384 0.1564991325 0.4538708925 0.8772167563
0.12513024 -0.11464892 1.2552941 -0.06562892348 0.7460388541 0.6626604199
0.37707418 -0.2953631 1.1066666 0.6614650488 -0.2100061476 0.7199732065
0.074836701 -0.3244206 1.3338335 0.2820602059 -0.2814108133 0.9171968102
-0.094749331 0.035102941 1.0620294 0.2313806117 0.4411689937 0.8670830131
-0.054400668 -0.23534204 1.3490001 -0.1288724542 0.6388694644 0.7584443092
0.07520441 -0.09454456 1.2255001 -0.04882217199 0.7639178634 0.6434639692
-0.035102226 0.035556447 1.0536877 0.02584703639 0.6170517206 0.7864980102
0.21682444 -0.42493433 1.2341177 0.5028207898 -0.250837028 0.8271952868
0.27580756 0.018970892 1.189 -0.4275849164 0.8270936608 -0.3648112714
0.21459021 -0.46492592 1.223222 0.4367908835 -0.3811433315 0.8148272634
0.30694988 -0.31508917 1.1858693 0.7701817155 -0.07562272996 0.6333256364
0.057139378 -0.48960605 1.2780001 0.4878908694 -0.2299369127 0.8420757055
0.35874888 -0.41586331 1.1063334 0.7832223177 -0.02518843487 0.6212312579
-0.11060026 -0.23400688 1.3280001 -0.2705554068 0.6842980385 0.6771528125
0.37160584 -0.36098853 1.1010001 0.7450407743 -0.1260789633 0.6549949646
0.4029468 -0.31415763 1.0812916 0.4479408264 -0.2208182961 0.8663650155
0.018576566 -0.46418682 1.3153334 0.7385582328 -0.143605575 0.6587178111
0.12483431 -0.012813108 1.1365716 -0.02090987377 0.7929139137 0.6089748144
0.2775737 0.044282187 1.2320001 -0.5853440166 0.6584795117 -0.4730508327
-0.0052128192 -0.10790332 1.2341819 -0.1670558304 0.760845542 0.6270617247
0.02453191 -0.11393613 1.2436666 -0.0279022567 0.7685286999 0.6392065883
-0.17603552 -0.091750316 1.1684287 -0.1388912797 0.6792410016 0.7206530571
0.24516386 -0.3748242 1.2333915 0.5308038592 -0.2232374102 0.8175648451
-0.1545881 -0.13431387 1.2143683 -0.1900841594 0.7304748893 0.6559530497
0.1652934 -0.14258701 1.278 0.0621678941 0.7014402151 0.7100117803
-0.13535897 -0.16485892 1.2553334 -0.2470122129 0.7205821276 0.6478784084
0.073312126 0.3681623 1.2120001 0.5271597505 -0.3900462091 0.7549612522
-0.10459194 -0.19466665 1.2939999 -0.0998673439 0.7561360002 0.6467494369
0.40054023 -0.40054023 1.0700001 0.5555015206 -0.08380215615 0.8272818327
0.30764601 -0.45589033 1.1569998 0.6856897473 -0.1308919042 0.7160285711
0.044862211 -0.091857895 1.218375 -0.09153669327 0.7496758699 0.6554442048
0.085492536 0.40288356 1.219 0.6336838603 -0.313749522 0.707111001
0.10121642 -0.36460918 1.312 0.09129253775 -0.2200113684 0.9712160826
0.31506348 -0.06132108 1.2060001 0.2620832622 0.3636474609 0.8939087987
0.19493191 -0.23519807 1.3141054 0.2581068277 0.1789496988 0.9493986964
0.35495499 -0.38491979 1.1165453 0.8049510121 -0.07143441588 0.5890254378
0.085221641 -0.056194164 1.1825999 -0.1336472332 0.7471184134 0.6511163116
0.094985276 -0.078702264 1.2113334 -0.1516611427 0.6963723898 0.7014729977
-0.094634667 -0.04269417 1.1362858 -0.09227287024 0.7660391331 0.6361365914
0.095048696 0.29720059 1.1658889 0.4740205705 -0.35754022 0.8046548963
0.26788566 -0.06274987 1.189 -0.2225632817 0.7876756191 0.5744847059
-0.22051498 -0.41956389 2.2260001 -0.03285634145 0.7509054542 0.6595918536
0.1344652 -0.13394311 1.275059 -0.008806353435 0.7137866616 0.7003078461
0.13454814 0.058181733 1.0370002 -0.08045922965 0.7515333891 0.6547700763
0.22051322 -0.33132389 1.2640001 0.5744960308 -0.2178654969 0.7889797091
-0.25910234 0.00114142 1.302 0.5722776055 -0.3439989388 0.7444213033
0.042556908 -0.4126614 1.3120002 0.4332889616 -0.240927726 0.8684552312
0.084697478 -0.41432476 1.2929091 0.2251446396 -0.3575596511 0.906344831
-0.094736107 -0.084356815 1.1842499 -0.162207976 0.7653744221 0.6228085756
0.30756304 -0.34627664 1.1763847 0.7683134675 -0.1015675962 0.6319639683
0.052152898 -0.37434193 1.322 0.3627479076 -0.3873969615 0.8475479484
0.2208674 -0.25031638 1.2920001 0.6460468769 -0.3212965131 0.692381382
-0.107567 -0.13015607 1.2270001 -0.2014942914 0.6926293373 0.6925782561
0.07452251 0.044277996 1.0523334 -0.05858607963 0.8121393323 0.5805147886
0.11575803 -0.15448703 1.2935385 -0.08654948324 0.7187944055 0.6898143291
-0.08025445 0.0084975297 1.077 0.07451532781 0.6172159314 0.7832573056
0.36210653 -0.22451234 1.1432859 0.6584609747 -0.2262930423 0.7177886963
-0.054572497 -0.1331569 1.245 -0.1995761991 0.7034685612 0.6821299791
0.3419964 -0.33423609 1.1444669 0.8289707303 -0.07263450325 0.5545554757
0.14519352 -0.047708202 1.183 -0.02451813594 0.7327619195 0.6800432205
0.035459414 -0.12964848 1.2640001 -0.05361503363 0.7487735748 0.6606538892
0.13593909 -0.31535971 1.3167617 0.2824833393 -0.2966445088 0.9122528434
-0.184101 -0.18581414 1.2415715 -0.3974362612 0.2289776206 0.888602078
-0.22397928 -0.10836593 1.1810001 -0.04141392559 0.6608172655 0.7494033575
-0.074525334 -0.22279596 1.3352224 -0.1241272986 0.7011011243 0.702174902
-0.2617256 -0.078685224 1.1556667 0.1749607921 0.5475313067 0.8182897568
0.24562359 -0.029313102 1.153 -0.04068337753 0.7791752815 0.6254844069
0.287406 -0.26607829 1.2162726 0.7401895523 -0.1602544338 0.6530221105
0.1723094 -0.3517555 1.2846668 0.4712919593 -0.3170590401 0.8230172992
0.0047106217 -0.38498637 1.3443335 0.5128551126 -0.1898229718 0.8372256756
-0.025236866 -0.13387752 1.2517002 -0.1810637712 0.6976357102 0.6931957006
0.10414513 0.34430152 1.1817619 0.3903976083 -0.4698243737 0.7917416096
0.34603575 -0.26489243 1.1474446 0.7766528726 -0.1819335669 0.603084147
-0.013697039 0.05163094 1.0416924 -0.0214340426 0.6781964302 0.7345680594
-0.10453584 -0.15479922 1.2534668 -0.1686434448 0.6831237078 0.7105641365
-0.27997664 0.084588692 1.3590001 0.1758599579 -0.5382493138 0.8242335916
0.22411047 -0.27418989 1.2760954 0.5903650522 -0.3061310649 0.7468285561
0.084041648 -0.11023644 1.245 -0.01974568702 0.7498261929 0.6613401175
0.16385101 0.062416438 1.0318668 0.2439613938 0.4389181137 0.8647738099
-0.020546436 0.084865719 1.0190001 0.1955227405 0.4403654337 0.8762699962
0.067292936 0.080574431 1.01 0.0325822942 0.6928576827 0.7203378081
0.1445659 -0.47479117 1.2588098 0.309207201 -0.3437961936 0.8866764307
-0.014699947 -0.095410928 1.2131765 -0.135646373 0.7664070725 0.627869606
0.3014839 0.13767876 1.3346667 -0.09121882915 0.8424023986 -0.5310719013
0.014239696 -0.19050403 1.317 -0.1047390848 0.7227088809 0.683170259
0.10862996 -0.48855934 1.2580001 0.2094494402 -0.4430845976 0.871669054
-0.03493429 0.0084975297 1.077 -0.06365101784 0.7273733616 0.683283627
0.11627781 0.03831384 1.066 0.01139988098 0.7951653004 0.6062855721
0.14471123 -0.26585573 1.3330001 0.4202259183 -0.3838940263 0.8222138286
0.031358365 0.070780315 1.0220001 0.05982492864 0.7169834375 0.6945183277
0.31502146 -0.2549012 1.1863332 0.7962955236 -0.1210738868 0.5926673412
0.18484621 -0.022291442 1.1470002 0.05575194582 0.8123001456 0.5805689096
0.14475308 -0.38517764 1.2919999 0.3574518561 -0.2811784744 0.8905991316
0.055861078 0.11110286 0.98899996 0.1467851102 0.470480442 0.8701162338
0.24456707 -0.31471837 1.2520458 0.5336619616 -0.2731990814 0.8003544211
0.01366838 0.0068693566 1.0956155 -0.1162719727 0.7637346983 0.6349725723
-0.29098058 0.0070115803 1.3330001 0.5151519775 -0.3092790246 0.7993528247
0.065383993 -0.18192251 1.3161666 0.03034876287 0.6828278899 0.7299486399
-0.15444413 -0.022340974 1.1079999 0.07429163158 0.5950649381 0.8002365232
0.28770351 -0.062585227 1.21 -0.381809026 0.4300836623 0.8180769682
0.11393816 -0.30286127 1.3330001 0.2042804062 -0.324613452 0.9235234857
0.1444698 -0.10426953 1.2424546 -0.006243414711 0.7378454804 0.6749408245
-0.013600168 -0.36483929 1.3490001 0.4566764235 -0.128809467 0.8802583218
-0.065564848 -0.024469724 1.1162399 -0.0609318614 0.7810958624 0.6214310527
0.1742375 -0.1084875 1.25 0.001943108626 0.7441885471 0.667966783
0.15459302 -0.027478993 1.1547142 0.04946123064 0.8111459017 0.5827485919
-0.30816382 0.19640751 1.427 0.5201838017 -0.3714931309 0.7690264583
0.18689716 -0.3881427 1.2589999 0.507383883 -0.2227404863 0.8324351311
-0.064533181 -0.20512553 1.3145001 -0.1380589902 0.732212007 0.666937232
0.016154725 -0.41466266 1.3270001 0.5272729397 -0.2552705705 0.8104444146
0.17543297 -0.43504548 1.2560804 0.39593032 -0.3264487386 0.858295083
-0.13571484 -0.10277637 1.189 -0.2860346138 0.6661220193 0.6888146996
0.024863321 -0.024271045 1.1344002 -0.1498425156 0.7547107339 0.6387166381
-0.064554229 -0.16602151 1.2758571 -0.1838737726 0.6699897051 0.7192386389
0.33751154 -0.30528703 1.1486667 0.7614983916 -0.01799998991 0.6479167938
0.30061367 0.085416555 1.2653333 -0.5910270214 0.6819338799 -0.4308749437
0.35429025 -0.17448348 1.162926 0.6939032674 -0.1006495804 0.7129992247
0.1451609 0.024152854 1.0834782 0.05418768898 0.812482357 0.5804619789
-0.045279246 -0.10299592 1.2153332 -0.1214937493 0.7136272192 0.6899096966
-0.013918114 -0.30406764 1.3838236 0.271099329 -0.2973478138 0.9154722691
0.18491212 -0.055065431 1.1849999 0.0905611515 0.7734341025 0.6273741722
0.16549732 0.032747298 1.0713999 -0.01438713353 0.7821717858 0.6228967309
0.18758914 0.010636597 1.103 -0.0841114223 0.7982584834 0.5964131951
-0.15065955 -0.18860343 1.273 -0.619271934 0.2079302222 0.7571441531
-0.054947052 0.05493946 1.0445836 0.2450181246 0.4181400239 0.8747142553
0.22318676 -0.36437395 1.2516668 0.4548856318 -0.2141335458 0.8644222617
-0.055505708 -0.054157987 1.1546667 -0.09854055196 0.8076727986 0.5813384652
0.25854719 -0.23592085 1.2589999 0.7352730036 -0.2301677167 0.6374922991
0.10555343 -0.045375798 1.1742309 -0.1015757546 0.7851263285 0.6109492779
0.36865607 -0.27644297 1.1190002 0.6301418543 -0.1998594999 0.7503182292
-0.0045575206 -0.03746314 1.1453078 -0.1249947548 0.7997714281 0.5871472955
0.12316991 0.26112393 1.1240001 0.5558306575 -0.3866364658 0.7359107137
0.31735331 -0.10478599 1.2155999 0.479665041 -0.1206430644 0.8691183329
0.055068694 -0.064424314 1.1852 -0.09477620572 0.7496369481 0.655028224
-0.20907184 -0.1490307 1.223 -0.0008482133853 0.580360055 0.8143595457
-0.016719129 -0.25625867 1.3870001 -0.01688258536 0.4985145628 0.8667169213
-0.17514718 -0.034118988 1.1171665 0.1061811373 0.579112649 0.808303237
0.24645217 -0.47530481 1.2048331 0.4777033925 -0.2609629035 0.8388670087
0.19362059 -0.091431953 1.2270001 0.03365148976 0.7279024124 0.6848545074
-0.2224752 -0.050879981 1.138 0.1481259763 0.449000448 0.8811681271
0.30483043 -0.41502997 1.1747335 0.706849277 -0.1341609508 0.6945250034
0.08554218 0.35491201 1.1962384 0.4620971084 -0.4289256036 0.776201725
-0.063422449 -0.25249314 1.365 -0.1510560066 0.760268867 0.6318016052
-0.15605943 -0.15871885 1.2410001 -0.1802861542 0.7114918232 0.6791732311
0.27003437 -0.020471919 1.1120001 0.2966779172 0.913103044 0.279687494
-0.034504145 -0.035115074 1.1329565 -0.09693311155 0.8058838844 0.5840848088
-0.24182674 -0.12195573 1.189 -0.06015413627 0.6652905345 0.7441571951
0.33990559 -0.10981565 1.1930001 0.5065274835 -0.2772162259 0.8164441586
0.34302914 -0.22489218 1.1617272 0.7080008388 -0.161429584 0.6875138879
-0.054317392 -0.00095293659 1.087 -0.0379627049 0.7180649638 0.694939971
0.2644912 -0.1997634 1.273 0.6991063952 -0.09391892701 0.708822608
-0.16021433 -0.23191866 1.2780001 -0.2401795238 0.5831130147 0.7760754228
0.28506306 -0.00100729 1.149 -0.7602323294 0.3331043422 0.5577529073
0.066819534 0.41644824 1.2360001 0.61328125 -0.2442661524 0.7511458993
-0.04524352 -0.19300686 1.3065835 -0.1577168107 0.6840351224 0.7121947408
0.12478109 -0.4153454 1.2842504 0.2753826082 -0.3338777125 0.9014932513
0.1913067 0.063426331 1.0314286 0.04850218073 0.4889068007 0.8709866405
0.46440277 -0.065884128 1.8330001 0.05174962804 0.7666134834 0.6400201321
0.18106271 -0.32377705 1.2919999 0.4348414838 -0.1599574834 0.8861864805
-0.27250978 -0.018571598 1.2970001 0.5447806716 -0.3931319714 0.7407167554
-0.077260628 -0.1512101 1.2590001 -0.2418410182 0.675594449 0.696480453
0.20804323 0.018291358 1.0610001 0.2792394459 0.6748795509 0.6830540895
0.015062886 0.024786584 1.0739166 -0.08913431317 0.7688372135 0.6332017779
0.017112095 0.10135625 1.001 0.2318034768 0.4379876852 0.868581593
0.33097315 -0.44393283 1.1436667 0.7033517957 -0.1167479381 0.7011891007
0.10466455 0.084896468 1.0050714 -0.02527602948 0.713270545 0.7004328966
0.096157931 0.011450143 1.1015713 -0.07656551898 0.794406116 0.6025418043
0.3184737 -0.16762042 1.1950001 0.7757515311 -0.02047105506 0.6307063103
-0.030508 -0.27457199 1.3920001 -0.1927154511 0.08871477097 0.9772361517
0.13643754 0.1535628 1.0663685 0.4808739722 -0.3975223899 0.7814961076
-0.0048567331 -0.010684813 1.108 -0.2355277538 0.7396140695 0.6304742098
0.15586315 -0.42568386 1.2669332 0.390917927 -0.330814898 0.8589206338
0.074775696 -0.37475401 1.3122383 0.278786391 -0.379268676 0.882288754
0.11685966 -0.278126 1.3330001 0.2319195271 -0.262829721 0.9365542531
0.03477386 -0.079031497 1.202 -0.08956674486 0.7716305256 0.6297333837
0.22506225 -0.019005256 1.141 -0.02554060332 0.7485160828 0.6626245975
0.035868816 -0.051241167 1.1689999 -0.08609579504 0.7535653114 0.6517106891
0.092934683 -0.39495486 1.3023334 0.3004898131 -0.3416190743 0.8905067444
0.044381574 -0.44457582 1.3042727 0.4596183002 -0.2725736201 0.8452541828
-0.10010657 -0.097999059 1.202 -0.203561902 0.711167872 0.6729062796
0.095007032 -0.33524975 1.3242109 0.365611881 -0.3498868644 0.8625004888
-0.31471103 0.15649027 1.4100001 0.5164160132 -0.3056357801 0.7999383211
0.18745588 -0.46602929 1.2360001 0.424330622 -0.3560314178 0.8325774074
-0.064874798 0.037838746 1.0562001 0.1601755917 0.5585557222 0.8138545752
-0.16204482 -0.059016325 1.141 -0.04323459789 0.6841312647 0.7280763388
-0.19683094 -0.16463539 1.2345002 -0.3431094289 0.3198647797 0.8831548095
0.087747321 -0.19050404 1.317 0.03200781345 0.639244318 0.7683373094
0.13523391 -0.4347685 1.2749048 0.3644737303 -0.2924053073 0.8841142654
0.2744863 -0.47479156 1.184652 0.6071779728 -0.2038327754 0.767975986
0.300897 0.10142814 1.2855 -0.6008156538 0.6359372735 -0.4843597412
0.3137911 0.23599413 1.4742001 -0.8017466664 0.4974283278 -0.3313115537
0.0051472611 -0.05766644 1.1746001 -0.08684905618 0.7687166929 0.6336654425
0.076037683 0.44349253 1.245 0.6452205777 -0.2985020578 0.7032687664
-0.28630617 0.029214917 1.3330001 0.4021321237 -0.42176193 0.812654078
0.20461614 0.044518299 1.0442225 -0.3204640746 0.4712429345 0.8217255473
0.0035057899 -0.43238077 1.3330001 0.5903773308 -0.06449309736 0.8045465946
0.093745835 0.037370764 1.0657501 -0.06507862359 0.8231680989 0.5640559196
0.17576224 -0.0017162942 1.1185 0.01686916314 0.7869058847 0.6168423891
-0.17535412 -0.13064714 1.2060002 -0.1055138335 0.7264400125 0.6790814996
-0.15219283 -0.089464709 1.1730001 -0.1257680804 0.7021779418 0.7008056641
0.020970451 -0.33196619 1.3540001 0.5187714696 -0.4116627276 0.7492729425
0.17404105 -0.4945581 1.234435 0.4052194655 -0.3550227284 0.8424702287
-0.10554669 0.0018242636 1.09 0.06005454808 0.6182352901 0.7836954594
0.091521367 0.31981063 1.1730001 0.3777997792 -0.3952789009 0.8372704983
0.20450455 -0.31449738 1.2759167 0.5637634397 -0.2101489007 0.7987541556
-0.32653812 0.23385431 1.455 0.6370543838 -0.324532032 0.6991714239
-0.095128238 -0.11500119 1.2163684 -0.2044719905 0.663177073 0.7199912071
-0.0056013661 0.066772126 1.0274782 0.0570400171 0.5712221861 0.8188111186
0.17488067 -0.07707683 1.2126666 0.05463928357 0.7370767593 0.6735966206
0.34466538 -0.1359026 1.1849998 0.3457406461 -0.4424333572 0.8274757862
0.069242932 -0.0082041388 1.123 -0.07864072174 0.7708336115 0.6321638823
0.28763697 0.12410355 1.3230001 -0.3407284617 0.7567797899 -0.5578427315
0.075525939 -0.47525737 1.2758949 0.4932841957 -0.2486162186 0.8335830569
0.37566981 -0.1959724 1.1366667 0.6435556412 -0.1684416234 0.746634841
0.27297279 -0.33430046 1.2229999 0.6426876187 -0.1609134227 0.7490390539
0.034883268 -0.16472824 1.2946666 -0.09558169544 0.6387976408 0.7634145021
-0.044306144 -0.06594608 1.1753334 -0.1088762209 0.7906457782 0.6025157571
0.19612153 -0.042912737 1.1685556 0.06036600843 0.7642028332 0.6421448588
