# .PCD v0.7 - Point Cloud Data file format
VERSION 0.7
FIELDS x y z normal_x normal_y normal_z
SIZE 4 4 4 4 4 4
TYPE F F F F F F
COUNT 1 1 1 1 1 1
WIDTH 512
HEIGHT 1
VIEWPOINT 0 0 0 1 0 0 0
POINTS 512
DATA ascii
-0.015150905 0.070970029 1.516 -0.2297507674 0.8092508316 0.5406733751
-0.43306106 -0.35267246 2.9580002 0.6985701323 0.6540532112 0.2901967466
0.46880099 0.00630674 2.398 -0.9182385802 -0.07241417468 0.3893509209
-0.46194109 0.024206519 2.3010001 -0.2717830241 0.8209595084 0.5021548271
0.46131384 -0.49584967 1.5755 0.7349027991 -0.01321833394 0.6780436039
-0.055575699 -0.41214058 1.883 0.7780115008 0.3120005131 0.5453015566
0.32128519 0.34559867 1.9810001 -0.2990375459 0.9248242378 0.2351100445
-0.34624475 0.32419616 1.863 0.5212489963 0.3677667081 0.7700955272
0.36201423 -0.075701915 1.6800001 -0.2773453891 -0.1548189521 0.9482144713
-0.28359619 -0.25632745 1.55525 -0.6542959809 0.7370223403 0.1693954617
-0.0073245498 0.45851684 1.6710001 0.5430366397 0.1983168721 -0.8159544468
-0.49417114 -0.1746437 2.6800001 -0.3505298793 0.7926055789 0.4989039898
0.036374655 -0.099634923 1.8040001 0.01845980436 0.7713167071 0.6361837387
0.19570003 -0.35509411 1.6857144 0.6610450149 -0.3477735221 0.6648857594
-0.047872137 0.22780535 1.8830001 0.4928797483 -0.6377105713 0.5919415355
0.24950548 0.16306263 2.2410002 -0.3064069152 0.7822593451 0.5423883796
0.24151289 -0.066310719 1.3956001 -0.2259915024 0.5760647058 0.7855426669
-0.30456889 0.035088584 1.6010001 -0.2920257449 0.4557918608 0.8408179283
-0.21386108 0.23045374 2.1030002 0.3176449239 0.9467630982 0.05235753208
-0.20499536 -0.17682806 1.7850001 -0.2139872611 0.6711277366 0.7097865939
0.17408407 0.24371772 1.8330001 0.1049724519 -0.2457518727 0.9636321068
0.19889754 0.061020091 1.5940002 -0.8129233122 -0.08659409732 0.5758967996
0.40500551 -0.29454947 1.6470002 0.2237379849 0.04165181145 0.9737589359
-0.20983718 -0.37740499 1.7220001 -0.1772485226 0.7202948332 0.6706402302
-0.11279807 -0.02783329 1.6710001 -0.05701370537 0.754014194 0.6543790698
0.34785783 -0.48730743 1.748 0.05140013993 0.8928453326 0.4474207163
0.0655545 -0.49547011 1.7390002 0.5836188197 -0.08858131617 0.8071817756
0.21641745 -0.17593649 1.7760001 0.5182377696 -0.2634906173 0.8136352301
-0.045166302 -0.22498728 1.9260004 0.0002575538529 0.4791913629 0.877710402
0.08709991 -0.29645929 1.8230001 0.7728738189 0.0236520227 0.6341187954
0.32177436 -0.1562141 1.5230001 -0.4596535563 0.7217732072 0.5174572468
-0.37198719 0.26289481 2.0400002 0.1680577546 0.9595682621 0.2257992327
0.055400074 -0.0014578967 1.6630001 -0.02556946315 0.8353970051 0.549052
-0.21592256 0.21756457 1.8730001 0.2967192233 0.582727313 0.7565623522
0.20463914 0.27264977 2.0780001 -0.6005938053 0.7311031818 0.3236899376
-0.013987694 0.30533877 1.7375455 -0.3347169459 -0.7203299403 -0.607527256
-0.17371887 0.0946339 1.5290002 0.5585012436 -0.3242103457 0.7635208368
0.38822743 0.089590952 2.2710001 -0.01559376717 0.8761231303 0.4818350971
-0.3107608 -0.1016232 1.6800001 0.04257536307 0.736874938 0.6746870279
0.1219268 0.12962744 1.4640001 -0.4892107844 0.1214892715 0.8636626601
0.27305272 0.35060617 1.8430001 -0.04172008485 -0.8407918811 0.5397484303
0.20537405 -0.49654484 1.7050002 0.08127236366 0.6734701991 0.7347331047
0.27554247 -0.23763716 1.6630001 0.4856969714 -0.8169625401 0.3109189868
0.31537157 -0.40489373 1.6320001 -0.04818576202 0.6593407393 0.7502985597
0.16355833 -0.05148175 1.7344286 0.006945658009 0.8074785471 0.5898560882
0.12694922 -0.005405819 1.4243335 0.3136042953 -0.2086228579 0.9263524413
-0.084702656 -0.14623195 1.8230001 -0.1250715107 0.7766038775 0.617449224
0.093268126 -0.18406011 1.8830001 0.5390654802 -0.4300169647 0.724219501
0.28264433 0.042914588 1.6880001 -0.7060278058 -0.1650094837 0.6886919141
-0.32631636 -0.31866834 2.9080002 0.6985701323 0.6540532112 0.2901967466
0.071397483 0.2474006 1.8940001 0.0898328796 -0.9628117681 0.2548009157
-0.21224889 -0.28444239 1.6470001 -0.2108336389 0.6103805304 0.7635344267
0.045297801 -0.40450147 1.8130001 0.7732067704 -0.6217777133 0.1246748269
-0.28277147 0.27708191 1.9470001 0.6677542925 0.7095228434 -0.2251257002
0.087750822 0.050730947 1.5640001 0.1691253632 0.9217637777 0.3489242494
-0.19465508 -0.0031283852 1.5860002 -0.1336604804 0.8210474253 0.5549919009
0.20530656 0.16984452 2.1290002 -0.4490559697 0.7537518144 0.4797988534
0.46270466 -0.39294302 1.6240001 -0.2794036865 -0.7142643332 0.641685307
-0.19780083 -0.092174195 1.705 -0.5129992366 0.5489966869 0.6598744988
-0.11390267 -0.30208969 1.8830001 0.5339741707 0.8224116564 0.1962412447
0.19500923 -0.28531289 1.7760001 0.6834388971 -0.464982599 0.5627632737
0.22146091 -0.12896994 1.4860001 0.2749519944 0.8472325206 0.4545310736
0.0048733898 -0.49871024 1.853 0.7302648425 0.02486981265 0.6827113628
0.01411784 0.16171344 1.4640001 0.2858884633 -0.0500927493 0.9569526911
-0.038085029 0.018337237 1.6090001 -0.003613171168 0.8690979481 0.4946268797
-0.0082099829 -0.31362137 1.8730001 0.02054165863 -0.4060909152 0.9136017561
-0.044211179 -0.073177122 1.7390002 -0.171680212 0.7339721322 0.6571231484
0.15908606 -0.10766431 1.8330001 -0.1142444611 0.7767572999 0.6193515658
0.27822551 -0.052596055 1.7390001 -0.3383049965 0.405304879 0.849280715
-0.087870054 0.14426427 1.4960001 0.458055228 -0.3808673024 0.8031970263
-0.49891713 -0.26974946 2.723 0.861068368 0.3585492373 0.3605602086
0.37638313 -0.49572834 1.6362002 0.7309648991 -0.4729710221 0.491923511
0.11472376 -0.4045682 1.7310002 0.4840434492 -0.3639576733 0.795761764
0.372877 -0.19732013 1.6550001 0.230600968 0.07379288226 0.9702462554
-0.49261302 -0.031310149 2.381 0.8384562731 0.3172548711 0.4431031644
-0.18554562 -0.22166955 1.8730001 -0.0601622276 0.8395122886 0.5399996638
-0.053061713 0.37438461 1.6813335 -0.7090902925 -0.5692058802 -0.4161678553
0.31596467 -0.30468023 1.6090001 0.2932933569 -0.1593804657 0.9426435828
-0.005582788 -0.15664646 1.8730001 -0.4565529823 0.7574109435 0.4667848051
-0.2956751 0.24746722 1.8330001 -0.3514629602 -0.5443760157 0.7616617084
-0.1088031 -0.27114424 1.9700001 0.460280627 -0.05960728601 0.8857701421
-0.10430769 0.036710419 1.551 -0.07205618173 0.8521288633 0.5183476806
0.0015893966 0.25907165 1.8130001 0.5371779203 -0.7261826992 -0.4290671051
-0.26528403 -0.043185767 1.6240003 -0.001800783561 0.729749918 0.6837117672
0.074701644 -0.052487161 1.7390002 -0.06201404706 0.7542138696 0.6536938548
0.27801728 -0.15993468 1.705 0.7141263485 0.002654387383 0.7000117898
0.1346446 -0.22365083 1.813 0.4112263322 -0.1542633623 0.8983850479
-0.1304103 0.19974236 1.8830001 -0.06697310507 0.1401879638 0.9878572226
-0.12437949 -0.10551078 1.7570001 -0.2292805612 0.7632539272 0.6040478945
0.1619689 -0.08410617 1.4234 0.3046438098 0.7813102007 0.5447444916
0.22846021 -0.0057474268 1.6390001 -0.6866921782 0.4094947278 0.6006396413
-0.40691623 -0.30581903 2.8830001 0.8293879628 0.4341543019 0.3516044021
0.13470629 0.011463404 1.6346251 0.2809684575 0.8645536304 0.4166578054
0.28249705 -0.46240309 1.6960001 -0.4333894253 0.7177705765 0.544957757
0.031547725 -0.24075897 1.8940001 0.4651824832 -0.6321361065 0.6196847558
0.29142505 -0.09841986 1.4580001 -0.4304383099 0.4701723456 0.770493865
-0.29132509 0.25101596 2.0900002 0.4799150825 0.86842978 0.1245441437
0.15146783 0.092489213 1.529 -0.4889262617 0.5968763828 0.6361522675
-0.10344579 -0.20853357 1.8730001 -0.2470884025 0.7871869206 0.5650522709
0.23679468 -0.41150296 1.6470001 0.2692273855 0.2975993454 0.9159427881
0.24611716 0.27648225 1.8230001 0.4060575366 0.3689552546 0.8360558152
0.05527484 0.094597526 1.4876156 0.128157109 0.8034146428 0.581464231
0.136234 -0.33708185 1.7760001 0.6337484121 -0.7692828178 0.08103623986
0.3886719 -0.36874002 1.6240001 0.2055271417 -0.3481834829 0.9146184325
-0.25248528 -0.13841252 1.7350001 -0.04290775955 0.8450714946 0.5329287648
0.36427426 -0.43588045 1.684 0.6699681282 0.5659494996 0.4804621339
-0.022092 -0.0279832 1.6800001 -0.1502124071 0.8773232102 0.4557853043
0.25557515 -0.23486407 1.7374002 0.4609659612 -0.2650451362 0.8469129205
-0.23583035 0.065813117 1.5640001 0.6250711679 -0.1316075772 0.7693929672
0.25307551 -0.31442714 1.655 0.7404843569 -0.128971085 0.6595827341
0.3047004 -0.025756175 1.6630001 0.695402205 0.7185987234 -0.005624812096
-0.28331766 -0.29185987 1.6240001 -0.4714401662 0.1493287534 0.8691634536
0.1797377 -0.027744746 1.376 0.1437609196 -0.3952378929 0.9072595239
0.13452451 -0.47531986 1.705 0.02952715382 0.05819854513 0.9978682399
0.41711801 -0.43797389 1.5860001 0.4265235364 -0.2296233475 0.8748432994
-0.18698117 -0.042594165 1.6470001 -0.3062493503 0.8308364749 0.4646741152
-0.086111456 -0.35288814 1.9260001 0.8425678015 0.07821501046 0.5328807831
0.34425387 -0.26514873 1.6710002 0.1132129654 -0.2479479164 0.9621354938
0.20776561 -0.28848031 1.705 0.6194517612 -0.5693252087 0.5405074954
0.1775776 -0.42322659 1.6880001 0.5643261075 0.03287415206 0.8248971701
-0.058567468 0.43700343 1.7130001 -0.957321763 0.2088308781 -0.1998117566
-0.14463377 -0.1829897 1.8230001 -0.2581914961 0.7900319099 0.5560455918
-0.17526321 -0.33432561 1.6800002 -0.1465814412 0.7322194576 0.6651079059
0.015193071 0.052482083 1.5755 -0.1230815277 0.8674535155 0.4820532203
0.11345162 -0.086849175 1.7850001 -0.05867611617 0.8799806237 0.4713716209
-0.3326323 -0.045260984 1.6390001 0.04956017807 0.5577705503 0.8285142183
0.02988206 -0.47339475 1.794 0.9099309444 0.1252928823 0.3953825831
-0.01454127 -0.37645733 1.8430002 -0.1271681935 -0.2739994526 0.9532851577
-0.082624078 0.077378109 1.4960001 0.0204035379 0.7173793912 0.6963838935
0.085631929 -0.12279294 1.8430001 -0.04334423319 0.8133080006 0.5802166462
0.044027735 -0.34414339 1.8430002 0.2635372579 -0.1218673736 0.9569203258
-0.12522745 0.0037486267 1.605 -0.2496252954 0.892693758 0.3752132952
0.11299883 -0.019328747 1.6960001 0.06561087072 0.8413287401 0.536526978
-0.03460028 -0.10851906 1.794 -0.1753902137 0.6927415729 0.6995337009
0.39356485 -0.13337022 1.6800002 0.01803525351 0.04086158797 0.9990020394
-0.19465506 0.11818343 1.5860001 0.5690762401 -0.6474568248 0.5069042444
0.078361288 -0.23508385 1.8430001 0.6014497876 -0.2546787262 0.7572297454
-0.036017541 0.11563466 1.4704117 0.1774206609 0.475369215 0.8617110848
-0.25635925 -0.32667494 1.6710001 0.2981072366 0.8019269109 0.5177309513
0.16525955 0.044153318 1.439 0.3423197567 -0.6027554274 0.7207655907
0.10663598 0.23266032 1.8430001 0.04301000386 -0.2676862776 0.9625456929
0.06486389 -0.434879 1.7570001 0.7783074975 -0.1310373545 0.6140575409
-0.05708573 -0.28476098 1.904 0.8054135442 -0.3876081109 0.4484071136
0.013135973 0.23808952 1.8730001 0.7972442508 -0.5160070062 -0.3132704794
0.01386273 -0.065206178 1.7570001 -0.03349916264 0.844099164 0.5351396203
-0.16502899 0.033817418 1.5430001 0.01089024078 0.7749547958 0.6319228411
0.085632801 -0.37574637 1.7760001 0.5220857263 -0.7271533012 0.4457292557
0.21297915 -0.12556234 1.8130001 0.6445184946 -0.4550430179 0.6144361496
-0.25513718 0.0041711801 1.5860002 0.1901821047 0.5328402519 0.8245677948
0.1398029 -0.16712072 1.8330001 0.5875914097 -0.6152665615 0.52553159
-0.0059563653 -0.43481469 1.853 0.07626730949 0.2566974163 0.9634779096
-0.14349279 -0.067262247 1.705 -0.1994174719 0.7640250921 0.6135945916
-0.060753874 -0.34317729 1.8730001 0.6597480178 -0.07835821062 0.7473905087
-0.25283065 -0.088858932 1.6799999 -0.160314545 0.6730770469 0.7219879031
-0.043815799 0.28636754 1.7850001 -0.3877441883 -0.7769466639 -0.4959922433
-0.17567028 -0.13331996 1.7479999 -0.5019473433 0.5573903918 0.6613356471
0.28509727 -0.35485888 1.6240003 0.267573297 0.2249044776 0.9369218349
0.24378668 0.051247891 1.6390001 -0.6290977597 -0.1478731036 0.7631313801
0.48382095 -0.45278868 1.6090001 -0.6318401694 -0.1380960643 0.7626975179
0.063761428 0.13723485 1.4450001 0.002840668196 0.13358666 0.9910330772
-0.12423243 -0.24342841 1.9150001 -0.2970024049 0.9431928992 0.1489187032
0.075084746 0.026917173 1.6160001 0.03435790166 0.820068419 0.5712331533
0.14391711 -0.28625271 1.804 0.05370312557 0.1102021113 0.9924572706
0.0050653801 -0.19586135 1.9260002 -0.1578494608 0.6715067029 0.7239905
0.14576219 -0.35476071 1.7220001 0.5869178772 -0.3574945331 0.726446867
0.2507214 0.33706254 1.8940001 0.2611005306 -0.9427443147 0.2075082064
0.18621714 -0.22377354 1.7850001 0.4642023146 0.02207114361 0.8854541779
0.34177375 -0.17777748 1.572 -0.3361069858 0.7854934931 0.5196461082
0.14332184 0.03958413 1.557 -0.001047863858 0.8419971466 0.5394809842
0.32508403 -0.18266328 1.6822859 0.6242851615 -0.3096607029 0.7172017097
0.17056865 -0.07667765 1.7850001 -0.2298814654 0.8601848483 0.455232352
0.21526812 -0.10323189 1.4360001 0.06940302998 0.8232259154 0.5634557009
-0.21194001 -0.26504147 1.5940002 0.1065657958 0.7649741173 0.635183692
0.016230257 0.016799739 1.6240002 0.003566771513 0.8584923148 0.512814045
0.028399616 -0.028399616 1.705 -0.1504387259 0.7952769399 0.5872842073
0.31566364 -0.08499793 1.7130001 0.8282151222 -0.1069592685 0.5501086116
-0.064974152 -0.012272894 1.6470001 -0.04699081928 0.8496586084 0.5252352953
0.36724618 -0.49213964 1.6960001 0.9443281889 0.3289783895 0.004186861217
-0.01547609 0.40576366 1.6550001 0.01969429664 0.01888813637 -0.9996275902
0.042463981 -0.29234818 1.863 0.5356761217 -0.2115712911 0.8174892664
-0.30705339 0.28406543 1.8730001 0.2167358994 -0.3407534957 0.9148292542
0.43316099 -0.34219718 1.6470001 -0.41196841 -0.6704102755 0.6171159744
0.10429703 0.075253062 1.5059999 0.02252307162 0.8587852716 0.5118403435
-0.044957221 0.044953715 1.554 -0.1593610346 0.872497797 0.4619000256
0.39058653 -0.42492381 1.6320001 0.6986922622 0.03985440359 0.7143113613
-0.054185886 -0.18554562 1.8730003 -0.3392938077 0.656103611 0.6740977168
-0.05311285 0.34143975 1.7310001 -0.6530578732 -0.5499836802 -0.5206086636
-0.12781011 0.1054104 1.503 0.4902793467 -0.1320254207 0.8615076542
-0.31084758 0.32115194 1.9590001 0.3423574567 0.9392472506 -0.02461720631
0.28463349 -0.14315702 1.4864285 -0.01072915737 0.7516336441 0.6594935656
-0.085198849 -0.05829395 1.705 -0.2497460842 0.7842672467 0.5679363608
0.2561115 -0.026884913 1.6848001 -0.2110407501 0.8558377028 0.4722326398
0.33458808 -0.35530433 1.6055712 0.2183742523 0.3953604996 0.8921898603
0.25512576 -0.49968421 1.7220001 -0.20597063 0.7926450968 0.5738378167
0.044830978 -0.16687086 1.8940001 0.04721327126 0.6394226551 0.7674044371
-0.26095298 -0.24684742 1.6090001 0.02746919356 0.6378815174 0.7696444392
0.36208788 -0.32616645 1.6390001 -0.7190746069 -0.4933916628 0.4893836081
0.30442396 -0.22470574 1.705 0.61096102 -0.3779194653 0.6956317425
-0.30268231 -0.12472687 1.7350001 0.1825508922 0.8462151289 0.5005947351
0.4066453 -0.49468198 1.594 0.5603070855 0.07087749243 0.8252468109
-0.16560952 0.2322453 1.8630002 -0.3934338987 -0.2646609843 0.8804341555
0.23702244 -0.46320453 1.6710001 -0.007983383723 0.449167341 0.893411994
0.044436481 0.068674557 1.536 0.1023167968 0.9166787267 0.3863047957
-0.12739193 -0.14311934 1.794 -0.4880101085 0.4766950011 0.7311689258
0.17495704 -0.31492957 1.7354445 0.7900470495 -0.4568715394 0.4087714255
0.25284821 -0.14864409 1.748 0.7677026987 -0.2833576798 0.5747529864
-0.016355094 0.33676624 1.6960001 -0.2036995441 -0.5819308162 -0.7873137593
0.28291261 0.30993235 1.8130001 -0.1508237422 -0.1280032247 0.9802384377
0.033929631 -0.13194855 1.8430001 -0.221360296 0.8605647683 0.4587242007
-0.30496234 -0.0149519 1.609 0.2947277427 0.4941867888 0.8178722262
-0.24612446 0.24612446 1.8430001 -0.005899844691 0.7373496294 0.6754855514
0.38525075 -0.24558915 1.6470001 0.2088986039 0.2293281257 0.9506681561
-0.033745531 -0.14783756 1.8330001 -0.1903666854 0.7742055655 0.6036275625
0.10401718 -0.34489906 1.813 0.5111048222 -0.4899049103 0.7062330246
0.47291738 -0.41560814 1.5780002 -0.1199345142 -0.4870187938 0.8651175499
0.24326478 -0.36320448 1.6550001 0.6146314144 -0.2005975544 0.7628819346
-0.075861476 -0.10527714 1.7659999 -0.1074876264 0.7827916145 0.6129304171
-0.19018143 -0.2045649 1.8230001 -0.4044829309 0.8364557624 0.3697774112
0.18175404 0.01271868 1.4039999 0.6013097763 -0.2159276903 0.7692865729
-0.13932775 0.13121158 1.5430001 0.5475622416 -0.6446864009 0.5334370732
-0.096294522 0.23495865 1.883 -0.3640557826 0.02060861327 0.9311491251
-0.014444179 -0.26618561 1.8830003 0.1153575405 -0.6509634852 0.7502927184
0.28333682 -0.4358868 1.655 -0.1252634376 0.6927332878 0.7102321386
0.24477234 0.28436786 2.0530002 -0.7109574676 0.6665377617 0.2242027074
-0.041244537 0.24800287 1.8330001 -0.6261606812 -0.5798588395 -0.5212355852
0.30356914 -0.26376203 1.6334002 0.005739238579 -0.5876133442 0.8091215491
0.30796248 -0.49515536 1.7220001 -0.1400258541 0.3581121564 0.9231188893
0.2453264 -0.25722101 1.6960001 0.6267130375 -0.7670463324 0.1373708546
0.1835753 -0.16291316 1.8130001 0.6252340674 -0.4134343266 0.6619323492
-0.29483351 0.020474549 1.557 -0.2721814513 0.5706622601 0.7747656703
0.19737318 0.283674 1.8230001 0.2950466871 0.3027250767 0.9062587619
0.015254308 0.11390736 1.4716469 0.07681718469 0.5878238678 0.8053336143
-0.082446992 0.0209611 1.5940001 -0.3226423562 0.8308314085 0.4534545839
-0.4863396 -0.25609186 2.6800001 0.861068368 0.3585492373 0.3605602086
-0.13511851 0.063286752 1.523 0.03160540015 0.5185008049 0.8544928432
0.33338407 -0.45502421 1.7130002 -0.007278840058 0.3368512094 0.9415297508
-0.23069045 -0.056584448 1.6550001 -0.2739412189 0.6602324843 0.6993206143
0.22139165 -0.24771094 1.766 0.705937922 -0.05208842456 0.7063557506
-0.069981672 -0.26115111 1.9470001 0.655195415 -0.4522913396 0.6051045656
-0.032502417 0.15991189 1.483 0.3188950717 -0.6976376772 0.641566515
0.19553173 -0.067217551 1.3940001 0.04191596806 0.6877400875 0.7247459292
0.11598475 0.032140352 1.5940001 0.2606108189 0.9126825333 0.3147897124
-0.16372928 -0.016393166 1.6160001 -0.2851857841 0.8471317887 0.4483712912
-0.0039397399 -0.24257541 1.9260001 0.1290182322 -0.7069398761 0.6954065561
-0.22709963 -0.023666006 1.6090001 -0.1131720841 0.7174039483 0.6874035597
0.12043734 -0.062505454 1.7390001 -0.006502490956 0.7679954767 0.640422225
0.13882455 0.2564171 1.863 0.2145549357 -0.02827161364 0.9763026834
0.095674433 -0.4556025 1.7323335 0.3749262691 -0.1458158791 0.9155151844
0.34758079 -0.117824 1.6800001 0.1586678773 0.3062863052 0.9386230111
0.0618576 0.1739745 1.4700001 -0.1337965727 -0.6297082305 0.7652228475
0.10717455 -0.19765358 1.8430001 0.662966609 -0.5535705686 0.504018724
-0.29670566 -0.066015191 1.6550001 -0.0002975792449 0.6521274447 0.7581092715
0.10512723 -0.25725517 1.813 0.5037243366 -0.2687826753 0.8209857941
0.06383536 -0.079404958 1.7760001 -0.03713673353 0.720782876 0.6921653748
-0.05420167 0.42419606 1.6710002 -0.6363631487 0.1086279675 -0.7637027502
-0.21612024 0.027299399 1.557 0.2590703964 0.5125390291 0.8186490536
0.32027438 -0.044439986 1.748 0.7370453477 0.265933454 0.6213240623
0.32374513 -0.42628881 1.6710001 -0.2535059452 0.8272208571 0.5014383197
-0.13300173 -0.2512255 1.8730001 -0.9116225243 0.1781496853 0.3704146743
-0.018158397 -0.4770706 1.8830001 0.743319571 0.3554738164 0.5666695833
0.25435781 -0.12483558 1.4580001 -0.1175237074 0.7575095296 0.6421584487
0.22322059 0.025037382 1.6090001 -0.6923170686 -0.1351031065 0.7088330388
0.14829518 -0.04779762 1.3980001 0.7855888009 0.141011253 0.6024666429
0.29445919 -0.026406661 1.705 -0.3869319558 0.8613270521 0.3292406201
-0.14392745 -0.21410426 1.853 -0.1382446438 0.7651252151 0.6288654804
0.25284821 -0.19308409 1.748 0.5470356345 -0.1248623803 0.827744782
0.013121069 -0.010205276 1.6630001 -0.1253833771 0.8490634561 0.5131961107
0.071917348 -0.37237206 1.8230001 0.7049148679 -0.5711035728 0.4206373394
-0.16237357 -0.095603131 1.7310001 -0.4734328389 0.630921483 0.6146538854
0.41713506 -0.39645934 1.6081113 0.4603990912 -0.3766625822 0.8038395047
0.33871803 -0.22354417 1.6630001 0.7139288187 0.2594105899 0.6503935456
0.20479444 -0.39542809 1.671 0.6976986527 -0.1020119861 0.7090910673
0.3224231 -0.12400888 1.4890001 -0.4508173168 0.5645285845 0.6914269328
0.35519201 -0.40717131 1.6470002 0.08832159638 0.7102723718 0.6983641386
0.27289143 0.02165805 1.6470001 -0.6747088432 -0.1926639676 0.7124946117
0.057776716 -0.20964694 1.8830001 0.6936643124 -0.4121458232 0.5907331705
-0.20243286 0.064634882 1.5360001 0.5800125003 -0.03199597448 0.8139789701
0.17742799 -0.46636796 1.6960001 0.3858134151 0.2530613542 0.8871910572
0.094814129 0.0062567703 1.6470002 -0.03992482275 0.8490592241 0.5267868638
0.25502595 -0.092752971 1.427 -0.3066999316 0.6095780134 0.7309923172
-0.16430925 -0.16117954 1.7850002 -0.483536005 0.6184680462 0.6194273233
0.0034966725 -0.12429081 1.8130001 -0.2881961167 0.7135784626 0.6385520697
0.32539892 -0.05493034 1.685091 0.8359794617 0.4719419777 0.2800163329
-0.0150962 -0.048307844 1.7220001 -0.1611695737 0.823197186 0.5443994403
-0.10178889 -0.17934233 1.8430001 -0.4530897141 0.5325899124 0.7148830295
0.17388536 -0.38513866 1.705 0.5618520379 -0.1220990121 0.8181772828
-0.15531182 0.0074590305 1.5762001 -0.1285769194 0.850353837 0.5102610588
0.26519078 -0.2748166 1.6470002 0.6925973296 -0.2506031096 0.6763926744
0.11399946 -0.14601077 1.8630002 0.4494920075 0.2973102331 0.8423559666
-0.20747632 -0.32548147 1.6550001 -0.02030042186 0.705024004 0.7088928819
0.23198704 -0.12455679 1.7760001 0.6753861308 -0.2605773509 0.6898934841
-0.27502784 -0.1165879 1.705 0.02844090015 0.8205631375 0.5708478093
0.2754786 -0.39457309 1.6366668 0.2899875045 0.2765416503 0.9162052274
-0.084948123 -0.22865483 1.9150002 -0.2580224276 0.8789736629 0.4010358453
0.11390939 -0.36420357 1.748 0.7172811627 -0.5339002609 0.4477256536
0.1910879 0.26621649 1.863 0.4161014259 -0.07111803442 0.9065328836
-0.085619651 -0.31225991 1.9150001 0.499630034 -0.4851084352 0.7176626325
-0.2152718 -0.12711 1.7220001 -0.1873371303 0.7166680098 0.6717824936
0.020776123 -0.44588757 1.8230001 0.8823248744 -0.2432146817 0.4029260278
0.10340897 -0.49515539 1.7220001 0.5538566709 -0.04126772657 0.8315886855
-0.0077409665 0.27712661 1.766 -0.1975302696 -0.8027119637 -0.5627036095
-0.152496 -0.026533719 1.6630001 -0.3123908937 0.7707226872 0.5553363562
-0.053607289 -0.37849995 1.853 0.6864432096 -0.06615727395 0.7241677642
0.13452451 -0.43496254 1.705 0.4645709991 -0.1790135056 0.8672531247
0.14819874 0.069509149 1.4960001 -0.3852607012 0.6233733296 0.68042624
-0.095750414 -0.084609538 1.7336668 -0.2282341272 0.8020742536 0.551893115
0.24611714 0.32282901 1.8230001 0.5493319631 -0.3891412914 0.7394616008
-0.045422353 0.46455717 1.6868572 -0.6275802255 0.546218276 -0.5547870398
0.074328177 -0.025138414 1.705 -0.04743655026 0.8242379427 0.5642530918
0.084707044 0.10823677 1.4640001 -0.04251194373 0.57632792 0.8161120415
0.45588186 -0.45634329 1.5790001 0.3473009467 -0.3066273034 0.8862063885
0.1377068 0.11147694 1.4960001 -0.608792901 0.4183208346 0.6740763187
0.0546888 0.045882981 1.5860001 -0.03960250318 0.8910804987 0.4521141052
0.02423545 -0.38615146 1.8430002 0.1140459776 -0.1019736975 0.9882281423
0.083187245 -0.10406314 1.8040001 -0.1594287008 0.8307979107 0.5332517028
-0.30376938 0.32347333 1.8730001 -0.4125438631 0.04543889314 0.9098037481
-0.024426563 -0.0034895095 1.6390001 -0.08035473526 0.7510163188 0.6553759575
-0.24430808 -0.28616503 1.6240003 0.1053443179 0.4454016685 0.8891118765
0.073420711 -0.14519942 1.8730001 0.003646838944 0.7525931001 0.6584757566
-0.17492025 -0.054870218 1.6824 -0.3419105113 0.6715357304 0.6573712826
0.0023472749 -0.094673425 1.7850001 -0.2193107903 0.7084480524 0.6708234549
-0.23361267 -0.16481246 1.7570001 0.03075885028 0.7051347494 0.7084058523
0.15096638 -0.022420749 1.705 -0.07224941254 0.7699201703 0.6340370178
-0.34702498 0.30053359 1.8940001 0.6497429609 0.5434158444 0.5315386653
-0.17870587 -0.35590997 1.7129999 -0.2453167737 0.7416975498 0.6242631078
-0.021585286 -0.18762596 1.8940001 -0.4536042809 0.7132815123 0.5342963934
-0.077744558 0.057638202 1.529 -0.2780271769 0.7814555764 0.5585947037
-0.074041113 0.11335706 1.4770001 0.319393754 0.0547754243 0.9460377097
-0.22466688 -0.34290987 1.686 -0.09013181925 0.752217412 0.652721405
0.16513769 -0.25478387 1.7940001 0.3432334065 -0.04665048793 0.9380909204
0.05063013 -0.25315064 1.863 0.5547572374 -0.5155888796 0.6530026793
-0.26278433 0.0417118 1.5860001 0.4707270265 0.02152307518 0.8820163608
0.15762348 -0.32210019 1.8040003 0.4707957804 -0.7560768127 0.4546417892
0.40149087 -0.46382537 1.6159999 0.81630373 -0.2223346084 0.5331186652
0.32802674 -0.086015902 1.6630001 0.6990899444 0.1395661086 0.7012806535
0.19018143 -0.087898985 1.8230001 0.08931920677 0.6862767339 0.7218353748
0.039121252 -0.43659315 1.7850001 0.8387336135 -0.2373757213 0.4900802374
0.22510695 -0.26921993 1.7350001 0.6087266803 -0.7628402114 0.2180059403
0.15182464 -0.1881993 1.8040001 0.2696673572 -0.4838154614 0.8325875998
0.364447 -0.15151167 1.557 -0.3240573108 0.7824498415 0.531750977
-0.2609635 -0.29012144 1.6630001 0.7161662579 0.5333094597 0.4502076209
0.025134908 0.087310739 1.5089999 0.03028647229 0.8544532061 0.5186448097
0.0048996899 -0.35114443 1.863 0.1151248813 -0.1431910545 0.982976377
-0.044590771 0.083279826 1.4960002 -0.02438900992 0.7520602942 0.6586428881
-0.2776491 0.26295003 1.863 -0.3022139966 -0.4009971619 0.8647935987
-0.26689327 0.22214471 1.8230001 0.008371331729 0.9295853376 0.3685119748
0.44432536 -0.36392361 1.6090001 -0.2392069995 -0.3436081409 0.9081373811
-0.011309877 0.22781323 1.8430001 0.2850811183 -0.9088128209 -0.3046111763
-0.015697751 0.37341979 1.6836364 -0.008172496222 -0.7048051953 -0.7093538046
0.2253384 -0.3137064 1.6800002 0.5013488531 -0.334246546 0.7980780602
0.11849728 0.057902079 1.536 0.02530916035 0.8511651158 0.5242874622
-0.07803911 -0.37027067 1.8940001 0.8235054016 -0.09930223227 0.558549881
0.34309858 -0.29436818 1.6348002 -0.7110204101 -0.5772787929 0.4014961421
0.27827331 -0.20430189 1.7220001 0.813795507 0.2054252923 0.5436334014
-0.10425287 -0.0046613463 1.6346251 -0.1089041308 0.8816819191 0.459104389
0.2083102 -0.43566424 1.6710001 0.358825326 0.1479236186 0.9216089249
0.11506776 -0.10707694 1.8230001 -0.1363622248 0.846550107 0.5145466924
0.28358173 -0.30435169 1.6337501 0.4835985899 -0.006997032557 0.8752619028
0.36997524 -0.45847911 1.6550001 0.8887410164 -0.02084364556 0.4579355121
0.094075099 0.1533553 1.47 -0.3661836982 -0.42997697 0.8252450228
-0.25286749 0.21838556 1.8730001 -0.06951611489 0.7491407394 0.6587531567
-0.061857596 -0.0279832 1.6800001 -0.1570596695 0.8144772053 0.5585330725
0.030365104 -0.49543065 1.8230001 0.8451012969 0.2380696833 0.4786717594
-0.095937133 -0.1247707 1.794 -0.1884133667 0.7614965439 0.6201801896
-0.030864803 -0.33788836 1.853 0.284267664 -0.3842307329 0.8783841133
0.19580789 -0.32435352 1.705 0.6563999057 -0.2506925762 0.7115423083
-0.07022889 0.20742022 1.863 0.3800548613 -0.5808156133 0.7198691368
-0.035196707 -0.41207218 1.853 0.7588188052 0.2601064146 0.5971086025
0.045328055 -0.19642152 1.9150001 0.5683950186 0.1769738495 0.8034969568
-0.0208559 0.040321406 1.5860001 -0.2587020993 0.8516917825 0.4557348788
0.055116385 -0.40543237 1.7760003 0.676938951 -0.4455793798 0.5858435631
0.37322158 -0.2850188 1.6630001 0.3932048082 0.02507144958 0.9191090465
0.1439171 -0.091727398 1.804 -0.1865675449 0.841569066 0.5069063306
-0.090464108 -0.29187477 1.9470001 0.5586214066 -0.5151410699 0.6500552297
0.21718277 -0.20640065 1.7570001 0.6437672973 -0.2543304861 0.7217199802
-0.09630359 0.1975884 1.8940001 -0.2430509925 -0.002096751938 0.9700112343
0.16399321 -0.14298916 1.8430001 0.5093366504 -0.587097168 0.6292003393
0.39614442 -0.33658081 1.6372501 0.2404974699 -0.3151310086 0.9180704951
-0.042363513 -0.30376941 1.8730001 0.3951929808 -0.2168823928 0.8926278949
0.1373004 -0.3960999 1.705 0.3790524006 -0.2038360983 0.902646184
0.16319238 -0.012042184 1.4210001 0.413928777 -0.2528515458 0.8744878769
0.13477172 -0.0073245498 1.6710001 -0.01985032856 0.8616637588 0.5070912242
0.051090378 -0.47219896 1.766 0.7251304984 -0.2242005318 0.6510913372
-0.20467748 0.09406545 1.5550001 0.5653961897 -0.5109692216 0.6474856138
0.21456856 0.25483325 1.8130001 -0.09781035036 0.5307979584 0.8418352604
0.084282734 -0.40608954 1.748 0.6619682908 -0.4475382268 0.6012549996
-0.14553016 -0.13314462 1.766 -0.4835334718 0.5543233752 0.677437067
0.0054107867 0.063576743 1.5430001 -0.1675716639 0.9018992782 0.3981173038
0.20625424 0.02906939 1.5790001 -0.8210111856 -0.2286764979 0.5231134892
0.077454031 -0.33520561 1.8329999 0.5904862881 -0.1353202313 0.7956219912
-0.12508367 0.21605362 1.853 -0.1464607418 0.163455531 0.9756185412
-0.2106104 -0.069221601 1.6800001 -0.3599337339 0.6669911742 0.6523576379
-0.045055028 -0.044627964 1.705 -0.2913888395 0.7853816152 0.5461394787
0.21186842 -0.03995233 1.381 -0.2140504122 0.1215821952 0.9692265987
0.29444692 0.00585964 1.6710001 -0.7672047615 -0.1528641284 0.6229200363
0.013913576 -0.28511041 1.8830003 0.2897855937 -0.3341646492 0.8968602419
0.31344777 -0.24638453 1.6630001 -0.534748137 -0.7110219002 0.4566095471
0.2873494 0.35795528 1.8730001 0.210696876 -0.9393119812 0.2707393467
-0.41654468 -0.3368355 2.9330001 0.772064805 0.5457251668 0.3257300258
0.12556235 -0.31628993 1.813 0.3657701015 -0.04245182499 0.9297365546
0.0253269 -0.22287673 1.9260002 0.50368011 -0.4912061393 0.7106496096
-0.23521598 -0.11270146 1.6960001 -0.1455562115 0.7778312564 0.6113852262
-0.066243567 -0.16601284 1.8430002 -0.18631275 0.6965619326 0.6928845644
0.35718468 -0.48839539 1.6630001 0.8348060846 -0.4007223248 0.3775187433
0.24463995 -0.28565744 1.6710002 0.7014633417 -0.20657897 0.6821101904
0.34570298 -0.32391649 1.6029999 -0.5150042772 -0.459890604 0.7233749032
-0.19168667 0.20630684 1.853 0.111715734 -0.0451717265 0.9927130342
-0.064209178 -0.12683684 1.8040001 -0.07281266153 0.7462633848 0.6616564393
-0.10411907 -0.24749614 1.9470001 -0.02136540227 0.846596241 0.5318067074
-0.023609946 -0.086311772 1.7659999 -0.3838009536 0.7049640417 0.596424818
0.44717014 -0.39826089 1.5940001 0.05786519498 -0.4819764793 0.8742712736
-0.058114234 -0.21087165 1.8940001 -0.4108844697 0.7551611662 0.510789156
0.18322422 -0.1910879 1.794 0.4655376971 -0.4215369225 0.77819103
-0.12540892 0.0206718 1.572 -0.1659050137 0.8498027325 0.5003107786
0.14398198 -0.07276509 1.7660002 -0.193540141 0.8317929506 0.5202525258
0.10340896 -0.036985688 1.7220001 0.183021456 0.7935427427 0.5803387761
0.29507479 -0.19474342 1.688 0.5267124772 0.1339358538 0.8394255042
-0.016616339 0.14571254 1.4580001 0.05983427167 -0.1433561444 0.9878607392
-0.031630132 0.26253009 1.8040001 -0.4640432298 -0.6781656742 -0.5698729753
0.1625603 -0.32047603 1.766 0.6209036708 -0.782507956 0.04647498205
0.034902729 -0.047042809 1.7310001 -0.06964455545 0.8241305947 0.5621017218
0.076753914 0.063288316 1.536 0.1468792558 0.8969418406 0.4170393348
-0.060959894 0.40441686 1.6960001 -0.9753013253 -0.06477504224 -0.2111669481
-0.044656523 -0.25551587 1.9150002 0.5080848336 -0.6435810328 0.5724100471
-0.26007107 -0.31179789 1.6390001 0.4566112161 0.7884754539 0.412083298
-0.04261506 0.3024129 1.7570001 -0.2839775085 -0.6932719946 -0.6623675227
0.34453702 -0.38724819 1.6240003 -0.1715480983 0.621421814 0.7644646168
-0.04955709 0.36792386 1.7130001 -0.6847889423 -0.5262178779 -0.5041416883
-0.26454437 -0.066257 1.6550001 -0.1002326831 0.5873261094 0.8031198382
0.43459344 -0.47511831 1.594 0.2342321277 0.07823040336 0.9690279961
0.025450949 -0.1486007 1.8730001 -0.08461088687 0.8246851563 0.5592274666
0.0029240339 -0.46557122 1.853 0.5943725109 0.07704889774 0.8004903197
-0.20585419 -0.15170892 1.748 -0.167189002 0.701190412 0.6930944324
0.11265079 0.099702425 1.4770001 -0.4001231492 0.6184783578 0.6763032079
0.24879538 0.34461153 1.863 0.4567545354 -0.8520337939 0.2557609379
0.16591355 -0.49475124 1.705 0.2366291434 0.01812233962 0.9714310169
0.094439782 -0.069668703 1.7660002 0.0764869079 0.8202046752 0.5669338703
-0.016194412 0.094191812 1.4864286 -0.1325498968 0.7718837261 0.6217926145
-0.075410865 0.02879324 1.5640001 -0.209634766 0.9109630585 0.355245769
-0.19611083 -0.022464707 1.6160001 -0.1643037796 0.8200845718 0.5481473804
0.016244633 -0.31677034 1.853 0.2262651473 -0.382910192 0.8956471682
-0.04406039 0.06008235 1.5230001 -0.01284876652 0.8449605703 0.5346742272
0.25573421 -0.48173183 1.6960001 -0.3521535695 0.7261947393 0.5904482007
-0.29902047 -0.035767999 1.6320001 0.189888671 0.5982230306 0.7785059214
0.2597993 -0.040546712 1.7130001 -0.2346682549 0.8927057385 0.3847171366
0.31463918 -0.37443486 1.6240003 0.2137770355 0.1883510947 0.9585526586
0.25970811 -0.0058035334 1.6550001 -0.2311834842 0.7590572238 0.6085937023
0.27054372 -0.24064939 1.705 0.7035033107 -0.6998966932 0.1234005839
-0.0048470898 -0.1405656 1.8430001 -0.3134533465 0.8434561491 0.4362668097
0.084927961 0.24335127 1.863 0.3940131068 -0.7053944468 0.5892133117
0.22135045 0.28597832 1.8430001 -0.06473512948 0.4628031254 0.8840942383
0.18720734 -0.12453707 1.8330001 0.5439472198 -0.3629353344 0.756570816
0.20507436 -0.46520531 1.6807274 0.4639047384 0.3336549401 0.8206502199
0.21640341 0.052677147 1.6240001 -0.73843503 -0.02114385739 0.6739930511
-0.32511094 -0.07629659 1.6630001 -0.01082399115 0.7030854821 0.7110229731
0.13482344 -0.25422722 1.804 0.4426015913 0.04953328893 0.8953492641
-0.28516415 0.0053101457 1.594 0.3094617426 0.4299910367 0.8481398225
0.055935722 -0.11453503 1.8230001 -0.1569128036 0.8773752451 0.4534215033
0.054933678 -0.31506082 1.8430003 0.3235273063 -0.1031708494 0.9405773878
-0.13413514 -0.012914067 1.6363751 -0.2069146186 0.9002090693 0.3831578791
-0.034297831 -0.44260532 1.863 0.8084728122 0.3814363182 0.4481942356
0.10535429 0.024203014 1.6240001 0.06265795231 0.9053961635 0.4199187756
0.17396574 -0.29574177 1.804 0.642511189 -0.09356625378 0.7605423927
-0.12426399 0.13356717 1.516 0.5727558732 -0.576331079 0.5829178691
-0.32337955 0.25968358 1.863 0.3149178028 -0.3722437024 0.8730758429
0.054841023 0.015333574 1.6363078 -0.03321989998 0.8761053085 0.480973959
0.14762242 0.023230789 1.4246 0.4462210238 -0.4599681497 0.7676692605
0.33573443 -0.19383803 1.655 0.6008230448 0.05059176683 0.7977795005
-0.13499685 -0.045496896 1.6847999 -0.05535313487 0.7098349333 0.7021897435
0.11423405 -0.35678577 1.7850001 0.5855998993 -0.7850283384 0.2019982636
-0.13436787 0.037424605 1.5430001 -0.1272719502 0.7968329191 0.5906429887
0.082641438 -0.21199325 1.8630002 0.5993130207 -0.5818952322 0.5497470498
0.044920396 0.1171139 1.464 0.1551916599 0.5371032357 0.8291174173
-0.24192843 -0.25444198 1.5860001 0.266392678 0.9559109807 0.1235682443
-0.1049931 0.070438415 1.516 0.07314393669 0.5650606751 0.8218007088
0.37355205 -0.10400861 1.6710001 -0.1576603353 0.04661105201 0.9863927364
0.044668797 -0.064692743 1.7570001 0.01570659131 0.8190717101 0.5734760761
0.25294521 0.026101289 1.6240001 -0.6988583803 -0.1698368043 0.6948038936
-0.026533719 0.43474478 1.6630001 0.06990613043 0.2837556601 -0.9563450813
-0.0048470898 -0.40553987 1.8430002 -0.2212230712 -0.07469489425 0.9723584652
0.0057701226 0.034152884 1.601 -0.123266384 0.7601502538 0.6379474998
0.19707204 -0.2882629 1.7336668 0.6435563564 -0.7556660771 0.1216716692
0.10579841 -0.22534104 1.8230002 0.6913192868 -0.2516803145 0.6772994995
0.13483046 -0.12601194 1.8529999 0.07375594229 0.4827760756 0.8726323843
0.075937748 -0.27628413 1.8430002 0.5999799967 -0.1462450325 0.7865344286
0.2068153 -0.14862393 1.794 0.5660150051 -0.5919327736 0.5737966299
0.31450593 -0.33433962 1.6159997 0.4251770079 0.04496763274 0.9039924741
-0.066059992 0.0076880166 1.6240003 -0.2925207019 0.658878386 0.6930446625
0.22559613 -0.34425387 1.6710001 0.2498857975 -0.1140859574 0.9615308046
0.014943659 -0.17268229 1.8940001 -0.02045253664 0.6987711787 0.7150527835
0.13483045 0.22709997 1.853 0.1260704696 -0.1656083465 0.9781002402
-0.1747565 -0.18661778 1.8040001 -0.4309003353 0.7264861465 0.535296917
0.044291478 0.029057467 1.609 -0.1231446937 0.7748262286 0.6200643182
0.36180559 -0.47754312 1.7220001 0.5276713371 0.6030658484 0.5982261896
-0.062152162 0.1411372 1.4770001 0.4772439003 -0.3092791736 0.8225476742
0.14787877 -0.32777253 1.7390001 0.5113794804 -0.7031317949 0.49406147
0.36220124 -0.3456732 1.6160001 -0.8297595978 -0.04626198858 0.5562003851
-0.05422534 0.029198259 1.5860001 -0.1747916937 0.9104992747 0.3747518063
-0.17265512 -0.31774345 1.6550001 -0.220823884 0.7185667753 0.659468472
0.26607454 -0.3352648 1.6366668 0.6395431757 -0.1441776007 0.7551140785
0.20663384 -0.11486788 1.4640001 0.2735376954 0.8437613249 0.4617834389
-0.10288584 0.11451537 1.4890002 0.3909183741 -0.1859333366 0.9014497399
0.073983647 0.081467755 1.5070001 0.110328652 0.8594645262 0.499147594
-0.22412609 0.0076080426 1.5781252 0.1605361849 0.6889221072 0.7068340778
-0.33236229 0.29643124 1.863 0.3133400083 0.2058055252 0.9270718098
0.21428111 -0.084402964 1.4128572 -0.02345064096 0.7830002308 0.6215792298
-0.13354087 -0.088015579 1.7310001 -0.1966376752 0.7388504148 0.644541502
-0.18470764 0.014298683 1.5640001 -0.01795776375 0.7546033263 0.6559355259
-0.2741282 0.23514107 1.8529999 -0.2897846103 0.002532658866 0.9570885301
0.41572234 -0.35450295 1.6240004 0.07985509932 -0.446234256 0.8913462758
-0.18568325 -0.1132215 1.7220001 -0.3878312111 0.5195046663 0.7613815665
-0.24405698 0.034277666 1.5640001 0.5104977489 0.1680487543 0.8432980776
