# .PCD v0.7 - Point Cloud Data file format
VERSION 0.7
FIELDS x y z normal_x normal_y normal_z
SIZE 4 4 4 4 4 4
TYPE F F F F F F
COUNT 1 1 1 1 1 1
WIDTH 512
HEIGHT 1
VIEWPOINT 0 0 0 1 0 0 0
POINTS 512
DATA ascii
-0.033691924 0.15470074 1.4864286 0.2319195122 -0.4506012499 0.8620741367
-0.23282163 -0.35838833 2.9840002 0.07302286476 0.8649475574 0.4965213239
-0.37775216 0.06526608 2.256 -0.4266011119 0.8424279094 0.3291302025
0.47273374 -0.4991512 1.5860001 0.3705572188 0.09400480241 0.9240402579
0.29296446 0.16065793 2.1560001 -0.379880935 0.8730867505 0.3056305647
-0.052043315 -0.36094558 1.9150001 0.901989758 0.2224885374 0.3700179756
0.34268373 -0.049817462 1.7220001 0.8961663246 0.2166779786 0.387216419
-0.28690407 0.32283512 1.863 -0.240957737 -0.07211171836 0.9678528905
-0.48485976 -0.14685658 2.6590002 0.1829811335 0.8539299965 0.4871565402
-0.30182582 -0.090696424 1.6960001 0.4817536175 0.592061758 0.6460466981
0.30357477 0.3321839 1.8130001 -0.3293187618 0.4217586219 -0.844789207
-0.0044300891 0.47400782 1.6826668 0.1215582117 0.1585303545 0.9798427224
0.23544893 -0.055830188 1.3843753 0.3043957055 -0.5452358723 -0.7810640931
0.20477617 -0.35424787 1.705 0.5321753621 -0.3157710433 0.7855431437
0.014553018 -0.068430148 1.766 -0.1910318434 0.6949941516 0.6931738257
0.034733534 0.33170524 1.9810001 -0.5869618058 0.2012462914 0.7842039466
-0.18897338 -0.35011348 1.6710001 -0.147614643 0.6625240445 0.7343512774
-0.19358115 0.23414101 2.1030002 0.3544469476 0.9306672215 0.09069640934
0.42099899 -0.2686922 1.6390001 0.7839879394 0.1497621685 0.6024401784
0.15371473 0.032140352 1.5940001 0.2306918353 0.903429985 0.3613800406
0.057899449 -0.49605748 1.7850002 0.8673065305 0.07724731416 0.491744101
-0.15715273 -0.19124687 1.8230001 -0.150931567 0.7569619417 0.6357895136
-0.096877806 0.1970396 1.8730001 -0.1866608709 -0.2898928821 0.9386798143
-0.21240114 0.071415603 1.5766667 0.696667552 -0.3438657522 0.6296115518
0.1917796 -0.17100348 1.8230001 0.5761719942 -0.3956875503 0.7151623368
-0.38849044 -0.33334985 2.8590002 0.07302286476 0.8649475574 0.4965213239
0.1347491 0.22587439 1.8430001 0.1477882266 0.4856408238 -0.861575067
0.36591262 -0.1348561 1.5068181 0.6906558275 -0.1248628199 -0.7123228312
0.30757323 0.30757323 2.0280001 -0.2557982206 0.935023129 0.2455585748
0.33463243 -0.49733597 1.7220001 -0.1130591184 0.6903479099 0.7145889997
0.026021658 -0.18886688 1.9150001 -0.1968530118 0.7817467451 0.5917101502
-0.038085029 0.018337237 1.6090001 -0.1818166226 0.8838424087 0.4310050607
-0.0042358343 0.30690545 1.7570001 -0.05724076182 0.8457040191 0.5305734873
0.10178889 -0.3344492 1.8430001 0.4287034273 -0.1171803623 0.8958137035
0.13761736 0.13506103 1.4580001 -0.1602211446 0.2482168972 0.9553624988
-0.45295349 -0.022960776 2.381 -0.3586877882 0.8355845809 0.416102767
-0.13452449 -0.070251681 1.705 0.003066140227 0.7783749104 0.6277922392
0.017965529 0.43607241 1.863 -0.9807850122 0.1067035198 0.1633252203
-0.49389473 -0.23472223 2.789 0.07307612151 0.865034461 0.4963620603
0.30386496 -0.20595528 1.7220001 0.6721367836 0.07868795097 0.7362338901
0.18473487 -0.043830529 1.7358001 -0.08810461313 0.8526955247 0.5149251819
0.32659832 -0.38383129 1.6240003 0.4563082755 0.1919188052 0.8688785434
-0.48862067 -0.055273835 2.5220001 0.1551830918 0.8527128696 0.4987975359
-0.076893605 -0.37208247 1.7660002 -0.5777408481 0.4364338219 0.6897398233
-0.32012358 0.27004841 2.0400002 0.1115910187 0.971583128 0.2087431252
0.18683958 -0.49475119 1.705 0.2761801183 0.120698221 0.9534969926
0.28251722 0.051498026 1.647 -0.6954345107 -0.08779782057 0.7132057548
0.16291681 0.28726324 1.9700001 -0.3237712383 0.8971271515 -0.3005578518
-0.096095823 0.2568379 1.9930001 -0.07638518512 0.9547530413 -0.2874229252
-0.24367127 -0.24650465 1.6160001 0.2205574512 -0.4752859771 0.8517380357
-0.092865296 -0.23807286 1.9260001 -0.2633188665 0.8267686963 0.4971083403
-0.22014941 0.21693555 1.8330001 -0.307813257 0.8562266231 -0.4148818851
0.41310462 -0.14209627 1.6710001 -0.05957426131 -0.2020244449 0.9775668979
0.46971536 -0.37802917 1.6090001 0.3339690268 -0.7508075237 0.5698708296
0.064456038 -0.0073245498 1.6710001 -0.1344259828 0.7978228927 0.5877144933
0.043089919 0.071367681 1.536 -0.1151882634 0.9131262898 0.3910652101
-0.22494566 -0.037016373 1.6240003 0.02387841418 0.7809478045 0.6241396666
0.20311065 -0.28670457 1.804 0.77354002 0.003363010474 0.6337385774
-0.10477506 0.063740179 1.5238571 0.1781869233 0.5864896178 0.7901135087
0.25467983 -0.1305719 1.4746667 0.1169225648 -0.8349758983 -0.5377215147
0.10777973 -0.39893827 1.748 0.638420105 -0.4988774955 0.5861237049
-0.046346735 -0.14703102 1.8230001 -0.1746526957 0.7484187484 0.6398169994
0.01454127 0.2338721 1.8430002 -0.1540694833 0.8080157042 0.5686591268
0.085631914 -0.12387007 1.8430001 -0.08610864729 0.828486383 0.5533494949
0.17545812 0.027219037 1.4330001 -0.7120246291 0.4321094155 -0.5534459352
0.0049522901 -0.47597012 1.883 0.7517961264 0.4445593953 0.487000525
0.27866691 -0.28444239 1.647 0.4597234428 -0.2272957861 0.8584817648
0.25710881 0.18788719 2.256 -0.1323318183 0.9294310808 0.3444505632
-0.21607028 -0.13944961 1.748 -0.05298224837 0.7798823118 0.6236797571
0.22719693 0.26933831 2.0900002 -0.1437666118 0.9202178717 0.3640469611
-0.2931819 -0.29570931 2.8830001 0.07302286476 0.8649475574 0.4965213239
0.10559011 -0.22580041 1.853 0.5842090845 -0.2969845235 0.7553144693
0.40189469 -0.45412648 1.6550001 0.899689436 -0.04092087597 0.4346083999
0.01485687 -0.28558207 1.8830003 0.2865467072 -0.2541883588 0.9237311482
0.22458184 0.26658994 1.8430001 -0.1904026717 0.7867944241 -0.5871126652
0.012313075 0.37724486 1.6853334 0.1533778906 0.6219292879 0.7679057121
0.22655666 0.095513709 1.5790001 -0.756870091 -0.1663753092 0.6320339441
-0.13624714 0.0034935167 1.5940001 -0.2205513567 0.8460382819 0.4853620827
0.021118023 -0.38499781 1.853 0.2930575609 -0.0471255295 0.9549326897
0.26221889 -0.44826245 1.6710001 0.2472094595 0.4357253909 0.8654657006
-0.035919104 -0.033766646 1.6879998 -0.1714673638 0.8006153107 0.5741202235
0.26468319 -0.13856944 1.7760001 0.5121412277 -0.6492804885 0.5622688532
0.055061854 0.17240474 1.4742001 0.2296952754 -0.7334189415 0.6397942901
0.10505597 -0.074092112 1.7659999 0.06811906397 0.7810608745 0.6207283735
-0.44401237 -0.19574739 2.723 0.07307612151 0.865034461 0.4963620603
0.175743 0.073810197 1.5072857 -0.9313526154 -0.2577215731 -0.2572194934
-0.038310334 0.42754331 1.748 -0.7344762087 0.1526834518 0.6612355709
0.27230668 0.33540213 1.8940001 -0.7440510988 0.6345771551 -0.2090447694
0.20503217 -0.08582741 1.8130001 -0.004661415704 0.7456651926 0.6663044691
-0.12850004 -0.13159643 1.766 -0.4661071897 0.521718502 0.7145305276
-0.30613637 -0.015959717 1.6550001 0.623616159 0.292919755 0.7247764468
0.35588095 -0.20374548 1.655 0.5348845124 0.2258377969 0.8141841292
0.2415392 -0.27173162 1.7220001 0.6641905904 -0.7324976325 0.1493255943
-0.42723677 0.025051916 2.3170002 -0.357987076 0.8324101567 0.4230113626
0.15479214 -0.00146491 1.6710001 0.02592339739 0.8199645877 0.5718269348
0.35310936 -0.30703118 1.6090001 -0.2404539734 -0.3713417649 0.8968206048
0.2262326 0.0095977467 1.5640001 -0.8609200716 -0.0019846051 0.5087363124
-0.065884128 -0.41619486 1.8330001 -0.5836571455 0.5803208351 0.5679543614
-0.11733525 -0.33406919 1.705 -0.6687931418 -0.04109149054 0.7423120737
0.074511699 0.035142351 1.6036668 0.0007731979713 0.769032836 0.6392088532
-0.065893769 -0.086581357 1.748 -0.07190112025 0.7821749449 0.6188963056
0.27686799 -0.02343856 1.6710001 -0.4277824461 0.6894167066 0.5845569372
0.11505933 -0.47484824 1.732231 0.3075065315 0.0206566304 0.9513217211
0.15413904 -0.34305021 1.7760001 0.5191047192 -0.8510232568 0.07930752635
0.23510097 -0.21486048 1.7760004 0.5225827694 -0.009272945113 0.8525381684
-0.22457276 -0.096039414 1.6853334 -0.1331330538 0.6890263557 0.7124031782
-0.26841342 -0.30758727 1.6550001 0.1683122516 0.6361502409 0.7529832721
-0.15927367 0.24137351 1.8730001 -0.09313712269 0.4863537848 0.8687838912
0.40341726 -0.37627253 1.6470001 0.2760798633 0.03634348139 0.9604473114
-0.042919844 -0.19974236 1.8830001 -0.3093180358 0.7471704483 0.5882675648
-0.024376154 0.081034243 1.503 -0.1651689708 0.7287665606 0.6645438671
0.29148379 -0.085068226 1.427 0.3785214722 -0.5460845232 -0.7473374009
-0.26508823 0.28872666 1.9260001 -0.9177609086 0.2148072124 0.3340250552
-0.038189352 0.24407978 1.8940001 0.3201189339 -0.4142662585 0.852001965
-0.18170144 -0.28757471 1.6320001 -0.1044979021 0.6012021303 0.7922349572
0.1668735 -0.066749394 1.4100001 -0.4635418952 -0.5331955552 -0.7076944113
-0.26311836 0.023218079 1.605 0.6302338839 0.01787703298 0.7761995196
0.06167876 -0.42226228 1.8040001 0.8615765572 -0.4800634682 0.1649995744
0.25448495 -0.37548867 1.655 0.6441267729 -0.1063979641 0.7574827671
-0.10351067 -0.018952657 1.6630001 -0.03990772367 0.7896525264 0.6122550368
0.10181957 -0.17359403 1.904 0.4973555505 0.03032374568 0.8670166731
-0.28581524 0.24988419 1.863 0.691424489 0.6916361451 0.2087381482
0.33579838 -0.43742159 1.6800001 -0.249847725 0.7511200905 0.6110603213
0.077690199 0.099702425 1.4770001 0.1247654036 0.7531425357 0.6459178925
0.16519029 -0.42498958 1.7129999 0.4341832995 -0.1255173087 0.8920371532
-0.01527504 -0.24270339 1.9360002 0.08381903917 -0.5573478341 0.8260374069
0.11443814 0.061953507 1.5430001 0.08320964128 0.9100216627 0.4061240554
0.021118023 -0.15107509 1.853 -0.2465468347 0.7908237576 0.5601896048
-0.16239513 0.10206924 1.536 0.5728691816 -0.2574098706 0.7781780362
-0.094360895 0.13245964 1.5160002 0.5433583856 -0.5305227637 0.6506206989
-0.14404684 -0.38157091 1.748 -0.1656724513 0.7170103192 0.6770884991
0.13600694 -0.27451152 1.813 0.404263109 0.0247220844 0.914308548
-0.058887016 -0.29443508 1.9470001 0.7502260208 -0.4276539087 0.5042549372
0.34531021 -0.037722968 1.6550001 0.6254320145 0.5356337428 -0.5673898458
-0.03032127 0.42305392 1.6470001 -0.4402080774 0.03477993608 0.8972219229
0.45122471 -0.32644874 1.6550001 -0.2836820781 -0.3269707859 0.9014513493
-0.10615995 -0.20742022 1.863 -0.2971597314 0.8140888214 0.4989544153
0.15107509 -0.1283326 1.853 -0.0624906905 0.4789357781 0.8756228685
0.49358961 -0.43519312 1.5860002 -0.01150843408 -0.3643559217 0.931188643
-0.39609113 0.083280705 2.3170002 -0.3844005167 0.8292520642 0.4056812823
0.10962629 -0.02853287 1.7130001 -0.03891353682 0.7972102761 0.6024462581
0.38464949 -0.085231975 1.683077 -0.4110761881 -0.4085041583 0.8149482608
-0.16460118 -0.036818683 1.6470001 -0.4750935137 0.8130479455 0.3365102708
0.36107242 -0.26873896 1.6630001 -0.4058685601 -0.393211931 0.8250182271
0.30372337 -0.15494557 1.5085 -0.01134558301 -0.8044559956 -0.5939038992
0.21733356 -0.099244803 1.4330001 -0.01503868029 -0.7950772047 -0.6063218117
-0.044841498 0.042123836 1.5500001 -0.1092564687 0.845073998 0.5233669281
-0.16502899 0.039228205 1.5430001 0.1628272384 0.6532081366 0.7394636273
0.24487755 0.0064066797 1.6240001 -0.5612037182 0.5321013331 0.6339704394
0.26655707 -0.49482006 1.7130001 -0.2630727589 0.8084365129 0.5265197754
-0.028062977 -0.41599238 1.8830001 0.7402274609 0.5604505539 0.3714277148
0.015294327 0.04263873 1.5860001 -0.1414949298 0.8793919086 0.4545866847
0.034539789 -0.042048439 1.7130002 -0.02811744437 0.8370001912 0.5464797616
0.061435048 -0.24075897 1.8940001 0.4902055562 -0.4735764563 0.7317266464
0.01423356 0.45389238 1.8040003 -0.09906433523 0.9912339449 0.08741589636
0.015951326 0.12614383 1.4640001 0.08379730582 0.2913402617 0.9529421926
0.43382949 -0.44491342 1.6033528 0.5161774755 -0.1925216913 0.8345634937
0.0042926609 -0.11454628 1.804 -0.1841297448 0.756651938 0.6273548007
0.025163841 0.26893854 1.794 0.1825602055 0.7664305568 0.6158376336
-0.20348573 0.0096897967 1.5790001 0.2838508487 0.5636284351 0.7757265568
0.014655937 0.0045979409 1.6390002 -0.06249438971 0.7911950946 0.6083623767
0.19768132 -0.30801508 1.748 0.659460783 -0.7040255666 0.2635516226
0.32423693 -0.10786112 1.4735001 0.4447612762 -0.4546126127 -0.7716960311
0.15258208 -0.21456856 1.8130001 0.2790862024 -0.0953463465 0.9555208087
0.30372468 -0.23633881 1.6710001 0.3518753946 -0.8798872828 0.3193463087
0.39012107 -0.48578289 1.705 0.7689621449 0.5135384202 0.3807564974
0.24498932 -0.3158319 1.6835001 0.650149107 -0.4082863629 0.6407873034
0.2780804 0.27967858 1.8230001 -0.7199422121 0.3500480354 -0.5992909074
-0.10140351 -0.16434361 1.8130001 -0.5836023092 0.560651958 0.587433219
0.21476609 -0.41536897 1.6806155 0.4616635144 0.09437500685 0.8820204735
-0.014777971 -0.33496734 1.8730005 0.2664022446 -0.3895604908 0.8816305995
0.099634923 -0.37798008 1.8040001 0.6064223647 -0.7280410528 0.3197001219
0.044221502 -0.32579514 1.853 0.2237747014 -0.2775609493 0.9342830181
0.35737318 -0.17257184 1.5500001 0.2184180021 -0.8540613055 -0.4720941484
-0.26551163 -0.063838862 1.6550001 0.08379647136 0.624574542 0.7764565945
0.041200265 -0.49601889 1.8430001 0.894898355 0.0735918954 0.4401603639
0.32128403 0.35631326 1.8730001 -0.164196074 0.9295759797 -0.3300426602
0.1439171 -0.091727383 1.804 -0.1445967108 0.8671674728 0.4765631258
0.40942439 -0.49442598 1.6160001 0.8264346719 -0.04225680605 0.5614446402
0.19364163 -0.0183837 1.3980001 -0.4884007275 0.6555568576 -0.5759426951
-0.16584253 -0.11408414 1.7220001 -0.554840982 0.5235452652 0.646569252
0.1088031 0.27114424 1.9700001 0.2644292414 0.9219224453 -0.2830832899
-0.10849626 0.24203013 1.904 -0.1129432544 -0.5054241419 0.8554474115
0.30300641 -0.33435902 1.6470002 0.3779525161 -0.09821165353 0.9206010699
0.055045903 -0.094364397 1.794 -0.01461354364 0.783911705 0.6207002997
0.39464024 -0.31484172 1.6550001 -0.07365535945 -0.2074818611 0.9754620194
0.079598702 -0.27453431 1.853 0.6088910699 -0.2256228179 0.7604906559
0.027466843 -0.44108519 1.8430001 0.4562552869 0.02987745963 0.8893471956
0.016441884 0.32584822 1.705 0.633694768 0.6459951997 0.4255832434
0.17344902 0.26752308 1.8630002 -0.2164764702 0.2677378654 -0.9388580322
0.11439225 0.015328381 1.6357694 -0.06218112633 0.8064708114 0.5879951715
-0.17593648 -0.16425928 1.7760001 -0.3651566505 0.7697902322 0.5235299468
0.20537856 -0.12554781 1.8529999 0.6258280873 0.1293537915 0.7691597939
0.0226443 0.44835714 1.7220001 0.06722197682 0.9685998559 0.2393648624
-0.094606362 0.027422136 1.5640001 -0.04310102016 0.8698045611 0.4915102422
-0.08020974 -0.1179555 1.794 -0.1778301299 0.7863126993 0.5916829705
0.12655911 0.091148779 1.4960001 -0.1991778016 0.7302848697 0.6534616947
0.14132831 -0.1819399 1.853 0.5654291511 -0.4451582134 0.6943514943
-0.12322427 -0.33270553 1.7570001 -0.7574759126 -0.1365628093 0.6384205818
0.2203563 0.046316929 1.6010001 -0.7170307636 -0.2745552659 0.6406920552
-0.23480552 0.25286749 1.8730001 0.1751462817 0.5174036026 0.8376259804
0.1639428 -0.3738814 1.7353079 0.5302528143 -0.4091076553 0.7426054478
0.37520805 -0.35546026 1.609 -0.418672502 0.2006438076 0.8856948614
-0.49314252 -0.20928487 2.7440002 0.07307612151 0.865034461 0.4963620603
-0.1022281 -0.40733966 1.794 -0.4845553041 0.6990904808 0.5258123875
0.29397309 -0.15648061 1.733 0.7275876403 -0.03806871921 0.6849576235
-0.032214578 0.40689489 1.6960001 0.9398193955 0.1812982857 0.2896039486
0.16141449 -0.3180345 1.8230001 0.194619894 -0.05820454285 0.9791502953
-0.084749125 -0.053525761 1.6960001 -0.1247099042 0.7648611665 0.6320085526
-0.15088573 -0.30030656 1.6710001 -0.6664169431 0.4801853895 0.5703599453
0.10617661 0.17221327 1.4770001 -0.3060861528 -0.6741636992 0.6721715331
0.18290597 0.11056257 1.557 -0.8176939487 0.1668873429 0.5509312153
-0.033939857 -0.28542864 1.9039999 0.6842857003 -0.4835660458 0.5458177328
0.36385524 -0.4086152 1.6470001 -0.2313656658 0.717410624 0.6571087241
0.40399486 -0.21571419 1.6470001 0.3478699923 0.06056815013 0.9355843067
0.15787043 -0.023031496 1.4330001 -0.7344284058 0.3323636353 -0.5917341709
0.083602443 -0.45516884 1.7659999 0.6727303863 -0.1092063338 0.7317839861
0.29599336 -0.42016616 1.6470001 -0.07010119408 0.3590544462 0.930680275
-0.053423185 -0.01010709 1.647 -0.00937789306 0.8305294514 0.5568957329
0.27200335 -0.2428875 1.748 0.5185372233 -0.2255185395 0.8247790933
-0.022762651 0.34447476 1.7310001 -0.008694445714 0.5371826291 0.8434211612
-0.065236934 0.10437591 1.4882501 0.2063842565 0.2561171055 0.9443566799
-0.26456484 -0.12107205 1.705 -7.747575728e-05 0.8299190998 0.5578837395
0.16554432 0.052789841 1.5512729 0.08953995258 0.8666282892 0.4908543527
0.22416477 -0.16430925 1.785 0.6353456974 -0.3808002174 0.6718087792
0.32526296 -0.17846549 1.6880001 0.7616307139 0.04592878744 0.6463816166
-0.025797671 -0.06525293 1.7310001 -0.3318022788 0.6728210449 0.6612254381
0.23618436 -0.12588023 1.813 0.5462666154 -0.4216985404 0.7237147689
0.32331115 -0.0059017199 1.684 0.322894007 0.7922092676 0.5178261995
-0.48225752 -0.17601216 2.7010002 0.07307612151 0.865034461 0.4963620603
-0.071774453 -0.31547377 1.9039999 0.3462791443 -0.6581246257 0.6685526967
0.1944955 -0.23328978 1.794 0.7347141504 0.1262117922 0.6665325761
-0.18233263 -0.066865124 1.6800001 -0.509447813 0.5437687635 0.6669171453
0.32415134 -0.27466127 1.6330001 0.4324675202 -0.4732675552 0.7674565911
0.23510097 -0.26468319 1.7760004 0.6599270105 -0.06560622901 0.7484598756
-0.22421238 -0.32404566 1.6470002 -0.1890343875 0.616861105 0.7640342712
-0.32211888 0.31381685 1.8940001 0.1106091738 0.3302087486 0.9374048114
0.17593648 -0.070063196 1.7760001 -0.1700080037 0.8618482351 0.4778231084
0.01025437 0.42775372 1.6710001 -0.3923644125 -0.1331651658 0.9101193547
0.073177122 -0.050309271 1.7390001 -0.1210920215 0.8091321588 0.5750146508
0.034660894 0.095364295 1.4960002 0.01195751596 0.8006057739 0.5990720987
0.25828966 0.31677034 1.853 -0.838806808 0.3868631124 -0.383066684
0.065839633 -0.39624959 1.8430002 0.3731423914 -0.08983667195 0.9234144092
-0.085001603 0.0056667733 1.6160001 -0.1884758919 0.9093216062 0.3709596992
0.37360236 -0.49435654 1.7479999 0.1278206557 0.8373110294 0.5315750837
-0.055265058 -0.25387391 1.9700001 0.1926595718 0.3471322656 0.9178134203
0.064379774 -0.15517175 1.8830003 -0.09785095602 0.7740738988 0.6254876256
0.22838454 -0.48192587 1.6880001 0.2008674443 0.5696542859 0.7969606519
0.4339458 -0.40347847 1.6240003 0.39914608 -0.2264512777 0.8884831071
-0.11427175 -0.095610365 1.7380002 -0.1937014759 0.7782931328 0.5972767472
0.30342749 -0.4678463 1.705 -0.2489152551 0.7625331879 0.5971468091
0.33806896 -0.15163703 1.4699999 0.2428127527 -0.4172636271 -0.8757471442
-0.22808762 -0.29042214 1.6160001 -0.07965970784 0.6455680132 0.7595368624
0.26510748 -0.1946165 1.748 0.41737324 -0.05698019266 0.9069470167
0.25358811 0.073668048 1.6160001 -0.7810339332 0.04535303265 0.6228395104
-0.27451652 -0.025238438 1.6240004 0.3766129911 0.4345602095 0.8181198239
-0.035810079 -0.10535429 1.7760001 -0.2361970693 0.7836443782 0.5745541453
0.3022624 0.033998884 1.6860001 -0.869089365 -0.1572865099 0.4689825773
0.13568257 -0.054882839 1.7390002 -0.05421204492 0.7552639842 0.6531748176
0.33750966 -0.08623594 1.6960001 0.8158589005 -0.02596022375 0.5776680112
0.29884428 -0.045051903 1.7130001 -0.4207628071 0.7813099623 0.46099177
-0.17434481 -0.0149519 1.609 -0.09036739916 0.7407591343 0.6656647921
-0.0057776719 -0.170854 1.8830001 -0.4342195392 0.7145864964 0.5484701991
-0.31344777 -0.062689558 1.6630001 0.4342441261 0.6285821795 0.6452258825
0.25403345 0.18034436 2.2120001 -0.1323318183 0.9294310808 0.3444505632
-0.064627871 -0.18257372 1.8430001 -0.2208408415 0.6733540893 0.7055661678
-0.02123199 0.21721959 1.863 0.7336450219 -0.2882430553 0.6153705716
-0.012185375 0.25483325 1.8130001 0.1259397417 0.7636544108 0.6332228184
-0.0059905136 0.062030811 1.5430001 -0.2454226017 0.8214699626 0.5147376657
0.016200799 -0.0191464 1.6799999 -0.1002122387 0.8597151041 0.5008467436
-0.02853287 0.45352244 1.7130001 0.8522989154 -0.4749636352 0.2190800756
0.27951202 -0.24961768 1.705 0.5742833018 -0.8132820129 0.0936537832
-0.03103137 -0.37727612 1.863 0.5640519857 -0.4067587852 0.7186046243
0.19700453 -0.45273873 1.6960001 0.5993377566 0.1547075808 0.7854042053
0.082399651 0.081070624 1.516 0.1484667361 0.8647328019 0.479786247
0.37616715 -0.43861386 1.6960001 0.2402597219 0.6136204004 0.7521603703
-0.011309877 -0.41200265 1.8430001 0.1423417926 0.2109244019 0.9670830965
-0.18801081 0.24586029 1.8330001 0.6241287589 0.7745687366 0.1025014743
0.076781973 0.0616998 1.5640001 0.1444067508 0.924208343 0.3535330892
0.094534695 0.13541608 1.4572501 -0.03420022875 0.1743732393 0.9840855002
0.16381218 0.11180831 1.483 -0.1914004982 0.6533443928 0.7324663401
0.3188428 -0.056991223 1.7570001 0.9426987767 0.3156797588 -0.1080059558
0.044215854 -0.12412401 1.8230001 -0.2574112713 0.7945484519 0.5499383211
0.046092499 -0.46569321 1.8130001 0.9663901925 -0.07577550411 0.2456583232
0.38780048 -0.49422693 1.6630001 0.9584966302 -0.01927075163 0.2844518721
-0.12785131 -0.22747572 1.8940001 -0.241420567 0.8369250298 0.4911950231
0.064724304 -0.203178 1.9260002 0.5868388414 -0.111462146 0.8019952774
0.018360907 -0.24870682 1.904 0.4134197831 -0.7175727487 0.5605117679
-0.025324579 0.1147387 1.4745293 0.348990202 0.3019529581 0.8871472478
-0.15395582 -0.35484573 1.7050002 -0.5703670979 0.6254435182 0.5324488878
0.094890401 -0.10279793 1.8040001 -0.07724476606 0.8072770238 0.5850957632
0.1826763 0.054332297 1.4640001 -0.8117813468 0.455747664 -0.3651097417
0.17288889 -0.017438361 1.705 0.1569565833 0.7948461175 0.5861606598
-0.25528008 0.27305272 1.8430001 0.1307756156 0.4494661689 0.8836729527
0.28588626 0.01010709 1.6470001 -0.6229379773 0.07129985094 0.7790151834
0.054503903 0.015773205 1.6360835 -0.1617523134 0.86565727 0.4737865329
0.11426298 -0.01025437 1.6710001 0.01428574603 0.8818913698 0.4712361693
0.11493976 -0.14942169 1.8730001 0.2149069756 0.6899544597 0.6912147403
0.34477019 -0.23426694 1.6806668 0.3907061219 -0.3718312979 0.8420749307
-0.055400949 -0.22496143 1.9150001 -0.2252650112 0.8556120396 0.4660297334
0.15023349 -0.49622574 1.7310001 0.4529840648 0.1868604571 0.8717159033
-0.1910879 0.21721959 1.863 0.3824670017 0.9121084809 0.1475707591
-0.12492851 0.10499311 1.5159999 0.4642178714 -0.1636628062 0.8704689741
0.12557395 -0.435146 1.7310001 0.4822238982 -0.1656659842 0.8602411747
-0.065122306 0.070438415 1.516 -0.005315677263 0.7381686568 0.6745952964
-0.21473071 -0.065289751 1.655 -0.1998472512 0.6659786105 0.7187026739
-0.1355581 0.20578697 1.863 -0.09887652844 -0.2322586328 0.9676153064
0.17733565 0.22823754 1.8730001 -0.06615798175 0.1147930697 -0.9911839962
0.11540264 0.043102194 1.5860001 0.229603067 0.9176014066 0.3244844079
-0.20573701 -0.12164013 1.7130001 -0.1930538267 0.7541752458 0.627654314
-0.1348664 -0.0385032 1.6800002 -0.197778672 0.7336518764 0.6501065493
0.32725614 -0.34283978 1.6160001 0.580663681 0.04598301649 0.8128439188
0.18923113 -0.39370838 1.7050002 0.5489903092 -0.09839663655 0.8300166726
0.025034092 -0.22530684 1.936 0.3242373765 -0.3731007576 0.8692904711
0.26534042 -0.11311659 1.439 0.03512423113 -0.7401006222 -0.6715782881
0.21699998 -0.30560204 1.7130001 0.7134293914 -0.3859497309 0.5848600864
0.28623042 0.3453609 1.853 -0.6242491603 0.6352037787 -0.4547846913
-0.30158007 0.28516009 1.8730001 -0.2059033811 -0.292026341 0.9339830875
0.29354987 -0.37573943 1.647 0.09233818948 0.03788605705 0.9950066805
-0.21409164 -0.26007107 1.6390001 -0.7358413935 -0.6343445778 0.2369480431
-0.0078637004 0.29095688 1.794 -0.01428482682 0.8030264378 0.5957722068
0.12556235 -0.34489906 1.813 0.604860127 -0.3560799062 0.7122859955
0.4285357 -0.35592666 1.6240001 0.04060200602 -0.4454460144 0.8943876624
0.0051647718 0.16286023 1.4743751 0.2714743912 -0.5727840066 0.7734469175
-0.023789227 0.36278573 1.6960001 0.4318638742 0.533323586 0.7273647785
-0.008394083 -0.20817327 1.9150001 -0.4442781806 0.7444070578 0.4984727204
0.26406077 -0.33515406 1.6550001 0.7840625048 -0.1878190339 0.5915826559
0.25462055 -0.08322344 1.4133334 0.2489615977 -0.670740962 -0.6986592412
0.069474958 -0.35706896 1.8430001 0.4666924477 -0.2785263658 0.8394172192
0.25681075 -0.27565554 1.686 0.7492823601 -0.4584857821 0.4778773487
0.12553473 -0.3650519 1.7570001 0.6959661841 -0.6377345324 0.3300389349
0.17098594 0.014368567 1.6390001 0.2693893611 0.9149690866 0.3004345596
-0.075935118 0.23605917 1.8830003 0.0941748172 -0.1725254357 0.9804927707
0.055473011 0.13599837 1.4580001 0.1640540361 0.1395450383 0.9765313268
-0.23486114 -0.0060058837 1.6024544 0.2385251969 0.5786165595 0.7799414396
0.18621716 -0.3160997 1.7850001 0.65566957 -0.7475684285 0.1060134321
0.40356165 -0.41511264 1.6470001 0.7674443126 0.1456867754 0.6243433356
0.052215498 -0.29326063 1.8730001 0.4391138256 -0.2102361768 0.8734871745
-0.13508089 -0.16478819 1.794 -0.3365080655 0.6857397556 0.6453861594
0.20398377 -0.075305022 1.4040002 -0.1463988125 -0.7520674467 -0.6426210999
0.10605738 -0.29406819 1.8330001 0.5847562551 0.04808238521 0.8097828031
-0.015959717 -0.013783392 1.6550001 -0.2114758193 0.8407537341 0.4984086454
0.49002424 -0.45999488 1.557 0.7031033039 -0.2680169642 0.658644557
0.233807 -0.35457662 1.6800002 0.5143292546 -0.1845313162 0.8375043869
-0.10824116 -0.36283654 1.7390001 -0.4919708669 0.5797405839 0.6495117545
0.12373361 -0.11087817 1.8330001 -0.09866134077 0.8335167766 0.543613553
0.16519029 -0.46403456 1.7129999 0.1968656778 0.07172714174 0.9778032303
-0.26457217 -0.2849786 1.6240004 0.3206670284 0.5041058064 0.8019039631
-0.066423282 -0.39221364 1.8040001 -0.623180747 0.6324681044 0.4600324631
0.082868323 -0.49505347 1.7570002 0.6987224221 -0.1364438385 0.702260673
-0.13477609 -0.017208528 1.6355001 -0.2685666084 0.9050524235 0.3297757804
0.46316934 -0.4140453 1.601 0.3212053776 -0.2705292106 0.907546699
0.19868948 -0.19606824 1.794 0.6962850094 -0.2732924521 0.6637005806
-0.16579853 0.013516623 1.5734 -0.02253363654 0.7874786258 0.6159299612
0.054186765 -0.069668703 1.7660002 -0.009417355061 0.7983471751 0.6021238565
-0.0045051896 -0.040546712 1.7129999 -0.2515227497 0.8505786061 0.4617925882
0.44211614 -0.48422244 1.6010001 0.5926881433 -0.1671615094 0.787894547
0.34408379 -0.4636611 1.7050002 0.05563066155 0.5393838286 0.8402203918
-0.027615877 -0.17056865 1.853 -0.3710719347 0.7230448127 0.5826764703
0.1741998 -0.10388061 1.8230002 -0.04999726266 0.7697039843 0.6364400983
0.38794693 -0.063573234 1.7129999 0.2160359621 0.894485414 -0.3914387226
-0.23895654 0.048909232 1.5940001 0.6318499446 -0.2880190909 0.7195906043
-0.12354629 0.038326405 1.5430001 -0.01523585059 0.7351008654 0.6777865291
0.17760697 -0.33768192 1.7390001 0.6288952827 -0.5734757781 0.5249916315
0.25970811 -0.41205084 1.6550001 0.5422775149 0.2078655511 0.8140804768
0.11165577 -0.19539762 1.8730001 0.7060678601 -0.5515908003 0.4440898001
-0.46574146 -0.22559351 2.7670002 0.07307612151 0.865034461 0.4963620603
-0.25154635 -0.1433052 1.7390001 0.02332656085 0.8490108252 0.5278602839
0.083850533 -0.21170186 1.8940001 0.6252598763 -0.5108944178 0.589946568
0.13016133 -0.24425337 1.8330001 0.7307238579 -0.2558090687 0.6329331398
-0.16703305 -0.14251444 1.748 -0.3844107985 0.6168772578 0.6867974997
0.17483364 -0.26542923 1.8129998 0.1547841728 0.1713526398 0.9729748964
0.085286811 -0.40463656 1.7760001 0.6571198106 -0.5706747174 0.492467165
-0.002449845 -0.4458718 1.863 0.6744354367 0.370577842 0.6385991573
0.14441264 0.072203368 1.5252501 -0.07748532295 0.8342434764 0.5459247828
-0.017869096 0.25179181 1.853 0.8107021451 0.3276377618 0.485196352
0.29651758 -0.13077851 1.4770001 -0.1138032675 -0.8193591833 -0.5618713498
0.42517853 -0.30452111 1.6385001 0.5561763048 0.2538919747 0.7913323045
-0.065348484 0.022246292 1.5860001 -0.2260174453 0.8833683133 0.4105807245
0.074735835 -0.026157539 1.705 -0.1303481162 0.8296324015 0.5428807139
0.1819399 -0.15269955 1.853 0.378973037 -0.5412065983 0.750649631
0.30531669 0.30049592 1.8330001 -0.3470757008 0.01817462221 -0.9376609921
-0.18505093 0.084238149 1.5569999 0.5634328127 -0.203222543 0.8007771969
-0.0048207901 -0.13739252 1.8330001 -0.305431962 0.7486866713 0.5883702636
0.016786121 -0.34817663 1.853 0.2078774124 -0.3984589577 0.8933182359
0.13882455 0.25478387 1.863 0.1348135024 0.3772217333 -0.9162582159
-0.11301811 -0.38859653 1.766 -0.3786332011 0.6337987185 0.6744894981
-0.066448994 0.14557575 1.4960002 0.4954108894 -0.3890044391 0.7766875625
-0.26598769 -0.088662557 1.6800001 0.1017664522 0.6885067225 0.7180544138
0.46439135 -0.45465863 1.5860001 0.5638161898 -0.2635950446 0.7827062011
-0.28060871 0.30385441 1.8940001 -0.8668342829 0.2868704796 0.4078034163
-0.11409203 -0.19122465 1.8330001 -0.2713210881 0.7357198596 0.620565176
0.39486897 -0.34410733 1.6355002 -0.6255842447 -0.3931739628 0.6738387346
-0.074284352 -0.21459924 1.8830003 -0.2195515782 0.8084988594 0.546009779
0.37604257 -0.23464742 1.655 0.4723403752 0.1466270834 0.8691346645
0.32706329 -0.17023376 1.529 0.1862147301 -0.7845053077 -0.5915027261
-0.06738586 -0.03076311 1.6710001 -0.1548482478 0.7529312372 0.6396222115
-0.014093001 0.39703384 1.6630001 0.2383725345 0.334567219 0.9117254615
0.24661773 0.28581524 1.863 -0.2020286024 0.2154988348 -0.9553767443
0.29591447 -0.49440473 1.7310002 -0.08303014934 0.677124083 0.7311695814
0.07634978 -0.31352141 1.853 0.3876354396 -0.1581205726 0.9081501365
0.26053831 0.037016373 1.6240001 -0.7780011296 -0.1153589189 0.6175811887
0.20482862 -0.042702783 1.376 -0.198814407 -0.2884147465 -0.9366374612
0.19873069 0.2439702 1.8430001 -0.5980386138 0.09010113031 -0.7963865995
0.14234243 -0.40517515 1.7310002 0.3875573874 -0.1493018419 0.9096747637
-0.056314871 -0.062321793 1.7130001 -0.2330600321 0.7849795222 0.5740123987
0.38569006 -0.12430782 1.6813335 0.04834228754 -0.1699144542 0.9842723608
0.37062222 -0.05420167 1.6710001 -0.7073227763 -0.1254385561 0.6956720948
0.22526474 -0.28656128 1.748 0.6558185816 -0.750549674 0.08110001683
0.27408502 0.31403908 1.8230001 -0.650485158 0.1953905672 -0.7339560986
-0.20065059 0.046408981 1.557 0.4913033843 0.1803004742 0.8521224856
-0.048207901 -0.38727012 1.8330001 -0.7676317096 0.2314596176 0.5976353288
0.13827488 -0.0223024 1.6960001 -0.004113908391 0.8120684028 0.583547771
-0.0054831603 0.027724581 1.6081113 -0.1786128432 0.8594740033 0.4789592028
0.053607289 -0.13645492 1.853 -0.1822213531 0.8182448149 0.5452254415
0.2982876 -0.10734958 1.452 0.4131365418 -0.574427247 -0.7066481113
0.46404725 -0.35590982 1.6337501 -0.1012450531 -0.4406493604 0.891951561
0.14320788 -0.073539183 1.766 -0.142392084 0.8369918466 0.5283645988
-0.14408191 0.064634882 1.5360001 0.1382126063 0.1495572478 0.9790453911
0.31687993 -0.23168108 1.705 0.4956021011 -0.8176056743 0.2930861115
-0.10166469 -0.1088896 1.7660002 -0.3178955615 0.7298539877 0.6051905155
-0.095237382 0.094704725 1.5046002 0.4705699682 0.264326036 0.8418406248
0.36518076 -0.38440078 1.6240003 -0.314607054 0.5822345018 0.7496834993
-0.11166454 -0.13840112 1.794 -0.4821364284 0.5001445413 0.7193051577
0.27554122 -0.47442818 1.6880001 -0.2831617892 0.7131152749 0.6413158178
0.04490396 0.054111883 1.5760837 -0.1700261682 0.854378581 0.4910482466
-0.043279279 -0.26731321 1.9360001 0.7994869947 -0.4173074067 0.4320590496
0.035226509 0.026767846 1.6072223 -0.09227029979 0.7776674628 0.6218677759
0.015378737 0.077273406 1.5159999 -0.07807379961 0.8024801612 0.5915488601
-0.014632883 -0.08240623 1.7570001 -0.399477452 0.7220278978 0.5648835897
-0.16591355 -0.085697085 1.705 -0.5944554806 0.5663942099 0.5708066821
0.22673552 -0.38559687 1.6710002 0.473552227 -0.07951180637 0.8771693707
-0.094099641 -0.074977785 1.7220001 -0.2190332115 0.7471883893 0.6274822354
0.023294086 0.45611778 1.6816 -0.7846370935 0.04375596717 0.6184093356
0.3562797 -0.28416038 1.6343335 -0.6127188802 -0.6552611589 0.441824019
0.28272763 -0.26221889 1.6710001 0.6879722476 -0.5246284604 0.5014570355
0.30532911 -0.44554192 1.6710002 -0.2830622196 0.6812726259 0.6750876904
-0.041269083 -0.31859732 1.8830001 0.5591278672 -0.3016124368 0.7722732425
-0.076264262 0.047129598 1.5360001 -0.1147088259 0.6601600051 0.7423143983
-0.042589691 -0.35425383 1.8830001 0.7399016619 -0.07879320532 0.668084681
-0.11822376 0.23152153 1.8730001 -0.2195568681 -0.3680382669 0.903516829
0.31520861 -0.30467325 1.6240003 0.7341117263 -0.1701010615 0.6573778391
0.015235588 -0.051804863 1.7380002 -0.0551587604 0.8496266603 0.5244922042
-0.19569989 -0.044255186 1.6390002 -0.1765969545 0.7516406178 0.6354919076
0.14322488 0.025341978 1.6240002 0.1924031973 0.9098454714 0.3676442206
-0.015193071 0.038670205 1.5755 -0.257722348 0.9029178619 0.3439746797
-0.025304107 -0.13126506 1.8040001 -0.244685173 0.6901645064 0.6810302138
0.19449434 0.013060386 1.4111111 -0.5219686627 0.2916587889 -0.8015509248
-0.29228052 -0.044347435 1.6470002 0.5074850917 0.3667722642 0.7797031403
0.034868538 -0.16604066 1.8940001 -0.2011384815 0.7363048792 0.6460638046
-0.14251444 -0.10880134 1.748 -0.404117167 0.6372802258 0.6561731696
-0.0191464 0.43742159 1.6800001 0.4518182278 -0.4968835115 0.7409231067
0.021386283 -0.093369387 1.7850002 -0.2616190612 0.7009259462 0.6635196209
0.23447609 -0.11507406 1.4552 -0.04059710726 -0.8000568748 -0.5985490084
-0.24204503 0.22904932 1.853 0.2754428387 0.7928776741 -0.5435772538
-0.0050075199 -0.27207527 1.904 0.4121927023 -0.620787859 0.6668730378
0.40860382 -0.45700988 1.6240001 0.8622933626 -0.06616534293 0.5020680428
0.020890091 0.42583644 1.8330001 -0.9860419631 0.1354144961 0.09687168896
-0.0013053566 0.097901747 1.4890001 -0.1075433493 0.7431718707 0.6604013443
-0.19732013 -0.30903816 1.6550001 -0.05670309812 0.5865834355 0.8079013824
-0.15025979 -0.21488765 1.8430001 -0.1728130132 0.7313991189 0.6596900821
0.085188329 0.01010709 1.647 0.04571604356 0.8673433065 0.4956062734
-0.19477428 -0.097139336 1.6960001 -0.3651506603 0.6495311856 0.6669139862
-0.01124851 0.21693555 1.8330001 0.530051589 0.4853603244 0.6953206062
0.013135973 -0.32018936 1.8730001 0.384701103 -0.5385171771 0.7496694326
0.16337122 -0.19229595 1.8330001 0.4439254999 -0.4549489021 0.7719790339
0.056647569 -0.45599729 1.7850001 0.858861506 -0.06124813482 0.5085327625
0.24654979 -0.1753329 1.7659999 0.5634009242 -0.2166662514 0.7972673178
0.3946403 -0.27421692 1.6550001 0.3817753196 0.09093341976 0.9197710156
0.22533841 -0.44478559 1.6800002 0.3002465367 0.1256568432 0.9455487132
0.12692468 -0.30584532 1.813 0.4636587799 -0.06013702229 0.8839706182
0.2133548 -0.14463377 1.8230001 0.6466006041 -0.5535777807 0.5248421431
0.15473604 -0.036985688 1.7220001 -0.003205471439 0.7979073524 0.6027716398
0.2305721 0.01676888 1.5940001 -0.861620307 0.05570599437 0.5044870973
-0.20462824 -0.015192077 1.6017272 -0.03177049384 0.701813221 0.7116522193
0.2749764 -0.14251561 1.4960002 -0.003051068401 -0.7958779335 -0.6054494381
-0.040611584 -0.41098922 1.853 -0.7110756636 -0.0851527825 0.6979401112
-0.14521341 -0.31768531 1.6960001 -0.7620356679 0.1634480357 0.6265671253
0.083331332 -0.23480552 1.8730001 0.7292137146 -0.4399880469 0.5240781307
0.33515406 -0.41930529 1.6550001 -0.1580586433 0.7834815383 0.6009775996
-0.11475216 -0.0042500799 1.6159999 -0.2582207918 0.8680772781 0.4239856601
-0.05418589 0.21674356 1.8730001 0.2228012085 -0.3659006953 0.9035907984
-0.034714244 0.06008235 1.5230001 -0.09508055449 0.8167873621 0.5690501332
-0.28300124 0.0042711198 1.6240003 0.502187252 0.2966637909 0.8122798204
-0.074629933 -0.33667892 1.9260002 0.9498070478 0.2950542569 0.1039691567
0.21486047 -0.29348695 1.7760001 0.7537556887 -0.561147809 0.3420021832
0.13087143 -0.21165626 1.8430001 0.6403541565 -0.3403950036 0.6885330677
0.11569963 0.10553153 1.4712352 -0.2445631921 0.549074173 0.7991910577
-0.074701644 -0.14145631 1.8130001 -0.1636530459 0.6679129004 0.7260234356
0.037967555 -0.25916985 1.8830001 0.2689322829 -0.5112427473 0.8162758946
-0.39427906 -0.35131276 2.8830001 0.07302286476 0.8649475574 0.4965213239
0.1051921 -0.053358316 1.7390002 0.1049096882 0.7673276067 0.6326153874
0.083546497 0.16488522 1.4580001 -0.0586450249 -0.5715322495 0.8184813261
0.10123659 -0.36316615 1.8330001 0.4865488708 -0.514562726 0.7060420513
0.3365944 -0.039860278 1.684 0.8563879728 0.5014457107 0.1230926588
0.17693588 0.10053175 1.529 -0.8869503736 0.3200225234 0.3330234587
0.35648862 -0.15888444 1.5230001 0.2967108786 -0.8637419939 -0.4073235393
0.25556499 -0.01010709 1.647 -0.273342073 0.6672287583 0.6928852201
-0.16455191 -0.33459339 1.6800002 -0.5274064541 0.3969403803 0.7511862516
-0.02432224 0.0042921598 1.6320001 -0.1546921432 0.698210299 0.698979795
0.023626752 0.057695765 1.5546666 -0.2107152641 0.8949120641 0.3933592439
0.37633312 -0.32318139 1.6240001 -0.7622815967 -0.422768563 0.4900954366
0.053832155 -0.42503297 1.8330001 0.7433152795 -0.4520160854 0.4931164682
-0.21827158 -0.34132403 1.6710001 -0.13629058 0.7298334837 0.6699014902
0.0045630499 0.32549053 1.7350003 0.04067796096 0.7492486835 0.6610383391
-0.01485687 -0.2954866 1.8830003 0.2598493695 -0.3839272559 0.88604635
-0.20955577 0.25179181 1.853 0.4182453454 0.5931851864 0.6878969073
-0.23577161 -0.11863667 1.7129999 -0.04446361214 0.8298462033 0.5562177896
0.099094011 -0.44668531 1.739 0.6149100065 0.01298019756 0.7884904146
0.33473951 -0.24602838 1.655 -0.2835730612 -0.6979916692 0.6575666666
-0.12540892 0.0206718 1.572 -0.1023729667 0.8082973361 0.579806149
0.22336327 -0.10766431 1.8330001 0.575471282 0.4632453918 0.6739706993
