# .PCD v0.7 - Point Cloud Data file format
VERSION 0.7
FIELDS x y z normal_x normal_y normal_z
SIZE 4 4 4 4 4 4
TYPE F F F F F F
COUNT 1 1 1 1 1 1
WIDTH 512
HEIGHT 1
VIEWPOINT 0 0 0 1 0 0 0
POINTS 512
DATA ascii
0.044211179 -0.15397686 1.7390002 -0.2152026594 0.4604270458 -0.8612170219
-0.41341496 -0.494973 3.2080002 -0.2141711116 0.7992501259 0.5615424514
0.48874605 -0.052634191 2.8590002 -0.1610433608 0.8359927535 0.5245770812
-0.45173231 0.12285607 2.1560001 -0.8854741454 -0.4541023076 -0.09862370789
0.25618568 0.24004799 2.3010001 -0.9192018509 -0.319584161 0.2300737649
0.03353776 0.49887419 1.5940001 0.3484602571 -0.1386867017 0.9270067215
-0.37297302 0.14564371 1.5860002 0.004175357986 -0.1364947557 0.9906319976
0.068379998 -0.25437361 3.1200001 -0.1572816223 0.7656664848 0.6237125397
-0.45481905 -0.24107894 2.835 -0.2141711116 0.7992501259 0.5615424514
0.017477928 0.11643746 1.404 -0.08809806406 0.04762003943 0.9949728847
-0.11836578 -0.49926078 1.7310001 -0.6573762298 -0.4852866232 -0.5765009522
0.23708135 -0.42099899 1.6390001 -0.6163192391 0.4756704271 -0.6276051402
0.10128481 0.3520062 1.8940001 -0.9555048943 -0.2844190896 0.07820574194
-0.25487185 -0.13348125 1.6550001 -0.1424223036 0.9173009396 0.3718532622
-0.46632704 0.21345955 1.8730001 -0.945464313 -0.3153745532 0.08146221191
0.19284213 0.0209611 1.5940001 -0.169291541 0.927000761 0.3346789181
0.30085534 -0.20500763 3.0370002 -0.1706734449 0.8172674179 0.5504040122
-0.20511052 0.014520755 1.4531999 -0.04971590266 0.5776153803 0.8147937059
0.028042814 -0.14531276 2.9080002 -0.177733928 0.8239443898 0.5380764604
0.28326854 -0.18606374 1.6800002 0.2533601224 0.2659505904 -0.930096209
0.11714353 0.2848779 1.5430001 0.2358230203 0.08148060739 0.9683741331
0.46621132 0.048952188 2.6590002 -0.1921822429 0.8642335534 0.4649369717
-0.44038033 0.3465288 1.6470001 0.6461088657 -0.4909622967 0.5843794942
-0.026300877 -0.02076385 1.5790001 -0.2516894639 0.8849813342 0.3917402625
-0.12529846 -0.28531817 1.7220001 -0.1831835508 0.2295142561 -0.9559115767
0.046466134 -0.38741514 1.6880001 -0.270675689 0.2030205131 -0.9410192966
-0.25121671 -0.41685411 3.1490002 -0.2141711116 0.7992501259 0.5615424514
-0.37931612 -0.31130081 2.9840002 -0.2141711116 0.7992501259 0.5615424514
-0.33720896 0.18345565 1.9930001 -0.9048227072 -0.4165226817 -0.08834409714
0.19231789 -0.04367378 1.748 -0.4103482962 -0.1312897056 -0.9024285674
-0.33427578 -0.014533731 1.5640001 0.6966161728 -0.01788978092 0.7172209024
0.35452837 0.0024450233 2.789 -0.1610433608 0.8359927535 0.5245770812
-0.10463017 -0.1038828 1.705 -0.3673537672 0.8299988508 0.419705987
0.15011601 0.13575709 1.4890001 -0.0731369555 -0.2383732498 0.9684157968
0.14502609 -0.26514873 1.6710002 -0.3986075222 0.008606941439 -0.9170812368
-0.20274916 -0.17428204 1.8040001 -0.8711753488 -0.0930288136 -0.4820779264
0.29422337 0.17482838 2.4320002 -0.3979126215 0.8730441332 0.2818856537
-0.16526298 -0.054087624 1.5745456 -0.344363451 0.8283146024 0.4419374764
0.085043967 -0.034503553 1.6630001 -0.141730696 0.9045277834 0.402171433
-0.11784592 0.1116435 1.4150001 0.1137459949 -0.3274720907 0.9379892945
-0.0052775331 -0.27179298 3.0100002 -0.1931708306 0.7830640078 0.5911816359
0.064098358 0.037664231 1.5074999 -0.138894394 0.8574294448 0.495502919
0.30381495 -0.31455153 1.655 0.03165541217 -0.07765003294 -0.9964780211
0.0045288606 -0.27286381 1.7220001 -0.002241798211 0.3212451637 -0.9469934106
0.13466302 -0.47354028 1.6880001 -0.02611027285 -0.5047774911 -0.8628545403
0.16465403 -0.14504476 1.6834286 -0.1543492973 0.4921066761 -0.8567422628
-0.075470477 -0.39511016 1.688 0.04660531506 0.1045584232 -0.9934261441
-0.4979037 -0.34120303 2.8830001 -0.2141711116 0.7992501259 0.5615424514
-0.0073990668 -0.49573746 1.6880001 0.1903781444 -0.1265081763 -0.9735254645
0.057881042 0.38449547 1.572 0.7196310163 -0.03529899195 0.6934588552
-0.074734077 -0.19150607 1.7760001 -0.4564483464 0.7675065398 -0.4500984251
-0.085128888 0.024988679 1.4848 -0.1887810677 0.8090847135 0.5565461516
-0.4077552 0.24179168 1.6320001 0.5454069376 0.2032870501 0.8131455183
-0.17326498 -0.38451913 1.7336668 -0.6835795045 0.0236449223 -0.7294929624
-0.0029894332 -0.067262247 1.705 -0.4266528189 0.8185477853 0.3846386373
0.14724757 -0.36738995 1.6630001 -0.388453126 0.1303091198 -0.9122081399
-0.25517312 -0.057148147 1.516 -0.09935390204 0.8143448234 0.5718140602
-0.49313027 -0.4485535 3.1780002 -0.2141711116 0.7992501259 0.5615424514
-0.18507941 -0.14220621 1.7220001 -0.2766409814 0.8673974872 0.4136319757
0.15150905 0.049173985 1.516 -0.3182829916 0.7897362709 0.5244164467
0.10650413 0.0019465506 1.5860001 -0.09425512701 0.8632087111 0.4959704578
0.23180556 -0.25513193 1.6630001 -0.347636193 0.2035832703 -0.9152611494
-0.092996798 -0.05865952 1.6320001 -0.2981816232 0.8729487658 0.3860675991
0.17348969 -0.027700037 1.6630001 -0.3530838788 0.8531920314 0.3839206696
-0.17470826 -0.09962704 1.647 -0.3863934278 0.8033791184 0.4530806541
0.095008738 0.086141266 1.4449998 -0.2524933219 0.6481254101 0.7184570432
0.12923031 0.21799456 1.4890001 0.2954316139 -0.1865672022 0.9369700551
-0.0042781332 0.06117731 1.4640001 -0.2338580042 0.7505962253 0.6179932952
-0.29253489 0.0025774001 1.47 0.3327374458 0.4496993721 0.8288885951
0.079219982 -0.22570223 1.705 -0.3182285428 0.06697299331 -0.9456453919
0.23276815 -0.10812455 1.7130001 -0.0684447214 0.6968144178 -0.7139782906
-0.3523744 0.068555333 1.5640001 0.5621317625 0.09749232233 0.8212813735
-0.19429827 -0.27325612 1.766 -0.5202308297 0.6971704364 -0.4932679832
0.22429517 -0.21901762 3.0100002 -0.1699552387 0.8107494712 0.5601789355
0.22462496 -0.33539033 1.647 -0.1248586029 0.05556710437 -0.9906172752
0.084749125 -0.31520724 1.6960001 -0.2552753687 0.04880742356 -0.9656357169
-0.24470921 -0.094083279 1.5860001 -0.2136105448 0.8638142347 0.4562844336
-0.056796778 -0.31609935 1.6960001 -0.06406161934 0.1676600873 -0.983761251
-0.15505901 -0.0063435598 1.5066 -0.2731181085 0.7715250254 0.5745916963
0.074357986 -0.064494178 1.7310001 -0.1274427623 0.9056664109 0.4043843448
-0.095398068 -0.022894388 1.5525455 -0.2207983732 0.8521721959 0.4743949771
0.064272813 -0.49674416 1.705 0.03900527582 -0.5277836919 -0.848482728
-0.0151751 -0.1957588 1.7310003 0.03337186947 0.2853987515 -0.9578276873
-0.18493195 0.081771083 1.4350001 0.3091104925 -0.3017799854 0.9018755555
-0.0040054899 0.020027449 1.5230001 -0.2227050066 0.8191122413 0.5286375284
0.01450708 -0.033322684 1.6366668 -0.2480789572 0.8925830126 0.3765002191
-0.065517515 -0.24516229 1.7220001 0.001854208414 0.2920204699 -0.9564102888
-0.13661711 -0.43675622 1.7050002 -0.5349657536 -0.3194000125 -0.7821733952
-0.075470477 -0.46466136 1.6879998 -0.1337616444 -0.07204183936 -0.9883915186
-0.054171741 0.084795579 1.4135716 -0.03038813546 0.5542498231 0.8317955136
0.28720564 -0.38051102 1.6630001 0.4172379076 -0.3983890414 -0.81682235
-0.13323624 -0.22796489 1.7570001 -0.3328225315 0.7075831294 -0.6233419776
-0.015118586 -0.42469403 1.6861537 0.3495886326 0.08093432337 -0.9334009886
0.10328565 -0.13565628 1.7130002 -0.4881649017 0.1754426658 -0.8549355865
-0.12340661 -0.34940428 1.6960001 -0.3041344881 0.3118484914 -0.9001404047
0.036421746 0.0025593657 1.5719999 -0.1623259485 0.8537480235 0.4947368503
-0.1267831 0.046466108 1.439 -0.2011035532 0.6469616294 0.7355256677
0.21534179 -0.18457864 1.6710001 -0.1437505782 0.1568147987 -0.9771105051
0.19588239 -0.4521496 1.6800001 -0.2008295357 0.02934331819 -0.9791866541
-0.045735702 -0.10214306 1.7390001 -0.2581918538 0.8142054677 0.5200061202
0.30177146 -0.25196451 1.6710001 0.3129066825 0.1955726892 -0.929430306
0.0044841501 -0.33481655 1.705 0.1653493047 0.2736379802 -0.9475135207
-0.30353388 -0.074605539 1.5543751 0.4632149637 0.7265510559 0.507499218
0.095219143 -0.42482388 1.6710001 -0.2685571015 -0.1123381183 -0.9566907883
0.073684707 0.14067081 1.4150001 -0.220882073 0.07867978513 0.9721217155
0.08413773 0.33682147 1.5430001 -0.01284555439 -0.2941956818 0.9556588531
0.13466302 -0.20569405 1.688 -0.511271894 0.004406753927 -0.8594077229
-0.18376248 -0.32499489 1.7323335 -0.4861049056 0.07303529233 -0.8708431721
0.055264413 0.44629207 1.5760835 0.01304443739 -0.2746947706 0.961443007
-0.043250933 -0.05880183 1.6630001 -0.3030224442 0.8794620037 0.3670476079
-0.37333024 -0.4652698 3.1780002 -0.2141711116 0.7992501259 0.5615424514
0.1746905 -0.31458941 1.6710002 0.05538944528 -0.05797422677 -0.9967803359
-0.19600603 -0.043648884 1.5272002 -0.3269880712 0.7956934571 0.5098536015
-0.4077552 0.29902047 1.6320001 0.4144800305 -0.366989851 0.8327813148
-0.3043471 -0.02790956 1.516 0.8656738997 0.2508919239 0.4331996441
0.045874216 -0.44584662 1.688 0.007357159164 0.08272281289 -0.996545434
-0.39213473 0.19324626 1.6090001 0.1923031062 -0.3079936504 0.9317507148
0.17350811 0.086754054 1.4770001 0.1505956799 0.5209295154 0.8402103186
0.25635925 -0.13916644 1.6710001 -0.3726136684 0.3916472495 -0.8412915468
-0.23954478 -0.022012223 1.4770001 -0.236723274 0.7270315289 0.6445054412
0.19636631 -0.38551331 1.6470002 -0.3231850266 -0.2296680808 -0.9180435538
-0.18320228 -0.2174554 1.7760001 -0.7445328236 -0.1631238908 -0.6473495364
0.065167889 -0.018417014 1.6160001 -0.1221861318 0.9206771255 0.3707076609
0.032879382 -0.22105062 1.7310001 -0.2282981873 0.2617792487 -0.9377374649
-0.054813582 0.0040072431 1.5250001 -0.2074969411 0.8239761591 0.5272649527
0.044337418 0.069673084 1.4450001 -0.1066017449 0.7913823128 0.601955235
-0.2289336 0.053793143 1.427 0.1847373992 0.03058565035 0.9823118448
0.095104881 -0.36494991 1.6820002 -0.4094487727 0.3382515609 -0.8473119736
0.15453704 -0.42424786 1.6630001 0.04250634834 -0.1856857091 -0.9816893935
-0.034624498 0.13355851 1.410625 0.1423971355 -0.1525098532 0.9779896736
-0.13944961 -0.13944961 1.748 -0.3473733962 0.8383464813 0.4201272428
0.12473959 -0.016252669 1.6355001 -0.1412591189 0.9016079903 0.4088385403
-0.025156826 -0.37439278 1.688 -0.05413807929 0.1214097217 -0.9911249876
0.18457866 -0.22559613 1.671 0.06767769158 0.1544493139 -0.9856800437
-0.055152059 0.055846378 1.4569092 -0.01673829369 0.8108329177 0.5850382447
-0.34558639 0.091686182 1.6090001 -0.9525002837 -0.3044701219 0.006418154109
0.055304516 -0.27502787 1.705 -0.1415887475 0.08756496757 -0.9860451221
0.14807951 0.020566599 1.5640001 -0.3010270894 0.8252975941 0.4777725339
0.12218133 0.12468334 1.427 -0.4701966345 0.3597209454 0.8059255481
-0.20728476 -0.13110945 1.6710001 -0.2626097202 0.8463215828 0.4634391665
-0.14166933 -0.069417976 1.6160001 -0.3037853241 0.8543717861 0.4216198325
0.015324133 -0.084282734 1.748 -0.1494469494 0.7978752851 0.5840039849
-0.12829491 -0.091847487 1.6630001 -0.3596598804 0.8226616383 0.4403097034
0.10368512 0.02827776 1.5359999 -0.1012393907 0.8763489723 0.4709172249
0.045874212 -0.051793467 1.6880001 -0.05064944178 0.9066671729 0.4187950194
0.11440851 0.061104544 1.483 -0.2182580233 0.81374681 0.538683176
0.25556496 -0.29454947 1.647 -0.07668662816 0.1012490094 -0.9919010997
0.1228245 -0.051793467 1.6880001 0.05376025662 0.8327422142 0.5510446429
-0.1570075 0.018395973 1.4640001 -0.3848526478 0.7383627892 0.5538129807
-0.15314315 -0.1174593 1.6960001 -0.3442104161 0.8214810491 0.4546296597
-0.090412386 -0.11799583 1.748 -0.3324621916 0.8133944273 0.4773451686
0.12744717 -0.30909601 1.6710001 -0.4513671994 0.03862674534 -0.8915019035
-0.07605885 -0.036132939 1.594 -0.244185999 0.8886751533 0.3881103992
-0.21497971 -0.10725258 1.6240002 -0.333381325 0.812767446 0.4777718484
0.10556469 -0.26506066 1.6960002 -0.3122243881 -0.07478907704 -0.9470599294
0.079219982 -0.17488185 1.705 -0.4194688797 0.2633247972 -0.8687381148
0.18480134 0.045747388 1.5500001 -0.2123556137 0.8398307562 0.499589175
-0.20566601 -0.0733542 1.5640001 -0.3630135655 0.8284279704 0.4265304506
0.099676996 0.24055383 1.516 0.3298767209 -0.2432316095 0.9121511579
-0.25537628 0.02553533 1.4565001 0.1484180689 0.1322925836 0.9800360799
0.1448639 0.1847347 1.516 -0.2993368804 -0.4092867672 0.8619058728
-0.065420374 -0.082518876 1.6960001 -0.2928104699 0.8614267111 0.4149771631
0.26504561 -0.22422451 1.6630001 0.0005034991773 0.2542749941 -0.9671318531
0.24545789 -0.37540624 1.6469998 0.0762617141 -0.180373773 -0.9806372523
-0.034168959 -0.038440078 1.6240001 -0.1626935005 0.8998889327 0.4046365023
-0.32799256 0.031696759 1.572 0.276157409 -0.1925153136 0.9416341782
0.19321005 0.0051184813 1.636 -0.3915833831 0.7719345689 0.5007788539
0.22191414 -0.06491366 1.7220001 -0.3826811314 0.1553817391 -0.910720408
0.18806867 -0.27262667 1.6630001 -0.1185858846 0.186354503 -0.9752996564
-0.13797507 -0.031112023 1.5430001 -0.365675509 0.8011873364 0.4736879468
-0.19640721 -0.012602667 1.487 -0.2400767356 0.8198913336 0.5197512507
0.047830932 -0.3422901 1.705 -0.03795001283 0.1688163877 -0.984916687
-0.1049931 0.0013290267 1.5160002 -0.2151160985 0.8004683256 0.5594421029
-0.16007495 -0.25764444 1.7390001 -0.5833277702 0.4693696499 -0.6628882289
-0.12489343 -0.39549586 1.6959999 -0.2556434274 0.09297503531 -0.9622900486
-0.15092781 -0.47107771 1.7390001 -0.6656391025 -0.4259726703 -0.6127575636
-0.0056198719 0.085987113 1.4250002 -0.2275367826 0.7146860361 0.6614007354
-0.1847931 -0.083538793 1.6042 -0.4109202027 0.8072375655 0.4236886799
-0.036640577 -0.17391372 1.7660002 -0.358970046 0.8878272176 -0.2879294455
0.13347776 0.094974555 1.464 -0.7496988773 0.2649750113 0.6064155698
0.21493761 -0.13591699 1.6816002 -0.09468502551 0.6263606548 -0.7737616301
0.15469104 -0.0014105566 1.6090001 -0.3339947164 0.8294417262 0.4477432072
-0.34774557 0.11254647 1.572 0.4824815094 -0.07627670467 0.8725786209
-0.093790188 0.072602026 1.4217502 -0.0950261727 0.6119340658 0.7851794362
0.084349364 -0.46318161 1.688 -0.1514283121 -0.2992526293 -0.9420813918
-0.034427699 0.033493798 1.4860001 -0.1149822101 0.8415257335 0.5278385282
-0.11595879 -0.046995297 1.5860001 -0.3196198642 0.8331364989 0.4513610005
-0.040546712 -0.27782005 1.7130001 -0.07442688942 0.1051593423 -0.9916663766
0.05495112 0.1025662 1.4210002 -0.1446366608 0.5743895769 0.8057026863
0.17139447 -0.18457866 1.6710001 0.1831246614 0.1581501663 -0.9702854753
-0.074025907 -0.20744792 1.7374003 -0.349975884 0.6419867277 -0.6821802855
-0.16721745 0.045036118 1.427 -0.1917107552 0.3725270331 0.9080036283
-0.038087659 -0.45851684 1.6710001 -0.06371664256 0.0392104201 -0.9971974492
-0.073850401 0.12185316 1.404 0.224904418 -0.1128223315 0.9678270221
-0.10259104 -0.30777311 1.6960001 -0.1651925594 0.4286991954 -0.8882164359
0.12571946 -0.16569857 1.6960001 -0.3975169957 0.2387035936 -0.8860027194
0.27433532 -0.34508491 1.647 0.2110794783 0.01419920567 -0.9773657918
0.024918372 0.036721811 1.4960002 -0.09873577952 0.861574173 0.4979369342
0.18564382 -0.11748473 1.7050002 0.1428084224 0.5110135674 -0.8476266265
0.064929441 0.017585056 1.5430001 -0.1640873849 0.8865952492 0.4324629307
-0.10470819 -0.25114793 1.7310001 -0.149739176 0.3356044888 -0.9300256968
-0.02566354 -0.23399109 1.7220001 -0.07058022171 0.3136638701 -0.9469072819
0.2795988 0.19130445 2.398 -0.6574876308 0.7482318878 0.08865107596
-0.073990665 -0.35466194 1.6880001 0.001397534856 0.1959725767 -0.9806084037
-0.18945731 -0.16173185 1.7570001 -0.7349432707 -0.4528968334 -0.5047205687
-0.14492352 -0.32456827 1.7220001 -0.2837967873 0.1515027136 -0.946840167
0.074744605 0.0618576 1.4700001 -0.08606998622 0.8130688071 0.5757699609
-0.14444277 0.084394611 1.427 0.3015635908 0.02327978984 0.9531618357
-0.25681949 -0.077453502 1.5500001 -0.07787311077 0.8544916511 0.513594985
0.079447038 0.29489663 1.536 0.4725247622 -0.07337342948 0.8782577515
-0.23343179 -0.14719585 1.6960001 -0.1612513661 0.9110195041 0.3795280159
0.19005081 0.065122306 1.516 -0.1545445621 0.8199763298 0.5511395931
0.19071971 -0.025529411 1.7130001 -0.9015728831 -0.196222648 0.3855683506
0.25293148 -0.22098224 3.0370002 -0.1606787592 0.8030821681 0.573795557
-0.00146491 -0.04834203 1.6710001 -0.2978600562 0.8954340816 0.3308734596
0.0056141731 -0.018246064 1.6010001 -0.1926365793 0.8967661262 0.3983737826
-0.045850057 -0.495478 1.687111 -0.04842285812 -0.3666437268 -0.9291004539
0.18223709 -0.35135311 1.6630001 -0.4593197107 0.39904809 -0.7935906053
0.0060980935 -0.1570259 1.7390001 -0.01770960353 0.293697536 -0.9557343125
-0.12515743 0.015640281 1.4871252 -0.2023977041 0.780875802 0.5909891129
-0.11270146 -0.464782 1.6960001 -0.5927631855 -0.2334222496 -0.7708085775
0.13966089 -0.12614532 1.7130001 -0.3416654468 0.2961492538 -0.891941905
-0.27325466 -0.033504155 1.4890002 0.133723557 0.7502213717 0.6475229263
-0.08559861 -0.27782005 1.7129999 -0.0189409405 0.3414902687 -0.9396944642
-0.10358693 -0.42470643 1.6880001 -0.1967234612 -0.09449987113 -0.9758942723
0.025410183 -0.49624592 1.705 0.06994278729 -0.4051059484 -0.911590457
0.12425099 -0.39512616 1.6710002 -0.2344970703 0.06530152261 -0.9699210525
0.20623271 -0.3044782 1.655 -0.3499309421 0.2925562561 -0.8899208903
-0.44174269 0.31344777 1.6630001 0.5115488768 -0.2840636671 0.8109411597
0.025276056 -0.41631147 1.6960001 0.06702751666 0.004229450598 -0.9977421761
-0.094665647 0.047506407 1.4574547 -0.211995855 0.7812914252 0.5870617032
0.026406659 -0.30542043 1.705 -0.2701406479 0.1441292465 -0.9519720674
-0.25484347 -0.11389654 1.6240002 -0.1044913679 0.8765485287 0.4698342085
-0.0150173 -0.30485117 1.7129999 0.1388278902 0.2883143127 -0.9474184513
0.29021788 -0.28155464 1.6470001 0.179750368 0.05186345801 -0.9823441505
-0.094242543 -0.081546657 1.6710001 -0.3091063499 0.8415981531 0.4429061413
-0.055053789 -0.01319471 1.557 -0.1774985641 0.8689157963 0.4620385468
0.014798131 -0.46466139 1.6879998 -0.04932770506 -0.2232528627 -0.9735116363
0.034721259 -0.067932896 1.7220001 -0.0491046533 0.8799212575 0.4725752473
-0.054753087 -0.4247064 1.688 -0.09171500057 0.05428820476 -0.994304359
0.20069267 -0.41749933 1.6710001 -0.2825625539 -0.2305577546 -0.9311291575
-0.15096638 -0.37218446 1.705 -0.7154284716 0.1492095888 -0.682567656
0.045557734 -0.03453102 1.6550001 -0.09902622551 0.895665884 0.4335625172
-0.31105536 0.00134656 1.536 0.7761568427 -0.07960787416 0.6254943013
-0.10474063 -0.20640065 1.7570001 -0.3226468265 0.7417724133 -0.587939322
0.25221613 -0.18806867 1.6630001 0.1715830714 0.258277148 -0.9507113695
-0.22487552 -0.063288324 1.5360001 -0.2728764117 0.7641685605 0.5844526887
0.084749125 -0.047082845 1.6960001 -0.009756430052 0.8931186199 0.4497154355
0.07059709 -0.0013842566 1.5790001 -0.1530210078 0.8528226018 0.4992776215
0.0054476066 0.0054445383 1.5535001 -0.1967045069 0.8842166662 0.4236368835
0.055855937 -0.19474098 1.7220001 -0.5716848969 0.2570051253 -0.7791820765
-0.3205891 -0.043286294 1.5430001 0.8425469995 0.2237210572 0.4899627268
-0.09188588 -0.49451852 1.6960001 -0.4018526375 -0.4823417962 -0.7783706188
0.014868267 -0.37468031 1.6959999 0.1710429788 0.1414034665 -0.9750638008
0.12451735 -0.44386774 1.6710002 -0.1541086286 -0.3850456178 -0.9099397659
0.22888978 -0.21576869 1.6630001 -0.4040260315 0.1264479309 -0.9059657454
-0.015006487 -0.087509751 1.7310001 -0.3205929399 0.8472822309 0.4234772921
0.033915311 0.016509095 1.5270001 -0.160810113 0.8261418343 0.5400276184
0.162605 -0.46144664 1.6710001 0.01455488056 -0.5462060571 -0.8375243545
-0.16152933 -0.41514549 1.7220001 -0.7329612374 -0.08744495362 -0.674626708
0.26711595 -0.25556499 1.647 -0.09028377384 0.145218417 -0.9852717519
-0.16152933 -0.2943759 1.7220001 -0.3042455614 0.1027764902 -0.9470330477
0.075030923 -0.13700704 1.7326 -0.5090768337 0.2420774251 -0.8259778023
0.26193544 -0.40383735 1.6630001 0.3388406336 -0.5534101129 -0.7608707547
-0.22513121 -0.042737205 1.5076667 -0.2827111185 0.74924016 0.598927021
0.08292105 0.37517762 1.5505834 0.4314591289 -0.09906392545 0.8966768384
0.004982973 0.14326048 1.4210001 -0.03198673949 -0.2846008837 0.9581122994
0.03385862 -0.25469443 1.7220001 -0.4633969665 0.1635480374 -0.8709278107
-0.39809081 0.27058843 1.6160001 0.1444132328 -0.05318808556 0.9880869389
0.1222424 -0.34463519 1.6800001 -0.5638502836 0.2630358934 -0.7828697562
-0.38414159 0.23368222 1.6090001 0.4498146772 -0.1321356595 0.8832932115
0.1193459 0.17574011 1.4960001 -0.1382107735 -0.2891323268 0.9472593665
0.10407786 -0.48916596 1.6960001 -0.1094625145 -0.4405655265 -0.8910218477
-0.01470696 0.10907662 1.3980001 -0.05916453153 0.09073432535 0.9941161275
-0.075480998 -0.10114454 1.7220001 -0.295591265 0.7996332049 0.5226973295
-0.027053934 -0.0013526967 1.5430001 -0.1677059829 0.8473571539 0.5038457513
-0.12680808 -0.12227922 1.7220001 -0.3290016949 0.8163824677 0.4746341109
0.025533874 -0.18480077 1.7317275 -0.2229910791 0.09274566174 -0.9703984857
0.064705022 -0.41503498 1.6800002 -0.356292814 -0.1168041304 -0.9270448685
0.11462855 0.20533463 1.5159999 0.309838146 -0.2477127314 0.9179535508
0.13558438 -0.030615829 1.6630001 -0.1334127635 0.8152644038 0.563511312
-0.21257764 0.067464761 1.452 0.4363243878 -0.6005568504 0.6700391769
-0.2745904 -0.094056688 1.572 -0.1021769568 0.8584318161 0.5026476979
-0.19285221 -0.29423299 1.7390001 -0.5283613801 0.2115856856 -0.8222321868
0.12274579 -0.23508382 1.6960001 -0.3385206163 0.04494483024 -0.9398849607
-0.28706011 -0.057412025 1.5230001 0.3202766776 0.7441140413 0.5862739086
0.14795591 -0.22999087 1.6710001 -0.416680932 0.193957299 -0.888120234
-0.36358783 0.17657995 1.5860001 -0.0588892512 -0.2899832129 0.9552181959
0.035352461 0.14264593 1.4100001 0.08880261332 -0.1831250638 0.9790706635
0.20789887 -0.092568107 1.7310001 -0.3384112716 0.3799176216 -0.8608950973
0.14580061 0.074692883 1.4882501 -0.55618155 0.495621562 0.6670991778
-0.16773438 -0.043286294 1.5430001 -0.3699563742 0.8169064522 0.4424885213
0.16636795 -0.39367303 1.6550001 -0.004025113769 -0.1731574684 -0.984885931
-0.03138905 -0.33332181 1.705 0.04763643816 0.1686701775 -0.984520793
0.04711432 0.41454911 1.5740001 0.2512795031 -0.1141881496 0.961155355
0.095437199 0.043333076 1.5062728 -0.09275254607 0.8697799444 0.4846440256
-0.17339766 -0.24771094 1.766 -0.6828324199 0.3339088261 -0.6498036385
-0.42042917 0.33546439 1.6710001 0.6396232247 0.04964230955 0.7670839429
0.1059364 -0.19514599 1.6960001 -0.3597871065 0.1621214896 -0.9188416004
0.0045525301 -0.23521402 1.7310001 0.03438496962 0.1189356893 -0.9923064113
0.044298366 0.055343248 1.4744548 -0.1098865941 0.8464156389 0.5210618973
0.095388345 -0.015660774 1.6240001 -0.09702277184 0.9118846655 0.39881441
-0.034692623 -0.07632377 1.6960001 -0.1668624133 0.8798601627 0.4449753165
0.084710538 0.1121169 1.4210002 -0.2987553775 0.3661925793 0.8812764883
0.02934554 0.46813124 1.5940001 0.4012056887 -0.1017737314 0.9103164673
-0.050309271 -0.18751636 1.7390001 -0.3880108893 0.6418321133 -0.6614371538
-0.033937894 0.073085569 1.4338572 -0.06394609064 0.7758789062 0.6276326776
-0.26438865 -0.0089840796 1.4640001 0.1496406049 0.5921108127 0.7918412089
0.13420714 0.032317441 1.5360001 -0.2516295314 0.8513193727 0.4603671432
0.16452552 -0.012092239 1.636 -0.2945815921 0.8107835054 0.5058180094
-0.065846428 -0.047338247 1.6240003 -0.2955613136 0.852283597 0.4315740466
0.22379874 -0.39572844 1.655 -0.03777574375 -0.2618107796 -0.9643796682
-0.15549086 -0.13284656 1.7220001 -0.3863839209 0.8210555911 0.4202085137
0.12149987 0.26035684 1.5230001 0.318772912 -0.2586447299 0.9118589759
-0.0052459734 0.034098826 1.4960002 -0.2315796018 0.8267522454 0.5126906037
0.10605329 -0.29546937 1.6880001 -0.4287987649 0.1463179588 -0.8914722204
0.035176247 -0.014074008 1.6050001 -0.106868498 0.9303748608 0.350687474
0.15453705 -0.33823201 1.6630001 -0.1124416143 0.1416017264 -0.9835170507
0.30317676 -0.34340873 1.6390001 0.04352038726 0.3207939267 -0.946148634
-0.16844361 -0.35509732 1.7310001 -0.5084978342 -0.07390382886 -0.8578858972
-0.4181253 0.32616645 1.6390001 -0.6239236593 -0.01837049052 0.7812693715
0.054666594 -0.47426966 1.6853333 -0.04832309112 -0.2259616256 -0.9729369283
0.024154505 0.087862752 1.4250001 -0.08988308907 0.7310115099 0.6764194369
-0.2124058 -0.088036619 1.5940001 -0.3615955114 0.8278563619 0.4288385212
-0.23421729 0.0050916793 1.4519998 -0.05833504722 0.4578496218 0.8871136904
0.075828157 -0.3454394 1.6960001 -0.2321050912 0.2397906482 -0.9426705241
-0.22524372 -0.12272895 1.6470001 -0.2475503385 0.8719025254 0.4224983156
-0.075445935 -0.065289758 1.6550001 -0.1925706267 0.8780352473 0.4381446242
-0.085198849 -0.33332178 1.705 0.02583878487 0.2673622966 -0.9632495642
-0.025916897 -0.16922207 1.739 -0.5086940527 0.5079527497 -0.6951361895
0.056300998 -0.24563177 1.705 -0.2418180406 0.1747442037 -0.9544571638
-0.19597708 0.045225479 1.4330003 0.2798767686 0.1700103581 0.9448626637
-0.38529149 -0.48653597 3.2080002 -0.2141711116 0.7992501259 0.5615424514
0.055902403 -0.3043243 1.7050002 -0.06072555855 0.06826869398 -0.9958171248
-0.045874219 -0.39511016 1.688 -0.1516022235 0.1749970615 -0.9728271961
-0.18287967 -0.12935393 1.6960001 -0.3660838008 0.839073956 0.4024145901
0.19588239 -0.1649536 1.6800002 -0.1124842018 0.11706727 -0.9867332578
0.085422404 -0.39471042 1.6800002 -0.3319812119 0.2371819466 -0.9129803777
-0.30032232 -0.022101643 1.483 0.464199692 0.6184921265 0.6340237856
0.29012144 -0.20847923 1.6630001 0.05534046888 0.4422731996 -0.8951714039
0.12451618 0.046195365 1.5056667 -0.2444095612 0.8179705143 0.5207573175
-0.091323242 0.12259833 1.427 0.2679642737 -0.1939981133 0.9436948299
0.29021788 -0.23823854 1.6470001 0.1377111375 0.259675622 -0.9558264613
-0.20084783 -0.19462 1.7760001 -0.7062627673 0.08936922252 -0.702286303
0.13486816 0.0069519668 1.5860001 -0.1889075339 0.8936229348 0.4071265161
-0.055340458 0.02239971 1.503 -0.1526153684 0.8152951598 0.5585716367
0.27300277 -0.38651443 1.6390001 0.260417819 -0.3844970167 -0.8856323361
0.22488689 -0.28292224 1.655 -0.3342410922 -0.0548033379 -0.9408929348
-0.13526647 -0.24469082 1.7336668 -0.2403176725 0.4581947029 -0.8557482362
0.24416919 -0.11986488 1.6880001 -0.2260565907 0.6934193969 -0.6841549277
-0.12577711 0.032941628 1.4640001 -0.2100051343 0.8280736208 0.5197999477
-0.16699973 -0.11279807 1.6710001 -0.3524219692 0.8125481606 0.4642890096
-0.10556471 -0.37468031 1.6960001 -0.1474561989 0.1006257609 -0.9839365482
0.082209416 -0.28399616 1.705 -0.2167639732 0.1370454431 -0.9665567279
-0.044007789 -0.21396892 1.7310001 -0.08680556715 0.2735048831 -0.9579456449
-0.1283177 -0.46949181 1.7220001 -0.6838515997 -0.3916741014 -0.6155797243
0.16307542 -0.11631332 1.6880001 -0.02159787342 0.4255571961 -0.9046737552
0.094606362 0.015082173 1.5640001 -0.07307985425 0.8910911679 0.4479016364
0.1966597 -0.073045038 1.748 -0.5052983165 0.1128109097 -0.8555392027
-0.014479261 -0.4642238 1.6853334 0.3498660326 -0.1175008938 -0.9294015765
-0.02165805 -0.050535448 1.6470001 -0.2031620443 0.9019033909 0.3811764121
0.15344472 0.10885394 1.4960001 -0.3420345485 -0.1931950897 0.9196129441
-0.17609888 -0.024781831 1.5074999 -0.4076145291 0.7194871902 0.5623064637
0.23585051 -0.16553482 1.6710002 -0.06085792556 0.1689687073 -0.983740747
0.15528046 -0.29444689 1.6710001 -0.1404135078 -0.05935800448 -0.988312006
0.016468184 0.069673084 1.4450001 -0.02965602651 0.8064840436 0.59051162
0.20502952 -0.35519204 1.6469998 -0.168288216 0.1623915136 -0.9722695351
-0.11863667 -0.32287195 1.7130001 -0.5455579758 0.2723168135 -0.7925970554
-0.014798133 -0.34775612 1.6880001 0.1161274537 0.30985865 -0.9436641335
0.16765812 -0.24784243 1.6630001 -0.005792172626 -0.02361634932 -0.9997043014
-0.32673067 0.064579293 1.5542001 0.4247222841 0.11404939 0.8981111646
-0.095261231 -0.22520864 1.7358001 -0.3360792696 0.5032885075 -0.7960850596
-0.12032688 0.068226583 1.4150001 0.09228869528 0.4905087948 0.866535604
0.031702019 -0.28229895 1.7220001 -0.3528681397 0.2771532536 -0.8936834931
0.25556496 -0.32487074 1.6470002 -0.04022360593 0.04778139293 -0.9980475903
0.10347815 0.30362096 1.5257272 0.09679389 -0.1365149766 0.9858978391
0.20264764 -0.33094254 1.6630001 -0.6174380779 0.3272153437 -0.7153323293
-0.076952919 0.059291597 1.439 -0.1393603384 0.8153969049 0.5618776679
-0.1542069 -0.085133277 1.6348002 -0.2979106009 0.8310500979 0.4696860611
0.09637963 0.26681942 1.5430001 0.1685147882 -0.1240095571 0.9778672457
-0.37123501 0.11540265 1.5860001 0.4693380892 -0.1960697472 0.8609752655
-0.048909232 -0.032140352 1.5940001 -0.1743807644 0.9128187895 0.3692603707
0.21292509 -0.027949594 1.739 -0.4841100574 -0.1430755258 -0.8632304668
-0.0029736534 -0.39549589 1.6960001 0.2890396416 0.04510300606 -0.956254065
-0.35298547 0.045680474 1.5790001 0.3081943393 0.002171218395 0.9513209462
0.025635924 -0.044679757 1.6710001 -0.1121534333 0.9095776081 0.4001127481
-0.17065719 0.0026028233 1.4860001 -0.4188189209 0.7493126988 0.5129534602
-0.044604804 -0.35535157 1.6960001 -0.05734813958 0.1212839186 -0.9909598231
0.1668472 0.0208559 1.5860001 -0.4021529257 0.8416125774 0.360501498
-0.11475215 -0.061862275 1.6160001 -0.3194230795 0.8494962454 0.4199106693
-0.36033192 0.17577165 2.0050001 -0.9039823413 -0.4184984863 -0.08760684729
0.0076480401 -0.16315818 2.9080002 -0.1961205453 0.7917521596 0.5785025954
-0.23803604 0.04582512 1.452 0.2258263677 0.2701645494 0.9359559417
-0.11526553 -0.015350784 1.5360001 -0.2012553364 0.8256964087 0.5269930959
0.14400198 0.16498585 1.4960002 -0.2724663913 -0.2334693372 0.9334099293
-0.36444029 0.088920884 1.5766668 0.3953811526 -0.1134829223 0.9114797711
0.15826552 0.041933596 1.5430001 -0.3734112084 0.8031131625 0.4642987847
0.20702134 -0.24492663 1.6630001 -0.2843543589 0.07330770791 -0.9559124112
0.065594599 0.35440841 1.5500001 0.2386113703 -0.1962923706 0.9510698915
-0.1748161 0.027235843 1.4450001 -0.2372160256 0.7065322995 0.6667388082
0.065563709 0.085736893 1.4382498 -0.1181070656 0.7175366282 0.6864342093
-0.0034468342 -0.008968519 1.57375 -0.2596887648 0.8760763407 0.4062659144
-0.23438561 -0.13037699 1.6710001 -0.1567717195 0.9060510993 0.3930572867
0.16632544 0.066185579 1.5030001 -0.1332536489 0.6413501501 0.7555881739
-0.11654407 -0.03310243 1.5640001 -0.2389141768 0.8249939084 0.5121572614
-0.20518208 -0.14273536 1.6960001 -0.3109473288 0.8812726736 0.3559076488
0.21444054 -0.43265337 1.6550001 -0.55836761 0.1912096888 -0.8072573543
0.17850336 0.01275024 1.6160001 -0.4026550055 0.7846357226 0.4713976681
-0.163124 -0.15092781 1.7390001 -0.2992493808 0.8728842139 0.3853867948
0.15528047 -0.20508739 1.671 -0.3160100281 0.04755175486 -0.9475634694
-0.0099168532 -0.032583948 1.6160001 -0.2422071695 0.860548377 0.4480983615
-0.064898036 0.037667975 1.4725456 -0.1132235304 0.7647266984 0.6343291402
-0.075984456 -0.0059633371 1.5360001 -0.2094100118 0.8405795693 0.4995732307
-0.064574391 -0.29283735 1.7129999 0.09937028587 0.5152847767 -0.8512386084
0.2609635 -0.16328442 1.6630001 -0.09481427073 -0.04880433902 -0.9942979217
-0.076727614 0.0092602298 1.5090001 -0.1836083233 0.7961294055 0.5765985847
0.063933544 -0.37021983 1.6960001 -0.2343860716 0.1543699801 -0.9598088861
0.11781085 0.10260946 1.4450001 -0.4962300062 0.4822123945 0.721960485
-0.12471128 -0.075976804 1.6351112 -0.3061811626 0.8362523913 0.4549011588
0.06221791 -0.17147863 1.7310001 -0.4379846454 0.2955422699 -0.8490136862
-0.23536544 -0.10429586 1.6076666 -0.1753250659 0.8729739785 0.4551676512
0.13336818 0.12041981 1.4770001 -0.6167704463 -0.4326971173 0.6575465202
-0.23583034 -0.082266398 1.5640001 -0.2250658274 0.8773720264 0.4237495959
-0.46368214 -0.24311984 2.8590002 -0.2141711116 0.7992501259 0.5615424514
0.23504309 -0.31193992 1.6550001 -0.1199334413 0.2025657445 -0.9718966484
-0.18395972 0.0051337602 1.4640001 -0.2832293808 0.707433641 0.6475482583
0.10457347 -0.33552721 1.6960001 -0.3259680271 0.05559564754 -0.9437446594
0.12530372 -0.0056360904 1.6060001 -0.1711714119 0.8964666128 0.4087150097
-0.025668802 0.047487281 1.4640001 -0.183629185 0.8123195767 0.5535497069
0.18793629 -0.0221972 1.6880001 -0.4595178962 0.8499545455 0.2577219307
-0.025134912 0.019843349 1.5090002 -0.1437525749 0.8574150205 0.4941403568
-0.12558308 -0.10342562 1.6853334 -0.371325016 0.8018838167 0.4680812657
0.19973184 -0.20264764 1.6630001 -0.1473025382 0.1248212531 -0.9811837673
-0.15480429 -0.024998959 1.5253078 -0.296900034 0.7624465823 0.5749135613
0.17578919 -0.43507823 1.6710001 0.1131730974 -0.1508728415 -0.9820535779
-0.19441836 -0.11679611 1.6550001 -0.4302131832 0.7908509374 0.4352830946
-0.16533741 -0.068212204 1.6010001 -0.3398692906 0.8177217245 0.4645643532
-0.14523874 -0.34775776 1.7130002 -0.4462505281 0.2813619375 -0.8495268822
-0.19392493 -0.056488641 1.5500001 -0.375205785 0.7895145416 0.4856823683
0.098824881 0.0705892 1.4640001 -0.1553851217 0.8039812446 0.5739943981
0.046866976 0.48429209 1.5790002 0.3484602571 -0.1386867017 0.9270067215
-0.014592995 -0.25613219 1.7220001 0.3281900883 0.1141139939 -0.9376935959
-0.18401058 -0.19659249 1.794 -0.7437903881 0.02861731686 -0.6678000689
0.055478536 -0.22531079 1.7220001 -0.4011119604 0.2052736431 -0.8927328587
0.054483373 0.12586507 1.4103333 -0.1576481014 0.2106924504 0.9647568464
0.058567468 -0.058567468 1.7130001 -0.1706529856 0.8962655663 0.4093721807
0.084825173 -0.25522286 1.705 -0.3168692887 0.0071499818 -0.9484422803
-0.084352858 0.094276719 1.4150003 0.1585858464 0.08343352377 0.9838137031
0.19006571 -0.010156184 1.6550001 -0.4645707905 0.7790293097 0.4210550189
-0.21661995 0.034565087 1.4449999 0.2346458137 0.3515684605 0.9062786102
-0.13888709 -0.052140336 1.5790001 -0.2446018904 0.8300482035 0.5011885166
-0.0044604801 -0.44456115 1.6960001 0.1870160103 0.00820571743 -0.9823225737
-0.035466559 0.10411764 1.41 0.1406054497 0.1255399585 0.9820742607
0.063828222 -0.043738026 1.6710002 -0.1279700547 0.8956158757 0.4260232747
0.011653529 0.047908958 1.4770001 -0.1217198893 0.8177117109 0.5626116395
0.025870785 -0.34821481 1.6960001 -0.07188636065 0.1158388183 -0.99066329
0.17413054 0.02879324 1.5640001 -0.2603586614 0.8308588266 0.4918200672
0.1318156 -0.28351402 1.6800001 -0.5179730654 0.1520202905 -0.8417800665
0.47459227 0.039940935 2.6800001 -0.1921822429 0.8642335534 0.4649369717
0.097156584 -0.15843996 1.705 -0.4058684707 0.2878075242 -0.8674316406
-0.21421528 -0.0057193735 1.472 -0.1788981557 0.7809922695 0.5983698964
0.18694974 -0.13663609 1.6880001 0.005373954307 0.5874695778 -0.8092284203
0.12326722 0.23490547 1.5159999 0.519438982 -0.2097343206 0.8283686638
-0.18934685 -0.16743895 1.7850001 -0.8986362815 -0.1231397763 -0.4210574925
-0.31666249 0.014455182 1.5556 0.6137807369 -0.119921118 0.7803153992
-0.1859653 -0.071738891 1.5780002 -0.460721761 0.7965739369 0.3914145827
0.13678806 -0.14422219 1.6960001 -0.3978353739 0.3300522566 -0.8560330272
0.20673816 -0.10862514 1.7129999 -0.001794265001 0.6884770393 -0.7252559066
-0.17827076 -0.27225876 1.748 -0.4938970804 0.7165877819 -0.4925115705
-0.38743097 0.17502519 1.594 0.1248503849 -0.3521787226 0.927568078
0.12721485 0.1377068 1.4960001 -0.06296308339 -0.2638310492 0.9625117183
0.015231206 -0.20565052 1.7376667 -0.1515726447 0.1662211865 -0.9743696451
0.10540251 -0.024545791 1.647 -0.1219075695 0.9040911198 0.4095824957
0.05310145 0.46533641 1.5940001 0.4070632458 -0.09564192593 0.9083788395
-0.40092421 0.21817076 1.6160001 0.5817610025 -0.16113922 0.7972378731
-0.064783156 -0.37510517 1.696 0.1031651348 0.04810099304 -0.9935005307
-0.095020503 -0.046951987 1.6034 -0.2941636741 0.8599051237 0.4171700776
-0.01107756 0.13908492 1.404 -0.1047997996 -0.3753372133 0.9209446311
-0.1434928 -0.41403651 1.705 -0.6755622625 -0.04579437152 -0.7358794212
0.075440668 -0.43489388 1.6873332 -0.3084817529 -0.2152974159 -0.9265452027
0.1247707 0.016179059 1.5640001 -0.1087005213 0.8861470819 0.4504747987
0.08424367 -0.0079752319 1.6045556 -0.1215426624 0.9152079821 0.3842157722
0.014766134 -0.43415648 1.6845001 0.01740476303 0.1853104383 -0.9825258851
-0.14416344 -0.27315179 1.7310001 -0.1958606988 0.3249336779 -0.9252333045
-0.0956655 -0.033733007 1.5749999 -0.2597884834 0.8598052263 0.4395963848
-0.15430276 -0.39457959 1.7130002 -0.6984656453 -0.04971196502 -0.7139148712
-0.16237606 0.093893386 1.439 0.1878713667 -0.1349843889 0.9728738666
0.04438607 -0.025772393 1.6331668 -0.1058718786 0.91868788 0.3805308938
-0.18764453 -0.095957831 1.6240002 -0.4278833568 0.7811704278 0.4546301663
-0.015194386 -0.064373888 1.6851428 -0.3653526008 0.8082548976 0.4617807865
0.28720564 -0.33385834 1.6630001 0.2325961888 0.2583183944 -0.937640965
0.065937765 0.40497506 1.5640002 0.5539053082 -0.07477118075 0.8292154074
-0.0075480998 -0.21738528 1.7220001 0.2100376636 0.2729908228 -0.9388078451
0.074405327 0.048298195 1.4890001 -0.1054013148 0.8588248491 0.5013087988
-0.073381387 -0.026811093 1.5727779 -0.2395520657 0.8703433275 0.430252552
-0.20423265 -0.027670229 1.5029999 -0.274828434 0.7136510611 0.6443380713
-0.10589256 0.056727339 1.4380001 -0.1983344406 0.7604002953 0.6184293032
0.015760362 -0.056796778 1.6960001 -0.1591349989 0.8989946842 0.4080252051
0.1045688 -0.0397656 1.6799999 0.07761932164 0.8494990468 0.521849215
0.14484549 -0.17440847 1.686 -0.5372632146 0.2630750239 -0.8013362288
-0.087722771 -0.090696424 1.6960001 -0.3667332232 0.8359979987 0.4081838429
-0.01207696 -0.16152933 1.7220001 -0.1489301175 0.08573370427 -0.9851241112
0.095517218 0.13273172 1.4150001 -0.3203470111 0.09468991309 0.9425559044
-0.14648029 0.06205941 1.4330001 0.03471086547 0.2736007571 0.9612168074
-0.27469823 -0.072714239 1.5360001 0.01119196787 0.8169155121 0.5766487718
-0.063373007 -0.26640689 1.7130001 -0.03603890538 0.1806724519 -0.9828828573
0.03419701 -0.47608191 1.6960001 0.05342120677 -0.3497092426 -0.9353339672
0.1782088 -0.2047192 1.6800001 0.03585084528 0.1103798151 -0.993242681
-0.13423169 -0.009303187 1.5160002 -0.2846728563 0.7946954966 0.5361161232
-0.074991465 -0.43491992 1.684 -0.02298090234 0.0286159981 -0.9993262887
0.081765823 0.02814889 1.529 -0.1288992763 0.8673942685 0.4806371927
-0.15162125 -0.097679079 1.6630001 -0.3257803321 0.8194411397 0.4715754092
