# .PCD v0.7 - Point Cloud Data file format
VERSION 0.7
FIELDS x y z normal_x normal_y normal_z
SIZE 4 4 4 4 4 4
TYPE F F F F F F
COUNT 1 1 1 1 1 1
WIDTH 512
HEIGHT 1
VIEWPOINT 0 0 0 1 0 0 0
POINTS 512
DATA ascii
0.085891068 -0.019120626 1.7310002 -0.1837843657 0.7815257907 0.5961884856
-0.35838833 -0.39501196 2.9840002 0.729778111 0.5943270922 0.3379338384
-0.30671674 0.046718445 2.3170002 -0.02213547565 0.7809332609 0.6242220998
0.4991512 -0.4991512 1.5860001 0.8215245605 -0.3735938668 0.4307261705
0.47209376 0.19847207 2.1980002 0.1058689579 -0.9626172185 -0.2493187636
0.025381256 0.49491692 1.6832001 -0.4829761982 0.5541539788 -0.6779729724
0.14731735 -0.4452185 1.8630002 0.6223115325 0.3341360986 0.7078710794
0.44251591 -0.074405327 1.4890001 -0.1130524278 0.6770920753 0.7271625996
-0.0518636 0.2253384 2.0400002 0.8549717069 -0.1565319598 0.4944907725
0.38054258 0.40994072 1.863 -0.053225182 0.9746053219 -0.2175120562
-0.16315731 -0.29021788 1.6470001 0.1252354681 0.7347982526 0.6666240096
-0.27958652 -0.20440359 2.6800001 -0.342783004 0.7902472019 0.5079460144
0.15430617 0.18400767 1.4519999 0.08505690098 0.04303352162 0.9954463243
0.33386078 -0.21448724 1.7570001 0.8701870441 -0.1072799861 0.4809007049
-0.17240877 0.05422534 1.5860001 0.4681954682 0.1225739568 0.8750820756
0.0050653801 -0.20768058 1.9260001 -0.1442148387 0.9016524553 0.4077069461
-0.3902657 0.18872003 2.0900002 -0.5277721286 0.7672133446 0.3644726276
-0.25256678 0.33345419 1.8830001 0.4661669135 0.08338822424 0.8807581067
0.36869094 0.11144187 1.6799999 -0.6152859926 -0.5415739417 0.5728183389
0.092185006 0.26860803 1.8130001 0.5107451081 -0.5987418294 -0.616966486
0.26779187 0.31151298 2.0780001 -0.4736799002 0.8806247115 0.01129151136
0.30658364 -0.43504548 1.6960001 0.2531169355 0.3916580081 0.8846105337
0.23459813 -0.025109133 1.4040002 0.4105691314 0.6755557656 0.6124193072
0.48983663 -0.27369094 1.6010001 -0.807546556 -0.3060989678 0.5041547418
0.1975884 -0.11788888 1.8940001 0.09150842577 0.7310705781 0.6761375666
-0.20227855 -0.10880134 1.748 0.2668710351 0.8733446002 0.4074912369
-0.03460028 -0.36959389 1.794 0.06099113822 0.8792618513 0.472417891
-0.36381227 -0.063176982 2.4850001 -0.2924897969 0.7964836955 0.5292102098
0.024546448 0.069535226 1.55525 -0.2299770713 0.8566823006 0.4617422819
0.49367467 -0.045412209 1.6710001 -0.4153629243 -0.421339184 0.8061928749
0.20541878 0.074062556 1.5940002 0.168623805 0.944539547 0.281799674
0.039258011 0.38404575 1.9470001 0.8991410136 -0.1841353923 0.3970384896
0.28022298 -0.020126512 1.766 -0.2064219117 0.8368223906 0.5070682764
-0.20486122 -0.30858842 2.9580002 0.629448235 0.6128619909 0.4776976705
-0.090309814 0.2512255 1.8730001 -0.04042856395 -0.3427562714 0.9385540485
0.20427023 -0.28597832 1.8430002 0.7991561294 -0.03214178979 0.6002635956
-0.035544455 -0.12675285 1.785 -0.5555737615 0.5053572655 0.660266459
0.26305765 0.29757801 1.8230002 -0.1730221659 -0.2146998495 -0.9612321854
0.49804309 0.35893452 1.9590001 0.2848997414 0.9549697042 0.0828550607
0.45942944 -0.39400905 1.6960001 -0.1152388677 0.4783329368 0.8705846071
-0.064456038 -0.01611401 1.6710001 -0.4136767983 0.7852191925 0.4607627392
-0.17514484 0.25626457 2.1030004 0.4570925832 0.8894138336 -0.003072208492
0.082262017 -0.32569045 1.9150001 0.9503755569 0.08105079085 0.3003616035
-0.22832082 0.11903906 2.2260001 0.1090108752 0.7082496285 0.6974948645
0.061570931 0.36191693 1.7130001 -0.123445116 -0.7302175164 -0.6719700098
0.41534832 -0.166324 1.655 0.5691793561 -0.593754828 0.5687618852
0.16845764 0.31433848 1.9810001 0.004100899678 -0.9938810468 0.1103794202
0.36251357 -0.30447823 1.655 0.6427249908 0.1253469437 0.7557729483
0.027412489 0.18274993 1.4890001 0.404631108 -0.5413099527 0.7370598316
0.076349773 -0.12670814 1.853 -0.2486378253 0.6933888197 0.6763070226
0.20640065 -0.38507587 1.7570001 0.6840292215 -0.358477354 0.6352936625
0.35590515 -0.034066174 1.4129167 -0.208893761 0.6107854247 0.7637437582
-0.22343603 -0.031919435 1.6550001 0.4798370302 0.3344124258 0.8111256361
-0.083190843 0.12241904 1.5430001 0.6544417143 -0.2579851151 0.7107388377
0.37293544 -0.087776244 1.7363334 0.810147047 -0.1465558857 0.5676117539
0.12325758 -0.2110575 1.9260001 0.5024124384 -0.6405746937 0.5807287097
-0.033453599 -0.30554286 1.6960001 -0.1195033416 0.8057034612 0.5801386833
0.21330352 -0.49978417 1.7760001 0.8481775522 0.4551938474 0.2709121704
0.19774795 0.019328747 1.6960001 0.2421336919 0.8038769364 0.5432800055
0.40506825 -0.49475119 1.705 0.6495624781 -0.3755535781 0.6610810161
0.17394504 -0.05630409 1.794 -0.1610661745 0.7934407592 0.5869492888
0.27834517 -0.12652053 1.8040001 0.7010914087 -0.5343531966 0.4721625745
0.10459188 0.044411641 1.6343334 -0.1369993091 0.7002224326 0.7006566525
0.41454163 0.018417364 1.7220001 -0.350712806 0.4913642108 -0.7972212434
0.028375946 0.2754136 1.904 0.4384543002 -0.7292252183 0.5253459811
0.31579724 0.05473819 1.6010001 0.2388072312 0.92573452 0.2932348549
0.12441478 0.10702083 1.526 -0.1437033713 0.9018424749 0.4074672163
0.23399723 0.13484624 1.508 -0.6350423694 0.3177384436 0.7041047215
0.27508068 -0.30467841 1.7353638 0.7897552252 -0.299420625 0.535382092
-0.18719551 0.29710847 1.9590001 -0.807648778 -0.5569752455 0.1936026812
-0.1959876 0.24743435 1.863 -0.5039587021 0.3856134415 0.772869885
0.35678577 0.34583184 1.7850001 -0.6065299511 -0.1910809875 -0.7717573643
0.46372598 -0.12319884 1.5790001 0.407335341 0.9044985175 0.1263342351
0.34490871 0.35024235 2.0280001 -0.3207682073 0.9286788702 0.1861808151
0.058807675 -0.34172028 1.8130001 -0.4653258026 0.4512715936 0.7614629865
-0.10454119 -0.094728649 1.7220001 -0.2625528574 0.602850616 0.7534170151
-0.072300449 0.031979047 1.5860001 -0.1158195958 0.8429368734 0.5253981948
-0.30321708 -0.24257368 2.7670002 -0.342783004 0.7902472019 0.5079460144
-0.072790511 0.25196716 2.1290002 0.4900690019 0.8654056787 0.1044288576
0.014368567 0.02586342 1.6390001 -0.05423469469 0.8765231967 0.4782945514
-0.0045653875 -0.054804523 1.7363337 -0.3661529124 0.6860655546 0.6286860108
0.22135045 -0.1954993 1.8430001 0.7881132364 -0.3311277926 0.5188756585
-0.12177601 -0.15024313 1.8040001 0.1842592806 0.8195633888 0.5425536036
0.18882962 0.28406543 1.8730001 -0.4526735842 -0.1970121413 -0.8696395159
0.14417113 -0.35535136 1.8529999 -0.07850426435 -0.1730788648 0.9817743301
-0.1097876 0.29336685 2.0530002 0.5255721211 0.7229127884 0.4485209286
0.4077552 0.018599359 1.6320001 -0.5975728631 -0.6544689536 0.4632246494
0.37577879 -0.3946403 1.6550001 0.07656219602 0.2873771191 0.954752624
0.25531054 0.060729988 1.4137502 0.4093693495 -0.172885552 0.8958389163
0.40765089 -0.24543686 1.6090001 0.6166645885 0.07187722623 0.7839377522
0.44505072 -0.34766918 1.6240002 -0.02189612947 0.5436740518 0.8390107751
0.35824984 -0.09379895 1.4860001 -0.03581063449 0.8590201735 0.5106877089
0.27518219 -0.25462258 1.8040001 0.6778618097 0.04555553943 0.7337765694
-0.030864803 -0.18356435 1.853 -0.3969227672 0.7664020061 0.5050547719
0.060446166 -0.25214684 1.9700001 0.6074131727 -0.448997885 0.6553243995
-0.14476199 -0.014338396 1.6349168 -0.0906425491 0.782731235 0.6157237291
0.49592447 -0.19409868 1.6240003 0.5885157585 0.1631267816 0.7918578386
0.064158849 -0.077199265 1.785 -0.2473589778 0.7701436281 0.5879560709
0.48307842 -0.47703993 1.7220001 -0.7045758367 -0.1936207861 0.6827033758
-0.015737921 0.10885394 1.4960001 0.0002084322186 0.6009836197 0.799261272
0.35304332 -0.22559614 1.6710002 0.8408716917 -0.3355456293 0.4246691763
0.12630312 -0.27656028 1.863 0.5402103662 -0.2296834439 0.8095790744
0.03814552 0.31684136 1.7760001 -0.09764691442 -0.6221495867 -0.7767850161
0.49813515 -0.44615582 1.6470001 0.9562756419 -0.249405846 0.1527536064
0.1097499 -0.41198424 1.9260001 0.8666216135 0.4200493693 0.2693055868
-0.0087885829 0.28299239 2.0050001 0.8671662211 -0.3643648326 0.3395010531
0.34002393 -0.06167876 1.8040001 0.565171957 -0.2969852686 0.7696624994
-0.11448565 -0.32561505 1.6960001 -0.08302143961 0.823794961 0.5607756376
0.24611714 -0.059132043 1.8230001 -0.005813101307 0.7568067312 0.6536129117
0.014798133 0.41878718 1.6880001 -0.7974393964 -0.3523291945 -0.4898515344
0.31546929 -0.35555881 1.6879998 0.4758651257 -0.2115696967 0.8536923528
0.34172818 -0.49803433 1.748 -0.2889983356 0.776481688 0.5599608421
0.30036703 0.0012062934 1.376 -0.2915224731 0.2367824167 0.9267948866
0.26448542 -0.49424958 1.7220001 0.2886347771 0.4237627983 0.8585540652
-0.16483246 -0.074976362 1.682909 -0.1890813261 0.6521331072 0.7341462374
0.29642731 -0.064605951 1.4450001 0.1140915453 0.9157113433 0.3852997422
0.28491929 0.12210827 1.6010001 -0.4346072376 -0.06905542314 0.8979687691
0.37408385 -0.16394474 1.7220001 0.6771997809 0.01144207921 0.7357102036
-0.097209185 -0.25970811 1.6550001 -0.7066063881 0.0597595945 0.7050788999
0.094934225 0.14326046 1.4700001 0.003236801131 0.6915271878 0.7223431468
0.143797 -0.10178889 1.8430001 -0.3051381707 0.7895267606 0.5324830413
0.32261842 0.32521755 1.853 0.352565378 -0.7276673913 -0.5883858204
0.071397483 0.4200829 1.8940001 0.9409627914 0.05227658525 0.3344491124
0.23433827 -0.32765415 1.794 0.6503522992 -0.7437681556 0.1544369459
0.062541984 -0.18209125 1.8940001 -0.3131513596 0.6677341461 0.675327599
0.17771962 -0.44193995 1.794 0.9078729153 0.2162346244 0.3591787517
-0.025233099 0.22709785 1.8830003 -0.111409232 -0.2938947976 0.9493228197
0.1954993 -0.49601886 1.8430002 0.7940513492 0.3968495131 0.460426867
0.49167323 -0.01062257 1.7310001 -0.6911859512 -0.6049473286 0.3953488171
0.15397687 -0.012196187 1.7390002 -0.2039920986 0.7658506036 0.609803319
0.25904843 -0.38519374 1.7130001 0.6415584087 -0.1421710104 0.7537839413
0.26605958 0.0074735833 1.705 0.06176318601 0.8301147223 0.5541613698
0.17766351 -0.18264472 1.8940001 0.6108186841 -0.434586823 0.6618419886
0.38820115 -0.092289329 1.6710001 0.8061677814 0.4424369037 0.3928652108
0.33440974 -0.13314462 1.766 0.6519232988 -0.3128986657 0.6907173395
0.025276056 -0.011894614 1.6960001 -0.2218555212 0.7304286957 0.6459520459
0.35487443 0.024171017 1.6710002 -0.2260855883 0.777005136 0.5874932408
0.017579796 -0.11986225 1.8230001 -0.4718506336 0.587955296 0.6570125818
0.13208736 0.079252422 1.5860001 -0.1828431487 0.8667600155 0.4639994502
0.054991197 0.10759698 1.5077999 -0.070126459 0.8361282349 0.5440329313
0.1245305 -0.14445536 1.8940002 -0.3416743875 0.5799740553 0.7395192385
0.22410493 -0.44516084 1.7390002 0.394017309 0.02302792668 0.9188144803
0.12196888 0.21901938 1.4960001 -0.009703895077 -0.7331343293 0.6800146103
0.31966773 -0.27506292 1.6960001 0.7328534722 0.002340098144 0.6803824306
-0.045205947 0.067520365 1.5360001 0.1242939755 0.6260635257 0.7698022127
0.21645337 -0.025667924 1.748 0.08151295781 0.7549849749 0.6506561041
0.23592834 0.054578286 1.6470001 -0.1564017534 0.8532389998 0.4975155592
0.17384842 0.12849987 1.4865999 -0.001387930126 0.7872005105 0.6166955233
0.13472614 0.015730906 1.6826668 -0.2791764736 0.7977630496 0.534447968
0.32942066 0.38727012 1.8330001 -0.8346125484 0.427479893 -0.3473944068
0.274892 -0.18673877 1.785 0.5420033932 0.05544693395 0.8385451436
0.16667537 0.04741627 1.6390001 -0.01509616058 0.8650683165 0.5014268756
0.40293002 -0.43266657 1.6960001 -0.3960163891 0.5229084492 0.7548097372
-0.11791516 0.075410865 1.5640001 0.5757263899 -0.02971702628 0.8171022534
0.085619651 -0.26357424 1.9150001 0.8023207188 -0.3379480243 0.4920086861
0.4347814 -0.031435806 1.6550001 0.1456709653 0.3092546463 0.9397560954
0.49475119 -0.36562261 1.6550001 0.1257397979 0.717427969 0.6851909757
0.11625301 -0.047227785 1.7760001 -0.1890586913 0.6575257182 0.7293262482
0.40181842 -0.048795264 1.452 -0.5187206864 0.5138009191 0.6833282113
0.41508764 0.073250756 1.6880001 -0.6902724504 -0.4582168162 0.5599654913
0.24399439 -0.13353088 1.853 0.6926433444 -0.4742598236 0.54343611
0.20435748 -0.3453609 1.853 0.68155092 -0.2096441388 0.7010974884
0.19525118 0.098298877 1.5359999 0.08568659425 0.8851874471 0.4572755992
0.46985212 -0.49858925 1.6390001 0.7124724984 -0.4732849598 0.5180582404
0.17638884 -0.23355187 1.863 0.4837643802 -0.176830098 0.8571482897
0.40989515 -0.11081856 1.5230001 -0.2436797321 0.8384463787 0.4874709249
0.18437001 -0.38622338 1.8130001 0.9125068784 -0.3953312039 0.1050925553
-0.036893465 -0.3460668 1.7390001 -0.2330052704 0.7891400456 0.5683014393
0.38076702 0.070405975 1.6390001 -0.4830420017 -0.3132489622 0.8176463246
0.33478847 0.12447264 1.6320001 -0.7560938597 -0.08871153742 0.6484229565
0.074710406 0.0073245498 1.6710001 0.004617937375 0.8695889711 0.4937547147
0.40627614 -0.30395943 1.6160001 0.4931847155 0.141074419 0.8584094644
-0.1946919 0.016016701 1.6240003 0.6112333536 0.1066049486 0.7842379808
-0.24266221 0.27567747 1.883 0.5532736778 -0.09245985001 0.8278523088
0.097395033 -0.37142175 1.8830001 0.7885785699 0.3520590067 0.504180789
0.075081237 0.070910059 1.5860001 -0.1981689781 0.8631626964 0.464412719
0.029415673 -0.3266688 1.766 -0.3650867343 0.8430768847 0.3948836327
0.45450783 -0.12689181 1.6355001 0.741443038 -0.2359650135 0.6281582117
-0.014738169 0.041433722 1.5860001 -0.3217857182 0.8315528035 0.4527404606
-0.051795565 -0.0848957 1.7479999 -0.481063962 0.5777435899 0.6593859792
-0.11046 -0.048602398 1.6800001 -0.4630209804 0.615067482 0.6382033825
-0.14376165 -0.12681831 1.7570001 -0.1400385946 0.8263795376 0.5454227924
0.020559587 -0.38272458 1.8040001 -0.5726690292 0.5234452486 0.6309162378
0.197115 -0.079169139 1.8430001 -0.1818530113 0.8353119493 0.5188288689
-0.14450271 -0.23893024 1.6320001 -0.2440773547 0.4344264567 0.8670063019
0.29890475 0.34002393 1.8040001 -0.6484979391 0.1981788427 -0.7349663377
-0.14361642 0.23770992 1.8830003 -0.07880496979 -0.00401274953 0.9968819618
0.053607289 0.27128538 1.853 -0.3054518402 -0.9307934642 -0.2008050531
0.44561461 -0.46466658 1.6805335 -0.2282660007 -0.4179474413 0.8793262243
-0.042528853 0.15283807 1.516 0.6159746647 -0.3604097664 0.7004855275
-0.065165266 -0.16370787 1.813 -0.1450745165 0.7812607884 0.6071119905
0.076033294 0.20416692 1.4700001 0.2666840851 -0.5524656773 0.7897222638
-0.20985208 0.32065398 1.9150001 -0.334179163 0.8690542579 0.3647862375
0.35574257 -0.45887801 1.705 -0.4027847946 0.6652544141 0.6286501288
-0.12576661 0.026550725 1.594 0.1366865486 0.5697934628 0.8103407621
-0.22451082 -0.066907197 1.6960001 0.415997833 0.5954189301 0.6873296499
-0.08874438 -0.0023728444 1.6240001 -0.1872393191 0.8105867505 0.5548788905
0.49515536 -0.42420319 1.7220001 -0.5980135798 0.2160606086 0.7718144655
0.43398038 -0.19786483 1.6160001 -0.4174158573 -0.663405776 0.6210126877
-0.085150629 -0.13314462 1.7659999 -0.08536013216 0.6636798978 0.7431303263
0.034113731 -0.16082187 1.853 -0.2365503162 0.6238966584 0.74484694
0.075102285 -0.20311753 1.9470001 -0.1129430905 0.7271850109 0.6770862341
0.49442598 -0.32442278 1.6160001 -0.4203310609 0.559232831 0.7145491242
0.30035916 -0.26339188 1.7570001 0.7897043228 -0.6104625463 0.06084854528
-0.25908655 0.088999197 2.256 -0.02213547565 0.7809332609 0.6242220998
0.082238346 0.32104585 1.8040001 0.7693952322 -0.3717740178 -0.5194372535
-0.067577846 -0.04955709 1.7130001 -0.07785059512 0.7034612298 0.7064570785
0.00150962 0.46949181 1.7220001 -0.9055668712 0.07693749666 -0.4171681404
0.46395656 0.034721259 1.7220001 0.04981345683 0.5760982633 0.8158611655
0.013389856 -0.083764449 1.7760003 -0.1673591584 0.7606271505 0.6272457242
0.064574391 0.47905186 1.7130001 0.5212131143 0.3482861519 -0.7791236639
0.29474697 -0.075570293 1.8230001 0.3050526679 0.03635302186 0.9516413808
0.38560709 -0.20558114 1.6376002 0.7885061502 -0.3044417202 0.5343905687
0.45187783 -0.23636687 1.5860001 -0.04218243435 -0.4987938404 0.8656935692
0.10394654 -0.091231361 1.8130001 -0.05092481896 0.7470262647 0.6628412008
0.33312404 0.39387214 1.8830001 -0.5558450222 0.8066565394 -0.2008519322
0.21800508 0.027406354 1.4210001 0.430662334 -0.2760352194 0.8592639565
-0.035592668 0.015660774 1.6240001 -0.2860046625 0.8769711852 0.3861643076
0.42510882 -0.38448405 1.6550001 -0.343331039 0.7292215228 0.591911912
0.38572818 -0.34526402 1.6369002 0.5526458025 0.2370945811 0.7989798188
0.24518614 -0.34479305 1.7479998 0.7206369042 -0.2924020886 0.628636241
0.28432405 -0.03815604 1.4039999 -0.02208157629 0.7660161853 0.6424419284
0.22515061 0.31222183 1.853 -0.3281314075 -0.4364996552 -0.8377337456
0.2274719 -0.24664986 1.8230001 0.4375305176 -0.02319938689 0.898904264
-0.02329362 -0.027258491 1.6960001 -0.2446476519 0.6225485802 0.7433577776
0.25344953 0.015311941 1.3820909 0.5561794043 -0.4429905415 0.7031527758
0.044167537 -0.044169094 1.7372223 -0.2590500116 0.6546902061 0.7101224065
0.051026382 0.43882689 1.6630001 0.298802495 -0.08360237628 -0.9506459236
-0.16819376 -0.11262975 1.7130001 -0.1219051555 0.7739666104 0.621381402
0.10942641 -0.32337955 1.863 0.723264575 -0.009683369659 0.6905031204
0.16495623 -0.30541402 1.863 -0.1574459672 -0.1238265112 0.9797335267
0.35543925 0.3979032 1.794 -0.00736493757 0.560777545 -0.8279337883
0.075474866 0.34040704 1.7570001 0.334879905 -0.7946982384 -0.5062707663
0.056236412 0.048406027 1.6240001 -0.1160412356 0.8293653727 0.5465231538
-0.29362109 -0.22678052 2.723 -0.342783004 0.7902472019 0.5079460144
0.34329826 -0.074740216 1.4450001 -0.1285852045 0.7985326648 0.5880573392
0.49228427 -0.14669789 1.6090001 0.75055933 0.5173338056 0.4111282527
0.44909704 -0.29198259 1.5860001 0.5113501549 0.4308391213 0.7435715199
0.20304848 0.16360506 1.4752501 -0.4185251892 0.3801032007 0.8248382807
0.0049522896 -0.188187 1.8830003 -0.2181459218 0.8102779984 0.5439319015
0.035330545 0.13669777 1.4770001 0.130355671 0.5173520446 0.8457861543
0.31536329 -0.48205534 1.7130001 -0.1671152711 0.4004008472 0.9009726048
0.31297001 -0.095455855 1.785 0.3448669314 -0.4668549001 0.8143177032
0.13481234 -0.22725506 1.8830003 0.363339901 -0.4464025497 0.817746222
0.39012107 -0.12406149 1.705 0.8657040596 -0.006209575571 0.5005176663
0.17056865 -0.40449134 1.853 0.4805621207 -0.1185287982 0.8689136505
0.028375946 0.4072783 1.904 0.8693219423 -0.1593716294 0.4678462148
0.3778933 -0.26438162 1.6390001 0.7419788837 0.03273005411 0.6696237922
0.23204491 0.077803291 1.557 0.1649167985 0.890807271 0.4233968258
0.3326332 -0.23502074 1.7130001 0.8022683263 -0.5464074016 0.240425542
0.41779828 -0.0223024 1.6960001 -0.8844980001 0.1651100218 -0.4363507926
-0.070251681 -0.33033237 1.705 -0.1339408755 0.7017574906 0.6997115612
0.10767658 0.18368359 1.4450001 0.1113246456 -0.4751032591 0.872859478
-0.014383471 -0.15410861 1.8230001 -0.5197239518 0.6559237242 0.5474039316
0.3138409 -0.17406116 1.7659999 0.5157348514 0.06595683843 0.854205668
0.12412548 -0.40177459 1.863 0.7760816216 0.2440167964 0.5815093517
0.24874058 -0.16291316 1.8130001 0.6262361407 -0.1908066273 0.755924046
0.34463513 -0.41532964 1.6800002 0.4180163443 0.2853993475 0.862443924
0.077103712 0.090630673 1.5430001 -0.1983868778 0.894870162 0.3998124599
0.2660245 -0.2973215 1.7850001 0.7454257607 -0.642583251 0.1772771329
0.42628881 0.03369293 1.6710001 -0.6277563572 -0.4201212525 0.6553015709
-0.17555688 -0.039173849 1.6550001 -0.1134669632 0.6759123206 0.7281948924
0.26647365 -0.44334406 1.7130002 0.4472738504 0.08883716166 0.8899741769
0.15364985 -0.16378063 1.9260004 0.2339438647 -0.03148378059 0.9717401862
-0.014578966 0.0029157933 1.6630001 -0.2974005044 0.7850399613 0.5433830619
0.47871891 -0.23377964 1.6320002 -0.3098706007 -0.486330986 0.8169836998
0.38031203 -0.19089592 1.6880001 0.6416826248 -0.7669537067 0.005038010888
0.35135311 -0.35718468 1.6630001 0.6774535179 0.1036835909 0.7282214165
0.30542043 -0.31538522 1.705 0.433342278 -0.0421538204 0.9002430439
-0.068850771 -0.30030656 1.6710001 -0.1513113976 0.779858768 0.6073921323
0.054087527 0.28751794 1.8040001 0.2410047054 -0.7314168811 -0.6379232407
0.24568145 -0.038338825 1.7850001 -0.1927075237 0.8540198207 0.4832327664
0.024778545 0.3844429 1.7130001 -0.5131322742 -0.5084620118 -0.6914923191
-0.054822352 0.1043286 1.5159999 0.4879686236 0.1530205905 0.8593435287
0.244519 -0.28607124 1.8230002 0.3518553972 -0.1176586151 0.9286302924
0.21345954 -0.15598968 1.8730001 0.7858858109 -0.4297008812 0.4446803927
0.33908063 0.077258877 1.6320001 -0.133634463 -0.3173649609 0.9388403893
0.2748166 -0.34539789 1.7130001 0.652875483 -0.2309707701 0.7213917971
0.2542285 -0.088533252 1.853 0.4914368987 0.5060018301 0.7088384628
0.15517175 -0.1172042 1.8830001 -0.2980784774 0.7341492176 0.6100607514
0.15519695 0.09597417 1.5529166 0.1703539044 0.9237885475 0.3429201841
-0.0023496419 0.15272672 1.4890001 0.3650893271 -0.1467884481 0.9193274379
0.29737934 -0.22420225 1.7760001 0.3186834455 0.1090088412 0.9415720701
0.42279002 -0.11517384 1.6630001 0.4826673567 -0.1977193803 0.8531935811
0.17836922 -0.45797506 1.8330001 0.8685771227 0.3029116392 0.3921967447
0.25271407 -0.21456856 1.8130001 0.6754069328 0.06208324805 0.73482728
0.29532844 -0.395533 1.688 0.5010208488 -0.1124120727 0.8581035137
-0.12392122 -0.3017846 1.6630001 0.08288902789 0.8032665849 0.5898239017
0.024687519 0.052635651 1.5940002 -0.3118278682 0.8432623744 0.4378035963
0.10240781 -0.17291811 1.9150001 -0.3478304446 0.7946793437 0.4974924624
0.16912566 -0.48438898 1.8730001 0.6739441752 0.4054794312 0.6175643206
0.40433007 -0.089706667 1.483 -0.4283990562 0.5872827172 0.6867119074
0.03778258 -0.21639115 1.9590001 -0.2549940944 0.7897786498 0.5578778386
0.038113084 0.33996871 1.7390001 -0.2113104463 -0.7830452919 -0.5849683285
-0.061520085 0.20565285 2.0050001 0.6789957881 0.6154432893 0.4002428055
0.017396573 -0.33686092 1.8040001 -0.566893816 0.5064287186 0.6497394443
0.014019214 0.092793852 1.5230001 -0.03978123888 0.7628820539 0.6453126669
0.37397021 0.37556839 1.8230001 0.4176114798 0.1193524674 -0.9007528424
0.055175897 0.39595577 1.688 -0.05199832469 -0.5433641076 -0.837885201
0.37452453 -0.4751431 1.7390002 0.3324822187 0.5025538802 0.7980571389
0.44774258 -0.11227382 1.5430001 -0.169836089 0.932377398 0.3191052079
0.45887801 -0.43496254 1.705 -0.2747796178 0.03962486982 0.9606903791
0.361554 -0.20304388 1.7220001 0.7147895098 -0.5982396603 0.3621949852
0.13437627 0.15312099 1.4700001 0.003204056993 0.6409300566 0.7675926089
0.23564801 0.0309288 1.6800001 -0.1518686116 0.7415857911 0.6534419656
0.055935722 -0.10707694 1.8230001 -0.1663772464 0.8009996414 0.5750810504
0.12314186 -0.01051211 1.7130001 -0.2183292359 0.8292258382 0.5145064592
-0.0061927736 -0.34524712 1.7659999 -0.3946724236 0.6609322429 0.6382806897
0.21138975 -0.35443544 1.8130001 0.7773885131 -0.6206967235 0.1019934341
-0.21838556 0.31526336 1.8730001 -0.06453242898 -0.2540490031 0.9650360942
0.34476742 0.34331456 1.8230001 -0.5129141808 -0.3905762434 -0.7644404769
0.2248248 -0.48491341 1.7378575 0.5512740612 0.1187209412 0.8258342743
0.35011348 -0.26514873 1.6710001 0.8138184547 0.05255791545 0.5787376165
0.34679532 -0.086698823 1.766 0.6963050961 -0.4620012939 0.5492849946
0.10178889 0.2924411 1.8430001 0.8347766995 -0.2018812448 -0.5122419596
0.4740335 -0.49475089 1.6880001 -0.626955688 -0.3638705909 0.6888575554
-0.08521989 0.068987526 1.5430001 0.3139035404 0.4880628288 0.814407289
0.23495899 -0.40417862 1.7377695 0.5488080978 -0.2558515072 0.7958326936
0.46632969 -0.014160797 1.6710001 -0.5513336062 -0.07402324677 0.8309944868
-0.060116541 0.23135759 2.0780001 0.7805904746 0.3584816754 0.5120247602
0.464984 -0.16453281 1.6320001 0.4326999784 0.06591564417 0.8991250396
0.14463511 -0.076608911 1.8130001 -0.2157029212 0.7615308762 0.6111816168
0.28926319 0.083844401 1.5940001 0.04272430018 -0.03379739076 0.9985150695
0.19894284 -0.42497909 1.766 0.8010728955 -0.0962106511 0.5907840133
0.11595932 -0.12249225 1.863 -0.2644604445 0.8125809431 0.5193966031
0.077528603 -0.046722535 1.7570001 -0.3135723174 0.7644116879 0.5633357167
0.17571995 -0.028641576 1.766 -0.002310049953 0.8120592237 0.5835704803
0.30668429 -0.045609459 1.794 0.2738842666 0.6966094971 0.663115859
0.21650335 0.27628413 1.8430001 -0.2524980009 -0.3482890725 -0.9027400017
0.044994041 -0.37762854 1.8330001 -0.5510655046 0.501619637 0.6668617725
0.33432558 -0.3151792 1.6800002 0.6629128456 -0.007382214535 0.7486601472
0.013756361 0.24706423 1.8830003 0.3524413109 -0.7005784512 0.6204634905
0.35737169 -0.1259995 1.7363335 0.7518636584 -0.19883807 0.6286211014
0.19584413 0.038391277 1.6630001 0.0003437789856 0.8841574192 0.467189014
0.19868481 -0.46600619 1.7660002 0.8933779001 0.2664162219 0.3617987931
0.2545954 -0.012196186 1.7390002 -0.1059993207 0.8363906741 0.537786901
0.49725935 -0.47600895 1.6160001 0.8310025334 -0.3640776575 0.4205737412
0.1654553 0.074744351 1.6031818 0.07154856622 0.7998680472 0.595895946
0.064172 0.16428031 1.4640002 0.3267270029 0.04177075252 0.9441952705
-0.163323 0.26621649 1.863 -0.1300672144 0.2144696265 0.9680316448
0.3535246 0.41619486 1.8330001 -0.2505369782 0.7956629992 -0.5514994264
0.095744275 -0.28558207 1.8830003 0.6675618887 -0.272619009 0.6928492188
0.084188923 -0.153521 1.8830003 -0.3141472638 0.6374163628 0.7035707831
-0.25350133 0.31393871 1.9150001 0.441935271 0.7931314111 -0.4190891981
0.27639198 0.33263451 1.8330001 -0.2747564614 0.1122193485 -0.9549427629
0.18634863 -0.14941469 1.9150001 0.5064373612 0.035551209 0.8615435958
-0.054475188 0.25421757 1.8830003 -0.1514836848 0.01680333726 0.9883168936
-0.13751394 -0.091177717 1.705 -0.2398138344 0.7117721438 0.6602042913
-0.20273355 -0.096110716 1.7130001 0.2241676301 0.8347464204 0.5029386282
0.10181957 -0.23201509 1.904 0.6181703806 -0.5305405855 0.5799931884
0.45702827 -0.36562261 1.6550001 -0.2567968667 0.7617778182 0.5947688222
0.34340873 0.038795128 1.6390001 -0.1150669605 0.8371533155 0.534727931
0.2933695 -0.27475086 1.7220001 0.7279806137 -0.5051144958 0.4635768831
0.21719593 -0.35498688 1.7760001 0.7744071484 -0.4060784876 0.4851740599
0.22555986 0.0021024221 1.7130001 -0.05323576182 0.831271708 0.5533112288
0.13545853 0.12534128 1.4960002 -0.01337824017 0.8381925821 0.5452102423
-0.15566838 0.0070422632 1.6070001 0.1474058777 0.6730088592 0.7247968912
0.01611401 0.46144664 1.6710001 -0.6650575399 0.234055087 -0.7091661692
0.22495353 -0.10508779 1.8730001 0.2948346436 0.5221207142 0.8002889752
0.49531466 -0.39426455 1.688 -0.03120244481 0.7091300488 0.7043869495
0.3175953 0.10539375 1.6029999 -0.6992447376 0.04771694168 0.7132880688
-0.17655657 0.25182834 1.8940001 0.1608652025 0.4506820142 0.8780706525
0.32466838 -0.053115238 1.4150001 -0.05574261397 0.6432211399 0.7636486888
0.13316917 0.058084425 1.6160001 -0.1622282714 0.805488646 0.5699737072
0.29426542 -0.14479728 1.7760001 0.4867777526 0.04456706345 0.8723882437
0.32745254 -0.017491253 1.3920001 -0.2139080316 0.5117994547 0.8320484757
0.21508491 -0.055352733 1.8040001 -0.05811221153 0.8776425719 0.4757799208
0.39806977 -0.15538041 1.6880001 0.8067581654 0.05832662806 0.5879959464
0.44110227 0.003609675 1.6470001 -0.1797660887 0.4145241082 0.8921064734
-0.10446361 -0.022730505 1.6550001 -0.2252671272 0.8161145449 0.532176435
0.16519029 0.01051211 1.7130001 -0.1264269054 0.7548494935 0.6435980797
0.3941465 0.02690595 1.6864001 0.09659081697 0.9359620214 0.3385930955
0.066975579 -0.29491767 1.9260002 0.8402542472 0.1757071465 0.512932539
0.48839539 -0.080184318 1.6630001 0.02981368825 -0.09925226867 0.9946155548
0.050535448 0.018770309 1.6470001 -0.2075689435 0.8346138597 0.5102301836
0.095436245 0.11464002 1.5062728 -0.1005371064 0.8500851393 0.5169599056
0.064272813 -0.0074735829 1.705 -0.1636089981 0.8126787543 0.5592721701
0.046432648 -0.20345943 1.9260001 -0.1435252875 0.8942170739 0.4240003824
0.1645335 0.11084082 1.516 0.1132285669 0.88365978 0.4542298019
0.23248 0.096829295 1.5270001 -0.0161916092 0.8344636559 0.5508250594
0.20459296 0.06152096 1.6320001 0.008704123087 0.8731655478 0.4873460531
0.4000493 -0.45741487 1.7220001 0.3614478409 0.2476696521 0.8988966346
0.42517281 -0.40451148 1.684 -0.1479285359 0.7458035946 0.6495338082
0.1782652 -0.36891738 1.8430001 0.5755307078 -0.4940324128 0.651687324
0.38303322 0.039173849 1.6550001 -0.07281640172 0.9421004057 0.3273294568
0.10691243 0.023812314 1.6630001 -0.3028208911 0.7967447042 0.5229697824
0.14577447 -0.19584967 1.9040002 0.4731786251 -0.5235127211 0.7085452676
0.084012717 -0.23506588 1.9360001 0.8243573904 -0.3807548583 0.4188801944
-0.045246515 0.046617627 1.5640001 -0.04103094339 0.8285295963 0.55843997
0.32420886 0.36849105 1.8040003 -0.565326333 0.2613432407 -0.7823719382
0.34377143 -0.17486541 1.748 0.6305719018 0.03006809764 0.7755481601
0.21894838 -0.31643635 1.8230001 0.6240826249 -0.1096428186 0.7736274004
0.18455499 -0.10452672 1.863 -0.06963846087 0.7762936354 0.6265130639
-0.013353387 0.25204518 1.904 0.01951151155 -0.530567646 0.8474180102
0.3821758 -0.076690793 1.4580001 -0.3895563483 0.6464809775 0.6559787989
0.16495623 -0.26621649 1.863 -0.06266396493 -0.2093126327 0.97583884
-0.015403034 -0.081636079 1.7570001 -0.3856302202 0.7484893203 0.539493382
-0.104809 0.25135612 2.1160002 0.4900690019 0.8654056787 0.1044288576
-0.13139217 -0.26711595 1.6470001 -0.4252187908 0.3406650722 0.8385322094
0.20325463 -0.22522812 1.8430001 0.8154892325 -0.08944487572 0.5718189478
-0.20166928 -0.061037913 1.6710001 0.3253658712 0.6394098997 0.6966290474
0.1042041 0.091864146 1.5640001 -0.1568050086 0.8972501159 0.4127401412
0.12412548 -0.029115854 1.748 -0.06670026481 0.8297177553 0.5541836023
-0.014956371 0.062552363 1.5511667 -0.3268200457 0.7773239613 0.5375463963
0.4380081 -0.49660447 1.6710001 0.2577810287 -0.003746780101 0.9661961198
-0.10487947 0.045067612 1.5725386 0.2331811339 0.6257814169 0.7443279624
-0.016605821 -0.3245683 1.7220001 -0.1029949188 0.7884190679 0.6064547896
0.26460782 -0.11409203 1.8330001 0.7429584265 -0.4628997147 0.4834631681
-0.17884 -0.014307199 1.6320001 0.3137272298 0.4996823967 0.8073987365
0.05422359 0.47534904 1.6808002 0.5531592965 0.1030042171 -0.826683104
-0.20611362 0.28516194 1.8630002 0.1412941068 -0.2368287742 0.9612221718
0.20562249 0.11626157 1.5057695 -0.1121315658 0.7874054909 0.6061510444
-0.11056257 0.10783263 1.557 0.6927831173 -0.2713407874 0.6681509614
-0.35526565 -0.37341791 2.9580002 0.729778111 0.5943270922 0.3379338384
0.46457282 -0.31860432 1.6010002 0.041158095 0.5462841392 0.8365880847
0.059402931 -0.25967568 1.9360001 0.6952747107 -0.426582098 0.5784641504
0.35122859 0.052190598 1.6090001 -0.1619420797 0.3479835391 0.9234079123
0.1741998 -0.42511144 1.8230001 0.9567250013 -0.01335112192 0.2906872332
0.44094142 0.052315082 1.705 -0.06712696701 0.5820075274 0.8104080558
0.02783329 0.01025437 1.6710001 -0.08091787994 0.8008592725 0.5933605433
0.19867459 -0.4815872 1.8130001 0.8581654429 0.4696823955 0.2072451711
-0.034721259 -0.054346323 1.7220001 -0.1953122914 0.7247519493 0.6607478261
0.2337544 0.066584587 1.6160001 0.06354338676 0.9488146901 0.3093751073
-0.1474264 0.074761264 1.594 0.5645064712 -0.1403255016 0.8134132624
0.27518216 -0.047972366 1.804 0.001412211568 0.8033625484 0.5954886079
0.19653201 -0.18673263 1.863 0.677133739 -0.3627423048 0.6402404904
0.41642717 -0.21520065 1.594 0.2691001594 -0.1696166247 0.9480587244
0.48619232 -0.0223024 1.6960001 -0.7178807259 -0.5049804449 0.4792097807
0.41429859 -0.33528292 1.6240003 0.1944291145 0.3018365502 0.9333230853
-0.11339859 -0.11799583 1.748 -0.1401731074 0.8116117716 0.5671312213
0.40250921 0.10358693 1.6880001 -0.618044436 -0.5657429099 0.5458534956
-0.14433177 -0.045194797 1.6630001 -0.1557175368 0.6534602642 0.7407710552
0.12463571 0.19643469 1.4700001 -0.1051020995 -0.7206902504 0.6852437854
-0.12372454 0.0023611556 1.6160001 3.227226989e-05 0.7082588077 0.7059528232
-0.060871348 0.15014933 1.5430001 0.664503336 -0.3476647437 0.6614866257
0.13427991 0.038984489 1.647 -0.1833803803 0.8308181763 0.5254643559
0.095156908 -0.0014868267 1.6960001 -0.03836239502 0.8385600448 0.543456912
0.37482762 -0.4278484 1.6800001 -0.1382791996 0.7101925015 0.6902937293
0.1634808 0.0309288 1.6800001 -0.1163528413 0.8901208043 0.4406211376
0.4762637 -0.34681863 1.6334002 -0.1367233545 0.8243373036 0.5493402481
0.33432561 -0.38440078 1.6800002 0.5736941099 0.04629225284 0.8177604079
0.42527363 -0.27556235 1.601 0.5580599904 0.2445386797 0.7929500937
-0.058911122 -0.0014368567 1.6390001 -0.3542007208 0.8485566378 0.3930566311
0.49836746 -0.41729331 1.6320001 0.857308805 -0.1390674561 0.4956630468
-0.20820606 -0.0043316102 1.6470001 0.5712146163 0.3448218405 0.7448568344
0.39705142 -0.37597749 1.6390001 0.2667761743 0.4385946095 0.8581755161
-0.0047182203 -0.10380083 1.794 -0.3980785906 0.6155027747 0.6802130342
0.20551872 -0.042037919 1.7760001 0.07906305045 0.8320350051 0.5490599275
0.015737919 0.1167229 1.4960002 0.07630673796 0.6213136911 0.7798375487
0.49610448 -0.44356999 1.6960001 -0.5375633836 0.09607568383 0.8377321362
0.045783043 0.086179838 1.536 -0.1536761224 0.8307235837 0.5350532532
0.24925913 -0.31737962 1.766 0.7404791117 -0.6291921139 0.2362369448
0.069981672 -0.31918469 1.9470001 0.8905336261 0.1782363653 0.4185471237
0.14379701 -0.38615149 1.8430002 0.2295043617 0.02053250186 0.9730910063
0.10411907 -0.18946257 1.9470001 0.0568465963 0.4107869267 0.9099574685
0.26513818 -0.01452812 1.3810003 0.09145478904 0.4417048097 0.8924869299
-0.0032489267 -0.16731972 1.853 -0.3851024508 0.7325636744 0.5612900853
-0.0043033371 -0.37439033 1.785 -0.1941943169 0.6949303746 0.6923584938
0.14791121 -0.051379681 1.7760001 -0.1421841085 0.7748404145 0.6159594059
-0.21450981 -0.3243807 2.9840002 0.7796114087 0.5095028877 0.3641604185
-0.0858716 -0.14878121 1.794 -0.08737229556 0.7897876501 0.6071256399
-0.10238809 -0.066514887 1.705 -0.4634456635 0.5981014371 0.6538293362
0.00750865 0.43700343 1.7130001 -0.9518383145 -0.1891749203 -0.24128142
0.18509941 0.087293781 1.5640001 0.1641738266 0.928653121 0.3326414526
0.31164184 0.3180345 1.8230001 0.4068949521 -0.8023837805 -0.4365968108
-0.083771922 -0.10675813 1.748 -0.2394552976 0.6873435378 0.6857259274
0.19474098 0.00150962 1.7220001 0.1083108336 0.8027943373 0.5863360763
0.12120969 -0.40679964 1.8940001 0.8683879972 0.4156481922 0.27044186
0.31263337 0.0086158803 1.404 -0.5121454597 -0.1184894443 0.8506863713
0.035991549 -0.35365608 1.7850001 -0.6102672815 0.5191652775 0.5983655453
0.46675813 -0.20537163 1.6382222 -0.1923329085 -0.1505349874 0.9697150588
-0.065679863 0.22659555 1.8730001 -0.2084236294 -0.06576038152 0.9758253694
-0.17897558 0.042028565 1.6160001 0.7444752455 0.1501203775 0.6505539417
0.36724767 -0.055275589 1.4330001 -0.4696002305 0.6343284249 0.614087224
0.11124725 -0.26068383 1.8940001 0.4661585987 -0.3702139854 0.8035158515
0.22781323 -0.15833828 1.8430001 0.7989242077 -0.3911038041 0.4569002986
0.1747556 -0.34461153 1.863 0.06520743668 -0.03261040896 0.9973387122
-0.11454777 -0.13545552 1.7760001 0.09467237443 0.8161199093 0.5700749755
0.32079425 -0.24255174 1.7850001 0.6108543873 -0.4484807253 0.6524737477
0.2549417 -0.4658756 1.7310003 0.6223110557 -0.06577026844 0.7800020576
0.47370893 -0.27569336 1.5745456 -0.2345684171 -0.1129636317 0.9655137658
-0.080428027 -0.07739301 1.7310001 -0.3743802011 0.4509353936 0.8102448583
0.18086509 -0.41048515 1.794 0.91200912 -0.1760824323 0.3704515696
0.31260705 -0.25038916 1.7310001 0.7494249344 -0.623195529 0.2235835642
0.0045051896 -0.036542099 1.7129999 -0.2767053246 0.7904881239 0.5464089513
0.097509876 -0.067627817 1.794 -0.04880617931 0.7983210683 0.6002511382
0.16342556 -0.21377385 1.8830001 0.3924233317 -0.5674436688 0.7238864303
0.065074526 0.13274398 1.4844999 0.05192136019 0.6442767978 0.7630279064
0.44052237 -0.097893864 1.5090001 -0.2647486329 0.8162261248 0.5135008097
-0.044897605 -0.36176118 1.7660002 -0.07600149512 0.8684122562 0.4899836481
0.44326806 -0.18048374 1.647 0.0579684414 -0.651660502 0.7562924623
-0.14156879 -0.31322715 1.6880001 0.2035423815 0.7718485594 0.6023456454
0.11350949 -0.35441089 1.863 0.7296890616 0.007620134857 0.6837366819
0.28848031 -0.46336216 1.705 0.1232047752 0.1893453449 0.9741503596
0.17454784 0.16043 1.4640001 -0.1600067616 0.5656867623 0.8089476228
0.23407614 -0.37505817 1.748 0.5934140682 -0.3594064415 0.7201991081
0.042546678 -0.13302569 1.8430001 -0.3526447415 0.4421491921 0.8247095346
0.49900919 -0.25555533 1.6240001 -0.5902841687 -0.4887263775 0.6424259543
0.47847328 -0.46841526 1.6390001 0.8039570451 -0.3545661271 0.4774263799
-0.025251508 0.087715752 1.5159999 -0.03547059745 0.6084080935 0.7928312421
0.37251845 -0.2353508 1.6470002 0.7304418087 -0.06827135384 0.6795541048
0.38489744 -0.31469834 1.6368463 0.6247963309 0.126391992 0.7704898715
0.35836819 0.097209185 1.6550001 -0.5289068818 -0.6689660549 0.5222470164
0.10476488 0.065533601 1.6076666 -0.1067270339 0.8073424101 0.5803512931
0.13613002 -0.30507421 1.853 0.3037965298 -0.340806812 0.8896956444
0.1741998 -0.081506327 1.8230001 -0.2560248077 0.8050045967 0.5351811647
0.40466124 -0.18606749 1.6240004 0.4298572242 -0.7015329599 0.5683962107
-0.14416344 -0.10774321 1.7310001 -0.1557451785 0.7710503936 0.6174340248
-0.14327057 0.0463726 1.5790001 0.4967707098 0.3998106122 0.7703053355
-0.0099168532 0.029750559 1.6160001 -0.3541556895 0.8684689403 0.3468940258
0.0250376 -0.19696245 1.904 -0.1952393651 0.8667226434 0.4589917362
-0.13534738 -0.064347915 1.6873332 -0.2170734853 0.6743069887 0.70582515
