# .PCD v0.7 - Point Cloud Data file format
VERSION 0.7
FIELDS x y z normal_x normal_y normal_z
SIZE 4 4 4 4 4 4
TYPE F F F F F F
COUNT 1 1 1 1 1 1
WIDTH 512
HEIGHT 1
VIEWPOINT 0 0 0 1 0 0 0
POINTS 512
DATA ascii
0.37510821 -0.094982557 1.3146471 -0.08399438858 0.3981122375 0.9134832025
-0.49810535 -0.49371675 2.503 -0.1306291074 0.9778113961 0.1637708694
-0.18673263 0.035386648 1.863 0.9919809699 -0.05929500982 0.1116146222
0.49421644 -0.19008325 2.0650001 0.1372253448 0.7682937384 0.6252151132
0.20448022 0.45560771 1.3436002 0.7408826947 -0.3382773697 0.5802251697
-0.19368371 -0.039642867 1.2920001 0.2330163866 0.5533576608 0.7996866107
0.064272813 -0.35868379 2.365 -0.2623595595 0.9383440614 0.2251173705
0.043969214 -0.4937115 1.4330001 0.6526733637 -0.215117529 0.7264584899
0.44533789 0.10718302 1.7220001 -0.8231562972 0.3908561766 0.4118800461
-0.20611046 0.30438831 1.557 0.6784670949 -0.3289783299 0.6568528414
0.38061798 -0.47389621 1.223 0.7391318679 -0.04417612404 0.6721105576
0.11559025 0.10004871 1.108 0.2150401473 0.5260478854 0.8228191137
0.075500987 -0.16535178 1.4354002 0.03280425817 0.7447238564 0.6665660143
0.39367944 0.13165253 1.4580001 -0.4260041118 0.7400208116 -0.5204706192
0.2729449 -0.31199515 1.3920001 0.429237783 -0.3911249638 0.8141106963
0.23869179 0.243012 1.2320001 0.02486816607 -0.402824223 0.9149394631
0.16478126 -0.038125228 1.2737142 0.09364585578 0.8075672984 0.5822933316
-0.19315772 0.1058838 1.4640001 0.09202042222 -0.5963094831 0.7974629998
0.23293647 -0.28868195 2.2710001 -0.07078963518 0.84275949 0.5336152911
0.41507709 -0.27622521 1.2356365 0.6463654637 -0.246312663 0.7221785188
-0.31781182 -0.050363623 1.9810001 0.9953917265 0.09568569064 0.00628984347
0.2282463 -0.49788442 1.3490001 0.417612493 -0.4022400379 0.8147408962
-0.12361 -0.1792345 1.4100001 0.05483339727 0.6446653605 0.7624958158
-0.024700711 0.012274587 1.21 0.05291937292 0.7420216799 0.6682839394
0.30117971 0.00503645 1.149 0.1171914414 0.725256741 0.6784311533
0.035148192 -0.32545897 1.485 0.05747752637 -0.3130374849 0.9479999542
0.44717014 0.21799543 1.5940001 -0.8907970786 0.4542836845 0.0103390608
0.23181555 -0.14583349 1.3932002 0.1736436039 0.7126564384 0.6796827912
-0.093299247 -0.34209725 2.365 -0.1322245896 0.9786946177 0.157077834
-0.014486106 -0.085046448 1.3345386 -0.1885238439 0.754714191 0.6283830404
0.4824656 0.050358362 1.853 -0.8207677603 0.3801835477 0.4263809919
0.15455522 -0.39589727 1.4210001 0.3535473943 -0.3148328066 0.8808431029
0.38185817 0.044608992 1.3430002 -0.4751078784 0.745367825 -0.4676530063
0.01918848 -0.47331583 2.4320002 -0.2365172952 0.9518839717 0.1948755831
0.24189951 0.12858333 1.161 0.4836702645 -0.4638078511 0.7422569394
0.17511643 -0.27610549 1.4705834 0.4623641968 -0.5033832192 0.7299484015
0.33790663 -0.37553218 1.2970001 0.783644557 -0.1604934931 0.6001191735
0.34072894 -0.21498653 1.3430001 0.8471076488 -0.1169913709 0.5183836818
0.19855987 0.34543112 1.2858572 0.3329564333 -0.4093580842 0.8494504094
-0.022101643 -0.21971634 1.483 -0.2206208557 0.6984990835 0.6807535887
0.095365971 0.017813105 1.1954001 -0.05883643031 0.8220486641 0.5663693547
-0.18093348 0.0061542001 1.4039999 0.4719868004 -0.3261829019 0.8190440536
0.2844362 -0.046495229 1.2527224 0.1828576326 0.8137703538 0.5516709685
0.11513965 -0.098521553 1.3540001 0.001856039395 0.8061309457 0.5917342901
-0.20486444 0.20486793 1.5076666 0.3175630569 -0.190884158 0.9288255572
0.43535644 -0.3846764 1.1943334 0.6314846277 -0.2307511866 0.740257442
0.19491062 0.03155211 1.161 0.1572681665 0.8025100231 0.5755383968
0.055241834 -0.039059885 1.273 0.01819973812 0.8423429132 0.5386345387
-0.1246094 0.02058764 1.2360001 0.3004652262 0.3936730027 0.8687590361
-0.12480052 -0.097721159 1.3430001 -0.02024743147 0.7806757689 0.6246082187
0.13527296 -0.49701416 1.3870003 0.2027245462 -0.5786978006 0.7899440527
0.31183165 -0.48462573 1.2951818 0.7317185998 -0.1735978723 0.6591294408
0.25584379 -0.40454754 1.3649999 0.4532631636 -0.3021970987 0.8385877609
0.40153936 -0.18512015 1.2746667 0.7218130231 -0.382342428 0.576888442
0.027369244 0.072987176 1.1563333 0.4290746152 0.3889243305 0.8152501583
-0.024764374 -0.15478939 1.4125 -0.1015806347 0.7853827477 0.6106187701
0.21356477 0.43466711 1.4330001 0.9958691001 -0.07983569801 0.04325537011
0.278247 -0.10128656 1.3280001 0.2654175162 0.7137503028 0.6481620669
-0.075057521 -0.044144183 1.2756472 -0.03913765401 0.7356162071 0.6762670279
0.04919941 -0.40368748 1.439 0.5225860476 -0.1626508236 0.83692801
0.24597636 -0.23843877 1.4330001 0.5855557323 -0.2787638009 0.7611932755
0.36676794 -0.010063695 1.2755001 0.03143382445 0.9113835096 -0.4103559554
0.35657468 -0.28676066 1.2970001 0.7711778283 -0.2070846409 0.6019972563
0.40864968 0.18672502 1.5250001 -0.2956250012 0.8148518205 -0.4986204803
0.16582677 -0.17587686 1.4330001 0.145163238 0.6604757309 0.7366813421
0.19427919 -0.089105494 1.3330001 0.07290638983 0.7868944407 0.6127656698
0.43659315 0.054769751 1.7850001 -0.859518528 0.3444316089 0.3776172101
0.11443445 -0.33361369 1.4535999 0.08633171767 -0.4575615525 0.8849769831
0.19561045 0.079052016 1.097 0.02780807018 0.6766562462 0.7357738018
0.20430189 -0.33385921 1.4210001 0.3834353387 -0.34846434 0.8553069234
0.22334923 -0.01282388 1.219 0.09506925195 0.7985985875 0.5943081379
0.033712875 -0.25534996 1.523 0.3363147378 0.01312287897 0.9416581988
0.045572642 -0.11549769 1.3752 -0.01341666095 0.7612371445 0.6483348012
0.38766319 -0.34460056 1.245 0.7523741126 -0.2301581651 0.6172199249
0.3921856 0.091918498 1.3980001 -0.2910724878 0.7549207807 -0.5876831412
0.19609879 -0.44608608 1.3865 0.3865244985 -0.2601713836 0.8848218322
0.34050611 -0.0413699 1.21 0.4373558164 0.8499929905 0.2936524749
0.25415605 0.053943567 1.1260002 0.2786206305 0.1301186383 0.9515459538
0.21861042 0.18348809 1.1960001 0.4663680792 -0.4150205255 0.7811906338
0.10090521 -0.44473037 1.4210001 0.2255827039 -0.1817362905 0.9571229815
0.29525155 -0.24661407 1.3870001 0.6835770607 -0.26098153 0.6816238165
0.31527862 -0.32576397 1.336421 0.6959784627 -0.3291379213 0.6381866336
-0.063901111 -0.1179897 1.365 -0.0528357625 0.7714850307 0.6340498328
0.15709253 -0.0010686567 1.2190001 0.1273656934 0.806380868 0.5775187016
0.34571815 -0.43546748 1.2659129 0.7723440528 -0.09543931484 0.6279935837
0.12893312 0.049357209 1.149 0.1295713782 0.7958728075 0.5914370418
0.30179146 -0.42394513 1.3220001 0.7038860321 -0.2304447889 0.6718925834
0.16561058 -0.1305916 1.3870001 0.1130887643 0.7520602345 0.6493199468
0.054826207 -0.076435342 1.325 0.04688636959 0.8290138245 0.5572590828
0.22409602 -0.058306061 1.2857274 0.05981756747 0.8067137003 0.5879071355
0.21655683 0.40217698 1.307 0.5235801339 -0.3540139794 0.7749438286
0.034941886 -0.0053682197 1.2243334 0.03812801093 0.8045565486 0.5926508307
-0.015513493 -0.029364826 1.2640001 -0.07539685816 0.8198155165 0.5676423311
0.38633287 -0.40578729 1.226238 0.7810614705 -0.09637024254 0.6169730425
-0.065872736 -0.18790619 1.4450001 -0.3506016731 0.5826690793 0.7331952453
0.11455067 -0.062520362 1.3045001 0.004228252918 0.8151717782 0.5792038441
-0.1345139 -0.053618029 1.2875835 -0.01118208189 0.6972228289 0.7167672515
0.21509428 0.29469791 1.2576001 0.6123477817 -0.3385355473 0.7144395709
0.025819236 -0.19096009 1.4580001 0.06775285304 0.7143253684 0.6965262294
-0.18069415 -0.094535351 1.365 0.2620092928 0.4984427094 0.8263812661
0.38317743 -0.15458368 1.3225002 0.4404657185 -0.2855618596 0.8511430025
0.33499363 -0.07058394 1.2780001 -0.02194427513 0.8190539479 0.5732967257
0.10477921 -0.021828998 1.245 -0.105906114 0.7908527851 0.6027733684
0.28324333 -0.0070633711 1.2038461 0.4913178086 0.8043047786 0.3342163861
-0.18655512 0.056217786 1.4330001 0.5220125914 -0.2438796312 0.8173283339
-0.025538469 0.062465716 1.1810001 0.373388201 0.2961962223 0.8791183233
-0.21061917 0.24730766 1.5500001 0.4236240089 -0.6009610295 0.6777820587
-0.18257196 0.16185458 1.4770001 0.392174691 -0.3596540987 0.8466687202
0.20645453 -0.38605767 1.3979999 0.3804537952 -0.3831213117 0.8417083621
0.37826413 -0.23486251 1.2880001 0.6953881979 -0.2215177864 0.6836410761
-0.074928232 -0.0060021388 1.2338183 0.1187765375 0.7132983208 0.6907225847
-0.1513717 -0.14655353 1.3740001 -0.1875450611 0.625666678 0.7572106719
0.41590026 -0.43640003 1.189 0.6777012944 -0.06063245609 0.7328333259
0.10517369 -0.13452977 1.3950002 0.04980209097 0.7432916164 0.6671111584
0.27505794 -0.47370476 1.3351427 0.5423272252 -0.2623466849 0.7981575131
-0.075122193 -0.084578156 1.3241428 -0.08177864552 0.800711751 0.5934416056
-0.16003989 -0.012140957 1.2590001 0.252076745 0.4323241711 0.8657673597
0.075966142 0.048212107 1.1553999 0.1056917235 0.7373004556 0.6672460437
0.29410538 -0.3741661 1.3430003 0.6292877793 -0.2468322217 0.7369333506
0.21628733 -0.28490609 1.4368823 0.4943460524 -0.4765044749 0.7270250916
0.34508741 -0.4952426 1.2558079 0.7109544873 -0.2855268419 0.6426648498
0.24499328 0.014626657 1.1752002 0.1617241949 0.8274800777 0.5377007127
0.32601634 -0.26503685 1.3463337 0.7869811058 -0.2040389329 0.5822618604
-0.076638199 -0.1495681 1.4100001 -0.01143100113 0.7612737417 0.648329854
0.10572173 -0.38511717 1.4356251 0.3184942603 -0.3641561568 0.8751866817
-0.072686628 0.037268415 1.2060002 0.3532105386 0.4297869503 0.830978632
0.0219079 -0.4342919 1.47 0.6917107105 -0.1391050369 0.708650887
-0.16856721 -0.081974469 1.317 -0.003213362768 0.7485643625 0.663054347
0.24597171 -0.35611978 1.3858001 0.4907943308 -0.2032377124 0.847239852
0.019540899 -0.37387729 1.4860001 0.5603433251 -0.1502394527 0.8145204186
-0.0048164069 -0.11615746 1.3730001 -0.229689151 0.7604826093 0.6073788404
0.02487218 0.025668601 1.1859233 0.1193395928 0.7147597671 0.6891128421
0.024765832 -0.14612061 1.4125 -0.00684634177 0.756752491 0.6536656618
0.42379725 -0.32588485 1.2155294 0.6910318136 -0.2242372036 0.6871628165
0.064108878 -0.35529757 1.4568001 0.4353812635 -0.2729995549 0.8578545451
0.086609535 -0.49638292 1.3975385 0.394900322 -0.300781697 0.8680922389
0.073367529 -0.30599627 1.4580001 0.1107687652 -0.09675247967 0.9891254902
0.18565929 -0.49473169 1.3737894 0.3370541334 -0.4003303051 0.8521327376
0.14829518 -0.44978786 1.3980001 0.2392153144 -0.364041239 0.900138855
0.014864759 -0.056383293 1.3043078 -0.00798546616 0.7829633951 0.6220165491
0.16172601 -0.34329829 1.4450001 0.3752245009 -0.4055985212 0.8334845304
0.11430822 -0.18915591 1.452 0.01585726812 0.7176637053 0.6962092519
0.06811174 0.085880019 1.126 0.2646896839 0.5370996594 0.8009140491
0.23501678 -0.11551247 1.3558183 0.1486102492 0.7757192254 0.6133308411
0.41610369 -0.22847073 1.2590001 0.6729739904 -0.1382776648 0.7266259789
0.12577713 -0.28877398 1.4640001 0.06195235997 -0.2063450068 0.976516068
0.27465424 -0.068758868 1.2928333 0.1581984907 0.7972622514 0.5825342536
0.23614696 -0.44649431 1.3581666 0.5286145806 -0.2625157833 0.8072497249
0.26361278 0.08346042 1.161 -0.05323015153 -0.4037667513 0.9133120775
-0.11518222 -0.023291033 1.2564287 0.1282218993 0.647110641 0.7515363693
0.024044044 -0.21727073 1.4959999 0.06573471427 0.8673802614 0.4932852983
0.35784712 0.011147694 1.3153334 -0.5058249831 0.753849864 -0.4193464518
0.35697043 -0.33428332 1.2770001 0.7588997483 -0.1090770364 0.6420072913
-0.034874741 -0.055803027 1.2952144 -0.09705911577 0.7789600492 0.6195166111
0.41307831 0.16569042 1.48525 -0.3914940953 0.6966580153 -0.6011654735
0.1576124 0.068996303 1.1190001 0.1830057949 0.7242708206 0.6647862196
-0.1041182 -0.1295424 1.381 -0.1122669876 0.7163784504 0.6886203885
0.3628222 -0.39405671 1.265 0.7644405365 -0.2056301981 0.6110211611
0.41544533 0.20703711 1.5640001 -0.9288645983 0.3594983816 -0.08928284794
-0.016468184 -0.1830502 1.4450001 -0.1442507654 0.7874698043 0.5992353559
0.05402283 -0.28856096 1.503 0.5488905311 -0.3814336658 0.7437926531
0.14439873 0.022851896 1.1850002 0.09100287408 0.8371496201 0.5393505096
0.22646579 0.084799968 1.138 0.1771127135 -0.3603611887 0.9158443809
0.058296751 -0.44610777 1.427 0.6054371595 -0.1784704775 0.7756249905
0.15461521 -0.072693348 1.3161668 0.003185073147 0.7984867692 0.6020039916
0.38580295 -0.2748487 1.2668569 0.732212007 -0.30465886 0.6091375351
0.26411334 -0.27441418 1.41 0.424218297 -0.2333724052 0.874972105
0.2033633 -0.028896393 1.2516667 0.1855114549 0.7976428866 0.5738914013
0.32193303 -0.017541224 1.177 0.07876811922 0.6928480864 0.7167685032
0.23568301 -0.084017098 1.3160911 0.08598228544 0.7712683082 0.6306760311
0.36738983 -0.19797252 1.3028334 0.6938397884 -0.1255543381 0.7090997696
0.073856138 -0.19473286 1.464 0.06511948258 0.6887264252 0.7220909595
0.19540149 0.0084940232 1.1947778 0.1387633234 0.8409629464 0.5229972005
0.45438948 0.078555472 1.7570001 -0.8231562972 0.3908561766 0.4118800461
0.30187613 -0.28430107 1.373 0.7185278535 -0.1987772584 0.6664872766
0.24509777 -0.036020316 1.2544374 0.07159564644 0.8387380242 0.5398078561
0.34884506 -0.24526367 1.317 0.8030757308 -0.2130446285 0.5564902425
0.06523452 -0.14154659 1.4039999 -0.02021823451 0.7360470295 0.6766284108
0.32325065 -0.21792179 1.381 0.7385134697 -0.3409132957 0.5817009211
0.37470466 0.058511801 1.3832502 -0.4842110276 0.6596634388 -0.5747902393
0.16016525 0.1007027 1.0940001 0.2201280594 0.514221251 0.8289270997
0.3158066 -0.093875006 1.3049412 0.1827068031 0.7043244839 0.6859630346
0.1647352 -0.10436813 1.3562223 0.1226517111 0.7368397713 0.6648486257
0.024835091 -0.093063354 1.3490002 -0.02226700261 0.7922318578 0.6098137498
0.12474966 -0.16342558 1.4230002 0.01662921533 0.7343245149 0.6785948873
0.19324362 -0.15780877 1.41 0.1798086315 0.636341691 0.7501587272
0.40503174 -0.36497775 1.2152002 0.6296055913 -0.2493743002 0.7358051538
0.074781425 -0.098521553 1.3540001 0.04179352894 0.7678049803 0.6393190622
0.32306919 -0.04474945 1.245 0.2410461158 0.8550439477 0.4591259658
0.17580137 -0.30585781 1.4449999 0.3838564157 -0.3744200468 0.8440757394
0.075259514 -0.0061523672 1.2248181 -0.01266885456 0.7954511642 0.6058852673
0.23464288 -0.31632587 1.4040002 0.5884658694 -0.3477923572 0.7298961878
0.18618976 -0.061115719 1.2970001 0.1403447986 0.7885891795 0.5986905694
0.33240467 -0.41452476 1.2954615 0.7794944048 -0.1453357488 0.6093159914
0.28428984 -0.34429333 1.3649999 0.6811172962 -0.2590354681 0.6848210096
0.27298808 -0.12546879 1.3570771 0.2293520868 0.6719489694 0.7041890621
0.095046006 -0.042493355 1.2754999 0.02455646731 0.8112984896 0.5841162205
0.10288434 0.071184084 1.13 0.1109991297 0.6700542569 0.7339662313
0.33801198 -0.31853333 1.307 0.8009780049 -0.2161784172 0.5583019853
-0.11468252 -0.077862896 1.3125558 0.03123948723 0.7585929632 0.6508155465
0.20555669 0.055122036 1.1243848 -0.2070700228 0.7153580189 0.6673716307
0.26907441 0.023006363 1.141 0.2245995998 0.7099131346 0.6675165892
0.36862713 -0.4371081 1.2360001 0.8045063019 -0.1680590063 0.5696716309
0.025295775 -0.024201255 1.2545002 0.08056558669 0.8245747089 0.5599873066
0.18388748 -0.41454688 1.4040002 0.3246907592 -0.2295790613 0.917534411
0.17987008 -0.36718306 1.4150001 0.419481039 -0.3145342767 0.8515303135
0.2731781 -0.22867851 1.4100002 0.4464896321 0.1446896493 0.8830129504
0.2243477 -0.41395837 1.3810003 0.4777685702 -0.1870148331 0.8583487868
0.20501271 -0.12503546 1.3740003 0.127363205 0.7404549718 0.6599280834
0.27403131 -0.43415278 1.3430002 0.5728896856 -0.2597442865 0.7773868442
0.12332858 -0.41420966 1.4210002 0.02506502531 -0.2359801382 0.9714345932
-0.0057151159 -0.0077259378 1.2334287 -0.002916478785 0.8028845787 0.5961273313
0.035264794 -0.46355501 1.454 0.6735851765 -0.09029196948 0.7335736752
0.21676642 0.21580559 1.2115455 0.3683484495 -0.3149516284 0.8747141957
-0.096757695 -0.20219879 1.4150001 -0.5477281213 0.3715341687 0.7496374249
0.16477346 0.045047097 1.1444288 0.1093126163 0.8326750398 0.5428655744
0.13557526 -0.3649708 1.4346004 0.04766106606 -0.4743508995 0.8790447116
-0.20950317 0.16997427 1.503 0.2545306385 -0.5063534379 0.8239055872
0.39692399 -0.30524221 1.245 0.6529662609 -0.2458308488 0.716381371
0.24041794 0.16303019 1.177 0.3640737832 -0.3881019354 0.8466564417
0.11622647 -0.47246671 1.4040002 0.05604743585 -0.366296798 0.9288085699
0.2045573 -0.25729406 1.4553332 0.4590601325 -0.2210052609 0.8604769111
-0.15460761 -0.11781041 1.3540001 -0.1661039591 0.4718840718 0.8658723235
0.055246782 0.012494504 1.202 0.03076317906 0.7813930511 0.6232804656
0.38906205 0.11133929 1.427 -0.2695098221 0.8271653056 -0.4931145608
0.19827192 0.41640994 1.3330001 0.718287468 -0.3471541405 0.6029486656
0.082285248 -0.41268253 1.4330001 0.3771686852 -0.3983103931 0.8361175656
-0.045477081 -0.018629167 1.25 0.08934088796 0.7980050445 0.5959917307
-0.034046225 -0.13314508 1.3870001 0.001411821111 0.7679039836 0.6405634284
0.096629709 -0.080330722 1.3280001 0.03124867752 0.8170896769 0.5756630301
0.32073903 -0.44629523 1.302 0.6751834154 -0.2256865352 0.7022770047
0.22558559 0.037451573 1.1458572 0.03758259118 0.7440152764 0.6671048403
0.2146847 -0.47470838 1.3700002 0.4262049496 -0.3902743161 0.8161098361
0.071909457 -0.058212418 1.302 0.03183699772 0.7919210196 0.6097930074
0.22743569 0.27435866 1.2256668 0.1403666437 -0.4707373977 0.8710358739
0.19847937 0.37410697 1.3036667 0.4433400333 -0.4196304083 0.792060554
0.16480894 -0.020737549 1.245 0.09527846426 0.8333691359 0.5444427729
0.33464089 -0.46491697 1.277375 0.6916647553 -0.2125626802 0.6902296543
-0.044975281 -0.09583737 1.3430002 -0.03028583899 0.7325069308 0.6800855994
-0.094960533 -0.10801761 1.3540001 0.006743170787 0.7596668005 0.650277555
0.1454419 -0.31511956 1.4553001 0.3024288416 -0.4525168836 0.8389071822
0.10455739 0.037740294 1.1683844 0.005609346088 0.7884328365 0.6150952578
0.12484188 0.0051114927 1.2161 0.01303984318 0.8120056391 0.5835038424
0.22297613 0.32743341 1.273 0.255604893 -0.4045158029 0.878084898
0.25574052 -0.021244483 1.2270001 0.1318308115 0.8148550391 0.5644749403
0.33188143 -0.29448637 1.3330001 0.7962443829 -0.1680926234 0.58115381
-0.044920396 -0.20449476 1.4640001 -0.1090593264 0.6714918017 0.7329425812
0.15381993 -0.15092547 1.4150001 0.1115832999 0.6871544719 0.7178912759
0.13510528 -0.047287185 1.28425 -0.03253581747 0.7553229928 0.6545445323
0.31175846 -0.39288518 1.322 0.708414495 -0.2050488889 0.6753546
-0.19707115 0.27700213 1.572 0.7207505107 -0.2685339749 0.6390682459
0.13559578 -0.11985699 1.381 -0.0008130496135 0.7524154782 0.6586883068
0.027807867 -0.39615512 1.4640001 0.5425047278 -0.1768452376 0.8212273717
0.05421203 0.033236429 1.1748183 0.03994357213 0.7607702613 0.6477909088
0.0092234099 0.048166696 1.169 0.3197990656 0.5066637993 0.8006374836
0.068226583 -0.47427812 1.4150001 0.4622968435 -0.2049941421 0.8627044559
0.40640602 -0.40670583 1.1969999 0.6071240902 -0.2873232961 0.7408412099
0.20821412 0.24809858 1.223 -0.007654967252 -0.3816864789 0.9242601395
0.39277297 -0.4440755 1.21 0.7492476106 -0.07688679546 0.6578118801
-0.1940379 0.23390868 1.516 0.4604713023 -0.5316550732 0.7108509541
0.36676839 -0.12584813 1.317 -0.04496788606 0.01693091542 0.9988449216
0.32235461 -0.35348079 1.3219999 0.722260654 -0.1124017909 0.682426095
0.37204614 -0.30423346 1.2750832 0.7012423873 -0.208360523 0.6817954183
0.36096749 -0.46485251 1.25 0.7725135684 -0.1482246369 0.6174562573
-0.20361307 0.13304447 1.4770001 0.1744475365 -0.2950721681 0.939414978
0.13498011 -0.025031388 1.2553482 -0.0005193760153 0.8092092276 0.5875203609
0.0093461433 -0.23498873 1.5230001 0.3471402228 0.5373892188 0.7685742974
0.035129547 -0.16511594 1.4357274 -0.02726740576 0.7386463284 0.6735414267
0.30127791 -0.024659757 1.223 0.4293751121 0.8374077678 0.338208884
0.37214911 -0.36364952 1.2646667 0.7574128509 -0.1930503398 0.623744607
0.28317386 -0.40413684 1.3445003 0.5967264771 -0.214469552 0.7732530832
0.27867743 -0.0051416499 1.1730001 0.570661068 0.726691246 0.3824471533
-0.16487427 -0.055772346 1.2945 0.1370076239 0.599943161 0.7882239819
0.075584739 -0.38467988 1.4449998 0.2852665782 -0.2179846764 0.9333304167
0.22032036 -0.35448191 1.404 0.54235816 -0.1571219414 0.8253243566
0.30471402 -0.063596569 1.2760768 0.1328982711 0.8098136783 0.5714367032
-0.11417838 -0.16275929 1.3855001 -0.3803031147 0.3755378425 0.8451868892
0.0545725 -0.020737549 1.245 0.02104317211 0.8088081479 0.5876959562
0.35752597 0.025509538 1.3430001 -0.5661404133 0.7070301771 -0.423784554
0.024834039 -0.28492385 1.5230001 0.5017094612 -0.4223301709 0.7549336553
0.094655707 -0.11407238 1.3717145 0.09057962894 0.78768152 0.609387517
0.011668433 0.011668433 1.21 0.09300404787 0.7581745982 0.6453847885
0.23484959 -0.38450548 1.381667 0.4558030367 -0.2903274894 0.8413997889
-0.17242718 0.033493049 1.4150001 0.4719868004 -0.3261829019 0.8190440536
-0.097137995 0.023659073 1.2229998 0.3241100013 0.3919253051 0.8610152602
-0.044991624 0.034525972 1.1934803 0.24638322 0.3619095087 0.8990644217
-0.10458165 -0.057387769 1.2919999 0.0268692337 0.7190131545 0.6944769025
0.26787862 -0.37660286 1.3649999 0.5703200102 -0.2947289348 0.7667267323
-0.17738034 0.085131645 1.4350001 0.4043198824 -0.4288151264 0.8078632355
-0.053906433 0.0077918801 1.2166922 0.1680034101 0.6529622674 0.7385222912
0.39909986 -0.15804809 1.2970001 0.5731310248 -0.3890431821 0.7212255001
0.01568532 -0.041454058 1.2780001 0.05204705149 0.8293350339 0.5563223362
0.34813309 -0.083323658 1.302 -0.2078451812 0.7024793625 0.6806784272
0.00499437 -0.20365931 1.4770001 -0.003442680463 0.753662467 0.6572526693
-0.045225479 -0.16959555 1.4330001 -0.02273456752 0.7523031831 0.6584246755
-0.08482375 -0.023136349 1.2566001 0.01855863072 0.7027296424 0.7112149
0.15928771 -0.47543123 1.3870001 0.4138821959 -0.3722500503 0.8307415247
0.28517875 -0.49531049 1.3169998 0.6004119515 -0.3301628232 0.7283529639
0.095008738 -0.35469934 1.4449998 0.189583689 -0.2161618769 0.9577745199
0.29537311 -0.31651393 1.3649999 0.7433844209 -0.3626614213 0.5620108843
0.13521475 -0.085349455 1.3362143 -0.02872100472 0.8103636503 0.5852228999
-0.045755863 -0.039059885 1.273 0.004431760404 0.7691532373 0.6390490532
0.19406156 -0.0096494695 1.223 0.1352529526 0.8380619884 0.5285439491
0.29300448 -0.45399362 1.3220001 0.7378194928 -0.1477810293 0.6586221457
-0.015689462 0.034870848 1.185909 0.1152335405 0.5586737394 0.8213433623
0.42177519 0.23462544 1.5730001 -0.8907970786 0.4542836845 0.0103390608
-0.17946593 -0.10674118 1.3380001 0.3746581078 0.7013800144 0.6063805819
0.25548121 -0.053241711 1.2765714 0.1345147789 0.7976962924 0.5878660083
0.43053159 -0.35449538 1.2046667 0.6135232449 -0.2503008246 0.7489584684
0.0046062986 -0.16624552 1.4330001 -0.08689203858 0.740411818 0.6665133834
0.15272813 -0.42529678 1.4210001 0.3632404506 -0.2850803435 0.8870093226
-0.06395831 -0.061115723 1.2970001 -0.07357534021 0.7471476197 0.6605733037
0.22163229 0.36363152 1.2855 0.3908295035 -0.4149011374 0.8216503859
0.34876868 -0.020904116 1.2550001 -0.6410816312 0.234406352 0.7307995558
0.22487873 0.0052336026 1.1943333 0.08046288043 0.8473376036 0.5249235034
0.23775692 -0.28611389 1.4143751 0.5207221508 -0.4300113916 0.7375219464
0.026542252 -0.29805645 1.489 -0.1595884264 -0.5571748614 0.8149157763
0.25596574 -0.49545518 1.3368235 0.4652347267 -0.3632786274 0.8072083592
-0.0048921295 -0.13456559 1.3953751 -0.193545714 0.7345955372 0.6503148675
-0.12469093 -0.11655371 1.3649999 -0.2098103911 0.6861045361 0.6965917945
-0.1551456 -0.035453796 1.275353 0.1718931347 0.6180884242 0.7670850754
-0.082149215 -0.17222144 1.427 -0.4567273557 0.4478452206 0.7686578035
0.3223775 -0.24339862 1.365 0.8233893514 -0.2488655001 0.5099960566
0.026032094 -0.076004885 1.3256 0.02143038996 0.7997223139 0.5999875069
0.17393768 0.02174221 1.1810001 0.1621032804 0.818790257 0.5507313609
0.39635113 -0.21614167 1.2758125 0.7066174746 -0.1622387469 0.6887454987
0.4066225 -0.25547817 1.2570002 0.6279705167 -0.3345322907 0.7026671767
0.19511101 -0.044214915 1.2756667 0.1646661907 0.7972773314 0.5807183981
0.099229902 -0.29768971 1.47 0.06095085666 -0.1763412356 0.9824402332
0.035723288 -0.43602684 1.4449998 0.6161543727 -0.2010822892 0.7615246177
0.035831999 -0.35533684 1.4715554 0.4667070508 -0.2544320226 0.8470235467
-0.075775035 -0.13431059 1.3852001 -0.03200281039 0.8005148768 0.5984578133
-0.012950558 -0.06620039 1.3132501 -0.1236906052 0.7796229124 0.613912642
0.14061294 -0.18115002 1.4450001 0.08687017113 0.7350026369 0.6724765301
0.25457355 -0.0019813639 1.1961112 0.1372534186 0.8487280011 0.5107076168
0.055277202 0.06541007 1.1465002 0.2516700625 0.5426739454 0.8013533354
0.38174951 -0.38465846 1.2445556 0.8215862513 -0.1640781015 0.5459619761
0.30120862 -0.02823831 1.1930001 0.4310086071 0.8038815856 0.4098853469
-0.044936471 -0.073976688 1.3143336 -0.07332281023 0.7797558904 0.6217752695
0.42248261 0.20448716 1.5940002 -0.8907970786 0.4542836845 0.0103390608
-0.035899498 -0.11527728 1.3649999 -0.01928267628 0.7678092718 0.6403882504
-0.19346455 0.028894056 1.4330001 0.442671895 -0.3309569359 0.8333721161
0.094808362 -0.15116176 1.4150001 0.08156332374 0.7584135532 0.6466500759
-0.14100599 -0.079195149 1.322 -0.01179299876 0.7785680294 0.6274493933
0.42425668 -0.29815522 1.2190001 0.7230972052 -0.2132041901 0.6570193172
0.3924543 -0.11535748 1.3225002 -0.02146442048 0.02560624294 0.9994416237
-0.13697697 -0.002728625 1.245 0.179860577 0.4833758771 0.8567367792
0.044187505 -0.057906464 1.3036667 0.07114975899 0.7953833938 0.6019160748
-0.18302345 -0.018971942 1.273 0.2831621766 0.5113520026 0.8113805056
0.24143717 -0.47409049 1.3540001 0.5665801764 -0.2702974081 0.7784126401
0.24442343 0.10575055 1.138 0.09794126451 -0.3736269772 0.9223938584
-0.10207134 -0.0023838319 1.2360001 0.2202121913 0.5856472254 0.7800794244
0.20416513 -0.10623709 1.3540001 0.1132282764 0.7799665332 0.6154929399
0.02318608 -0.12813359 1.3920001 0.05766426772 0.7515922785 0.6571026444
0.21436517 0.43142435 1.317 0.6607692242 -0.3647342324 0.6560128927
0.0577548 -0.32984409 1.4640001 0.4864850938 -0.2199550271 0.8455483317
0.23637059 0.20384014 1.197 0.4921149611 -0.3531172276 0.7956953645
0.37083071 -0.26436129 1.2920001 0.6686783433 -0.2086727023 0.7136700749
0.21903428 0.02159493 1.1730001 0.07309324294 0.8299142122 0.5530821085
-0.18986496 0.25719297 1.536 0.4363053441 -0.6257879734 0.6465500593
0.34128457 -0.34470886 1.302 0.808067739 -0.1161512285 0.5775252581
0.22581267 -0.25861228 1.439 0.6038782597 -0.246767655 0.7579160333
0.17889348 -0.32901388 1.427 0.5425337553 -0.3650560379 0.7565654516
0.20225839 -0.31029704 1.4330001 0.3869712353 -0.3753121197 0.8422553539
0.34037897 -0.0033479899 1.273 0.08023502678 0.9055926204 -0.4164905548
0.32644737 -0.49505705 1.2758124 0.7271102667 -0.2263660431 0.648127377
-0.15430306 -0.097014971 1.336182 -0.02307911031 0.762219429 0.6469071507
0.12614496 0.077677853 1.1169168 0.2400117517 0.6248201728 0.7429630756
0.20271719 0.31824023 1.2590001 0.2615569532 -0.3964657485 0.8800016046
0.12558776 -0.44425434 1.41 0.1339050531 -0.3181584477 0.9385332465
0.086916238 -0.32849225 1.4580001 0.2351535559 -0.3954855204 0.8878592253
0.22155385 -0.44431832 1.381 0.562620163 -0.2738897502 0.7800275683
0.056432787 -0.1794817 1.452 -0.03218516707 0.6961730123 0.7171521783
-0.00679592 -0.048704091 1.2920001 -0.08843775094 0.796225369 0.5985013843
0.25393617 -0.13544215 1.3716364 0.1724140942 0.686150372 0.7067326903
0.072075151 -0.33978283 2.3490002 -0.2599866092 0.9160224199 0.3054667413
0.22033702 0.1404008 1.169 0.3329831958 -0.4007953107 0.8535135388
-0.0192516 -0.20150007 1.4640001 -0.2758617699 0.6596561074 0.6991094947
0.15144593 -0.29134089 1.4640001 0.1725326777 -0.5300571918 0.8302239776
0.19221091 -0.28131533 1.452 0.4577257633 -0.4537937045 0.7645641565
0.18818176 -0.46924812 1.376 0.3330516219 -0.3305084705 0.8830859065
0.30184978 -0.11120984 1.3260001 0.3510841429 0.6397221088 0.6837364435
0.26486322 -0.084364362 1.3142223 0.1769420207 0.7828226089 0.5965570211
-0.0047480268 -0.098521553 1.3540001 -0.1891744286 0.7148051262 0.6732507944
0.34227756 -0.27389929 1.322 0.8100367785 -0.2074637115 0.5484516621
0.054869253 -0.15588491 1.4225003 0.01820967533 0.7701401114 0.6376147866
0.20517489 -0.075667724 1.3143333 0.09425003827 0.8070697784 0.582885325
0.24926701 -0.32830289 1.3870001 0.4521540701 -0.3532271385 0.8190160394
0.0061699799 0.073011428 1.1730001 0.3583630919 0.3099917471 0.8806139827
0.07527937 -0.12344313 1.3850001 0.01149678882 0.7579887509 0.652166307
-0.098958135 -0.09197285 1.3280001 -0.03795518354 0.7936623096 0.6071734428
0.42416641 0.20333056 1.5359999 -0.1765399426 0.8197746873 -0.5447964072
0.1550391 0.034386471 1.1652223 0.1276031733 0.8255516887 0.5497106314
0.16474414 -0.085303113 1.3355001 0.1207109392 0.8168467879 0.564083457
0.048753437 -0.37523714 1.4580001 0.5485434532 -0.2609948516 0.7943435907
0.39150706 -0.18148577 1.302 0.5621494651 -0.4508733153 0.6933262348
0.22473685 -0.09598574 1.3351877 0.1688525677 0.7518049479 0.6373994946
0.40502 -0.3250961 1.2320002 0.6845803261 -0.2593394816 0.6812435985
-0.10668398 -0.038540237 1.27425 0.06365764141 0.7239441276 0.6869152784
0.39130455 0.055045899 1.365 -0.5576798916 0.7091162205 -0.4314479232
0.17403235 -0.44611117 1.3980001 0.3243202269 -0.3490221202 0.879204154
0.13522583 -0.0086562056 1.2340002 0.06301278621 0.824090004 0.5629432201
0.13498211 -0.13908492 1.4039999 0.003592189634 0.7495247126 0.6619666219
0.34793323 -0.0022740734 1.2970001 -0.1363091022 0.9025169015 -0.4085132778
0.41389623 -0.19977392 1.2590001 0.7386575937 -0.08050708473 0.6692559719
0.35281429 -0.20450515 1.3241178 0.7965932488 -0.05995162576 0.6015355587
0.18465777 0.065454885 1.11448 0.09192732722 0.7335807085 0.6733562946
0.20532282 -0.49612337 1.3579999 0.404478997 -0.4428434074 0.8001790047
0.28311029 -0.27455425 1.3942502 0.6697210073 -0.2225749493 0.708473146
0.14154659 -0.47387338 1.4039999 0.1921729743 -0.2972547114 0.9352588654
0.10443708 -0.0053713364 1.2250001 -0.06909123808 0.7879689336 0.611826241
0.25543204 -0.096860543 1.336077 0.06357251853 0.7514938712 0.6566699743
0.2559011 -0.2953648 1.398 0.2622290552 -0.3579456806 0.8961644769
0.40447471 -0.13675649 1.322 0.4294991791 -0.2359303087 0.8717036843
0.28141877 -0.25175238 1.4100002 0.544064641 -0.2626048625 0.7968891859
0.37857711 -0.32670212 1.2590001 0.6904969215 -0.1895585507 0.6980555654
0.29676655 -0.080729604 1.2970001 0.2090490758 0.7567024231 0.6194351912
0.34480956 -0.39462388 1.283455 0.7548469901 -0.2240274549 0.6164557338
0.22476798 -0.044265047 1.2657778 0.07308912277 0.8088588119 0.5834427476
0.24535903 -0.06513609 1.2951818 0.07771530747 0.8098659515 0.5814443231
0.043136384 0.051626313 1.1623334 0.1737548411 0.6137829423 0.7701167464
0.24493495 -0.26493394 1.4255 0.5575031638 -0.2611539364 0.788028419
0.1952512 -0.13789617 1.3920001 0.1291151643 0.728474915 0.6727953553
0.39609611 0.14864437 1.4829999 -0.4039643109 0.6710665226 -0.6216771603
0.19585609 0.43563142 1.3540001 0.7314593792 -0.360861361 0.5785725713
-0.18492056 0.19803549 1.4960001 0.351457119 -0.2249136716 0.9087858796
0.051779147 -0.30849931 1.489 0.3775058985 -0.5064153671 0.7752630115
0.3614881 -0.22507957 1.3136668 0.7500959635 -0.1451023221 0.6452142
-0.054661915 -0.14155711 1.396 -0.005180925131 0.7850951552 0.6193534732
-0.12666081 -0.14458288 1.3760002 -0.4537139833 0.3820589483 0.8050929308
-0.14277744 -0.15986192 1.3920001 -0.1028656736 0.5987942815 0.7942695022
0.35205093 -0.3621738 1.2830001 0.757106185 -0.1143143475 0.6432126164
0.41262597 0.14502871 1.4640001 -0.3947385252 0.6745102406 -0.6238729358
0.36738211 -0.4149693 1.245 0.7852737904 -0.1887915581 0.5896633267
0.24255174 -0.4244425 1.3649999 0.5423681736 -0.3047118485 0.7829351425
0.25124037 0.08308696 1.135 -0.0840215683 -0.3977535367 0.9136369824
0.3019937 -0.34437874 1.3430003 0.7199009061 -0.1408805102 0.679628849
0.13365661 -0.34750715 1.452 -0.01805657707 -0.2950572968 0.9553089142
0.27522424 -0.031423241 1.2360001 0.1551531553 0.8010968566 0.5780755281
0.016576232 -0.34745082 1.4829999 0.4273422658 -0.09531734139 0.899051249
0.091524728 -0.47246709 1.4108334 0.350813657 -0.4539278746 0.8190721869
-0.035488453 -0.0032267764 1.2267334 0.06838424504 0.7471245527 0.6611568928
0.095008753 -0.17734967 1.4450001 0.1028709859 0.6897982359 0.7166560888
0.11576675 0.025297584 1.1861111 0.03236241639 0.8334689736 0.5516177416
0.42446405 -0.41465083 1.1840907 0.6299131513 -0.2600732744 0.7318273783
0.1550003 -0.054235958 1.294778 0.001573332236 0.7930691838 0.6091295481
0.39394683 -0.24384527 1.2729999 0.6321351528 -0.216967538 0.7438616753
-0.1001241 -0.1792345 1.4100001 -0.5423434973 0.3128904402 0.7797198892
0.32402211 -0.033513915 1.1946 0.05807758123 0.7850068212 0.6167587042
-0.17766702 0.080525339 1.4580001 0.5452156067 -0.4299768507 0.7196248174
0.22404675 -0.30379671 1.4214001 0.5812472701 -0.3092604876 0.7526683211
0.075809047 0.024919074 1.1845999 0.06957195699 0.7881911397 0.6114854813
0.26719397 -0.35585654 1.3760002 0.4919194579 -0.2444108725 0.8356306553
0.18428411 -0.11368175 1.365 0.06482306868 0.7590956092 0.6477436423
0.11679304 -0.31187591 1.4640001 0.1136166751 -0.3351056874 0.9353049994
0.098714419 0.049357209 1.149 0.03815116733 0.7679002881 0.6394322515
0.2551811 -0.45443243 1.3472356 0.4448310733 -0.2395559549 0.8629822135
0.054769248 -0.08746215 1.3455715 0.04108368233 0.7933917046 0.6073234081
0.075105481 -0.026206244 1.2544708 -0.00478858361 0.8223614097 0.5689452887
-0.08478944 -0.072185613 1.307 -0.01088349801 0.7773399949 0.6289865971
0.25926101 -0.2468562 1.4150001 0.5874698758 -0.2003800571 0.784045279
0.22706689 0.10595071 1.1534444 0.5702204704 -0.3526988029 0.7419246435
0.20523772 -0.41427016 1.3948424 0.4648914933 -0.3037052155 0.8316484094
0.31106764 -0.2630263 1.3700002 0.7442423105 -0.2547977567 0.6173989177
0.14504641 0.085136935 1.1058275 0.2245330065 0.5531550646 0.8022495508
0.058302715 -0.49619335 1.4150001 0.5827069283 -0.2371877283 0.777299583
0.24630317 0.027772274 1.1562001 0.3687897325 0.8242427707 0.4296719432
0.33647767 -0.24615824 1.3380001 0.809761703 -0.1928646564 0.5541562438
0.056975447 -0.42542899 1.4384546 0.5341023803 -0.2377311885 0.8113066554
0.12470187 -0.38596264 1.4225001 0.171307832 -0.319459796 0.93198663
0.074988313 -0.084533729 1.3349233 0.04402682558 0.8265034556 0.5612072945
0.024020666 -0.10929403 1.3700001 -0.01077778637 0.7603901625 0.6493771672
0.1172298 -0.036844939 1.2735554 -0.04100542516 0.8018336296 0.5961387157
0.30918938 -0.2984888 1.3565001 0.7423306704 -0.2669126689 0.6145753264
0.094837099 -0.056042492 1.2939999 0.04320695251 0.8089737892 0.5862547159
-0.13796541 -0.02317819 1.2590001 0.1439709663 0.5787067413 0.8027271628
-0.18388768 -0.065483786 1.3028334 0.1582523584 0.6246631145 0.7646909356
-0.20427123 0.15554346 1.4860001 0.3981058598 -0.4128406644 0.8191912174
0.22460799 -0.027842375 1.2431818 0.1046783626 0.8282959461 0.5504255891
0.44904473 0.086759903 1.7363334 -0.859518528 0.3444316089 0.3776172101
0.22645877 -0.30461711 2.286 0.05047232658 0.7839543819 0.6187633276
-0.076057673 -0.097250208 1.3430001 -0.0355120413 0.7550584078 0.6546950936
0.42032397 0.17788005 1.503 -0.2537784278 0.8017809391 -0.5410580635
0.095016196 0.093061879 1.1144999 0.2025064081 0.5437470675 0.8144509196
0.38742331 -0.36517978 1.2344445 0.7922441959 -0.2503943741 0.5564636588
0.32507861 -0.37510064 1.3156842 0.6913413405 -0.2160053253 0.689484477
0.15679242 -0.367378 1.427 0.3420578837 -0.3237499297 0.8821464777
0.17474216 -0.39442843 1.4109999 0.4167710543 -0.3313080966 0.8464850187
0.39924189 0.16733901 1.503 -0.4084166288 0.7335087061 -0.5432870388
0.30058208 -0.47464371 1.3120002 0.703384161 -0.1803133339 0.6875593066
0.17503788 0.0054514054 1.2040001 0.1419875175 0.827110827 0.543808043
0.21287425 0.26654613 1.2410001 0.4454694092 -0.4814661443 0.7548161149
0.21828763 0.16494219 1.1832858 0.3279763162 -0.4271099865 0.8426200747
0.17477928 -0.14646995 1.4040002 0.1551974118 0.7193668485 0.6770709753
0.33389539 -0.43494701 1.2850003 0.7794320583 -0.1747341305 0.6016258597
0.28502285 -0.29473037 1.3835267 0.6758494377 -0.2534621358 0.6920870543
-0.054581262 -0.16002235 1.4150001 0.02039998583 0.7638408542 0.6450821757
0.044057757 -0.13523635 1.3959999 -0.02482450381 0.7460491657 0.6654279232
0.32555524 -0.39509991 1.3042728 0.7372207642 -0.1703643948 0.6538207531
0.18518052 0.05155294 1.1329091 0.09713224322 0.8232252002 0.5593438745
0.35137957 -0.41393572 1.2651999 0.7352526188 -0.2342213541 0.6360377073
0.17405403 0.080747135 1.1021428 0.1595026851 0.6235471368 0.7653416991
0.39198157 0.076667376 1.3818572 -0.5270793438 0.6095071435 -0.5921894908
0.39540863 -0.38498294 1.2150526 0.6511937976 -0.2174781412 0.7270831466
0.23776691 0.064979851 1.136 0.3313409388 -0.1260337979 0.9350554347
-0.024011901 -0.020737549 1.245 -0.008849422447 0.8247656226 0.565405488
-0.14386299 -0.067623436 1.3033637 -0.004892958328 0.7460549474 0.6658664346
0.015808053 -0.012344869 1.2352002 0.05346728489 0.8416307569 0.5374001265
0.27391562 -0.33323875 1.381 0.4853430688 -0.3546752036 0.7991543412
0.37310299 0.025219729 1.3227501 -0.5413125753 0.7350087762 -0.4083414376
-0.074458055 0.015408545 1.2182857 0.2594926953 0.4894953072 0.8325009942
0.43843123 0.21392976 1.5743333 -0.8907970786 0.4542836845 0.0103390608
