# .PCD v0.7 - Point Cloud Data file format
VERSION 0.7
FIELDS x y z normal_x normal_y normal_z
SIZE 4 4 4 4 4 4
TYPE F F F F F F
COUNT 1 1 1 1 1 1
WIDTH 512
HEIGHT 1
VIEWPOINT 0 0 0 1 0 0 0
POINTS 512
DATA ascii
0.17287566 0.21610008 1.1427144 0.4117787778 -0.4390394986 0.7985503078
-0.47184566 -0.47184566 2.2710001 0.256534934 0.9455258846 0.2004261613
0.46974692 -0.27176929 2.0530002 -0.03570049256 0.7528445125 0.6572295427
-0.041630853 -0.49575093 1.307 0.3983671367 -0.2932916284 0.8690705299
-0.35404971 0.14810845 1.6090001 0.957732439 -0.02199493162 0.2868184745
-0.00191464 -0.335062 2.184 -0.2773011327 0.9366209507 0.2141150534
-0.24749483 -0.042530168 1.169 -0.04646350071 0.5597490072 0.8273585439
0.35208014 -0.23537652 1.1956667 0.4789855182 -0.2442920804 0.8431454301
0.41898265 0.037543248 1.7130001 0.9208254814 0.3205122054 -0.2221538126
0.044612586 -0.1553527 1.3261249 0.008650819771 0.7010241747 0.7130849957
0.15073495 0.40735808 1.4210001 0.9913547039 0.1128553078 -0.06692906469
0.32138598 0.1149573 1.4100001 -0.4421370625 0.7298287153 -0.5214066505
0.23477052 -0.49520564 1.2135001 0.4399011135 -0.2196795195 0.870762825
0.32435262 -0.40148526 2.256 -0.2832757533 0.945792377 0.1588445902
0.0068914765 0.010829464 1.123 -0.07653468102 0.788969934 0.6096464992
-0.34291518 -0.318948 2.1030002 0.2110594511 0.947691679 0.2394460589
-0.27997664 0.13343568 1.3590001 -0.08065032214 -0.4933731556 0.8660706878
0.25211444 -0.021385582 1.1190001 -0.193806529 0.5861468911 0.7866834402
-0.17759953 -0.21197362 1.307 -0.738068819 0.2263460457 0.6356271505
0.11489972 -0.35447434 1.3250002 0.2817677557 -0.3185744286 0.905050993
-0.073188521 -0.33493051 1.4150001 0.8027757406 -0.2743750811 0.5294047594
-0.30277282 0.29287216 1.4572501 0.7717841864 -0.2070648968 0.601226449
0.36619771 -0.41087964 1.108 0.6770180464 -0.291738838 0.6756737828
-0.13948731 -0.44989568 2.2410002 -0.1942949444 0.9744116068 0.1130108982
0.21787621 -0.12116585 1.268 0.1274381876 0.6513587832 0.7479914427
0.12946525 0.36337307 1.2410001 0.2349524349 -0.4857908785 0.8419053555
0.12340624 0.098137952 1.0190001 0.07403919846 0.5607186556 0.8246895075
-0.085096106 -0.086397432 1.2334002 -0.09078224003 0.7777879238 0.6219361424
0.3178837 0.21237338 1.5430001 -0.3484655023 0.8264428973 -0.4422261417
0.29576755 0.024494164 1.2763333 -0.4494991601 0.7310758233 -0.5133016706
0.48743981 -0.052739389 1.8230001 -0.08992423862 0.7253236175 0.6825095415
0.25484994 -0.34476271 1.2423332 0.7324104905 -0.2143591642 0.6462391019
-0.14084527 0.041767906 1.108 0.1528884023 0.3901624382 0.907963872
0.094230399 -0.062847897 1.2182307 -0.0783444196 0.7442394495 0.6633021832
0.10235346 -0.49264634 1.2830001 0.1947538853 -0.3737611175 0.9068481326
-0.26747274 0.0064680465 1.302 -0.07799616456 -0.4953440726 0.8651883006
0.2048976 -0.24490131 1.3246667 0.5821920037 -0.4023818076 0.7064993382
-0.064973719 -0.21297432 1.3725001 -0.02566524781 0.7748453021 0.6316296458
0.13506129 0.014901014 1.1159412 0.1216760948 0.8170603514 0.5635665655
0.43348536 -0.19515476 1.9700001 0.08149510622 0.7542704344 0.651486516
0.0023547267 -0.39206198 1.3430001 0.1810110956 -0.4542964697 0.8722670078
-0.2423019 -0.13206545 1.245 0.1007107571 0.3335077763 0.9373525977
0.014938555 0.092504375 1.0459414 0.257155031 0.4447508454 0.8579440713
0.3209168 -0.14386767 1.2528 0.7153394222 -0.1376021951 0.6850950122
0.18479592 -0.42453828 1.273 0.5115552545 -0.3089641035 0.8017807603
0.32616922 -0.33538014 1.1670003 0.4041449428 -0.2248619795 0.8866250515
0.039634101 -0.2990573 1.3700001 0.3055349886 -0.31667009 0.8979802132
0.20849325 0.050965015 1.057 0.03490521386 0.2072981149 0.9776549339
0.19574332 -0.053629283 1.1951817 0.1384177804 0.7927005887 0.5936887264
-0.14705119 -0.038048211 1.1730001 -0.1173566207 0.7261867523 0.6774069667
0.13438308 0.44711813 1.2924999 0.4387435317 -0.4739349186 0.7634721994
0.27514285 -0.24561642 1.2568403 0.7407677174 -0.2232808918 0.6335682869
0.14116052 -0.1569223 1.322 0.07098181546 0.6991534233 0.7114394307
-0.054533049 -0.1453221 1.3033637 -0.1399853975 0.7224948406 0.6770563722
0.29127657 -0.425181 1.1810001 0.7386928797 -0.1636255383 0.6538803577
0.0020987401 -0.051419131 1.197 -0.0367686376 0.7953028083 0.6050962806
-0.30271563 0.20056468 1.4210001 0.5286823511 -0.4351840317 0.728772819
0.18404958 0.13542283 1.0964707 0.4018254578 -0.4226925671 0.8123221993
0.14434186 0.28582475 1.1948667 0.518650651 -0.3742843866 0.7687084675
0.12644602 -0.26366189 1.3649999 0.2338270694 -0.3845285177 0.8930076957
-0.1553127 -0.13448253 1.2661538 -0.1123696715 0.7804026604 0.6150973439
-0.062944658 0.065777183 1.0769999 0.224639833 0.3264651299 0.9181271791
-0.073825851 -0.010974113 1.138 -0.01504673995 0.7915340662 0.6109398007
0.27819088 -0.01264504 1.202 -0.8430304527 0.4405805767 0.3085262477
0.014141452 -0.10388782 1.2669333 -0.01977570355 0.769151628 0.6387602687
0.18761103 -0.32587469 1.2970001 0.5016304255 -0.1759555489 0.8469985723
0.31715399 0.16671973 1.4742 -0.3703618944 0.7903577089 -0.4880233407
0.28974271 0.062679037 1.3490001 -0.4265623689 0.7617066503 -0.487696141
0.0750499 0.046454001 1.0727998 -0.00654262444 0.7873140574 0.6165174246
0.03423924 -0.45580435 1.3067222 0.0604922846 -0.3717789948 0.926348269
0.074985206 -0.012606865 1.1544545 -0.002332102973 0.792553246 0.6097983122
0.095606096 -0.11264674 1.2760768 -0.0008214029367 0.7737266421 0.6335190535
0.27325353 -0.083164103 1.2320001 -0.2049903572 0.8176580667 0.537972331
-0.07060235 -0.39130455 1.365 0.4040665329 -0.3749239743 0.8343634009
-0.19505782 -0.085134126 1.2111765 -0.05535952374 0.7116647959 0.700334549
-0.20465061 0.013968189 1.1335294 0.2469991148 0.3478367329 0.9044340849
-0.14132158 -0.22379255 1.3700002 -0.3789395094 0.6431291699 0.6654244661
-0.29237857 0.063185163 1.3430001 0.3919371665 -0.322344929 0.8616722226
0.066582836 -0.31579286 2.1700001 -0.2672633231 0.9348694086 0.2336439341
0.11527626 -0.42456868 1.3041738 0.1949804276 -0.3558704853 0.9139687419
0.17436326 -0.49476233 1.2534214 0.4554393888 -0.4213136435 0.7842638493
0.24213883 -0.41380811 1.2324446 0.5999960899 -0.2395500243 0.7632958293
0.0048041339 -0.20297463 1.37 0.03982742131 0.6595796347 0.7505787611
-0.11477826 -0.17427957 1.323895 -0.07309586555 0.7744069099 0.6284512281
0.15580572 -0.083563127 1.2428463 0.1052715257 0.7572947145 0.6445328593
0.29411012 -0.29475856 1.2123045 0.699224174 -0.2133874893 0.6823132038
0.32421726 -0.46343914 1.1343201 0.6777054667 -0.1348329335 0.7228660583
-0.023420151 -0.32548878 1.3649999 0.1506189853 -0.3333613575 0.9306901097
-0.082219064 -0.25786886 1.4210001 -0.08608774096 0.04628892243 0.9952116609
0.13502349 -0.028166585 1.1740911 0.06672900915 0.7864723206 0.6140101552
0.14423223 0.052610185 1.0614617 0.07523028553 0.7670688629 0.6371387839
-0.04191168 -0.43541577 1.3280001 0.4820401669 -0.2804069221 0.8300657868
0.19254582 -0.010974113 1.138 0.0472093448 0.8033682108 0.5936082602
0.054918893 -0.35607103 1.3482003 0.2458907515 -0.3770008087 0.8929771185
0.30871728 -0.19792327 1.2270001 0.6233764887 -0.3508084714 0.6988098621
0.23460998 -0.29445186 1.2740526 0.4632380903 -0.2876308858 0.8382594585
-0.055329502 -0.042866811 1.18525 -0.04014195502 0.8083961606 0.5872684717
-0.2053434 -0.16851549 1.273 -0.3286758363 0.4027437568 0.8542655706
0.28388801 -0.48269662 1.1744547 0.7260130644 -0.2157992572 0.6529438496
0.35971299 -0.28797534 1.169 0.4100708365 -0.378185004 0.8299505711
-0.0039115613 0.04761314 1.077 0.00680743577 0.6745898724 0.7381613255
0.057035755 -0.4043304 1.317 0.2338380069 -0.3840167522 0.8932250142
0.32570568 -0.39591703 1.1474001 0.5717006922 -0.2335030586 0.7865332961
0.28326291 -0.37522116 1.2049474 0.7665750384 -0.1713952124 0.6188589334
0.36594114 -0.35864142 1.1353334 0.4526092112 -0.3862760663 0.8037012815
0.20787169 -0.37387261 1.268 0.566357553 -0.2460659146 0.7865689397
0.24619794 -0.21854906 1.2961668 0.6200197339 -0.2455474287 0.745172441
0.15463699 -0.38431847 1.2970002 0.5069081187 -0.1782837808 0.8433617949
0.15949723 -0.28988913 1.3280001 0.5340335965 -0.367307812 0.7615070939
0.16472216 -0.12302848 1.2855 0.09758154303 0.7246101499 0.6822155118
-0.13452512 -0.076044247 1.211647 -0.2096588314 0.7182614207 0.6634333134
0.095792487 -0.30629945 1.3490001 0.3815553784 -0.4105521142 0.8281681538
-0.024732521 -0.083166108 1.234286 -0.063416861 0.7831678987 0.6185680032
-0.0353209 -0.17778187 1.3430001 -0.08670318872 0.7469798923 0.6591688991
0.064171299 0.10263768 1.0251999 0.1428881735 0.4926989079 0.8583884835
-0.10448118 -0.13575682 1.284765 -0.1144865975 0.7267361879 0.677308917
-0.046098638 -0.28841281 1.396 0.6598416567 -0.2773257494 0.6983548403
-0.13477284 -0.0044337022 1.1334544 -0.009893451817 0.6550205946 0.7555462718
0.21515268 0.0063451487 1.0931876 0.3041718602 0.8330727816 0.4620272517
-0.04643409 0.021855541 1.1013635 0.05126670375 0.7051208615 0.7072314024
0.24083348 -0.032794345 1.169 0.1122374311 0.8373699188 0.5349901319
0.094216011 -0.1746268 1.3356667 0.06539228559 0.6864206195 0.7242586017
0.044570088 -0.077675819 1.2340002 -0.01772669144 0.8024327755 0.5964791775
-0.015771609 -0.022138214 1.1552857 -0.1258183271 0.7987552881 0.5883533955
-0.24609786 -0.08804363 1.21 -0.08369340748 0.7986491919 0.5959487557
-0.0042623538 -0.13632423 1.3047274 -0.1021621674 0.7228873372 0.6833716631
0.055566639 0.020471919 1.1120001 -0.02106312104 0.8092350364 0.5871073008
0.1589274 0.17077291 1.126 0.6025795341 -0.3218161464 0.7302960157
0.14580944 -0.45567456 1.278 0.3798906505 -0.3281730711 0.8648615479
0.21372658 -0.45367429 1.2426 0.5829045773 -0.3165464699 0.7483451962
0.20497832 -0.084640026 1.2342224 0.114380911 0.7804852128 0.6146216989
-0.3224231 0.25976598 1.4890001 0.8231244683 -0.2182186842 0.524258256
0.172002 0.089314796 1.08 0.5068003535 -0.1887636781 0.8411430717
0.30733114 -0.24622318 1.2158666 0.6731217504 -0.2418993264 0.6988503933
-0.27723357 0.17509487 1.3870001 0.3525805175 -0.455653578 0.8173535466
0.14220703 0.40741387 1.2640001 0.4610210955 -0.4414981902 0.7697654963
-0.28662878 0.24514405 1.434 0.3332364857 -0.4802717268 0.811352253
-0.19574125 -0.042017758 1.169 0.03645084053 0.6554127932 0.7543907762
-0.16472363 -0.16525382 1.3027693 -0.480841279 0.5951199532 0.643912971
-0.055405334 -0.10970256 1.2640001 -0.08338380605 0.7285141945 0.6799369454
-0.094692163 0.025981417 1.1044397 0.1831990927 0.6032156348 0.7762532234
0.053923942 -0.041014146 1.1874001 -0.03885516152 0.7966592908 0.6031784415
0.0044818954 -0.49527895 1.2936666 0.1352070123 -0.4205421209 0.8971417546
-0.13295703 -0.42970166 2.1980002 -0.1942949444 0.9744116068 0.1130108982
0.14381687 0.24305393 1.1689999 0.4383236766 -0.4436420202 0.7816994786
0.25797144 -0.44933549 1.2060001 0.6753303409 -0.21090132 0.7067174315
0.28722998 -0.11409466 1.266 0.2714099586 0.3302789927 0.9040201306
0.055830035 -0.49494261 1.2880001 0.1642332226 -0.3689233065 0.9148349762
0.15342756 0.32789367 1.212 0.4029305577 -0.4925752878 0.7713731527
-0.064874545 -0.34599125 1.3703753 0.4792051911 -0.4666701555 0.7433581352
0.17438741 0.029541036 1.087 0.1374683082 0.7922740579 0.5944781899
0.17153357 -0.2452215 1.3556668 0.5599805117 -0.3155311048 0.7660691738
0.054367363 -0.12685718 1.2919999 -0.006992083509 0.7281646132 0.6853666306
-0.19505833 -0.11944583 1.25 -0.1760325283 0.6610304713 0.7294183969
-0.10423566 -0.051075477 1.189 -0.1094392166 0.7630397081 0.637019217
0.078000717 -0.45549688 1.2970001 0.4073089957 -0.3417931199 0.8469219804
0.094974935 0.073691837 1.0435559 0.00608621398 0.714863956 0.6992371082
0.20297717 -0.28465453 1.304647 0.5672470927 -0.3416912258 0.7493182421
-0.12453532 -0.10677756 1.2505 -0.2624984384 0.6899990439 0.674533844
0.24572158 -0.063121408 1.2040002 0.05669477582 0.7817605138 0.6209961772
-0.10506801 -0.20260419 1.3567779 -0.0515986532 0.7575833201 0.6506958604
-0.03193083 -0.36543059 1.3490001 0.2983267009 -0.3855089545 0.8731460571
0.29374468 -0.0010879433 1.2410001 -0.5149832964 0.7903870344 -0.3317838609
0.31174618 0.091481037 1.3730001 -0.3899078667 0.7849056125 -0.4815548062
0.02748087 -0.01933839 1.161 -0.03437538072 0.7769318223 0.6286455989
-0.1540869 -0.19354171 1.3380002 -0.5241830349 0.4511632025 0.7222768664
0.054278579 -0.18657584 1.3540001 -0.02903470956 0.6580104232 0.7524488568
-0.25977826 0.05311022 1.317 0.3373783827 -0.4749607444 0.8127657175
0.26767808 -0.28677845 1.245 0.7919302583 -0.2730675042 0.546150744
0.01424408 -0.34423196 1.3540001 0.1791401356 -0.4613605142 0.8689391613
-0.024813272 0.081441067 1.057 0.1909005344 0.4346140325 0.8801520467
-0.17531668 -0.01487762 1.1438336 0.0351652503 0.6210501194 0.7829815745
0.095865548 -0.14131574 1.307 0.03816760331 0.7226541042 0.6901552677
0.14506553 -0.057249255 1.2117778 0.0595198907 0.7639310956 0.6425470114
0.005304886 -0.42686477 1.3160002 0.2145808488 -0.431007266 0.8764632344
0.0048749973 -0.16478631 1.3346667 -0.03004283644 0.7136878967 0.6998192668
0.22180963 -0.33394161 1.2739999 0.6502486467 -0.1445315033 0.7458466887
-0.10457055 -0.2322439 1.3870001 -0.1215724871 0.8283330798 0.5468861461
0.034757938 0.056191236 1.0655264 0.08223459125 0.7053765655 0.7040464282
0.15514541 -0.34494898 1.313591 0.4817200005 -0.2752548456 0.8319739103
0.095052443 0.0085511524 1.1255 -0.01292404626 0.79984653 0.6000654101
0.29761201 -0.33724946 1.1962001 0.709238708 -0.235831067 0.664352417
0.09425021 -0.035465732 1.1841578 -0.04306261986 0.7897922397 0.6118609309
-0.162008 -0.098284855 1.2320001 -0.1082310602 0.7338098288 0.6706781983
0.32694468 0.19359994 1.5081428 -0.5305403471 0.7379539013 -0.4170742333
-0.074823603 -0.17771052 1.3336251 -0.1082444862 0.7178592086 0.6877217889
0.32834235 -0.26788568 1.189 0.4851028919 -0.2934910953 0.8237342834
0.11557259 0.037400488 1.0853845 0.05578604341 0.7790074348 0.6245280504
-0.26843885 0.095366426 1.3430001 0.1489421129 -0.4765368998 0.8664460778
0.31580135 0.14171112 1.439 -0.4350679517 0.6777030826 -0.5928190351
0.11575603 -0.087946229 1.2522223 -0.03141275048 0.7518392801 0.6585977077
-0.23646419 -0.0077587925 1.1543334 0.158255741 0.4512475729 0.878254354
0.2878938 0.042667951 1.3153334 -0.4655574858 0.7703074813 -0.4357551634
0.084747121 -0.27709478 1.3725713 0.3414924741 -0.3620172739 0.867367506
0.24536806 -0.25611112 1.2856473 0.4827700555 -0.3500999808 0.8027222753
0.35960254 -0.32132551 1.149 0.4882735312 -0.204371497 0.8484227657
-0.016041245 -0.46519613 1.3069999 0.05479028821 -0.3514050543 0.9346188903
0.15452267 -0.0082299709 1.1446 0.1404427439 0.8289202452 0.5414490104
0.062912233 -0.10043883 1.2590001 0.05080967396 0.7631179094 0.6442587972
0.30811119 -0.37576976 1.1748463 0.7304123044 -0.1868740767 0.6569443941
0.27367574 -0.043612067 1.1409999 0.4271399677 0.8286459446 0.3617974222
0.092716269 -0.38477251 1.322 0.3237658441 -0.2849753797 0.902199924
0.2825672 -0.20943215 1.2640001 0.7586115003 -0.1923937052 0.622489512
0.13549225 -0.49587861 1.2663157 0.2688935101 -0.5714409947 0.7753395438
0.23684464 -0.3780055 1.245 0.5912137628 -0.2732844949 0.7588029504
0.13381138 -0.32463765 1.3363333 0.2335795313 -0.334551245 0.9129710197
0.24217917 -0.099720836 1.25 0.08202344924 0.7247353196 0.6841278076
-0.10476317 -0.023456013 1.1540909 -0.04429754242 0.7856226563 0.6171181202
-0.17206565 0.023739958 1.1190001 0.2286410332 0.29467538 0.9278414249
-0.25430784 -0.094956152 1.245 0.4936785996 0.4881266654 0.7197317481
-0.22543335 -0.063394234 1.189 -0.05112387985 0.6524561644 0.7561000586
0.31643322 -0.30587316 1.1859598 0.6383212209 -0.2475979477 0.7288630009
0.34050611 -0.20154566 1.21 0.5928625464 -0.2058231235 0.7785569429
-0.054868501 -0.065763712 1.213294 -0.07490925491 0.7771866322 0.6247956157
0.2704955 -0.413699 1.21 0.7488244772 -0.1143361107 0.652831614
0.34507763 -0.43489909 1.1246499 0.6105614901 -0.2757185996 0.7424243689
-0.16376762 -0.066450305 1.1936666 -0.1046988592 0.7561289072 0.6459932327
-0.036834653 -0.40349922 1.3430002 0.3991438448 -0.2789312601 0.8734309077
0.30059323 -0.45428252 1.1610001 0.776704371 -0.1613345742 0.6088525653
-0.067696199 -0.23016708 1.404 0.02499961294 0.7440958619 0.6676049829
0.024917096 0.034497891 1.0932083 0.0001987826108 0.7585400343 0.6516264081
0.12428296 -0.12593047 1.2919999 0.0009513156838 0.7135902643 0.7005626559
0.18524913 -0.10210905 1.2578 0.06092409045 0.7517257929 0.6566556096
0.202402 -0.49531245 1.2320001 0.533721447 -0.373695612 0.7586125135
0.1750681 -0.033692177 1.1747144 0.1339937598 0.8008139729 0.5837316513
0.11422002 -0.0090971701 1.153 0.01208556164 0.8104313016 0.5857089758
-0.030025832 -0.21018083 1.3700001 -0.09919447452 0.6385927796 0.7631249428
0.21439272 -0.41501051 1.2536542 0.6137999892 -0.231412828 0.7547832131
-0.054924045 -0.46743864 1.3330001 0.523437798 -0.2846777439 0.8031011224
-0.062911354 -0.42376137 1.3540001 0.4434711039 -0.1826297939 0.877484858
0.11304013 -0.45554796 1.2880001 0.09626010805 -0.330088526 0.939029038
0.055069219 0.075941786 1.0446004 0.1457230449 0.680868566 0.717762351
-0.034751281 -0.0049702805 1.1325598 -0.0587682277 0.7725205421 0.6322644353
0.17843527 -0.45510191 1.2589999 0.489395678 -0.2577091157 0.8331133723
0.044894099 -0.00099764671 1.138 -0.03847024217 0.7808222175 0.6235677004
0.0347686 -0.38478297 1.335059 0.1506051719 -0.386475563 0.909920156
0.26999316 -0.3183983 1.2270001 0.7538628578 -0.1887596697 0.6293334961
0.14429149 0.076655924 1.035158 0.03301445022 0.7091806531 0.7042533755
-0.045639969 -0.32192042 1.3920001 0.6899552345 -0.1694779396 0.7037321925
0.30619583 -0.17392711 1.2546878 0.6524900794 -0.3249598444 0.6845858693
0.33734384 -0.3657172 1.1559999 0.5272904634 -0.3102936149 0.7910010219
-0.034450319 -0.12489951 1.2860558 -0.09109247476 0.7550861239 0.6492666006
0.15529533 -0.41650453 1.2880001 0.412640661 -0.300216943 0.8599985242
0.22499646 -0.015233759 1.1446524 0.3647170663 0.8211252689 0.4390156865
0.12542699 -0.3854866 1.3126001 0.2084968537 -0.2505026758 0.9453980327
0.063459203 -0.32460067 1.3540001 0.2482187897 -0.2889119387 0.9246174097
-0.11251929 0.054817092 1.097 0.2141494453 0.3604705036 0.9078552127
0.17556654 0.0075616492 1.1165456 0.08289027959 0.8034706712 0.5895456672
-0.29903713 0.14891323 1.381 0.1806463748 -0.6000688076 0.7792844772
0.0053783497 -0.072069891 1.2270001 -0.007434873842 0.7712934017 0.6364363432
0.090656973 -0.34143537 1.3430001 0.4041817784 -0.3036049008 0.8628216386
0.14440198 -0.10363729 1.2661818 0.0971698314 0.7388942242 0.6667783856
-0.31230199 0.25691417 1.4580001 0.7695598602 -0.2201776057 0.5994158983
-0.13596123 -0.15186003 1.295125 -0.1604221761 0.7165148854 0.6788749099
-0.22501156 -0.10742813 1.2328002 0.03792831302 0.5981240869 0.8005054593
0.18054494 -0.36539397 1.2920001 0.5174865723 -0.162272647 0.8401638269
0.19292861 -0.13742861 1.2919999 0.1849091202 0.6721422076 0.7169612646
0.1261768 -0.29556486 1.3490002 0.2416175157 -0.4118016064 0.8786582947
0.31479445 -0.42505679 1.1552607 0.7212335467 -0.213463366 0.6589807272
0.08521498 -0.083908752 1.243 -0.01652466506 0.7660114765 0.6426144838
-0.085147381 -0.15404937 1.3055001 -0.1687074006 0.7440037131 0.6465263367
0.24283667 0.01165616 1.108 0.008401088417 0.823846221 0.5667511225
0.086673841 0.02844196 1.0961001 0.01342259441 0.8109728694 0.5849297643
-0.18495926 -0.14466938 1.27675 -0.4517155886 0.5519634485 0.7009203434
0.26290774 -0.49200487 1.1960001 0.6905220151 -0.1796501428 0.7006462216
0.29481745 -0.085804343 1.2548127 -0.1126346663 0.612604022 0.7823233008
0.0053023896 -0.31433526 1.3707062 -0.02297500521 -0.3075840473 0.9512435198
0.25432962 -0.313952 1.2537603 0.6580158472 -0.3008949161 0.6902734041
-0.21441141 -0.14514247 1.2542503 -0.3627349734 0.4264355302 0.8285988569
0.17866203 0.061736621 1.067 0.1643626094 -0.2069397867 0.964448452
0.085113823 -0.42556912 1.3120002 0.1451167613 -0.4245128334 0.8937169313
0.035966124 -0.05781867 1.2117144 -0.03728478402 0.755813539 0.6537245512
-0.015441606 -0.10146277 1.258 -0.1077312902 0.7549286485 0.6468977332
0.1670462 0.26337957 1.169 0.4154168069 -0.4541690946 0.7881366014
0.20524877 -0.033644781 1.1683846 0.0675060004 0.8077041507 0.5857106447
-0.025496973 -0.15761767 1.322 -0.1380928308 0.6900759935 0.7104403377
-0.035401318 0.044114988 1.0833635 0.1018742025 0.571742475 0.8140836358
-0.013680131 0.022383431 1.1034285 -0.08136926591 0.7499121428 0.6565141678
-0.055485111 -0.088123411 1.2410001 -0.06778635085 0.7591544986 0.6473712325
-0.024822228 -0.043774713 1.1831334 -0.04637077078 0.8065065742 0.5894038081
0.23557171 -0.080675252 1.2270001 0.04054069519 0.7505200505 0.6596029997
-0.085413039 -0.11499764 1.2653333 -0.1148001105 0.7156134844 0.6889980435
0.2348156 -0.46549648 1.2241427 0.4944925606 -0.2728071809 0.8252595663
-0.073376127 0.039070401 1.087 0.1568997055 0.5345094204 0.8304710388
0.2854301 -0.26468673 1.2341177 0.7484048009 -0.2682774365 0.6065619588
-0.024397634 -0.058342166 1.21 -0.0574185811 0.7752341628 0.6290588975
0.055091489 -0.43438119 1.3135791 0.2412706465 -0.2800653875 0.9291672707
-0.20551674 -0.015070918 1.1458004 0.1425732821 0.5548436642 0.8196471334
0.35521808 -0.39488599 1.1312001 0.6194558144 -0.3073506355 0.7223641872
0.022469843 -0.19040234 1.3490001 0.04807715118 0.6414821148 0.7656299472
0.17552042 -0.064486034 1.2147727 0.1370269358 0.7795180678 0.6112080216
-0.20047964 -0.19141841 1.2920001 -0.2431455553 0.5135829449 0.8228686452
0.025014807 -0.13075921 1.2970001 0.03341695294 0.7334051728 0.6789699197
-0.10545336 0.0061084377 1.1242001 0.0433874242 0.6887566447 0.723693192
0.18206736 -0.26246682 1.3330001 0.5691079497 -0.3676145077 0.7355105281
-0.045557581 -0.022550495 1.1548181 0.01881507412 0.8159312606 0.5778427124
0.1810869 -0.39366716 1.2830001 0.4820031822 -0.2744197547 0.8320857882
0.094712302 0.10256252 1.0248419 0.09699310362 0.5099170208 0.8547379375
0.10503487 0.054937672 1.06405 0.03830526397 0.7881649137 0.6142709255
-0.10521372 -0.074390113 1.2148948 -0.09415189922 0.7351855636 0.671295464
0.11518841 -0.048245195 1.2034545 0.001694376231 0.7948030829 0.6068650484
0.27641857 -0.34564689 1.2148637 0.7006573081 -0.1510600299 0.6973236203
0.065326281 -0.056831378 1.2116667 -0.03389472142 0.7461211681 0.6649468541
0.16565572 -0.31540993 1.3149999 0.5784597993 -0.3108356595 0.754165411
0.15171155 0.38200751 1.245 0.2764397264 -0.4447281063 0.8519377708
0.26252687 -0.3847535 1.2229998 0.7008358836 -0.1889726818 0.6878359914
0.29815653 -0.22591831 1.2345002 0.7467139363 -0.2217544466 0.6270911098
-0.2548475 -0.065299548 1.1853331 -0.1963149905 0.5734645724 0.7953608036
0.20507458 0.025486227 1.0739629 0.245691359 0.6375763416 0.7301589847
-0.074390426 -0.026497951 1.1624 -0.009440977126 0.7670942545 0.6414649487
0.075081341 -0.15584092 1.3248237 0.03971235827 0.7198437452 0.6929991841
0.29648778 0.12384933 1.427 -0.4353059828 0.727461338 -0.530385375
-0.19454165 -0.062825687 1.189 0.02167628519 0.7136747837 0.7001417279
0.22525491 -0.24513648 1.3043078 0.6002953053 -0.3187499642 0.7335148454
-0.065657943 0.0078384522 1.1178 0.05924569443 0.7410523891 0.6688283086
0.21502003 -0.068057582 1.210889 0.02701039985 0.7706180215 0.6367246509
0.174632 -0.23517109 1.3280001 0.5627564192 -0.3383987844 0.7541826367
-0.07199274 -0.28277147 1.411 0.1489863098 -0.3949816525 0.9065277576
-0.28402421 0.038100809 1.317 0.1894786507 -0.6757513881 0.7123607993
-0.12672392 -0.13005877 1.268 -0.2029401511 0.7340323329 0.64808321
0.35286373 -0.25621197 1.1764287 0.3363122642 -0.298599124 0.8931587934
0.43679917 -0.21141079 1.9930001 0.08149510622 0.7542704344 0.651486516
0.15595263 -0.26726624 1.3470004 0.4565066397 -0.4296019077 0.7791302204
0.28379878 -0.45484713 1.1836665 0.7126504779 -0.1886163652 0.6756871939
0.0043817991 -0.032733638 1.1760001 -0.07128252834 0.7908666134 0.6078230143
-0.0040176376 -0.11720182 1.2837144 -0.1335455179 0.7611618042 0.6346639395
0.0050450223 0.068674073 1.057 0.1893123388 0.5621504784 0.8050761819
0.1453339 0.035378069 1.0835415 0.1034035757 0.7900236249 0.6042932868
-0.064861357 -0.12784809 1.2830001 -0.1197330803 0.7219893336 0.6814656258
-0.28186235 0.20801196 1.404 0.5341844559 -0.4232171178 0.7318020463
0.17818131 0.16240284 1.107625 0.5623688102 -0.3652488291 0.7418453693
0.24506778 -0.037010238 1.141 0.4248163402 0.8766884208 0.2257177979
0.036225855 -0.32625028 1.3649999 0.2875497341 -0.4391892552 0.8511333466
-0.01068306 -0.18636005 1.3540001 -0.1142335832 0.70112288 0.7038305402
-0.14508717 0.015809206 1.116263 0.1216120943 0.5180317163 0.8466720581
0.0050101494 -0.0080179926 1.1429999 -0.08420217782 0.7745929956 0.6268298626
0.31277466 -0.11594678 1.255923 0.4380882978 0.2024116963 0.8758471012
0.19461535 0.084317498 1.0651766 0.3215494752 -0.1236321405 0.9387869835
0.0741923 -0.30115691 1.3649999 0.2235514373 -0.5066236258 0.8326807618
-0.1777126 -0.17883737 1.2830001 -0.6564854383 0.2723887265 0.7034424543
0.32334098 -0.22497894 1.21 0.5785332322 -0.2755053043 0.767721355
0.12709826 0.41953671 1.2830001 0.4387435317 -0.4739349186 0.7634721994
0.1369746 0.30644339 1.2112 0.5473801494 -0.384921819 0.7431084514
0.16456756 -0.047171392 1.1956668 0.1350925863 0.7894277573 0.5987936854
-0.042036165 -0.29425317 1.3700002 0.5431733131 -0.1802696735 0.8200399876
0.27288222 -0.067623876 1.21 -0.07788044214 0.7898641825 0.6083166599
-0.015672103 -0.41508681 1.3279999 0.1453528702 -0.3928087354 0.9080604911
-0.0043523582 -0.36361971 1.3540001 0.03277806565 -0.3244297802 0.9453417063
0.11444102 -0.15678969 1.3247693 -0.01236043964 0.6914610863 0.7223079205
0.25580993 -0.2751995 1.2661332 0.6520514488 -0.2944890559 0.6986452341
0.21194819 0.0014780599 1.1245 0.3263872266 0.8611391187 0.389757365
0.22723375 -0.051075477 1.189 0.01664434187 0.7947232127 0.606743753
0.055016447 -0.47186303 1.302 0.1120635867 -0.4307928383 0.89546597
0.2280626 -0.35649386 1.2581111 0.5513952971 -0.2217609733 0.8042296171
0.13589297 0.34170449 1.2270001 0.1979377121 -0.5148875713 0.8340932131
0.034711011 -0.41497985 1.3267368 0.07366424799 -0.401432097 0.9129216075
0.065441415 -0.37511963 1.3330001 0.1898476481 -0.3970061243 0.8979666233
0.26602975 -0.22590373 1.2765714 0.7573465705 -0.2169097066 0.6159353256
0.2979711 -0.13726759 1.273 0.4614512026 0.05653249845 0.8853625655
0.20301978 -0.3526133 1.2830001 0.4822564423 -0.4172636271 0.770272553
-0.1248005 -0.1895555 1.3430001 -0.1109510362 0.7217745781 0.683177352
0.29909411 0.10215972 1.404 -0.4478494823 0.7555471659 -0.478099674
0.30262592 0.062386524 1.3260001 -0.4725734293 0.7698718309 -0.4289191961
0.34191975 -0.31518316 1.1730001 0.4290961325 -0.1893851012 0.8831816316
-0.3002671 0.18138584 1.3980001 0.4886907041 -0.4460123181 0.749836266
0.32268414 -0.1662181 1.2360001 0.7147219777 -0.3037435412 0.63000983
0.16299477 -0.14313407 1.302 0.1244463921 0.6686075926 0.73312819
-0.28600845 0.08343529 1.3280001 0.3617508411 -0.3308611214 0.8715889454
-0.054487389 -0.19576472 1.3560834 -0.07838758081 0.678196013 0.7306883931
0.024426388 -0.4809944 1.302 0.1866380125 -0.3272785246 0.9263125658
0.054743242 -0.024152115 1.1678236 -0.04980459064 0.7664566636 0.6403621435
0.28769043 -0.39505318 1.189 0.7190105915 -0.2085903585 0.6629583836
0.34223226 0.20425719 1.5430001 -0.3303348422 0.8253050447 -0.4579852223
0.034904607 -0.094183303 1.2554286 0.02255996317 0.795776844 0.6051695943
-0.22136185 -0.042017758 1.169 0.08610507101 0.6166909337 0.7824820876
0.12660293 -0.47493932 1.278 0.2753881812 -0.3136684895 0.9087207913
-0.064003676 -0.30894083 1.404 0.68764925 -0.03531096876 0.7251839042
0.22297089 -0.27523479 1.2919999 0.6569196582 -0.2858880162 0.6976565123
0.16698061 0.11721208 1.0918182 0.3939429522 -0.4302261174 0.8122280836
0.33379915 -0.2894302 1.177 0.3922331333 -0.3661403656 0.8438568711
-0.14510362 -0.021816436 1.1485556 -0.0268774461 0.6810376644 0.7317549586
-0.12528619 -0.089644425 1.2320001 -0.2042441368 0.7499004006 0.629232645
0.024985436 -0.041642983 1.1875 -0.03688998893 0.7848457098 0.6185922027
0.15729241 0.19627219 1.1428182 0.4290879965 -0.4035257399 0.8081153631
-0.13207562 -0.058399152 1.1938001 -0.2044996172 0.7673403621 0.6077570915
0.037309181 0.10100778 1.0380001 0.2242144495 0.5088744164 0.8311285377
-0.07843975 -0.049155578 1.1930001 -0.04960027337 0.7929034829 0.6073251367
0.12899886 0.3869966 1.2576667 0.3764022887 -0.4749291837 0.7954643965
0.17517115 -0.018227654 1.155 0.138484776 0.8224345446 0.5517457724
0.076781973 -0.47875819 1.2880001 0.29442662 -0.3131694198 0.9029052258
0.05521597 0.03903446 1.0860001 0.02150090411 0.8076592088 0.5892574787
0.25327951 -0.047069766 1.1865001 0.04779134318 0.7792793512 0.6248517036
-0.30373922 0.22499439 1.4258001 0.4754405618 -0.4341679513 0.765149951
-0.14383855 -0.17632188 1.3232 -0.1576613188 0.7816620469 0.6034462452
-0.2694777 0.030699991 1.2970001 -0.07799616456 -0.4953440726 0.8651883006
-0.01043058 -0.44503808 1.322 0.1461455524 -0.3823880851 0.9123709798
0.12543644 -0.065619029 1.2243332 0.03311088309 0.7617413402 0.6470346451
-0.055123229 -0.16524969 1.3253335 -0.1012233943 0.7234746218 0.6828896403
0.0080206236 -0.45946714 1.307 0.1356446296 -0.2586016953 0.9564129114
0.10508725 -0.27549845 1.3586154 0.3771913946 -0.4185569882 0.8261578083
-0.058302715 -0.25802052 1.4150001 0.3346191943 0.01935242675 0.9421547055
-0.091059364 -0.23774321 1.4100002 -0.2189656347 0.6192095876 0.754077971
0.20378098 -0.40421399 1.273 0.5634602308 -0.2388944775 0.7908489108
0.16444898 -0.4745056 1.2643636 0.4772874117 -0.3158167303 0.8200344443
0.074590363 0.064154416 1.0534707 0.04310523346 0.7428555489 0.6680625677
0.22779438 -0.013920371 1.1140001 0.4794521928 0.7825165987 0.3972320855
0.1738088 0.19100699 1.1255714 0.4474385977 -0.4105336666 0.7945192456
0.21597852 -0.30519652 1.2856319 0.6150160432 -0.2588039041 0.7448327541
0.13498911 -0.43470255 1.294 0.3431432247 -0.2919899821 0.8927455544
0.10359347 -0.40417561 1.3120002 0.3093619049 -0.2796273828 0.9089025259
-0.16466378 -0.084990896 1.2118002 -0.1083572581 0.7445206642 0.658747077
-0.16547084 -0.11944582 1.25 -0.02580027469 0.7198474407 0.6936526895
-0.052024033 -0.37687635 1.3590001 0.4917632341 -0.2975086272 0.818326056
-0.18566529 -0.1038565 1.2340001 -0.06998676807 0.7478722334 0.660143137
0.31270131 -0.28319621 1.202 0.6697637439 -0.2597813308 0.6956508756
0.33612019 -0.41462669 1.1362225 0.5633941889 -0.2396408916 0.7906701565
-0.17438039 -0.052623674 1.177 -0.02714114822 0.6868261099 0.7263148427
0.034926947 -0.11316451 1.274875 0.006054697558 0.7412337065 0.6712197065
0.12474837 0.063254669 1.052125 0.0799330771 0.7587818503 0.6464215517
0.19587101 -0.47563231 1.2442383 0.5632165074 -0.351775676 0.7476904392
0.19508505 0.014275856 1.1043749 0.2809534669 0.850530684 0.4445927441
0.22705507 -0.43490154 1.2360001 0.5529738665 -0.2173399925 0.8043527007
0.11210813 0.020471919 1.1120001 0.05288193747 0.8272491097 0.559341073
0.24845611 -0.47576702 1.2060001 0.6102634668 -0.1616028994 0.7755404711
-0.02244968 0.058930408 1.067 0.1162826568 0.5493379235 0.8274697661
-0.28627989 0.10572337 1.3550001 -0.07198292017 -0.4922005832 0.867500484
0.30810642 -0.34731621 1.177 0.683062613 -0.1961307824 0.7035326362
0.16156529 0.30124107 1.189 0.510802865 -0.3963248134 0.7628938556
0.30896541 -0.4051339 1.1669999 0.7474999428 -0.1434700042 0.6485832334
0.28469479 0.0071673938 1.2642667 -0.4820423722 0.7218114138 -0.4966119826
-0.057690803 -0.44504333 1.3430001 0.6170510054 -0.2309943438 0.7522563934
0.16509227 0.23507859 1.154739 0.4136617184 -0.4388797581 0.7976644039
0.30302027 0.043207392 1.2970001 -0.4382083416 0.7672408819 -0.4683106244
0.28839266 0.080175549 1.365 -0.3924649358 0.7759910226 -0.4937703609
0.014980772 -0.14633641 1.3143334 -0.03335531056 0.7280746698 0.6846858263
0.15312254 0.021253027 1.102 0.09799493104 0.803053081 0.5877948403
0.015697245 -0.085679963 1.2434 -0.007914264686 0.8103940487 0.5858317614
0.12473409 0.0032259142 1.1337498 0.08911405504 0.8176463842 0.5687821507
-0.095337495 -0.099720836 1.25 -0.1008352265 0.7240196466 0.6823692918
0.10558684 -0.32464835 1.3358947 0.3028660119 -0.3234919906 0.8964514136
0.084949002 -0.12685719 1.2919999 0.01826404594 0.7197372913 0.6940062046
0.21474639 -0.098211095 1.2507143 0.1167102233 0.7181696296 0.6860110164
0.1953494 -0.11721091 1.2733333 0.1426435113 0.6681070328 0.7302642465
-0.16494045 0.00099063327 1.13 0.06367433071 0.5909968615 0.8041568995
-0.091291331 0.05507974 1.087 0.3144608438 0.3500789106 0.8823599815
-0.16533144 -0.031443402 1.1570001 -0.05539136007 0.7362268567 0.6744641066
0.16047296 0.1476745 1.123 0.6096885204 -0.351410538 0.710486114
0.13433874 -0.40489516 1.3031763 0.3090037107 -0.3926232755 0.8662353158
0.27562532 -0.4352828 1.1950002 0.7412697673 -0.1951332092 0.6422165632
0.31768033 0.18899968 1.529 -0.3484655023 0.8264428973 -0.4422261417
0.044686329 -0.14179316 1.307 0.04533507302 0.764416337 0.6431270838
-0.11566227 -0.21512562 1.3732311 -0.1625253558 0.7127447724 0.6823345423
0.16062725 0.065168768 1.0470001 -0.2821735442 0.6531600952 0.7026805878
0.024835089 -0.36424798 1.3490005 0.07680919021 -0.3808986843 0.9214209318
0.33025524 0.17883386 1.4890001 -0.4239310622 0.8000857234 -0.4244352877
0.092319138 -0.36226499 1.3330001 0.3354080319 -0.4000448287 0.8529159427
0.15296677 0.35570049 1.2340002 0.2026497275 -0.5010355711 0.8413658142
-0.13502233 -0.20635919 1.356143 -0.3941898942 0.6460824609 0.6535990834
-0.084261909 -0.19217631 1.3490001 -0.08261878788 0.7440665364 0.662977457
0.035971388 -0.17321004 1.3380002 -0.03572703898 0.6539695859 0.7556767464
-0.12567665 -0.033721216 1.1655333 -0.1186338589 0.7661154866 0.6316590309
0.16470866 -0.43498257 1.2773181 0.4005356431 -0.3228741884 0.8575100303
0.086090416 -0.10043883 1.2590001 0.003283599624 0.7528758049 0.6581543684
0.30804136 0.15210342 1.4580001 -0.4920011163 0.7050064802 -0.5107845068
0.084563717 -0.048736088 1.202 -0.03413481638 0.7981098294 0.601544261
0.074496649 0.0038164528 1.1346316 0.01442489401 0.7925296426 0.6096627712
-0.26994583 0.067778602 1.3330001 0.4481514394 -0.281244725 0.8485645056
0.25287738 -0.43483877 1.2230002 0.6260485053 -0.2175829262 0.7488130331
-0.035203207 -0.46372619 1.3220003 0.5273190737 -0.3092111349 0.7914057374
0.10483051 -0.075451665 1.2341055 -0.06269061565 0.7609831095 0.6457356811
-0.035899498 -0.34463522 1.3649999 0.2881062925 -0.3523765504 0.8904075027
-0.31881413 0.27493289 1.4723333 0.8258488774 -0.2420773655 0.5092859268
0.13840024 0.25598666 1.187 0.4344754219 -0.438501507 0.7867321968
0.15468246 0.0037451198 1.1248002 0.1400751173 0.8087024689 0.5712961555
0.11717965 -0.10601968 1.2729999 -0.03563460335 0.7609289885 0.6478558779
0.07560505 -0.18192147 1.3475001 0.06720142812 0.6784038544 0.7316093445
0.30787188 -0.47186962 1.1476668 0.7243711352 -0.1130703241 0.6800746918
-0.0047866004 -0.33865196 1.365 0.03060771525 -0.3731689453 0.9272583723
0.32593942 -0.43695408 1.1365883 0.618291378 -0.2440342009 0.7471031547
0.13499458 -0.36505106 1.3142917 0.3840534687 -0.3563566506 0.851770401
0.074214488 0.084106937 1.0333848 0.07483875751 0.5689619184 0.8189514875
-0.014780601 0.0045309644 1.1240002 -0.1242471039 0.7760862708 0.6182659864
0.10393277 -0.023039239 1.1680001 -0.02697698772 0.7627736926 0.6461026073
-0.095417157 -0.035381038 1.1754001 -0.04728733748 0.7810512781 0.6226739287
0.014136874 -0.40581155 1.3279999 0.1291200668 -0.3992128968 0.9077208042
-0.091557309 -0.16804823 1.322 -0.1546084136 0.720282793 0.6762313843
0.20527911 -0.43558753 1.2550001 0.5391768217 -0.2402169704 0.807207644
-0.02228662 -0.38708341 1.3380001 0.1127044186 -0.4261721373 0.8975940347
0.15520982 -0.023821479 1.1652106 0.1395898163 0.8019402623 0.5808670521
0.28449348 -0.32510224 1.2106954 0.6891320348 -0.1624091566 0.7062013149
-0.29642731 0.2660245 1.4450001 0.4487641454 -0.3821501732 0.8078192472
0.25563619 -0.3655389 1.2338669 0.7156074047 -0.1736467183 0.6765743494
0.13635059 -0.14093381 1.307 0.06303878129 0.7022480965 0.7091359496
-0.21475199 -0.076691017 1.2045001 -0.05993250757 0.6860098839 0.7251196504
0.34837845 -0.34751505 1.149 0.4856271744 -0.3494417965 0.8012843728
0.11602227 0.07801526 1.0372001 0.06791272014 0.7062971592 0.7046504021
0.29621851 -0.20553519 1.2439475 0.7392473221 -0.2535917759 0.6238626838
0.18417363 -0.30321798 1.3120002 0.4861489534 -0.3260017037 0.8107910156
-0.11573478 -0.15596828 1.3036667 -0.08995161951 0.7182855606 0.6899091005
-0.21634966 -0.12491039 1.2450002 -0.3041375577 0.3995121419 0.8648065329
0.2243237 -0.39501843 1.2534765 0.5308514833 -0.2419217974 0.8122010231
-0.025426235 -0.14332777 1.3046924 -0.09750120342 0.7232323885 0.6836873889
0.17425679 -0.34299669 1.302 0.5148847699 -0.3332101703 0.7898510695
-0.1156788 0.022298519 1.1128572 0.09515120834 0.5915752053 0.8006153703
-0.27744746 0.15078667 1.376 0.0197146181 -0.5387011766 0.842266202
0.075296901 -0.072069891 1.2270001 -0.0301284641 0.7633577585 0.6452730298
-0.075263962 -0.072515987 1.219 -0.08406407386 0.7589139938 0.6457419991
-0.096106626 -0.010974113 1.138 0.02938906848 0.7496491671 0.6611825824
0.13495983 -0.043542653 1.1947143 0.03120511211 0.7891025543 0.613468349
0.16508871 0.042610645 1.0717648 -0.01775519736 0.698812604 0.7150844336
0.33298606 -0.24447078 1.202 0.4393234253 -0.2842970788 0.8521561623
0.033997133 0.018455587 1.108 -0.04392910004 0.8086259365 0.5866807699
