# .PCD v0.7 - Point Cloud Data file format
VERSION 0.7
FIELDS x y z normal_x normal_y normal_z
SIZE 4 4 4 4 4 4
TYPE F F F F F F
COUNT 1 1 1 1 1 1
WIDTH 512
HEIGHT 1
VIEWPOINT 0 0 0 1 0 0 0
POINTS 512
DATA ascii
0.36475092 -0.075490005 1.2662857 0.001309575513 0.7933163643 0.6088081598
0.031310149 -0.45295349 2.381 0.7100765705 0.6896868944 0.1418564916
-0.17771962 0.073918775 1.794 0.9853690863 -0.1498225778 -0.08124627918
0.0674069 -0.49635991 1.3980001 0.5227764249 -0.2697805762 0.8086552024
0.24718907 0.43448338 1.3472859 0.5461688042 -0.3627438247 0.7550606132
0.34600282 0.13682838 1.794 -0.8159694672 0.5430814028 -0.1981324404
-0.14068308 -0.055848926 1.2250001 0.127226159 0.5546404719 0.8223062158
0.44983783 -0.42159688 2.3010001 0.4368342757 0.8744084239 0.2111533433
0.4521707 -0.48229584 1.2126669 0.5549803972 -0.1777700931 0.8126466274
-0.19016653 0.26885614 1.4960001 0.6716682911 -0.2586403787 0.6942383647
-0.23859359 -0.18910752 2.016 0.808193326 0.5712330341 0.1432352364
0.094661966 -0.17834105 1.3920001 -0.03377876058 0.7387504578 0.673132062
0.13890257 0.068965614 1.108 0.2587817907 0.4442512095 0.8577137589
0.42710963 0.11409992 1.4959999 -0.4423333704 -0.6100217104 0.6574303508
0.3208293 -0.32203999 1.381 0.5661281943 -0.3264482021 0.756921649
-0.17206512 -0.34215248 2.256 0.7494629025 0.6490172148 0.1306981742
0.29162839 0.2251543 1.223 0.5461930633 -0.3315123022 0.7692676783
-0.16374029 0.074998245 1.3973334 0.3511225879 -0.4419637918 0.8254579902
0.46317545 -0.24769253 1.267 0.6017655134 -0.2150743157 0.7691692114
0.054759815 -0.058023643 1.2410001 -0.06757348776 0.8001519442 0.5959787369
-0.093714915 -0.19516943 1.3434287 -0.4546793997 0.4512810111 0.7678620219
0.2552599 -0.49554256 1.348 0.2430360019 -0.3542155027 0.9030309319
0.32445237 0.054383364 1.1305 0.0853472054 -0.04347766563 0.9954022169
0.15074721 -0.3407647 1.4450001 0.1750952601 -0.5010963678 0.8474928141
0.26271683 -0.15859865 1.381 0.02187271975 0.719797194 0.6938397288
0.21479997 -0.030991044 1.2190001 -0.03040757589 0.7927309871 0.608812809
0.02754136 -0.27410209 1.4960001 0.3669096231 0.2784784436 0.8875962496
0.45617527 0.19692037 1.6160001 -0.597138226 -0.6174494028 0.5120372176
0.40487882 -0.37465972 1.2855003 0.7312999964 -0.2032703012 0.6510618329
-0.034140319 0.011949844 1.1683334 0.1485529393 0.3153770268 0.9372669458
-0.23671314 -0.10240781 1.9150001 0.8945426941 0.3523129821 0.275079906
-0.21241195 0.098148972 1.6710001 0.9870052934 0.1423589438 0.07452806085
0.15468346 -0.10312231 1.307 0.007622420322 0.7804372907 0.6251875758
-0.1543618 -0.034600362 1.3440911 0.3988093436 -0.3332416415 0.8543425202
0.26760775 0.33083996 1.2880001 0.5651710033 -0.323536545 0.7588846087
0.039460521 -0.38569477 1.452 0.3637731969 -0.2275333405 0.9032705426
0.36131641 -0.49157155 1.2920001 0.4888612628 -0.2252204865 0.8427872658
0.42489126 -0.15401135 1.3338825 0.4392551184 -0.06489282101 0.8960155249
0.0073400382 -0.12787117 1.322 -0.1958023459 0.7391790748 0.6444189548
0.23332517 -0.39440739 1.3920001 0.3895579875 -0.3341376781 0.8582520485
0.24195561 -0.27995911 1.4450001 0.469897002 -0.5369135141 0.7006573081
-0.17757234 0.16866191 1.452 0.02786192112 -0.4504212141 0.8923813105
-0.0054891855 -0.21307886 1.4142858 -0.1981204897 0.7497478724 0.6313686967
-0.098580576 0.0036901822 1.8040003 0.9940702915 0.04068897292 0.1008396223
-0.19228543 0.26807678 1.6010001 0.9972689748 0.03689889237 0.06397673488
0.4917618 -0.38645837 1.2256668 0.04581245407 -0.3049199879 0.9512754679
0.26553521 -0.087252736 1.2953333 0.0731877014 0.7652418017 0.6395690441
0.38278246 -0.24710779 1.3380002 0.680213511 -0.2009805888 0.7049229741
0.36451128 -0.02783037 1.1756668 0.2033134997 0.762183845 0.6146050692
0.11457548 -0.004327402 1.1746001 -0.126533255 0.7785414457 0.6147052646
-0.044507634 -0.077572875 1.2433333 -0.1152534708 0.7531577945 0.6476650238
0.22496223 0.027496723 1.1358463 0.03815484419 0.7909398675 0.6107031703
0.32299003 -0.41521677 1.3430001 0.483327657 -0.2049291581 0.8511160016
0.16432184 -0.47315443 1.3810002 0.1303859651 -0.3311803341 0.9345154166
0.28681129 0.13553397 1.1846668 0.5215173364 -0.4448489249 0.7280996442
0.18405855 -0.20187743 1.4227144 0.01774989069 0.6736506224 0.7388367653
-0.11734468 -0.11847733 1.2932501 0.4806852937 0.4569506347 0.7484235168
0.046889395 0.042898804 1.138 0.178587392 0.3397159874 0.9234173298
0.33586326 -0.13274224 1.3380002 0.0644120723 0.7443669438 0.6646570563
0.10502379 -0.41803586 2.3490002 0.667177856 0.7320689559 0.1376544684
0.1046214 -0.40863889 1.404 0.220373705 -0.3015779853 0.9276239276
0.28494871 -0.0077782255 1.1826669 0.1228305846 0.8163254857 0.5643805265
0.13501456 -0.055531576 1.242 -0.08959953487 0.8001561761 0.5930615067
0.18428409 -0.14639018 1.3649999 -0.0202016253 0.7316994667 0.681327939
0.085095093 -0.1269521 1.3330001 -0.07944840938 0.7652691603 0.6387887001
0.42531484 0.16985416 1.5500001 -0.4606256485 -0.6605713367 0.5928486586
0.45523459 -0.32513353 1.2521853 0.5456585288 -0.2749832273 0.7916066051
0.31268159 -0.25786886 1.4210001 0.4838524461 -0.1648633182 0.8594806194
0.24361779 0.080887839 1.0855 0.03170674667 0.5607389808 0.827385366
0.061814643 -0.23212029 1.439 -0.01493319217 0.7259426713 0.6875931025
0.41221568 -0.44545889 1.2640001 0.7474845052 -0.152340889 0.6465749145
0.034268718 -0.015582046 1.1845198 0.05037141964 0.6980912089 0.7142348289
0.36863619 -0.32677311 1.3265001 0.6281558275 -0.2631190419 0.7322490215
-0.08499898 -0.025184875 1.1970003 0.1643372774 0.4579093158 0.8736774921
0.29467377 -0.053236522 1.2431539 0.07954934239 0.8331005573 0.5473713279
0.070155248 -0.3252705 1.455 0.3052715659 -0.296066016 0.9050713778
-0.058883071 -0.1420121 1.317 -0.1328989714 0.7830818295 0.6075530648
0.26151317 0.26926991 1.2640001 0.4536120296 -0.4362357557 0.7771322131
0.41830316 -0.28615421 1.2970001 0.6546411514 -0.1779030561 0.7347077131
-0.13700984 0.027401969 1.3590001 0.3777989447 -0.4767584801 0.7937060595
0.024020666 -0.16934569 1.3700001 -0.1842876077 0.6683824658 0.7206267715
-0.062012769 -0.2322439 1.3870001 -0.7941190004 0.2105324417 0.5701325536
0.25583887 -0.33426097 1.404 0.0251722075 -0.4181497097 0.9080292583
0.205185 -0.073617339 1.2754999 -0.03032398783 0.8136490583 0.5805649757
0.16862507 -0.39756131 1.404 0.1024670675 -0.4442542791 0.8900216818
0.094665676 -0.086778462 1.2855 -0.03923181817 0.7681914568 0.6390169859
0.17672585 0.0016159471 1.1730002 -0.03095403872 0.803574264 0.5943990946
0.23501103 -0.12388605 1.3351053 -0.06022464857 0.7550009489 0.6529521942
0.42967623 -0.209682 1.307 0.6383661032 -0.429340452 0.6388704777
0.38683203 -0.10822165 1.3132501 -0.3757304251 0.7562484145 0.5356444716
-0.19682744 -0.30736107 2.2120001 0.7494629025 0.6490172148 0.1306981742
-0.038292799 -0.18069415 1.365 -0.09222640097 0.7745540142 0.6257478595
0.2680496 -0.43558061 1.3649999 0.3418712914 -0.3785036504 0.8601505756
0.24732065 0.37619627 1.322 0.6979532838 -0.2841026187 0.6573788524
-0.024236325 -0.038988873 1.202 -0.07797723264 0.7156839967 0.6940576434
0.31520039 -0.47510257 1.326286 0.5267347097 -0.277372092 0.803501904
0.28830409 -0.37877613 1.376 0.412434727 -0.340054512 0.8451393247
0.055227954 -0.44306937 1.4210001 0.4128808975 -0.1989930123 0.8887807131
0.014017832 -0.092454299 1.2753075 -0.1435125917 0.749119699 0.64670223
0.36839986 -0.42638874 1.2970001 0.5625017881 -0.1605180204 0.8110645413
0.39058831 -0.062792122 1.2140001 0.3999579847 0.8618997931 0.3117087781
0.20456213 -0.32277712 1.4345001 0.2551222146 -0.5408039689 0.8015258908
0.34741247 -0.26900342 1.376 0.6148180366 -0.3303676844 0.7161396146
0.11557622 -0.21670543 1.4330001 -0.06459850073 0.7338639498 0.6762179732
0.43714067 -0.39567396 1.2447333 0.700270772 -0.1800466627 0.6907995343
0.10464897 0.034879901 1.1368804 0.06755903363 0.5619279742 0.8244226575
0.21450032 -0.44553542 1.3832108 0.3171498775 -0.2474045306 0.9155364037
0.29211146 0.086004943 1.161 0.5411011577 -0.3831699491 0.7485922575
-0.19355021 0.21625046 1.4835454 0.5068585873 -0.4192439616 0.7532123327
0.32568538 -0.0022650876 1.1475002 0.2945129275 0.7253337502 0.6222162843
-0.10483472 -0.087301388 1.25 0.009772487916 0.7351998687 0.6777799726
-0.15865475 0.12617776 1.4250001 0.2202008665 -0.561478138 0.7976552248
0.19642024 0.06080823 1.1010001 0.007113649976 0.5955562592 0.8032820821
0.33704767 -0.36424801 1.3490001 0.6137616038 -0.2042381167 0.7626162171
0.11580417 -0.4945803 1.376 0.1045441777 -0.3816663027 0.9183688164
0.27490541 0.044695087 1.113903 -0.08079677075 0.743442297 0.6639016867
0.4863396 -0.43506247 1.2060001 0.3988793194 -0.2404225916 0.8849250078
0.32523051 -0.094409667 1.2952143 0.09848799556 0.7748706341 0.6244001985
-0.051722456 -0.21445897 1.439 0.3646900058 0.8337799907 0.4145022333
0.10426986 -0.36155257 1.4330001 0.2748218477 -0.392780751 0.8776082397
0.094687715 -0.038301565 1.2136 -0.09707915038 0.8165636659 0.5690338016
0.16579615 0.032149259 1.1324615 0.02837022394 0.7433388233 0.6683132052
-0.034867663 -0.10910203 1.2830001 -0.1137868538 0.7400112152 0.662899673
0.12615496 -0.14415818 1.3590001 -0.1433607489 0.7184726596 0.6806208491
0.34559402 -0.039670043 1.223 0.1306569725 0.8204440475 0.5565971136
0.40521163 -0.49563867 1.2556669 0.6803882122 -0.2270466685 0.6967938542
0.23362289 -0.1891233 1.4100001 -0.009683928452 0.6855470538 0.7279639244
0.2056611 -0.49705651 1.3582858 0.2731338739 -0.4859687388 0.8302001357
0.23525876 -0.0010318366 1.177 0.01424054243 0.8275475502 0.5612150431
0.28609928 -0.1283326 1.3430001 0.07631402463 0.7822195888 0.6183111668
0.14441155 -0.1750107 1.3959999 -0.04064720124 0.7378842831 0.6737021804
0.27686009 0.17926957 1.21 0.6401643753 -0.2501553595 0.7263689637
0.044720519 -0.20144749 1.4039999 -0.1499141902 0.7437050939 0.6514817476
0.16421983 -0.027856961 1.2105001 -0.06430151314 0.816724956 0.5734332204
0.0032506802 -0.061762918 1.2360001 -0.2052238286 0.7597479224 0.616981566
0.4178246 0.21799543 1.5940001 -0.597138226 -0.6174494028 0.5120372176
0.24529049 -0.055004347 1.2547224 -0.04417833313 0.817081809 0.5748265982
-0.10587223 -0.16339156 1.307 -0.1418989301 0.5217236876 0.8412306905
0.096412301 -0.45673278 1.3979999 0.2802535295 -0.3064023256 0.9097118378
0.018271485 -0.24431473 1.454 -0.1755605042 0.8151092529 0.5520646572
0.28488308 -0.29478645 1.4116668 0.4371190071 -0.3484302461 0.8291702867
0.43994904 -0.43887335 1.2270001 0.6406407356 -0.1295094639 0.7568399906
0.05471715 -0.10763501 1.304143 -0.09960320592 0.7704471946 0.6296747327
0.20639732 -0.36517918 1.4150002 0.3357925415 -0.3022422493 0.8921283484
0.0071001234 0.031443402 1.1570001 0.2387984544 0.4044373035 0.8828396201
0.36501914 -0.38538671 1.3164117 0.5611377358 -0.2086323798 0.8009974957
0.14489077 -0.43562552 1.3980002 0.04438747093 -0.4418517947 0.8959892392
0.26448873 -0.031682294 1.2181668 0.05535203218 0.8185268044 0.5717954636
-0.21775085 0.08559861 1.7130001 0.9932839274 0.1057886705 0.04685992002
0.075561166 0.0082201138 1.156111 0.07685568184 0.6602700353 0.7470855117
0.41115317 -0.33186743 1.2920001 0.6358622313 -0.1586707532 0.7553163767
0.18498164 -0.051607028 1.2436668 0.005026359111 0.7860279083 0.618170619
0.28484204 0.017389895 1.1462309 0.01875554956 0.7843643427 0.6200167537
-0.085415684 -0.058611598 1.223 0.0707109049 0.6426627636 0.7628791332
0.19514599 -0.11383781 1.325 -0.06313563138 0.7894288301 0.6105866432
0.064379767 -0.15771848 1.365 -0.1022359356 0.7447802424 0.6594317555
0.15513799 -0.077099524 1.2745383 -0.05741502345 0.8093010187 0.5845813751
0.38498271 -0.28722998 1.3274547 0.6153427958 -0.309771657 0.7248411775
-0.075400248 -0.11167243 1.2752222 -0.05018281564 0.7546623349 0.6541914344
0.060857322 -0.28874856 1.4770001 0.3262230456 -0.2484855801 0.9120490551
0.22536908 -0.14958125 1.3650001 0.0355473496 0.7510809302 0.6592524648
0.32431504 -0.015967142 1.1859411 0.2401156873 0.8575068116 0.455001682
0.47509089 -0.29268533 1.2656 0.3107045293 -0.3390443027 0.8879817724
0.044489957 -0.13581584 1.3354999 -0.1317454427 0.7637206912 0.6319603324
0.065146074 -0.39600602 1.4230001 0.3811402917 -0.3085776567 0.8714997768
0.31352231 -0.15197454 1.365 0.1698506027 0.7160882354 0.6770291328
0.13454029 -0.38555753 1.4210002 -0.0274636317 -0.3397448361 0.9401165843
0.33828902 -0.44335487 1.317 0.6539997458 -0.2293929607 0.7208766937
-0.013436143 -0.15703468 1.3448002 -0.2175924629 0.7254395485 0.6529862285
0.32467526 -0.069810718 1.2640001 0.0948446393 0.7868281603 0.6098409295
0.19581224 -0.17501073 1.396 0.05097310245 0.7177797556 0.6944018602
0.41507816 -0.24542503 1.3152143 0.6715983152 -0.1897510141 0.7162054777
0.22473428 -0.098204777 1.3042223 0.01247597486 0.7623790503 0.6470104456
0.095149979 -0.064713106 1.2530479 -0.07817790657 0.8031362295 0.5906440616
0.1162441 -0.10818696 1.3128333 -0.1303863525 0.8004390597 0.5850612521
0.16802543 -0.30677372 1.452 0.130665347 -0.3830073476 0.914457202
0.48001707 -0.34998989 1.2360001 0.2100268155 -0.2269307524 0.9509948492
0.43306825 -0.35429189 1.2640001 0.7432804108 -0.2175720483 0.6326109767
0.42109981 -0.11612502 1.3380001 0.2107663602 0.52240026 0.8262417912
0.35353604 -0.30538613 1.354278 0.7108299732 -0.3457552493 0.6125145555
0.15894406 -0.1283326 1.3430001 -0.0120531721 0.7776978016 0.6285226941
-0.043079395 -0.20226805 1.4039999 0.4117016196 0.7738112211 0.4813708961
0.39997566 -0.41229984 1.2780001 0.7683996558 -0.0867247358 0.6340668797
0.28123817 0.30124721 1.268 0.4515150785 -0.3707778454 0.8115774393
0.11527728 -0.32809687 1.4450001 0.07550860196 -0.5839955807 0.8082373738
0.075534292 -0.016444283 1.1837368 0.01097507216 0.7960602641 0.6051178575
0.02443796 -0.038252473 1.212 -0.03081102297 0.8065670729 0.5903391242
-0.0056943879 -0.0077650752 1.181 -0.04610099643 0.6020341516 0.7971383929
0.05777777 -0.35600188 1.439 0.1961446404 -0.3115144372 0.9297773838
0.054487091 -0.084210217 1.2758571 -0.09600573778 0.7918608785 0.6031079888
0.23844822 -0.46481225 1.3590001 0.3618481457 -0.2311019748 0.9031377435
-0.16526219 0.043426558 1.376 0.2265053838 -0.4148016572 0.8812689185
-0.18139549 0.097578257 1.427 0.2405671477 -0.3699454367 0.8973671794
0.28712261 -0.46456519 1.3471253 0.5041701198 -0.248088792 0.8272027969
0.084352858 -0.20467973 1.4150001 -0.06038855389 0.6844742894 0.7265315652
0.29486805 -0.1082737 1.3138752 0.09852568805 0.7762491107 0.6226796508
0.49998668 -0.36974731 1.2590001 -0.4569998682 -0.37619102 0.8059971929
0.13497686 0.019138509 1.149 -0.01120214723 0.73839885 0.6742712259
0.30433944 -0.034614567 1.213588 0.07897758484 0.8258726001 0.5582983494
0.1645415 -0.36523074 1.4219 0.1880941838 -0.2607758939 0.9468983412
0.27344665 -0.26674658 1.4330001 0.3375946581 -0.004825399723 0.9412792325
0.38400155 -0.46446541 1.2849051 0.6384034157 -0.2690748572 0.7211378217
0.31130448 0.12373661 1.1610001 0.3480581045 -0.4284041226 0.8338617682
-0.0048479671 -0.18664804 1.3825002 -0.1401529014 0.7511499524 0.6450821161
0.28696105 -0.33924633 1.3870001 0.518920362 -0.3631225824 0.7738627791
-0.08093562 -0.16069826 1.3380001 -0.5741431117 0.4788732231 0.6641085148
0.31529722 -0.28563213 1.3953751 0.6022787094 -0.3903945684 0.6963135004
0.2359145 0.051667225 1.1120001 0.09988738596 0.7050199509 0.7021178007
0.2863467 0.25523147 1.2410001 0.4654274583 -0.4059394896 0.7865052223
0.42148161 -0.1908385 1.3355 0.3123933077 -0.3132282495 0.8968269229
-0.11557301 -0.034870591 1.2113334 0.1923879385 0.4697083533 0.8616036773
0.20775247 -0.28755981 1.4450001 0.3433924913 -0.4383036196 0.8306452632
0.25795227 -0.36530209 1.3870001 0.3360956609 -0.3210801482 0.8854079247
0.43672884 -0.25681815 1.2880001 0.5805037618 -0.2822380364 0.7637781501
0.35195711 -0.10926773 1.312 0.2213921994 0.7256215215 0.6515051126
0.16902703 0.081633009 1.0955 0.2700608969 0.4242533147 0.8643357158
0.20572139 -0.41497102 1.3972943 0.2402255386 -0.3629233837 0.9003212452
0.12504382 -0.025081823 1.2031112 -0.09271501005 0.7927492857 0.6024553776
0.46332496 -0.40605465 1.2233999 0.4278538525 -0.2080983073 0.8795658946
0.43908727 -0.29902399 1.268 0.616637826 -0.2203449905 0.7557816505
0.03494481 0.01153518 1.1610001 0.1145534143 0.6238566637 0.7730978727
-0.025207672 -0.13176738 1.307 -0.1832905114 0.7592648268 0.6244369149
0.04579426 -0.2532897 1.4756001 0.2601689398 0.6831974387 0.6823147535
0.42531806 -0.47503448 1.2328423 0.696560204 -0.1350597441 0.7046720982
0.44075468 0.19048388 1.5860001 -0.597138226 -0.6174494028 0.5120372176
0.39205965 -0.087587476 1.2863334 -0.1705085933 0.7749450803 0.6085942984
0.43342295 0.1452961 1.5275 -0.3372919858 -0.6319791675 0.6977366805
0.38313302 -0.35437107 1.3124169 0.6273971796 -0.04461025819 0.7774205804
0.25288588 -0.3024042 1.4210002 0.2382713854 -0.4171901941 0.8770285249
-0.13718042 -0.0052298172 1.3472859 0.3145099878 -0.3719810545 0.8733347058
0.26423016 -0.40376067 1.381 0.1952895075 -0.1584555507 0.9678604603
0.35540506 -0.23813336 1.3650001 0.7313001156 -0.1065779328 0.6736774445
0.19536172 -0.015147445 1.1951817 -0.003510172712 0.825943768 0.5637415648
0.14533673 -0.19724269 1.4210001 -0.06913377345 0.6286144853 0.774638176
-0.044642359 -0.015575596 1.1841998 0.1907683611 0.5152413249 0.8355439901
0.18475419 -0.093071222 1.2964444 -0.03901466727 0.7659354806 0.6417325735
0.26310006 0.40302691 1.3338333 0.5297160745 -0.3929710388 0.7516479492
0.26594025 0.36448342 1.2970001 0.6809538007 -0.26763919 0.6816679239
0.19507235 0.018097907 1.1470001 -0.01033944823 0.818836689 0.573933363
0.31289431 -0.35255823 1.3709999 0.59983778 -0.2690416873 0.7535324693
0.29465011 -0.075437643 1.2766666 0.1109119505 0.792481184 0.5997266769
0.023769064 -0.2214276 1.427 -0.09333947301 0.7618294358 0.6410176158
-0.057439197 -0.2082171 1.365 -0.611765027 0.3435958028 0.7125205398
0.13395351 -0.47352976 1.3933334 0.006830358878 -0.4073978066 0.9132252336
-0.055071104 -0.044989433 1.211 -0.007061999291 0.6804355979 0.7327738404
0.45375389 -0.21847411 1.2780001 0.594050467 -0.2402434796 0.7677155137
0.3715331 -0.27419853 1.3540001 0.6808054447 -0.2630847692 0.6835864186
0.10692791 0.061802369 1.1190001 0.1653918922 0.4104648829 0.8967519403
0.26354599 -0.10731908 1.322 0.07444923371 0.7650330663 0.6396731138
0.23763978 -0.42220265 1.376 0.3522673249 -0.3244688213 0.8778540492
-0.01551413 -0.083986096 1.256 -0.1931266338 0.760355711 0.6201300621
0.29126459 -0.41332287 1.365 0.4569532573 -0.2320315242 0.8586938381
0.14503485 -0.0080939131 1.1833999 -0.06855089217 0.795165062 0.6025058627
0.28555548 -0.49525821 1.3379998 0.424990207 -0.3839951456 0.8197140098
0.12427837 -0.07269951 1.268 -0.04310074449 0.7984142303 0.6005639434
-0.13005877 -0.094487131 1.268 0.2925361097 0.7967985272 0.5287104845
0.054524969 -0.032012943 1.2037778 -0.03808221221 0.8048629761 0.5922375917
0.31435868 -0.44573238 1.3379999 0.4927442372 -0.2668733299 0.8282401562
-0.14893164 0.1046214 1.404 0.124979414 -0.384950757 0.9144359231
0.31498533 -0.38504586 1.3578093 0.5241900682 -0.2827691734 0.8032847047
-0.19935925 0.23764944 1.506 0.6716682911 -0.2586403787 0.6942383647
0.25494081 0.014261546 1.1557692 0.05536631495 0.827904284 0.5581299067
0.17474586 -0.44561604 1.3962355 0.1698869765 -0.3884783983 0.9056615829
0.33466458 0.024287492 1.1330911 -0.003576397663 0.2034830451 0.9790719151
0.15473643 -0.15380639 1.3730003 -0.009199763648 0.7386572361 0.6740184426
0.042527098 -0.32346371 1.47 0.07945356518 -0.2482715845 0.9654265046
0.096449986 -0.15245321 1.365 -0.02942187712 0.7606056929 0.6485471129
0.25562209 -0.13716339 1.3546251 -0.004032315221 0.7450609207 0.6669842601
0.17732972 -0.33620715 1.427 0.3222927749 -0.4270953536 0.844817698
0.22662672 -0.33521673 1.4150002 0.3909273148 -0.4085975885 0.8247568607
-0.18229012 0.14065984 1.439 0.2810475528 -0.361082077 0.8891748786
0.27023864 0.07020434 1.097 -0.04585015401 0.6134078503 0.788434267
0.31359357 0.082139574 1.138 0.5075800419 -0.2926175594 0.810393393
0.36565241 -0.049526405 1.202 0.4242141843 0.7934977412 0.4363527
-0.075069524 -0.083200052 1.2442727 -0.02775290236 0.73070997 0.682123661
0.20648603 -0.13174424 1.3490001 0.03997178748 0.742498517 0.6686540246
0.045574214 -0.41523787 1.4362 0.5032161474 -0.2257264107 0.8341588974
-0.0045306133 -0.10986737 1.2920001 -0.2531395555 0.7350978255 0.6289288998
0.45382601 -0.36380824 1.2426841 0.5776833892 -0.2487516254 0.7774345875
0.35448551 -0.0073189 1.1556668 0.04610715434 0.7200561166 0.6923823953
0.34185791 -0.33473587 1.3540001 0.6833476424 -0.243415311 0.6883204579
0.29546615 0.044645447 1.1361817 -0.3436081409 0.02481481247 0.9387851954
-0.15835668 0.0067810169 1.3650001 0.4050242901 -0.4786064327 0.7790322304
0.13589443 0.03849794 1.126 0.1196055561 0.6317654848 0.7658765316
0.19493036 0.040364359 1.123 0.01725915447 0.762638092 0.6465951204
-0.094495788 -0.13560937 1.3026251 -0.1693760157 0.5147277117 0.8404564857
0.29756576 0.16349044 1.1864547 0.6239596009 -0.2792444825 0.7298609018
0.075241335 0.05254025 1.1373847 0.1760183722 0.3594612777 0.9164088368
0.25524014 -0.014318947 1.1948667 0.05926222354 0.8123669624 0.5801275373
0.47277522 -0.46221665 1.2046667 0.5037961602 -0.229659006 0.8327341676
0.16453359 0.054266836 1.1120001 0.1919802278 0.5900292993 0.7842251062
0.25393236 0.031039843 1.13 0.0478236787 0.7797697783 0.6242371202
0.21507879 -0.056902677 1.253 -0.03979932517 0.7958123684 0.6042339802
0.23957458 -0.079858199 1.2830001 -0.06522227079 0.7407001853 0.6686623096
0.34526202 -0.060029749 1.245 0.07647871226 0.7852374911 0.6144534945
0.084681332 -0.10642674 1.3053335 -0.04574828967 0.8085816503 0.586602807
-0.012562633 -0.23492125 1.4330001 -0.1773458272 0.6941860318 0.6976060271
0.11460932 -0.19537905 1.4125 -0.1158419847 0.7076983452 0.6969531775
0.39759374 -0.3047837 1.307 0.7193101645 -0.2116001695 0.6616783738
0.19541954 -0.46683559 1.3760003 0.1908218116 -0.3315985501 0.923920691
0.34143755 -0.4745591 1.3128334 0.5779429674 -0.2849985957 0.7646945119
0.268722 0.22955604 1.2410001 0.5099177957 -0.3162166178 0.7999942899
0.34046927 -0.24528432 1.3920001 0.6834385395 -0.1611690074 0.7119945884
0.23361346 -0.36408249 1.4039999 0.4031759501 -0.1818954051 0.8968629837
0.26449123 -0.068075798 1.273 0.08496784419 0.8030813932 0.5897802114
0.034822602 -0.0733933 1.257 -0.07326485217 0.7769286036 0.6253113151
0.36069977 -0.35367766 1.3350002 0.683822453 -0.1702001095 0.7095201015
0.067696199 -0.4677192 1.404 0.4879855812 -0.2009827346 0.8493974209
0.22981203 -0.17144707 1.3870001 0.01173015777 0.726293087 0.6872850657
0.089941613 -0.22675422 1.4450001 -0.09898583591 0.7400149703 0.6652665734
-0.18481535 0.19636631 1.4640001 0.07587582618 -0.5532123446 0.8295775652
0.35503599 -0.092428721 1.2880001 0.03950611129 0.7573041916 0.6518662572
0.34937289 -0.41633791 1.317 0.6769223213 -0.2963157594 0.6737753153
0.29542965 0.19589731 1.1950001 0.63743788 -0.2969331443 0.7109878063
-0.042385079 -0.15894406 1.3430001 -0.09524207562 0.7536625266 0.6503243446
0.3628085 -0.45444825 1.302 0.4952308536 -0.2124984562 0.8423721194
0.28480271 -0.1483846 1.3649999 0.04158642143 0.7046327591 0.7083524466
0.14471877 -0.49518797 1.3750525 0.04923262075 -0.476477325 0.8778072
0.094142608 -0.38582453 1.4210002 0.2706868052 -0.3334798813 0.9030613899
0.13485816 -0.35678613 1.427 -0.113253206 -0.4587257802 0.8813310266
-0.024226485 -0.056095567 1.2252222 -0.128125295 0.7194472551 0.6826269627
0.24096236 0.40714329 1.3540001 0.5461688042 -0.3627438247 0.7550606132
0.269113 0.20371103 1.223 0.5736514926 -0.3440597951 0.7433348894
0.41744474 -0.41765034 1.2558181 0.6959844828 -0.1888187677 0.6927864552
0.115179 -0.4349865 1.3977003 0.1777629554 -0.2440649867 0.9533271194
0.11468192 -0.1263876 1.3348751 -0.141730845 0.7803006768 0.609133184
0.38433385 -0.49551561 1.2755001 0.5798293352 -0.1948667914 0.7910909057
0.055527773 -0.18117456 1.3870001 -0.168684572 0.7223005295 0.6706917882
0.013735905 -0.14874022 1.3430001 -0.1529272646 0.7247622013 0.6718132496
0.3877295 -0.39512023 1.2970001 0.6021444201 -0.246556133 0.7593629956
0.34466672 -0.3948237 1.3349048 0.5991219282 -0.2215340585 0.7693994641
0.2153637 0.080999613 1.087 0.1232044548 0.5414671898 0.8316453099
0.025276769 -0.11411163 1.305182 -0.1260704547 0.7708636522 0.6244000793
0.47134858 -0.30881459 1.2360001 0.4648829997 -0.3272462785 0.8226746917
0.20463768 0.0020566597 1.1730002 -0.02567798831 0.7953063846 0.605663538
0.25544664 0.30474338 1.278 0.4849179685 -0.3877589107 0.7838989496
0.1339837 -0.41185635 1.411875 0.04626874626 -0.2626930773 0.9637694359
0.084029652 -0.42510971 1.4128948 0.2962799072 -0.3236346245 0.8985982537
-0.054948412 -0.12556514 1.295 -0.1252796352 0.7604494095 0.637198329
0.22615358 -0.30705184 1.427 0.4270383716 -0.4306234419 0.7951111197
-0.13435997 -0.076261528 1.2426667 0.09479700774 0.6737846732 0.7328217626
0.40082866 -0.22670776 1.3330001 0.6756195426 -0.1441994458 0.7230108976
-0.12510566 -0.14300691 1.3032501 0.3648955226 0.2954369783 0.8829316497
0.091523997 -0.48446703 1.3920001 0.4515092969 -0.3453298509 0.8227311969
0.24908321 0.34444407 1.3053335 0.6948972344 -0.2755568624 0.6642184854
-0.063263997 -0.17465436 1.3552501 -0.4614411294 0.4952043295 0.7361010313
0.023102796 -0.19090205 1.3870001 -0.1260339767 0.7664250731 0.6298475862
0.26227412 -0.18016025 1.3980001 -0.006061734632 0.7447654009 0.6672988534
0.12119391 -0.08947961 1.2920001 -0.1136066914 0.790584445 0.6017223001
0.33685914 -0.29432899 1.3754548 0.6150057316 -0.2089561075 0.760332346
0.3255887 -0.11430245 1.3170002 0.06141621992 0.7410620451 0.6686217785
-0.055031475 -0.096671782 1.2652308 -0.1360905319 0.7498535514 0.6474557519
-0.11450997 -0.062877797 1.2270001 0.0752440393 0.6146155596 0.7852299213
0.20773581 -0.38789606 1.3980001 0.2000418603 -0.2654544115 0.9431421757
0.44289812 -0.1741209 1.3330001 0.3785088658 -0.1262118518 0.9169523716
0.10491137 0.013981853 1.1539412 -0.07184719294 0.6982662082 0.7122234702
-0.031012082 -0.22700845 1.4150001 0.3336509168 0.8838248253 0.3279188573
0.34734148 -0.030431731 1.197 0.49989447 0.8388783336 0.2153802514
0.36680347 -0.059161849 1.2270001 0.4531393349 0.8612071276 0.2301890552
0.42369559 -0.38378733 1.2645334 0.7004848719 -0.1781501025 0.6910741329
-0.14039466 -0.1084349 1.302 0.6584114432 0.4627270401 0.5936143994
0.29557806 -0.31628525 1.396909 0.6420258284 -0.3482898176 0.6830058694
0.077763841 -0.048602398 1.2320001 -0.0315439105 0.834903121 0.54949224
0.45533499 -0.27521008 1.2669564 0.483255744 -0.2631063461 0.8350083232
0.1011086 -0.021889489 1.189 -0.1582099497 0.7801579833 0.6052463651
0.30467469 0.0030545993 1.1623333 0.1097012609 0.8167133927 0.5665199161
0.14493282 -0.038649775 1.2246001 -0.1217430606 0.806692481 0.5782955885
0.38728154 -0.32884556 1.307 0.6265569329 -0.2566489875 0.7359060049
-0.1784718 0.10954476 1.404 0.2414646745 -0.322948426 0.9150951505
0.092475183 -0.3407647 1.4450001 0.2940754294 -0.4380175173 0.8495059013
-0.10490369 -0.10825168 1.273 0.1194161773 0.7565484643 0.6429418325
0.075492181 -0.37495294 1.43525 0.3871566653 -0.3511264324 0.8525373936
0.0047544329 -0.026518293 1.195154 -0.05467938259 0.7174214125 0.6944901943
0.41110757 -0.47205344 1.2640001 0.6855288148 -0.1571828574 0.7108753324
0.43167296 -0.32258159 1.275 0.7145500779 -0.1952578723 0.6717831492
-0.1459154 0.057355043 1.3920001 0.2341114134 -0.4393958747 0.8672503233
0.34147131 0.049357209 1.149 -0.1796927005 0.04055384919 0.9828865528
0.28852195 -0.25756687 1.4125001 0.4714708328 -0.1744900197 0.864446938
0.40308022 -0.27470899 1.314353 0.732270658 -0.2949636281 0.6138209105
0.11501429 -0.16759224 1.3809999 -0.1305223107 0.7184888124 0.6831821203
0.05458039 -0.0029275659 1.1684285 0.08448482305 0.6891530156 0.719673872
0.022806482 -0.43539649 2.365 0.7193872929 0.6772602797 0.1542737037
-0.18504503 0.24442604 1.4864286 0.6716682911 -0.2586403787 0.6942383647
0.28658271 0.1161404 1.1686363 0.4407707453 -0.3716427684 0.8170696497
0.2451721 -0.039961971 1.2320001 -0.02813553624 0.8355733156 0.5486580133
0.044337418 -0.32556331 1.4450001 0.5370107889 -0.2287878692 0.8119578362
0.43280596 -0.49692535 1.2190001 0.6815139055 -0.1593155861 0.7142529488
0.17447816 -0.16571434 1.3828466 -0.02714253217 0.7167586088 0.6967929602
0.17517918 -0.4944478 1.3738182 0.1703505218 -0.4136767387 0.8943445683
0.17508084 -0.066486396 1.2640001 -0.05196070671 0.7792825699 0.6245148182
0.26795095 -0.051843874 1.245 0.1044620275 0.8069298863 0.5813363194
0.054966997 -0.21279125 1.4250001 -0.0840844959 0.7179542184 0.6909931302
-0.037694037 -0.22738016 1.3870001 -0.6870578527 0.4742671549 0.5504745245
0.1562027 0.0091287298 1.1570001 -0.01653222181 0.797011137 0.6037382483
0.28454769 -0.023130132 1.2041819 0.1466334164 0.8102177382 0.5674908161
0.17395872 -0.18339515 1.4040002 -0.02398405597 0.7635620832 0.645288825
0.26206633 -0.46071026 1.365 0.06828719378 -0.3093239665 0.9485017061
-0.074739054 -0.0056625847 1.1858888 0.1751765162 0.410184443 0.8950206041
0.32494757 -0.4948585 1.3151579 0.550802052 -0.3419629335 0.7613661885
0.28372332 0.27509099 1.2555385 0.4258098602 -0.4424557984 0.7892520428
0.037090886 -0.29346502 1.4844999 0.3668875992 -0.2650301754 0.8917132616
0.078148991 0.028266655 1.138 0.1408593655 0.452198267 0.8807243705
0.20437612 -0.19448094 1.4113636 0.1296261847 0.7053340077 0.6969224811
0.36953691 -0.11711477 1.2970001 -0.07574983686 0.7350251079 0.6737952828
0.10692528 -0.048602398 1.2320001 -0.08368360996 0.8147484064 0.5737438798
0.20581502 -0.15859865 1.381 0.07322313637 0.7329894304 0.6762875319
0.32496783 -0.047454942 1.2333335 0.04894598946 0.8210251927 0.5687898993
0.18527581 -0.036388971 1.2247778 -0.005990441889 0.7991245985 0.6011355519
0.055400949 0.019138509 1.149 0.09454336762 0.5916628242 0.800622642
-0.0053299144 -0.044767641 1.21575 -0.1454911083 0.7685521245 0.6230248213
0.31208631 0.023006363 1.141 0.236371994 0.485771507 0.8415190578
0.30347803 -0.43167475 1.3540001 0.5597673655 -0.2694888115 0.7836046815
0.064923741 -0.14263861 1.3465003 -0.1261136979 0.753836751 0.6448453069
-0.055587679 -0.063421696 1.226143 -0.05359224603 0.6925074458 0.7194173336
0.064216934 -0.072484329 1.2575001 -0.06253935397 0.789327085 0.6107794642
0.27517572 0.0047553312 1.1640002 0.09280569851 0.8192101717 0.5659344792
0.22523756 -0.012992199 1.1950001 -0.03903605044 0.8106247187 0.5842634439
0.14720023 -0.31593576 1.4450001 0.06020872295 -0.1650642455 0.9844433665
0.28524137 -0.16566876 1.3834002 0.01831082441 0.7413423061 0.6708772779
0.035272975 -0.15364285 1.3562224 -0.1544100493 0.7624098063 0.6284018159
0.27871776 0.15700924 1.202 0.5991047621 -0.2766068578 0.7513734698
0.33397055 -0.021447649 1.1650001 0.3485888243 0.8086076379 0.4739615619
0.39424312 -0.43447429 1.2840873 0.6367328167 -0.1175756007 0.7620677948
0.40599409 -0.13363075 1.3430003 0.1064218506 0.1804135144 0.9778166413
-0.015822483 -0.14331006 1.3256924 -0.268250972 0.7535814643 0.60013026
0.46465093 -0.43560538 1.2153335 0.4240444601 -0.1536186635 0.8925175667
0.055187915 -0.34235764 1.464 0.2748121321 -0.4417415559 0.8540156484
0.46468949 -0.37756017 1.2270001 0.3052457869 -0.2989599407 0.9041283131
0.034782752 -0.095176935 1.2858572 -0.1318603605 0.772701025 0.6209234595
-0.20201206 0.26580533 1.516 0.9883851409 0.03225670755 0.1485068947
0.22417265 0.011959269 1.1610001 0.0147573119 0.826581955 0.5626229048
0.043279279 -0.23803604 1.452 -0.05520554632 0.8306668997 0.5540260077
-0.0047865999 -0.17112094 1.365 -0.19849585 0.7333368063 0.6502434611
0.44990444 -0.45845371 1.2190001 0.4919156432 -0.168017447 0.8542769551
0.10850357 -0.43470538 2.365 0.667177856 0.7320689559 0.1376544684
0.025233779 -0.054434184 1.2335557 -0.08197807521 0.796012938 0.5997024179
-0.094216906 -0.17597178 1.3227501 -0.5803064108 0.5299226046 0.6184063554
0.18561575 -0.37496874 1.4210001 0.2728993595 -0.3761280775 0.8854680061
0.14496508 -0.11407064 1.325 0.01229180489 0.8072986603 0.5900151134
0.43169713 -0.23469517 1.3031112 0.6600465178 -0.1605339497 0.7338715196
0.19176558 0.081777222 1.0910001 0.1220344901 0.4325149357 0.893329978
0.41891342 -0.30825704 1.2880001 0.6425769925 -0.2649364769 0.7189599872
-0.014145163 0.023345193 1.1663333 0.1504228562 0.3940263987 0.906706214
0.44405553 -0.41444364 1.2332176 0.637180686 -0.2312841266 0.7351927757
-0.012843824 -0.097746134 1.2742499 -0.2370412797 0.7416763306 0.6274772286
0.44256589 0.12758657 1.516 -0.4423333704 -0.6100217104 0.6574303508
0.2251727 -0.48489574 1.3589997 0.2841231823 -0.4339635372 0.8549559116
0.017421996 -0.0010248233 1.169 0.08566419035 0.6422204375 0.761718154
0.16491151 -0.044206657 1.2344617 -0.05150362849 0.8032997251 0.5933437943
0.0054998663 -0.074803881 1.2547224 -0.1976704746 0.7629852891 0.6154509187
0.14546505 -0.08850877 1.2919999 -0.02398290858 0.8037085533 0.5945396423
0.42538735 -0.45486873 1.2435602 0.7424200177 -0.1539154202 0.6520141959
-0.18139549 0.12134732 1.427 0.3073377907 -0.5609332323 0.7686985135
0.077483311 -0.16828406 1.381 -0.1214680597 0.7171958089 0.6862038374
0.16388144 -0.21141957 1.427 -0.03461530432 0.62916255 0.7765026093
0.20481691 -0.044521142 1.234286 0.003790794406 0.7884299159 0.6151129603
0.18484604 -0.1283326 1.3430001 -0.01182630192 0.7793075442 0.6265300512
0.18514961 -0.42383364 1.3936366 0.1787498742 -0.3241807222 0.928953886
-0.014679343 -0.20430936 1.3955001 -0.09625967592 0.7645046711 0.637390554
0.15483968 -0.41577777 1.4039999 0.2225405276 -0.1598730236 0.9617257118
0.32510167 -0.26525271 1.3952003 0.7092293501 -0.2569340169 0.6564896703
-0.034684263 -0.19332063 1.3834001 -0.1744531542 0.7664891481 0.6181104183
0.20410918 -0.34367174 1.4214002 0.289971143 -0.3182500005 0.9025706053
0.38046017 -0.038567197 1.189 0.1858747751 0.8129729033 0.551838398
0.32669333 -0.03066054 1.2060001 -0.01755235717 0.8421953321 0.5388867855
0.014770079 -0.2030886 1.404 -0.1030139402 0.7839549184 0.6122114062
0.31435165 -0.12714677 1.3346667 0.1345842928 0.7685208917 0.6255099177
0.40657443 -0.10526375 1.3247273 -0.2834267914 0.6333625913 0.7200840712
0.16654649 -0.012056044 1.1884286 -0.04584542662 0.797467649 0.6016173959
0.3683157 -0.29793692 1.3380001 0.6779322624 -0.2888186574 0.6760115623
0.027563114 0.035987724 1.149 0.2277683765 0.392642796 0.891040504
0.39838701 -0.35525656 1.2946923 0.6968972683 -0.1595236063 0.6992041469
0.0577548 -0.30674216 1.4640001 0.1474303752 -0.4265545607 0.892365098
0.17434007 -0.11199329 1.317 -0.04566509649 0.8033596277 0.5937407017
0.33588991 -0.083132207 1.278 0.1068867594 0.7800285816 0.6165473461
0.067219295 -0.11937219 1.322 -0.1226003543 0.7752822042 0.619601965
0.27508017 -0.31473401 1.4134377 0.2298746854 -0.2844617367 0.9307196736
0.26873341 -0.35243049 1.4039999 0.2244057506 -0.4534733593 0.8625566363
0.30539694 0.1030773 1.1552221 0.5260590315 -0.3984467089 0.7513335347
0.11259574 -0.46716285 1.3870001 0.1035515592 -0.4349525571 0.894479394
0.29562953 -0.093919232 1.2970001 0.08377377689 0.7361696959 0.6715922356
0.3047314 0.14463979 1.1756668 0.4890561402 -0.4186894894 0.7651948929
0.42185777 0.10436384 1.4770001 -0.4423333704 -0.6100217104 0.6574303508
0.28471708 -0.037425537 1.2243334 0.1319798678 0.803037703 0.5811296701
0.076923996 -0.02845134 1.202 0.002330587944 0.8101108074 0.5862721801
0.29709885 0.065382898 1.1430001 0.5222849846 -0.2657950521 0.8102909327
0.33430049 -0.31558922 1.3649999 0.6019542813 -0.3734130859 0.7058425546
0.38626105 -0.37504756 1.3054999 0.7069687843 -0.2429220527 0.664216876
0.15443005 -0.063289434 1.2576668 -0.0990196541 0.7701149583 0.6301730275
0.27419853 -0.48073769 1.3540001 0.3334839642 -0.3606112301 0.8710613847
0.48511004 -0.40573826 1.2179583 0.1929843128 -0.3234272003 0.9263648987
0.2555522 0.053428046 1.1028 0.03052731603 0.6530336738 0.7567133307
0.20546332 -0.088120431 1.2919999 -0.03036708198 0.758699894 0.6507321
0.24489407 -0.44228002 1.3718753 0.1864295602 -0.457000345 0.8697095513
0.36803478 -0.40589568 1.3042223 0.6012234092 -0.2407933623 0.7619376183
0.14692569 -0.45415244 1.3870001 0.1152580082 -0.2649293244 0.9573547244
0.21537119 0.045693967 1.1152257 -0.01206788048 0.7222049236 0.6915738583
0.30564019 -0.49534658 1.3248888 0.5102758408 -0.3211746514 0.7977878451
0.42232543 -0.26480946 1.302 0.6613354683 -0.265727222 0.7014445662
0.41700545 -0.35784939 1.2780001 0.6809565425 -0.237508893 0.6927393079
0.23440644 -0.026283568 1.2112501 0.004670904949 0.7889433503 0.6144481897
0.26479062 -0.28477705 1.4247501 0.1626496762 -0.3719263077 0.9139014482
0.045104496 -0.047254089 1.225 -0.03564933315 0.8108819127 0.5841229558
0.35241535 -0.37478563 1.3330001 0.7071964145 -0.2401013374 0.6649996638
0.3038334 -0.27416697 1.41 0.461487174 -0.317238301 0.8284862638
0.44012523 0.17687276 1.5640001 -0.5303534269 -0.6479597688 0.5466931462
0.13505171 0.005100131 1.1653204 -0.0470527783 0.7793322802 0.6248417497
0.10559136 -0.14140795 1.3490001 -0.1070095897 0.7440319657 0.6595190167
0.43435711 -0.28337416 1.2830002 0.6489780545 -0.2481826842 0.7191890478
0.30434623 -0.019522781 1.193 0.1009269655 0.8004287481 0.5908702016
0.24587044 -0.094710439 1.3036667 -0.1237307042 0.7683938146 0.627902627
0.073832355 -0.44452471 1.4105883 0.4388763905 -0.1798231006 0.8803699017
