# .PCD v0.7 - Point Cloud Data file format
VERSION 0.7
FIELDS x y z normal_x normal_y normal_z
SIZE 4 4 4 4 4 4
TYPE F F F F F F
COUNT 1 1 1 1 1 1
WIDTH 512
HEIGHT 1
VIEWPOINT 0 0 0 1 0 0 0
POINTS 512
DATA ascii
-0.0044604801 0.41779828 1.6960001 0.05980575457 -0.6275011301 -0.7763153911
-0.41593975 -0.39501196 2.9840002 0.7069829106 0.5819932818 0.4018196464
0.4886426 -0.49971664 1.5790001 0.7933805585 -0.3287996352 0.5122870803
0.49772751 0.15728189 2.2710001 -0.01278361119 -0.7764909863 -0.6299986839
-0.32540411 0.055655885 2.3170002 -0.2778956294 0.8191806674 0.5017141104
-0.18716395 -0.28292224 1.6550001 0.2249480784 0.6784574986 0.6993523836
0.26685295 0.0059832502 1.365 0.04570519552 0.2766218483 0.9598913193
0.23514107 -0.095437214 1.8529999 0.5221517682 -0.2343397141 0.8200258613
0.38297796 0.40358666 1.9590001 0.1772695929 -0.9654359818 -0.1910730451
0.14295277 -0.49871024 1.853 0.7492344379 0.2044448256 0.6299603581
-0.08543174 0.074360035 1.5360001 0.1919838935 0.5719140768 0.7975314856
-0.31247908 -0.18090893 2.6800001 -0.3697921932 0.7935672998 0.4832232296
-0.28197283 0.31236508 1.9260001 -0.5611363053 -0.8188386559 -0.1209518537
0.47600895 -0.16291973 1.6160001 0.2938523591 0.09084262699 0.9515242577
0.35597312 0.11279807 1.6710001 -0.3852003515 -0.6259968877 0.6780475974
0.022576796 -0.25181812 1.9810001 0.7683209181 -0.1563394368 0.6206778288
-0.026319286 -0.082054242 1.7660002 -0.3452380002 0.7309975028 0.5886029005
-0.10638613 0.25196716 2.1290002 0.002884235699 -0.9999432564 0.01025504526
0.163323 0.2776491 1.863 -0.248717472 -0.3849523067 -0.888792038
0.28488353 -0.34467915 1.682182 0.5179204941 -0.150905773 0.8420129418
0.13015869 0.2126355 1.47 -0.1920361221 -0.7432340384 0.6408785582
-0.25167152 -0.045998178 1.6710001 0.5035638213 0.536185503 0.6774426699
0.12404862 0.046458364 1.6390001 -0.1621420681 0.8183732629 0.5513393879
-0.065040074 0.2281355 1.8830001 -0.1355691552 -0.1137388423 0.9842177033
-0.049026705 -0.38114309 1.8040001 -0.1247343048 0.8683487177 0.4800124168
-0.24728662 -0.26768139 2.9080002 -0.3406206667 0.8037109375 0.4878793359
0.22902916 0.30964744 2.0900002 0.5626710057 -0.7907447219 -0.241089493
0.18031543 -0.29077893 1.853 0.6601626277 -0.09434563667 0.7451739311
0.39363036 -0.072510853 1.4770001 -0.4390357137 0.5781683922 0.6877273917
0.37287614 -0.49515533 1.7220001 0.8128296137 -0.1750172675 0.5555870533
0.29890475 0.37639856 1.8040001 0.01705805585 0.1967754513 -0.9803001881
0.34265375 -0.17390664 1.7310002 0.6236025095 -0.001828713925 0.7817394137
0.46524411 -0.33517864 1.6320001 -0.01101918425 0.6183992028 0.7857868671
0.32384416 0.23464158 2.2120001 -0.003925906029 -0.7883165479 -0.6152573824
0.25210655 -0.0045288601 1.7220001 -0.07608162612 0.7451924682 0.6624950767
0.07593511 -0.13701336 1.8830001 -0.3298340142 0.6611771584 0.673835516
0.41287374 -0.036421407 1.684 0.8017952442 0.4951456487 0.3345971107
0.47750279 0.3093932 2.0400002 -0.05727510154 -0.8368395567 -0.5444438457
0.2188949 -0.47402066 1.7220001 0.391775012 0.1174575835 0.9125327468
0.040173251 0.46118891 1.8330001 -0.9366909862 -0.1529550999 0.3149837255
0.26070926 0.098277837 1.557 -0.6772499681 0.06359367073 0.7329995632
-0.10508541 -0.012228874 1.655 -0.3622318506 0.8375890851 0.4089407921
0.037556402 0.3067106 1.7850001 -0.1707174927 -0.8376315832 -0.5188726783
0.1161145 -0.041801218 1.7660002 0.01216673106 0.7225590348 0.6912021637
-0.16410848 -0.13159643 1.766 -0.2174642086 0.7856767178 0.5791557431
0.055063833 0.10392301 1.5251819 -0.1385616213 0.8559536934 0.4981405139
0.067681298 -0.37142175 1.8830001 0.6251043081 0.1069977805 0.7731727362
0.25401828 0.35585189 1.9360002 -0.5391742587 0.7034792304 -0.4630421996
-0.05063013 -0.18782145 1.863 -0.3258351088 0.7598701119 0.5625201464
-0.047458351 0.27947694 2.0050001 0.07842784375 -0.9817938209 0.1730029583
0.49163291 -0.43477058 1.7220001 0.7040762901 -0.6038059592 0.3737577796
-0.063190132 -0.30554289 1.6960001 -0.2280374616 0.8396605849 0.492918849
0.36874002 -0.24487755 1.6240001 0.7282811999 -0.02051044442 0.6849713922
-0.19602823 0.061288059 1.6010002 0.6790375113 -0.007856009528 0.7340615392
-0.38164192 -0.32351106 2.8830001 -0.3697921932 0.7935672998 0.4832232296
-0.1959876 0.24661772 1.863 -0.1842438728 0.5127844214 0.838514328
0.015129671 0.0041506183 1.6800002 -0.1727284342 0.7733473182 0.6099990606
0.20901924 0.077273786 1.4450001 0.6821064949 -0.5521840453 0.4793991148
0.14866075 -0.39903674 1.7850001 0.7251135111 -0.1318460256 0.6758897901
0.27322283 -0.25444463 1.7850001 0.7995250225 -0.3747627735 0.4693747163
0.27876949 -0.070010602 1.452 0.04463313147 0.7979557514 0.6010611057
-0.37124553 -0.12982206 2.598 -0.3697921932 0.7935672998 0.4832232296
0.077585876 -0.25916985 1.8830001 0.5301721096 -0.3155214787 0.7869966626
0.32392395 -0.078764111 1.7850002 0.5033451319 -0.549826026 0.6665846109
-0.032787334 0.16393666 1.4960002 0.4782140851 -0.5642895103 0.6729699969
0.3823415 -0.39992043 1.6710001 -0.299908638 0.7565427423 0.5811178088
0.1747556 -0.18455498 1.863 0.6539601088 -0.396034658 0.6445872784
0.15736371 0.097845055 1.5430001 0.1791318655 0.8871085644 0.4253823757
-0.0023290112 0.052635651 1.5940002 -0.4254499078 0.8285052776 0.3641034663
0.43740931 0.1869106 2.1980002 -0.01278361119 -0.7764909863 -0.6299986839
0.31484169 0.0261159 1.6550001 -0.2384854704 0.733330667 0.6366716623
0.22091211 0.047647711 1.6470001 0.09675520658 0.9064803123 0.4110132158
0.21410218 -0.33424583 1.7570002 0.8279151917 -0.4068921506 0.3859989941
0.26445964 -0.15492013 1.7850001 0.532925427 -0.1923660785 0.8240059018
0.39609119 -0.12477597 1.6550001 0.6601772904 0.1433570236 0.7373023033
0.44757429 -0.49422696 1.6630001 0.648000598 -0.6592989564 0.3813399076
0.30479944 -0.25424737 1.6960001 0.5993530154 -0.3271707892 0.730571866
0.25091165 0.29885653 1.8230001 -0.02348563448 -0.02225058153 -0.999476552
-0.27467719 -0.3139168 2.9840002 -0.3406206667 0.8037109375 0.4878793359
0.42647749 -0.11767255 1.5517501 -0.2567897141 0.7408628464 0.6206297874
-0.16573909 -0.081389733 1.6880001 -0.3166358471 0.6792935133 0.6620438695
0.143797 -0.08724761 1.8430001 -0.18586348 0.8284462094 0.528329134
0.30182582 -0.43564022 1.6960001 0.1233908311 0.3297431767 0.9359722733
0.042914588 0.49425763 1.6880001 0.05911550298 0.1091402322 -0.9922670126
0.19771433 0.15600254 1.4870001 -0.6990820169 0.2123957276 0.6827681661
0.016332299 0.26784971 1.863 0.202122733 -0.9786300063 0.03781179339
0.16519028 0.01351557 1.7129999 -0.08558771014 0.7535463572 0.6517995
0.49073696 -0.42349312 1.6320001 0.9104979634 -0.1093129367 0.3988033235
0.047487281 0.18096504 1.4640001 0.2302277833 -0.3625282049 0.9030882716
0.20499535 -0.04225095 1.7850002 -0.08837774396 0.8408224583 0.5340477228
0.49722955 -0.25448757 1.6240003 0.2748611867 0.0275189653 0.9610900283
0.046092499 -0.093377054 1.813 -0.1618729681 0.7168297172 0.6781978607
0.018466983 -0.19306391 1.9150001 -0.2573263049 0.9010484815 0.349134326
-0.083879471 -0.14416783 1.794 -0.1664584726 0.7556563616 0.6334627271
0.41189304 0.052529868 1.6799999 -0.6348955035 -0.6180941463 0.4635377824
0.028852854 -0.32077584 1.9360001 0.8984218836 -0.1271170229 0.420332402
-0.18538043 -0.016146697 1.6320001 0.05467322469 0.6600160003 0.7492594719
-0.093596444 -0.058875181 1.7220001 -0.3356587589 0.6212884188 0.7080493569
0.37850609 0.0015324133 1.748 0.3018624187 0.8420647383 0.4469967484
0.38440078 -0.32460517 1.6240004 0.4490448236 0.1032648981 0.887521863
-0.1672143 -0.20493728 1.655 -0.04431606084 -0.1528185755 0.9872601032
0.025430346 -0.35284606 1.8130001 -0.493232429 0.4587379992 0.7391083837
0.3423734 -0.038454983 1.4150001 -0.2185171694 0.5878192782 0.7789214849
0.35359153 0.40665731 1.853 0.02555985376 0.8580778241 -0.5128831863
0.11478512 0.13513596 1.4755999 -0.06507215649 0.7369635105 0.6727930307
-0.027093383 -0.31350917 1.766 -0.9566166401 0.006429950707 0.2912785709
0.095044695 -0.19178662 1.9360001 0.3070896566 -0.243173942 0.9200882316
-0.12513541 0.029198259 1.5860001 -0.03981173411 0.7305849195 0.6816602349
0.17056865 -0.47414955 1.7850002 0.927005589 0.2521207333 0.2776612341
0.11533689 -0.42398494 1.853 0.4740996957 0.08133307099 0.8767066002
0.035064038 -0.041162129 1.739 -0.2603268921 0.6360941529 0.726370573
-0.14257844 0.11212479 1.5790001 0.6089314222 -0.341116488 0.7161299586
0.23727334 -0.39645672 1.7130001 0.4721876383 -0.1589421928 0.8670502901
-0.13455781 -0.33230576 1.6960001 -0.0932777971 0.6442729235 0.7590860724
0.29613099 0.10535429 1.6240001 -0.6434256434 -0.2344362587 0.7287270427
0.36079916 -0.10114454 1.7220001 0.8425150514 0.03114263155 0.537771821
0.033385217 0.36268488 1.7310001 -0.3053809702 -0.7421890497 -0.5965718031
0.47527432 -0.072894834 1.6630001 0.1938384473 0.2521081567 0.9480865598
0.08669357 0.0014947166 1.705 -0.128855899 0.82824862 0.5453442335
0.44157788 -0.27685133 1.5790001 0.02878032997 0.04336503893 0.99864465
-0.014383469 -0.13584389 1.8230002 -0.6450145841 0.4607539177 0.6096408963
0.13483045 -0.35250854 1.853 0.2450447381 -0.2184899896 0.9445714355
-0.11520012 -0.26725271 1.6550001 -0.3693152964 0.4017964303 0.8379533887
-0.01594832 0.089044787 1.516 -0.2176932693 0.7120672464 0.6675102115
0.075180486 0.076298401 1.594 -0.164257884 0.8022305965 0.5739733577
0.21785867 -0.030771 1.404 0.05561828986 0.6963059902 0.7155869007
-0.090412386 -0.3570523 1.748 -0.4815243781 0.6440340877 0.5944361687
0.21456856 -0.22410494 1.813 0.381242007 -0.03678577021 0.9237431288
-0.17622752 0.26155877 2.1160002 -0.2395863235 -0.9708284736 -0.009512306191
0.16858651 -0.12685716 1.904 -0.05889221653 0.5485967398 0.8340103626
0.45603344 -0.38438523 1.6871111 -0.0159880165 0.5756328106 0.8175519705
0.30385056 -0.49525842 1.7367145 -0.2678366601 0.7873086333 0.5553455353
-0.12643375 0.26107746 1.8730001 0.1353740841 -0.2578900158 0.9566434026
-0.09021952 0.14408192 1.5359999 0.6659542322 -0.3394925594 0.6642663479
0.35718468 -0.18806867 1.6630001 0.6866287589 -0.7197673917 0.1023519337
-0.045210358 0.017940763 1.6372501 -0.2371402979 0.8859518766 0.3985645771
0.4313831 -0.21497969 1.6240001 -0.7277047038 -0.4189850986 0.5430445075
0.42101184 -0.4454256 1.705 0.1854268014 -0.203425765 0.9613713622
0.27043763 -0.039537668 1.8040001 0.2421093732 0.7761451006 0.5822214484
0.081953429 0.29085433 1.8330001 0.4482244253 -0.7619339228 -0.4674949646
0.20577821 0.073690847 1.5860001 0.2235021293 0.9362214208 0.2711756825
-0.24400072 0.29194701 1.8730001 0.2741881609 -0.2503498495 0.9285180569
-0.033631124 -0.033631124 1.705 -0.1341984421 0.7813405991 0.6095060706
0.22148983 0.15083049 1.5500001 -0.8665991426 0.3711289763 0.3335703313
0.28421971 0.3337017 2.0650001 0.3155862689 -0.9090480804 -0.27209723
0.33515406 -0.29452932 1.6550001 0.7519358397 0.01085013896 0.6591470242
0.23046252 -0.30039597 1.8130001 0.5906241536 -0.531068325 0.607560277
0.26161134 -0.2935527 1.7350001 0.8342496753 -0.348664701 0.4271538556
0.13628572 -0.23480552 1.8730003 0.4470499158 -0.3140438497 0.8375695944
0.05415846 0.035076689 1.6380001 -0.1687516272 0.6795409322 0.713965714
-0.2266876 0.03032127 1.6470001 0.7992551923 -0.1382059902 0.5848847628
0.33147818 -0.093228236 1.4770001 -0.197630614 0.7166293263 0.6688680649
0.18278061 -0.35125667 1.8130001 0.7089340091 -0.6969450116 0.1080747098
0.24143925 0.051474359 1.3980001 -0.01782980002 -0.1452667266 0.9892318845
0.30678916 -0.12473844 1.7479999 0.4440444708 -0.3773385882 0.8126746416
-0.01051211 0.47755015 1.7130001 -0.8043147922 0.3522177041 -0.4785607457
0.1946165 -0.42447853 1.748 0.514269352 -0.1659817547 0.8414137363
0.2965084 -0.20409019 1.7570001 0.728379488 0.179266423 0.6613069773
0.24143399 0.27720201 2.0400002 0.5069543719 -0.8586716652 -0.07536748797
0.33805582 -0.35546646 1.6550001 0.5999218822 0.1472212672 0.7863965631
-0.10777973 -0.11288778 1.748 -0.3019269407 0.6946522593 0.6529152989
0.2173502 -0.16461082 1.8230001 0.6579496264 -0.2693559825 0.7032422423
-0.30460924 0.087600045 2.2710001 -0.3850371242 0.8297880292 0.4039780796
0.089011036 -0.31603 1.863 0.6609839201 -0.02491616085 0.7499862909
-0.27202412 0.34427199 1.8730001 0.181099087 0.1524517536 0.9715768695
-0.2237674 -0.091439836 1.6960001 0.1415503025 0.7278395891 0.6709791422
0.22701897 0.33481213 1.863 -0.5706637502 0.6751254797 -0.4674916565
0.36455041 0.37228438 2.0050001 0.1402981579 -0.9189903736 -0.3684740961
-0.066043682 0.036845423 1.5860001 -0.1956853271 0.8734725714 0.4458170831
0.3627857 0.025276054 1.6960001 -0.3097375929 0.8678237796 0.3885158002
0.39898944 0.0062567703 1.647 0.7565959096 0.5871426463 0.2877953053
0.36208788 0.064658552 1.6390001 -0.3372375667 -0.1095089614 0.9350286722
0.28555489 -0.0369252 1.4040002 -0.07806571573 0.7584031224 0.6470938325
0.36022672 -0.44094142 1.705 -0.2263779342 0.750628531 0.6207332611
0.44256589 -0.075754516 1.516 -0.545152247 0.3705946505 0.75197649
0.022048604 -0.15434024 1.863 -0.4053734243 0.6269286871 0.6653065085
0.015628446 0.13544574 1.485625 0.1666787267 0.5314847231 0.8305071592
0.053462639 -0.23506589 1.9360001 0.6858422756 -0.3174202442 0.6548776627
0.13694584 0.082446992 1.5940001 -0.1689876765 0.9022341371 0.3967577815
0.19779676 0.025405509 1.4250001 0.6094373465 -0.1217237562 0.783434391
0.46043411 -0.48156878 1.7220001 -0.8250834942 -0.1414233595 0.5470252633
0.30205286 0.32123083 1.8230001 0.08119862527 -0.5787450671 -0.8114560246
-0.36037576 0.026770771 2.3490002 -0.2778956294 0.8191806674 0.5017141104
0.13854139 -0.17526321 1.9039999 0.748778522 -0.4817976952 0.4551941454
0.21044646 0.097850904 1.529 0.1642496437 0.8042629361 0.5711245537
0.27456826 -0.093377046 1.813 0.6562564969 -0.4147121012 0.6303501725
-0.028375946 0.26206023 1.904 0.2769633234 -0.9078288078 0.3148620725
0.19018143 0.30205286 1.8230001 -0.08758755773 -0.822201848 -0.5624166727
0.19443853 -0.064277202 1.8330001 -0.1422461271 0.8453336954 0.5149533153
0.10463016 0.1019125 1.5500001 -0.0358424969 0.9525301456 0.3023271263
0.096953198 -0.077880435 1.8130001 -0.1619259715 0.7503272295 0.6409282684
-0.082262017 0.26693186 1.9150001 -0.08880224824 -0.7174199224 0.6909579039
0.21484645 0.023045816 1.6960001 0.07769982517 0.8079334497 0.5841286182
0.4334498 -0.16720016 1.6470001 0.2798240185 0.3273646832 0.9025136232
0.16542858 -0.021256186 1.7570002 -0.08015172184 0.8192514181 0.5678052902
0.37170666 -0.14719585 1.6960001 0.7669070959 0.3224675357 0.5548586845
-0.20490856 -0.22412229 1.6864001 0.7497030497 -0.06264390796 0.6588027477
0.37810808 -0.10432859 1.516 -0.1523043811 0.854038775 0.4974144399
0.15559484 0.16699448 1.4575386 -0.1993805468 0.4401775897 0.8754947782
0.21180704 0.00358995 1.365 0.3657724559 -0.1871761382 0.9116883278
0.41439068 -0.36626169 1.647 -0.3337302804 0.6894059181 0.6429179907
0.47694176 -0.47551802 1.6240003 0.856073916 -0.4107808769 0.3136821985
0.032449525 0.077239007 1.5640001 -0.2326420397 0.879801631 0.4145198762
0.49655101 -0.37471539 1.6160001 0.9219186306 0.04617962986 0.3846211433
0.094727241 0.17383081 1.4449999 0.2143361568 0.1659928709 0.962552011
0.17139447 0.042482391 1.6710001 -0.07442310452 0.9053391814 0.4181173742
-0.18618648 -0.11473111 1.7220001 -0.01166900527 0.7435920238 0.6685317755
0.19762082 -0.13882455 1.863 0.6757426262 -0.5392298102 0.5025963187
0.25286135 -0.34494817 1.7220001 0.6817895174 -0.3555786908 0.6393174529
0.06383536 -0.060721438 1.7760001 -0.1635049582 0.7311322093 0.6623532772
0.15727401 -0.056618642 1.794 -0.06785237789 0.8304011822 0.5530189276
-0.15630616 0.065813117 1.5640001 0.3323690891 0.08493678272 0.9393170476
0.31308922 0.058084425 1.6160001 -0.3998153508 0.5827044249 0.7075331807
0.12446757 -0.11588359 1.8830001 -0.1553495973 0.7631917 0.627219975
-0.13284656 -0.14708012 1.8040001 0.009298754856 0.8354955912 0.5494184494
-0.13741925 -0.24508795 1.6160001 -0.1212378815 0.4011312723 0.9079620242
0.038390987 -0.28209031 1.904 0.8585911989 -0.1285953522 0.496270448
-0.14724757 -0.042279001 1.6630001 -0.3637577593 0.6769858003 0.6398206949
0.17440407 0.066202357 1.6240001 0.03843196854 0.8681778908 0.4947627187
-0.23535344 0.33216548 1.904 -0.9128695726 0.1127945632 0.3923602104
0.33896095 -0.23399241 1.6630001 0.8344500661 -0.1471631974 0.5310707092
0.12548606 0.0236174 1.684 -0.192554459 0.8249226213 0.5314372182
0.33326703 -0.40504763 1.6710001 0.4011550546 0.2292629778 0.8868557215
-0.0028623168 -0.21581869 1.9590001 -0.3901329041 0.7239994407 0.5688771009
0.0146491 0.45558703 1.6710001 -0.006695988588 0.07915624231 -0.9968397617
0.49588758 -0.20487912 1.6320002 -0.2282815576 -0.1729138941 0.9581170678
0.18112767 -0.23473495 1.853 0.553597331 0.01916549355 0.8325639367
0.12508367 -0.28428105 1.853 0.1853839755 -0.135930717 0.9732192159
0.16655965 0.1193459 1.4960001 -0.08919531107 0.8059711456 0.5851963162
0.26618165 -0.46441001 1.7130002 0.3118591011 0.2333782613 0.921020329
0.064741835 0.13725269 1.4770001 0.02424483187 0.7140419483 0.6996830106
0.2566354 -0.20499535 1.785 0.609036088 0.1298062801 0.7824482918
0.34600282 0.3821758 1.794 0.05489764735 0.1504848748 -0.9870868921
-0.14094695 0.0014237066 1.6240001 -0.1581660211 0.8084181547 0.5669599175
-0.034542594 0.061746262 1.5514001 -0.207275793 0.8411325812 0.4995324612
0.14654239 -0.44280592 1.8130001 0.8556933403 0.4101057053 0.3155982196
0.18945731 -0.37583402 1.7570001 0.7712775469 -0.280854702 0.5711843371
0.0043105702 0.027300276 1.6390001 -0.09334606677 0.7957365513 0.5984060764
-0.19220038 -0.24630125 1.6240001 0.7030260563 -0.5658013821 0.430840075
0.27798399 -0.39479807 1.6866666 0.5754350424 0.08745665848 0.8131579757
0.49584267 -0.30175567 1.6160001 -0.1376079172 -0.09139695764 0.9862609506
-0.055561379 0.11509144 1.5089999 0.2470540404 0.3905474544 0.8868128061
0.38401249 -0.19478898 1.6240004 0.3712829947 -0.4680852294 0.8019009829
-0.20556343 -0.055400074 1.6630001 0.1690294594 0.7034614086 0.6903412938
0.097963996 -0.21585287 1.8940001 0.5425917506 -0.6173691154 0.5696048141
0.20570546 -0.0045727906 1.7381113 0.09080637991 0.8081629276 0.5819165707
0.040144321 0.39400902 1.6960001 -0.3472313881 -0.4092102051 -0.8437874913
0.1172042 -0.46056297 1.8830001 0.7981107235 0.3824484944 0.4655668139
0.082400531 -0.11148307 1.8430001 -0.1942690164 0.7972252965 0.5715692043
-0.029415673 -0.36072904 1.766 -0.09430920333 0.7814970613 0.6167398691
0.40512088 -0.24429211 1.594 0.4247340858 -0.1700870544 0.8891970515
0.40546882 -0.49573746 1.6879998 0.386031419 -0.4240648746 0.8192366958
0.3238731 -0.21474738 1.7129999 0.7016830444 -0.7014169097 0.1251210123
0.12747085 -0.0075875497 1.7310001 -0.2307443321 0.8187838793 0.5256900787
0.42457187 -0.3143937 1.601 0.09993749112 0.5352312922 0.838772893
0.4313831 -0.12670989 1.6240001 0.226477921 -0.06206921861 0.9720366001
0.24306636 -0.023222899 1.766 -0.1823613048 0.9260885715 0.3303094506
0.03835592 0.2780804 1.8230001 -0.1867408156 -0.8431257606 -0.5042487383
0.14430231 -0.39305508 1.8329999 0.7774921656 -0.05057643726 0.6268555522
0.040392417 -0.38453579 1.8430001 -0.585819006 0.6625501513 0.4667369723
0.34436783 -0.48695591 1.7570001 0.07250383496 0.5218331218 0.849960804
0.27715233 0.07592576 1.5940002 -0.6354513168 0.2797276974 0.7196902633
-0.043250352 -0.11559639 1.794 -0.4692755044 0.4845810235 0.7382152677
-0.094918452 0.012750241 1.6160001 -0.1849406809 0.8457906842 0.5004349351
0.0155696 -0.066949278 1.7760001 -0.2262351513 0.812017858 0.5380006433
0.49887419 -0.44717014 1.5940001 0.9088462591 -0.1877197027 0.3725047112
-0.075470485 -0.0221972 1.6880001 -0.1536223739 0.728327632 0.6677866578
0.053133015 -0.32377926 1.8940001 0.7212462425 -0.09104844928 0.6866687536
0.44397032 -0.02176325 1.6550001 -0.3144155443 -0.02432602458 0.9489737153
0.30484152 -0.30484155 1.6879998 0.4858294129 -0.05739129707 0.8721674085
0.46258965 -0.44542384 1.6880001 0.2442715615 -0.9097821116 0.3356007934
-0.14795591 -0.29737672 1.6710001 -0.01811787672 0.7444241047 0.6674612164
0.28518888 -0.24488369 1.7350001 0.7754284143 -0.6265460849 0.07842701674
0.04636953 -0.19749984 1.9590001 0.2885893881 0.7238000631 0.6267612576
0.33263451 0.35191765 1.8330001 -0.2743697464 0.04643284157 -0.9605025649
0.18455499 -0.096360572 1.863 -0.1215259135 0.6901480556 0.713391304
-0.18864989 0.018166287 1.5940001 0.2472017854 0.4718319178 0.8463249207
-0.22704853 -0.016243536 1.6470002 0.5143505335 0.3239540756 0.7940385938
-0.068081409 -0.093342379 1.7570002 -0.3426641822 0.4344637096 0.8329601288
0.098009288 -0.38283184 1.853 0.6403028369 -0.01322535612 0.768008709
-0.0047445199 -0.096867293 1.804 -0.4032095671 0.6592353582 0.6346895695
0.23812634 -0.062328368 1.8230001 0.02367023192 0.7866069674 0.6170001626
0.01393374 0.34524712 1.7660002 -0.3866838515 -0.5757631063 -0.7203974128
0.31182945 0.39907709 1.8430001 -0.1888571233 0.8108087778 -0.5540055633
0.23999889 -0.12874113 1.8130001 0.6458791494 -0.3741171658 0.665489614
0.074701644 -0.022867849 1.739 -0.1233610511 0.7955943346 0.593137145
0.0053582839 0.1830214 1.4876668 0.547019124 -0.3790394962 0.7463907599
0.19977041 -0.26369694 1.8230001 0.6131301522 -0.02950257622 0.7894307971
-0.054400112 -0.33566925 1.7368183 -0.03485678136 0.7041507363 0.7091944218
-0.13284656 -0.089067578 1.7220001 -0.2345857173 0.6759179831 0.6986446977
0.36800057 -0.055738468 1.4450001 -0.3440579176 0.6821553707 0.645203948
0.32429653 -0.063339166 1.4450001 -0.1132015511 0.8786123991 0.4639241695
-0.055136636 -0.15741909 1.8230001 -0.2798628509 0.7600582838 0.5865049958
0.32435352 -0.47083575 1.705 -0.2596396804 0.6336109042 0.7287828326
0.24894966 -0.052542143 1.427 -0.06606271863 0.7885040045 0.6114712954
0.24755664 -0.2880376 1.7760001 0.7753750086 -0.6269434094 0.07573341578
-0.11407742 0.10505943 1.5430001 0.6212958694 -0.1038388088 0.7766652703
0.48024237 -0.36997524 1.6550001 0.8101993799 0.2905341089 0.5090844035
0.066593058 -0.16844128 1.9150001 -0.3760055006 0.7675892115 0.5190632343
0.39370841 -0.0050820364 1.7050002 0.8731387854 -0.2957930863 0.3874727488
0.39313239 -0.28404701 1.6160001 0.6125019193 0.2115790397 0.7616270185
0.17381757 -0.3362639 1.853 0.5056395531 -0.06830273569 0.86003685
-0.15757294 0.23229825 1.853 -0.1275814772 -0.827509284 0.5467643738
-0.10615943 -0.26495251 1.6960001 -0.8766742945 -0.3326402307 0.3475524485
0.045952938 -0.0069079576 1.7130001 -0.1534245908 0.8630357981 0.4812796414
0.45617527 -0.2521714 1.6160001 -0.6267461181 -0.5754294395 0.5254238844
-0.023245692 -0.19426759 1.8940001 -0.390521735 0.8207523823 0.41696316
0.19253792 -0.49597767 1.7570001 0.7471176386 0.3354853988 0.5738160014
0.017772663 -0.11794586 1.8430001 -0.2071345299 0.7000066638 0.683436811
-0.1016232 -0.30781519 1.6800001 -0.3903561532 0.6902964115 0.6091904044
-0.024903471 -0.00292982 1.6710001 -0.1703175306 0.7404843569 0.6501345038
-0.21165626 0.27951553 1.8430001 0.4223328233 0.5983006954 0.6809341311
0.27043763 0.34002393 1.8040001 0.1272688061 -0.4648368359 -0.8762016892
0.2929399 0.0036925201 1.404 -0.4223103523 -0.01578421704 0.9063138962
0.21442915 0.28753 1.853 -0.546944201 0.208746165 -0.810726285
-0.0045735701 -0.051833794 1.7390002 -0.2834717929 0.7439877987 0.6050833464
-0.10068429 -0.16780715 1.8230001 -0.1516678631 0.7509015203 0.6427626014
0.035263915 0.057832822 1.6090001 -0.1187340766 0.8956929445 0.4285281301
-0.23930895 0.30719802 1.9360001 0.4179993272 -0.8748404384 0.2448075116
0.2524125 -0.49824914 1.7310001 0.1377029568 0.6295447946 0.7646641731
0.0049806936 0.4951396 1.6710002 -0.3584445417 0.3921036422 -0.8472144008
0.22840498 0.13730967 1.506 -0.8252537847 0.3639561832 0.4318473041
0.12435891 0.11220784 1.5159999 -0.0250407476 0.9130226374 0.4071396291
0.16472636 -0.43501464 1.7760003 0.8176231384 0.1128624231 0.5645834208
-0.12429871 -0.055607319 1.6960001 -0.4947316945 0.5075517297 0.7054302096
-0.11602245 0.058693711 1.557 0.1346931756 0.5949515104 0.7923954129
0.073568404 0.21039152 1.4723334 0.4627165198 -0.6058626175 0.6471660733
0.41556805 -0.40664709 1.6960001 0.2588145137 0.5938032866 0.7618482113
-0.094608985 -0.33788928 1.7129999 -0.5914093852 0.5111925602 0.6236321926
0.083974853 0.0253674 1.6630001 -0.1696725339 0.7451954484 0.6448991895
-0.054630361 -0.057665378 1.7310001 -0.2143478692 0.7387201786 0.639020741
-0.01462017 -0.16569525 1.853 -0.4947870076 0.6654809117 0.5588568449
0.39464024 -0.16685157 1.6550001 0.4267170429 -0.5528914332 0.7156980038
0.16567625 -0.48424348 1.8230001 0.8416702151 0.2031819224 0.5003082752
0.24544825 -0.25589284 1.813 0.4184783697 0.05717885867 0.9064250588
0.48685858 -0.41434771 1.6880001 0.9774996638 0.169168964 0.1260009557
-0.0047182203 -0.3727394 1.794 -0.459787786 0.3744855821 0.8052054048
0.33559853 -0.086121634 1.7479999 0.8352407813 -0.2478202134 0.4908747375
0.34588835 -0.13561168 1.7381113 0.7364800572 -0.1304079294 0.6637702584
0.23426557 -0.43435887 1.7220001 0.4604092836 0.2363319993 0.8556696177
0.37625119 -0.36352471 1.6390001 0.3375078738 0.402376622 0.8509885073
-0.17663167 0.27402669 1.8830003 -0.3491531312 0.3854318857 0.8541278243
0.10515792 -0.15189478 1.9039999 -0.2398112267 0.7477289438 0.6191865206
-0.15302524 -0.27228433 1.6390001 -0.2519137859 0.5370525718 0.8050552607
0.30533335 -0.16358511 1.748 0.4972570837 0.1016155928 0.8616319895
0.19593483 -0.3148382 1.8230002 0.7227894068 -0.2144003659 0.6569687128
0.0045051901 -0.024671281 1.7130002 -0.3921972811 0.7212955952 0.5708887577
0.30039597 -0.061986469 1.8130001 0.4877929986 -0.2712246478 0.8297560811
0.0045051901 0.38444287 1.7130001 -0.1851897836 -0.7289091349 -0.6590874195
0.086276628 0.054955076 1.6240002 -0.1713133901 0.8387855291 0.5168080926
0.33049631 0.090135358 1.6320001 -0.6700242162 -0.1432537138 0.7283858657
-0.024801776 0.12531424 1.4890002 0.1895160675 0.3658633828 0.9111682773
0.19604546 -0.19443853 1.8330001 0.7274881005 -0.1309119612 0.6735154986
-0.22656727 0.25545561 1.8830003 0.3260344863 0.4748469591 0.8174483776
0.25557649 -0.022873586 1.3864546 -0.0444887504 0.6095668077 0.7914853096
0.085085392 0.1160247 1.5064287 -0.08745973557 0.870706141 0.4839644432
0.054493595 0.0103096 1.6799999 -0.06617908925 0.9059220552 0.4182409942
0.36803344 -0.10715847 1.6860001 0.8635088801 0.08369214088 0.497341007
0.45652592 -0.41898265 1.7130001 -0.5301938057 0.249584198 0.8103099465
0.058165081 -0.35222188 1.8430001 -0.6313627362 0.6533261538 0.4177870154
0.4380081 -0.060061309 1.6710001 0.2312902659 0.5103555918 0.828276515
0.27951202 -0.27951202 1.705 0.6138604283 -0.3227804005 0.7204083204
0.38448405 0.039173849 1.6550001 -0.385316819 -0.573330164 0.7230653167
-0.014093 0.43396723 1.6630001 0.2136537582 -0.01186293643 -0.9768373966
0.40315181 -0.20751488 1.5940001 0.01724235713 -0.561411798 0.8273569345
0.41465631 -0.099676996 1.516 -0.2831844091 0.7926841974 0.539868772
-0.034361701 0.034756701 1.6044285 -0.250036329 0.8895637393 0.3823063374
-0.0013588333 0.080171168 1.5500001 -0.2665655613 0.8383501768 0.4755121469
0.46533641 -0.30044243 1.5940001 -0.5416796207 0.2896049023 0.789121151
0.22519551 -0.36538073 1.7346364 0.5888798833 -0.1554679871 0.7931268811
0.28284663 -0.12323194 1.785 0.5912562609 -0.3323233724 0.7348314524
0.1470284 -0.31182945 1.8430001 0.0871193409 -0.06198601425 0.9942675233
-0.40367165 -0.3725535 2.9580002 0.6999595761 0.588308692 0.4049067795
0.3647109 -0.18683958 1.705 0.7074356079 -0.6275461912 0.3251470327
0.27425507 0.11575024 1.5860002 -0.8261990547 -0.173478812 0.5360039473
0.47443882 -0.45509371 1.6550001 0.9255149364 -0.316173166 0.2084624767
0.13652638 -0.4645128 1.8430001 0.7073833942 0.3331150711 0.6234124303
0.16012405 -0.15517175 1.8830001 0.5077114701 -0.4501902461 0.7345460057
-0.070063196 -0.36744255 1.7760001 -0.08332134038 0.8343175054 0.5449512005
0.26456484 -0.42449951 1.705 0.4319150448 0.06863068044 0.8992993236
0.030615829 0.42424792 1.6630001 0.05150930583 -0.3918372691 -0.9185914993
0.35519198 -0.32487077 1.647 0.490444541 0.06732812524 0.8688676953
0.0033208132 0.28060871 1.8940001 0.2752904892 -0.9518569708 0.134845838
0.06007183 0.30652037 1.7570001 -0.7712575793 -0.559987545 -0.3026148379
0.27502784 -0.31538525 1.705 0.5247958302 -0.1107563674 0.8439919353
-0.18588184 -0.24346875 1.6630001 0.8019341826 -0.2500402331 0.5425692797
0.15349117 -0.26497424 1.8430003 0.07541122288 -0.1468203217 0.9862844348
0.3151792 -0.37556398 1.6800002 0.297326684 0.1587567925 0.9414845109
-0.10125646 0.23590018 1.8730001 -0.21350272 -0.2225941718 0.9512457252
0.34552154 0.042279001 1.6630001 -0.1360470802 0.7669446468 0.6271260977
0.36436674 -0.28467545 1.6368463 0.674221158 0.04956807569 0.7368642092
0.23064049 0.018304801 1.3920001 0.5119108558 -0.6891084909 0.5129101276
-0.11573402 -0.13389856 1.7760001 -0.05300838873 0.8143287897 0.5779781938
-0.072544165 0.0014508833 1.6550001 -0.2967343032 0.8466742635 0.4416915774
0.23523073 -0.19549578 1.8129998 0.5571146607 -0.05954564735 0.8282979727
0.01594832 0.10366407 1.5159999 -0.106848903 0.8200289607 0.5622594953
-0.15397686 -0.11129019 1.739 -0.3350413144 0.7373338342 0.5865885615
0.10672978 -0.3464613 1.8730001 0.4308390319 -0.2231255025 0.8744099736
0.20090921 -0.11788888 1.8940001 0.4818707108 0.1678936183 0.8600071669
0.3859446 -0.46403462 1.7130002 0.3496201336 -0.1826412827 0.9189167023
-0.14113456 0.23743816 1.8940001 -0.03580473736 -0.3864901066 0.9215983152
-0.13727197 0.26155877 2.1160002 0.0185370557 -0.9997314811 0.01390319504
0.027786827 -0.21708459 1.9810001 -0.03986972943 0.5294384956 0.8474109173
0.03496287 -0.2644279 1.9360001 0.8111313581 -0.3143900633 0.4931782484
0.2044562 -0.33184814 1.794 0.7141833305 -0.6474612355 0.2659625709
0.3475098 -0.45980552 1.7310001 -0.1959865242 0.7445424199 0.6381581426
-0.14799011 -0.23359221 1.6550001 0.1016904265 -0.7225933671 0.6837528348
0.0049522896 -0.17663167 1.8830003 -0.2729892135 0.7713062763 0.5749465227
0.1742215 0.084346078 1.5772501 0.1792203039 0.9569557309 0.2282889932
0.32579595 -0.2657347 1.6710002 0.7504915595 -0.1150940955 0.6507808566
0.44465849 -0.36301628 1.6630001 -0.1363552511 0.8240125775 0.549918592
-0.01181922 -0.20430365 1.9260001 -0.2182475179 0.9133298993 0.3437972069
0.063494697 0.087471522 1.5542001 -0.2586233914 0.8899260163 0.3756935
0.052307718 -0.1237841 1.853 -0.307100445 0.7120457888 0.6314112544
0.43861386 -0.48024502 1.6960001 -0.4701045454 -0.557243228 0.6844572425
0.324016 -0.33727118 1.6800001 0.7048874497 -0.02070154995 0.7090170383
0.063787438 0.29679608 1.804 0.2597754002 -0.7258001566 -0.6369701028
0.071397483 -0.29057115 1.8940001 0.5029829741 -0.1174726114 0.8562758565
-0.062752679 0.15888444 1.5230001 0.638233006 -0.42723611 0.6404123306
0.043803878 0.1188213 1.4960001 -0.06267127395 0.7848727703 0.6164795756
0.38495311 0.022644302 1.7220001 0.3826850057 0.7238968015 0.5740432739
-0.21523856 0.0053065433 1.6240004 0.5737962127 0.2366818041 0.7840533257
0.42568827 -0.34453702 1.6240002 -0.1958465874 0.6405767202 0.7424995303
0.3554664 -0.38448405 1.655 0.282245934 0.3001200855 0.9111888409
0.020023944 0.31268159 1.7570001 0.004178963602 -0.6735157371 -0.7391610742
0.11533689 -0.10396565 1.853 -0.3139975667 0.8170480132 0.4835680425
-0.17379916 0.084118798 1.5860002 0.6269626021 -0.1187673286 0.7699429989
0.18216431 -0.40636656 1.7760001 0.6586837769 -0.1467427611 0.7379717231
0.46404576 -0.2248639 1.6337501 0.2101744711 -0.2684664428 0.9400811195
-0.26234424 0.31049603 1.8940001 0.3102762103 0.6457745433 0.6976416707
0.046961863 0.33595797 1.7660002 0.1052047089 -0.7134727836 -0.6927398443
0.15598968 -0.11083477 1.8730001 -0.09687058628 0.7942208648 0.5998577476
0.29632419 -0.2362543 1.766 0.8277059197 -0.4328998625 0.3570722342
0.18580513 -0.46470433 1.748 0.6871698499 0.05900148302 0.7240970135
0.12874113 -0.068344057 1.8130001 -0.1720635593 0.749047339 0.6397829652
-0.054777637 0.085503928 1.524 0.07196264714 0.5890499353 0.8048860431
0.35834879 -0.21574716 1.636 0.7613571286 -0.1127457917 0.6384541392
0.363507 -0.085026316 1.4829999 -0.1080410108 0.7958176136 0.5958199501
-0.153688 0.021754922 1.6010001 0.05040512234 0.5316179991 0.8454830647
0.46212256 -0.13591839 1.6320001 0.1232354268 -0.05281791836 0.9909709096
0.17213351 -0.37399915 1.785 0.6636654139 -0.4000547826 0.6320635676
0.49765298 -0.18136041 1.6550001 -0.3848051727 -0.1413715035 0.9121069312
0.11110844 -0.26217213 1.8730001 0.3982006013 -0.5325349569 0.7468887568
-0.088565826 0.11393394 1.5230001 0.6354318261 -0.07307414711 0.7686914802
0.49604574 -0.3338317 1.6090001 0.6843501329 0.1176897809 0.7195929289
0.212504 0.062334504 1.6160001 0.2823174298 0.8927403688 0.3511574566
0.12474618 0.18584633 1.4519998 -0.1942381114 -0.3182840943 0.9278829694
0.13520303 -0.13854139 1.9039999 0.01404210087 0.5652434826 0.8248046041
0.14141539 -0.2041444 1.883 0.6032581925 -0.3911595047 0.6950351
0.2718249 -0.36535144 1.705 0.6320306063 -0.07724421471 0.7710840702
-0.24930033 0.0014578967 1.6630001 0.6758599281 0.1864139587 0.7130660415
-0.08394219 0.052863784 1.5640001 -0.04242156073 0.7220186591 0.6905718446
0.21252382 0.055560153 1.4210001 0.6236692071 -0.4261833727 0.6552895904
0.035975475 -0.17544962 1.8940001 -0.3879183829 0.7206473351 0.5746187568
-0.011493976 0.25450948 1.8730001 0.3529543877 -0.7784460187 0.5190809369
0.22458184 -0.12440864 1.8430002 0.7705193758 -0.4258108139 0.4743259251
0.16461082 -0.07271643 1.8230001 -0.2886689603 0.8438414931 0.4523292184
0.10547126 0.083622225 1.5860002 -0.036562372 0.838009119 0.5444298983
0.23599166 -0.30801508 1.748 0.6721864939 -0.4840113819 0.5602662563
0.076889805 -0.22798331 1.9150002 0.6263415813 -0.54285115 0.5594719648
0.29660088 -0.095753044 1.7760001 0.477279067 -0.4582115114 0.7498312593
-0.177596 -0.0433161 1.6470001 -0.1678927839 0.6892954707 0.7047579288
0.31283849 -0.022209974 1.3962858 -0.2523287535 0.4889249504 0.8350344896
0.4527387 0.18734017 2.2260001 -0.01278361119 -0.7764909863 -0.6299986839
0.15525226 -0.21605362 1.8529999 0.5733320117 -0.1207334697 0.8103788495
0.10747436 0.22452134 1.4890002 -0.05384673551 -0.8396167159 0.5405037403
-0.073177122 -0.11832896 1.7760001 -0.3354594111 0.6239975691 0.7057577372
0.21445984 -0.39546081 1.7350003 0.6384861469 -0.1698586047 0.7506553531
0.095455848 -0.0563346 1.785 -0.2181836814 0.7135466337 0.6657680869
0.41603443 -0.38673624 1.6710001 -0.3853335381 0.6811567545 0.6225299835
0.066870734 -0.20604332 1.9360001 0.397161901 -0.2209112793 0.8907640576
0.23433827 -0.035124525 1.794 -0.3068801165 0.8328560591 0.460624963
-0.25455508 -0.28541023 2.9330001 -0.3406206667 0.8037109375 0.4878793359
0.13436845 0.093235254 1.5640001 0.110968031 0.9194536805 0.3772148192
0.45496902 -0.18456288 1.6320001 0.4012134671 0.05990843102 0.9140233994
-0.2110873 0.035417333 1.6160001 0.8201444149 -0.00376049336 0.5721442103
0.34424439 0.39410704 1.8230002 0.2518565357 0.6608638763 -0.7069846392
0.22529158 0.31399411 1.8329999 -0.6384066343 0.435844332 -0.6344105005
-0.042537622 -0.30689293 1.733 -0.7368203998 0.2639959455 0.6224161386
0.42300481 0.037367918 1.705 0.9563580155 -0.144273892 0.2540952563
0.41423127 -0.27568838 1.594 0.2634695768 0.2287721038 0.9371483922
0.19711061 0.11773721 1.5090001 -0.1479934156 0.7842200994 0.6025751233
0.38744634 -0.42799306 1.7130001 -0.07103235275 0.3182326257 0.9453477859
0.14579861 0.13802961 1.4770001 0.03258379176 0.6860967875 0.7267802358
-0.10580665 -0.031815987 1.6880001 -0.3092480004 0.7052682042 0.6379361153
0.35777995 0.0075480998 1.7220001 -0.01648638956 0.8441891074 0.5357918739
-0.17333014 0.23936068 1.8830001 -0.2831279635 -0.7142867446 0.6400257945
-0.13427991 -0.018770309 1.647 -0.1829764545 0.8094672561 0.5579268336
0.34176674 -0.20446321 1.684 0.751480341 -0.6330438852 0.1858299524
0.32445371 -0.19489513 1.7479999 0.6042385697 -0.07174508274 0.7935668826
0.18356436 0.30215016 1.853 -0.2335848659 -0.1814753562 -0.9552511573
0.33591762 -0.43321538 1.688 -0.1334960461 0.5482465625 0.8255934119
0.47317559 -0.27767187 1.6160001 -0.6188098192 -0.3946772814 0.6791938543
0.48314413 -0.40479645 1.6550001 0.9554477334 -0.02797475457 0.2938316464
0.26724264 -0.26493219 1.7570001 0.7590088844 -0.6421867013 0.1072461307
0.15449409 0.050535452 1.647 -0.08957639337 0.8105780482 0.5787394047
0.31313831 0.34951296 1.8040001 0.02826354653 -0.4848919809 -0.8741172552
0.11404381 0.06445954 1.6160001 -0.08382122219 0.8385279179 0.538372457
0.2475058 -0.2269462 1.8040001 0.6303964853 0.1999554634 0.7500787377
0.24363881 0.019431317 1.705 -0.1706700474 0.7337844372 0.6575956941
-0.24465752 0.32347333 1.8730003 -0.4365247488 0.06767551601 0.8971433043
0.24355203 -0.1660582 1.804 0.7291065454 -0.1028901264 0.6766219735
0.16052906 -0.3719188 1.8130001 0.7431830168 -0.6308928728 0.2228299677
0.027517691 0.1561247 1.467 0.2202042788 0.2091040015 0.9527778029
0.089827649 -0.28581524 1.863 0.6308197379 -0.1895647645 0.7524172068
0.2055757 0.037599359 1.6710002 0.02909258567 0.8824571967 0.4694921374
-0.13488095 0.084469102 1.5540833 0.538191855 -0.02688536793 0.8423934579
-0.23519856 -0.065087825 1.6873332 0.3102296293 0.4655268788 0.8288801312
-0.10440469 -0.085891068 1.7310002 -0.4877055585 0.4953139126 0.7188931704
-0.087894604 -0.28272763 1.6710001 -0.9335547686 -0.1005313769 0.3440478742
0.3144612 -0.047160279 1.4210002 -0.0142106479 0.7075241804 0.706546247
-0.15724859 0.037857447 1.5762 0.1556531787 0.6758300066 0.7204344869
