# .PCD v0.7 - Point Cloud Data file format
VERSION 0.7
FIELDS x y z normal_x normal_y normal_z
SIZE 4 4 4 4 4 4
TYPE F F F F F F
COUNT 1 1 1 1 1 1
WIDTH 512
HEIGHT 1
VIEWPOINT 0 0 0 1 0 0 0
POINTS 512
DATA ascii
0.015309813 0.49537596 1.2536666 0.6454707384 -0.3489138186 0.6794311404
-0.47327814 -0.45296577 2.3170002 -0.05814087018 0.7698401213 0.6355831027
0.4984262 -0.14067081 1.9810001 0.1477080882 0.766382575 0.6251720786
0.39429548 -0.35108981 1.0647143 0.7280483246 0.3097668588 0.6115473509
-0.34547856 0.015203153 1.794 0.972341001 -0.03063877672 0.2315474898
-0.18824224 -0.06131319 1.2270001 0.04945266247 0.6727767587 0.738190949
0.17146285 -0.43370014 2.3010001 -0.01655572653 0.785222888 0.6189919114
0.37310758 0.28227615 1.5940001 0.9494765997 -0.1480866373 -0.2767028809
0.25549397 0.10040814 1.1340001 -0.380805105 -0.4962568879 0.7802029252
0.075838313 -0.38428244 1.3547144 0.740721941 -0.2240269035 0.6333584785
-0.28806654 0.22649647 1.5050001 0.8230912685 -0.2230407149 0.5222772956
-0.33296239 -0.22137499 2.0530002 -0.17277053 0.7531221509 0.6347892284
-0.040791299 0.14050336 1.034 0.2646591067 0.5761144757 0.7733354568
-0.15595461 -0.34708199 2.2710001 -0.04784695432 0.7723591328 0.6333814263
0.26152623 -0.16541243 1.2748749 0.8223220706 -0.08740523458 0.5622692704
0.45052427 0.060379539 1.766 0.1428781152 0.7467836738 0.6495382786
0.23635809 -0.17772663 2.0900002 0.07600191236 0.73660779 0.6720362306
0.011870067 -0.13887978 1.3540001 -0.07592372596 0.7219948769 0.6877201796
0.30265549 0.26794404 1.3560002 0.6304309368 -0.6660110354 0.3987306654
0.24380414 -0.48189911 1.2060001 0.5146822333 -0.2267745137 0.8268467188
0.37831587 -0.11911708 1.087 0.6902233958 -0.1310328096 0.7116333842
0.055171967 0.0083262306 1.1874001 -0.07471723109 0.7479525208 0.6595334411
0.062189765 0.31557173 1.13 0.5575243831 -0.3924219906 0.7315542102
-0.26463059 0.030771 1.4039999 0.6905819178 -0.2648802996 0.673004508
0.3516126 -0.054475188 1.8830001 0.1477080882 0.766382575 0.6251720786
0.13093191 0.13093191 1.016 0.3116232157 0.4492723048 0.8372845054
0.29335681 -0.31500214 1.2042501 0.7379686832 -0.103775844 0.6668078899
0.091718622 -0.30637923 2.2260001 -0.01655572653 0.785222888 0.6189919114
-0.15273462 0.060107771 1.1240001 0.3932122886 0.5500285625 0.7367853522
-0.14427654 -0.1818119 1.3380001 -0.1058803573 0.748277545 0.6548817158
-0.41562417 -0.081789494 1.904 -0.002613899065 0.7941271067 0.6077460647
0.14000805 -0.23813334 1.365 0.3961425424 -0.2800923586 0.8744251728
0.20518517 -0.023779949 1.2240524 0.1006417572 0.7257398963 0.6805680394
0.39464903 -0.21361735 2.0650001 0.09812935442 0.7568215728 0.6462133527
-0.27297938 -0.28454089 2.1980002 -0.05814087018 0.7698401213 0.6355831027
0.35836819 0.14508833 1.6550001 -0.2117638588 0.7087574005 0.6729182601
0.27943751 0.177525 1.25 0.74402982 -0.5844986439 0.3236989081
0.12761717 -0.49581206 1.2861819 0.6251904964 -0.0883930549 0.7754505277
0.49095699 -0.044333909 1.8730001 0.1477080882 0.766382575 0.6251720786
0.33340248 -0.0054908558 1.1750001 0.3533187211 -0.2010419518 0.9136454463
0.14177863 -0.10701003 1.322 0.02399291098 0.6787226796 0.7340026498
-0.045962173 -0.06104055 1.2583333 -0.1552941501 0.716465354 0.6801184416
0.18675873 -0.36515772 1.278 0.5452052951 -0.2481912673 0.8007198572
0.3518084 -0.24508132 1.1157779 0.88761729 0.01347758807 0.4603845477
0.33063045 0.34583184 1.4450001 0.5709294677 -0.6738688946 0.4689779282
0.33227879 -0.42449266 1.1458001 0.7639300227 -0.06355425715 0.6421617866
0.13528444 0.064733155 1.1144211 0.06502496451 0.8334285021 0.5487883687
0.041456688 -0.22235861 1.4330001 0.6271291971 0.268884629 0.7310335636
-0.034457382 0.050209332 1.123 -0.1303785592 0.7533732653 0.6445387006
0.051455949 0.48464325 1.365 0.872112751 0.4277155697 -0.2376526296
0.072457366 0.21590295 1.0714285 0.5651227832 -0.3162379563 0.761990726
0.31642318 -0.15525328 1.1747501 0.8729717135 0.03692949936 0.4863708317
0.024236327 0.39831877 1.202 0.6162166595 -0.3145941198 0.7220162749
-0.27573416 0.12510416 1.456125 0.3925643563 -0.2545989752 0.883783102
0.42086664 -0.25414217 1.028 0.6711457372 -0.1473096758 0.726541996
0.22234321 -0.2638213 1.2837144 0.5880079865 -0.2860067487 0.7566021085
0.04502264 0.093100123 1.0727499 -0.007124658674 0.8411790729 0.5407096744
0.064727806 -0.059147824 1.273 -0.04174461588 0.7523346543 0.6574571729
-0.09450081 -0.0051937923 1.1834347 -0.01268956158 0.8010021448 0.5985270143
-0.06223632 -0.19159023 1.3920001 -0.07880698144 0.6932572722 0.7163684964
-0.21262586 -0.12848514 1.2970001 0.06271900982 0.6251006722 0.7780202627
0.057231918 -0.29527378 1.3760002 0.6776767373 -0.2908653319 0.6753899455
-0.12552348 -0.10218776 1.2880001 -0.1951844841 0.6942554116 0.6927571297
-0.21152651 0.011350203 1.177 0.2689130902 0.5041582584 0.8206766844
0.043448698 0.15200002 1.0012501 0.01165478118 0.6640633345 0.7475854754
0.20517674 0.084259935 1.0602609 -0.1830425262 0.5324386358 0.8264408708
0.25260511 -0.39511284 1.2240664 0.6013839245 -0.2001010776 0.7734965682
0.34403786 -0.33548176 1.1332308 0.8791975975 -0.01079884917 0.4763349295
0.20529364 0.033664659 1.1549999 0.0244170893 0.8055070639 0.5920828581
0.13305308 -0.32436901 1.3330001 0.4260052145 -0.3934656382 0.8146805167
0.19908048 -0.18860257 1.3280001 0.6776634455 -0.2382214069 0.695717454
0.291271 -0.22443952 1.223 0.8355723023 -0.0659603253 0.5454064012
0.18508963 -0.4452641 1.2548753 0.4992858768 -0.2871254683 0.8174794316
-0.0987828 0.10383239 1.08 0.2495844662 0.5561870337 0.7926938534
0.13596223 0.011504496 1.1930001 0.04010716826 0.7630736828 0.6450659037
-0.064740255 -0.13859555 1.3330001 -0.1120585129 0.7388846278 0.6644489765
0.32840371 0.27478677 1.529 0.9754951596 0.07423726469 -0.2071184814
-0.26245296 -0.03888192 1.2320001 0.2241663188 0.5876581669 0.7774363756
0.3336606 -0.085425213 1.1464002 0.8628326058 -0.1588913351 0.479868114
0.35374814 0.22957532 1.6470001 0.8885397911 -0.2425714582 -0.3894304633
0.38569543 -0.19541982 1.0630857 0.7425708771 -0.1021352932 0.6619341969
0.12510774 -0.41537261 1.3048126 0.5843195915 -0.1791037321 0.7915127873
0.14516197 -0.049864799 1.2640001 0.02833624743 0.715503633 0.6980341077
-0.015844872 -0.013206108 1.2050002 -0.1339459121 0.7985468507 0.5868402123
0.28827953 -0.10864267 1.2270001 0.8852959871 0.002994590439 0.4650183022
0.084870979 -0.14303432 1.3540001 0.04597328976 0.6589813828 0.7507529259
-0.11617353 -0.051233571 1.2346667 -0.1599724293 0.6769251823 0.7184574604
0.27523819 0.036397118 1.1655 -0.4203335345 0.5462064147 0.7245538831
0.2734715 0.13394591 1.1936668 0.4567342997 -0.7356618047 0.5001954436
0.06447684 0.054351274 1.134522 -0.03364394978 0.8050204515 0.5922923088
0.44624788 -0.18312164 2.0280001 0.09812935442 0.7568215728 0.6462133527
0.29562953 0.23081844 1.2970001 0.8991100788 -0.3741101027 0.2272502482
0.2437906 -0.32434103 1.2523686 0.5930346847 -0.1861407012 0.7833654881
0.01446139 -0.093163885 1.3043528 -0.1110288575 0.7000591755 0.7054004073
0.34687638 -0.17525603 1.1182942 0.8686913252 0.0102043692 0.4952486753
0.32186729 -0.2642808 1.1730001 0.8316248059 -0.05976558849 0.5521125793
0.37851697 -0.28524297 1.0654001 0.9023613334 -0.0119514605 0.4308145344
0.30433547 -0.37496999 1.1848397 0.7265169621 -0.06976871938 0.6835973859
-0.02455969 0.091671772 1.0717143 -0.06852712482 0.7805207372 0.6213625669
-0.22051498 -0.30637923 2.2260001 -0.06084598973 0.7685629129 0.6368742585
0.28620985 -0.43542933 1.1875182 0.6546581388 -0.1941697448 0.7305620313
-0.094610155 0.034953874 1.1340002 0.02183675952 0.747705996 0.6636707783
-0.15478776 -0.019871403 1.1930001 -0.0206139423 0.7001271248 0.7137205601
0.17113876 -0.27080879 1.322 0.5331599116 -0.3916887343 0.7498802543
0.095296882 -0.022213859 1.2260002 -0.1081625894 0.7260597944 0.679071486
0.0048939916 -0.18473513 1.3955001 -0.1746618748 0.781242013 0.5992946625
0.2753689 -0.1469834 2.0530002 0.09798765182 0.7568870187 0.6461582184
0.10599777 0.10036957 1.0700001 -0.03750460967 0.8156580329 0.5773173571
-0.24448863 -0.088346332 1.2640001 0.05286333337 0.5882360935 0.8069595695
0.36435682 -0.38457236 1.1052378 0.8095553517 0.09997518361 0.5784679055
0.31987637 0.31007174 1.3980001 0.4266059995 -0.7275784612 0.5372493863
0.095166594 0.17506304 1.0346668 0.4258203506 -0.2856454849 0.8585357666
0.035911772 -0.028351398 1.2320002 -0.03874255344 0.7906579971 0.6110310555
0.033902276 0.45356154 1.2162001 0.5683034658 -0.3656030893 0.7371333241
0.075480409 -0.10198803 1.3145002 0.009494976141 0.7247512341 0.6889451742
0.005459622 0.023929644 1.1631178 -0.09720696509 0.7833292484 0.613959372
0.25252822 0.065752633 1.087 -0.2677812278 0.9600221515 0.0815520063
0.051908311 0.36946502 1.161 0.700238049 -0.2859580219 0.6541365981
0.062974326 0.2659162 1.1023334 0.6839111447 -0.3075770438 0.6615601778
0.10447254 -0.47421652 1.3330001 0.7968909144 -0.05044819787 0.6020131707
-0.29109454 0.168391 1.4890001 0.1546879709 -0.6227694154 0.7669614553
-0.30609363 0.24405807 1.55525 0.8619161248 -0.2195013762 0.4570773542
0.26980644 -0.27522424 1.2360001 0.7764124274 -0.1717780679 0.6063629389
0.38675728 0.19692038 1.6160001 0.8885397911 -0.2425714582 -0.3894304633
0.17662026 -0.49663168 1.2360001 0.5826171041 -0.3281989396 0.7435339689
-0.25814107 0.084803909 1.4225 0.6172994375 -0.3676197827 0.6955552697
0.29162839 -0.16511314 1.223 0.8381015658 0.008490233682 0.5454481244
0.20047964 -0.31374496 1.2920001 0.5889698863 -0.1584369987 0.7924721837
0.24639487 -0.0020941813 1.1950001 0.1607196331 0.7285834551 0.6658343673
-0.04223254 -0.099303536 1.302 -0.08940853179 0.6616826057 0.7444341779
0.18009187 -0.080418386 1.2920001 0.1003791764 0.7442303896 0.6603371501
0.33078825 -0.20559761 1.161 0.8652469516 0.07390540093 0.4958686233
0.25664055 -0.22572249 1.2664615 0.7398203015 -0.1335240752 0.6594219208
0.0081898198 0.11920738 1.0380001 0.1300689429 0.7598355412 0.6369709969
0.075604431 0.12136574 1.0316001 -0.1505420208 0.7761356831 0.612332046
-0.14563625 0.017570153 1.1563333 0.07417007536 0.6768828034 0.7323445082
0.19495305 0.064455353 1.113238 -0.01047186926 0.8060042858 0.591817081
-0.17490983 -0.094499819 1.2658461 -0.03346178681 0.7561256886 0.6535704136
0.014246416 0.068641834 1.1079999 -0.05031206831 0.8248273134 0.5631417036
0.10998397 -0.27791649 1.3490001 0.4565120935 -0.4075813293 0.790869236
0.0055461437 -0.057252638 1.2656 -0.0890969485 0.7173160315 0.6910278201
-0.094609864 -0.19040236 1.3490001 -0.4674881399 -0.05095843226 0.8825293779
-0.045172937 0.014335201 1.1633531 -0.04297285527 0.8180370331 0.5735580325
-0.164482 -0.14392495 1.3029374 -0.2020474821 0.3355862796 0.920086205
0.070157878 -0.2523222 1.404 0.7039048076 -0.1868555695 0.6852759123
-0.069462679 -0.030991044 1.2190001 -0.04466747865 0.7247194648 0.6875947118
0.15622298 0.096564077 1.0428751 0.2715828121 0.8932116032 0.3583515584
-0.1153945 -0.13503535 1.3247273 -0.08930467069 0.780041635 0.6193219423
0.14256881 -0.36353391 1.3029091 0.5002014637 -0.3700060546 0.7828754783
0.11443186 0.038266897 1.1569999 -0.03323430568 0.7897345424 0.6125478745
0.087514117 -0.33586499 1.3490001 0.7123069167 -0.1040113941 0.6941184998
0.21140963 -0.40343615 1.2516667 0.6383664608 -0.2175173163 0.7383593321
0.40584639 -0.30150592 1.028 0.7088697553 0.0116013987 0.7052440047
0.27736506 0.18605146 1.302 0.896668613 -0.3759956956 0.2336934507
0.11652707 -0.075495198 1.293 -0.02030202374 0.7025611997 0.7113336325
0.31220853 -0.10438827 1.1843848 0.9082812667 0.01666241512 0.4180281758
0.35787922 -0.2947959 1.1070625 0.8843830824 0.02109715715 0.4662847221
0.15812349 -0.02043773 1.2270001 0.1098290011 0.7615913749 0.6386831999
0.18449713 0.0087855766 1.189 0.04350379109 0.793733716 0.6067076921
0.21887957 -0.21774253 1.2970001 0.687364161 -0.1742360443 0.7051044703
0.044795036 -0.16489415 1.3810002 -0.01882113144 0.7038083673 0.7101404667
-0.036008283 -0.16372347 1.3649999 -0.1100745872 0.7365509272 0.667365253
-0.070460327 0.070460327 1.1010001 0.03555947915 0.6965577602 0.7166190147
-0.0029006393 0.15398611 1.0070001 0.1668326706 0.6370991468 0.7525101304
0.087644756 -0.42373314 1.3330001 0.635981679 -0.1238621399 0.7616990805
-0.21586601 -0.028110316 1.21 0.1730234772 0.6306723952 0.7565151453
0.3417685 -0.1277917 1.13 0.8579730988 0.0004607644805 0.5136944056
0.24426959 0.053740714 1.1366669 -0.253779918 0.505594492 0.8246029019
-0.085571766 -0.084371284 1.2753075 -0.1170574054 0.7052564025 0.6992216706
0.16581625 -0.4055776 1.278 0.4628708065 -0.225333944 0.8573069572
0.22803561 -0.15638974 1.3042223 0.6943666339 -0.1500324756 0.703807652
0.22522761 -0.4457548 1.2261578 0.4398320317 -0.2550952137 0.8610889912
0.19596995 -0.054475736 1.2585001 0.1314671785 0.7205179334 0.680859983
0.27485645 -0.35516298 1.2138076 0.6629590392 -0.1328091472 0.7367815375
0.14422791 -0.45495906 1.276421 0.6642534137 -0.2231212705 0.7134313583
0.36337873 -0.083404534 1.1127501 0.6823346019 -0.1618000865 0.7129096985
0.17580037 -0.22565205 1.3379999 0.6084057689 -0.2781001031 0.7433052659
0.31844565 -0.31793323 1.1680001 0.765602529 -0.05186392367 0.6412198544
0.36475202 -0.33563265 1.0933846 0.8839440942 0.003545271 0.4675791562
0.36917046 -0.2360425 1.077 0.8487598896 -0.04996670038 0.5264123678
-0.37237206 -0.0015981633 1.8230001 0.2388938069 0.7307196259 0.639514327
0.33514664 -0.37534761 1.1463336 0.8205589056 -0.0876339674 0.5648038387
0.1642911 0.086534344 1.0837916 0.08958458155 0.8810707927 0.4644230902
0.16503242 0.043636695 1.1444001 0.04588605836 0.8328829408 0.5515437722
-0.017010203 -0.12458072 1.3258184 -0.2136770189 0.7467156649 0.6298871636
0.30618167 -0.19519143 1.1944119 0.8650491238 0.04653863981 0.4995239675
0.095043577 0.074590161 1.1050555 -0.07999480516 0.84578228 0.5274970531
-0.11454418 0.06702292 1.1079999 0.1164145917 0.6235010624 0.7731067538
0.23438658 -0.36515602 1.25 0.5104396343 -0.2550608218 0.8212157488
-0.084627256 -0.11436556 1.3045 -0.1112228036 0.708599925 0.6967895031
0.34321249 -0.045558091 1.1548666 0.6238453388 -0.3148972988 0.7153018117
0.27148613 -0.12632416 1.2640001 0.8250166774 -0.08117514104 0.5592477918
-0.18151364 0.037672646 1.149 0.2933050692 0.4552310109 0.8406764269
0.1060849 -0.3751922 1.3275384 0.5890595317 -0.1504783034 0.7939553857
0.044435892 -0.12278081 1.3338333 -0.08301986754 0.7177548409 0.6913289428
0.29388759 0.011504496 1.1930001 0.1619411558 0.2773855031 0.9470123053
0.10430185 -0.051874995 1.2590001 -0.07920618355 0.7502316236 0.6564136147
-0.017336961 -0.040091719 1.2360001 -0.1344712973 0.7705621123 0.6230180264
-0.064566888 0.11575527 1.0557584 0.2718167901 0.6056324244 0.7478803396
0.09566614 0.0048193871 1.1956668 -0.1134234369 0.7489053607 0.6528980732
0.34051448 -0.28521609 1.1438572 0.8845115304 -0.01497334428 0.4662780166
0.29920459 -0.26537225 1.2060001 0.8126613498 -0.04391872138 0.581078887
0.16464159 -0.32535017 1.3042222 0.5471447706 -0.2480037659 0.7994540334
0.37319815 -0.16438852 1.0839165 0.7798684835 -0.1062965095 0.6168518662
0.41089979 -0.22181858 1.0470001 0.4843084514 -0.2618411183 0.8347961307
0.043615043 0.029414797 1.1570001 -0.09903272986 0.7634456158 0.6382344961
-0.14506234 -0.074838988 1.2516668 -0.2177448273 0.7103279829 0.669344008
0.36002335 -0.20752014 1.1010001 0.851821661 0.04284050316 0.5220772028
0.27758697 -0.19465519 1.2424285 0.833562851 -0.06863009185 0.5481449962
0.056737166 -0.33345592 1.3712001 0.7214758396 -0.03079828061 0.6917543411
-0.2252128 -0.057508692 1.2334547 0.1283027381 0.6869370341 0.7153012753
0.0239593 -0.007234253 1.2031429 -0.08572843671 0.782820642 0.6163136363
0.11773633 -0.1283326 1.3430001 0.08500099182 0.6540792584 0.7516349554
0.03942107 0.33389983 1.153 0.6349925399 -0.2912051082 0.7155305743
0.05517403 0.073560707 1.1041498 0.00271304464 0.8267473578 0.5625668764
0.30181158 -0.13454242 1.2042222 0.8977636695 0.007645758335 0.4404111505
-0.055004157 -0.0076525584 1.1942308 -0.03479948267 0.79880476 0.6005830169
0.26999316 0.14951813 1.2270001 0.6900391579 -0.5948444009 0.4123179913
-0.15403412 -0.048247349 1.223 -0.1068353951 0.660520792 0.7431678772
0.31062141 -0.23218167 1.1930001 0.8231238127 -0.07267621905 0.5631921291
0.085425466 -0.26470992 1.3725001 0.6006378531 -0.3563137352 0.7157336473
0.20710567 -0.4866662 1.2190001 0.4368744791 -0.3152052164 0.8424882293
0.25677317 -0.44567031 1.2060001 0.5870133638 -0.2779830098 0.760355711
0.014958036 0.047869857 1.1376002 -0.08031263947 0.7707962394 0.6319992542
-0.075851828 -0.16123478 1.3590001 -0.2232474983 0.6116222739 0.7589985132
0.2022028 -0.25419125 1.312 0.6095294952 -0.2949770093 0.7358412743
0.47663051 -0.030698236 1.8430001 0.1502976716 0.7547459006 0.6385681629
-0.17696625 0.0027110516 1.1730002 0.1130196005 0.6708282828 0.732950151
0.051722456 -0.25608924 1.439 0.7315557003 0.01190482266 0.6816776991
0.24429777 -0.28474337 1.2647619 0.5893884301 -0.2204184234 0.7771981955
0.11554318 -0.45510331 1.3049628 0.6047740579 -0.2378669977 0.7600445151
0.21762021 0.059869319 1.0840001 0.1147825122 0.9424259663 0.3140990734
0.26325247 0.10694632 1.1730001 0.2696177661 -0.816124022 0.5111240745
-0.21203937 -0.099323705 1.273 -0.07891698182 0.6658009291 0.7419441938
0.38825902 -0.25669762 1.0470001 0.7419573665 -0.07643412799 0.6660758853
-0.24634157 0.060053419 1.3980001 0.7316415906 -0.2087398767 0.6489439607
-0.085474998 -0.058079164 1.25 -0.1219477952 0.7285057306 0.6740980148
0.29350713 0.1997634 1.273 0.8752124906 -0.4295484126 0.2224662453
-0.10455302 -0.027415121 1.212 -0.1357741505 0.7352789044 0.6640258431
0.24435483 -0.19430289 1.2830002 0.6616857648 -0.1503236592 0.7345575094
0.24083348 0.019471643 1.169 0.05116351694 0.7752261162 0.6296083927
-0.01463069 -0.077894107 1.284 -0.163419351 0.7180143595 0.6765719056
0.33805862 -0.24534848 1.1470001 0.9122383595 -0.0086932173 0.4095675945
0.26799551 -0.31547862 1.2270001 0.7415286899 -0.1454341561 0.6549687982
0.0823716 0.2490084 1.08 0.5967440605 -0.3320110142 0.7305239439
0.044734027 0.11382675 1.0433183 0.03089031391 0.7910684347 0.6109472513
0.044796061 -0.082982779 1.2936666 -0.03887061402 0.7404676676 0.6709669828
0.084524833 0.028174167 1.1686666 -0.06867592782 0.7866078019 0.6136218309
0.38766035 -0.3225159 1.046625 0.7600915432 0.1765262783 0.6253793836
0.10828762 0.11920738 1.0380001 0.231476754 0.7399825454 0.6315412521
0.28135213 -0.39199623 1.202 0.694475472 -0.1676873416 0.6997033358
0.064753771 -0.014126825 1.215875 -0.06668520719 0.7741679549 0.6294577718
0.16460398 -0.47492412 1.2579569 0.5923247337 -0.1631179899 0.7890145779
0.21176037 -0.344006 1.2729999 0.6027457118 -0.2827894688 0.7461419106
0.14428657 -0.2647649 1.3458239 0.4178726375 -0.4864402413 0.7673059106
0.026160611 -0.1955817 1.4210002 0.05061450601 0.7033525705 0.7090368867
0.33279037 -0.15521777 1.1460001 0.8784756064 0.04049183428 0.4760683477
0.35655117 -0.14501639 1.1047367 0.780595839 -0.04839361832 0.6231598258
0.12556717 -0.011755223 1.2190001 0.00226203748 0.7739133239 0.633287549
-0.15808053 -0.11178552 1.2880001 -0.1036470458 0.699080348 0.7074913383
0.046833672 0.28703451 1.126 0.6059372425 -0.3461365998 0.7162607908
0.065381795 -0.037051443 1.243 -0.03858989477 0.7764026523 0.629054606
0.30880085 -0.41867232 1.1676668 0.696882844 -0.1191989854 0.7072099447
0.36393526 -0.26489541 1.0930001 0.8946910501 0.06764958054 0.4415330589
-0.20519477 -0.076982282 1.25 0.08474258333 0.6853630543 0.7232538462
0.34774753 -0.40479562 1.1254547 0.7744024992 -0.07769794762 0.6279042959
-0.11524309 -0.078675576 1.2640001 -0.1287870556 0.7204439044 0.6814503074
0.30744702 -0.023570936 1.169 0.2871320248 -0.3241495788 0.9013779759
-0.025534669 -0.19090205 1.3870001 -0.1840735674 0.7402303219 0.6466652751
0.39382058 -0.16494133 1.057 0.7462453246 -0.06695561111 0.6622951627
-0.10508752 -0.15586722 1.3469005 -0.3437457979 0.3310952783 0.8787574768
0.12568256 -0.033642203 1.2435715 -0.05589234084 0.7388555408 0.6715419292
-0.12451096 0.002715196 1.1755456 -0.1221503392 0.7845857143 0.6078688502
-0.02316504 0.070460327 1.1010001 -0.1583943218 0.7695726156 0.6186026335
0.099703297 -0.30849373 1.3380001 0.4872505069 -0.3413788974 0.803770721
-0.18440685 -0.027514672 1.202 0.0267795343 0.6635251641 0.7476745248
0.19270249 -0.28486469 1.3032501 0.5548434258 -0.3373778462 0.7604768276
0.084949002 -0.078153081 1.2920001 -0.01592325605 0.7337853312 0.679194808
-0.29471123 0.19559705 1.5075001 0.7850236893 -0.2113892138 0.5822820663
-0.075815186 0.018041272 1.1561998 -0.03072962165 0.784529984 0.6193289757
0.32274994 -0.12529841 1.1631176 0.8738159537 0.007485065609 0.4861991405
0.25790337 -0.25643173 1.2589999 0.7139622569 -0.1911739111 0.6735803485
0.0049288287 0.085585579 1.0830952 -0.00608502375 0.8168275356 0.5768498182
0.074314743 0.10085145 1.0641112 -0.06142251194 0.8264237642 0.5596883297
-0.26933831 0.15593269 1.47 0.2478739172 -0.4510607421 0.8573813438
0.21468952 0.0020931293 1.1946001 -0.01053462271 0.7636476755 0.6455472708
0.14599234 -0.29617587 1.3280001 0.505423665 -0.2640333772 0.8214823604
0.34312576 -0.21512951 1.1337779 0.9205268025 0.04687562585 0.3878570497
0.089033388 0.14502347 1.0470001 0.446066767 0.006865802221 0.8949733377
-0.055195153 0.087981388 1.07625 0.1143030822 0.6923261285 0.7124741077
0.018092647 0.42677364 1.2140001 0.5969196558 -0.3482855856 0.7227613926
-0.27658102 0.095853269 1.4450001 0.5898600817 -0.4361795187 0.6795678735
0.044967916 -0.143473 1.3570001 -0.01320685446 0.7444136143 0.6675881743
-0.064992286 0.04481924 1.1246156 -0.04750810191 0.764487803 0.6428852081
-0.26190415 -0.066845834 1.25 0.1435359269 0.6224297285 0.7694014907
0.27488968 -0.46428764 1.1880771 0.6230020523 -0.1695985049 0.7636129856
0.086238578 -0.29477474 1.3649999 0.5530388951 -0.3816747069 0.7405892611
0.30016276 -0.34304315 1.1930001 0.7556889057 -0.1564300358 0.6359747648
0.035319146 -0.051874995 1.2590001 -0.02557424642 0.7693524361 0.638312459
-0.017783403 0.0074729263 1.1760001 -0.1734789908 0.7626613975 0.6230992079
0.014475521 -0.16164331 1.3760002 -0.1013493463 0.6993378401 0.7075697184
0.32675055 -0.34558764 1.1570002 0.7309671044 -0.009015227668 0.6823531985
-0.30427611 0.21580815 1.5289999 0.8573120832 -0.2347707301 0.4581470191
0.37446478 -0.36435649 1.0841428 0.7866583467 0.1846082062 0.5891421437
0.14450009 0.028695056 1.1689999 0.08488010615 0.7993999124 0.5947732329
-0.12382916 0.043587863 1.13 0.07557823509 0.6676618457 0.7406184077
-0.11497812 0.021984827 1.153 -0.01823640056 0.7750723362 0.6316093206
0.12511766 0.08217191 1.0913334 0.06007642671 0.8380666375 0.5422500372
-0.024658129 0.11708959 1.0454288 0.04832839966 0.7319201231 0.6796744466
0.30509052 0.28935173 1.381 0.5492736101 -0.6919118762 0.4685685337
0.014158458 0.46722677 1.2423334 0.6454707384 -0.3489138186 0.6794311404
-0.23183304 -0.0087155281 1.1930001 0.2379633337 0.5981011987 0.7652766705
0.11892071 -0.34983471 1.317 0.4484363198 -0.2312774211 0.8633745313
0.32186729 -0.077124752 1.1730001 0.8702293038 -0.2478242218 0.4257747531
0.37471518 -0.3149735 1.0728095 0.9087067246 0.04737630486 0.4147380292
0.23480377 -0.018226776 1.223 0.02258817852 0.7091240883 0.7047218084
0.015917899 -0.11467984 1.3253005 -0.08735293895 0.7165722251 0.6920214295
0.078540564 0.19219339 1.054 0.5864118934 -0.3675917685 0.7218014598
0.21468107 0.051767465 1.1320001 -0.04980633408 0.7907019258 0.6101719141
0.25492615 -0.34535348 1.2341055 0.7121490836 -0.1765971929 0.6794535518
0.19147801 -0.47107947 1.2410001 0.5647475719 -0.2865580618 0.7739151716
-0.18328798 -0.16250572 1.317 -0.03872266784 0.5218159556 0.8521787524
-0.014876449 0.034934293 1.1441668 -0.2041980028 0.7323477864 0.6495921016
0.10858393 0.058240473 1.126 -0.03718959168 0.8208201528 0.5699747205
0.32083195 0.32707119 1.424 0.5709294677 -0.6738688946 0.4689779282
0.14624335 -0.4983311 1.2589999 0.6200706363 -0.2459656447 0.744992137
0.1752862 0.026596118 1.1670002 0.06192872673 0.7817799449 0.6204715371
0.14539933 -0.081788838 1.29575 0.02185873501 0.7367135882 0.6758515239
0.28114 -0.14492966 1.243 0.8799793124 -0.1143381 0.4610457718
0.16493486 0.064333118 1.1146317 0.04838962853 0.8186102509 0.5723073483
0.10466699 -0.097765863 1.312 -0.04300782084 0.7035722136 0.7093211412
0.19800876 -0.22533359 1.3170002 0.6597332954 -0.2266297936 0.7165130377
0.036626253 0.12953188 1.0190001 0.05367696658 0.7531602383 0.6556435227
0.2075 -0.37526593 1.2589999 0.5601671338 -0.1981752217 0.8043254018
0.11421467 0.15543911 1.0239613 0.4590287805 0.03486391902 0.8877370358
0.13441159 0.1021343 1.0639999 0.1455568522 0.9124276042 0.3824776113
0.14540064 -0.42471665 1.2857503 0.5531458259 -0.1834766418 0.8126291037
0.14545855 -0.39505213 1.2958097 0.5297483206 -0.2138330787 0.8207570314
0.22528857 -0.18526363 1.3045001 0.7530498505 -0.1915865988 0.6294525862
-0.28014672 0.069094487 1.4330001 0.6762735844 -0.2668860555 0.6866045594
-0.14223976 -0.12767071 1.312 -0.3839942813 0.6266235113 0.6781528592
0.23375265 -0.41447961 1.2344445 0.4580900073 -0.2528803349 0.8521766663
0.024848241 0.011388777 1.1810001 -0.06645582616 0.7709850669 0.6333763599
0.18540588 -0.33806649 1.2880001 0.4383023083 -0.2875699103 0.8515836
0.040925428 0.42184675 1.197 0.6027028561 -0.3439473808 0.7200343013
0.062914781 -0.22566873 1.4122727 0.6218514442 0.01310898084 0.7830255032
0.22208333 -0.31508306 1.273 0.5734773278 -0.1610640883 0.8032322526
0.074098021 -0.12254126 1.336889 -0.02462595329 0.7081954479 0.7055868506
0.047065601 0.39371511 1.1756667 0.6349147558 -0.3431782722 0.6921791434
-0.057139378 -0.081787743 1.2780001 -0.1233917847 0.7246281505 0.6780033708
0.30276796 0.033150651 1.1764287 0.1431635767 0.5315069556 0.8348680139
0.27463812 -0.23469238 1.2439474 0.7851115465 -0.07592728734 0.6146827936
-0.14630052 -0.16246448 1.317 -0.4229868948 0.1996524781 0.883867085
-0.035360351 -0.1438027 1.3445002 -0.1289592385 0.7288063765 0.6724661589
0.30675951 -0.29523683 1.1885293 0.8045682311 -0.115135245 0.5825923085
0.014445874 0.10213485 1.0600002 0.05588243902 0.8023677468 0.5942080021
0.25363412 -0.1377835 1.2830001 0.7683337927 0.001917725778 0.6400464773
0.26889646 -0.4172653 1.2060002 0.7054428458 -0.1669501215 0.6888237
0.18763298 -0.41720742 1.2590001 0.474991858 -0.3113289177 0.8230777979
-0.2443957 -0.024684766 1.2128947 0.2768829465 0.5778220892 0.7677613497
0.21149583 -0.43175834 1.25 0.5768586397 -0.2913265526 0.7631270885
0.35827589 -0.11574388 1.1066153 0.7324641347 -0.109916836 0.6718739271
-0.17836134 -0.33868614 2.286 -0.06244543195 0.7678700089 0.637554884
0.0053678299 -0.027914122 1.2246001 -0.04634550214 0.8042120337 0.5925327539
-0.045516539 -0.038110454 1.2320002 -0.06968603283 0.7566051483 0.6501480937
0.073016584 0.14181586 1.012625 -0.1791608632 0.602984786 0.7773742676
0.35146531 -0.36721724 1.123 0.8353415132 0.01729478315 0.549459219
0.18563417 -0.0095469002 1.21 0.06231877208 0.7520164251 0.6561918259
-0.044345602 0.031342003 1.1409999 -0.07124149799 0.7363515496 0.6728380322
-0.18585755 -0.11223718 1.2880001 -0.05510313064 0.635887444 0.7698121667
-0.013813158 -0.097746499 1.3033637 -0.1975814849 0.6541157365 0.730132997
0.074736238 -0.35431716 1.3649999 0.7215859294 -0.0251492057 0.6918679476
0.15632345 -0.0016614085 1.2060002 0.0932071209 0.7731742859 0.6273069382
-0.015401948 0.13497916 1.0253103 0.1255578995 0.6388782859 0.7589925528
0.17500834 -0.035781778 1.2421429 0.1047834158 0.7457401156 0.6579453349
0.044971239 -0.10262962 1.3153332 -0.05419870093 0.7060363293 0.7060985565
0.18171635 -0.19941887 1.3460001 0.6660094261 -0.2731052935 0.6941505075
0.10952722 -0.47537073 1.2880001 0.5643230081 -0.1522615254 0.8113913536
0.17884088 0.078764118 1.057 0.3516145051 0.8587829471 0.3726380169
-0.13153507 -0.027579933 1.21 -0.1734957695 0.7310687304 0.6598770618
-0.044643372 -0.1216147 1.317 -0.08421412855 0.7275231481 0.6808950305
0.34315264 -0.064604901 1.1320952 0.7775048018 -0.4066415429 0.4797176123
-0.20430191 -0.011465923 1.189 0.1945846826 0.6253104806 0.7557271719
0.16488196 -0.37345198 1.2919999 0.4500222206 -0.2666589916 0.8522751927
0.28389031 -0.25474161 1.2250952 0.7891068459 -0.1617007554 0.592590332
0.29166993 0.23913069 1.322 0.9160353541 -0.3664216697 0.1631392837
0.23495072 -0.23482816 1.2843891 0.5766470432 -0.1709480733 0.7989085913
0.034457386 0.060054295 1.123 -0.01519214083 0.8027974963 0.5960581899
0.11751366 -0.24689738 1.3540001 0.3211140931 -0.4478679299 0.8344459534
-0.40773854 -0.067681298 1.8830001 -0.08890648186 0.7819268703 0.6169975996
0.32061014 -0.39592808 1.161 0.7139303684 -0.1017150879 0.6927896142
-0.24440327 0.030398417 1.3870001 0.7114348412 -0.2729907036 0.6475619674
0.3047674 -0.4447113 1.1659092 0.6593946815 -0.1269037724 0.7410088181
0.024648361 -0.07058394 1.2780001 -0.09146814793 0.7249110341 0.6827427149
0.16504964 -0.06492845 1.2768888 0.09335515648 0.7435933948 0.6620827913
0.1149231 0.02174221 1.1810001 -0.04955922812 0.7842570543 0.6184535027
0.12462548 -0.38581976 1.3122382 0.5651466846 -0.1689440161 0.8075067401
0.084703997 0.085897453 1.0830526 -0.04000546411 0.8278285265 0.5595529675
-0.1246357 -0.18873405 1.3540001 -0.2712546289 0.4489486814 0.8513906598
0.26241982 -0.195329 1.2640001 0.7621110082 -0.09431458265 0.6405400634
-0.0108093 -0.1585364 1.3700001 -0.1923962086 0.7013931274 0.6863172054
0.33732384 -0.31481466 1.1477501 0.8315025568 -0.004247292411 0.5555046797
0.28726622 -0.28659612 1.2148422 0.7313454151 -0.1368642598 0.6681332588
0.0152803 -0.040383648 1.245 -0.03254216164 0.7993824482 0.599940598
0.068965614 0.29043266 1.108 0.6298677325 -0.3474910259 0.6946341395
-0.094610795 0.077079795 1.0945333 0.2046775222 0.5786175728 0.789499104
0.13550933 0.047173604 1.1450001 0.06075009331 0.8334479332 0.5492485166
0.29920459 -0.098325178 1.2060001 0.8863968253 -0.04563557729 0.4606712759
0.33583295 -0.1851165 1.1461431 0.9012227058 0.06090639159 0.4290548861
0.12362315 -0.30022764 1.3430001 0.2565449774 -0.3369045854 0.9059138894
0.085712165 0.044710666 1.1454707 -0.06235435978 0.8179785609 0.5718593001
0.033090662 -0.18016024 1.3980001 -0.07435422391 0.7714615464 0.6319165826
0.15668488 -0.21959624 1.3540001 0.6249408722 -0.2819980085 0.7279601693
0.29492569 -0.40535751 1.1845998 0.6486545801 -0.1585296243 0.7443894148
0.30380711 -0.16447581 1.1950001 0.8965729475 -0.005597439129 0.4428607225
0.40190941 -0.27459133 1.034889 0.6764740944 -0.1396857947 0.72309798
-0.15064465 0.038908221 1.138 0.3320373297 0.5701076984 0.7514841557
0.16217633 -0.095465496 1.312 0.01130732894 0.7103898525 0.7037175298
0.20491725 0.017503118 1.1746002 0.002147607272 0.7786792517 0.6274185181
0.13561307 0.10712516 1.0326668 0.299932003 0.7586382031 0.5783674121
0.21324719 -0.045166336 1.2425386 0.1721052974 0.6984040141 0.6947025657
0.092854083 -0.39575118 1.3340001 0.5922796726 -0.1070055589 0.7985954285
0.26384488 0.077983007 1.126 -0.4628016651 0.07799791545 0.8830237389
0.062076591 0.34212917 1.1458 0.6386411786 -0.2670239806 0.7216894031
0.0041694269 -0.0010423567 1.189 -0.088295497 0.767749846 0.6346369386
-0.004823559 0.05502066 1.1239474 -0.168680951 0.7747270465 0.6093806028
0.064257912 0.23880926 1.0940001 0.6135369539 -0.3332380056 0.7159084082
0.25773811 -0.29515928 1.245 0.7493886948 -0.1861992478 0.635410428
0.34503147 -0.095623732 1.1244999 0.7866051197 -0.06762004644 0.6137425303
0.28267065 0.17142998 1.2260001 0.6915137172 -0.6101490855 0.3866869807
0.10456933 -0.43488151 1.3146088 0.6222119927 -0.1452056915 0.7692642808
0.073393531 -0.27457199 1.3920001 0.7002565861 -0.400728941 0.5908104777
0.1640515 -0.43523869 1.2729999 0.5491636395 -0.3255307078 0.7697070837
0.18786265 -0.38795304 1.268 0.4877479374 -0.2349524051 0.840773046
-0.095068082 0.053888664 1.1161199 0.1297823638 0.7004216909 0.7018304467
-0.064926811 0.0052978219 1.1755716 -0.05937040597 0.8134207726 0.578637898
0.32422251 -0.29417455 1.1641724 0.7738721371 -0.04075669125 0.6320291162
0.048378851 -0.20467974 1.4150001 0.6931490898 0.5671877265 0.4447947741
0.073337555 -0.31574464 1.3649999 0.6951029301 -0.1491340101 0.7032716274
-0.17492042 -0.072906636 1.244077 -0.04920892417 0.7460078597 0.6641165018
0.38733098 -0.2253644 1.0528948 0.6778076291 -0.1319057792 0.7233102322
0.29250562 -0.19542612 1.2229999 0.8211135268 0.003546651686 0.570753932
0.087973498 -0.35775891 1.3380001 0.7377380729 -0.07256643474 0.6711755991
-0.070860967 -0.18255706 1.3700001 -0.4119502008 0.6305605173 0.657792151
0.1840059 0.079180241 1.097 0.005261753686 0.786085844 0.6180949211
0.09160684 0.2128253 1.0555 0.5938591361 -0.3290121257 0.7342222929
0.31834322 -0.18513952 1.1757693 0.8551496267 0.08585304767 0.5112224817
-0.14071815 0.0727835 1.107 0.2177090645 0.5663311481 0.794903636
0.18546234 0.05180262 1.1340001 0.03386791795 0.8339980841 0.5507268906
0.35871536 -0.17887682 1.097 0.8277619481 -0.05279760435 0.5585898161
0.32289565 -0.22520426 1.1730002 0.8155532479 0.02284150198 0.5782310963
0.25257105 -0.42472985 1.2230002 0.5500766635 -0.1987560391 0.8111175895
-0.29134089 0.1475956 1.4640001 0.2648636997 -0.4148176014 0.8705019355
0.053450018 -0.3131341 1.3920001 0.6685134172 -0.1725643277 0.723402679
0.075346395 0.065857083 1.116154 -0.05076315999 0.8408601284 0.5388667583
0.21033074 -0.29356322 1.2830001 0.6189083457 -0.2852899134 0.7318211198
-0.13784005 -0.091152295 1.268 -0.2372651845 0.70289886 0.6705508232
0.18419008 -0.24462087 1.3255999 0.5879848003 -0.3216097653 0.7421866655
0.16256621 -0.24502899 1.3437501 0.6130096316 -0.2777349651 0.7396502495
0.17760512 -0.30631769 1.2970001 0.4991655052 -0.3045780063 0.8112127185
0.0055909418 0.4987098 1.2755001 0.6454707384 -0.3489138186 0.6794311404
-0.26406881 0.061988369 1.4141668 0.6526607275 -0.2205826044 0.7248291373
0.31210837 -0.35491112 1.1744287 0.7401368618 -0.05966487899 0.6698040962
-0.075856477 0.10120442 1.0709001 0.2314729393 0.6121431589 0.7561091185
-0.17206512 -0.33819696 2.256 -0.06244543195 0.7678700089 0.637554884
0.27267444 -0.17516515 1.2550001 0.8545840383 -0.05236851051 0.5166659355
0.12499162 -0.058403824 1.2729999 -0.0008550541825 0.7537426949 0.6571691036
0.36855721 -0.29498214 1.0859286 0.9060396552 0.01086516585 0.4230532348
0.34344068 -0.26445204 1.1330477 0.9234025478 0.03625094518 0.382117331
-0.045019548 0.07301987 1.0926192 -0.003259728663 0.7669647336 0.6416809559
-0.11201958 -0.17653351 1.3380001 -0.4013077915 0.04841787741 0.9146626592
-0.0111249 -0.1940677 1.4100001 -0.2286132574 0.7707241178 0.5947438478
0.066414073 -0.15257287 1.365 0.05220617354 0.6953395009 0.7167826891
-0.064237751 -0.048180941 1.2420001 -0.07639399916 0.7277860641 0.6815360785
-0.064262934 -0.097272627 1.2942727 -0.1343921721 0.6960232854 0.7053299546
-0.13318266 -0.1462955 1.335 -0.5424576402 0.3112039566 0.7803152204
0.2251543 -0.47228795 1.223 0.4671566188 -0.2787862122 0.8390726447
0.2441524 -0.17380595 1.2942727 0.6051706672 -0.2387824208 0.7594415545
-0.04540538 -0.023914497 1.213421 -0.04282245412 0.7919583321 0.6090716124
0.14521866 -0.33472976 1.3130528 0.4576451182 -0.2216802537 0.8610568047
0.026755866 0.081223167 1.09 -0.02112628706 0.8309652209 0.5559231043
0.10470011 -0.3341403 1.3333572 0.4770308733 -0.1952423006 0.8569259048
0.065398656 0.036951862 1.1539412 -0.1026463434 0.7919320464 0.6019197106
-0.11467627 -0.014905673 1.1952224 -0.1025138944 0.733281076 0.6721530557
0.26329029 0.015947664 1.1737502 -0.2192372084 0.7438360453 0.6313818097
0.3551273 -0.32513711 1.1157082 0.8823381066 0.0004554926418 0.4706158042
0.10706925 -0.40548986 1.3154616 0.6300326586 -0.1337805688 0.7649585605
-0.015678171 -0.054498322 1.2567693 -0.1284319311 0.7422288656 0.6577245593
-0.094658956 -0.041951131 1.2270001 -0.1103798226 0.7259231806 0.6788606644
-0.047216389 -0.17796947 1.381 -0.04255669937 0.6923140287 0.7203403711
0.38788554 -0.29343918 1.046 0.8228896856 -0.03428762779 0.5671656728
-0.19379008 0.024966592 1.1637371 0.2748491466 0.4871166646 0.8289603591
0.23838057 0.097118013 1.1190001 0.3220455945 -0.8202394843 0.4727513194
-0.013360984 -0.13717175 1.3450001 -0.2380503267 0.6966690421 0.6767453551
0.16547348 -0.295064 1.3158889 0.5353435278 -0.2928237319 0.7922509313
0.31335363 0.0048729512 1.1828001 0.3821827471 0.08104269952 0.9205261469
0.26230675 0.045012672 1.1475002 -0.3091157377 0.6262063384 0.7157604694
0.034495018 0.37614524 1.1828667 0.6637942195 -0.3111640215 0.6801133156
-0.1144715 -0.11552848 1.3027693 -0.1132979542 0.7013577819 0.7037477493
0.23789665 0.091344282 1.1450001 -0.4363884032 -0.01393664815 0.8996504545
-0.085762545 -0.12864383 1.322 -0.08088580519 0.7580580711 0.6471518278
-0.19521508 -0.043520551 1.2149285 0.05011359975 0.6561251879 0.7529863119
0.26232761 -0.37471181 1.2240909 0.6591699123 -0.1956543326 0.7260953188
0.12575191 -0.091377817 1.307 -0.01291700825 0.7084018588 0.7056910992
0.015649326 0.13747472 1.0168333 0.1183098927 0.6826493144 0.7211052179
0.22669435 -0.38521519 1.2432224 0.5164384246 -0.278403908 0.8098040223
-0.09484832 -0.10049405 1.2880001 -0.1153574139 0.7214620709 0.682777524
0.37082997 -0.1953564 1.08 0.7905166745 -0.0304856468 0.6116812825
-0.15546338 -0.0025795915 1.177 0.03994768485 0.7157099247 0.6972542405
-0.19492917 -0.14140926 1.302 0.06376416236 0.4152377546 0.9074754715
0.094617695 -0.064244501 1.2750589 -0.0399473682 0.7673005462 0.640042305
-0.08650171 -0.015852388 1.2054287 -0.08970484138 0.802004993 0.5905430317
