# .PCD v0.7 - Point Cloud Data file format
VERSION 0.7
FIELDS x y z normal_x normal_y normal_z
SIZE 4 4 4 4 4 4
TYPE F F F F F F
COUNT 1 1 1 1 1 1
WIDTH 512
HEIGHT 1
VIEWPOINT 0 0 0 1 0 0 0
POINTS 512
DATA ascii
-0.04457061 0.25586832 1.8830003 -0.06522171944 -0.3167494833 0.9462641478
-0.45256338 -0.36623627 2.9840002 -0.03480358049 0.8368589282 0.5463111401
0.498456 -0.4970656 1.5860001 0.85327667 -0.3237188458 0.4088093042
-0.49808693 -0.46537673 1.6960001 0.193054691 -0.4962981343 -0.8464148045
-0.45295349 0.018786089 2.381 -0.06579043716 0.8366426826 0.5437836051
0.4957366 0.1853282 2.2410002 0.09838759899 -0.7965380549 -0.5965291262
0.24805108 0.030398417 1.3870001 0.3680904806 -0.5331702828 0.7617340684
0.069226861 -0.31236508 1.9260001 0.8512806296 -0.08238081634 0.5182033777
0.36999452 0.42492822 1.8430001 -0.5773125887 0.5270022154 -0.6236817241
-0.21075505 -0.082209416 1.705 0.5164551139 0.6463620067 0.5616852045
0.47303617 0.033458859 1.7350001 -0.7275566459 -0.5116376877 0.4570428431
-0.28428546 -0.17386054 2.6800001 -0.01064342819 0.8392162323 0.5436936617
-0.4900409 0.20949703 2.0780001 -0.09725870937 0.8841561675 0.4569558501
-0.04456681 0.16265878 1.5250001 0.6085242033 -0.4510368407 0.6528890133
0.13469282 -0.016256031 1.766 -0.2211054862 0.7484385967 0.6252616048
0.051271848 0.49660447 1.6710001 0.5562220812 -0.4846449494 -0.6750824451
0.30402535 -0.27712044 1.7050002 0.4421094954 0.003353125649 0.8969548345
-0.20617972 0.15607998 2.1980002 -0.1698764414 0.8638054132 0.4743229151
0.28576264 0.34475881 2.1030002 0.4332399666 -0.8993894458 -0.05832418054
-0.04883384 -0.29152322 1.6880001 0.2330339104 -0.7033894062 -0.6715195775
0.20401436 -0.49184856 1.8040001 0.8739429116 0.4420798719 0.2019632906
-0.22560667 -0.26450437 2.9580002 -0.3982708454 0.8037356138 0.4420287311
0.30183983 0.12716401 1.5940001 -0.8691452742 0.0411119014 0.4928451478
-0.26206023 0.33884218 1.904 0.8693832159 0.09419952333 0.4850765169
0.49583817 -0.17537479 1.6240004 0.3202589154 0.1058568954 0.9413971305
0.18681328 0.2924034 1.853 -0.3438035548 0.01514422428 -0.9389194846
0.15636401 0.21260394 1.4580001 0.06098425016 -0.4313338697 0.900128901
-0.014864104 -0.14582889 1.8330001 -0.5072568059 0.6286524534 0.5894799232
0.41175807 -0.047908958 1.4770001 -0.3731597364 0.5022477508 0.7800634503
0.17391138 -0.13338834 1.9260004 0.3971365094 0.2149041444 0.8922436833
-0.034017589 0.014093 1.6630001 -0.2805256844 0.8277465105 0.4859434664
0.32235909 -0.095455848 1.785 0.4270913601 -0.2269967198 0.8752516508
0.39383021 -0.45819157 1.748 0.6685548425 0.2511010766 0.6999875903
-0.37201086 -0.073511131 2.5410001 -0.043205861 0.8414717913 0.5385707617
0.066602997 0.45484972 1.853 -0.9998366833 0.01166988537 0.01380098052
0.12512343 0.0829423 1.6036668 -0.2051245272 0.8226953149 0.5301852226
-0.22407074 0.28236556 2.0780001 -0.3979819119 0.8285586834 0.3938284516
0.45548356 -0.34053501 1.6390001 -0.1553030312 0.7400345206 0.6543927789
0.21165626 -0.28436261 1.8430001 0.6713402271 -0.04438186064 0.7398192883
-0.1810571 0.053334646 1.6010001 0.6681268215 0.1449682117 0.7297881842
-0.35340098 -0.28823486 2.8590002 -0.04492282122 0.8470032215 0.5296862125
0.032982245 0.34756413 1.7363334 -0.06234489754 -0.895940423 -0.4397771358
0.38787764 0.39311925 1.9930001 0.2893172204 -0.9262982607 -0.2413858473
0.0047445199 -0.36216506 1.8040003 0.3096981049 -0.6599080563 -0.6845498085
-0.091454744 0.26316568 2.1290002 0.01159234159 0.9689920545 0.2468197346
-0.0070694401 0.29338175 2.016 -0.2094290406 -0.9470740557 0.24329032
-0.17017853 -0.21753256 1.6880001 -0.8920679092 0.1253376901 -0.4341720045
0.25260711 0.034378484 1.705 -0.2196995765 0.7517105937 0.6218225956
0.41188252 0.029621691 1.6090001 -0.7680465579 -0.6171924472 0.1708155125
0.26680735 -0.40646824 1.7130002 0.4956596196 0.02084208094 0.8682667613
0.18582441 0.33170524 1.9810001 -0.3674969673 -0.8997772336 0.2352591604
0.38310567 -0.17197628 1.6960001 0.6995100975 -0.6772668958 0.228024438
0.13449293 -0.42672452 1.8940001 0.8059136271 0.4256679714 0.411473006
-0.32551071 0.039393015 2.365 -0.1503439099 0.8146041632 0.5601934791
0.05600848 -0.18414909 1.9360001 -0.3295023441 0.8272853494 0.4550023675
-0.087914176 -0.083340608 1.7390002 -0.4678819478 0.5735008717 0.6724457145
-0.17167938 0.24926527 1.8830001 -0.03944563121 0.1555449218 0.9870409369
0.074230514 0.12878864 1.4960001 -0.0632198751 0.7489811182 0.6595684886
0.30205286 0.32442716 1.8230001 0.05989766121 -0.6505115032 -0.7571308017
0.068026699 0.27585635 1.8330001 -0.1497579515 -0.6461575627 -0.7483668923
0.4860459 -0.056584448 1.655 0.6108713746 0.2105700821 0.7632145286
0.22693917 -0.16620898 1.8230001 0.6981142759 -0.1933429986 0.6893873811
0.20618737 0.12264431 1.523 -0.1254731566 0.7640235424 0.6328700185
0.095787726 -0.094402857 1.8430002 -0.194740355 0.7638857365 0.6152680516
0.49470824 -0.39910513 1.7310001 -0.2289683819 0.3321129084 0.9150270224
0.021564247 -0.05083001 1.7570001 -0.1280828118 0.8340573311 0.5366033316
0.0065514394 0.072045892 1.572875 -0.2818391621 0.8307525516 0.4800176322
0.21488766 -0.054610543 1.8430001 -0.02945991792 0.8300374746 0.5569289923
-0.46251968 -0.30076417 2.8830001 -0.04324126616 0.8553595543 0.5162269473
0.40765086 -0.2440263 1.6090001 0.65749228 0.2196349651 0.7207387686
0.30513367 -0.053486116 1.4336668 0.08250428736 0.7536056042 0.6521285176
0.18086509 -0.38374853 1.794 0.8811956048 -0.3050264716 0.3611830175
-0.12440864 -0.143797 1.8430001 0.3279209733 0.8567501903 0.3980540037
0.3220461 -0.20499535 1.7850001 0.4179269373 -0.05031576753 0.9070861936
0.076585598 0.022092 1.6800001 -0.09834144264 0.8917307854 0.4417523742
0.35485202 -0.36126679 1.6630001 0.5044370294 0.2198492587 0.8349907398
-0.13558438 -0.024784241 1.6630001 -0.2394573838 0.7655665278 0.5971331596
0.13371183 -0.22615457 1.8830003 0.3281261623 -0.2685372531 0.9056605101
0.29575577 -0.49803433 1.748 -0.1596309841 0.581191659 0.7979562283
-0.31540802 -0.22494215 2.789 0.2805949748 0.7571541071 0.5899018049
0.31058109 0.38612783 1.9150001 -0.7585172653 0.5456309915 -0.3562841713
-0.093636945 0.076711312 1.557 0.3445515633 0.5317211747 0.7736645341
0.025458399 0.41582054 1.9360001 0.8422966003 -0.3545044363 0.4060333371
0.46318159 -0.49869713 1.6880001 0.1849177778 -0.9012202621 0.3919278681
0.36476257 0.11865771 1.6710001 -0.6220060587 -0.2654265761 0.7366526723
0.37793538 0.026029989 1.7130002 -0.443513751 0.675779283 0.5887426138
-0.3639096 -0.33624899 2.9580002 -0.01988535561 0.8450983763 0.5342408419
0.22242086 0.077918135 1.6160001 0.1342827678 0.948214829 0.2878484726
0.13514978 -0.33440381 1.863 0.4072108865 -0.1423428208 0.9021739364
0.24336793 -0.32346371 1.7570001 0.7295070291 -0.441940248 0.5220232606
0.27384874 -0.015648501 1.785 -0.1692853123 0.8817811608 0.4402323067
-0.14058226 -0.30336174 1.6880001 0.2169866115 -0.74360919 -0.6324256063
0.16394807 0.044577621 1.6810001 -0.06738065183 0.8714636564 0.4858096242
0.053029738 0.40636605 1.6710001 -0.6157019734 -0.5693782568 -0.544719696
0.32041904 0.04741627 1.6390001 -0.3237934113 0.7656556368 0.5558140278
0.047458351 -0.24080718 2.0050001 0.7942147255 0.3100720644 0.5225689411
-0.22198515 -0.0043526501 1.6550001 0.5672239065 0.3436304629 0.7484484911
0.49768716 -0.26419929 1.6240003 -0.8058428168 -0.2137788236 0.5521919727
0.37593308 -0.087600917 1.7129999 0.8478253484 0.1145415157 0.5177571774
-0.25513104 0.11668784 2.256 -0.167572692 0.8415653706 0.5135047436
0.42429146 -0.11550961 1.647 0.5976858139 0.1791035086 0.7814688683
0.49895525 -0.42870271 1.6355001 0.9220553637 -0.2909875512 0.2552257776
-0.062382288 -0.3427175 1.7570001 0.33158952 -0.7308381796 -0.5965936184
-0.16410848 -0.1145663 1.766 -0.04218358546 0.8518491983 0.5220856667
-0.10776425 -0.24282877 1.6390001 0.4169044495 -0.2044098973 -0.8856676817
0.02360688 0.19410101 1.4960001 0.4727722108 -0.6047440171 0.6409143209
0.41680706 -0.39599147 1.6960001 -0.08999954909 0.6719421148 0.7351148725
-0.47327814 0.058905862 2.3170002 -0.1590978801 0.8122538328 0.5611876845
-0.093973994 0.022194862 1.6160001 -0.09533047676 0.813565433 0.573605597
0.35343581 -0.23430482 1.6630001 0.7889241576 -0.02572152019 0.6139519811
0.05331799 -0.31829223 1.8430001 0.892683506 0.3464838564 -0.2882101238
-0.22363444 0.29511085 1.853 0.6383551955 0.1561552435 0.7537361383
-0.13474016 0.12210827 1.6010001 0.6472398639 -0.4038712382 0.646504879
0.27365676 -0.26579306 1.794 0.7724301815 -0.5656915307 0.2886948884
0.42775372 -0.01318419 1.6710001 0.7350527644 0.4914993346 0.4670394361
0.33830419 -0.43396607 1.705 0.037756484 0.6689372063 0.7423593998
0.22562945 -0.46193057 1.7390001 0.2804912925 0.09459901601 0.9551835656
0.20585419 -0.0025540222 1.748 0.08318422735 0.803593874 0.5893362761
0.14557904 0.1455764 1.4860001 0.08534498513 0.751737535 0.6539165974
-0.032861851 -0.095455848 1.7850002 -0.5405956507 0.5679575205 0.6206291914
0.044333909 -0.13847505 1.8730001 -0.413720727 0.6778991818 0.6076906323
0.077064261 0.33499363 1.794 0.5933966637 -0.621995151 -0.5108839273
0.084707037 0.2117676 1.4640001 0.2470593601 -0.2369371355 0.9395863414
0.054955076 0.062358357 1.6240002 -0.09678052366 0.8290698528 0.5507056713
0.35386649 -0.49331608 1.794 -0.09993171692 0.9355956316 0.3386362493
0.31362224 0.00244064 1.3920001 -0.3838094473 0.2149589062 0.8980439901
0.0051445724 0.11597337 1.5089999 -0.02156142332 0.6739050746 0.7385032177
0.15948758 -0.48853564 1.9150001 0.8150981069 0.4519036412 0.3624888361
-0.04655363 -0.033038061 1.7130002 -0.08523697406 0.8059267998 0.5858469605
0.21838556 -0.11822376 1.8730001 0.8368200064 -0.3244229257 0.4410011172
0.26461017 -0.10433723 1.8230001 0.7314873934 -0.3657612801 0.5754519105
0.21984608 0.074119538 1.4330001 0.5127617717 -0.1209550053 0.8499678373
0.0015324133 -0.31720957 1.748 0.2543888092 -0.6998268962 -0.6674793363
0.10849626 -0.13854139 1.904 -0.3554984331 0.663789928 0.6580302715
0.38551888 -0.30463627 1.6378335 0.7128973603 0.1706446707 0.6801894903
0.34885928 -0.075838976 1.4830002 -0.1185981631 0.8200907111 0.5598086119
0.15258208 -0.063575864 1.8130001 -0.2130489051 0.7531636953 0.6223781705
0.35267597 0.36690956 1.8040001 0.1381146312 -0.4610371888 -0.8765666485
0.42523241 0.072854504 1.6960001 -0.3827190399 0.824229598 0.4173387885
0.39721414 -0.17796333 1.6240001 0.54398036 -0.4475206733 0.7097961903
-0.0049812198 -0.18098432 1.8940001 -0.2992669642 0.8316917419 0.4676837921
0.015587759 -0.0061923978 1.705 -0.2000650465 0.7383381128 0.6440736055
0.12354629 0.11317562 1.5430001 -0.06192070991 0.9465696812 0.316499114
0.29445919 -0.34527957 1.705 0.1259682775 -0.3972135186 0.909039855
0.08273454 -0.2448267 1.9260001 0.7981299758 -0.3586265743 0.4841234684
0.15598968 -0.094414808 1.8730001 -0.1373296976 0.8259631395 0.5467407703
0.1719415 -0.43708497 1.8330001 0.8966001868 0.2772473693 0.3453143835
0.1949356 -0.21605365 1.8530002 0.6134607196 -0.1889525056 0.7667874098
0.074396744 -0.014330517 1.7390001 -0.2059168667 0.747119844 0.6319890618
0.34440991 -0.14519617 1.748 0.618150115 -0.06558817625 0.7833189964
0.034739669 -0.082421564 1.813 -0.2298001945 0.7369040847 0.6357390881
-0.10615995 0.26621649 1.863 0.1398397237 0.3296065032 0.9337046742
-0.25932589 0.30397803 1.9590001 0.9710881114 0.08802838624 0.2218984365
0.00265104 0.45450607 1.6800001 -0.7772791386 -0.03972388431 -0.6279006004
0.33136162 -0.21512084 1.7220001 0.7835955024 -0.5724493265 0.2414121479
-0.074330807 -0.14075409 1.8040003 -0.04957779869 0.7768927217 0.6276780963
0.06627015 0.091864146 1.5640001 -0.2320901155 0.896859467 0.3765331805
0.24986053 -0.030771 1.404 0.08786351979 0.6982008815 0.7104896307
0.28323784 -0.15492015 1.7850001 0.6103941798 0.04285632074 0.7909376025
-0.14506713 -0.075386845 1.7130001 -0.2222957462 0.7212468386 0.6560392976
0.20281509 0.1722628 1.483 -0.6041846871 -0.07006648183 0.7937578559
0.36808515 -0.036431637 1.4330001 -0.4672023654 0.6006376147 0.6488115191
0.24332392 0.32669386 1.8430001 -0.2053934783 0.3081467748 -0.9289020896
0.1954993 -0.34414339 1.8430001 0.8260816336 -0.4173263013 0.3787187338
0.086513855 -0.053875547 1.785 -0.1444409788 0.7663290501 0.626000464
0.32655802 -0.04847762 1.8230001 0.3662132323 -0.385538578 0.8469048738
0.49562788 -0.37257543 1.6710001 0.7487272024 0.4729284346 0.4644849598
0.10152195 -0.28475669 1.8830001 0.5270254612 -0.09577728063 0.844435215
0.21913511 -0.38616815 1.748 0.6242985129 -0.3170432448 0.7139572501
-0.32465422 -0.18381158 2.723 0.003688572906 0.8359859586 0.5487384796
0.38448405 0.056100819 1.6550001 0.5928474069 0.6193076968 0.5147716999
0.12464359 0.01051211 1.7129999 -0.2470898479 0.8157448173 0.5229789615
-0.086379722 0.14670841 1.5640001 0.6661550403 -0.4282968938 0.6105728745
0.44478318 -0.29476064 1.6028461 0.4072452486 0.4114540517 0.815387547
0.17364311 0.10060276 1.572 0.1683952659 0.9356151819 0.3102696836
0.15432402 -0.27453429 1.853 0.05248904228 -0.03725875914 0.9979261756
-0.045326822 0.048107609 1.5860001 -0.180754751 0.8197372556 0.5434689522
0.10571256 -0.37580538 1.8940001 0.759113729 0.2385597676 0.605669558
0.24360575 -0.22534105 1.8230001 0.4584639966 0.03562958166 0.8879984617
0.46274737 -0.44386849 1.7130002 -0.5940873027 -0.005335540045 0.8043828607
-0.035683841 0.085843191 1.5360001 0.05949172378 0.6477540731 0.7595231533
0.44542122 -0.17555688 1.655 -0.236477986 -0.3515463471 0.9058108926
-0.3773033 -0.30592161 2.9080002 -0.02029515989 0.8547461033 0.5186493993
-0.17555688 -0.26406077 1.6550001 -0.03164131194 -0.4896520376 -0.8713436127
0.40805766 -0.49325651 1.705 0.6841793656 -0.2810703814 0.6729769707
0.021868451 0.032073729 1.6630001 -0.02941942401 0.8181103468 0.5743082166
0.037362657 -0.37200209 1.853 0.9571129084 -0.1447161138 -0.250982374
0.18128853 -0.49486867 1.863 0.7556915283 0.3469339013 0.5554882884
0.11608163 -0.1937508 1.9260004 0.5258339047 -0.5678226948 0.6333056688
-0.1660042 0.0039863782 1.6240003 0.03799102455 0.6156426072 0.7871091962
0.17268229 -0.18430513 1.8940001 0.5773722529 -0.4578405023 0.6760350466
0.18761368 -0.44295514 1.7760001 0.8807982206 0.1623673439 0.4447824061
0.46123099 -0.46985212 1.6390001 0.8438642025 -0.3842119575 0.3745321631
0.45419186 -0.21505406 1.6159999 -0.5875502825 -0.6076118946 0.5344085693
0.15564544 -0.38399723 1.8430001 0.3844668269 -0.03735274449 0.922382772
0.19501974 -0.034600276 1.794 -0.1838696003 0.8090600371 0.5582238436
0.01952249 0.39495498 1.7130001 -0.1743393689 -0.6331520081 -0.7541381717
0.39483279 -0.094766788 1.5051179 -0.1775509268 0.7250107527 0.66545856
0.075546749 0.41466773 1.9150001 -0.8775704503 0.1365271658 -0.4595981836
-0.21385056 0.32247305 1.9360001 -0.5476531982 0.8361699581 -0.02993049659
0.40630499 -0.36356646 1.6470001 0.1085570753 0.5309104323 0.8404459953
0.34218049 -0.30585146 1.6800002 0.6583624482 -0.01299604028 0.7525888681
-0.084193528 -0.0054671126 1.6630001 -0.3228916228 0.7865148187 0.5264365673
0.11647218 0.052460607 1.6470002 -0.1395366192 0.8329061866 0.5355341434
-0.18573605 -0.043445319 1.6630001 0.04709695652 0.6997320652 0.7128512263
0.21431081 0.053942177 1.6630001 -0.0774890855 0.8353602886 0.5442137718
0.26889908 0.14605179 1.557 -0.6883757114 0.2266065478 0.6890488863
-0.24536848 0.28876698 1.904 0.9106408358 0.2497710884 0.3291620016
0.29269093 -0.24825096 1.748 0.7843452692 -0.6124427915 0.0985711813
0.27478504 -0.049814831 1.8330001 0.223454237 0.5963682532 0.7709819078
-0.059780777 -0.17287955 1.8430001 -0.07314074039 0.7947798967 0.6024743319
0.35450295 0.098235756 1.6240001 -0.7649695873 -0.4171985686 0.4906800091
0.47421724 -0.12651475 1.6362002 0.4495818019 0.4292510748 0.7833388448
-0.10338458 -0.045588855 1.705 -0.3953936696 0.5966898203 0.6983016133
0.28431174 -0.45489883 1.7220001 0.3409836292 0.4333173335 0.8342459202
0.22299244 -0.32104585 1.8040001 0.785961628 -0.5819638968 0.2087637931
-0.12708195 0.046995293 1.5860001 0.1181301326 0.599955976 0.7912635803
-0.0085422397 0.044134907 1.6240001 -0.3748232722 0.8638936877 0.3364449143
0.29614764 0.077194884 1.6010001 -0.3249005079 0.5992118716 0.7316999435
0.10447202 0.16530707 1.464 0.05309343711 0.5448413491 0.8368566036
0.32675734 0.40885717 1.8730001 -0.8030800223 0.561037302 -0.2007477432
0.31815988 -0.38623127 1.6880001 0.3780019581 0.05644289777 0.9240826368
0.14757456 0.2332205 1.503 -0.3502314091 -0.7458299398 0.5666353703
-0.11625301 -0.12559478 1.7760001 -0.2283786982 0.7895169854 0.5696543455
0.0049522901 0.26247138 1.8830001 -0.1894363314 -0.3260379732 0.9261820316
-0.095219158 -0.2788212 1.6710001 -0.01484532561 -0.6016564369 -0.798617065
0.27288967 0.0045735701 1.739 -0.1862729937 0.7958418727 0.5761406422
0.17597856 0.071740389 1.6320001 -0.07390226424 0.7976003885 0.5986418724
0.077585876 -0.33675569 1.8830001 0.530826807 0.03337536007 0.8468229175
-0.37408417 -0.37670016 2.9840002 -0.02671234123 0.8430146575 0.5372269154
0.39551201 -0.12542996 1.6872 0.7857299447 0.1158965304 0.6076154113
0.30844551 0.37556839 1.8230001 -0.1524336785 0.3148906231 -0.9368072748
-0.22495353 0.34552303 1.8730001 0.1062747911 -0.1825461388 0.9774367213
0.054140359 0.16500306 1.4704374 0.2315228134 0.2697741985 0.9346759319
0.47281086 0.0044604801 1.6960001 -0.6342766285 -0.6382859349 0.4362158477
0.20477617 0.028399616 1.705 0.1635731906 0.796790421 0.5816947818
-0.072114773 0.117153 1.529 0.5365368724 0.07736219466 0.840323329
0.22395356 0.28778306 1.883 -0.4451401234 -0.3162342906 -0.8377625942
0.42655969 0.031919435 1.6550001 -0.5408851504 -0.2545884848 0.8016408086
0.027632533 -0.2020629 1.9700001 0.0180553887 0.8285678625 0.5595974326
0.49502912 -0.31475842 1.6320001 -0.4696564078 0.5409393311 0.6977158785
-0.080009863 -0.31551057 1.7220001 0.324154675 -0.7594482303 -0.5640586615
0.34348765 -0.06315244 1.7570001 0.7187704444 -0.22906968 0.656426847
0.46540481 0.20749298 2.2120001 0.09838759899 -0.7965380549 -0.5965291262
-0.13783392 -0.20747632 1.6550001 -0.439945668 0.429746449 -0.7885212898
-0.026051026 -0.056699295 1.7479999 -0.3443955481 0.7026690245 0.6226137877
-0.19094677 0.29057115 1.8940001 -0.618373096 -0.5593058467 0.5520794392
0.20252053 -0.16495623 1.863 0.655813992 -0.3210789561 0.6832395792
0.36328015 0.37394741 2.0280001 0.3003286421 -0.9262869954 -0.22758542
-0.014881065 0.15324888 1.4890001 0.3043012321 -0.1385605633 0.9424445629
0.3652544 -0.40502 1.6800002 -0.07128225267 0.4559135437 0.8871649504
0.47801566 -0.48408568 1.7310001 -0.8412399888 -0.09276237339 0.5326448083
0.449204 -0.3667272 1.6800001 -0.2856096923 0.6380572915 0.7150594592
-0.45353296 0.19726841 2.1030002 -0.09429845214 0.8858912587 0.45420748
0.061283384 0.37666857 1.705 -0.282999903 -0.7917379737 -0.5413520336
0.46637002 -0.01010709 1.647 -0.09767599404 -0.03133712709 0.9947247505
0.16486304 0.011944333 1.7344286 -0.07171533257 0.8132197261 0.5775210857
-0.042463981 -0.36015746 1.794 0.07689012587 -0.8967396021 -0.4358280003
0.2658737 -0.28502887 1.748 0.7689984441 -0.4251028597 0.4774190485
0.01338144 0.49585667 1.6960001 -0.2758359611 0.7736697793 -0.5703942776
0.10340458 0.30213529 1.8430001 0.5420370698 -0.569673717 -0.6177925467
0.46471533 -0.25541484 1.594 -0.4064850807 -0.1079732999 0.9072549939
0.26252922 -0.36268488 1.7310001 0.6415550113 -0.1935132593 0.742266655
0.42766604 -0.4557825 1.6880001 0.3954102695 -0.4926231205 0.7752246261
0.36413643 -0.18350689 1.7363334 0.7663751841 -0.3979696929 0.5042709112
0.42076278 0.016441884 1.705 0.8668649197 -0.1570900083 0.4731468558
0.27837497 -0.20602894 1.794 0.5303567648 0.3965316713 0.7493225932
0.042700678 -0.33686092 1.8040001 0.6490427852 0.1567091048 -0.7444365025
0.045460649 0.10696889 1.5252501 -0.1481879354 0.8536647558 0.4992963076
0.18762596 0.31049603 1.8940001 -0.1563671231 -0.01626130193 -0.9875651598
0.3780818 -0.49851912 1.7390001 0.9157867432 -0.1168790832 0.384283632
0.48514032 -0.22091211 1.6470001 0.1505853385 -0.3910716474 0.9079576135
0.3865453 -0.42498961 1.7130001 -0.2755643427 0.6723060608 0.6870726347
0.24410509 -0.084048539 1.8630003 0.4066852033 0.2605806887 0.8756168485
-0.2074544 0.03004512 1.6320001 0.6991141438 0.1352639049 0.7020990849
0.055564009 0.48505878 1.7130001 0.2457019091 -0.9355133772 -0.2538606822
0.35210118 -0.4635489 1.7336668 -0.3762503266 0.655169487 0.6551249027
0.22243348 0.095557019 1.5528001 0.1828132868 0.882964313 0.4323810041
0.015349119 -0.11713801 1.8430001 -0.317394942 0.5636929274 0.7625685334
-0.22376858 -0.045840319 1.6866668 0.5349173546 0.5187786222 0.6668824553
0.056673869 -0.25245634 1.9590001 0.9026879072 -0.2658296227 0.338362515
0.21174657 -0.35498688 1.7760001 0.7916547656 -0.2907782793 0.5373367071
0.046496294 0.30712861 1.8040001 -0.2110788077 -0.866948843 -0.4514924586
-0.34266621 0.01892022 2.398 -0.06268476695 0.8366337419 0.5441641212
0.36924979 -0.18498763 1.6550001 0.7088516951 -0.4097692668 0.5741240978
0.2545954 -0.49394551 1.7390002 0.1994062066 0.2241553068 0.9539347887
0.2254108 0.026741158 1.4223336 0.7443355918 -0.2439906448 0.621637404
0.1475351 -0.45349351 1.863 0.761241138 0.3939238489 0.5151076913
0.35011348 0.038087659 1.6710001 -0.3690566719 0.6838557124 0.6293953657
-0.14257844 0.085362494 1.5790001 0.6176040173 -0.0884295702 0.781502068
0.065097757 -0.15857147 1.904 -0.4686775208 0.7322324514 0.494142741
0.49631488 -0.46798101 1.6160001 0.8727869391 -0.3093048632 0.3775889575
0.16504675 0.11683491 1.5275002 0.1018215492 0.8904796243 0.4434843361
0.36461005 0.40216646 1.7850001 0.7894887328 -0.4519779384 -0.4152390361
-0.031867709 -0.29894948 1.7310001 0.2153657079 -0.7188389897 -0.6609751582
0.043947298 0.45558703 1.6710001 0.199303776 0.1770342588 -0.9638137221
0.45583162 -0.043447599 1.6800001 0.4383378029 0.4765666127 0.7620657682
0.40529525 -0.15745284 1.6630001 0.4580997825 -0.829916656 0.3184069097
0.41614771 -0.2065367 1.5940001 0.3366985023 -0.3009679317 0.8922176957
-0.11223487 0.11458535 1.5640001 0.7276878953 -0.1954366118 0.6574761271
0.082920834 -0.12397075 1.8730001 -0.2989909053 0.7081962824 0.6395798922
0.054395117 -0.10394315 1.8430002 -0.2196686864 0.6776710153 0.7017889023
-0.1355844 -0.26971087 1.6630001 0.07470147312 -0.5664083958 -0.8207321167
0.23485374 -0.033211641 1.8040001 -0.2076398283 0.8574432135 0.4708256721
0.037367038 0.33786032 1.7760001 -0.4526227117 -0.6813871264 -0.5751906037
0.24986053 0.067696199 1.404 0.3926331997 -0.302605927 0.8684865236
0.084212601 0.081405513 1.601 -0.09506048262 0.8248500228 0.5573023558
0.3753922 -0.13334978 1.7220001 0.6974163055 -0.0464001298 0.7151626348
0.3404088 0.40113899 1.8230001 -0.6487810016 0.4528479576 -0.6115651727
-0.20578697 0.25968358 1.863 -0.172918871 0.3163050115 0.9327648282
0.1747556 -0.31521335 1.863 0.01520303544 -0.02967677079 0.9994439483
0.3764891 -0.26386726 1.6470002 0.7205181718 0.1000375599 0.6861822605
0.34775612 -0.1997748 1.6880001 0.8123843074 -0.5397351384 0.2207208723
0.46336216 -0.39908934 1.705 -0.4135118723 0.5188471675 0.7482015491
-0.13025513 -0.099606864 1.748 -0.1698173583 0.8101367354 0.5611065626
0.14309698 -0.16335849 1.9260004 0.4661248326 -0.3436378539 0.8152549863
0.35398746 -0.10573652 1.748 0.6830178499 -0.1624436527 0.7121086121
-0.17511591 -0.10114454 1.7220001 -0.3311481774 0.7662782669 0.5505983233
0.1970396 -0.083741821 1.8730001 -0.111739099 0.7966852188 0.5939756036
-0.045084044 0.026575856 1.6240002 -0.251419872 0.8889382482 0.3828535378
0.07127168 -0.21381506 1.9590001 0.8123297691 -0.1188507751 0.570959568
0.38254428 -0.22494419 1.6343334 0.7786612511 -0.1243749186 0.6149939299
0.17240965 -0.2446575 1.8730001 0.3807238042 -0.1838967651 0.9062181711
-0.13206106 0.24266221 1.8830001 -0.0646436438 0.02623423003 0.9975635409
0.33589664 -0.026601354 1.41125 -0.1555908769 0.5488478541 0.8213145137
0.11618025 0.1271833 1.506 -0.06043050066 0.8550236225 0.5150560737
0.32660627 -0.2453264 1.6960001 0.7747632861 -0.2972644866 0.5580105186
-0.0043708407 -0.094171755 1.813 -0.5219718814 0.4551137388 0.7213992476
0.31761983 -0.13545553 1.7760001 0.1884000897 -0.2429459393 0.9515685439
0.27510986 -0.0048624324 1.3855002 -0.0005774910096 0.5315003395 0.847057879
0.2733686 -0.32322964 1.7310001 0.701665163 -0.302493453 0.6451075077
0.24776793 -0.29575664 1.7850002 0.7525023818 -0.6477729082 0.1188712865
0.24073881 -0.13087143 1.8430001 0.7571389079 -0.384850055 0.5278551579
0.32763487 0.12590335 1.6320001 -0.6226662993 0.03193162009 0.7818356752
-0.033682812 0.12506399 1.5090001 0.4192327261 0.3257876635 0.8474115133
0.16428031 0.17454787 1.4640002 -0.2171680182 0.2323623002 0.9480748177
0.11822376 -0.10672978 1.8730001 -0.4032344222 0.7795478106 0.4792778492
-0.23282163 -0.29298902 2.9840002 -0.4036475122 0.8055089712 0.4338478148
-0.12418015 0.0039352472 1.6328751 -0.1296705753 0.7289126515 0.67221421
-0.0045525301 -0.027315179 1.7310001 -0.3731240928 0.6917926669 0.6182243228
0.015196141 -0.19079597 1.9260001 -0.1432735622 0.9165021777 0.3734922707
0.034809511 0.13662732 1.4890002 0.06753522903 0.6258924603 0.776979804
0.13410282 -0.082400531 1.8430001 -0.2345834076 0.836339891 0.4954858422
0.24387972 -0.27552336 1.8230002 0.5224639177 -0.03573932871 0.8519120812
-0.087594777 0.051444553 1.5860001 0.05032935739 0.7454059124 0.6647081971
0.29146099 0.33852923 2.0650001 0.4332399666 -0.8993894458 -0.05832418054
0.17883386 0.20233028 1.4890001 -0.6097640395 -0.5341520309 0.585550487
0.23996997 -0.017030127 1.766 -0.2059034854 0.8607491851 0.4655261338
0.21210249 -0.49077728 1.766 0.7940012217 0.4271837175 0.4325229824
0.42269361 -0.4377898 1.7220001 0.5280184746 -0.1335425079 0.8386673331
0.40942436 -0.28333867 1.6160001 0.3704688549 0.105916895 0.9227862358
0.21800683 -0.42381746 1.7390001 0.4024967849 -0.09680999815 0.9102879763
0.18480121 0.13855428 1.4890002 -0.1671842486 0.7337375879 0.6585427523
0.33263451 0.34709686 1.8330001 0.3273085058 -0.04154096171 -0.9440039396
-0.0808874 0.24266221 1.8830001 -0.09627407789 0.08459850401 0.9917532206
0.17611094 -0.069474958 1.8430001 -0.2812066972 0.8095406294 0.5153317451
-0.075419135 -0.10771002 1.7659999 -0.2550261617 0.6731829643 0.6941083074
0.48631269 -0.45340586 1.6630001 0.8225106597 -0.4939961731 0.2818581164
0.30039597 -0.081059232 1.8130001 0.5224599242 -0.4928683341 0.6957847476
0.41583183 -0.32361948 1.6240004 0.1752976775 0.4303951263 0.8854551315
0.0057163052 -0.15760669 1.863 -0.3332746029 0.7357471585 0.5895796418
0.17494585 -0.015997998 1.7660002 -0.002973919502 0.8378172517 0.5459426641
0.33116522 -0.48519555 1.7570001 -0.2749860585 0.7857451439 0.5540643334
0.1942676 -0.14445536 1.8940001 0.6865186691 -0.5481007695 0.477784127
-0.15182786 -0.23899716 1.6390001 -0.2780100405 0.2818181217 -0.918307662
0.29095688 -0.11481002 1.794 0.7099013329 -0.3600717187 0.6053003073
-0.017030127 -0.35763267 1.766 0.2885468304 -0.7375645638 -0.6105237603
0.10421902 -0.072885193 1.813 -0.1955602765 0.7625020146 0.616722703
0.0046945498 -0.070418246 1.7850002 -0.2333679944 0.8168383241 0.5275552869
0.18640387 -0.47243744 1.8330001 0.8468286395 0.4598019719 0.267326355
0.12424646 -0.047182199 1.794 -0.1370840818 0.7944577932 0.5916458368
0.072394259 0.34040704 1.7570001 -0.01644004509 -0.863365829 -0.5043106079
-0.017757758 -0.010358693 1.6880001 -0.3365750313 0.6684653759 0.6632279158
0.049325649 0.010463017 1.705 -0.219424367 0.7813161612 0.5842927694
-0.027764909 -0.1747556 1.863 -0.3881709278 0.762270391 0.5179451108
0.21372169 -0.24586028 1.8329999 0.6513497233 0.12955679 0.7476353049
0.11716475 0.032165952 1.6832001 -0.2476197183 0.8124986291 0.52775985
0.22794999 0.15284508 1.503 -0.5550843477 0.3771869242 0.7413578033
0.097963996 -0.22581531 1.8940001 0.548715651 -0.4937001765 0.6746638417
0.26225045 -0.17324424 1.8130001 0.67938447 -0.07058478892 0.7303797603
0.014879663 0.092885166 1.5430001 -0.1302485168 0.8479938507 0.5137526393
0.31376716 -0.17391372 1.7659999 0.4943800569 0.07116856426 0.8663275242
0.23597281 0.011381324 1.7310001 -0.1057634726 0.8088172674 0.578471005
0.21933323 0.34367964 1.9700001 0.3823461533 -0.9205450416 0.08005119115
-0.034617428 -0.13337372 1.804 -0.3142051399 0.6590317488 0.6833390594
0.29419181 -0.0271942 1.41 -0.07730890065 0.7294478416 0.6796537042
0.054806042 -0.03746628 1.766 -0.2491178215 0.6985093355 0.6708390713
0.087526396 0.11176448 1.536 -0.2115933299 0.8873188496 0.4097481668
0.21177548 0.31739101 1.863 -0.5598483682 -0.0104142772 -0.8285296559
0.14605266 -0.12435341 1.904 -0.2073870003 0.6244325638 0.753043592
0.12622534 -0.39267516 1.863 0.7674208283 0.1527666003 0.622677803
-0.43824741 -0.34489295 2.9580002 -0.03480358049 0.8368589282 0.5463111401
0.2534242 -0.43754873 1.7310001 0.5165881515 0.2757523358 0.8106154203
-0.16765812 -0.18806867 1.6630001 -0.7691274881 0.06485567987 -0.6357960105
0.26758409 -0.043969218 1.4330001 0.04982902855 0.8384856582 0.5426406264
0.38118169 -0.062888563 1.4640001 -0.408888191 0.5990258455 0.6884609461
-0.15513493 -0.045806415 1.6853335 -0.2070474923 0.6851677299 0.6983383894
0.38158232 -0.33805582 1.6550001 0.4932208061 0.1742190719 0.8522798419
0.33986965 -0.059827238 1.452 -0.1127093285 0.8532236218 0.5092209578
0.10565586 0.1015215 1.572 -0.161596328 0.8741935492 0.4578998983
0.021158351 0.057832822 1.6090001 -0.3685521185 0.8626662493 0.3463758826
0.32615086 -0.34538841 1.688 0.5211917758 -0.06195201352 0.8511880636
0.16168977 -0.41320717 1.863 0.6567137241 -0.03265748173 0.7534325719
0.16495623 -0.35441092 1.863 -0.01225494687 -0.2347137779 0.9719872475
0.044788778 0.29449198 1.8529999 -0.4368740916 -0.7237974405 -0.5340957642
0.12552044 0.19533959 1.4640002 -0.125983879 -0.3559606373 0.9259697795
0.30417484 -0.42300481 1.705 0.1256706119 0.2482409924 0.9605119824
0.22734508 -0.00367674 1.398 0.6279650927 0.318454504 0.7101032138
0.35297903 0.063564844 1.6320001 -0.4977534115 0.5878002644 0.637755692
0.086349472 0.0067577846 1.7130001 -0.02798782662 0.8728659153 0.4871568382
0.29732147 -0.2347275 1.785 0.7547532916 -0.4791884422 0.4480244815
0.13300173 -0.3004854 1.8730001 0.4176900387 -0.1802306771 0.8905346394
0.024753559 0.42524996 1.6808001 -0.4700613916 -0.5313706398 -0.7047606111
0.4445121 0.048555937 1.7130002 -0.6685516834 -0.09570465982 0.7374817133
-0.074341327 -0.019328747 1.6960001 -0.2805347741 0.7497698665 0.5992873907
-0.10615943 -0.30361003 1.6960001 0.06333306432 -0.7907716036 -0.6088260412
0.17317498 -0.41672701 1.8040001 0.9519433975 0.06946533918 0.2982923388
0.075081244 0.04475997 1.6470001 -0.1397424787 0.7666984797 0.6266143322
-0.1467945 0.27289984 1.8730001 -0.06184853241 0.001002280158 0.998085022
0.062670268 -0.35834539 1.8330001 0.9874292016 0.02734497376 0.155678764
0.20716862 0.087594777 1.5860001 0.18625848 0.938628912 0.2903163135
0.075112797 -0.2754136 1.9039999 0.8935558796 0.008658075705 0.4488684535
0.47765362 -0.49687362 1.6240003 0.8142098188 -0.3699875176 0.4474054277
0.31359157 -0.31598312 1.7050002 0.629734993 0.1263184696 0.7664707899
0.056130335 0.20494099 1.4890001 0.3533210754 -0.5995659828 0.7181119919
0.36444467 -0.47529536 1.766 0.8806971312 0.1777455956 0.439066112
-0.054295693 -0.07508979 1.7570001 -0.3117416799 0.5766592622 0.7551696301
0.034868538 -0.17268229 1.8940001 -0.2794064581 0.762755096 0.5832123756
-0.072840482 -0.047042809 1.7310001 -0.3143211603 0.5866720676 0.7463364601
0.49717259 -0.34604749 1.647 0.492845118 0.5845828652 0.6444894075
0.43423051 -0.18650557 1.6240001 -0.4974345267 -0.6492123008 0.5753974915
0.095044695 -0.16802543 1.9360001 0.02006686293 0.6222749949 0.7825414538
0.18430513 -0.11124725 1.8940001 0.008200709708 0.6530085802 0.7573061585
0.44174269 -0.48547959 1.6630001 0.6089612246 -0.3148212135 0.728047967
0.11357699 -0.011433925 1.7390001 -0.1714469343 0.8331315517 0.5258305669
0.47860828 -0.28772637 1.6010001 -0.4267733395 0.3974718153 0.8123303652
0.1304103 -0.26577291 1.8830001 0.3461845219 -0.3733695745 0.8606691957
0.28208765 0.030266916 1.381 -0.3127299249 -0.4454040527 0.8389369845
0.035029754 -0.025893522 1.7372224 -0.3071644008 0.6542703509 0.6910719275
-0.24348758 0.31612116 1.8830001 0.6522861719 0.07863725722 0.753882587
0.28291261 0.35125667 1.8130001 -0.2129871249 0.1046229675 -0.971437335
-0.17494994 -0.07483694 1.6960001 -0.2752529085 0.6215358377 0.7334364653
-0.14479131 0.02619357 1.6066 0.07968457043 0.6712985039 0.7368912101
0.047511823 0.076857366 1.5940001 -0.2392113358 0.8969178796 0.3719089329
0.49707264 -0.42799306 1.7130001 -0.160977453 -0.2733298242 0.9483548999
0.094052747 -0.026706332 1.7659999 -0.2268733531 0.7403795123 0.6327453852
0.14187974 -0.19529328 1.904 0.4813157618 -0.5253658891 0.7016593218
-0.18914697 -0.00721935 1.6470001 0.2358922064 0.5344198346 0.8116343617
-0.10966837 -0.13827752 1.8130001 0.3228115737 0.835015893 0.4455795586
0.39316219 0.045819856 1.6860001 -0.1163534001 0.9065449834 0.4057562351
-0.055053789 0.067793503 1.557 0.06202056631 0.7702695727 0.6346954107
0.071522847 -0.081059232 1.8130001 -0.1431794614 0.7629785538 0.6303676963
0.15596338 -0.035991553 1.785 -0.1228042617 0.6853647828 0.7177703381
0.1891382 -0.35761425 1.8130001 0.7817797661 -0.6049796939 0.1510626525
0.31612074 -0.03617302 1.794 0.7442350984 0.6505463719 0.1513391286
0.22122069 -0.20300882 1.8330001 0.6214577556 -0.2631281316 0.7379388809
0.25748226 -0.13509871 1.8130001 0.6009702086 -0.2805922031 0.7484001517
0.11060115 -0.34500954 1.883 0.6753361821 0.1034041345 0.7302250862
0.4218637 -0.073006459 1.4959999 -0.2481978238 0.6507647634 0.7175674438
0.23445924 -0.35398746 1.748 0.5540206432 -0.1739594191 0.8141248226
0.35187137 -0.26632065 1.6710001 0.7723029852 0.09818097949 0.6276214123
0.31576219 -0.22642459 1.7570001 0.7126471996 -0.6803575754 0.1710191667
0.081059232 0.30834293 1.8130001 0.4888034165 -0.6845114827 -0.540846765
0.31581253 -0.46405721 1.7220001 -0.01104131155 0.6475108266 0.7619763017
0.06279739 -0.27495074 1.9360001 0.8224832416 -0.06982702762 0.5644869804
0.20281333 -0.4133676 1.7660002 0.7985947728 -0.1483250111 0.5833061934
0.004048096 -0.33474639 1.7760003 0.3469652832 -0.7237737775 -0.5964617729
0.45265719 0.01025437 1.6710001 -0.4364176393 -0.435257256 0.7874584198
0.15927367 -0.20853357 1.8730001 0.4944171906 -0.479881525 0.7247519493
0.27736127 0.31721511 1.8430001 -0.3968635798 0.03840206191 -0.9170739055
0.40372306 0.019138861 1.7326 0.2234753966 -0.01066173427 0.9746512771
-0.2560831 0.31574202 1.9260001 0.9255500436 0.3361313045 0.1742782593
0.38537067 -0.38245493 1.6630001 0.184593007 0.6568821669 0.7310480475
0.32442275 0.072251357 1.6160001 -0.4586631358 0.5343717933 0.7099823356
0.43484753 -0.23514543 1.594 0.1232578903 -0.2373407632 0.9635750651
0.025410183 0.34677428 1.705 0.4942429662 -0.5264883637 -0.6917614341
-0.21532336 0.3188121 1.904 -0.3205190301 0.9383351207 0.1295947433
-0.085167289 -0.15587221 1.8330001 0.1173206195 0.8355977535 0.5366677642
0.12531075 0.22484969 1.4763638 -0.06745298952 -0.6403199434 0.7651408315
0.29784313 -0.24678428 1.7129999 0.5727687478 -0.4136262536 0.7077070475
-0.0044026203 0.18163393 1.505 0.4487849176 -0.4693604112 0.7604557276
0.14512253 0.067532264 1.6390001 -0.1505860388 0.8432777524 0.5159519911
-0.11359891 -0.075103596 1.7220001 -0.328567028 0.6200711131 0.712429285
0.4490177 -0.14584096 1.6390001 0.3799138665 0.1123918295 0.9181685448
-0.16561812 0.084212601 1.6010001 0.5791034102 -0.2176979929 0.7856506109
0.18455498 -0.27601588 1.863 0.3223281801 0.07997033745 0.94324404
0.35836819 -0.29452932 1.6550001 0.6592398882 0.002867488191 0.751927197
0.23229825 0.29402786 1.853 -0.3016375601 -0.5501798391 -0.778663516
0.28305376 -0.2943759 1.7220001 0.7407678962 -0.1102026924 0.6626600027
0.045380652 -0.061029151 1.7850001 -0.2506681383 0.8295937181 0.4989386499
-0.034807675 -0.32552838 1.748 0.1799681187 -0.7249468565 -0.6648786068
0.43564022 -0.42523241 1.6960001 0.1650218368 0.07870085537 0.9831449389
0.4650296 -0.31521425 1.6160001 -0.2028792799 0.6622692347 0.7212762833
0.20729397 -0.31656522 1.8330001 0.7996503711 -0.2999613583 0.520175457
0.1881993 -0.46021843 1.8040001 0.860827148 0.4612370729 0.2150278389
0.16561812 0.091230318 1.6010001 0.06976423413 0.9238231778 0.3764089644
0.33743739 -0.19522946 1.7479999 0.7048872113 -0.3393151462 0.6228958964
0.2444848 0.051548 1.6800001 -0.2312549949 0.7981541157 0.5563012958
0.28291261 -0.027019743 1.8130001 -0.1435447931 0.7643873096 0.628575325
0.28773293 -0.37592125 1.705 0.4338694811 0.06732605398 0.8984567523
0.015269528 0.16484426 1.4872859 0.4484933019 -0.1236878335 0.8851864934
0.00405809 0.01290541 1.6830001 -0.1422468573 0.7508157492 0.6450127959
-0.015371474 0.051704045 1.5940002 -0.3105357587 0.8509159088 0.4236857593
-0.018158397 0.23936068 1.8830001 -0.1409900039 -0.2850623131 0.9480829835
0.15682252 -0.47541982 1.8830001 0.7705945373 0.5067376494 0.3865242898
-0.064974152 0.01299483 1.647 -0.3160112202 0.8402158022 0.4406521022
0.15545052 0.0269049 1.705 -0.2289526463 0.8005464673 0.5538105369
0.45475855 -0.11333546 1.6160001 0.4835268855 0.5460829139 0.6841017008
-0.076896816 -0.25970811 1.6550001 0.1581221372 -0.4117157757 -0.8974895477
0.27128538 -0.07310085 1.853 0.5734308958 0.03921124339 0.8183150291
0.43472317 -0.2655887 1.6016153 0.3993087411 0.3604650497 0.8429812789
0.24510574 -0.40408602 1.7346364 0.5347648859 -0.04677251354 0.8437054157
