# .PCD v0.7 - Point Cloud Data file format
VERSION 0.7
FIELDS x y z normal_x normal_y normal_z
SIZE 4 4 4 4 4 4
TYPE F F F F F F
COUNT 1 1 1 1 1 1
WIDTH 512
HEIGHT 1
VIEWPOINT 0 0 0 1 0 0 0
POINTS 512
DATA ascii
-0.098481223 -0.41395497 1.904 0.6301705837 0.1597692221 -0.7598413229
0.49950799 -0.43574104 4.0410004 -0.2335288227 0.9326358438 0.2750538588
-0.3637816 -0.1996696 3.1200001 -0.3504241109 0.796182096 0.4932514727
0.49651507 0.16550502 2.6590002 -0.1855051368 0.8895512223 0.4174763262
-0.15327114 0.44433147 1.7659999 0.9077396393 -0.1110622361 0.4045664072
0.36524126 -0.18408158 3.3330002 -0.260204345 0.8706206679 0.4175084531
-0.44544223 0.076800384 2.503 -0.2370799631 0.8625214696 0.4470456243
0.23554718 0.040611584 1.853 -0.7602211237 0.1618979126 0.6291683912
-0.077563085 -0.38471287 3.5390003 -0.3899461031 0.8204749227 0.4180466235
0.013465599 0.15261012 2.5600002 -0.2277134657 0.8578602672 0.4606759846
-0.162605 -0.021973649 1.6710001 0.1994367242 0.8184181452 0.538903296
0.086526997 -0.48109013 3.9480002 0.1271991134 0.9242312908 0.3600235283
0.20530656 0.35462043 2.1290002 0.008276551962 0.9736626744 0.2278430909
0.35603186 -0.36574182 3.6920002 -0.2038665265 0.8866361976 0.4151080549
-0.41175601 0.27663946 1.9930001 -0.7239756584 0.6804946661 -0.11307621
-0.15330006 0.25284556 2.2710001 -0.1936305314 0.8657853007 0.4614358544
0.053706061 -0.15629068 2.0650001 -0.1637875885 0.9380172491 0.3054459989
0.49334824 -0.025965698 3.0640001 -0.2127861828 0.8857649565 0.4124832451
0.27503487 0.28356308 2.4320002 -0.2303895205 0.906916678 0.3527362347
-0.49485028 -0.065494888 2.7670002 -0.2431058735 0.8903671503 0.3848972619
-0.30264011 -0.24332535 1.7939999 -0.1548383087 0.06643715501 -0.9857034087
-0.147543 -0.23433299 3.3000002 -0.3289529681 0.7276501656 0.6019262075
-0.1591676 0.39165959 2.0400002 -0.3922561407 0.902459681 0.1780496389
0.13512239 -0.2671738 3.5030003 -0.1602548063 0.9610620141 0.2251182646
0.064034536 0.085284933 1.6832001 -0.5207918286 0.1817976087 0.8341016173
-0.12351882 -0.10515792 1.904 -0.2662856877 0.8909006715 0.3679509759
0.072050609 -0.46597552 2.0650001 0.907828629 -0.08219689876 -0.4112065136
-0.13572603 0.21474025 1.6960001 -0.03877110034 0.1295322478 0.9908169508
0.07524956 -0.38933468 3.7320001 -0.142681092 0.873019278 0.4663468897
0.31478995 -0.46876332 3.9030001 -0.09340587258 0.9400907755 0.3278790116
-0.393448 -0.34426701 3.3000002 -0.3535557091 0.731051743 0.5835766792
-0.2532275 0.014535718 2.618 -0.3327233493 0.9288744926 0.1627493948
-0.25611991 -0.45888153 1.7390001 -0.004032705911 -0.4284228683 -0.9035693407
0.47621411 0.067672528 2.8590002 -0.1642932892 0.8790468574 0.4475313723
-0.42563131 0.12708423 2.3010001 -0.2488703877 0.8568949103 0.451436162
0.34438008 -0.2388943 3.5390003 -0.00511508109 0.8690214157 0.4947479963
0.05331799 -0.040392417 1.8430001 -0.2173548937 0.8173470497 0.5335735083
0.3343747 0.14192882 2.7440002 -0.2068275809 0.8652582765 0.4566732645
0.18709528 -0.086927347 1.9700001 -0.2323922515 0.8840907812 0.4054347873
-0.072593085 -0.2545968 1.9810002 0.521643579 0.3949578106 -0.7562382817
0.16070615 -0.23667634 3.3330002 -0.1831287444 0.9593291283 0.2148290873
-0.25145957 -0.085401356 1.8040001 0.5960091949 0.5088094473 0.6211972237
-0.15816031 0.12251855 2.5410001 -0.2287650704 0.8750912547 0.4264760911
-0.033105563 -0.27688289 3.4330001 -0.3680540025 0.7272700667 0.5793224573
0.42863566 -0.076643459 3.2380002 -0.2764842212 0.8906395435 0.3609954715
-0.48273912 -0.16933781 2.8830001 -0.2601229548 0.8732352853 0.4120633602
0.052194104 -0.31316462 2.0530002 0.760400176 -0.1997015327 -0.6179893613
0.22828926 -0.37386501 3.7740002 0.04186800495 0.8971936107 0.43964836
-0.17405164 -0.2840654 1.8730001 0.7625857592 0.2017800063 -0.6146119237
0.24811682 0.33485687 2.3010001 -0.2003576607 0.9263619781 0.3189205527
-0.034469154 -0.017559759 1.7310001 -0.3198954463 0.8542787433 0.4097251296
-0.15556625 0.19130445 2.398 -0.2192010432 0.854066968 0.4717208147
-0.25029886 -0.21655069 3.2080002 -0.3324868083 0.7543832064 0.5660021901
-0.2629737 -0.33017808 3.3330002 -0.3217875063 0.744471848 0.5849909782
-0.0068695596 -0.4963257 1.959 0.7364377975 0.02762373537 -0.6759410501
0.00170687 -0.10070533 1.9470001 -0.256829679 0.8565382361 0.4476391077
-0.11588832 0.10587328 1.6320001 0.9149454236 -0.05908166617 0.3992294967
0.14398198 0.029415673 1.766 -0.2564623952 0.6590873003 0.7069872618
-0.16580595 -0.49449623 1.8330001 0.7749245763 -0.1440751851 -0.6154138446
0.42288208 -0.42288208 3.8590002 -0.3116061985 0.8863725066 0.3424110413
-0.2248695 -0.34364334 1.7760001 0.7120352387 0.3336338997 -0.617814064
0.085543379 -0.29464942 3.6140001 -0.2592869103 0.8730849624 0.4129078984
0.24795552 0.18651521 2.503 -0.1929125041 0.9025081396 0.3850504756
-0.17391138 0.42380345 1.9260001 -0.7648789883 0.6422380805 0.04990405589
-0.01649843 -0.37599048 1.9810001 0.5673522949 0.3182709217 -0.7594833374
-0.13545552 -0.066949278 1.7760001 -0.2502403557 0.9183239341 0.3066935837
-0.14376633 0.3239868 1.7323333 0.8110041618 -0.1051210612 0.5755187273
0.39425716 -0.23173894 3.4330001 0.05408218876 0.8871065974 0.4583851993
0.24859987 -0.4796927 3.9940002 0.003764336929 0.9443548322 0.3289069533
0.016797811 -0.24076861 2.1290002 0.8107607961 0.5130655766 -0.2818344533
-0.024391787 0.044475053 1.6366668 -0.3928650618 0.2695804238 0.8791947365
-0.15873891 -0.19970378 1.9470001 0.555157125 0.6542288065 -0.5136002302
-0.21532862 -0.19443853 1.8330001 0.704642117 0.4384690225 -0.557874918
0.15533288 -0.035795528 1.8730001 -0.1776245683 0.8074009418 0.5626306534
0.13381439 -0.41817001 3.8160002 -0.1326370388 0.9005064368 0.4141201675
-0.0087657897 -0.28342721 3.3330002 -0.1496530324 0.8897249103 0.4312696755
-0.046600971 -0.062670268 1.8330001 -0.2529521585 0.9083297253 0.3330950141
-0.052431677 -0.15258206 2.016 -0.1055208296 0.7236167789 0.6820880771
0.38652933 -0.31365907 3.6140001 -0.151366964 0.8669054508 0.4749346673
0.29439169 -0.43155143 3.8160002 -0.02215384319 0.9070081711 0.4205299318
0.095044695 -0.079769656 1.9360001 -0.1214289665 0.8777205348 0.4635317326
-0.17287955 -0.39907709 1.8430001 0.6383503675 0.1914616376 -0.745554328
0.053910617 0.0077015166 1.7570001 -0.3589066863 0.8378820419 0.4112658799
-0.10806143 -0.32587278 1.9260002 0.5819433928 0.2175350189 -0.7835945487
0.068550952 -0.39900169 2.0050001 0.1450589895 0.06701342016 -0.9871510267
0.11164087 -0.49392629 3.8590002 0.5482474566 0.7497336268 0.370572865
0.12194784 -0.12901728 2.016 0.2684143186 0.8232312799 0.5002439022
-0.22191414 -0.061894421 1.7220001 -0.3898051083 0.8565448523 0.3382053971
-0.0017884 -0.2467992 2.0400002 0.7816033959 0.4250528812 -0.4565371275
0.23368427 -0.051744372 1.904 -0.01968376338 0.5117191672 0.8589272499
-0.1959876 -0.1143261 1.863 -0.2802576721 0.8932336569 0.351552695
-0.082262017 -0.49525094 1.9150001 0.6574292779 0.06369418651 -0.7508193851
-0.22137499 0.34016156 2.0530002 -0.5135730505 0.844699204 0.1507512927
-0.10239028 0.10239028 2.4850001 -0.2304283231 0.8579505682 0.4591552913
0.27511552 -0.37545177 3.6920002 -0.002824899275 0.9046872854 0.4260668159
-0.29260853 -0.39169291 1.766 -0.6601644754 0.1628409475 -0.7332568765
-0.103096 0.042711198 1.6800001 0.1736501902 -0.1751287878 0.9691106677
0.42532361 -0.36316091 3.7320001 -0.2290824503 0.8853983283 0.4044638276
-0.22490181 -0.26579309 1.794 0.5762683749 0.2968303263 -0.7614502907
-0.30377465 -0.19006221 1.853 0.2724177241 0.8702775836 -0.4103723764
-0.0152014 -0.34355164 3.4680002 -0.3834905028 0.7700896263 0.5098009706
-0.29419795 -0.31576219 1.7570001 -0.1130727455 0.1963814199 -0.9739860892
0.30094478 -0.30094478 3.5390003 -0.04018357769 0.86014539 0.5084636211
0.081977099 -0.38802493 2.0780001 0.7157034874 -0.2013139725 -0.6687609553
0.17507035 -0.49369833 3.9940002 0.05521266907 0.9410531521 0.333722204
-0.20707569 -0.41726527 1.7760001 0.9270711541 -0.03172086552 -0.3735409975
0.014868267 0.025276054 1.6960001 -0.3614917696 0.7560435534 0.5456389785
-0.11743827 -0.14334376 1.9700001 -0.30150792 0.8202621341 0.486068964
0.40332803 -0.28232962 3.5390003 0.002125357976 0.8755776882 0.4830726981
-0.13232757 0.13530123 1.6960001 0.8986985683 0.3022342324 -0.3177976906
0.054163098 -0.12055657 1.9930001 -0.07453039289 0.9063450098 0.4159134328
0.077810302 -0.42964819 3.8590002 0.4385085106 0.8275715113 0.3504791558
-0.045232054 -0.43439841 1.9470001 0.5968576074 0.2961625755 -0.7456867695
-0.053413548 -0.08846619 1.904 -0.1447542757 0.9268796444 0.3463240564
-0.10211764 -0.02853287 1.7130001 -0.255084604 0.8816046715 0.3971209824
0.0039318502 -0.02752295 1.794 -0.3058055937 0.8429203629 0.4426830113
-0.025209552 -0.30526021 1.9930001 0.7481869459 0.1700747758 -0.6413196325
0.18378878 0.0031963263 1.8230001 -0.3199950755 0.7083693147 0.629139185
0.37247375 -0.16388845 3.3990002 -0.004603370558 0.8721059561 0.489295423
0.028123466 -0.45524859 2.0050001 0.7286919951 0.1556582451 -0.6669171453
0.10648958 -0.007946983 1.8130001 -0.2176447809 0.8228391409 0.5249443054
0.11533076 0.081186786 1.7310001 -0.4792172015 0.2822126448 0.8310877681
-0.22252166 -0.4973093 1.7850001 0.6198242903 -0.514621377 -0.592437923
-0.12486738 -0.25676614 1.936 0.7330293655 0.3862332404 -0.5599033833
-0.11471447 -0.079169139 1.8430001 -0.266784519 0.9221558571 0.280097425
0.086870655 -0.29473972 3.5390003 -0.2592338026 0.9068703651 0.3322408199
-0.48623967 -0.10777477 2.8590002 -0.2321377844 0.8797991872 0.4148077369
0.0082538165 -0.066030532 1.8830001 -0.1810937226 0.9096526504 0.3738142252
-0.074734077 -0.042037919 1.7760001 -0.2367910445 0.9202091694 0.3116810024
-0.15352099 -0.34500954 1.8830003 0.7173486948 0.237330243 -0.6550459266
-0.19592799 -0.20589043 1.8940001 0.6220967174 0.6648400426 -0.4135014117
-0.19604546 -0.33584833 1.8330001 0.8488510251 0.04825987667 -0.5264246464
-0.12643375 -0.46427453 1.8730001 0.6510385871 -0.01224416588 -0.7589458823
-0.19617696 -0.079404958 1.7760001 -0.1894127727 0.8752068877 0.4451243579
-0.23564799 0.0269312 2.5600002 -0.6504371762 0.4729387462 -0.5943571329
-0.075102277 -0.37380454 1.9470001 0.6462588906 0.2213724703 -0.7303038239
0.4950712 -0.051968798 3.1200001 -0.2172410935 0.8850575686 0.4116787314
-0.063543431 -0.11563759 1.959 -0.2522671819 0.8703116775 0.4229879677
0.20243286 0.058515746 1.8040001 -0.6734055877 0.3763081431 0.6363309622
-0.15016949 0.27506292 1.6960001 0.877948463 0.2936774194 -0.3781006634
-0.1436101 0.3844848 1.7390001 0.479359746 -0.3770555258 0.7924918532
-0.0053993901 -0.16018189 2.0530002 -0.09982188791 0.933134377 0.3453921974
-0.060061309 0.00146491 1.6710001 -0.3256976604 0.8143738508 0.4803293645
0.02489032 -0.36446539 2.0280001 0.5325487852 0.263961494 -0.8041866422
0.094093509 -0.052824423 1.8830003 -0.05284106359 0.86177212 0.5045360923
-0.16692609 -0.047042809 1.7310001 0.05099343136 0.8621213436 0.5041294098
-0.12788025 0.010057997 1.6390001 -0.643225491 0.1496863216 0.7509027719
-0.25016734 0.071148515 2.618 -0.2311842591 0.8854621053 0.4031261802
0.15364985 -0.074292235 1.9260002 -0.04192836955 0.8393397927 0.5419877768
0.035219789 -0.26414844 2.0780001 0.611641109 0.7398406267 -0.2802338898
-0.1088031 -0.20897104 1.9700001 0.6090226769 0.3651708364 -0.7040892243
-0.0052415901 -0.13103975 1.9930001 -0.09999205172 0.8869969845 0.4508191645
0.21838556 -0.0082099829 1.8730001 -0.2935082614 0.7397972941 0.6054360867
-0.16461082 -0.091095306 1.8230001 -0.2790361345 0.9033899903 0.3256153464
0.20585361 0.37527293 2.0780001 0.008276551962 0.9736626744 0.2278430909
-0.266065 -0.20693943 1.8130001 0.3132660389 0.8533067703 -0.4168116748
0.01305795 0.079798579 1.6550001 -0.4267617762 -0.1054327711 0.8981972933
0.1347086 -0.10189497 1.9700001 -0.04624727741 0.6975545883 0.7150376439
-0.17642303 -0.44503108 1.8129998 0.773165524 0.2335602343 -0.5896309614
-0.06526082 -0.31514105 1.9590001 0.4164081514 0.2022715509 -0.8863918185
-0.044183999 -0.22622208 2.016 0.4325415194 0.5261600018 -0.7321635485
-0.20559742 -0.25406832 1.8430002 0.8593508601 0.1873094141 -0.4758479595
0.073971376 0.041766152 1.7220001 -0.4257450104 0.7385203242 0.522808671
-0.12332508 0.16685158 1.6550001 0.8849046826 -0.1256391704 0.4485070109
0.047006868 -0.082262017 1.9150001 -0.001180123421 0.8904833198 0.4550144076
0.4796927 -0.4236702 3.9940002 -0.2335288227 0.9326358438 0.2750538588
0.092384011 -0.45507678 3.9030001 0.5482474566 0.7497336268 0.370572865
-0.23752406 -0.38616815 1.748 0.3578063548 0.1326645017 -0.9243239164
0.29118308 -0.40242156 3.7320001 -0.03162455559 0.9161493182 0.3995876908
0.32364574 -0.44543576 3.8590002 -0.0452141352 0.9082636237 0.4159481823
-0.14163549 -0.39387214 1.8830001 0.6979714632 0.170785442 -0.6954625249
0.095947661 -0.40695041 3.7740002 -0.1224920899 0.9059426785 0.4052944183
0.0088894004 -0.29512808 2.0280001 0.6150147915 0.1223931164 -0.7789587379
0.41525277 -0.32558379 3.6530001 -0.2635757327 0.8684219718 0.419965595
0.36508083 -0.33625865 3.6530001 -0.2106658667 0.8741048574 0.4376763403
-0.0017366767 -0.42374909 1.9810001 0.8091779351 0.2286972553 -0.5412288308
-0.15578951 -0.23535345 1.9040002 0.7674580812 0.3013330698 -0.5658678412
0.23417521 -0.39809784 3.8160002 0.05126157776 0.8939556479 0.4452140927
-0.19452532 -0.37481704 1.804 0.8061465025 0.2534190416 -0.5347023606
0.054081213 -0.49450731 2.016 0.3489871025 0.1689510942 -0.9217719436
-0.071842827 0.035921413 1.6390001 0.3844057918 0.08727149665 0.9190298319
0.31630921 -0.22418033 3.5030003 0.02863589302 0.8976185322 0.4398419261
-0.25235552 -0.29415673 1.766 0.4939898849 0.3133861125 -0.8110259771
-0.1752632 -0.12351882 1.904 -0.3110795319 0.8364390135 0.4512197375
-0.037483811 -0.48526341 1.9260002 0.4845557809 0.05953226611 -0.8727322817
0.40458167 -0.35279521 3.6920002 -0.2106658667 0.8741048574 0.4376763403
-0.14269942 -0.2937929 1.9150001 0.7677063942 0.1373772025 -0.6259028912
-0.10441275 -0.37465751 3.5030003 -0.3971761465 0.7272028327 0.5598456264
0.055985332 -0.016131368 1.8040001 -0.2761752307 0.8293939233 0.4856263995
-0.11979913 -0.24836405 3.3330002 -0.3014542758 0.7501395941 0.5885710716
-0.13319108 0.065289751 1.6550001 -0.6103096008 0.03249866515 0.7914960384
0.01372071 -0.002286785 1.7390001 -0.3659586012 0.8501400352 0.3785977662
-0.21894838 -0.11027327 1.8230001 -0.3712729812 0.8295797706 0.4170776308
-0.14426427 -0.13068645 1.9360001 -0.4785168171 0.7525430918 0.4524384737
0.083633997 -0.41817001 3.8160002 0.3474107683 0.8739160299 0.3399654031
-0.11541864 -0.37395638 1.9150001 0.6246390939 0.2909758687 -0.724678576
0.0064627863 -0.046855204 1.8430001 -0.1915195733 0.8647785187 0.4641965032
-0.27430198 -0.35398746 1.748 -0.03214000911 0.1097295582 -0.9934417009
-0.20638661 -0.30444002 1.8040001 0.8495057821 0.09668274224 -0.5186447501
0.28453445 -0.41356748 3.7740002 0.0335489884 0.8829590082 0.468249768
-0.085827418 -0.065165266 1.8130001 -0.1802765578 0.9015207887 0.3933963478
0.15477373 0.072023429 1.748 -0.5584860444 0.2763384879 0.7821319699
0.39234778 -0.14454918 3.3650002 -0.004603370558 0.8721059561 0.489295423
-0.073495351 -0.080028273 1.863 -0.1680966318 0.9416102171 0.2917426229
-0.26312622 -0.24755664 1.7760001 0.1502886862 0.227999717 -0.9619924426
-0.10400861 -0.0073245498 1.6710001 0.01176642254 0.7072939873 0.7068215609
0.056119811 -0.35482207 2.0650003 0.2498638928 0.4668025672 -0.8483297825
0.081782483 -0.14045252 2.0280001 0.0229732953 0.8576237559 0.5137642622
0.2026152 -0.072603777 1.9260001 -0.0628433302 0.886700511 0.4580533803
0.094439782 0.020126512 1.7660002 -0.155947879 0.8321937919 0.5321031213
0.014657866 -0.1703977 2.0900002 -0.02344375663 0.7662093639 0.6421632171
-0.21210249 -0.45981342 1.766 0.7570592761 -0.2922417521 -0.5843423605
0.034287687 -0.14502421 2.0280001 -0.08960536122 0.8083159328 0.5818902254
-0.26679158 -0.41619486 1.7390001 0.06727059186 0.08860675246 -0.9937924743
0.025626721 -0.40560913 2.016 0.5692409277 0.2262320668 -0.7904326916
-0.03617302 -0.042463977 1.794 -0.2688204944 0.8616115451 0.4305358231
0.38560009 -0.29468626 3.5760002 -0.1325942874 0.8432169557 0.5209643841
-0.068831481 -0.4549593 1.9150001 0.4206194878 0.1096333191 -0.900588572
-0.15434769 -0.10344579 1.8730001 -0.3257081211 0.893003881 0.3105773628
0.074443027 -0.37545177 3.6920002 -0.1489522904 0.8925437927 0.425650984
-0.10132601 -0.28336936 1.9590001 0.6224591136 0.2363522202 -0.7461114526
-0.15107509 -0.4337317 1.853 0.8050019145 0.08159475774 -0.5876344442
0.084624633 -0.10275848 1.9700001 -0.1937930137 0.8452373743 0.4980141521
0.0622258 -0.44624788 2.0280001 0.7846788764 -0.0571302399 -0.6172642708
-0.00176736 -0.33403102 2.016 0.7201564908 0.1904527694 -0.667159915
0.19379319 -0.043882173 1.8940001 -0.3367224038 0.7031155825 0.6262958646
0.14470786 0.0118613 1.8040001 -0.295350343 0.8075922728 0.5104535818
-0.035154335 -0.26541519 2.0050001 0.5707328916 0.3466599584 -0.7443727851
0.38349783 -0.20354885 3.3650002 -0.004603370558 0.8721059561 0.489295423
-0.024532642 0.00223024 1.6960001 -0.3458636105 0.8451464772 0.4075607359
0.01659837 -0.49533024 1.9930001 0.7678248286 -0.0737920031 -0.6363959312
0.095326103 -0.033929631 1.8430001 -0.136019364 0.8439728618 0.518853128
0.13491067 -0.016964816 1.8430001 -0.2379984558 0.7868785858 0.5693670511
0.11502393 -0.44656345 3.8590002 0.5022519827 0.7897341847 0.3522256017
-0.29467282 -0.27609447 1.7660002 0.06617960334 0.5163796544 -0.8537987471
-0.085629039 -0.10733781 1.9260004 -0.180544883 0.8624931574 0.4727675021
-0.12714866 -0.051013671 1.7370002 -0.2876926064 0.8750157356 0.3893332481
0.0390292 0.053757198 1.6800001 -0.5187290311 0.3639445007 0.7736049294
-0.16199222 0.41677609 1.794 0.885220468 -0.1504570693 0.4401674867
-0.23284662 -0.23125723 1.8130001 0.5620741248 0.5539274812 -0.6141962409
-0.15016949 0.17098507 1.6960001 0.7608849406 -0.1472770274 0.6319522262
0.046369534 -0.10132601 1.9590001 0.04427801445 0.8734971881 0.4848114848
-0.036267698 -0.34367961 1.9700001 0.4955609441 0.1811674982 -0.8494690657
-0.0152014 -0.27666548 3.4680002 -0.3847114146 0.7645637989 0.5171453357
0.30402538 -0.28559959 3.5030003 -0.01597275771 0.8903582096 0.4549803436
-0.033660933 -0.074710846 1.8730001 -0.1564497501 0.9025971889 0.4010508657
0.054475188 -0.061078239 1.883 -0.1455752254 0.8796038032 0.4528851509
-0.044652142 -0.39499968 1.9590001 0.5611978173 0.4888892174 -0.6678655148
-0.014082598 -0.45442137 1.959 0.633859694 0.07160824537 -0.7701260448
0.2507214 -0.013283253 1.8940001 -0.3119045794 0.6473134756 0.6954860091
0.12099841 -0.27612457 3.5390003 -0.1512961388 0.9499270916 0.2734006941
-0.078623846 -0.21839958 1.9930001 0.5496040583 0.5739465952 -0.6070590615
-0.18620242 -0.23677592 1.8730001 0.7492889166 0.3281857073 -0.5752045512
0.17682804 0.035991549 1.7850002 -0.665920198 0.4420228899 0.6009709239
-0.03564176 -0.10013637 1.9360002 -0.1048887968 0.8976144195 0.4281199574
-0.14209101 -0.49813515 1.863 0.8102647662 0.05770941824 -0.5832157731
-0.02559136 -0.35520807 3.5030003 -0.3794822693 0.7918365598 0.4785270095
-0.064272813 -0.014947167 1.705 -0.2762579918 0.8826603889 0.3802527487
0.054929432 -0.40494484 2.0400002 0.6638276577 0.6401031017 -0.386782676
0.11433925 0.044211175 1.7390002 -0.4367884099 0.496922791 0.7498557568
0.45663813 -0.034919385 3.0640001 -0.2127861828 0.8857649565 0.4124832451
0.043778978 0.01962506 1.7220001 -0.4369136393 0.8263674378 0.3552791774
-0.13530123 -0.03122336 1.6960001 -0.1154944301 0.8634277582 0.4910739064
0.21483882 0.023972452 1.8230001 -0.5571171045 0.428437382 0.7113803029
0.09091384 -0.29155129 3.5760002 -0.2029262036 0.9103981256 0.3605498075
-0.15865125 0.30035916 1.7570001 0.8889042735 0.04737487808 0.4556366801
0.0014578967 0.039363209 1.6630001 -0.5567128062 0.5272746086 0.6419129968
0.18402849 -0.023438687 1.8529999 -0.1359175742 0.7976489067 0.5876075625
-0.072980747 -0.41242608 1.9360001 0.3111383915 0.09626934677 -0.9454761147
-0.19226789 -0.29567251 1.8430001 0.7856377959 0.2644014359 -0.5593434572
-0.089107029 -0.13802853 1.9930001 -0.2295045406 0.8254685402 0.5156834126
0.12518799 -0.066210538 1.9039999 -0.1476302594 0.8702013493 0.4700584412
-0.050289985 0.070405975 1.6390001 0.1050315574 -0.1905163825 0.9760491252
-0.015022561 -0.085127838 1.9039999 -0.2128657699 0.9143522382 0.3444534838
-0.091322362 -0.088001549 1.8940001 -0.1791255474 0.9174219966 0.3553180695
-0.22832958 -0.42754331 1.748 0.5402064919 0.1923833191 -0.8192470074
0.39624986 -0.24220897 3.4680002 0.001332383486 0.8857769966 0.4641091526
-0.067079023 -0.032014988 1.7390001 -0.2489079833 0.9084989429 0.335670203
-0.13412648 0.11225804 1.6630001 0.9300299883 0.03180065006 0.3661050797
-0.10348874 -0.45401514 1.904 0.6816340685 0.1973415166 -0.7045788169
-0.023599867 -0.29204834 3.3650002 -0.1522843838 0.8756257296 0.4583547115
-0.15292135 0.38493994 2.0050001 -0.7648789883 0.6422380805 0.04990405589
-0.19501977 -0.47496748 1.7940003 0.6107873321 -0.1431857198 -0.778740406
-0.13202336 0.28984439 1.7310001 0.8941591382 0.3071348667 -0.3258029521
-0.11124725 -0.49978241 1.8940001 0.5625068545 0.04819056392 -0.825387001
-0.22642459 -0.069313653 1.7570001 0.03351057693 0.9234203696 0.3823242486
-0.044378795 -0.1261476 1.9930003 -0.1427037418 0.8477196097 0.5108885765
-0.17056865 -0.35413301 1.853 0.8312537074 0.1321187466 -0.5399647355
0.39035249 -0.21156509 3.3990002 -0.0150339473 0.8841500878 0.466961056
-0.15486228 -0.25420791 3.3330002 -0.323430419 0.7296124697 0.6025432944
0.25315064 0.01143261 1.863 -0.6857840419 0.3779978454 0.6219468117
-0.13350931 -0.077880435 1.8130001 -0.2769957781 0.9130221605 0.2994392812
0.091177717 0.067262247 1.705 -0.6444243193 0.1709115207 0.7453231215
-0.031587761 0.022840381 1.6630001 -0.3451085985 0.7374296784 0.5806009769
-0.1682227 -0.31684661 1.863 0.8526485562 0.1857503504 -0.4883515537
-0.11265342 -0.11777403 1.9470001 -0.2457549423 0.8836384416 0.3984815776
0.025633732 -0.33204627 2.0400002 0.7129474878 0.1048455015 -0.6933348775
-0.24182762 -0.49135676 1.7570001 0.370844692 -0.4846624732 -0.7921972871
-0.12380724 -0.42424619 1.8830003 0.6184261441 0.2404683381 -0.74814713
-0.21068667 -0.21068667 1.863 0.8457720876 0.4095590413 -0.3419517577
-0.053836972 -0.28307828 1.9810001 0.4600624144 0.3638443947 -0.8099134564
-0.27967858 -0.17739613 1.8230001 0.1668656021 0.8357061148 -0.5232123733
-0.024255028 -0.027351415 1.7660002 -0.3728412092 0.8768210411 0.3036021888
-0.15553996 0.35168886 1.748 0.7518247366 0.1143024787 0.6493800879
-0.15946391 0.39788568 1.766 0.8760606647 -0.1751011014 0.4492853582
-0.10527714 -0.052638575 1.7659999 -0.340547502 0.8748652935 0.3444389105
-0.21268073 -0.38394633 1.7760003 0.8404726386 0.3234924376 -0.4346933961
-0.19308409 -0.059764121 1.748 -0.2608502209 0.8086670637 0.5272710323
-0.13435619 0.35476074 1.7220001 0.6339259744 0.08742734045 0.7684362531
-0.13170339 0.24712883 1.6880001 0.7667559981 -0.1359893978 0.6273691654
0.072261296 -0.32851565 2.0780001 0.4472202361 -0.02776423469 -0.8939928412
-0.19079597 -0.19754982 1.9260001 0.4438338578 0.7540934682 -0.4841018319
-0.26514345 -0.094808877 1.8330001 0.4577907324 0.8013005853 0.385155797
-0.13541168 -0.22359996 1.9470001 0.7184781432 0.3606458008 -0.5947468281
0.17282256 0.070063196 1.7760001 -0.6443619728 0.1333332509 0.7530072331
0.16519907 -0.24484861 3.3650002 -0.1785306036 0.9637183547 0.1984283477
-0.29331598 -0.20838806 1.794 -0.06383722275 0.7017335296 -0.7095736861
-0.1368722 -0.32548881 1.9040002 0.7245624065 0.262072444 -0.6374381185
-0.24696226 -0.22993039 3.2380002 -0.3324868083 0.7543832064 0.5660021901
-0.08948838 -0.35288814 1.9260001 0.5393909812 0.1490391642 -0.828760922
-0.15016335 0.010205276 1.6630001 -0.2191688269 0.6557415128 0.7224736214
-0.1987973 -0.046336215 1.705 -0.3133332729 0.888476193 0.3353092372
-0.10476078 -0.24558677 1.9589999 0.4781190455 0.3812354803 -0.7912405729
0.12510541 -0.042137332 1.8630002 -0.2410257757 0.8191189766 0.5205292106
-0.11603442 -0.091404475 1.8730001 -0.2593311667 0.9040597677 0.3397400379
-0.19136231 -0.41277325 1.8040001 0.8047030568 0.04944025353 -0.5916153193
-0.16565669 -0.07276509 1.7660002 -0.1930339783 0.8933181763 0.4058577418
-0.15441445 -0.46416658 1.8430002 0.8056800961 0.1281188577 -0.5783296824
-0.25415006 -0.32500401 1.7570001 0.4580186605 0.1546519548 -0.8753865957
0.035810079 -0.01089872 1.7760001 -0.3285978734 0.8288646936 0.4527766705
-0.2347275 -0.31453487 1.785 0.5808206201 0.04151935503 -0.8129720092
-0.0017577166 -0.39372852 2.0050001 0.7072389126 0.4350781739 -0.5572432876
0.1042494 -0.11240298 1.9930001 0.08029910922 0.865262568 0.4948461652
-0.094901651 0.015882568 1.6470001 0.2688402236 0.2246429771 0.9366218448
0.03599593 -0.28616765 2.0530002 0.64116925 0.5161496401 -0.5678833723
0.006202417 -0.46418884 1.9810001 0.7487619519 -0.03810353577 -0.6617429256
0.075112797 -0.073443621 1.9040002 -0.1817088574 0.8424856663 0.5071486831
0.29432592 -0.45671263 3.8590002 0.01384863444 0.920887351 0.3895827234
-0.20506869 -0.34529561 1.804 0.9060514569 0.143952921 -0.3979300261
0.022576796 -0.12330404 1.9810001 -0.1768310517 0.8413758874 0.5107028484
-0.01413888 -0.15022559 2.016 -0.2210431993 0.8576373458 0.4643253684
-0.0085869497 -0.3967171 1.9590001 0.5500032902 0.399212271 -0.7335706949
-0.16271985 -0.26400462 1.8940001 0.8119282722 0.1789370924 -0.5556563735
-0.02165805 0.079412848 1.6470001 -0.4255001545 -0.338627398 0.8392145634
-0.20401436 -0.090145878 1.8040003 -0.1756140739 0.9158805609 0.3610020876
-0.15909046 -0.0044604801 1.6960001 0.009487165138 0.8176255226 0.5756722093
0.075112797 -0.00156485 1.7850001 -0.1798179746 0.838989675 0.5135775208
0.0046445802 -0.015172295 1.766 -0.3023018539 0.8851020336 0.3538474441
-0.0070694401 -0.27040607 2.016 0.5923323035 0.3602199554 -0.7206830382
-0.026596313 -0.11778368 1.97 -0.009599822573 0.8780824542 0.4784130454
0.11360811 0.0065723695 1.7850001 -0.2576465607 0.8156881928 0.5179488659
-0.24490823 -0.35581011 1.7570001 0.3193334341 0.2776007652 -0.9060706496
0.015196141 -0.083860181 1.9260001 -0.155707255 0.896058023 0.4157346189
0.16438025 -0.055208523 1.8940001 -0.04320054129 0.7945017815 0.6057232618
-0.13299763 0.035304826 1.6550001 -0.5902445912 -0.1620356888 0.7907944322
-0.28247488 -0.44797549 1.748 -0.2156151086 -0.1063896716 -0.9706653953
0.0091085667 -0.24957472 2.0780001 0.5914667845 0.7715918422 -0.2341220081
-0.0017577166 -0.36384735 2.0050001 0.7510399222 0.1407969892 -0.6450699568
0.032664601 -0.057163049 1.863 -0.2137157321 0.8906679749 0.4012931287
0.16556638 -0.091317549 1.9470001 -0.073012501 0.8630914092 0.4997423291
-0.014304571 -0.048211697 1.8130001 -0.3265048563 0.8617563844 0.3882918358
-0.36451799 -0.33848101 3.3000002 -0.317991823 0.7462399006 0.5848137736
0.06449461 -0.093347467 1.9360001 -0.1646321118 0.884418726 0.4366918802
-0.037483811 -0.45352036 1.9260002 0.4814669192 0.02612849884 -0.8760747313
0.082790643 -0.37255791 2.0530002 0.485545218 -0.2251492739 -0.8447210789
-0.20288345 -0.44665813 1.794 0.8070637584 0.05165348575 -0.5882006288
-0.097569495 -0.041162129 1.7390001 -0.2571481466 0.9107032418 0.3232559562
-0.24505682 -0.20327663 1.8330001 0.2325731665 0.6101902723 -0.7573490739
0.12460151 -0.087050371 1.9470001 -0.04791089892 0.8907467127 0.451967746
-0.19443852 -0.098022729 1.8330001 -0.2417078465 0.9012220502 0.3596889675
0.075752944 -0.025890246 1.8230002 -0.1172455624 0.840471983 0.5290182829
0.023397356 -0.15658231 2.0530002 0.02563765272 0.9326653481 0.3598305583
-0.16671044 -0.08020974 1.794 -0.2622175515 0.9091918468 0.323437959
0.20465493 0.0053856554 1.8430001 -0.4824937582 0.6865808368 0.5438809991
-0.20776123 -0.27488407 1.8230001 0.8683943152 0.2296064198 -0.4395135641
0.024704641 -0.25405222 2.1030002 0.7692070603 0.5864008069 -0.2538791895
-0.14016761 0.41742221 1.7570001 0.8595619202 -0.1622841954 0.4845793247
0.024611715 -0.036757756 1.8230002 -0.1915550977 0.8587398529 0.4752604961
-0.13407783 -0.36321393 1.8940001 0.6949936152 0.19534567 -0.6919710636
-0.23003295 -0.082937047 1.7850001 0.320153147 0.7610462904 0.5641901493
0.066907197 0.055012584 1.6960001 -0.4972239435 0.4255474508 0.7560936809
-0.12578413 0.18349686 1.6880001 0.7464351654 -0.2702044547 0.6081316471
-0.062562063 -0.34470469 1.9589999 0.5584209561 0.2582300305 -0.7883421183
-0.24197052 -0.11228697 1.8040001 0.2127126306 0.8134823442 0.5412945747
-0.2924639 -0.20296673 1.8230001 -0.2020312697 0.7978740931 -0.5679615736
-0.25600713 -0.22560079 1.794 0.3701967299 0.5709573627 -0.7327769399
0.016198169 -0.26457009 2.0530002 0.6250584126 0.6753619313 -0.3913927078
0.19726841 0.36503875 2.1030002 0.008276551962 0.9736626744 0.2278430909
-0.14502609 0.13916644 1.6710001 0.9619501233 0.179371655 -0.2061012834
-0.01826272 -0.23741536 2.016 0.5966799855 0.3401608467 -0.7268174291
0.22481906 -0.026898589 1.8940001 -0.1372735053 0.6705083847 0.7290915847
-0.1181922 -0.28534973 1.9260002 0.6638981104 0.1769364923 -0.7265898585
-0.17423713 -0.42537731 1.8330001 0.755543828 0.244373709 -0.6078116894
0.075128585 -0.047363669 1.863 -0.2073957026 0.8671838045 0.4527463913
-0.17006545 -0.47522959 1.8130001 0.8133545518 -0.09450232238 -0.5740414858
0.024115346 -0.21703811 2.1160002 0.9742869139 0.2027005553 -0.0983742252
-0.18158309 -0.37441468 1.8330001 0.8381835818 0.2127128989 -0.50219661
0.22214471 0.052739389 1.8230001 -0.6286575198 0.2675222754 0.7302201986
-0.015432402 -0.060917374 1.853 -0.2483299077 0.8801505566 0.4045580626
-0.163323 -0.3821758 1.863 0.8188429475 0.3121164143 -0.4817463756
-0.1454127 -0.092094712 1.8430001 -0.3410981297 0.9053508639 0.2529661059
-0.1333068 -0.01025437 1.6710001 -0.1598127037 0.786868751 0.5960683227
-0.21509905 -0.22428153 1.8330001 0.7613144517 0.3787159622 -0.5262836814
-0.092902496 -0.31625864 1.9470003 0.6567303538 0.2599287629 -0.7079139948
-0.26510751 -0.38463575 1.748 -0.01425735466 0.1319181025 -0.9911580682
-0.27280554 -0.27176228 1.7850002 0.002684281906 0.466948539 -0.8842804432
0.13025075 -0.1267774 1.9810001 0.1277021617 0.7776443958 0.6155983806
-0.10537358 -0.06133686 1.794 -0.3307043314 0.8846359253 0.3287156224
0.044183996 -0.42593372 2.016 0.3809505403 0.01432817057 -0.9244843721
0.040891241 -0.311129 2.0280001 0.5808241367 -0.1236746237 -0.8045793772
-0.15352099 -0.30539122 1.8830003 0.7739169598 0.1427418292 -0.6169905066
0.0030034599 0.00750865 1.7130001 -0.4000630081 0.8311895728 0.3861003816
-0.29111734 -0.41742221 1.7570001 -0.5528180003 0.1428836435 -0.8209607601
-0.17291811 -0.21488854 1.9150001 0.4673419297 0.715592742 -0.5191518068
0.15801477 -0.0069633634 1.8330001 -0.118224524 0.8437367082 0.5235755444
-0.054163098 -0.23630835 1.9930001 0.3684270978 0.5935906768 -0.71547997
-0.03834014 -0.31673792 1.97 0.479097724 0.0603107959 -0.8756871223
-0.1585101 0.36985689 1.7220001 0.748016119 -0.02888903208 0.6630515456
-0.015724771 -0.33371457 1.9930003 0.7444263101 0.2587795556 -0.6155181527
-0.15467556 0.36802116 2.0280001 -0.3922561407 0.902459681 0.1780496389
-0.13891003 0.25754669 1.7130001 0.8948718905 0.2669766545 -0.3576699495
-0.17219311 -0.10234119 1.853 -0.2412676364 0.9209771752 0.3059263527
-0.14605705 -0.26357421 1.9150001 0.6711896062 0.2308121622 -0.7044361234
0.23104462 0.016156968 1.8430001 -0.6350795627 0.3336643875 0.6966649294
-0.14855643 -0.12184966 1.904 -0.3986344337 0.7988007665 0.4505640566
-0.046798874 -0.36623347 1.9589999 0.4637919068 0.1236942038 -0.8772666454
-0.086786851 -0.38530657 1.9260002 0.5270753503 0.4085193276 -0.7451869249
0.16845764 -0.10246392 1.9810001 -0.1778850108 0.8640704751 0.4708918333
-0.1910879 -0.26621649 1.863 0.7818304896 0.3206249177 -0.5347342491
0.080990851 -0.14938313 2.0530002 -0.1149561256 0.8946627378 0.4316985607
0.35694799 -0.20354885 3.3650002 -0.197538361 0.8706910014 0.4504173398
0.046856079 -0.37306023 2.0400002 0.7942565084 0.2651903033 -0.5466541052
0.031547725 -0.071397483 1.8940001 -0.0829243958 0.898275733 0.4315370321
0.03369293 0.08203496 1.6710001 -0.5248132944 0.03004395403 0.8506869674
-0.086738862 -0.43593273 1.9150001 0.5214239955 0.2348010689 -0.8203569055
-0.091405652 0.042075615 1.6550001 0.4908528626 -0.3254801929 0.8081622124
-0.015456511 -0.42419538 1.9589999 0.5732460022 0.06968285888 -0.8164148927
-0.04741627 0.027300276 1.6390001 -0.2147172689 0.6052849293 0.7665028572
0.05974045 -0.38559747 2.0650001 0.7362510562 0.1181846485 -0.6663082838
0.20196559 -0.031197937 1.8730001 -0.4819736183 0.720802784 0.4981412888
0.17627575 -0.064354636 1.9150001 -0.0835101828 0.85798949 0.5068333745
-0.066572607 -0.13140853 1.9810001 -0.2859473526 0.8063775897 0.5176767707
-0.094986834 -0.12814587 1.97 -0.1781794131 0.8747284412 0.4506687224
0.16922121 0.020559587 1.8040001 -0.3593230844 0.7402918935 0.5682031512
-0.18278061 -0.49748117 1.8130001 0.6657902002 -0.3359691799 -0.6662192345
-0.28508586 -0.39790058 1.7390001 -0.4344551861 0.1484596133 -0.8883740306
0.14557926 0.047504812 1.748 -0.5231713057 0.4495460689 0.7240166068
-0.026578406 -0.47572905 1.9470003 0.6571897268 -0.003536913544 -0.7537169456
0.47589064 -0.44518802 4.0410004 -0.2093374282 0.9376515746 0.2774660289
-0.11459068 0.015162123 1.6630001 -0.1050270721 -0.06068288535 0.9926161766
0.34087694 -0.2180384 3.5030003 0.02863589302 0.8976185322 0.4398419261
-0.048370961 -0.40648577 1.9360001 0.5578879714 0.2482244074 -0.7919252515
0.41067976 -0.29155129 3.5760002 -0.1176461726 0.8527188301 0.5089498758
0.096044973 0.026788056 1.7390002 -0.249080047 0.7294334769 0.6370917559
0.20864667 -0.061759412 1.904 -0.1237260625 0.6729192138 0.7292952538
-0.097963996 -0.47653672 1.8940001 0.6612055898 0.1170225665 -0.7410215139
0.16333438 0.045671701 1.766 -0.5197214484 0.2765819132 0.8083267212
-0.087050371 -0.12118777 1.9470001 -0.1859843433 0.8848044872 0.427236259
0.063624963 -0.46835041 2.016 0.5478785038 0.2501473427 -0.7982828021
-0.15027294 -0.22456516 1.9260001 0.6982995272 0.5195067525 -0.49243325
-0.12518799 0.1531712 1.6800002 0.9945921302 0.0920239836 0.04814619198
0.27707049 0.26633132 2.45 -0.2303895205 0.906916678 0.3527362347
0.19294381 0.03479315 1.804 -0.7388553023 0.3369093835 0.5835965872
-0.13001142 -0.31405354 1.9260001 0.5498663187 0.253049314 -0.7959981561
0.04133378 0.034791745 1.6960001 -0.4236854911 0.6622307301 0.6180138588
0.025603049 -0.093877852 1.9470001 -0.04691913351 0.8879345059 0.4575707018
-0.065293632 -0.054449011 1.804 -0.2107179761 0.86722821 0.4511243105
0.02636575 -0.12831332 2.0050001 -0.1633923203 0.8907894492 0.4240248799
-0.0070308666 -0.29353866 2.0050001 0.5921269655 0.1206695586 -0.7967587709
0.078623846 -0.11706217 1.9930001 -0.1610646844 0.8783000708 0.4501634836
0.037114561 -0.47541985 2.016 0.3301770687 0.01774824969 -0.94375211
0.37868842 -0.35603186 3.6920002 -0.2038665265 0.8866361976 0.4151080549
0.0051811002 -0.1088031 1.9700001 -0.215775311 0.7574530244 0.6162028313
-0.077282548 -0.29367369 1.9590001 0.4088158906 0.2665821016 -0.8728135824
-0.15247162 0.30343363 1.7220001 0.840708375 0.3046464622 -0.4476605356
-0.11752155 0.084151238 1.6550001 0.7959216833 0.06751339883 0.6016233563
0.054788157 -0.12901728 2.016 -0.1059608161 0.8472387195 0.5205370784
-0.069097988 -0.072311848 1.8330001 -0.2036387175 0.9179685712 0.3403893709
-0.15477373 -0.059764121 1.748 -0.04787286371 0.8714676499 0.4881109893
-0.22488432 -0.40509978 1.7570001 0.4533379674 0.06513408571 -0.8889557123
0.40258375 -0.4364143 3.8590002 -0.2538027167 0.9024754763 0.3480261266
-0.20794095 -0.43744615 1.7570001 0.7425211072 0.04578832909 -0.668255806
0.0554404 -0.14664879 2.0400002 -0.2175332159 0.865730226 0.4507665336
-0.23390606 -0.46583176 1.7570001 0.3781678081 -0.2886805236 -0.8795752525
-0.0050201439 0.016836207 1.6847999 -0.4703413248 0.735735774 0.4873108268
-0.11517297 -0.39559409 1.9040002 0.5784132481 0.1863083392 -0.7941834331
-0.046209101 -0.032346372 1.7570001 -0.2643129528 0.9194234014 0.2912031114
-0.12549154 -0.34373772 1.9150001 0.6449667215 0.2310677618 -0.7284405231
-0.08414948 -0.01181396 1.6840001 -0.2161665708 0.8968477845 0.3859224021
-0.094648883 -0.23184633 1.9810001 0.6534906626 0.4309608042 -0.622272253
0.10476079 -0.093597755 1.9590001 -0.0573515147 0.8834214211 0.46505633
-0.21507218 -0.32516402 1.7939999 0.6559947729 0.2007248104 -0.7275853157
-0.27879491 -0.29727855 1.7570001 -0.07780058682 0.3918791115 -0.9167212248
0.0053020804 -0.13608672 2.016 -0.2140324414 0.8787143826 0.4266744554
0.018456023 -0.43327716 2.0050001 0.79300493 0.2289855629 -0.5645429492
-0.014449219 -0.0062541403 1.7220001 -0.409658283 0.8213655949 0.3969114125
-0.14862393 -0.40504104 1.863 0.8545510173 0.2314345986 -0.4649522901
0.064029977 0.019818803 1.7390001 -0.350490123 0.8065238595 0.4761049747
-0.08310011 0.0026242142 1.6630001 -0.1138182878 0.7117675543 0.6931322813
-0.12550886 -0.11425246 1.9260001 -0.3486418724 0.838660717 0.4184459448
0.39390299 -0.33625865 3.6530001 -0.2273995429 0.8776628971 0.4218972623
0.072893083 -0.42491332 2.0280001 0.8617724776 -0.02185530588 -0.5068240166
0.0092181498 -0.23598464 2.1030002 0.8402052522 0.4560534954 -0.293377459
-0.1546782 -0.037543248 1.7129999 -0.02416351438 0.8825762868 0.4695478678
-0.052614026 -0.47013178 1.9360001 0.2857388258 -0.0121117942 -0.9582309723
-0.17399046 -0.11192175 1.8830001 -0.2719039619 0.8708254695 0.4095500112
-0.19980898 -0.22904932 1.853 0.8358854055 0.3723621368 -0.4032889903
0.056119811 -0.2932713 2.0650003 0.7837952375 0.3606226742 -0.5055850744
-0.29419795 -0.34524801 1.7570001 -0.3085774183 0.02125011198 -0.9509618282
-0.055719178 -0.43435633 1.9260004 0.3898257911 0.2682595551 -0.8809498549
-0.18568327 -0.036230877 1.7220001 -0.2146908045 0.9155515432 0.340107739
-0.0061910204 -0.093990929 1.9260001 -0.2288799584 0.8846950531 0.4061141014
