# .PCD v0.7 - Point Cloud Data file format
VERSION 0.7
FIELDS x y z normal_x normal_y normal_z
SIZE 4 4 4 4 4 4
TYPE F F F F F F
COUNT 1 1 1 1 1 1
WIDTH 512
HEIGHT 1
VIEWPOINT 0 0 0 1 0 0 0
POINTS 512
DATA ascii
0.15011601 0.075710684 1.4890001 -0.5273686051 0.4201598465 0.7384768724
-0.41512096 -0.49870235 3.1780002 -0.1941332072 0.755538106 0.6256791949
0.49172905 0.024468059 2.7010002 -0.1520128995 0.8311730027 0.5348303914
-0.46081808 0.057355039 2.256 0.8537852168 0.4501498938 0.2615643144
-0.43749261 0.34508491 1.6470001 0.533300221 0.2199825197 0.8168222308
-0.10471507 -0.49468848 1.6960001 0.4068510532 0.08477599919 0.9095522165
0.0076480401 -0.16060884 2.9080002 -0.09948717803 0.6559488177 0.7482202053
0.10353082 0.33774811 1.9360001 0.9416701794 0.3299083114 -0.06646680087
0.48586971 -0.22637111 3.1490002 -0.1783557981 0.8151888847 0.5510501862
-0.28656131 -0.088025048 1.5640001 0.0182491634 0.822350204 0.5686889291
0.30240554 -0.31442717 1.655 -0.2091307193 -0.02001918294 0.9776827693
-0.36534646 -0.29078594 2.835 -0.1941332072 0.755538106 0.6256791949
0.038127985 0.43870154 1.572 0.3000613451 -0.3041066527 0.9041472673
0.0046708803 -0.1634808 1.7760001 0.4468830228 -0.7988063097 0.4027456343
0.30284449 0.1610875 2.45 -0.1415260732 0.881870985 0.4497487247
-0.33865196 0.18582441 1.9810001 0.8967699409 0.387015909 0.2145280838
-0.12829286 0.10436571 1.4116669 0.237936154 -0.4021759927 0.8841045499
-0.16507107 -0.35410407 3.0370002 -0.1982857883 0.742628634 0.6396760345
0.29065445 -0.13395379 2.8830001 -0.1584614664 0.8228561878 0.5457084179
0.21227519 -0.027865434 1.7336668 0.7899866104 0.4797225296 0.3818212748
0.13037699 -0.47756064 1.6710001 0.09423538297 0.4272896051 0.8991903663
-0.043102194 -0.029198259 1.5860001 -0.1727572381 0.8865198493 0.4292289615
-0.3573311 0.13347776 1.5860001 0.7837208509 0.5031117201 -0.3642255664
-0.19155167 -0.28502887 1.748 0.6443480849 -0.3956837058 0.6544080973
0.49011102 -0.12187946 2.9580002 -0.1584614664 0.8228561878 0.5457084179
-0.47921669 0.27778322 1.853 0.444273442 0.8582700491 0.2568922043
0.11234446 0.26531604 1.523 0.394713372 -0.3258859217 0.859069109
-0.0074341334 -0.33453599 1.6960001 -0.3642086089 -0.3268177807 0.8720906973
0.15528046 -0.19483304 1.6710001 0.3111565113 -0.0782777369 0.947129488
0.27423099 -0.22098224 3.0370002 -0.1894388646 0.7689684629 0.6105738878
-0.15538038 -0.12282451 1.6880001 -0.3257911503 0.8229004741 0.4655050039
-0.49653524 0.07878603 2.0900002 0.8487589955 0.4837633967 0.2134973556
-0.26215664 0.022521565 1.454 0.1740256548 0.2253833264 0.9586018324
-0.24684128 -0.25969759 2.9330001 -0.2058441192 0.713630259 0.6695969701
0.025382424 0.13455884 1.4125 0.1877846569 -0.2884567976 0.9388980865
-0.02354376 -0.29037303 2.9840002 -0.1075803041 0.6442579031 0.7572042346
0.11481931 -0.013259232 1.609 -0.1685245037 0.9080039263 0.3835731745
0.15453705 -0.33677411 1.6630001 0.1609497815 -0.238120839 0.9578067064
-0.16562688 -0.041743357 1.5359999 -0.4068225622 0.7893947959 0.4597295821
0.025276056 -0.060959894 1.6960001 -0.09761757404 0.9149220586 0.3916484118
0.36805272 0.016839013 2.7440002 -0.1520128995 0.8311730027 0.5348303914
0.024918372 0.034098826 1.4960002 -0.09052694589 0.8476791382 0.5227283835
0.28272763 -0.18897338 1.6710001 -0.1290212423 -0.3277299702 0.9359201789
0.24346875 -0.42133212 1.6630001 -0.2455991358 0.5604471564 0.790936172
-0.12489344 -0.37468031 1.6959999 0.2101954371 -0.04393798485 0.9766715765
-0.075116739 -0.24204284 1.7310001 0.06050538644 -0.328843981 0.9424440265
0.014798133 -0.4557825 1.688 0.09568246454 0.008292332292 0.9953773618
-0.33578262 0.020474549 1.557 0.1221973896 -0.1510582864 0.9809430242
-0.19737887 -0.17693326 1.794 0.8162001371 0.2484022528 0.5216451287
-0.38677466 0.24628317 1.609 0.5268361568 -0.143672362 0.8377361894
0.49626523 -0.062659748 2.8590002 -0.1520128995 0.8311730027 0.5348303914
-0.086100586 0.024190737 1.4835999 -0.1652599573 0.83958745 0.5174765587
0.061283384 -0.24662825 1.705 0.1887290776 -0.2441530526 0.9511942863
0.20155267 0.026051026 1.5640001 0.01722802967 0.8641816974 0.5028849244
0.086652182 -0.14281006 1.7220001 0.59718436 0.09408195317 0.7965672612
-0.06449417 -0.10698445 1.7310001 -0.241668433 0.8448306918 0.4773441255
-0.24545789 -0.13355798 1.6470002 -0.2242476195 0.8400335312 0.4940209687
0.21486554 -0.12294044 1.705 0.1084669009 -0.5710414648 0.8137238622
0.14207844 0.17355429 1.4960002 -0.08134259284 -0.1713781506 0.9818415642
0.098569766 -0.13648123 2.8830001 -0.160582602 0.7194079757 0.6757702231
0.084188931 0.35572001 1.5557274 -0.1389754713 -0.3520089388 0.9256216884
0.22087133 -0.26679507 1.6630001 0.4556494355 -0.07168322802 0.8872683644
-0.12381899 -0.067151263 1.6159999 -0.2475920171 0.870190084 0.4259899557
0.075470477 -0.38515502 1.6879998 0.2955272794 -0.2855637968 0.9116561413
-0.16763766 0.026602449 1.4450001 -0.2970844507 0.7211716771 0.6258212328
-0.044823356 0.07399828 1.4233077 -0.08324937522 0.7133322358 0.6958640218
0.1228245 -0.051793467 1.6880001 -0.008747552522 0.8388340473 0.5443169475
0.1110272 0.12349866 1.423 -0.5224428177 0.3686041534 0.7688851953
0.19203471 -0.00721935 1.6470001 -0.4150649011 0.7882512212 0.4542918801
-0.45759895 0.10147592 2.184 0.8457077146 0.4781562686 0.2369493842
-0.24428859 -0.048225258 1.503 -0.2028040439 0.8019607067 0.5618981123
0.10637823 0.023340372 1.5360001 -0.1406624913 0.8850752115 0.4436844587
0.035306245 -0.007696507 1.575 -0.1682369709 0.9054989815 0.3895740807
-0.20402136 -0.088036619 1.5940001 -0.3384761512 0.8113238811 0.4766418338
-0.05470119 -0.41602254 1.6864001 -0.0005770899006 -0.1177091151 0.9930479527
-0.053942174 -0.067063242 1.6630001 -0.3038444817 0.8986676931 0.3163461983
0.32176471 -0.18573411 2.9840002 -0.17997697 0.7864492536 0.5908517838
0.28286645 -0.37636819 1.6160001 0.05852634832 0.05544784293 0.9967448115
0.16917297 -0.41408211 1.6550001 0.2323975712 0.2192404121 0.9475890398
-0.48891699 0.11911796 2.0280001 0.9082741141 0.3690762818 0.1970300376
-0.11724714 -0.3024272 1.7220001 0.2764863372 -0.4401418865 0.8543011546
0.1354976 -0.265104 1.6800002 0.4276940227 -0.04813598096 0.9026409984
-0.0039483318 -0.22418788 1.7326 -0.1801253706 -0.3074115217 0.9343730807
0.22524375 -0.34508491 1.647 0.04814750701 -0.04284012318 0.9979211092
0.063339166 0.068406299 1.4450001 -0.1184439138 0.7541999221 0.6458742619
0.084749125 -0.31520724 1.6960001 0.2074674964 -0.08326809108 0.9746915698
-0.14643314 -0.44382828 1.7220001 0.7419912219 0.224198252 0.6318101883
-0.035140071 0.0042525502 1.5257272 -0.1204695851 0.8608776927 0.4943446815
-0.27467719 -0.29560497 2.9840002 -0.1941332072 0.755538106 0.6256791949
-0.095590562 -0.021192247 1.5430001 -0.2391904294 0.853841424 0.4623231888
0.14719585 -0.1278671 1.6960001 0.3664854169 -0.4264878035 0.8269199729
-0.12259307 -0.13638479 1.748 -0.3366139829 0.7997555137 0.4970735908
0.0050075199 -0.037914079 1.6320001 -0.2155944556 0.9056847095 0.3650400639
-0.30655542 -0.036147594 1.5270001 0.8616300821 0.1799294949 0.4745724499
-0.19272377 -0.15630352 1.7310001 -0.3150290847 0.8877598047 0.3356175721
0.026716415 0.49503049 1.6042 0.6569650173 -0.1131863818 0.7453762889
0.29168192 -0.24570249 1.6390001 0.008864712901 -0.0583742559 0.9982554317
-0.40092421 0.18275344 1.6160001 0.0922690779 0.03883263096 0.9949765801
-0.17572764 -0.34568882 1.7310002 0.5780411959 -0.05085226893 0.8144215345
0.069880851 -0.48916596 1.6960001 -0.05835362896 0.4407740235 0.8957193494
-0.16789307 -0.22026338 1.7570001 0.8464918137 0.2261956632 0.4819617867
-0.035485126 -0.49534824 1.6866666 -0.08654063195 0.3634738624 0.9275761247
-0.051090378 -0.19042778 1.766 0.4761689305 -0.7937002778 0.3785538077
-0.06807141 -0.34479651 1.6880001 -0.1198197901 -0.3431273699 0.9316151738
0.21659742 -0.20362249 1.6710002 0.12664105 -0.01700861007 0.991802752
0.064974152 -0.036096748 1.647 -0.1239974126 0.8874899745 0.443831265
0.0038657493 -0.39519852 1.6960001 -0.1888299435 -0.09609748423 0.9772965312
-0.19469188 -0.016716572 1.4855 -0.2747456729 0.7453439832 0.6074349284
0.099617384 -0.19626111 1.6960001 0.3451780677 -0.1961176544 0.9178180695
0.044007789 -0.1851362 1.7310003 0.3171182275 -0.08282188326 0.9447627068
-0.3531599 0.073690847 1.5860001 0.9425134659 0.1651362777 -0.2905139327
-0.037372299 0.13329454 1.4210001 0.1661242992 -0.3172189593 0.9336888194
0.014190428 -0.28562015 1.7220001 0.1490158439 -0.2153360993 0.9651034474
-0.0060805599 -0.092782013 1.7350001 -0.3133990169 0.8019461632 0.5085895658
-0.42099899 0.2888082 1.6390001 0.8922880888 0.134619534 0.4309286773
-0.11634331 0.048789129 1.427 -0.1686727852 0.5637138486 0.8085642457
-0.081095174 -0.29560497 2.9840002 -0.1462692469 0.6745452881 0.7235979438
-0.10438732 -0.096276402 1.6830002 -0.3244768679 0.8086004853 0.4907952547
-0.18165937 0.081999019 1.439 0.1748276502 -0.3789502382 0.9087529778
0.089359507 -0.4380081 1.6710001 0.3369739652 0.1238611788 0.9333311319
-0.042048439 -0.29283735 1.7130001 -0.04367157444 -0.336719662 0.9405916333
0.01125903 0.07881321 1.427 -0.1397950649 0.6973042488 0.7030107975
-0.17385966 -0.10201682 1.6390001 -0.3920057416 0.8065632582 0.4424784482
0.073971376 -0.067932896 1.7220001 -0.03439128771 0.8901333809 0.4544004798
-0.026645403 0.038030151 1.4756 -0.108910121 0.8047459126 0.5835431814
-0.13446604 -0.0053908932 1.507154 -0.2447822839 0.7772987485 0.5795587301
-0.19215307 -0.23485373 1.8040001 0.7805380225 0.1697360724 0.6016228199
0.10069656 0.3516126 1.8830001 0.9478809834 0.3098977804 -0.07406103611
0.092027634 0.047645517 1.4890001 -0.1641990393 0.8213455677 0.5462875366
0.26068559 -0.139916 1.6800001 -0.2579116821 -0.6527466178 0.7123225927
-0.23507817 -0.077453502 1.5500001 -0.2761435807 0.8412563205 0.4647929966
-0.29220143 -0.016401263 1.4770001 0.4020760655 0.5296722651 0.746848166
-0.1046968 -0.43691489 1.688 0.2745293677 0.01193682943 0.9615046382
-0.25404134 -0.10807284 1.6010002 -0.1253453195 0.8781548142 0.4616629183
0.16209918 0.0069870334 1.5940001 -0.4140454829 0.7921264768 0.4484439492
0.11376469 0.21344168 1.5159999 0.3632713556 0.01339558326 0.9315871
0.1962506 -0.075480998 1.7220001 0.3568975329 -0.1838308126 0.9158768654
0.12415113 -0.3849051 1.6710002 0.2569611073 0.001182793989 0.9664210081
0.079447038 0.30836225 1.536 0.2166432887 -0.2919334471 0.9315795898
-0.1350584 -0.25494167 1.7310003 0.09251286089 -0.2020919472 0.9749872684
-0.2032464 -0.139916 1.6800001 -0.3645384014 0.7983694673 0.4792889953
0.18462366 -0.4549222 1.681778 -0.2468684763 0.29620561 0.9226690531
0.11456281 0.081466876 1.4519999 -0.2804671824 0.6876605749 0.66967237
-0.16844361 -0.39607012 1.7310001 0.701636374 0.1457276046 0.6974738836
0.18331888 0.054858003 1.5263333 -0.2414496839 0.8561915159 0.456769228
0.16131368 0.12459186 1.4960001 -0.1827841103 -0.1814674288 0.966260612
-0.2225316 0.05278264 1.4450001 0.2645379603 -0.1382579058 0.954413116
0.044490431 -0.34597313 1.696 0.02877495438 -0.4184753299 0.907772243
0.055208955 0.016607573 1.5359999 -0.1669392288 0.8824696541 0.4397483766
-0.075793095 -0.053126 1.6160001 -0.2697777152 0.8418830037 0.467389524
0.14438699 -0.025267724 1.6470001 -0.2605372965 0.7960221171 0.5463232994
0.1855728 -0.154644 1.6800002 0.02425920032 -0.3337996006 0.9423318505
0.072668649 0.40447646 1.5640001 0.1693218499 -0.2315687686 0.9579697251
0.25556496 -0.30465657 1.6470002 0.06993062794 -0.09267287701 0.9932378531
-0.1342289 -0.047682948 1.572 -0.2700687647 0.8326301575 0.483518213
0.065001324 0.10593729 1.4150001 -0.1747895032 0.4698590934 0.8652635813
0.18269522 -0.29486543 1.6710002 0.1253347099 0.008252840489 0.9920802116
0.086146273 0.0025611189 1.5740002 -0.07454351336 0.891037941 0.4477662444
0.054680768 -0.14709897 1.7570001 0.3709064424 -0.662915051 0.650363028
0.047875818 -0.42315087 1.6960001 0.1078576669 -0.0561892502 0.9925771952
0.24978951 -0.2266876 1.6470001 0.01060128119 -0.100259304 0.9949048758
-0.083112381 0.11313207 1.4150001 0.3000614643 -0.2145735323 0.9294736981
0.15514019 0.024491727 1.5523334 -0.3266276121 0.7874295712 0.5227514505
-0.33317891 -0.039762095 1.5640001 0.7109709382 0.06155623496 0.7005220652
-0.3616215 0.16087885 1.6240001 0.8352835178 0.3250541091 -0.4434425533
0.18457867 -0.23585051 1.6710001 0.01755016483 -0.09208903462 0.9955961108
-0.13015869 0.0219079 1.47 -0.2761680186 0.7776896954 0.5647388101
0.20502953 -0.38551331 1.647 0.1949834973 0.06513824314 0.9786410928
-0.025276056 -0.077810593 1.6960001 -0.2444963157 0.8801423311 0.406904161
0.0062224045 0.0062224045 1.5430001 -0.1836043894 0.8474445939 0.4981235564
-0.11357698 -0.21648231 1.7390001 0.2617239058 -0.5452919006 0.7963399887
-0.24485299 -0.018041801 1.4700001 -0.198336795 0.7065179348 0.6793341637
-0.072047271 0.053208061 1.452 -0.2587885261 0.7846780419 0.5633017421
-0.015245233 -0.17836922 1.7390001 0.02020389028 -0.6744524837 0.7380417585
0.19385554 -0.023183743 1.6880001 -0.4731000364 0.8383616805 0.2707877755
-0.03600879 -0.37439275 1.688 0.1455617547 -0.06362894922 0.9873009324
-0.045412209 -0.45558703 1.6710002 0.1067815498 -0.04081853479 0.9934442639
-0.21257764 0.01145628 1.452 0.007034338079 0.5356340408 0.8444209099
0.11359847 -0.49774066 1.705 0.114818804 0.6117137671 0.7827023268
-0.41668844 0.23995507 1.6390001 0.6578451395 0.0296800863 0.7525681853
0.11292791 -0.34435856 1.6826669 0.5690050125 -0.1782943159 0.8027729988
0.1395478 0.041199826 1.516 -0.3475636542 0.8087134957 0.4745334387
-0.0013974067 -0.018166287 1.5940001 -0.2676317096 0.882034421 0.387799561
-0.084349364 -0.38475147 1.6879998 0.1349021792 -0.08052989095 0.9875810742
-0.014298434 0.10662546 1.398 -0.06186113134 0.07777812332 0.9950496554
-0.2046701 -0.04385788 1.516 -0.273982048 0.8005527854 0.532962501
-0.17392771 -0.066260993 1.574625 -0.4292863011 0.8007395864 0.4177671075
0.034561928 -0.083183616 1.7330002 -0.06926807761 0.8850029707 0.4604038
0.28195497 -0.39125487 1.6550001 -0.1309240311 0.4735190868 0.870998621
-0.27424762 -0.066000432 1.526 0.1905217469 0.8267992735 0.5292489529
-0.37380627 0.20541877 1.5940001 -0.07174360752 -0.176472798 0.9816874266
-0.13493215 -0.092372902 1.6550001 -0.353315711 0.8185949922 0.4528467953
-0.094429091 -0.073637366 1.6470001 -0.3009618223 0.8637598753 0.4041545391
0.12627526 -0.30675215 1.6710001 0.3916850686 -0.1137469113 0.9130412936
0.095156908 -0.27506295 1.6960001 0.3768433034 -0.04698993266 0.9250843525
-0.044007789 -0.2139689 1.7310001 0.2585043013 -0.3859511316 0.8855603933
0.13232757 -0.17098507 1.6960001 0.4699349105 -0.2021705955 0.8592370152
0.1297528 -0.43445322 1.6630001 0.1931750774 0.1285534203 0.9727061987
0.065253459 -0.016036864 1.6042001 -0.1657883823 0.8893375993 0.4261370897
-0.036304519 -0.044846758 1.6240001 -0.217264846 0.8854212761 0.4108833373
-0.21497971 -0.11389653 1.6240001 -0.2864481807 0.8343682289 0.4709322155
-0.08559861 -0.27782005 1.7129999 0.1253079921 -0.2392905802 0.9628280997
0.024311218 -0.49573746 1.688 -0.01627503522 0.2882600427 0.9574138522
-0.15933855 -0.30350199 1.7310001 0.3247371316 -0.1110184416 0.939266026
0.27415222 -0.34398347 1.6390002 -0.1313540787 0.005228673108 0.9913217425
0.21441469 -0.30610046 1.6470001 0.1911089718 -0.2559286952 0.9476169348
0.1044636 -0.033370316 1.6550001 -0.04851466417 0.9041420817 0.4244684279
-0.01952249 -0.25579467 1.7129999 -0.05367879942 -0.1418390572 0.9884332418
0.01540128 0.056471355 1.464 -0.0837425217 0.8301871419 0.5511592031
0.11448564 -0.23491859 1.6960001 0.3905601501 -0.1258187443 0.9119388461
0.044841498 -0.30492222 1.705 0.1735472828 -0.1016353369 0.9795670509
-0.013954153 -0.058524136 1.6630001 -0.2701178491 0.8455783129 0.4604711235
-0.064429156 -0.086731553 1.6960001 -0.3055645227 0.8184113503 0.4866551161
0.22530314 -0.15557343 1.671 0.04834854975 -0.3098379374 0.9495593309
-0.073760979 -0.00199354 1.516 -0.2158030868 0.8053234816 0.5521621704
-0.12314186 -0.11863667 1.7130001 -0.3358611465 0.8416355848 0.4229028523
-0.44386771 0.31495565 1.6710001 0.624517858 0.2797619402 0.7291849852
-0.31105536 -0.074060798 1.536 0.3822831213 0.3641033471 0.8492869735
0.16328444 -0.37467942 1.6630001 0.02440974116 0.09668687731 0.995015502
0.24857621 -0.37501958 1.6390001 0.1146068275 0.09505496174 0.9888527989
-0.10527076 -0.33503008 1.705 0.1410740465 -0.131493181 0.9812276363
-0.052775331 -0.29554188 3.0100002 -0.1075803041 0.6442579031 0.7572042346
-0.27487707 -0.26709753 2.9580002 -0.2058441192 0.713630259 0.6695969701
0.034721255 -0.22493339 1.7220001 -0.03288030252 -0.2281024158 0.9730817676
0.051704045 0.46813124 1.5940001 0.651311934 -0.1838496923 0.7362010479
-0.14386573 -0.33548647 1.7130001 0.3368162513 -0.2358244658 0.911559999
0.12467522 0.0050658914 1.5772501 -0.1423072368 0.8822051287 0.4488460422
0.20556343 -0.42279002 1.6630001 0.05834928155 0.5408167839 0.8391141891
-0.083963111 0.071505666 1.4210001 -0.03526850417 0.5985572934 0.8003032804
-0.17531368 -0.25378448 1.7760003 0.7751423717 -0.3022994101 0.5547696948
-0.086698823 -0.20281333 1.766 0.305673629 -0.8312974572 0.4642285407
0.073990665 -0.051793467 1.6880001 -0.02765170112 0.9152578712 0.4019184411
0.26406077 -0.26551163 1.6550001 0.1528561115 -0.1257503331 0.9802151918
-0.095473677 -0.042175263 1.5860001 -0.3315301836 0.8192683458 0.467853725
0.032856591 -0.14911836 2.8830001 -0.1616845727 0.6919092536 0.7036473751
-0.054475456 -0.0149846 1.5535001 -0.1902318746 0.876753509 0.4417183995
-0.16629401 0.0079539958 1.4770001 -0.4183207154 0.7437966466 0.5213198066
-0.15490292 -0.14427683 1.7323335 -0.3474552035 0.8185470104 0.4574446976
-0.00726669 0.01916218 1.5074999 -0.2945259809 0.8176799417 0.4946250618
-0.015118588 -0.42469403 1.6861539 -0.2820185125 -0.04472514242 0.9583659172
0.19438623 -0.33191445 1.6630001 0.4541465044 -0.4484639168 0.7698253393
-0.15630762 -0.080268472 1.6063334 -0.3258986771 0.832064569 0.4488414526
-0.13232757 -0.41482463 1.6960001 0.5131143928 0.09421024472 0.8531342745
-0.14475352 0.074663766 1.4242002 0.3126135468 -0.02757696994 0.9494799972
-0.015201401 0.059538815 1.4450001 -0.194550544 0.7931056023 0.5771772861
-0.075470477 -0.47502008 1.688 0.1852144003 0.05799099058 0.9809855819
0.055666581 -0.46730629 1.6710001 0.04565983266 0.03882635757 0.9982022047
0.073918492 -0.17536871 1.7130002 0.393032521 -0.2483310103 0.8853570819
-0.12764704 -0.47304496 1.7129999 0.5285457373 0.2513038814 0.8108549714
0.034989517 -0.047381643 1.6630001 -0.1054221615 0.9068465233 0.4080631435
-0.13256428 -0.027053932 1.5430001 -0.3375305533 0.8003252745 0.4955326319
0.03995496 -0.38771111 1.6880001 0.3078607023 -0.1263764948 0.9430009127
0.13810979 0.10455447 1.4723334 -0.8606936932 -0.07049056888 0.5042195916
0.30176884 -0.27866691 1.6470001 -0.1791500449 -0.04838907719 0.9826310277
0.072726645 -0.21431832 1.7130002 0.4891379476 -0.07798303664 0.8687132597
0.13799451 -0.22764702 1.6710001 0.4651093483 -0.1535547376 0.8718338609
0.064098358 0.035021082 1.5074999 -0.07678990811 0.8700675964 0.4869144559
0.19155167 -0.052102052 1.748 0.4790523946 -0.1186409742 0.8697316051
-0.35785884 0.10009079 1.5640001 0.9169760942 0.1843876988 -0.3537739515
0.24930033 -0.19244236 1.6630001 -0.1269963086 -0.3957297206 0.9095438123
-0.074328177 -0.31538522 1.705 0.120404914 -0.2084948868 0.9705836177
0.034708988 -0.026208827 1.6160001 -0.1100340039 0.8876415491 0.4471968114
-0.30984819 -0.00136497 1.557 0.4832454622 -0.2449070215 0.8405321836
0.22307399 -0.093782112 1.7310002 0.2474057823 -0.3326541781 0.9100173712
-0.045902267 0.019672399 1.4959999 -0.02568443306 0.8223596811 0.5683879256
-0.015630616 -0.013985288 1.5640001 -0.2133728117 0.8732926846 0.4379862249
0.013891003 -0.25341696 1.7130002 0.08896742016 -0.03452816978 0.9954358935
-0.19478832 -0.060871348 1.5430001 -0.251753211 0.828933835 0.4994887412
-0.18086071 -0.13900866 1.705 -0.4163878858 0.8250487447 0.3819891512
0.089194693 0.091707222 1.4330001 -0.2895417511 0.6656399369 0.6878147125
0.16799739 -0.0085422397 1.6240001 -0.3590036929 0.8417703509 0.4031612873
-0.16800703 -0.02248913 1.5090001 -0.4039825797 0.6889660358 0.601767242
0.16692916 -0.2667951 1.6630001 0.05594411865 0.01181555633 0.9983639717
-0.19231787 -0.32257301 1.748 0.6211543083 0.01478133351 0.7835488319
0.16377692 -0.037208714 1.6710001 -0.3332904279 0.7526467443 0.5678383708
0.026663993 -0.16274229 1.7479999 0.4577471316 -0.6685788035 0.5860631466
0.28526178 -0.22403012 1.6630001 0.1496078074 -0.3485628068 0.925268352
0.11658788 -0.13601923 1.705 0.2793352306 0.0695374608 0.9576723576
0.014868267 -0.36427256 1.6960001 -0.08215538412 -0.1366663575 0.9872045517
0.094668888 -0.46595827 1.6873332 0.2531710863 0.3415705264 0.9051154256
-0.091433994 -0.1261687 1.748 -0.3162472546 0.8367248178 0.447078526
0.09521915 -0.40578011 1.6710002 0.2061792463 -0.04408360273 0.9775207043
-0.10410066 0.037635304 1.4580001 -0.1506928056 0.8301450014 0.5367969275
-0.27281955 -0.040466055 1.489 0.1052532047 0.7398984432 0.6644336581
0.06277284 0.13662323 1.4039999 -0.2053803951 -0.03504192457 0.9780547023
0.076062404 -0.34657228 1.6880001 0.1949234456 -0.3308534622 0.9233313799
-0.34551889 0.050730947 1.5640001 0.9243594408 0.37607041 0.06427003443
0.15599494 -0.45923746 1.6630001 0.058042299 0.2897806764 0.9553315043
0.12413238 0.056631591 1.487 -0.2298910171 0.7630189657 0.6041127443
0.059259161 0.37622675 1.572 0.1534572393 -0.2099328041 0.9655978084
0.013788613 -0.31659201 1.7130001 0.1239285097 -0.2207520753 0.9674245715
0.0541883 0.052896533 1.4717501 -0.08625888824 0.8319532275 0.548099637
-0.044499591 0.10383239 1.41 0.1110668555 0.06100173667 0.9919390082
0.18229757 0.065574661 1.4960001 0.133568719 0.7798476815 0.6115529537
0.18604358 -0.1854576 1.6710001 -0.1019730046 -0.1693605483 0.9802644849
-0.23670788 -0.092745192 1.5790001 -0.1899999678 0.8765175343 0.4422861934
-0.16550064 -0.26510751 1.748 0.5587908626 -0.6346109509 0.5338742137
0.21624911 -0.052560549 1.7130001 -0.3111157417 -0.1421332061 0.9396835566
-0.03547607 -0.092841633 1.7220001 -0.2975087464 0.8091253638 0.5067589283
-0.014614706 -0.46438521 1.6800002 -0.3317415416 0.0820043087 0.9397993684
0.034733534 0.096757695 1.4150001 -0.06382060051 0.6297143102 0.7742007375
-0.043117974 -0.32710189 1.6960001 0.2238635868 -0.159390375 0.9614987373
-0.18711135 -0.20544246 1.785 0.7824910283 0.2585873008 0.5664277673
-0.36658636 0.17467582 1.5940002 0.7094746828 0.1649551243 -0.6851536036
-0.19354784 -0.12332509 1.6550001 -0.4502628446 0.785110414 0.4252822995
0.22189185 -0.23355503 1.6630001 0.4106062353 -0.2679575086 0.8715510964
-0.18264648 0.047538128 1.427 0.1080506071 0.1375654191 0.9845815301
-0.34417582 0.093096741 1.6090001 0.9587153196 0.04917350411 -0.2800836861
-0.093858123 -0.1073737 1.7130001 -0.3445112407 0.8350670338 0.42892313
0.015239533 -0.19508158 1.7385002 0.2589984834 -0.239744544 0.9356507659
-0.014306574 -0.30492216 1.705 -0.1820816696 -0.1512028277 0.9715883732
0.30429557 -0.34472394 1.6470002 -0.1003982797 -0.2213473916 0.9700131416
0.045051903 -0.2748166 1.7129999 0.2141231149 0.009887618944 0.9767566323
0.24961768 -0.1255562 1.705 -0.1892847717 -0.7298161983 0.6569167376
-0.15317647 -0.36492038 1.7130002 0.588468194 -0.1362548321 0.7969565988
-0.1049931 -0.0066451337 1.5159999 -0.1728816628 0.8067578673 0.5650253892
0.15488945 -0.15488479 1.6826668 0.3348283172 -0.3796581924 0.862409234
-0.055855937 -0.26418349 1.7220001 0.1013326645 -0.3071603179 0.9462474585
-0.10416379 -0.25512579 1.7220001 0.3522710502 -0.2010893375 0.9140394926
0.1696236 0.095817909 1.4770001 -0.08186536282 0.003149432596 0.9966384172
0.025368104 0.020027449 1.5230001 -0.08759521693 0.8630847931 0.4974049926
0.18698117 -0.35663587 1.6470002 0.3592632115 -0.03028068878 0.9327448606
-0.19507235 -0.16565669 1.766 0.8645403981 0.3325660229 0.3767887354
-0.41930529 0.32209611 1.6550001 0.4998658597 0.09395119548 0.8609920144
0.13176301 0.14625692 1.503 0.1287132055 -0.08004593849 0.9884460568
-0.11412446 0.078150451 1.4150001 0.0518819578 0.2460786104 0.9678602815
0.18585332 -0.12935393 1.6960001 -0.08641212434 -0.6756878495 0.7321057916
0.0147811 -0.4256041 1.6857144 0.05151162297 -0.173325181 0.9835166335
-0.0034692623 -0.48817477 1.6960001 -0.1150688156 0.2178524435 0.9691746235
-0.0044539049 0.13299076 1.4125 -0.07396728545 -0.3868557811 0.9191688895
-0.1450935 0.044966176 1.4336669 -0.069345586 0.463542223 0.8833571076
0.12794511 0.11021015 1.4450001 -0.7334275246 0.2046200335 0.6482396722
0.12662973 -0.20611687 1.688 0.4598114491 -0.045139689 0.8868685365
-0.10440905 -0.40661979 1.688 0.143493101 -0.1171719879 0.9826903939
-0.13232757 -0.44456118 1.6960001 0.522022903 0.1483386606 0.8399332166
-0.26501283 -0.12264216 1.6240003 -0.1233523339 0.8535325527 0.5062276125
-0.075140156 -0.44580179 1.6872 0.2014406174 0.002789445221 0.9794967771
-0.41240036 0.265284 1.6240001 0.6994880438 0.1082076654 0.706404686
0.10503782 -0.16618532 1.705 0.4322820902 -0.2860806584 0.8551549911
0.10470195 0.29265907 1.5290002 -0.0999410823 -0.2155447304 0.9713661671
-0.10929491 0.10929491 1.4330001 0.1338136792 -0.4261030257 0.894723475
-0.19474098 -0.29739514 1.7220001 0.4625586569 -0.07967393845 0.8830014467
-0.072351299 -0.028251458 1.572 -0.2106436193 0.8654958606 0.4544734955
0.15381557 -0.29444689 1.6710002 0.132689029 -0.0134284338 0.9910667539
0.49441895 -0.13341464 2.9840002 -0.1584614664 0.8228561878 0.5457084179
0.085422397 -0.021355599 1.6240001 -0.06049925834 0.9034487605 0.4244056642
0.2636838 -0.16699973 1.6710001 -0.1403215677 -0.2293774635 0.9631696939
0.069137439 -0.28695753 1.6960001 0.2351748347 -0.1329960227 0.9628109336
-0.28661966 -0.10626578 1.5860002 -0.05685535818 0.8793699741 0.4727324247
-0.24511804 -0.064462468 1.5265002 -0.2159160525 0.784724474 0.5810230374
0.096684061 -0.37648189 1.6710001 0.3551112711 -0.1510617435 0.9225379825
0.10172314 0.13358822 1.3980001 -0.1781544238 0.3667764962 0.9130914807
0.0045051896 -0.070581309 1.7129999 -0.2731511891 0.8827649355 0.3822492361
-0.14945237 -0.41514549 1.7220001 0.6829950213 0.1106540859 0.7219927311
-0.2258267 -0.031981237 1.4890002 -0.2503482103 0.7061072588 0.6623732448
0.12038299 0.24208887 1.5090001 0.4600335956 -0.162368387 0.8729293346
-0.2358505 -0.14502609 1.6710002 -0.2543435991 0.8251912594 0.5043497682
-0.27566081 -0.0040475694 1.4580001 0.2974087 0.3860864937 0.8732040524
-0.085542701 -0.21597415 1.7390002 0.09547401965 -0.5766116977 0.8114207983
0.087722771 -0.2453264 1.6960001 0.3631912768 -0.1068212166 0.925570786
-0.10210712 -0.46466139 1.6880001 0.3438900709 0.1212120131 0.9311537147
0.31929076 -0.19526872 3.0100002 -0.17997697 0.7864492536 0.5908517838
-0.18275344 -0.089251682 1.6160001 -0.404584676 0.8177230954 0.4094388187
0.1297528 -0.35426891 1.6630001 0.3048951924 -0.04337016866 0.9513978958
-0.054252226 0.037457194 1.4735001 -0.1366844177 0.7514175773 0.6455144882
0.17664833 0.042123832 1.5500001 -0.1839185953 0.7478098869 0.637929678
0.035650901 0.068587273 1.4449999 -0.0858161971 0.7781546712 0.6221823692
-0.23463641 0.026602449 1.4449999 0.2414290458 0.2348470688 0.941572547
-0.013645316 0.078150451 1.4150001 -0.184822917 0.666054368 0.7226424217
0.23751661 -0.28372043 1.6470001 0.2500511706 -0.02013116702 0.9680233002
-0.044337418 0.057005249 1.4450001 -0.04827240109 0.8574594259 0.5122822523
0.14433177 -0.40529525 1.6630001 0.175788179 -0.02805324085 0.9840282202
-0.1340248 -0.1075144 1.6799999 -0.3694701195 0.7833435535 0.4998646379
-0.38938814 0.24282877 1.6390001 0.6114509106 -0.05707027391 0.7892216444
-0.39495587 0.2144046 1.6089997 0.2296277881 -0.3165881038 0.9203494191
0.19307514 -0.26456276 1.6710001 0.1495521665 -0.1305467635 0.9800977707
0.064603597 -0.44473603 1.6836925 0.1823004633 -0.1792971194 0.9667569995
-0.15708113 0.092475183 1.4450001 0.2756533325 -0.3539862335 0.8937051892
0.17645955 0.022574751 1.5766667 -0.1964126527 0.9158196449 0.3502805233
0.09523125 0.066482186 1.4640001 -0.2114486992 0.7686796784 0.6036729217
-0.16328442 -0.10934225 1.6630001 -0.3196579218 0.8186085224 0.477178067
0.045051903 -0.067577846 1.7130001 -0.1175878569 0.8862336278 0.4480659068
0.13337135 0.19542693 1.5089999 0.2629113793 -0.2412184328 0.9341794848
-0.13708174 -0.28175101 1.7310001 0.07190403342 -0.2641526163 0.9617968798
-0.18781005 -0.0021390666 1.4640001 -0.2679360211 0.7105382085 0.6506502628
0.065351121 -0.1550198 1.7336669 0.4747420549 -0.5367954969 0.6974744201
-0.37673894 0.14554968 1.608 0.7065243721 0.5172216296 -0.4830166101
0.083464801 0.13578603 1.4210001 -0.1600086391 0.2810703814 0.946254015
-0.2044795 0.034885194 1.436 0.193820402 0.2130473256 0.9576243758
-0.20566599 -0.073354207 1.5640001 -0.2842685878 0.8536834121 0.4363668561
0.18455324 0.013381002 1.6070001 -0.4395810962 0.7889410257 0.429348886
-0.26944524 -0.26421329 2.9840002 -0.1982857883 0.742628634 0.6396760345
0.029621691 0.46830481 1.6090001 0.6436617374 -0.1614083201 0.7480955124
0.1192968 -0.4550952 1.6800001 0.2033653855 0.2100530714 0.9563055038
-0.064658552 -0.063221693 1.6390001 -0.2191205621 0.8831118345 0.4148489535
0.22428115 -0.40380228 1.6470002 -0.05308805034 0.3603078723 0.9313215613
-0.20141153 0.066303179 1.427 0.3416641355 -0.1520487219 0.9274410009
-0.085941382 -0.081546657 1.6710001 -0.310199976 0.8486035466 0.4285417497
0.094237864 0.27279386 1.5430001 0.03947495669 -0.1957791001 0.9798532128
-0.15308703 -0.087273918 1.6320001 -0.3642506301 0.8334795833 0.4154916108
-0.21392421 -0.0077322004 1.4700001 -0.1514890045 0.7311347723 0.6652014852
-0.33277971 -0.014468682 1.557 0.6360198259 -0.06916354597 0.7685669661
0.12481337 0.015883056 1.5531112 -0.1424937844 0.8732448816 0.4659816027
0.14308603 -0.0099168532 1.6160001 -0.1407688558 0.8967821002 0.4194830358
-0.1174821 0.0091374964 1.4890001 -0.2384339571 0.7723113298 0.5887991786
0.25680634 -0.39826748 1.6550001 -0.2512685061 0.5421509743 0.8018332124
0.1058312 0.038363811 1.5090001 -0.1167749092 0.84422189 0.5231185555
-0.364447 0.12421227 1.557 0.8142553568 0.4497975111 -0.3669746816
0.035692338 0.0044964906 1.5521538 -0.1964511275 0.8595325351 0.47181651
0.15679798 0.15284508 1.503 0.1655636132 -0.0707597509 0.9836573601
0.01518036 0.10954476 1.4039999 -0.1100991964 0.2688439488 0.9568704963
0.048234198 0.4065454 1.572 0.1375133693 -0.1276049316 0.9822459221
-0.13554844 -0.061485894 1.5940001 -0.3019945025 0.8487126231 0.4341499209
0.00252743 -0.15922809 2.8830001 -0.04592366889 0.6150854826 0.787121892
0.18223709 -0.39363211 1.6630001 0.4875884354 -0.1554375291 0.8591255546
-0.29337087 -0.043583982 1.5064286 0.5358916521 0.6875350475 0.4900159836
0.23465982 -0.13683084 1.6856 -0.03438325599 -0.695673883 0.7175343633
-0.061755907 -0.037895668 1.6010001 -0.2082499415 0.8744704723 0.4381020069
0.19672662 -0.02703114 1.7130001 0.9359203577 0.3519440889 0.01372622233
-0.14399102 -0.39410695 1.705 0.6365872025 0.1033226177 0.764252007
-0.0045525301 -0.26556426 1.7310001 -0.1592858434 -0.07303996384 0.9845268726
-0.35498688 -0.28842685 2.812 -0.2058441192 0.713630259 0.6695969701
-0.10774321 -0.28073934 1.7310001 0.2625513673 -0.2682984769 0.9268671274
0.24638453 -0.24930033 1.6630001 0.1192433685 -0.03674846515 0.9921847582
0.2888082 -0.36783531 1.6390001 0.2541617751 0.03372019157 0.9665737152
-0.22198515 -0.12912862 1.6550001 -0.2485370487 0.8422579169 0.4783627689
0.062980175 0.43488729 1.5731667 0.1405169815 -0.2449474037 0.959299624
-0.034652881 -0.054867059 1.6470001 -0.2597898543 0.8798220754 0.3980230689
-0.26507035 -0.095263332 1.5748003 -0.09474977851 0.8740739226 0.4764632285
-0.10435645 -0.033972971 1.5640001 -0.2746243477 0.8277189136 0.489349395
0.12542646 -0.017645545 1.6320001 -0.1457716376 0.8669815063 0.4765434563
0.010205276 -0.051026382 1.6630001 -0.1727232784 0.8933532238 0.4148333669
0.15660034 0.055591818 1.5047144 -0.4264707863 0.6838200688 0.5920411944
0.046297017 -0.48305339 1.688 0.06679585576 0.3829290271 0.9213597178
0.043782737 0.11728148 1.4040002 -0.01128905825 0.1580417156 0.987367928
-0.0073990668 -0.37439275 1.6880001 -0.2921215296 -0.1463581026 0.9451160431
0.0095977467 -0.0068555335 1.5640001 -0.1605515182 0.8835890293 0.4398790896
0.074794136 0.01359754 1.5511667 -0.07569505274 0.9020701051 0.4248997867
0.13738878 0.12368254 1.4890002 -0.4148373306 -0.3141789436 0.8539329767
-0.34759831 0.10566989 1.5860001 0.93026191 0.148274228 -0.3356002867
0.093670078 -0.13232757 1.6960001 0.3954896629 0.2077376842 0.8946691751
-0.14716953 -0.13065051 1.7130001 -0.3767581284 0.8268081546 0.4176620245
-0.047504812 -0.11339859 1.748 -0.2458904535 0.8406394124 0.4825590551
0.11878745 0.168391 1.4890001 0.1504092216 -0.07635052502 0.9856711626
0.10802637 -0.31815988 1.6880001 0.607698679 -0.1385351717 0.7819912434
0.15453702 -0.43445325 1.6630001 -0.06580258906 0.1940910816 0.9787740707
0.17057391 -0.31490567 1.6630001 -0.05409663171 -0.009772083722 0.9984878898
0.015324133 -0.08734756 1.748 -0.1623275429 0.8435094953 0.5119975805
0.12721485 0.21901938 1.4960001 0.3176061809 0.03993572667 0.9473813772
0.087248936 0.33479244 1.5430001 0.06351355463 -0.2613511682 0.9631519318
-0.24440068 0.0050916797 1.4519998 0.03533686697 0.3158900142 0.9481375217
-0.057986241 -0.38211444 1.6960001 -0.02760256827 -0.1090549752 0.9936524034
-0.052836701 -0.23701034 1.7220001 0.1753805578 -0.2204610407 0.9594991207
0.046556257 -0.053951818 1.6860001 -0.1247821972 0.9194766283 0.3728164434
0.057881042 0.00137812 1.572 -0.1857928038 0.8663163781 0.4636561275
0.11533076 -0.28537837 1.6866666 0.5464956164 -0.05542221665 0.8356260657
-0.095156901 -0.36427251 1.6960001 0.211936295 -0.1072334647 0.9713824987
0.22155645 -0.068287946 1.7310001 0.1459235251 -0.1187033728 0.9821485877
0.13704228 -0.042279001 1.6630001 -0.05731505528 0.8615486026 0.5044293404
-0.064405687 0.084218346 1.4128126 0.009186049923 0.4020879865 0.9155549407
0.075582691 -0.41624433 1.681143 0.4445253909 0.1364610791 0.8853110075
-0.0052144132 0.035193786 1.4870001 -0.2099142075 0.7983282804 0.5644536614
-0.21714857 -0.060319051 1.529 -0.2676194012 0.7607616782 0.5912879705
-0.31547582 -0.054579806 1.5500001 0.7172704935 0.1357826442 0.6834369898
-0.02566354 -0.23399109 1.7220001 0.1515673399 -0.229061693 0.9615394473
0.20624422 -0.13601425 1.6844445 0.1166696995 -0.7208360434 0.6832156181
0.4941428 0.014322979 2.723 -0.1520128995 0.8311730027 0.5348303914
-0.024734398 -0.033985734 1.6055715 -0.2355459183 0.8810927272 0.4101142287
-0.02505981 -0.39502248 1.6813335 -0.08622093499 -0.09267541021 0.991956234
0.0036925199 -0.061268479 1.6840001 -0.3213661015 0.8665364981 0.3818877935
0.15528046 -0.24463995 1.6710001 0.178842172 -0.05119285733 0.9825450182
-0.092091203 0.04919941 1.439 -0.1910269856 0.7579985857 0.6236560345
-0.10460799 -0.056424398 1.6032857 -0.2908345461 0.8430339694 0.452447772
-0.12605445 -0.3522549 1.705 0.3376374841 -0.4279348254 0.8383750319
0.064272821 -0.32435352 1.705 0.2772029638 -0.0546182245 0.9592577219
-0.18026546 -0.079652183 1.5940001 -0.3588113189 0.8262318373 0.4342757165
-0.4312624 0.32523367 1.6343335 0.3832863569 0.07912524045 0.9202340841
0.13734911 0.02827776 1.536 -0.2317566872 0.8573906422 0.4595324993
-0.029026434 -0.2929031 3.0100002 -0.1075803041 0.6442579031 0.7572042346
0.095023647 -0.0069870334 1.5940001 -0.06467344612 0.8918309808 0.447721839
-0.093607843 -0.30385002 1.7130002 -0.06481804699 -0.3993148208 0.9145197272
0.23168106 -0.10612489 1.705 0.1473825276 -0.5722395182 0.8067343235
-0.40105572 0.19703434 1.5940001 0.3342192471 -0.07247254252 0.9397048354
0.085057706 0.02790956 1.516 -0.09146859497 0.8583755493 0.5048018098
-0.025896732 -0.34701622 1.6880001 -0.007763122208 -0.227551043 0.9737352133
-0.036121171 -0.18498419 1.748 0.4834380448 -0.6727196574 0.5601213574
0.15344472 0.10229648 1.4960001 -0.3122468293 -0.09069289267 0.9456620812
0.174106 -0.023214132 1.6550001 -0.2771750689 0.8146782517 0.5093852282
-0.062632576 0.124527 1.4119999 0.1310264766 -0.234864518 0.9631566405
-0.31105536 -0.01211904 1.536 0.7370870113 -0.1547791064 0.6578344703
-0.26377586 -0.078456402 1.5430001 0.08406576514 0.8486719131 0.5221962333
-0.0034692623 -0.4425787 1.6960001 -0.1651376784 -0.1612796187 0.972994566
0.28444239 -0.29454947 1.647 -0.086140953 0.02517383546 0.9959648848
-0.16406798 0.064571932 1.4330001 -0.01743802428 0.003592730267 0.9998415112
-0.36834025 0.18275344 1.6160001 -0.09409315884 0.227207914 0.9692899585
0.09267243 -0.22420751 1.705 0.37880373 -0.05216947943 0.9240054488
0.054753091 -0.36551386 1.688 0.1919779032 -0.1073846817 0.9755065441
0.094264805 -0.48797649 1.6960001 0.02113585547 0.4835317433 0.8750716448
0.064929448 0.35170114 1.5430001 -0.1890674829 -0.3611204028 0.913151443
0.080533229 0.38355654 1.557 0.2658377588 -0.1590106934 0.9508132935
0.095732003 -0.048602398 1.6799999 0.003768232884 0.8591921329 0.5116392374
0.27373332 -0.24423204 1.6550001 0.1987255216 -0.1993052512 0.9595757127
-0.16273703 -0.32517213 1.7220001 0.4084546566 -0.1942046136 0.8918796778
-0.15475622 -0.0030601509 1.4960002 -0.2966602147 0.7510995269 0.5897815228
-0.065893777 -0.20738661 1.748 0.3626975715 -0.7424045205 0.5632814765
0.20556344 -0.28428987 1.6630001 0.1670771688 -0.236340791 0.957198143
-0.095388345 -0.062643096 1.6240001 -0.3141224086 0.8577665687 0.4068950713
-0.035883717 -0.43496042 1.6851428 -0.03992072865 -0.3176306784 0.9473738074
0.063907243 -0.19423777 1.7220001 0.5370625257 -0.07237391919 0.8404319286
0.25288677 -0.33478761 1.6390001 0.1537853032 -0.106918931 0.9823026061
0.035515517 -0.44542381 1.6879998 -0.0492659919 -0.1505519748 0.9873737693
-0.11457067 -0.07633087 1.6358889 -0.2644396126 0.8656995296 0.4250129461
