# .PCD v0.7 - Point Cloud Data file format
VERSION 0.7
FIELDS x y z normal_x normal_y normal_z
SIZE 4 4 4 4 4 4
TYPE F F F F F F
COUNT 1 1 1 1 1 1
WIDTH 512
HEIGHT 1
VIEWPOINT 0 0 0 1 0 0 0
POINTS 512
DATA ascii
-0.015607215 -0.074266985 1.1650002 -0.2537094057 0.7197410464 0.6462231874
-0.44706494 -0.49287078 2.0900002 -0.1793165654 0.7856440544 0.5921224952
0.18929775 -0.19798115 1.9810001 -0.6184004545 0.7611099482 0.1956847757
-0.45053741 0.074387796 1.6010001 0.9273917675 0.3284873366 0.1789987236
-0.14952865 0.43112275 1.245 0.380797565 -0.4741901755 0.7938116193
0.29923263 -0.44181371 1.0700001 0.7808821797 -0.01379139721 0.6245260239
0.17393972 0.24817701 1.4770001 -0.9995744228 0.02679349855 0.01153722219
0.01043058 -0.42301798 1.322 0.6587099433 -0.06693375111 0.7494138479
0.0056702802 -0.4819738 2.1560001 -0.1636749953 0.9777441025 0.1312516183
-0.34154555 -0.19144619 1.189 0.02777224034 0.5288593769 0.8482549787
0.28342721 -0.11832852 1.067 0.7553112507 -0.03514304757 0.6544233561
-0.058470745 0.20699269 1.0700001 0.6669905186 -0.2348991781 0.7070686221
0.16204596 0.13690566 1.2241429 -0.7405839562 0.556194067 -0.3770723641
0.16335249 -0.23529014 1.2536365 0.7775300145 -0.1508579105 0.6104825735
-0.22057284 0.0018304801 1.044 0.1135930568 0.5717227459 0.8125452399
-0.37167773 -0.035109624 1.381 0.4924402833 -0.4316655397 0.7557561994
-0.13493302 -0.24107282 1.2880001 -0.3555526733 0.6155947447 0.7032961249
0.21496743 -0.37857097 2.1700001 -0.1634645462 0.9780170321 0.1294683963
0.082258411 0.043757353 1.0186667 -0.3668035865 0.3716025352 0.8528579473
0.1469118 -0.49425328 1.197 0.4857471585 -0.175126344 0.8563763499
0.34895366 -0.2786485 0.97800004 0.764705956 -0.07164300233 0.6403843164
0.15414649 -0.037904877 1.153 0.04744661599 0.7269910574 0.6850056648
-0.18377127 -0.11817905 1.1610001 -0.2005001456 0.7057663798 0.6794803739
0.25996235 -0.2854681 1.1190001 0.8357219696 0.07981927693 0.5433209538
-0.085484058 0.074128225 0.97275853 -0.02069876902 0.5974153876 0.8016647696
0.014651042 -0.18482403 1.2854999 -0.1009183526 0.7165229321 0.6902248859
-0.11259293 0.35957098 1.381 -0.9029750824 -0.4175352454 0.101490736
-0.11055906 0.31544834 1.1570001 0.624424696 -0.3245633543 0.7104592919
0.16492775 0.22575286 1.3342501 -0.437232703 0.6917253137 -0.5747552514
-0.41968489 0.0705892 1.4640001 0.727627635 -0.217508778 0.6505751014
-0.03482997 -0.29545417 1.3700004 0.1264366508 0.05431285501 0.9904866815
0.11749876 -0.36684117 1.2585 0.4185570776 -0.3134438396 0.8523865938
-0.25387126 -0.2730808 1.245 -0.3046210408 0.1883229464 0.9336704612
-0.095178284 -0.014737798 1.0741785 -0.1969116777 0.7162863612 0.6694473028
0.22109096 -0.15527783 1.1730001 0.8255144358 0.1282145828 0.5496243834
0.22177649 -0.39453593 1.1730002 0.598595798 -0.04492095113 0.79979074
0.033761486 -0.36544025 2.1160002 -0.1649607718 0.9761790037 0.1409342736
-0.29043266 -0.078679077 1.108 0.1276253313 0.5442475677 0.8291600347
0.19856675 -0.29693928 2.0780001 -0.1649464965 0.9767899513 0.1366529763
0.10692528 -0.11988592 1.2320001 -0.005845839623 0.6394200921 0.7688353658
-0.085299917 -0.14605542 1.2250001 -0.202881217 0.6968100667 0.6879643202
0.15660633 0.072130032 1.1364001 -0.4401303828 0.7956685424 -0.4161691666
0.055291802 -0.011641694 1.1064999 -0.0593011342 0.7934769392 0.6057043672
-0.45774624 -0.41886431 2.016 -0.1819021702 0.7710059881 0.6102961302
0.062024008 -0.49467906 1.2654545 0.6612030268 -0.1150744036 0.7413288355
0.11528341 -0.40748692 2.1700001 -0.1649163663 0.9767383933 0.1370571852
0.29830775 -0.2175352 1.0470001 0.7647730112 -0.03272796422 0.6434680223
0.31491628 -0.34548879 1.0443915 0.8790230751 0.1368089169 0.4567293823
-0.014444526 0.032574508 1.0339413 -0.1862488389 0.7775935531 0.6005494595
-0.19468631 -0.19536936 1.2255261 -0.2822056413 0.6260780692 0.7269017696
0.047157653 -0.32550281 1.3120002 0.5360419154 -0.2551130652 0.8047212958
0.20221023 -0.30488908 1.1951334 0.7526578307 -0.04536347464 0.6568472981
0.24360533 -0.054994747 1.1309412 0.6329854131 -0.2019331306 0.7473636866
-0.026951671 0.13360322 1.0147649 0.511443913 -0.2950116694 0.8070893884
-0.10486487 -0.077899247 1.1431819 -0.2135986537 0.7282062173 0.6512229443
-0.17538516 -0.056264367 1.0938889 -0.110360764 0.7385427952 0.6651128531
-0.26489264 -0.15516455 1.1644003 -0.1249496341 0.6216262579 0.7732841372
0.14451976 0.016505377 1.0714287 -0.6692742109 0.7090864778 0.2219648063
0.24206695 -0.47113031 1.141 0.6282061934 -0.1513949782 0.7631753087
-0.16259171 0.047020756 0.99753857 0.1293185502 0.5845855474 0.8009597063
0.075794689 -0.06634587 1.1748824 -0.09268970788 0.7373213172 0.6691530943
-0.054360151 -0.23650108 1.3131113 -0.2106683403 0.6631724834 0.7182068825
0.015051929 -0.12257685 1.2265002 -0.08822595328 0.7094243169 0.6992377043
-0.18491003 -0.30475914 1.302 -0.2160553783 0.5043798089 0.836014986
0.25455391 -0.20450494 1.1151 0.8749306202 0.1098492965 0.4716243446
0.27299941 -0.36530197 1.1135 0.796875596 0.01711867191 0.6039008498
-0.11944496 -0.29210797 1.3490001 -0.2240157425 0.7125790715 0.6648668647
0.16708739 0.27330434 1.3980001 -0.534683466 0.7054923177 -0.4651818573
0.09703064 -0.26692864 1.2919999 0.3097710907 -0.1434018761 0.9399349689
-0.024542201 -0.023755593 1.1037271 -0.2127835751 0.7610310316 0.6128253937
0.10988227 -0.44061705 1.2410001 0.3325465024 -0.3980248868 0.8549789786
-0.14331046 0.36881366 1.202 0.4232418537 -0.4140770137 0.8058576584
-0.09943416 0.24907765 1.123 0.5364114642 -0.3338834643 0.7751029134
0.22184585 -0.23502296 1.181 0.7381833792 -0.02538006194 0.6741224527
-0.40828559 0.0050250529 1.4330001 0.6987457871 -0.2153860331 0.6821753383
0.023935633 0.072606951 0.98869234 0.04915102944 0.3838922381 0.9220688343
0.16138732 -0.4099609 2.1160002 -0.1634645462 0.9780170321 0.1294683963
-0.26394659 -0.20825762 1.2113334 -0.2805923522 0.626388073 0.7272592187
0.16450742 -0.40479526 1.2135926 0.6002838016 -0.2227633297 0.7681378722
0.16514401 0.18172565 1.278 -0.4908346832 0.6841029525 -0.539522469
-0.0048941793 -0.35489872 1.348143 0.4407551885 -0.1885113865 0.8776094317
0.1796369 -0.17318287 1.2270001 0.8212352991 0.002936206758 0.5705821514
0.058035683 -0.39818305 1.2780001 0.5725684166 -0.2082533985 0.7929665446
0.15174906 -0.3033773 1.2533334 0.7113412023 -0.1466522813 0.6873767972
-0.32295251 -0.12569909 1.1459415 0.1685926765 0.5174008608 0.8389713168
0.2949276 -0.28471753 1.0631598 0.8595507741 0.1590335518 0.4856755733
-0.15511009 -0.0049807616 1.0442611 -0.1864854693 0.7031612992 0.6861394644
-0.085528292 0.027087199 1.0246841 -0.1414553821 0.7930331826 0.5925273895
-0.063361958 -0.19008587 1.268 -0.1717683524 0.6648288369 0.7269788384
-0.24076335 -0.050041009 1.077 0.1790570021 0.5528001189 0.8138492703
-0.13150001 -0.18957916 1.25 -0.3670327961 0.5784813762 0.7284547091
0.24512523 -0.13471021 1.1149999 0.8545539379 0.09681758285 0.5102587342
-0.45054004 0.089044787 1.516 0.9381245375 0.2918881476 0.1863429993
-0.19562875 -0.24228613 1.2671111 -0.3409289718 0.6081477404 0.7168847919
0.34005111 -0.34005111 0.98700005 0.7477325797 0.1082335785 0.6551194787
-0.14395569 -0.1471222 1.2029999 -0.2893583179 0.6911125183 0.6622954607
0.19168112 -0.453475 1.1818891 0.6232458949 -0.2306774259 0.7472298741
0.060704783 -0.1512101 1.2590001 -0.0458483696 0.6824157834 0.7295249104
-0.065308757 -0.10465949 1.1845555 -0.1869062781 0.7242467403 0.6637263894
-0.23440452 -0.0967528 1.1242502 -0.1956300735 0.6904469728 0.6964279413
-0.48414531 -0.46254775 2.0530002 -0.1819021702 0.7710059881 0.6102961302
0.24135491 -0.33619556 1.1557999 0.8003081679 0.02498325519 0.5990681052
0.13177878 -0.07843975 1.1930001 0.02909261174 0.7440482378 0.6674922109
0.20427354 -0.0067133112 1.1443849 0.1314947456 0.4964816868 0.8580297232
0.11437932 -0.011340435 1.1178572 -0.09690457582 0.7562986612 0.6470099092
0.036860909 0.021373132 1.0600001 -0.1583505571 0.7899081707 0.5924273133
0.26879126 -0.42476863 1.1190002 0.7615548968 -0.05113893375 0.6460796595
0.34062707 -0.22796489 1.0040001 0.7350530624 -0.05010917038 0.6761553884
0.16911492 -0.3443746 1.219 0.6879060268 -0.05239191279 0.7239063382
-0.35765526 -0.08411213 1.3590001 0.4359568954 -0.3415642977 0.8326316476
0.27560878 -0.17496291 1.0729998 0.8190391064 0.03025518358 0.5729393959
0.021948226 -0.040903512 1.138 -0.1219046041 0.7607283592 0.637519896
-0.21666129 -0.1621609 1.189 -0.2505556047 0.655400455 0.7125111818
0.094396412 -0.32550699 1.2843161 0.523707211 -0.2202239633 0.822941184
-0.025389645 -0.15359877 1.2438573 -0.2435810864 0.680793643 0.6907881498
-0.033776056 0.060987785 0.99254537 -0.2472254336 0.6863492131 0.6839622259
0.32346368 -0.39820829 1.0500001 0.8535560369 0.1173318848 0.5076172948
0.149057 0.099023886 1.189 -0.6003076434 0.6725860834 -0.4327339828
0.097885966 -0.49695951 1.2270001 0.5591472387 -0.191628471 0.8066182137
-0.15502952 -0.085900083 1.1320002 -0.1862160861 0.7690597773 0.6114496589
-0.075336397 -0.045011874 1.11605 -0.1932120621 0.7244536877 0.6616917253
-0.059832498 0.1592465 1.0500001 0.6098898053 -0.3982844949 0.6851305366
-0.004302999 -0.22506422 1.3165456 -0.1371811479 0.6860877275 0.7144683003
-0.044646177 0.0039117564 1.0636799 -0.1477604061 0.7842318416 0.6026170254
0.041908175 -0.45645928 1.2920001 0.6464880705 -0.1370631009 0.7505110502
0.085021012 0.016730431 1.0747141 -0.1460899711 0.7624454498 0.6303448677
0.034550309 -0.08794193 1.1941999 -0.09874282777 0.7159256935 0.6911585927
0.16345343 0.0052899816 1.1178 -0.497405082 0.4460093975 0.7440859079
0.31889102 -0.27206254 1.0175 0.7922714949 0.03333456069 0.6092574596
0.023702171 -0.37464237 1.3125002 0.6162059903 -0.1462250352 0.773891747
-0.12580481 -0.053569123 1.1055999 -0.3240012825 0.7194629908 0.6143258214
0.2725172 -0.24479978 1.0942 0.8728747964 0.1319651753 0.4697602987
-0.13499603 -0.11218215 1.1678572 -0.2748147547 0.7135139108 0.6444957256
-0.076172471 -0.27421761 1.33675 -0.28449893 0.6422331929 0.7117561698
0.25695878 -0.088668332 1.0942858 0.7590676546 -0.2953779697 0.5801449418
0.18726119 -0.25634068 1.2176429 0.7330336571 -0.08774665743 0.67450881
0.22764666 -0.064381085 1.1750001 0.8546358347 0.2557195723 0.4518905282
0.12820736 0.044211932 1.1067142 -0.4628722966 0.3149570525 -0.8285838962
0.23290423 -0.28500763 1.1652501 0.7650092244 -0.003783307737 0.6440082192
-0.29147765 -0.23729964 1.2360001 -0.09995780885 0.5723394156 0.8139017224
0.28277501 -0.32524094 1.0921177 0.8461918235 0.08889585733 0.5254111886
-0.21583375 -0.28368634 1.273 -0.4837650657 -0.006251754239 0.8751755953
-0.29477936 -0.18476328 1.1839999 -0.06765177101 0.5929586291 0.8023859859
-0.23425156 -0.22612454 1.2420666 -0.3184366822 0.6202064753 0.7168974876
-0.13259991 0.073990472 0.97492874 0.1347202957 0.549969852 0.8242473006
0.23528966 -0.19557074 1.1558797 0.8552157879 0.1042888984 0.507670939
0.29528132 -0.39541736 1.0858887 0.7812181115 -0.004457315896 0.6242422462
0.2487395 -0.24457389 1.1361818 0.8683422208 0.07966329157 0.4895258844
-0.27495837 -0.11543994 1.133579 -0.007551822346 0.6003341675 0.7997136116
-0.023804737 -0.11333828 1.2047693 -0.203667134 0.73400563 0.6478853822
0.20543222 -0.35488507 1.1874346 0.6536746025 -0.03344260529 0.7560364604
0.065188058 -0.11007164 1.2190001 -0.1040294915 0.7228507996 0.6831285357
0.10411205 -0.03942107 1.153 -0.09909629822 0.7650131583 0.6363448501
0.18215819 0.29647815 1.4330001 -0.9995744228 0.02679349855 0.01153722219
0.20652787 -0.19560298 1.1949998 0.8147267699 0.005450634286 0.5798195004
0.12985186 -0.23712081 1.2880001 0.6470741034 -0.2211348712 0.7296536565
0.072026931 -0.43770209 1.2640001 0.6588721275 -0.117672354 0.7429944277
-0.095601082 -0.22093636 1.2880001 -0.2716840804 0.6425680518 0.716445446
0.31091395 -0.17679852 1.036 0.6949960589 -0.05658258125 0.7167837024
0.0047427667 0.0018953532 1.082 -0.1131760031 0.811825633 0.5728266239
-0.055848632 -0.072412953 1.149 -0.2369931191 0.705170393 0.6682581902
0.15290807 -0.45366627 1.2106154 0.5395210385 -0.2464210838 0.8051047921
0.25106946 -0.39210844 1.141 0.7442198396 -0.005956325214 0.6679081321
-0.23409802 -0.12733977 1.1543332 -0.288974762 0.6620597243 0.6914987564
0.015419398 -0.15309493 1.2563334 -0.130923599 0.6578649282 0.74166888
-0.0056284047 0.10372069 0.99310023 0.4473527074 0.02482221462 0.8940131068
-0.1426775 -0.30019346 1.302 -0.7133066058 -0.01507110335 0.7006900907
0.11530249 0.030594131 1.04175 -0.4123913944 0.3588756919 0.8373419642
-0.16407323 -0.21660484 1.2522308 -0.2786276042 0.615113616 0.7375648022
-0.18617909 0.021861259 1.0220002 0.1688673943 0.5595263243 0.811427176
0.039844498 0.039844498 1.01 0.09562211484 0.8228872418 0.560100913
-0.14605872 -0.032126486 1.0749091 -0.1947113127 0.6901258826 0.6970034242
-0.20485333 -0.03086831 1.067 0.003116364358 0.6287916303 0.777567625
-0.12485366 0.032158922 1.0113639 -0.08901198953 0.7304704785 0.6771187186
-0.10540088 -0.12314636 1.1951333 -0.2006408721 0.7349488139 0.6477603316
0.22731665 -0.4355869 1.1570001 0.6136599183 -0.2100582719 0.7611156702
0.12894364 -0.39983365 1.2360001 0.6326845884 -0.2466242015 0.7340890169
-0.10585305 -0.25514671 1.3153336 -0.2845724821 0.6357361674 0.7175360918
-0.1745646 -0.26398024 1.295125 -0.4524044693 0.1006475314 0.886115253
-0.34346223 -0.15329598 1.1683332 0.1665775627 0.5379182696 0.8263751268
0.18580875 -0.21539889 1.2241429 0.7670948505 -0.03849133849 0.6403779984
-0.11569836 0.0057402137 1.0444093 -0.2347503603 0.7697072625 0.5936691165
-0.033696435 -0.20840819 1.2919999 -0.2217247933 0.6356783509 0.7394261956
-0.19480267 -0.084383681 1.1160952 -0.1744932085 0.7332444191 0.6571946144
0.0059832497 -0.31950554 1.365 0.3439637423 -0.2023735344 0.9169154167
0.065131947 -0.038078897 1.143 -0.07222307473 0.7650568485 0.6398998499
-0.11647613 0.34684002 1.1810001 0.5120117664 -0.3326638043 0.7919461727
0.13331868 -0.27393425 1.2729999 0.7119603157 -0.1807674617 0.6785540581
0.067587487 -0.35471335 1.2880001 0.4766766429 -0.2498258501 0.8428323865
0.33231628 -0.37072918 1.0190001 0.8363179564 0.1408961564 0.5298306942
0.0962926 -0.40527618 1.2580769 0.4349805415 -0.2276621461 0.8711841702
-0.082788505 0.22443679 1.0966668 0.6270048618 -0.2979808748 0.7197723985
0.16633436 0.25009984 1.365 -0.5042613745 0.7074013352 -0.4952816069
0.32618216 -0.31527475 1.0140346 0.8627224565 0.1194310561 0.4913717806
0.095289409 -0.088665821 1.202 -0.113202624 0.7087660432 0.6963015795
-0.38454956 -0.0052750288 1.404 0.5695844889 -0.2665023804 0.7775281072
-0.12226169 0.38577718 1.3540001 -0.9029750824 -0.4175352454 0.101490736
-0.40494898 0.045414843 1.439 0.6057106853 -0.239181906 0.7588850856
0.17403133 -0.29438105 1.2234209 0.6768356562 -0.055046767 0.7340731621
-0.31488904 -0.21403639 1.2046667 -0.1109389439 0.6124321818 0.7827000618
-0.15289049 0.39905918 1.223 0.380797565 -0.4741901755 0.7938116193
0.16634865 -0.19597916 1.2540528 0.7901672125 -0.0915299356 0.6060181856
-0.30424348 -0.15610948 1.1613334 0.02511717379 0.5656198859 0.8242834806
-0.094561107 -0.17788826 1.250625 -0.2025516182 0.6561670303 0.7269234657
0.076283827 -0.29638931 1.3031112 0.5699337721 -0.2010253519 0.7967209816
-0.034694608 -0.047584765 1.1308 -0.2049182802 0.7387816906 0.6420359015
-0.11073878 0.28133637 1.138 0.5680219531 -0.3178398311 0.7591633201
-0.1746729 -0.16707075 1.21 -0.266148895 0.6372277141 0.7232604027
0.26198548 -0.32543081 1.123 0.8167064786 0.03462206945 0.5760137439
0.29760775 -0.35530806 1.076 0.808608532 0.08088353276 0.5827607512
-0.24912325 -0.1803277 1.189 -0.3490652442 0.6342502236 0.6898406148
0.15671295 0.19725701 1.3120002 -0.4232365489 0.7057051659 -0.5681998134
0.051555365 -0.18302767 1.2840002 -0.07471188903 0.6846508384 0.7250319719
0.22865793 -0.12544622 1.1467779 0.8803790212 0.1793016642 0.4390714169
-0.11868226 -0.16099195 1.2270001 -0.2510121763 0.6712701917 0.6974160671
0.19545047 -0.41516572 1.1877998 0.574044168 -0.1283388585 0.8087041974
0.23824537 -0.16476752 1.1365001 0.8996764421 0.1523715556 0.4091028869
-0.074367635 0.04928679 0.99800003 -0.07597453147 0.7631475329 0.6417427063
0.025548909 -0.064383917 1.1656404 -0.1380913556 0.7247260809 0.6750577092
0.1413625 -0.34080416 1.25 0.6099213958 -0.1795073748 0.7718633413
0.20996077 -0.47570825 1.1570001 0.5512291193 -0.09725303203 0.8286665678
0.27076289 -0.46039465 1.115 0.7426674962 -0.05008161068 0.6677850485
0.30193534 -0.25512442 1.0441431 0.8201304078 0.0495248735 0.5700292587
-0.024179928 -0.17967546 1.273 -0.2112772763 0.6569017172 0.7237693071
-0.14231762 -0.26677668 1.3145001 -0.4824363887 0.4717882872 0.7380182743
0.12610149 -0.47555226 1.219 0.5273640752 -0.3494673669 0.7744415402
0.0050558378 0.053627696 1.0131155 0.05715274066 0.8487727046 0.525660038
-0.25561494 -0.077585876 1.1016666 0.1053899676 0.6083970666 0.7866041064
-0.026877724 -0.2465739 1.3330001 -0.2666378021 0.675296545 0.6876618862
-0.0023452295 -0.39387655 1.3371668 0.7689819932 -0.1690322608 0.616518259
0.20126688 -0.15700924 1.202 0.8326616287 0.1161179096 0.5414713621
0.36090612 -0.31220555 0.99200004 0.6495617032 0.07624727488 0.7564760447
-0.045440014 0.038058851 1.0164286 -0.1201855466 0.794654727 0.5950456262
0.16287224 0.15775105 1.2525001 -0.710347414 0.5495445728 -0.4397809505
0.20858712 -0.26626423 1.189 0.7541339993 -0.005015459843 0.6567014456
-0.098383039 -0.10145751 1.169 -0.187933445 0.7429415584 0.642432034
0.22136447 -0.038410276 1.153 0.5273225904 0.3219311535 0.7863149643
-0.43474513 0.094705582 1.4835453 0.8295969963 -0.08678951114 0.5515762568
0.27828017 -0.21540728 1.0749999 0.8597750068 0.07482870668 0.5051609278
0.15801065 0.045243513 1.0848572 -0.9048908353 0.3041250706 -0.2977927625
-0.054855127 -0.13291948 1.2159231 -0.1863348484 0.7100653052 0.6790335774
-0.064978532 -0.018155767 1.09 -0.1636104584 0.7609851956 0.6278002858
0.17799182 -0.4844473 1.177 0.5903648734 -0.1999209672 0.7819852233
-0.21462986 -0.064186893 1.0938889 -0.1446784735 0.6558352709 0.7409104109
0.1920705 -0.38442841 1.2019999 0.6488422751 -0.08782985806 0.7558370233
0.15189399 -0.37486809 1.2346668 0.6145306826 -0.1339184344 0.7774431705
0.26531851 -0.14486593 1.084778 0.7885048985 0.04360083491 0.6134809852
0.12387563 -0.31334704 1.2729999 0.4623786509 -0.2767071724 0.8424007893
-0.23159429 -0.25154021 1.2640001 -0.4552061558 0.08388128132 0.8864261508
-0.18467689 -0.14501533 1.1866 -0.2481240481 0.6753062606 0.6945472956
-0.22382176 -0.18881647 1.21 -0.232691288 0.6355187893 0.736186564
0.086493693 -0.46463931 1.2436666 0.6991517544 -0.06528798491 0.7119861841
0.085765243 -0.3744427 1.2679999 0.5354118347 -0.2535141706 0.8056455255
0.30635855 -0.31443527 1.0530001 0.863984406 0.1453302354 0.4820892811
0.32282215 -0.2043914 1.022231 0.7531796694 -0.07957731187 0.6529838443
0.032530468 -0.40463337 1.302 0.6731047034 -0.07104162127 0.7361271381
-0.064792439 -0.16222915 1.245 -0.1782181263 0.6724542379 0.7183617353
-0.048667274 -0.26945052 1.3540001 -0.2511761785 0.7285708785 0.6372558475
0.15747289 -0.26589784 1.2434002 0.7568812966 -0.1805536896 0.6281170845
0.11381003 0.010869498 1.094 -0.1821899265 0.7459000349 0.6406559348
0.0027101275 -0.091518916 1.189 -0.2025240511 0.6946964264 0.6902034879
-0.074560501 0.0101255 1.0500001 -0.1424550116 0.7721808553 0.6192279458
0.29424933 -0.15548827 1.0536667 0.691509366 0.009877247736 0.722299993
0.21817611 -0.32594573 1.177 0.6543182135 -0.02507935651 0.7558033466
0.044425961 -0.13111076 1.2360001 -0.03854987025 0.7397255898 0.6718034744
0.022203337 -0.3470732 1.3330001 0.732830584 -0.2659871578 0.6262668371
0.031661108 -0.20331244 1.3053335 -0.03011059947 0.5710561872 0.8203585744
-0.054519683 0.081782252 0.97174996 -0.1380534917 0.6344876289 0.7605042458
-0.16456962 -0.18835272 1.2330002 -0.2539303601 0.5915856361 0.7652096748
-0.03514732 0.16131718 1.028 0.5176771283 -0.3477811515 0.7817023993
0.005070122 -0.025009589 1.1164999 -0.1535109729 0.775113523 0.6128894091
-0.1641929 -0.23773646 1.2765714 -0.2506780326 0.6816085577 0.6874374747
0.078331918 -0.12946525 1.2410001 -0.06175330281 0.6635767221 0.7455551624
0.27841842 -0.2941952 1.095143 0.8541628718 0.1457422078 0.4991642535
-0.18562642 -0.012029473 1.0465001 0.02872457169 0.6688320637 0.7428584099
-0.30304793 -0.10364829 1.126 0.1325064749 0.5467916727 0.8267169595
0.25611162 -0.17519766 1.1041199 0.8658187985 0.1449839771 0.4788919091
0.086093821 -0.023134409 1.1242353 -0.132349357 0.7597783208 0.6365693808
0.0046266085 0.018505119 1.0555 -0.1193581671 0.7985998392 0.589908421
0.23885232 -0.085389286 1.1253334 0.6441531777 -0.283336401 0.7104837298
0.31576785 -0.23487125 1.0247499 0.7766590118 -0.04105032235 0.6285822988
-0.023812823 0.082968384 1.0122501 0.6035748124 0.02029482834 0.7970480323
-0.27158695 -0.055270325 1.087 0.204379037 0.5059537292 0.8379976153
0.024543161 0.038173921 1.0368001 -0.1074271202 0.7885536551 0.6055101156
-0.10446317 0.052230921 0.99299997 -0.1104462072 0.7055934668 0.6999568343
-0.19973534 -0.22156435 1.245 -0.2130392045 0.6295606494 0.7471731305
0.24589755 -0.30448988 1.145667 0.8288666606 0.006940807216 0.5594031811
-0.21205866 -0.10903016 1.141 -0.2206165791 0.6926555634 0.6866998076
0.14582787 -0.017858049 1.1316 -0.09645351022 0.7206891775 0.6865157485
0.14233848 -0.42421082 1.2236154 0.5402578115 -0.2086675465 0.8152173758
0.22737214 -0.3653242 1.1665556 0.6638485193 -0.06800771505 0.7447685003
-0.11597833 -0.21083599 1.268 -0.2931765914 0.6322954297 0.7171122432
0.10498161 -0.066797204 1.1828824 -0.09651912749 0.7231263518 0.6839388609
0.058915507 -0.46465439 1.268 0.6013422608 -0.08611412346 0.7943373919
0.28620404 -0.42499587 1.0943334 0.7702858448 0.02229575068 0.6373088956
0.025784895 -0.008411115 1.101 -0.1106096804 0.806476891 0.5808274746
-0.034209725 -0.096152574 1.1825 -0.1645990163 0.7147164345 0.6797702909
-0.23443906 -0.021312643 1.057 0.07438898832 0.5665753484 0.8206452727
0.27401 -0.39517024 1.1138461 0.7930448055 0.000524346251 0.6091630459
0.14398769 -0.060976986 1.169 0.03919856995 0.7030762434 0.7100332975
-0.17492042 -0.03086831 1.067 -0.1157595515 0.6947503686 0.7098743916
0.25445127 -0.35459337 1.134143 0.7959355712 0.03591274098 0.6043151617
-0.25680372 -0.24488455 1.2360001 -0.3629210591 0.2177633345 0.9060173631
-0.11554357 -0.032161612 1.087 -0.2966775298 0.7076607347 0.6412478089
0.064973973 -0.084889576 1.1954002 -0.08920595795 0.7281848788 0.6795506477
-0.064644523 -0.21661878 1.2936666 -0.1327187717 0.6299298406 0.7652281523
-0.15517631 0.024711816 1.0155592 -0.007258968428 0.6555050015 0.7551559806
-0.068476431 0.17916436 1.0700001 0.6328190565 -0.3069282174 0.7108692527
0.23806445 -0.22489607 1.1555712 0.8629561663 0.06443560123 0.5011534095
0.055482477 0.0104148 1.08 -0.09664230794 0.7851126194 0.6117666364
-0.18710347 -0.28508577 1.278 -0.489046067 -0.00754175894 0.8722253442
-0.015704783 -0.13187714 1.2270001 -0.2354380488 0.7027291656 0.6713722348
0.17310159 -0.43426692 1.2025332 0.6004078388 -0.1270029992 0.7895445824
0.10430812 -0.29439056 1.2857274 0.4095004797 -0.2869256437 0.8660156131
-0.0058632717 -0.048466515 1.1415713 -0.1881791353 0.7204969525 0.6674374342
-0.21286431 -0.13831039 1.1730001 -0.2424835414 0.6521234512 0.7182873487
0.31048903 -0.41461074 1.0700001 0.7566184402 0.02249233425 0.6534696817
0.045009863 -0.3560555 1.3059472 0.5301064849 -0.2738573551 0.8024894595
0.14784457 -0.21565297 1.268 0.7377306819 -0.03877461329 0.6739806533
-0.15352499 -0.12895152 1.182143 -0.2295593917 0.6961161494 0.6802387834
0.20220356 -0.23451866 1.202 0.8142693043 -0.05069620907 0.5782693028
-0.37433931 -0.062587865 1.373 0.439887017 -0.3406204581 0.8309495449
0.23368175 -0.25491226 1.1640401 0.7854144573 0.0128820166 0.6188361645
0.14622109 0.084289275 1.1645557 -0.5735421777 0.6773183942 -0.4607484043
0.25392845 -0.44461259 1.1333333 0.7199661136 -0.04848555848 0.6923134327
0.18773916 -0.3269954 1.2060002 0.6943647265 -0.1504092813 0.7037290931
0.046295013 -0.48440394 1.2880001 0.6295058727 -0.1071890369 0.7695666552
-0.0056851828 -0.20125549 1.2970001 -0.1960957795 0.6186332107 0.7608149052
-0.2270216 -0.28268555 1.245 -0.3806907833 0.08386748284 0.9208912849
-0.12489719 -0.014210147 1.0625416 -0.2685014904 0.6965821385 0.6653422713
0.34396911 -0.25468454 0.99492121 0.7389944196 -0.05671867356 0.6713197827
0.086015902 -0.0016823233 1.0962501 -0.1773646772 0.7736228704 0.6083168387
-0.10337215 -0.058085304 1.123 -0.2321895063 0.7360969186 0.6358060241
-0.045349527 0.021304315 1.0415 -0.1094076037 0.8005843759 0.5891473889
-0.38771459 -0.033232681 1.404 0.5267677903 -0.3729896247 0.763802588
0.17259288 -0.01197176 1.138 -0.5223023891 0.4438254237 0.7281615138
-0.13504474 0.051806487 0.99200004 0.1126846448 0.5900893807 0.7994352579
-0.32388967 -0.17371111 1.1762729 0.1006581113 0.5597172976 0.822547555
0.054716889 -0.42470604 1.2862355 0.653283 -0.04261189327 0.7559137344
0.31245649 -0.37513638 1.0612632 0.8555412292 0.112516433 0.5053604841
-0.29432979 -0.13454928 1.1466843 0.02149229497 0.5786098242 0.8153212667
0.31120002 -0.28929737 1.041 0.848862946 0.1388399154 0.5100541115
-0.18105008 -0.099027388 1.141 -0.2093217373 0.7489724755 0.6286689639
-0.078034952 0.25300798 1.1057501 0.5916340351 -0.3485314548 0.7269765735
-0.12870693 -0.091503836 1.1470001 -0.2616329789 0.7495943904 0.6079937816
-0.12701029 -0.07206025 1.126 -0.3107253313 0.7108187675 0.6310201287
-0.016556727 -0.32995191 1.3490001 0.2704857886 -0.2437975705 0.9313431978
-0.0047115576 0.075187609 0.99420017 0.4495615363 0.2682058811 0.8520328999
-0.047674153 0.18362178 1.0525001 0.6570752859 -0.3200166821 0.682525754
0.12367797 -0.095475949 1.2127335 -0.09909225255 0.7144970894 0.6925854683
-0.15582177 -0.28429571 1.2841768 -0.4396549165 -0.1215984523 0.8898974061
0.13995545 0.01061731 1.1010001 -0.3586577177 0.4054767489 0.8408051133
-0.10447254 -0.27648997 1.3330001 -0.2449808866 0.6432849169 0.7253749967
0.28453481 -0.25538704 1.0726 0.8865094185 0.1131789535 0.4486553073
0.16122426 0.11907413 1.202 -0.6880128384 0.6009225845 -0.4068543315
0.33752197 -0.29473805 0.99599999 0.7775377631 -0.01161329262 0.6287289858
-0.092069723 -0.1992054 1.273 -0.2643294334 0.6512387395 0.7113494277
-0.073252216 -0.087520272 1.1623334 -0.1735258251 0.7756130099 0.6068881154
-0.44617 0.11514913 1.4960002 0.8295969963 -0.08678951114 0.5515762568
0.06098444 0.03049222 1.054 0.05011543632 0.9181384444 0.3930779696
-0.024758616 -0.0072340514 1.0831538 -0.1905428022 0.7764835954 0.6006385684
0.098933585 -0.34571174 1.268 0.402756691 -0.229850322 0.8859773874
0.15703689 -0.32548746 1.2353847 0.6879218221 -0.1462716162 0.7108925581
0.035336461 -0.10707365 1.21225 -0.06915423274 0.713486433 0.6972480416
-0.08478944 -0.2417645 1.307 -0.2075519413 0.6680433154 0.7145909667
0.031832933 -0.43437371 1.302 0.6919723749 -0.06283834577 0.7191839218
0.25708389 -0.11486376 1.0940477 0.7766084075 0.02126258984 0.6296246648
0.33350411 -0.34509781 1.0138891 0.8572489619 0.1682498902 0.4866376519
-0.35265142 -0.058378108 1.3590001 0.4363839328 -0.3323042095 0.8361477256
-0.15117502 -0.16832964 1.223 -0.3066841662 0.6230002046 0.7195940614
0.068449602 -0.32678434 1.2970001 0.5089219213 -0.2727821171 0.8164486289
0.24592081 -0.2750797 1.1450003 0.8640831113 0.02727406844 0.5026096702
-0.089156777 0.27288902 1.1237501 0.515201509 -0.3155710399 0.7968577743
-0.15437311 -0.068530127 1.1127501 -0.1994530559 0.7487779856 0.6320996881
0.05490227 -0.056434244 1.1633334 -0.0648676008 0.7234366536 0.6873366237
-0.086553298 -0.03173621 1.097 -0.2264377177 0.7251363397 0.6503100991
0.29362202 -0.18504933 1.0531713 0.7298930883 -0.003330731764 0.6835531592
0.28568345 -0.45190823 1.0960001 0.7756233215 -0.01748659648 0.6309538484
-0.052270375 0.14239171 1.028 0.5369355679 -0.3075788617 0.7855542302
-0.19795835 -0.26206985 1.2830001 -0.5522456765 0.04740195721 0.8323327303
-0.26494056 -0.13398221 1.1478573 -0.05538623035 0.6320766211 0.772924006
0.082187496 -0.49531665 1.25 0.7025976777 -0.1311751306 0.6993922591
-0.23469433 -0.20666349 1.2244117 -0.2753651738 0.6517261863 0.7067015171
0.062270951 0.052919544 1.0060999 -0.229867965 0.484200865 0.8442216516
-0.13073291 -0.12759534 1.1930001 -0.3137292564 0.6947581768 0.6472132802
-0.0047540381 -0.16533382 1.2657143 -0.1818100065 0.6620126367 0.7271068692
-0.13895166 -0.22121105 1.268 -0.311901927 0.6486822963 0.6942107081
0.23923193 -0.4156749 1.1472858 0.7154018879 -0.1257810444 0.6872985363
0.095316313 0.018700907 1.0321667 -0.3470065892 0.4066538811 0.8451148272
0.14688638 0.11686581 1.223 -0.7214189172 0.5828917623 -0.3738875091
0.041459322 -0.030600926 1.126 -0.09151162952 0.776697278 0.6231909394
0.23838057 -0.11085187 1.1190001 0.8433660865 0.005996672437 0.5373060107
-0.074486464 -0.12258039 1.2042222 -0.1548572183 0.7171833515 0.6794610023
-0.075193733 -0.063671187 1.1356844 -0.197590217 0.7006260157 0.6856247187
0.19199876 -0.2832247 1.21 0.6942895651 -0.06621573865 0.7166432142
-0.045862816 -0.17163017 1.2584286 -0.1834496111 0.689560473 0.7006087303
-0.013386153 -0.29475868 1.3571252 0.1521448195 -0.2047455758 0.9669184089
0.16535938 -0.47449616 1.1960591 0.5764895678 -0.2192117721 0.7871505618
0.26913655 -0.19453523 1.087 0.8539319038 0.07635354251 0.5147528052
0.034917042 -0.16459553 1.2666665 -0.09251952171 0.6511343718 0.7533021569
0.22229549 -0.18581213 1.1747143 0.8379930258 0.1119980067 0.5340637565
0.2630583 -0.25576818 1.1144001 0.885007441 0.06865416467 0.4604871273
-0.13082057 0.32756475 1.1750001 0.5628336072 -0.2914096415 0.7734977603
-0.15520315 -0.10495786 1.1555998 -0.2104854882 0.7230067849 0.6579946876
0.20622058 -0.43479556 1.1750002 0.5976870656 -0.2548591793 0.7601427436
-0.23519559 -0.15315862 1.1756667 -0.3211233914 0.6331751943 0.7042505741
-0.29503256 -0.22252983 1.2163076 -0.1255891472 0.6918773055 0.7110085487
-0.016942335 0.0076033301 1.0652858 -0.1683496088 0.7964718938 0.5807675719
-0.12756452 -0.28257126 1.3280001 -0.2342715263 0.7083255649 0.6658766866
0.05418852 -0.37466979 1.2919999 0.4957796335 -0.2659198642 0.826734066
0.18729866 -0.3557817 1.2036668 0.6903057098 -0.07025041431 0.7200992703
-0.20175782 -0.17799665 1.21 -0.2886176109 0.6162083745 0.7327940464
-0.065157153 -0.25307372 1.3272501 -0.1976442039 0.6764649749 0.7094588876
-0.24503061 -0.11554731 1.1362002 -0.1963686198 0.6516761184 0.732637465
-0.26558736 -0.094047196 1.1162499 0.04021297395 0.6011399031 0.7981314063
-0.1352631 0.015408943 1.025333 -0.126806885 0.7176635265 0.6847474575
0.17321236 -0.2452784 1.2336843 0.7473827004 -0.1318848431 0.6511723995
0.28668481 -0.37524104 1.0955501 0.8140649199 0.05853337049 0.5778166652
0.28942958 -0.30451807 1.0754001 0.865570426 0.1176186576 0.4867789447
-0.27528983 -0.19340056 1.1948181 -0.1716899276 0.6231392026 0.7630335093
-0.19435453 -0.047547244 1.0804 -0.05393688753 0.697339654 0.7147084475
0.10512349 -0.4750104 1.2327275 0.3962104321 -0.2222432941 0.8908564448
-0.030898118 0.1050536 1.0070001 0.7036910653 0.03591659293 0.7095977068
-0.22456956 -0.080868118 1.1075715 -0.1573572159 0.7167041898 0.6793922186
0.27173159 -0.10225441 1.08 0.7421114445 -0.04541747272 0.668735981
0.1262908 -0.44589767 1.2246841 0.4833005369 -0.1972088218 0.8529532552
0.14173158 -0.25109926 1.273 0.7028986812 -0.2357708514 0.6710779071
-0.39781904 0.026271073 1.427 0.6961756945 -0.1957821846 0.6906582117
0.26441842 -0.22511108 1.1044499 0.8850830793 0.133546114 0.4458625019
0.24364042 -0.19494109 1.1337144 0.9053900838 0.114839606 0.408755064
0.19471413 -0.19537106 1.2154784 0.7862008214 -0.005168039352 0.6179494858
0.17333072 -0.37537846 1.2129999 0.6545243859 -0.1566577405 0.7396324873
0.1255299 -0.048854884 1.1610001 -0.008979750797 0.7176617384 0.6963339448
0.22052813 -0.30128491 1.1810001 0.6899528503 0.01131799258 0.7237658501
-0.11139803 0.082485564 0.97000003 0.008544167504 0.5957046747 0.8031581044
0.0054397164 -0.1381688 1.2410001 -0.1520109475 0.7002727985 0.6975032091
-0.11528342 -0.23855677 1.302 -0.2878970206 0.6346529126 0.7171687484
0.042585459 0.061564047 0.99714291 -0.146983996 0.4931364357 0.8574451208
-0.045012653 -0.14619455 1.2338464 -0.1397046447 0.6552854776 0.7423499823
-0.045647595 -0.1117579 1.1970001 -0.1569438726 0.7303254604 0.6648257971
-0.2763848 -0.17084266 1.177 -0.1093838885 0.6174359918 0.7789788246
0.3048557 -0.33438054 1.0646665 0.8501529694 0.1542633474 0.503430903
0.22890928 -0.063572146 1.1465001 0.9083632231 0.02027368918 0.4176903069
0.1180984 -0.33663559 1.2590001 0.5003250837 -0.1702668518 0.8489310741
-0.044970784 -0.035580512 1.1140476 -0.1660773009 0.7527271509 0.6370401382
0.064272597 0.029457971 1.01825 -0.1250421256 0.7286781669 0.6733443737
0.24974304 -0.22407775 1.126 0.8620916605 0.1576004028 0.4816223085
-0.16533798 0.0083882166 1.028 -0.01120620128 0.6458831429 0.763354063
-0.013684962 -0.035802484 1.1240001 -0.2360700816 0.7590467334 0.6067280769
-0.21480457 -0.23574078 1.2565502 -0.1785386205 0.6012171507 0.7788850069
0.074573018 -0.41523191 1.2670344 0.4795042276 -0.2150368243 0.8507848382
0.1862154 0.0070080729 1.142 -0.3459472954 0.4837573767 0.8039274216
-0.15002397 -0.048733901 1.09 -0.1963512301 0.6952475309 0.6914311647
-0.11381325 -0.1376919 1.2105001 -0.2303020805 0.7012810111 0.6746598482
0.21353525 -0.45404136 1.163 0.50534904 -0.2041191906 0.8384256959
0.18901898 -0.02122673 1.153 -0.04572965205 0.4055695534 0.9129195809
0.28696427 -0.23518176 1.0624501 0.8526940942 0.06705772877 0.5180888176
0.17176071 -0.21449491 1.2420001 0.7968435884 -0.06743184477 0.6004108787
-0.056356519 0.059824608 0.98900002 -0.1410672218 0.7103267312 0.6895911694
0.015828539 -0.3959088 1.3146317 0.6731021404 -0.1164646 0.7303215265
-0.02593416 -0.063254401 1.1480771 -0.2342660874 0.7012342215 0.6733424067
-0.25585577 -0.22235635 1.2270001 -0.3000399172 0.6079564691 0.7350952029
0.025445249 0.0075375796 1.075 -0.1034331918 0.8066275716 0.5819394588
0.28287494 -0.27538249 1.083611 0.8729634285 0.1306798756 0.4699548781
0.13489632 0.025036285 1.0530001 -0.6457883716 0.1245436817 0.7532902956
-0.054767124 -0.28512529 1.37 -0.143961072 0.5817555785 0.800522089
-0.21363454 -0.20801826 1.2320001 -0.2203001678 0.6607158184 0.7175809741
0.0057846364 -0.10847659 1.2117778 -0.1823796481 0.7319150567 0.6565348506
0.31671417 -0.32529625 1.0349092 0.8707349896 0.1494378 0.4684964716
-0.19396996 -0.066806555 1.1022666 -0.1567613482 0.6865823865 0.7099510431
-0.20398448 0.01324492 1.0324546 0.1560567766 0.5557070374 0.8166002631
0.11562698 -0.39499667 1.2535189 0.4906949401 -0.2246272564 0.841879487
0.12471663 -0.024778794 1.134174 -0.09380418807 0.7639704943 0.6383963227
0.27675602 -0.34463573 1.1060832 0.8170543313 0.08903311193 0.569644928
0.006382484 -0.33571723 1.3484001 0.3931131065 -0.3008978665 0.8688628078
0.23306254 -0.31540698 1.1643333 0.7648456693 -0.0353667587 0.6432420015
0.04365829 -0.071500346 1.1763334 -0.09650783986 0.733017385 0.6733288169
-0.015661079 0.046100181 1.0152502 -0.1742577404 0.7358319759 0.6543588638
-0.04585259 -0.083656117 1.1652222 -0.1892845035 0.7379368544 0.6477812529
0.20404018 -0.38480675 1.1833998 0.6913301349 -0.1056161523 0.7147782445
0.22559479 -0.41498977 1.1648463 0.6283065677 -0.1180141196 0.7689626813
-0.085692905 -0.11275521 1.1872222 -0.1597369909 0.7397102714 0.6536916494
0.26053655 -0.37545002 1.13 0.7824665904 0.01063388959 0.6226017475
0.27827165 -0.14510129 1.0647779 0.76001513 -0.00503638247 0.6498858929
0.21707143 -0.1354216 1.1643335 0.822678268 0.1590371281 0.5458091497
-0.27286249 -0.26194799 1.245 -0.1258248836 0.3380509019 0.9326787591
-0.10543302 -0.045345645 1.1041998 -0.2531815767 0.7172374129 0.6492068768
0.27059144 -0.30596468 1.1120001 0.831772089 0.08804348856 0.5480908155
-0.026067026 -0.2225723 1.307 -0.2514082491 0.661606133 0.7064497471
0.11696234 -0.49551746 1.2161764 0.5161138177 -0.2378935367 0.8228203058
0.26161444 -0.079069629 1.1135001 0.7090618014 -0.3319664001 0.6221171021
0.0081494935 -0.37487671 1.3280001 0.779913187 -0.2249377817 0.5840705633
0.13349755 -0.29490593 1.266 0.6581085324 -0.1029700115 0.7458487749
0.0020286066 -0.061872505 1.1570001 -0.1481176317 0.7311005592 0.6659978628
0.094999462 -0.055165999 1.1652004 -0.1434631646 0.738055408 0.6593121886
-0.14952865 -0.20191824 1.245 -0.3246014714 0.5856690407 0.7427150607
0.035377882 -0.049529035 1.153 -0.120671168 0.7487177849 0.6518129706
0.2712273 -0.27460992 1.102 0.8526113629 0.08930413425 0.5148578882
-0.065841548 -0.0012021604 1.0664285 -0.1306075901 0.785783112 0.604554832
-0.15448317 -0.25596434 1.2925555 -0.2919669449 0.5890674591 0.7534950376
-0.10129007 0.00092926668 1.0600001 -0.1694967747 0.7632137537 0.6235187054
0.20951369 -0.21628901 1.189 0.7855014801 0.005325725302 0.6188368797
0.32032612 -0.3750827 1.041 0.8728653193 0.1591270417 0.4612859488
-0.0051522497 -0.011789572 1.0956364 -0.205646202 0.7806395888 0.5901792049
0.10404115 -0.1030922 1.217889 -0.09970062226 0.6795161366 0.7268545628
0.17406546 -0.45474955 1.1950954 0.5693106651 -0.2527574599 0.7823036909
0.12318438 -0.42361632 1.2416667 0.5139630437 -0.2745284736 0.8126968145
0.16350447 0.099748008 1.1730001 -0.5690457225 0.6832992435 -0.4574812949
0.081251651 -0.15042943 1.2525001 -0.02842342108 0.7097997069 0.7038298845
0.23698814 -0.38467729 1.1555262 0.7120695114 -0.04531358555 0.7006452084
0.064592153 -0.024190502 1.1240907 -0.08858650178 0.7855541706 0.6124190092
-0.19647036 -0.16081397 1.1963334 -0.3048937023 0.6379006505 0.7071934342
