# .PCD v0.7 - Point Cloud Data file format
VERSION 0.7
FIELDS x y z normal_x normal_y normal_z
SIZE 4 4 4 4 4 4
TYPE F F F F F F
COUNT 1 1 1 1 1 1
WIDTH 512
HEIGHT 1
VIEWPOINT 0 0 0 1 0 0 0
POINTS 512
DATA ascii
0.025048394 -0.43505865 1.2507693 0.6292231679 -0.06006691977 0.7749001384
0.036611352 -0.47209376 2.1980002 -0.1792362928 0.679466784 0.7114768028
-0.30214831 0.40649769 1.2252859 0.6253082752 -0.2863835096 0.7259297967
-0.46021932 -0.4463259 1.9810001 -0.2649261951 0.7284550667 0.6317968965
-0.46402669 -0.075081237 1.404 0.4174439609 -0.48979491 0.7654028535
0.085606501 0.23779583 1.5500001 -0.9878184795 -0.06319663674 0.1422000974
0.022414126 0.042159975 1.0136667 -0.388923198 0.4844537973 0.7836091518
0.11533689 -0.076349773 1.853 -0.9470160007 0.2677657902 0.1773758233
0.28495347 -0.28452477 0.95574182 0.6671242118 0.1437426955 0.7309468985
-0.33161345 -0.06374038 1.0536667 0.07925729454 0.5909010172 0.8028413653
-0.27286249 -0.30792916 1.25 -0.3498052359 0.6325438619 0.6910315156
-0.023977187 -0.14667125 1.2320002 -0.2443795651 0.6509057283 0.7187491655
-0.18648687 0.21475574 1.0630002 0.615965724 -0.2736586928 0.7387132049
-0.22356491 -0.48470372 2.1430001 -0.2273561507 0.737560153 0.6358571053
0.00176736 -0.28454494 2.016 -0.1818623692 0.6693488359 0.7203459144
-0.31082392 0.11409992 1.4960001 0.1301607937 -0.6012260318 0.7884069085
0.05457776 0.24218881 1.2970001 -0.4318014979 0.7116595507 -0.5541552901
0.16778709 -0.13514464 1.09525 0.8813716173 0.1963508725 0.4296863675
0.211381 -0.45268348 1.1010001 0.6364224553 -0.04075526074 0.7702632546
-0.084277473 -0.29793867 1.3540001 -0.06295785308 0.002641109983 0.9980127215
-0.13688244 -0.050970275 1.097 -0.3015772104 0.7088906169 0.637593329
-0.20610784 0.058452625 0.94800001 -0.01850061677 0.5504330397 0.8346742988
-0.41375697 -0.20454554 1.1685556 0.1854639351 0.5444505215 0.8180322647
0.1113805 -0.27261701 1.21 0.6444633603 0.03584774956 0.7637944221
0.052588426 0.12780941 1.1626002 -0.589771986 0.6452686191 -0.4855897129
-0.24268588 -0.15939115 1.1730001 -0.428570956 0.6064956188 0.6696940064
0.21118023 -0.29909235 1.09 0.7980511189 0.1804889739 0.574924469
0.057015773 -0.039010789 1.141 -0.080801256 0.7508554459 0.6555052996
-0.33656198 -0.4877449 2.0530002 -0.2562512159 0.7362094522 0.6263632774
-0.14453875 -0.21542124 1.2576669 -0.3801698685 0.5909281373 0.7115299106
-0.25157067 0.30520886 1.149 0.5741668344 -0.2588078082 0.7767566442
0.062504582 0.32396165 1.3980001 -0.6100571752 0.6294659972 -0.4812512696
0.24421266 -0.16484411 0.99491197 0.7260538936 -0.007621716242 0.6875955462
0.13148861 -0.39377558 1.1810001 0.6740471721 -0.1029190794 0.7314834595
-0.49925816 0.026952241 1.4640001 0.7316647768 -0.1899933666 0.6546519399
0.01735347 -0.31517947 1.2771666 0.6389721632 -0.2176875025 0.7377849817
-0.1035957 0.030990167 1.01 -0.2033348978 0.7645572424 0.6116429567
-0.0037100534 -0.39697573 2.1160002 -0.1803871393 0.6739682555 0.7163988352
0.11627215 -0.15491459 1.1966667 0.7729626298 0.1573156863 0.614638567
0.2655459 -0.38404801 1.0259376 0.8105956316 0.183660537 0.5560607314
-0.22845757 -0.021178514 1.028 -0.3126662672 0.7005182505 0.6414935589
-0.12539171 -0.12474114 1.1841578 -0.3138436377 0.6987594366 0.6428354383
-0.14255039 0.13205518 0.99757147 0.5580492616 -0.3349259794 0.7592138052
0.15791169 -0.026735354 1.097 0.7094649076 -0.1447919458 0.6897063255
-0.034943257 -0.01655403 1.0909232 -0.1543698907 0.7872733474 0.596967876
-0.33477083 -0.14734729 1.1242502 -0.1657620519 0.6439484358 0.7468957901
-0.1810381 -0.30557677 1.3153334 -0.5184996128 0.3025251329 0.7997729182
-0.31466708 -0.22701769 1.1940668 -0.1868486404 0.6644895673 0.7235614657
0.084392831 -0.48483863 1.1863332 0.5744732022 -0.2123705298 0.7904930711
-0.23068519 -0.089764528 1.1010001 -0.3344326615 0.7495059371 0.571310401
0.16414183 -0.22503084 1.1348003 0.8454805017 0.1236744449 0.5194876194
-0.042534612 -0.38559482 1.3062857 0.7422597408 -0.1596573144 0.6508148909
-0.048704091 -0.21860209 1.2920001 -0.1325611323 0.5841835737 0.8007228971
-0.05939329 -0.34736076 2.0530002 -0.1816156507 0.6731367707 0.7168700695
-0.045001585 -0.077176996 1.1614001 -0.1514834017 0.7349831462 0.6609482169
-0.2311314 -0.22789125 1.2320001 -0.336129874 0.5622163415 0.7555987239
0.065171406 -0.3240467 2.0650003 -0.1819933951 0.6733927131 0.7165337801
0.061796345 0.074969575 1.092875 -0.387247473 0.7321144938 -0.5603996515
0.23330909 -0.24556777 1.0242941 0.8681125641 0.2109602541 0.4493065774
0.19600104 -0.078462251 1.0366668 0.704708755 0.02877002954 0.7089131474
0.058915507 -0.23899686 1.268 0.7138085961 -0.1846385598 0.675563395
0.069918551 -0.35819811 1.2270001 0.5697629452 -0.2501681447 0.7828065753
0.19000785 -0.37509322 1.123 0.7282931209 0.02875631861 0.6846621037
0.034684401 -0.096172966 1.1954764 -0.05572100729 0.6525557637 0.7556892037
0.16172746 -0.30424979 1.153 0.7666602135 0.04632259533 0.6403798461
0.037994735 -0.22969542 1.9700001 -0.1815317124 0.6691282988 0.7206341028
-0.31542554 -0.49584648 2.1290002 -0.2429349869 0.7640521526 0.5976679325
0.15161949 -0.46496645 1.153 0.6276710629 -0.1426388472 0.7652994394
0.20188171 -0.18496965 1.0523334 0.8602045178 0.2412079424 0.4492959976
0.10475431 0.020560289 1.1168001 -0.1417603642 0.6451448202 0.7507943511
0.034161206 0.006653158 1.0846922 -0.2024050504 0.7223985791 0.6611902118
-0.26434532 0.02377025 0.98294121 0.1055228636 0.6003497839 0.7927452922
-0.17656241 -0.17021886 1.2060001 -0.2152608782 0.6451225877 0.7331299782
-0.15448394 -0.0067917868 1.0427144 -0.2317012548 0.7782886624 0.5835934877
0.25658712 -0.31520438 1.0143044 0.8573319912 0.2450609356 0.4526885748
-0.095069528 -0.16529346 1.2323335 -0.2256947905 0.6355869174 0.7383028865
-0.12516588 -0.26483893 1.3058887 -0.3789090812 0.5815221071 0.7199027538
-0.10522269 0.084104493 0.96356279 0.2065118253 0.07920001447 0.9752334356
-0.21501105 0.26430097 1.1062351 0.6897423863 -0.1541565806 0.7074539661
-0.045161258 0.053407542 0.98178941 -0.211322695 0.5519152284 0.8066797853
-0.18481295 -0.11350533 1.1457502 -0.2315943241 0.7150631547 0.6595822573
-0.33023068 -0.2829012 1.2270001 -0.01193044148 0.3370387554 0.9414151907
-0.46648836 -0.0086158803 1.404 0.6676741838 0.02339940518 0.7440857887
-0.27509594 0.35419491 1.1871334 0.4785012305 -0.4530279636 0.7521982789
0.2735875 -0.21478124 0.96380013 0.7022481561 -0.02738148347 0.7114055157
-0.29492608 -0.10556935 1.0937001 -0.1613195837 0.7104546428 0.6850038171
-0.30104995 -0.017866466 1.0190001 0.1043711454 0.6144250035 0.7820413113
0.056056343 0.28217393 1.3490001 -0.5546523929 0.6620641351 -0.5040156245
-0.16645709 -0.49556649 2.1700001 -0.22243011 0.800971508 0.5558502078
-0.16733551 0.02861177 0.98900002 -0.2008674592 0.7465044856 0.6343368888
-0.045292806 0.02209726 1.0416 -0.1714106649 0.7488229275 0.6402207017
-0.3809213 -0.25079942 1.197 -0.1373546869 0.5524905324 0.8221240044
0.052160788 0.16429757 1.2143334 -0.6480668187 0.6135718226 -0.4511530399
-0.22503461 -0.27653778 1.2770909 -0.2497581095 0.6656048894 0.7032716274
0.034383073 -0.49453405 1.2324708 0.7502653003 -0.09585598856 0.6541510224
0.074278295 -0.42412528 1.213158 0.610612452 -0.1654748619 0.774448514
0.0072254864 -0.37739274 1.268 0.6752241254 -0.2412546873 0.6970427036
-0.10489707 -0.077924423 1.1435456 -0.2409044951 0.695889771 0.6765370965
-0.26603538 -0.061761528 1.0567502 -0.1423085928 0.6703501344 0.7282711864
0.23078249 -0.39410549 1.08 0.7593719959 0.04495268688 0.6491020322
0.086947352 -0.19526742 1.2340001 0.7931640744 0.01334042195 0.6088618636
0.13799873 -0.12188209 1.149 0.8705020547 0.2189585567 0.4407757819
-0.36175308 -0.1064555 1.086625 0.02830045484 0.5623466372 0.8264172077
-0.036588755 -0.32672334 1.3273335 0.6647898555 -0.1110868007 0.7387247086
0.11797916 -0.33474901 1.1969999 0.6765338778 -0.03661524132 0.7355006933
-0.39434355 -0.15643457 1.1317778 0.2072078288 0.5187895894 0.8294107914
-0.095100269 -0.0044012731 1.0635357 -0.1564704329 0.7669084668 0.622389257
-0.19436671 -0.045179013 1.0715455 -0.2696486712 0.7014400959 0.659750998
0.13293639 -0.21562767 1.1852105 0.8173878193 0.02663743123 0.5754716396
0.19788155 -0.23498663 1.0852 0.8293611407 0.20118545 0.5212336183
-0.065510675 -0.121577 1.1969999 -0.1925803274 0.6931465864 0.6945938468
0.067450859 -0.29395422 1.2438571 0.6942189336 -0.08680381626 0.7145104408
0.015120747 -0.43661156 2.1560001 -0.1803871393 0.6739682555 0.7163988352
-0.35593101 -0.19400638 1.1553998 -0.1332512945 0.6069430113 0.7834948897
-0.17401212 0.16628653 1.0335264 0.5216259956 -0.329716295 0.7868884802
-0.0049791164 -0.044816252 1.1359202 -0.1845410764 0.7330724597 0.6546368003
-0.29542509 -0.17429411 1.1555262 -0.2899547517 0.5883281231 0.7548484802
0.20998271 -0.13157713 1.028 0.7491261363 0.02412837557 0.6619877815
-0.26823369 -0.32530469 1.302 -0.1701872498 0.8201363087 0.5462716818
-0.26397601 -0.20581862 1.1945385 -0.4219472408 0.5325116515 0.733751893
-0.0036434266 -0.35887751 2.0780001 -0.1819933951 0.6733927131 0.7165337801
0.15914042 -0.082905486 1.087 0.8784142137 0.0001566231222 0.4779000282
-0.085478507 -0.041767906 1.108 -0.2103931606 0.7261675 0.6545345187
-0.25366622 -0.12733231 1.1317779 -0.2911852002 0.698887527 0.6532743573
-0.17539991 -0.25472215 1.2753531 -0.3121765852 0.6291361451 0.7118521333
-0.28342983 -0.25855181 1.2340001 -0.3442339599 0.5488724113 0.7617362142
0.23953557 -0.34146559 1.057 0.8372958302 0.1944405884 0.5110073686
-0.015746687 -0.42516053 1.2830002 0.6408436298 0.07398209721 0.764098227
0.15161727 -0.1751238 1.1465386 0.8737713099 0.1459555179 0.4639188647
0.16521768 -0.41510102 1.1447145 0.6787716746 -0.06255512685 0.7316802144
-0.094997853 -0.20403993 1.2661176 -0.1812814623 0.6595677137 0.7294569612
0.15628454 -0.35508767 1.156294 0.7105891705 0.002789234975 0.7036016583
-0.015570585 -0.10508878 1.1942501 -0.2075723708 0.6909084916 0.692502141
-0.15459377 0.065117463 0.95659453 -0.2273158729 0.6620956659 0.7141125798
0.17898367 -0.18518132 1.097 0.8558424115 0.2060631961 0.4744172394
0.11523171 -0.44536582 1.1841998 0.4951390922 -0.1738812029 0.8512359262
-0.025382349 -0.18350978 1.2657499 -0.1720772088 0.6407530904 0.7482144833
-0.18099777 -0.078313217 1.1120001 -0.2895627022 0.6735737324 0.6800381541
-0.21380462 0.014277508 0.9936958 -0.2247327864 0.7222405076 0.6541129947
0.021513401 -0.13015607 1.2270001 -0.005346198101 0.6534379125 0.7569612265
0.14216661 -0.26556623 1.1730002 0.7825803757 0.04681230336 0.6207870245
-0.18652712 -0.21222295 1.2360001 -0.262981087 0.5178491473 0.8140473962
0.054874364 0.047785927 1.0549999 -0.9217994809 0.3386714458 -0.1886462569
-0.21716118 -0.19220987 1.2060001 -0.3605193198 0.6050584912 0.7098802924
0.12708686 -0.022006789 1.1308 0.4233179986 0.2292034477 0.8765087724
0.18016289 -0.27467456 1.123 0.7933962345 0.1308037341 0.5944853425
0.0024071513 0.022027651 1.0558001 -0.03232757747 0.9362615943 0.3498130739
0.046304129 -0.39607725 1.2360001 0.6189530492 -0.1739086658 0.7659326792
-0.13036208 0.068243235 0.99800003 0.9764034152 0.1515309811 0.153865993
0.025712498 -0.065434359 1.163316 -0.1429072917 0.7131154537 0.6863263249
0.21379957 -0.34533238 1.094087 0.7605127096 0.09965156019 0.6416307688
0.070716314 -0.010655884 1.105 -0.3361384869 0.6601225138 0.6717508435
-0.014731945 -0.3455916 1.2924999 0.5230107903 -0.2232010514 0.8225818872
0.25745454 -0.26447749 0.98550016 0.8691135049 0.1923879534 0.4556627572
-0.082497835 -0.25093094 1.307 -0.1214711592 0.7176357508 0.6857431531
0.23072289 -0.289096 1.0513334 0.8665717244 0.193971768 0.4598134756
-0.14702225 -0.091204897 1.1370001 -0.2640733719 0.6955012083 0.6682389975
0.032618135 -0.27106795 1.2830001 0.6508508325 -0.2262915969 0.7246966958
0.27664763 -0.35189015 0.99800003 0.777966857 0.3091016114 0.5470134616
-0.13722919 -0.17473903 1.2255456 -0.3580436707 0.6223142743 0.6960816383
0.085766055 -0.24501528 1.2341819 0.7765949368 -0.1693770438 0.6068045497
0.26038489 -0.41605985 1.057 0.7625709176 0.1713277847 0.6238048077
0.061120324 0.10449735 1.1245 -0.5341541767 0.6663556099 -0.52023983
-0.19556868 -0.1433315 1.1750001 -0.2448049784 0.6833761334 0.6877990961
0.097313702 -0.3858473 1.2051113 0.5127551556 -0.194104746 0.8363046646
0.184283 -0.32520768 1.1241251 0.7621967196 0.1038239971 0.6389653683
-0.48791611 -0.044846758 1.4210001 0.3463781774 -0.3097631335 0.8854767084
0.24533114 -0.21472169 0.99500018 0.8160078526 0.1011959314 0.5691139102
0.00504637 -0.015653208 1.1047367 -0.1406140476 0.7532519102 0.6425256729
-0.49480423 -0.0050399569 1.4380001 0.6792538166 -0.2334181666 0.695794642
-0.20537725 -0.31304026 1.2777059 -0.2967793345 -0.4752382636 0.8282938004
0.18217698 -0.11567194 1.0617274 0.8309691548 0.1591226608 0.5330762267
-0.29459935 -0.13754646 1.1239002 -0.2866982222 0.7055965066 0.6480259895
0.028091248 0.048089769 1.0862501 -0.3295320868 0.1867191941 -0.9254969358
0.17866993 -0.44914263 1.126 0.6620587111 -0.1100488007 0.7413282394
-0.044347867 -0.044349488 1.124154 -0.1547049731 0.7661237717 0.6237953901
0.035868611 -0.34552923 1.2578237 0.5432474613 -0.2493661791 0.801684916
0.19631083 -0.41447994 1.1159583 0.6796931028 -0.09936137497 0.7267355919
-0.26113883 -0.49785462 2.1430001 -0.2425077111 0.7598277926 0.6032012105
-0.057846848 -0.17135765 1.245 -0.1387607157 0.6346960068 0.7602015734
0.025706496 -0.33563274 2.0650001 -0.1819933951 0.6733927131 0.7165337801
0.07020434 0.027889397 1.097 -0.5403469801 0.3702680171 0.7555969357
0.054572031 -0.46470085 1.2167084 0.6191438437 -0.1072814092 0.7779148817
-0.014451412 0.028681464 1.0145 0.06259643286 0.8987151384 0.4340423942
0.08778251 -0.31647506 1.219 0.6428009272 -0.03553267196 0.7652087212
-0.24204242 0.051444549 0.96200007 0.09657415003 0.5708833933 0.8153315783
-0.35438296 -0.22534075 1.1834761 -0.225463286 0.6692703962 0.7079855204
-0.083408877 0.048468791 0.97680008 0.1356637925 0.7848402262 0.6046661735
-0.0011116134 -0.45798469 1.268 0.7293647528 0.04331577569 0.6827524304
-0.093578018 -0.099748008 1.1730001 -0.2003661543 0.6939377785 0.6915950775
-0.20495836 -0.24626444 1.2529334 -0.271240592 0.605397284 0.74827981
-0.20926909 0.22838043 1.09 0.6901305318 -0.2199114859 0.6894627213
-0.24936345 0.34096634 1.161 0.4549944997 -0.4290049672 0.7803426981
-0.065782204 0.036686882 1.0135558 -0.05464308336 0.9057254195 0.4203279018
0.22358656 -0.20537519 1.0242857 0.8475323915 0.1704169661 0.5026399493
-0.26540196 -0.0089623583 1.011 -0.007183115929 0.6368175745 0.7709810734
-0.24546666 -0.25752082 1.25 -0.3186734617 0.6276910305 0.7102472782
-0.12034968 -0.22832696 1.2830001 -0.3134584427 0.5881037712 0.7455720901
-0.18456638 0.00089595333 1.0220002 -0.1924647838 0.7828420997 0.5917056203
0.11726908 -0.48181337 1.169 0.545529902 -0.1850940138 0.8173967004
-0.16144781 -0.12854125 1.1730001 -0.2534479499 0.7084249854 0.6587094665
0.27652171 -0.31392157 0.97688895 0.7781214714 0.32134372 0.5396898985
-0.12535231 -0.025076138 1.0729998 -0.2597467601 0.7342514396 0.6272211671
-0.14055158 -0.29272163 1.325 -0.3727891743 0.6026477218 0.7055805922
-0.22795263 -0.050965015 1.057 -0.3629844189 0.6522045135 0.6654859185
0.0025613278 -0.16298403 1.2533334 -0.144437626 0.6546170115 0.7420339584
-0.24605417 -0.31715128 1.2738333 -0.09192004055 0.8535596728 0.5128222108
-0.32529405 -0.091805659 1.0764287 -0.05543345213 0.6507768631 0.7572427988
-0.22091123 -0.1099603 1.13 -0.2668447793 0.7007113695 0.6616626382
0.1490798 -0.10210683 1.1163334 0.8930945396 0.1752614379 0.4143255055
-0.34553117 -0.25372794 1.2047694 -0.289602071 0.585998714 0.7567933202
0.21301906 -0.22522901 1.0526154 0.8694877625 0.2220415324 0.4412353635
0.13343924 -0.30468813 1.1842941 0.7275779843 -0.03442905098 0.6851604581
-0.29498476 -0.04520905 1.0417502 0.03990228847 0.6014788151 0.7978916168
-0.1454006 0.01568535 1.0161158 -0.2375771105 0.7711147666 0.59071064
0.18760906 -0.15434015 1.0647058 0.8500524759 0.2095982134 0.4831970632
0.1113805 -0.23018636 1.21 0.6931911707 -0.125488475 0.7097454667
0.21354589 -0.26564133 1.0724072 0.8526582718 0.1868379116 0.4879195392
-0.3749398 -0.13210315 1.1079999 0.1063316613 0.6236694455 0.7744223475
-0.1050159 -0.13896044 1.21 -0.1771593988 0.6918863058 0.6999342442
-0.13201176 0.10375329 0.97675008 0.4674945474 -0.2400404066 0.8507816792
0.18086992 -0.060601775 1.0635 0.8343603015 -0.1648452729 0.5259932876
0.22130047 -0.16575137 1.0220001 0.7589224577 0.1203124598 0.6399700046
-0.11545262 0.0071202866 1.0370001 -0.2350833416 0.7963856459 0.557230413
-0.1469118 -0.15005991 1.197 -0.3239639103 0.6724717021 0.6654540896
-0.28430891 0.38440397 1.2043999 0.5863524079 -0.3206582069 0.7438878417
0.28494963 -0.24417132 0.94800001 0.626355648 0.06097373739 0.7771491408
-0.32794082 -0.12021291 1.097 -0.1471228749 0.6387313604 0.755233109
-0.055145316 -0.0018701054 1.0662001 -0.1548845023 0.7869334817 0.5972825885
0.24175048 -0.44117111 1.0730001 0.6820191741 0.05969007313 0.7288943529
-0.22531812 0.29182681 1.1251428 0.5961380601 -0.2702900767 0.7560176253
-0.0056558149 -0.07918141 1.1730001 -0.1537096798 0.7096261382 0.6876074672
-0.10867949 -0.27929461 1.3330001 -0.4333069623 0.6372762322 0.637278676
-0.29430288 -0.29522485 1.2258574 -0.2744784653 0.2889734209 0.9171455503
-0.2658127 -0.23395242 1.2170666 -0.3008205295 0.634668231 0.711830914
-0.29360443 -0.079732835 1.0700001 -0.1285281181 0.6591252685 0.740968585
-0.075043954 -0.062839821 1.1353334 -0.1753554493 0.7187878489 0.6727514267
-0.31261232 -0.19846769 1.1730001 -0.2066820562 0.6129555702 0.7626060247
0.13792494 -0.42496583 1.1680768 0.6395136118 -0.0398511216 0.7677462101
-0.19639993 -0.022117425 1.0463334 -0.2481065243 0.7496808767 0.6135321259
0.2470056 -0.37467134 1.0543529 0.8404499888 0.1341199726 0.5250291228
-0.2250122 -0.13585168 1.1557692 -0.3242852986 0.6984186769 0.6380050182
-0.19217353 -0.27901027 1.2920001 -0.3763259053 0.591473639 0.7131183147
0.13425101 -0.17510587 1.1753531 0.8295127749 0.08543199301 0.5519147515
0.15960155 -0.25997987 1.1450001 0.8024856448 0.03729929775 0.5955044627
0.11569259 -0.19509929 1.2047272 0.7471905351 0.09986994416 0.6570634246
-0.15563765 -0.27278233 1.2958889 -0.26513955 0.6100723147 0.7466677427
0.056129459 0.25718862 1.3263637 -0.4318014979 0.7116595507 -0.5541552901
0.15611969 -0.14535464 1.1243848 0.8804457188 0.2243577093 0.4177067876
0.061284259 -0.49637917 1.2105001 0.6703811288 -0.1547994763 0.725690186
0.24560924 -0.27466595 1.0145003 0.8679696918 0.2284530401 0.4409509897
-0.26491135 -0.035650153 1.0324233 -0.1080104113 0.7023034692 0.703635931
-0.31524745 -0.25347054 1.2175294 -0.2452190667 0.5125183463 0.8229171038
-0.1660319 -0.029079033 1.0700001 -0.2147831172 0.7341173291 0.6441583037
0.043754432 -0.44325143 2.1700001 -0.1803871393 0.6739682555 0.7163988352
-0.26640111 -0.092562839 1.0852855 -0.2067300081 0.7224107981 0.6598373652
0.024658969 -0.031563595 1.1251001 -0.1286200881 0.7678717375 0.6275586486
-0.38537422 -0.22436479 1.1743336 -0.0196074564 0.59456563 0.8038079739
0.08499898 -0.45437726 1.1970004 0.5755444765 -0.128657341 0.8075864315
-0.38540936 -0.18415962 1.1470002 0.06601074338 0.6016303301 0.7960423827
-0.065197892 -0.14651932 1.2258888 -0.158785522 0.6859400868 0.7101220489
0.26156488 -0.18683214 0.97425002 0.726878345 -0.03784917668 0.6857224703
-0.24696314 -0.28830498 1.2410001 -0.5652879477 -0.06098028645 0.8226365447
-0.13511889 0.038109574 0.98800009 -0.2180315554 0.7636373639 0.607717216
0.047763292 -0.31483829 1.2580769 0.6069071293 -0.1387021989 0.7825761437
0.25788987 -0.34535375 1.0250001 0.8287749887 0.2040192932 0.5210644603
0.0571783 0.30133206 1.376 -0.6100571752 0.6294659972 -0.4812512696
-0.19551381 0.035961248 0.97573936 -0.1848540753 0.7404928803 0.6461417675
-0.20449127 -0.069278583 1.09 -0.3392497003 0.655990243 0.6742302179
-0.26793915 -0.15008621 1.149 -0.2661773562 0.6366250515 0.7237804532
0.23312145 -0.13708806 1.006 0.6789011955 -0.0653456226 0.73131603
0.14852297 -0.20503417 1.1570002 0.8489654064 0.1352624595 0.510844171
0.22150795 -0.42421079 1.0906668 0.6976451278 0.02279815264 0.7160806656
-0.064821549 -0.19429849 1.2664615 -0.177889809 0.6718447804 0.7190130949
0.16649139 -0.19508688 1.1247145 0.8653053045 0.1846338511 0.466001153
-0.085375905 0.01655372 1.035524 -0.1749385446 0.796623826 0.5786077976
0.10453745 -0.41440555 1.1941431 0.4355594218 -0.2719058394 0.8581114411
-0.0113616 0.00094679999 1.08 -0.2293969244 0.7634108067 0.6038054228
-0.034829229 -0.12551513 1.2116842 -0.1471680552 0.6730077863 0.7248462439
0.095722683 -0.35467005 1.2060002 0.5103599429 -0.08838570118 0.8554067612
0.21210489 -0.37570798 1.101 0.7070750594 0.09547558427 0.7006634474
0.18233207 -0.24520247 1.1130717 0.8405928612 0.1256380975 0.5268953443
-0.3254388 -0.17313981 1.1472858 -0.2173211575 0.6095197201 0.7624022961
0.015211147 -0.40463099 1.2552356 0.5473391414 -0.07802407444 0.8332659006
-0.16565318 -0.19039358 1.2270001 -0.2692533135 0.5926944613 0.7590888739
-0.084532797 -0.22371951 1.287706 -0.1272431463 0.5441731811 0.829267621
0.18236677 -0.21542437 1.1035833 0.8643131256 0.1787181497 0.4701304436
-0.36424974 -0.16090165 1.126 -0.02161764912 0.5516277552 0.8338102102
-0.077664331 -0.020488137 1.087 -0.1863239408 0.7739257216 0.6052457094
-0.035421386 -0.35447675 1.3138751 0.7485287189 -0.2200679183 0.6255196929
0.1278557 -0.13813899 1.1730001 0.816195786 0.2346738577 0.527970314
-0.11518435 -0.18460058 1.2450001 -0.2107742131 0.6289137006 0.7483593822
-0.21548963 -0.1647426 1.1859089 -0.3066464663 0.6229777932 0.7196295261
0.063765503 -0.2650857 1.2530527 0.7419795394 -0.1857736409 0.6441696286
0.061292153 0.14647785 1.1850001 -0.6480668187 0.6135718226 -0.4511530399
0.044953197 0.026659235 1.0354816 -0.5514832139 0.7354469895 0.3936800361
0.14190954 -0.33420724 1.1730002 0.7069926858 -0.01763508469 0.7070009708
-0.014662209 -0.39503139 1.2865716 0.542627871 -0.0604403913 0.8377959132
-0.062167939 -0.31435865 1.3380001 0.2874279916 -0.3426774442 0.8944033384
0.02925612 -0.46484724 1.2360001 0.7130794525 -0.02675900422 0.7005723715
0.16242455 -0.38467479 1.1538571 0.7116137743 -0.0765986219 0.6983827949
0.017307552 -0.48473409 1.2553637 0.7611715198 -0.008991871029 0.6484882832
-0.053837851 -0.098357618 1.1810001 -0.1820643544 0.6910823584 0.6994696259
-0.17449418 -0.055475689 1.0933913 -0.2391024977 0.7071300149 0.6654300094
0.14659363 -0.23490499 1.1665653 0.8199281096 -0.0376951918 0.571224153
-0.12424835 -0.065575078 1.124154 -0.3373300731 0.6846619248 0.6461009383
-0.26760599 -0.11219054 1.108 -0.2549075484 0.7305261493 0.6335248351
-0.27454135 -0.18558401 1.173889 -0.3331557214 0.5486608744 0.7667975426
0.12623496 -0.24527712 1.1882725 0.7247061133 -0.0508579351 0.6871786714
0.12079721 -0.36448336 1.1930001 0.6719181538 -0.0847363323 0.7357620001
0.052253932 -0.072849467 1.1745002 -0.09104816616 0.6972597241 0.7110127211
0.047175813 -0.4377977 1.2270001 0.6362841725 -0.1973855346 0.7457756996
0.24159929 -0.31526801 1.0423846 0.8419897556 0.194838047 0.5030818582
-0.017699607 0.051941037 0.99300003 -0.3120048344 0.5287145972 0.7893756032
0.082187496 -0.2202625 1.25 0.7809346318 -0.04594331607 0.6229207516
-0.23531456 -0.0029582859 1.0057648 -0.1547371596 0.7186070681 0.6779825091
-0.005612534 -0.12444387 1.216826 -0.20282875 0.6676028967 0.7163566947
-0.1844141 0.18718033 1.0526668 0.618478477 -0.275241524 0.7360206842
-0.14477798 -0.24399386 1.278 -0.353671968 0.5615260005 0.7480673194
0.22943331 -0.36350545 1.077 0.8026383519 0.1381976604 0.5802353621
0.066097163 -0.32669333 1.2360001 0.6530412436 -0.1294779181 0.7461719513
0.03496331 -0.37469608 1.2526318 0.54944098 -0.1855442673 0.8146704435
-0.1328242 -0.10839676 1.161 -0.3552677333 0.6977260113 0.6220636964
-0.23679107 -0.072951466 1.0741175 -0.3270659149 0.6689959168 0.6674371362
0.15107246 -0.0088289101 1.1190001 0.642772913 0.1665139794 0.7477406859
-0.25333124 -0.28234714 1.273 -0.61496979 0.03207327425 0.7878981233
0.19651443 -0.20449126 1.0730475 0.8437764645 0.2315329313 0.4841836095
-0.11534769 0.05527848 0.97610021 -0.1574067622 0.5847939253 0.7957632542
0.08698491 -0.27510136 1.2250001 0.6868010759 -0.08756508678 0.7215515375
-0.076502636 -0.083503529 1.1551818 -0.1880192757 0.7365113497 0.6497690082
0.16172548 -0.054547716 1.0916001 0.7386779785 -0.1465306729 0.6579388976
0.26124567 -0.29581484 0.99285716 0.8764260411 0.240364626 0.4172556102
-0.15438618 -0.067605391 1.1122502 -0.2582715154 0.6978860497 0.6680201292
-0.45828274 -0.047182202 1.4039999 0.1722247899 -0.6179081202 0.7671558857
0.19774495 -0.27498513 1.0967501 0.7877551317 0.1568512321 0.5956841111
-0.19601066 -0.47781518 2.1430001 -0.2289271951 0.7403593659 0.6320287585
0.25833365 -0.23434725 0.97714287 0.812972486 0.0263971556 0.5817034841
0.06875024 -0.395403 1.219 0.6016205549 -0.1982844025 0.7737803459
0.01622184 0.018925481 1.028 -0.140951544 0.922419548 0.3595480621
-0.24575292 -0.18313803 1.1874616 -0.4205377996 0.5888190866 0.6902463436
0.17570736 -0.35432991 1.1349603 0.7611179352 -0.003698590677 0.6486029625
-0.28752738 -0.22141707 1.197 -0.2598017156 0.6679521799 0.6973829269
0.1139459 -0.30451238 1.2041051 0.6475414038 -0.07538640499 0.7582921982
-0.16309303 0.14578965 1.0183077 0.4922098815 -0.3481773436 0.7978107333
0.2041955 -0.10481904 1.0337002 0.6932709813 0.03136366233 0.719994247
0.22382811 -0.31559837 1.0717778 0.8513637185 0.1689524502 0.4966235161
-0.23566915 0.028579919 0.97613335 0.002679849043 0.6364318132 0.77132833
0.045619305 -0.01691225 1.1144617 -0.1270665824 0.7376354337 0.6631350517
-0.11196436 -0.03957361 1.1010001 -0.2431803942 0.7290825248 0.63976717
-0.24465598 -0.21502437 1.212 -0.4205413461 0.526727736 0.7387170196
0.013335299 -0.34444389 1.2732632 0.609070003 -0.1957938224 0.7685691714
-0.16629432 -0.23141401 1.2589999 -0.3453934789 0.6152517796 0.7086385489
0.12667292 0.0050664023 1.1186668 0.331248194 0.3632296622 0.8708265424
-0.025887715 -0.063428715 1.1484287 -0.1776294559 0.7078451514 0.6836687922
0.096091434 -0.00099063327 1.13 -0.2621846199 0.3893926442 0.8829680681
0.099385068 -0.17739701 1.2190001 0.7279863358 0.1034435853 0.6777427793
-0.20496143 -0.094035298 1.1162273 -0.27053985 0.7252343297 0.6331219673
-0.0306658 0.010221933 1.0600001 -0.2016158849 0.7621617913 0.6151914001
-0.024371332 -0.028270746 1.1120001 -0.2054305524 0.7447646856 0.6349203587
-0.17541844 0.048881989 0.96523088 -0.1233395189 0.721927762 0.6808874011
-0.32032612 -0.03924223 1.041 0.03030596115 0.5429360867 0.8392270207
0.14447203 -0.042769682 1.1124285 0.7274487019 -0.1107407957 0.67716676
0.051736481 0.021635257 1.0730001 -0.442397356 0.3013216257 0.8446832895
0.20099279 -0.15569481 1.0426668 0.8185302615 0.1323159635 0.5590175986
0.0050254655 -0.42540261 1.2665881 0.7105566859 0.06045447662 0.7010381818
0.04503151 0.063968949 1.0750868 -0.5554184318 0.6783084273 -0.481048882
-0.46798423 -0.0278216 1.4210001 0.5217024684 -0.03392583504 0.8524526954
-0.12437023 -0.15519993 1.214524 -0.2816754282 0.6679652333 0.6888261437
-0.08503399 -0.18471634 1.2525001 -0.1835000515 0.6388322115 0.7471419573
-0.34650952 -0.078982405 1.0700001 0.08637095988 0.585807085 0.8058350682
-0.068666667 0.066971198 0.96700007 -0.02260564268 0.583820045 0.8115683198
-0.098712668 -0.060214728 1.126 -0.1915980875 0.7437080145 0.6404596567
0.013789967 -0.10925896 1.21 -0.01805455796 0.6992453933 0.7146537304
0.19135052 -0.2952112 1.113 0.7827470303 0.1421634853 0.6058850288
0.034347899 -0.29437509 1.2730001 0.6055482626 -0.1624195725 0.77905792
0.22741361 -0.2647869 1.0447501 0.8795315027 0.2200529277 0.4219016433
-0.17574134 -0.15155865 1.189 -0.2183694094 0.700622201 0.6792961955
-0.185747 0.072040439 0.94216686 -0.02882828563 0.6257227063 0.7795126438
-0.23254986 0.26703793 1.1240001 0.5875764489 -0.2672079206 0.7637760639
-0.029923264 -0.091833465 1.177 -0.1606763899 0.7057737112 0.6899757981
-0.22542956 -0.30455744 1.2653333 -0.4395943582 -0.1763616502 0.8807118535
-0.054614142 -0.026584476 1.1026667 -0.1502242535 0.7497738004 0.644415915
0.17084217 -0.15925965 1.1010001 0.873796165 0.209369719 0.4389130175
-0.33464125 -0.21251301 1.1751819 -0.1888528615 0.6463026404 0.7393426299
-0.27157819 0.3330676 1.169 0.5001451969 -0.3853677809 0.7754653096
0.26701039 -0.25438157 0.96486664 0.7432573438 0.1064021736 0.660490036
-0.21262586 -0.29221842 1.2970001 -0.3775379062 -0.1645193547 0.9112620354
0.20331754 -0.32531175 1.1044089 0.7448130846 0.08744581789 0.6615184546
0.17588398 -0.084925331 1.0635216 0.8380554318 0.0374474898 0.54429847
-0.13050848 0.079328686 0.97300005 -0.009684772231 -0.1278802603 0.9917423129
-0.021902639 0.03011613 1.041 -0.09589594603 0.8725744486 0.4789757431
-0.19507666 -0.18544643 1.214579 -0.3077583611 0.5848166347 0.7505159974
0.025302397 -0.046329752 1.1447897 -0.1295470297 0.7340189815 0.6666586399
0.014309245 -0.40750241 2.1290002 -0.1803871393 0.6739682555 0.7163988352
-0.036509078 -0.4061164 1.2880001 0.5274366736 -0.09353607148 0.8444297314
0.17542948 -0.39451778 1.1355387 0.7347683907 -0.02920755371 0.6776889563
-0.44868064 -0.062012769 1.3870001 0.2380694151 -0.587828815 0.7731624842
0.16847414 -0.33443737 1.1473335 0.7519822717 0.0290735662 0.6585418582
-0.034731783 -0.20256472 1.278 -0.1275072247 0.6423382759 0.7557402849
-0.14355074 -0.19737171 1.2413638 -0.3541000187 0.5865327716 0.7284177542
-0.3054193 -0.12374233 1.1070498 -0.1594788432 0.6722979546 0.7228983045
0.071232155 -0.02387742 1.1254001 -0.161530897 0.738168776 0.654992044
-0.30508187 -0.065537736 1.0539629 -0.07301069051 0.6454735398 0.7602850199
-0.1476666 0.10704087 0.995 0.6249430776 -0.2623837292 0.7352557182
-0.26631379 -0.27177104 1.245 -0.416762352 0.08400873095 0.9051252007
0.015767867 -0.085170694 1.1824737 -0.1329341233 0.6916263103 0.7099165916
0.13737077 -0.36597875 1.1754616 0.6686456203 -0.03888466582 0.7425637841
0.23481213 -0.18484642 1.0046999 0.798210144 0.05041186512 0.6002659798
-0.17478785 -0.095995642 1.1325263 -0.2482481748 0.7116187215 0.6572455168
0.25599369 -0.39537823 1.0454403 0.822562933 0.2025162876 0.5313919783
0.053036019 -0.35500386 1.243909 0.6170372963 -0.2218967676 0.7550011873
0.17498019 -0.29468811 1.1352415 0.7904932499 0.07925834507 0.6073208451
-0.24460754 -0.10755056 1.1127501 -0.3238310516 0.7253216505 0.6074882746
0.14230242 -0.14534359 1.1553332 0.8685316443 0.2090390921 0.4493944645
0.0055205054 -0.05792642 1.153 -0.1382301748 0.7113956213 0.6890636683
0.15423296 -0.43534538 1.1541198 0.6835467219 -0.1060922146 0.7221553326
-0.10594904 -0.24257179 1.2955714 -0.2070063949 0.6158707142 0.7601655126
0.19498914 -0.34517771 1.1143667 0.7491876483 0.04276987538 0.6609755158
0.09570536 -0.21511561 1.2245386 0.7355220914 -0.04427278787 0.6760526896
-0.47961119 0.0012457434 1.4210001 0.7361082435 -0.07636003196 0.6725427508
0.24790725 -0.24483424 0.99557149 0.8582649827 0.1449893862 0.4923000336
0.0054178005 -0.14483586 1.2360001 -0.1224936023 0.6621277928 0.7393119335
-0.1361549 -0.011756707 1.0565385 -0.2447907329 0.7293589711 0.6388372183
-0.37573937 -0.20468272 1.1620908 -0.08611635119 0.5427855253 0.8354446888
0.1923577 -0.13538863 1.0505716 0.8029702306 0.131697461 0.5812870264
-0.20750174 -0.22267157 1.2360001 -0.2814642489 0.521730423 0.805341661
0.046194781 -0.31736413 2.0530002 -0.1819933951 0.6733927131 0.7165337801
0.16723092 -0.10470259 1.0842104 0.8497143388 0.198081702 0.4886196256
-0.035238009 -0.16384831 1.2432222 -0.1581114382 0.6947376728 0.701669693
-0.31519887 -0.15452161 1.1348001 -0.2372831851 0.6468813419 0.7247353196
-0.20764157 -0.12292817 1.1470001 -0.2914461792 0.7208716869 0.6288109422
0.14658375 -0.29406106 1.1681999 0.7657052279 0.02251966484 0.6427972913
0.045840021 -0.05380892 1.1551331 -0.09378091991 0.7306412458 0.6762902737
-0.25555527 0.0056800283 0.99464005 0.0221135281 0.6806881428 0.7322394848
-0.026894696 -0.37475777 1.292909 0.5888146162 -0.125398621 0.7984814048
0.14797558 -0.40560862 1.1570001 0.6405906677 -0.1097562388 0.7599981427
-0.074769281 0.0055332123 1.0529499 -0.1447044462 0.781960547 0.6062988639
0.12707359 -0.27453783 1.1881429 0.7363344431 0.07281060517 0.6726887822
-0.15500955 -0.11246027 1.1556665 -0.256020993 0.6999854445 0.6666885614
-0.24608895 -0.043256626 1.0448334 -0.1846046448 0.6881734729 0.7016682625
0.049717519 0.088711649 1.1120001 -0.3292844892 0.7657451034 -0.55245471
-0.30019698 -0.23761174 1.21 -0.2421808839 0.637052834 0.7317869067
0.034752484 -0.41528678 1.2437501 0.6131316423 -0.1365906894 0.7780826688
-0.12336921 -0.2086934 1.2640001 -0.3213842213 0.5912028551 0.7397238612
-0.15387502 -0.16677833 1.2117141 -0.2938295305 0.6356437802 0.7138775587
-0.15987594 -0.28869686 1.312 -0.2945480943 0.5778424144 0.7611435652
-0.10503548 -0.025870524 1.0837407 -0.2113089561 0.7600812316 0.6145120859
-0.12624086 0.028691111 1.0070001 -0.2308445871 0.7819165587 0.5790658593
-0.34504515 -0.1333462 1.104857 -0.09829504788 0.6677269936 0.7378880382
0.095218584 -0.29488307 1.2167274 0.6307216287 -0.04699531198 0.7745848298
0.27129871 -0.3284542 0.99380004 0.8193385005 0.2958893478 0.4910538495
0.052081011 -0.28145909 1.2640001 0.6475207806 -0.1460996717 0.7479115725
0.21193574 -0.4040795 1.102842 0.7221253514 -0.05616664141 0.6894782782
-0.20791027 -0.49520445 2.1560001 -0.225458011 0.7493786216 0.6225756407
-0.30670446 -0.27464476 1.2190001 -0.08826477826 0.1325971186 0.9872321486
-0.14375748 0.051170316 0.97136378 -0.2440688312 0.6819066405 0.6895170212
0.057562172 -0.41584006 1.2262729 0.5791049004 -0.1589034945 0.7996169329
0.016989799 -0.29788783 1.2920001 0.6582605243 -0.2004085183 0.725623548
0.24595638 -0.29500693 1.0246999 0.8687176108 0.2438871861 0.4311017394
0.23418601 -0.22548495 1.0137002 0.8514759541 0.1458661556 0.5036981106
-0.034370672 0.036832038 0.99609083 -0.258325547 0.5774115324 0.7745087743
-0.18541029 0.017928818 0.99762505 -0.1427752823 0.7647147179 0.6283522844
0.2140822 -0.18497273 1.0332144 0.8190582395 0.1676818579 0.5486587286
-0.28319874 0.0030786339 1.00375 0.03341702744 0.6235661507 0.7810560465
0.097111873 -0.25505975 1.2173333 0.6792721748 -0.09824807197 0.7272803187
0.00339796 -0.32507148 1.2919999 0.5621311665 -0.3237504065 0.7610481381
0.086153843 -0.40590528 1.2042608 0.491707176 -0.2851246297 0.82275635
0.24190839 -0.41513187 1.0700001 0.7263585925 0.09402319789 0.6808544397
0.092560805 0.024660049 1.0960001 -0.5160517693 0.4074137509 0.7534617186
0.064721085 -0.44466376 1.214143 0.594003737 -0.1562116444 0.7891498804
-0.084627964 0.043862414 1.0033478 -0.02246900462 0.8610816598 0.5079699755
0.048002761 0.30770999 1.404 -0.6100571752 0.6294659972 -0.4812512696
-0.085555069 -0.27825019 1.3430001 -0.1783895046 0.5803969502 0.7945542932
0.028997503 0.019643471 1.067 -0.2349104583 0.7102912664 0.6635535955
-0.17426749 -0.018749563 1.0517778 -0.2369880378 0.7536005378 0.6131255031
-0.20517558 0.0026606312 1.0131766 -0.240599528 0.7620927691 0.6011043787
0.056160193 -0.37482166 1.2332634 0.6215157509 -0.1659219861 0.7656291723
-0.24537583 -0.1424308 1.149 -0.3423790932 0.6595344543 0.6691717505
-0.15533741 -0.044589501 1.0859582 -0.2093632221 0.6910902858 0.6917812228
-0.19786717 -0.26122913 1.268 -0.3015860617 0.6659152508 0.6823508739
0.21502283 -0.2448525 1.0632 0.8679555655 0.226142168 0.4421683252
0.18903124 -0.18368562 1.0763334 0.8605612516 0.2181776017 0.4602530599
-0.26525277 -0.1659317 1.1645296 -0.2974382341 0.6018772125 0.7411304116
-0.25487259 -0.24513879 1.2340002 -0.350319922 0.6352896094 0.6882463694
0.17696199 -0.13429683 1.072842 0.8634637594 0.1807426512 0.4709165692
-0.21507898 0.043725729 0.96210527 -0.03562763333 0.6390424967 0.7683458328
-0.0046918741 -0.36442816 1.2861581 0.499527812 -0.1651276946 0.8504145145
0.12696676 -0.45514297 1.168 0.5941668749 -0.2499402016 0.7645230889
-0.22049569 0.23506589 1.108 0.6979094148 -0.2053927779 0.6861022115
-0.054817013 -0.065464318 1.1441307 -0.2056552023 0.7144581079 0.6687716842
0.14905612 -0.12437795 1.126 0.8875317574 0.1945756972 0.4176454246
-0.088280328 -0.26252046 1.325 -0.325926125 0.7352705598 0.5942637324
0.25631273 -0.36496666 1.0351365 0.8257510662 0.1717249304 0.5372575521
-0.27454787 -0.12680185 1.1245 -0.2862828672 0.7094858885 0.6439502239
0.025509121 -0.0081353411 1.101 -0.1735811681 0.7440843582 0.64514184
-0.11489884 -0.093869753 1.1551539 -0.3058007956 0.6806665659 0.6657168269
-0.41139424 -0.18901898 1.153 0.1899901032 0.5664985776 0.8018622994
-0.33583373 -0.23332122 1.1950001 -0.2095315903 0.604650557 0.7684361935
0.12352238 -0.41448918 1.1828823 0.5890455842 -0.1788871139 0.788051188
-0.19532441 -0.16286054 1.1946667 -0.2912437022 0.6392756701 0.7116907239
-0.36460629 -0.17865726 1.1421429 -0.06601252407 0.6650682092 0.7438592911
0.054821782 0.0044500367 1.0920869 -0.2617564201 0.5706167817 0.778382957
-0.16529277 -0.21545576 1.2438235 -0.326054275 0.5666756034 0.7566818595
-0.065609559 -0.044656698 1.117 -0.1793384403 0.7305903435 0.6588440537
-0.09518709 -0.12553778 1.1956669 -0.1922923476 0.709425211 0.6780409217
-0.11339603 0.042396989 0.99374992 -0.2491551489 0.7646276951 0.5943620205
-0.29430363 -0.20647725 1.1824547 -0.2370771766 0.5921373963 0.7701738477
-0.2164862 -0.030814204 1.0470001 -0.3722726405 0.6661602855 0.6462534666
0.046499863 -0.25630721 1.2729999 0.6727774143 -0.2328615189 0.7022436261
-0.29452747 -0.15696761 1.1422499 -0.2775624096 0.6175143719 0.7359586358
-0.3452104 -0.16308652 1.1363531 -0.181251511 0.6124936938 0.7694149017
0.12820056 -0.19334619 1.187 0.8270402551 0.1163663492 0.5499666333
