# .PCD v0.7 - Point Cloud Data file format
VERSION 0.7
FIELDS x y z normal_x normal_y normal_z
SIZE 4 4 4 4 4 4
TYPE F F F F F F
COUNT 1 1 1 1 1 1
WIDTH 512
HEIGHT 1
VIEWPOINT 0 0 0 1 0 0 0
POINTS 512
DATA ascii
0.036166444 -0.28935301 1.4735 0.2017671764 -0.4241487384 0.8828294873
-0.4947004 -0.49261305 2.3810003 0.2931660116 0.912648499 0.2848270237
0.40661189 -0.42620769 2.3010004 0.2609249949 0.9569872618 0.1268601567
0.26339459 0.42378566 1.3438574 0.2709677517 -0.4540302753 0.8487832546
-0.26508823 -0.086111456 1.9260001 0.8676927686 0.3774931133 0.3234318793
0.45145002 -0.46307987 1.2060001 0.4473884702 -0.2346621603 0.8630047441
-0.19049002 0.18796697 1.439 0.03694548085 -0.5426144004 0.8391690254
0.32446191 -0.0052917204 1.1439093 0.1144398749 0.6399953365 0.7598088384
0.38673624 0.13623664 1.6710001 0.7340002656 -0.6699544787 0.1113760844
-0.027409129 -0.043073993 1.2181667 -0.1498131007 0.7485457063 0.645937562
0.064954162 -0.36592191 2.3010001 0.1805138439 0.9684835076 0.1716229469
-0.20223999 -0.29674464 2.1560001 0.2855465114 0.9131145477 0.2910068333
0.32526314 -0.25492683 1.3834002 0.714774847 -0.1968356818 0.6710831523
0.18574668 -0.4960779 1.3649999 0.2923792899 -0.3938575089 0.8714302182
0.27649137 0.21444735 1.2259334 0.4235214293 -0.4087353647 0.8084336519
0.17301629 -0.1019765 1.307 0.005190535914 0.7803229094 0.6253553033
0.41796485 0.090750776 1.4580001 -0.3349719346 -0.7404284477 0.5827173591
-0.21908338 0.15814628 1.6550001 0.9871832132 -0.07669138163 0.1399560422
0.12536556 0.065018408 1.1143702 0.203366816 0.465023756 0.8616233468
-0.10136503 -0.19330193 1.3445001 -0.5553319454 0.2667492926 0.7876873016
-0.16403539 0.0071335463 1.3558751 0.09808385372 -0.5050902963 0.8574749827
0.38257268 -0.10320733 1.2936667 -0.1453544497 0.7677951455 0.6239893436
0.25908655 -0.32633039 2.256 0.0720872879 0.9704535604 0.2302678078
0.45173815 -0.29290953 1.2640001 0.469671607 -0.3152401447 0.8246406317
0.33396599 -0.41513938 1.3227503 0.6555107236 -0.2061281949 0.7265100479
0.032389324 -0.45469633 1.4210001 0.5574172139 -0.1610139012 0.8144695163
0.18470831 -0.33447167 1.4236251 0.3195992112 -0.4049151242 0.856679678
0.095271751 -0.46789014 2.4150002 0.1805138439 0.9684835076 0.1716229469
0.045839146 -0.16164333 1.3760002 -0.09946389496 0.7099028826 0.6972408891
0.1956457 -0.19193521 1.4125001 0.154287383 0.7034068108 0.6938402057
-0.23812634 0.0047944901 1.8230001 0.9895193577 0.01105577406 0.1439762264
0.1938906 -0.017913807 1.202 0.05460355058 0.8251165748 0.5623176098
-0.14161675 -0.083936743 1.2653333 0.286037147 0.8223438263 0.491867274
-0.18488312 0.29441738 1.5039232 0.1499822736 -0.5492473841 0.8220903873
0.2465362 0.075489767 1.09 0.08339765668 0.5668211579 0.8196088076
0.43406045 0.16243143 1.557 0.1138450429 -0.7984046936 0.5912606716
0.25792938 0.31599978 1.2880001 0.3015281558 -0.4729315937 0.82789886
0.28501222 -0.14073217 1.3490001 0.09681645036 0.7605346441 0.6420386434
-0.24775301 -0.22224903 2.0780001 0.4350499213 0.8654891849 0.2483144701
0.088851921 -0.050927319 1.2360001 0.003689684439 0.8360171318 0.5486909747
0.016313501 0.042647202 1.1552222 0.3121168911 0.2784770131 0.908313632
0.29483265 -0.056573052 1.2410001 0.1104095057 0.8205548525 0.5608025193
0.41424891 -0.20509584 1.3230004 0.4149723053 -0.2590575516 0.8721737862
-0.034875419 -0.11570341 1.3027693 -0.09928084165 0.7752940655 0.6237487197
0.30282697 0.12328168 1.1669999 0.5368157625 -0.3326319754 0.7753610611
-0.0324222 -0.21698946 1.4225 -0.1754071712 0.7374128103 0.6522688866
0.1297905 -0.4215101 1.4100001 0.01384681743 -0.3332377076 0.9427411556
0.24575527 -0.40601915 1.3756666 0.3201797903 -0.2889538407 0.9022142887
0.37387121 -0.49511352 1.2657777 0.5986456275 -0.2262051553 0.7684104443
-0.15475014 0.097460151 1.4040002 0.1338705122 -0.4452537894 0.8853404522
0.40751755 -0.38562438 1.2556111 0.6836535335 -0.2057168335 0.7002131343
0.27731562 -0.49758482 1.3280001 0.4007045627 -0.4523579776 0.7967484593
-0.11986663 -0.0053038332 1.21 0.209945783 0.3821281195 0.8999449015
0.36599869 -0.31519759 1.317 0.7044624686 -0.2623057961 0.659490943
0.10607438 -0.2144095 1.4336002 -0.05462479964 0.7162672281 0.6956848502
0.055184763 -0.10235679 1.306 -0.0936139673 0.8032479882 0.5882424116
0.24769866 -0.26896572 1.427 0.3040882647 -0.3700268567 0.8778442144
0.014059979 -0.37450674 1.4580001 0.5629800558 -0.1648940593 0.8098539114
0.094942287 -0.49520358 1.374091 0.2484485507 -0.290450573 0.9240734577
0.095888585 -0.34453642 1.4354001 0.153624624 -0.4955343306 0.8548948765
0.37427005 -0.057444464 1.2060002 0.3520718813 0.8600851893 0.3691868186
0.13451573 -0.1477271 1.3700001 -0.1042218357 0.7464020848 0.6572836041
0.29689091 -0.33785534 1.3742858 0.598664403 -0.2711578012 0.7537070513
0.094982453 0.0040800059 1.1650002 -0.08943709731 0.7359234691 0.6711316109
0.2452963 0.015818361 1.1451907 0.08585496247 0.8129884005 0.575915575
0.25469622 -0.092099972 1.2970001 0.01024472434 0.7670836449 0.6414653063
-0.053709816 0.015912011 1.177 0.1982882023 0.3578127623 0.9124975801
-0.03510173 -0.16792989 1.3649999 -0.04372054338 0.7474147081 0.662917614
0.20563391 -0.14225197 1.3590001 0.1027582735 0.7656463385 0.635001123
-0.13364433 -0.14280418 1.30575 -0.006418567616 0.3212430477 0.9469750524
0.31286103 0.063291818 1.13025 0.3039094806 -0.2161066681 0.9278668761
0.034584701 -0.018140862 1.1954616 0.03038422763 0.7718621492 0.6350634694
0.17465055 0.022518499 1.1416667 0.0601943545 0.7860136032 0.6152716875
0.16483165 -0.05641111 1.2527274 -0.02908035181 0.8044906855 0.5932529569
0.034999747 -0.21609455 1.4345002 -0.0656837821 0.7819301486 0.6198958158
0.025145138 -0.064790405 1.2560836 -0.07138147205 0.7702051997 0.6337891221
-0.074644737 -0.082461573 1.2571818 -0.03475684673 0.7456248999 0.665458858
0.46272832 -0.39860892 1.2190001 0.3336690962 -0.2956335545 0.8951345086
0.3957642 -0.1440376 1.3447651 0.4485960901 0.4475216269 0.7736186981
0.45475855 0.18417013 1.6160001 -0.3945890367 -0.6881632209 0.6088767052
0.25919437 -0.02203677 1.197 0.1032991335 0.7940814495 0.5989691019
0.06450513 -0.39819515 1.4150001 0.1900679767 -0.2887396812 0.938351512
0.11427409 -0.084954254 1.2863334 -0.04416705295 0.772508502 0.6334665418
-0.18557246 0.23399141 1.4834615 0.4596249461 -0.3866783977 0.7995153069
0.44256589 0.11429629 1.516 -0.2650814056 -0.7322646379 0.6273120046
0.18628819 -0.39463675 1.3980001 0.2176072299 -0.1889900416 0.9575645328
0.26349971 -0.17525794 1.3980001 -0.03333121166 0.7464923263 0.6645587087
0.37473586 -0.25529075 1.3358124 0.7357729077 -0.297843039 0.6082168818
0.18544611 0.064375013 1.09604 0.1226817146 0.5532948375 0.8239017129
0.31464583 -0.10646322 1.3037857 0.08610599488 0.7702307701 0.6319258809
0.24288577 -0.33273706 1.4040002 0.3872386217 -0.4298477173 0.8156452775
0.37694967 -0.43474171 1.2759166 0.592977345 -0.2100955397 0.7773272991
0.22512245 -0.052195076 1.2432224 -0.02118485607 0.818937242 0.5734918714
0.27155539 0.3723861 1.307 0.4989301264 -0.3332421482 0.8000115156
0.23679067 -0.464378 1.3585455 0.4019579589 -0.1908996999 0.8955373168
0.13433659 -0.023293242 1.2043527 -0.04774394631 0.798605442 0.599958241
0.26552454 0.26497477 1.2552004 0.4160799086 -0.3331176341 0.8461147547
0.3326098 -0.47414589 1.302 0.5704876781 -0.2965984344 0.7658806443
0.41053861 -0.33180517 1.2830001 0.6322752833 -0.3047172725 0.7123028636
0.13789965 -0.30847093 1.452 0.04055739939 -0.2622196376 0.9641555548
0.44280857 -0.23603143 1.283625 0.6781865954 -0.1812951118 0.7121762633
0.36877885 -0.37598014 1.2970001 0.5032653213 -0.2670009136 0.8218482137
0.44967741 -0.34565565 1.2360001 0.4093781412 -0.2725156546 0.8707150817
-0.0012887 -0.2422756 1.47 0.07285387814 0.8191704154 0.5689043403
0.1028365 -0.11802826 1.3330001 0.0046466114 0.8137258887 0.5812302828
0.01524874 -0.13278134 1.3380002 -0.0786735639 0.741863966 0.6659191251
0.28447405 -0.43573701 1.3470004 0.5058098435 -0.2851162553 0.8141652942
0.27865201 0.15832776 1.204 0.6380274892 -0.2850207388 0.7153209448
0.40641826 -0.27685383 1.2946923 0.6542375088 -0.3474771082 0.6717387438
0.074474663 0.044682708 1.1327201 0.1511767358 0.4705689549 0.8693161011
0.32635406 -0.030431731 1.197 0.4053480029 0.8386984468 0.3637002409
0.34547728 -0.074406117 1.2548424 0.09628539532 0.7882816792 0.6077344418
-0.075427696 -0.14593765 1.3360002 -0.1191302463 0.7889466286 0.6028028131
0.1403368 -0.47226384 1.3920001 0.09546400607 -0.3276853561 0.939951539
0.33201647 -0.36380529 1.3430001 0.5947751999 -0.1780783385 0.7839199901
0.41411757 -0.43537566 1.2328335 0.6248307824 -0.2218965292 0.7485642433
0.19805916 -0.28384274 1.439 0.3017146289 -0.3795627654 0.8745858073
0.095286213 -0.17469645 1.3935002 0.02446872741 0.7254071832 0.6878849268
0.42122078 -0.49790457 1.2320001 0.6303632855 -0.04856099188 0.7747799158
0.29458106 -0.29458103 1.4040002 0.5612998605 -0.3752311468 0.7376611829
-0.064569421 -0.21751826 1.381 -0.8084806204 0.308380723 0.5012588501
-0.084283605 -0.043105349 1.2169999 0.07790385932 0.6483727098 0.7573267221
0.037829921 -0.49789056 1.3920001 0.4602965415 -0.250045687 0.8518241048
0.18498981 -0.44516459 1.3845298 0.2861935496 -0.2842534781 0.9150372744
0.085790604 -0.44611111 1.3980001 0.07560518384 -0.2853245139 0.9554442763
-0.16682646 0.1449205 1.4236668 0.5456495881 -0.3234781325 0.7730643153
0.0048136013 -0.18572813 1.3956001 -0.1038531214 0.7441933751 0.6598414779
0.33954614 -0.29784751 1.3590001 0.7169132829 -0.2488944232 0.6512195468
-0.14891323 0.052059095 1.381 0.2215359807 -0.5136525035 0.8289046884
0.14518234 -0.18619572 1.4127778 -0.01985654607 0.7139186263 0.6999470592
0.14487021 -0.36592212 1.4245999 -0.01795261912 -0.3414367735 0.9397332668
-0.14467761 -0.051094323 1.2270001 0.07198957354 0.5948957205 0.8005726337
0.045064066 -0.33455601 1.4531249 0.4743489623 -0.4810958803 0.7372515202
-0.098540843 -0.10986737 1.2920001 -0.01579159684 0.7564194202 0.6538962126
-0.025104009 -0.08364211 1.2657499 -0.1685176343 0.7533127666 0.6357056499
0.29198259 -0.38532132 1.3649999 0.4744186699 -0.2423694283 0.8462765217
0.35217455 -0.13213821 1.3280001 -0.03811908513 0.8504913449 0.5246059895
-0.0058669453 0.0013804577 1.1810001 0.05055119842 0.5966922045 0.800876379
0.2247716 -0.11539834 1.3247273 0.1181269586 0.7745859027 0.6213394403
0.27457637 0.043465219 1.1142001 -0.2152743787 0.7060205936 0.6746791005
0.2042249 -0.07857275 1.2830001 0.002474525245 0.7916279435 0.6109984517
0.21581779 0.038258608 1.1190001 0.0483830981 0.7470523715 0.6630021334
0.16492358 -0.1272269 1.3437501 0.01482833736 0.7707515955 0.6369631886
0.17477195 -0.16474828 1.3838001 0.01571678743 0.7298893929 0.6833845973
0.28528544 -0.0028978221 1.1650001 0.1005248204 0.8149003386 0.5708171129
0.0049159569 -0.097200125 1.2942222 -0.1726907194 0.7586802244 0.6281577945
0.064643048 -0.13432227 1.3458424 -0.09348651022 0.7308667302 0.6760873795
0.085232161 -0.022969546 1.197 -0.03161344677 0.7951318622 0.6056120396
0.14447975 0.0057258601 1.1672002 0.0006434264942 0.8027041554 0.5963770151
-0.15600458 -0.02444848 1.3280001 0.08283165842 -0.5224516392 0.8486360908
0.28658253 0.085079752 1.1563843 0.5300566554 -0.370206356 0.7628808618
0.01185867 -0.27011415 1.503 0.5097164512 0.12150345 0.8517194986
0.045400914 0.012339668 1.1623335 0.08601114899 0.6423956752 0.7615312934
0.056242548 -0.18850526 1.4100001 -0.149053216 0.7395821214 0.6563546658
0.025663663 -0.41456684 1.4330003 0.5730271935 -0.249801904 0.7805375457
0.22228971 -0.37368304 1.4040002 0.3981239796 -0.3016042709 0.8663325906
0.20472631 0.0051917778 1.1650001 -0.01099332795 0.8410937786 0.5407776237
0.064473577 -0.072254866 1.268 -0.007766666822 0.8002887368 0.5995644927
0.24770655 -0.14958125 1.365 -0.002989543602 0.7246040702 0.6891588569
0.045823537 -0.042381398 1.2270001 0.01733359881 0.824935317 0.5649612546
0.35393184 -0.02552682 1.1646523 0.1215872094 0.7608451247 0.6374411583
0.10837967 -0.38493466 1.4210001 0.08821690083 -0.2142164856 0.9727944732
0.28437576 -0.077871986 1.273909 0.1048693657 0.7943190932 0.5983807445
-0.025757343 -0.14283837 1.3355001 -0.1466870159 0.7502781153 0.6446438432
-0.1540917 -0.092455022 1.302 0.444077462 0.4241039455 0.7892597914
0.2542206 -0.36554646 1.382059 0.3087899089 -0.2224446833 0.9247524738
-0.053517871 -0.022876266 1.197 0.05375309661 0.6348177195 0.7707898617
0.11463203 0.034885094 1.1370403 0.07746683806 0.6458135843 0.7595549822
0.0047866004 -0.15915444 1.365 -0.1980416179 0.6951340437 0.6910631061
0.39482358 -0.46499598 1.2521157 0.7098282576 -0.1952690035 0.6767671704
0.4031775 -0.24255094 1.3125002 0.5787817836 -0.3033947349 0.7569434047
-0.074431635 -0.1715996 1.365 -0.5259833336 0.4013880789 0.7498193979
0.13511898 -0.10533525 1.3141429 -0.06313527375 0.8036866784 0.5916938782
0.1242675 -0.057640832 1.25 -0.04938058928 0.8151721358 0.5771099925
0.22236095 -0.43624714 1.381 0.3716937602 -0.2522177696 0.8934371471
0.24891108 0.38914269 1.3330001 0.3070588112 -0.4176337719 0.8551589847
0.22575891 -0.17185237 1.3870001 0.08466316015 0.6973131299 0.7117489576
0.09556105 -0.14582035 1.3649999 0.02194262855 0.7356038094 0.677056551
-0.086009711 0.004255983 1.1935333 0.2347331345 0.4058873653 0.8832643032
0.29873714 -0.46545249 1.3280001 0.6204555631 -0.2385910153 0.7470670938
-0.10588229 -0.066859931 1.2428182 0.01872199588 0.6968043447 0.7170168757
-0.023409629 0.03155211 1.161 0.2131001055 0.4043850005 0.8894161582
0.42291686 -0.1710403 1.3363334 0.622682929 -0.2349042296 0.7463818789
0.28728148 -0.25880295 1.4125001 0.4105139375 -0.1018701717 0.9061461091
0.3345333 -0.051171154 1.2270001 0.1706003845 0.829654336 0.5315723419
0.19116944 -0.039961971 1.2320001 0.06633095443 0.7872184515 0.6130964756
0.045108531 -0.37526432 1.4374001 0.3326096237 -0.3531108201 0.8744618893
0.15521735 -0.079858199 1.2830001 -0.03061612323 0.7859649658 0.6175125837
0.23993929 -0.068075798 1.273 0.009296402335 0.799041152 0.6012044549
0.22482425 -0.30475894 1.4247501 0.3981473148 -0.3952003419 0.8278257251
0.30480984 0.024902944 1.1362669 -0.0593845807 0.2974140942 0.9528999329
0.29736826 0.18917005 1.21 0.4872244298 -0.3927732408 0.7799625397
0.28457302 0.30124721 1.268 0.3252982497 -0.4724723399 0.8191159368
0.34543779 -0.096767791 1.2835 0.1482986361 0.7740420103 0.6155213118
0.42620906 0.18725248 1.594 -0.3945890367 -0.6881632209 0.6088767052
0.31552109 -0.12971424 1.3330001 0.1537888795 0.7626732588 0.628234446
-0.034078788 -0.19311263 1.3954287 -0.0452417396 0.7572393417 0.6515687108
-0.11103977 -0.16520841 1.324 -0.66207093 0.34719491 0.6641669869
0.27484643 -0.11653177 1.3242501 0.1732051671 0.7555634379 0.6317625046
0.34793323 -0.4377591 1.2970001 0.69783777 -0.168449685 0.6961660385
0.35420841 -0.24411662 1.3649999 0.5965874195 -0.3618210554 0.7163581252
0.29411227 -0.037717227 1.2103636 0.1447352469 0.8230922818 0.5491546392
0.25909182 -0.29724786 1.404 0.06661375612 -0.4053367078 0.9117372036
0.15618256 0.04761697 1.1176667 0.1493884772 0.6315880418 0.7607756853
0.42281985 0.13600256 1.5360001 0.003715270432 -0.7674925923 0.6410470605
0.0075051431 -0.039670043 1.223 -0.03897488117 0.7831954956 0.6205528378
-0.18529883 0.11620436 1.4330001 0.601703763 -0.2974236906 0.7412770987
0.065022208 -0.47551784 1.3947275 0.4281089008 -0.1911209673 0.8832867742
0.38327155 -0.3443014 1.3026249 0.5994518399 -0.1160571799 0.7919521928
0.23644781 -0.49715954 1.3463334 0.3060491681 -0.3626776338 0.8802265525
-0.056162771 -0.062353548 1.2354287 -0.08404006064 0.7364012599 0.6713050008
0.033309825 -0.25487295 1.4728 0.3929397762 0.4486840069 0.8026711941
0.22571421 -0.027949303 1.2106668 0.03508966789 0.7959419489 0.6043551564
0.33117485 -0.33117485 1.3540001 0.6231975555 -0.3665362 0.6908516288
0.43492433 -0.38515618 1.2341176 0.5304067135 -0.3044799268 0.791176796
-0.17583127 0.20620601 1.4640001 0.05067394674 -0.6684568524 0.7420226336
0.088557363 -0.32727718 1.4640001 0.2091145068 -0.7269920111 0.6540288925
-0.065377504 -0.10433346 1.285778 -0.1146831214 0.7715700865 0.6257215142
0.19309022 -0.36749429 1.4210001 0.2382216454 -0.3617379367 0.901330173
0.38593599 -0.117692 1.3254286 -0.07591257989 0.8299095035 0.5527092218
0.09479937 -0.4156149 1.41 0.141207993 -0.3258554041 0.9348146915
0.06812226 -0.22076659 1.439 -0.005852622911 0.7763826251 0.6302346587
0.4233745 0.10470424 1.4882501 -0.3349719346 -0.7404284477 0.5827173591
0.15380219 -0.33600318 1.4371539 0.1812518239 -0.4582925737 0.8701239228
0.35964194 -0.46719846 1.2780001 0.6113519669 -0.2157017887 0.7613944411
0.29156882 0.24913903 1.2410001 0.5174593329 -0.3806957006 0.7663593292
-0.17318413 0.074519552 1.3870001 0.1846102774 -0.4414790273 0.8780747652
-0.0076401499 -0.060029749 1.245 -0.1462763101 0.7383634448 0.6583484411
0.23566209 -0.0024586453 1.1754616 0.08849842101 0.823153317 0.5608802438
-0.17676054 0.2644763 1.516 0.1499822736 -0.5492473841 0.8220903873
0.285638 -0.16174254 1.3748 0.04250911623 0.778588891 0.6260928512
0.42461085 -0.35556278 1.2554078 0.5556175709 -0.3085333109 0.7720727324
0.153855 -0.39756131 1.404 0.1625155061 -0.4780910015 0.8631440997
0.14472714 -0.038881917 1.2320002 -0.09399364889 0.8005360365 0.5918675661
0.25504094 -0.03878909 1.2252222 0.0650267154 0.8317539692 0.5513228178
0.38274434 -0.2842333 1.322 0.5551288724 -0.3883296847 0.7355487347
0.0049829734 -0.2067934 1.4210002 -0.09133833647 0.7854624391 0.6121323705
0.25376606 -0.43485737 1.3589998 0.1743946522 -0.2004982829 0.9640471935
0.35440794 -0.34559992 1.3220003 0.7392947674 -0.2361010164 0.6306342483
0.21429029 0.080954902 1.0863999 0.09105075896 0.5347530246 0.8400886655
0.077469565 -0.3714352 1.4330001 0.2417689264 -0.3355165422 0.9104814529
0.17409022 -0.30781171 1.439 0.2524003983 -0.4623456299 0.8500179648
0.39029288 -0.3959167 1.2830001 0.6886537075 -0.1639650315 0.7063084245
0.25617009 0.34394285 1.3045001 0.4332698882 -0.4797737598 0.762951076
0.034948029 -0.086812213 1.2860001 -0.08452241868 0.7910638452 0.605866313
0.43588728 -0.32530084 1.2578573 0.5793086886 -0.1818019301 0.7945750356
0.35816655 -0.40705913 1.2970001 0.627585113 -0.2547384202 0.7356937528
0.4451178 -0.4255313 1.2156668 0.4721614718 -0.1630222499 0.8663066626
0.16205797 -0.20477092 1.4330001 -0.01821463555 0.7365052104 0.6761865616
0.37302569 -0.084641419 1.268 0.01801228523 0.7783935666 0.627518177
0.044012174 0.05101411 1.141 0.2971415222 0.3321960866 0.8951830268
0.17438039 -0.0010318366 1.177 0.02844903991 0.8045853972 0.593155086
-0.10330791 -0.13533908 1.3133638 -0.4846051037 0.3821736574 0.7868298292
0.31200129 -0.40383562 1.3430001 0.6192681789 -0.2290620506 0.7510243058
0.1547417 -0.49518797 1.3750525 0.1401035339 -0.4041087329 0.9039176702
0.27617365 -0.32696334 1.396 0.3915379345 -0.548116982 0.7390979528
0.025364924 -0.11298841 1.3151251 -0.1003844962 0.7700935602 0.6299831867
0.095962033 -0.069367476 1.2640001 -0.04360300675 0.8042274714 0.5927199125
0.31333557 -0.15130652 1.3590001 0.1507157981 0.7463164926 0.6483027339
-0.063986398 -0.12682386 1.3134286 -0.06916487962 0.7607024312 0.6454053521
0.32103008 -0.44387913 1.322 0.5975221992 -0.2492108792 0.7621424794
0.095101677 -0.1019765 1.307 0.02371518873 0.7981444597 0.6019991636
0.21392027 -0.34400353 1.4104999 0.3471247554 -0.3759189248 0.8591794968
0.31493789 -0.084648736 1.27675 0.1289329231 0.7858418226 0.604837954
0.094064042 0.062383424 1.1154001 0.1083866954 0.5015577078 0.8583077788
-0.11472148 -0.039133962 1.223 0.07721427083 0.5647260547 0.8216583133
0.15518743 -0.44402784 1.3938751 0.05461319163 -0.4354907572 0.8985350132
0.31215411 -0.49450719 1.3139231 0.5979472995 -0.2456761301 0.7629562616
0.42169422 -0.46442384 1.2246001 0.5914181471 -0.1697546244 0.7882943153
0.11472146 -0.038597882 1.2229999 -0.1005354375 0.7940023541 0.5995438695
0.056864806 -0.43645588 1.404 0.4194558561 -0.2978825271 0.857509613
0.11578858 -0.0075948336 1.1850002 -0.1174017042 0.8001586199 0.5881862044
0.26519167 -0.058079164 1.25 0.1459590346 0.7938893437 0.5902843475
0.19522621 -0.12323372 1.3369286 0.0104624629 0.7704444528 0.6374213099
0.20392638 -0.4653196 1.370706 0.2324019223 -0.3896283507 0.8911672831
0.34305021 -0.38361356 1.322 0.7189383507 -0.1898783594 0.6686358452
-0.016674118 -0.023536349 1.1955456 -0.05294909701 0.7378982902 0.6728317142
0.12537824 -0.16811748 1.3930001 -0.10839203 0.7306929827 0.6740466952
0.13421941 -0.12715524 1.3430002 -0.03524848819 0.768666625 0.6386776567
0.39665934 -0.30590844 1.2956845 0.6739622355 -0.198085025 0.7117142677
0.27491662 0.01826798 1.1366668 0.02936985344 0.7772371769 0.6285219193
0.31252751 -0.30387983 1.3809999 0.5935230851 -0.3272203803 0.7352939248
0.16469178 -0.027096303 1.212 -0.006399900187 0.8149667978 0.5794723034
0.19630508 -0.061335478 1.2589999 0.02898351476 0.8080493212 0.5884014964
0.21680753 -0.4050726 1.3855001 0.404494524 -0.3202893138 0.8566206694
0.10786025 -0.31664234 1.439 0.1784097105 -0.4967668056 0.8493484259
0.11471008 -0.45395902 1.3920001 0.04057757184 -0.2968613505 0.9540580511
-0.13075921 -0.11142959 1.2970001 0.1393086612 0.472456634 0.8702745438
0.34527785 -0.49490166 1.2837145 0.598225832 -0.288249433 0.7476884723
0.43431932 -0.27363881 1.2830001 0.5162057281 -0.3794745505 0.7678090334
-0.073584527 -0.20303649 1.3558183 -0.6784135699 0.04026303068 0.7335761189
0.0042226105 -0.2259097 1.4450001 -0.1104875579 0.8535483479 0.5091637969
-0.10449166 -0.092263907 1.268 0.01673093624 0.7917374372 0.6106324196
0.27486718 -0.46507436 1.3466003 0.3997005522 -0.2707574964 0.8757452965
0.157527 0.075974561 1.097 0.2554626763 0.4816907942 0.8382796645
0.39800528 -0.36556512 1.2759999 0.7561157346 -0.1969477385 0.624099791
0.14415994 0.028931754 1.138 0.08147687465 0.7397007942 0.6679852009
0.064761996 -0.0064229313 1.1754616 0.05766515806 0.7407618165 0.6692881584
0.3152357 -0.013665188 1.1748669 0.4248486161 0.8167158365 0.3904854953
0.24633941 0.047487177 1.1055292 0.05789346248 0.713703692 0.698051095
0.35552689 -0.27560034 1.3473337 0.6508809328 -0.3081403077 0.6938325167
0.40361714 -0.41501081 1.253 0.7516287565 -0.1311390996 0.6464183927
0.28807968 0.049013555 1.141 -0.1793987006 -0.3499003351 0.9194486737
0.42262992 -0.30487072 1.2748421 0.6348871589 -0.1936266124 0.7479485869
0.27522948 -0.41404083 1.3649999 0.416539222 -0.3684937656 0.8310880661
0.12518625 -0.49470294 1.3730003 -0.1313725561 -0.452416271 0.8820775151
0.39450794 -0.49422613 1.2438891 0.6904159188 -0.150436148 0.707597971
0.085457996 -0.1975749 1.4210001 0.01879196055 0.6742332578 0.7382793427
0.17151253 -0.47176036 1.381 0.2223378122 -0.2905767262 0.9306616187
0.24573931 -0.13108051 1.3380002 -0.01837902516 0.7597277164 0.6499815583
0.071766563 0.02122673 1.153 0.1447975487 0.6560367942 0.7407087088
0.34614223 -0.052018773 1.1969999 0.4945342839 0.7637358904 0.4149015844
0.07479883 -0.11251814 1.3252308 -0.03362905607 0.8055053353 0.5916335583
-0.17008735 0.032569919 1.376 0.3312937021 -0.4597424269 0.8239426017
-0.18927671 0.2623767 1.4890001 0.1499822736 -0.5492473841 0.8220903873
0.22517592 -0.093935855 1.2961667 0.03329746425 0.72974962 0.6829032302
0.11412447 -0.19351541 1.4150001 -0.06005108356 0.7460253835 0.6632043123
0.20438987 0.021339236 1.1409999 0.01539881155 0.7991281748 0.6009634137
0.12510033 -0.33651993 1.427 -0.1198368296 -0.4582952857 0.8806841373
0.084866464 -0.084708914 1.2858573 -0.02356513776 0.798357904 0.601722002
-0.0046065911 -0.11631934 1.3136668 -0.2400542647 0.7688410878 0.5926696658
0.42475149 -0.22531515 1.3040454 0.6976451278 -0.3412269056 0.6299646497
0.30022764 0.16102175 1.1850001 0.6698323488 -0.3337708414 0.6632659435
-0.034367524 -0.0053568706 1.1819998 0.09102490544 0.5153130889 0.8521542549
0.015303617 0.015299973 1.1638801 0.1981730163 0.5382611156 0.819147408
0.28193074 -0.099303536 1.302 0.1655554175 0.7644556761 0.6230561137
0.0193305 -0.31186539 1.47 0.3572368026 -0.2670862079 0.8950121999
0.28208765 -0.36199233 1.381 0.4358322322 -0.3038939536 0.8471710086
0.35502645 -0.11441684 1.3030525 0.08798637986 0.8005173802 0.592815578
0.035657868 -0.145017 1.3558751 -0.1249794066 0.7679899931 0.628149271
0.0044639865 -0.079235762 1.273 -0.1470734328 0.785541296 0.6010775566
0.067117602 -0.16962449 1.3920001 -0.1087487936 0.7239922881 0.6811819673
0.28501478 0.13560806 1.1844 0.662274003 -0.3170936108 0.6788554788
0.1739929 -0.14431599 1.365 0.02177886479 0.7767617702 0.6294178963
0.31094182 0.092933238 1.146 0.4162558317 -0.4111305177 0.8109887838
0.18471514 0.044785786 1.1152592 0.09430561215 0.7209287882 0.6865625381
0.39891911 -0.18434653 1.3360001 0.5349969864 -0.3737792373 0.7576723099
0.1952512 -0.4210104 1.3920001 0.2992418408 -0.401317656 0.8656780124
0.065599211 -0.34565741 1.4389998 0.1673292667 -0.3622672856 0.9169314504
0.22461304 -0.27805954 1.4378 0.4206145406 -0.3360227048 0.8427171111
-0.054389708 -0.042660791 1.2164999 -0.0145000834 0.7062348127 0.7078291774
0.34837505 -0.31787759 1.3380001 0.6962237358 -0.3201329708 0.642485261
-0.18229012 0.16084422 1.439 0.2167962044 -0.4286975563 0.8770506382
0.31175712 -0.27485207 1.3955002 0.6707401872 -0.2811060548 0.6863577366
-0.14812949 0.03653596 1.3590001 0.3353303671 -0.4438628554 0.8309869766
0.034240846 -0.18466894 1.3950001 -0.106997408 0.7278948426 0.6772892475
0.33109158 0.028007746 1.141 -0.1580007821 0.1464296877 0.9765214324
-0.14222842 -0.027168557 1.2152501 0.1192893311 0.4159994721 0.9015067816
-0.13958462 -0.0058649001 1.3380001 0.069552131 -0.4942765832 0.8665178418
0.30697867 -0.35506034 1.3565 0.6783419847 -0.2661696374 0.6848400235
0.38796622 -0.43671587 2.3170002 0.05588155985 0.9856888056 0.1590434611
0.2725178 -0.28332475 1.4223335 0.2515128553 -0.3610063493 0.8980064988
0.03815604 -0.47387341 1.404 0.5682457685 -0.2688389719 0.7777032852
-0.0523482 -0.20486289 1.4105555 -0.4402290583 0.5978519917 0.6699039936
-0.18093348 0.098467201 1.404 0.3146238625 -0.5193862319 0.7945122719
0.3860783 -0.2285115 1.3265001 0.6602801681 -0.3156915009 0.6814461946
0.050054159 -0.30930904 1.4640001 0.4026359618 -0.318980515 0.8579835296
0.16888294 -0.37515759 1.4150001 0.3497553468 -0.3597854674 0.8650003672
0.026017781 -0.35538143 1.4449998 0.3782665133 -0.4683124125 0.7984973192
-0.20068303 0.27776659 1.516 0.3418406844 -0.495809257 0.7983220816
-0.054400671 -0.15374105 1.3490001 -0.009190291166 0.7691645026 0.6389847994
0.15583363 -0.0094127702 1.1930001 -0.009167385288 0.8208172917 0.5711172223
-0.14765872 0.075659841 1.3920001 0.06246322393 -0.53433007 0.842964828
-0.056236267 -0.18550469 1.3845001 -0.3443271518 0.5834264755 0.7355626225
0.31470546 -0.067050271 1.2537333 0.1034002751 0.8102942109 0.5768290162
0.41935614 0.12302877 1.5090001 -0.2953223288 -0.7353258729 0.6099840999
0.13510837 -0.20516457 1.427 -0.06257067621 0.7339850068 0.6762772799
0.054977521 -0.03066054 1.2060001 0.02764114179 0.8143699169 0.5796875358
0.064615808 -0.053984694 1.244 -0.005693597253 0.8239039183 0.5667009354
0.20460434 -0.15859865 1.381 0.1273275763 0.705029428 0.6976540685
-0.094909422 -0.022527767 1.2060002 0.2045477182 0.4945574701 0.8447325826
0.43457639 -0.48351365 1.2135 0.558404386 -0.06488505006 0.8270274997
0.21547608 -0.01249285 1.1874001 0.008743245155 0.8049160242 0.5933243036
0.12465052 0.015957298 1.1550951 0.0006975816214 0.7809855342 0.6245486736
0.21426205 -0.48514658 1.3589997 0.2125578821 -0.4257267118 0.8795316219
0.32931808 -0.27865377 1.376 0.6796147823 -0.2246166319 0.6983345151
0.41329572 -0.13737717 1.3280001 0.5375059843 0.3787393868 0.7534213662
0.28457433 0.10755254 1.174 0.492906481 -0.3997228742 0.7728291154
0.17425179 -0.18198848 1.4040002 0.03803262487 0.7051972151 0.7079904079
0.46237591 -0.3666369 1.2410001 0.3432153165 -0.3371651471 0.8766543865
0.14516199 -0.066929646 1.2640001 -0.05735854432 0.7964437604 0.6019861102
0.2123462 0.06080823 1.1010001 0.0679127723 0.640645206 0.7648278475
0.2966547 -0.022306433 1.189 0.1244631633 0.8047108054 0.580473423
0.25484222 0.032224312 1.1243848 0.07035459578 0.7517175078 0.655721724
-0.16929837 0.18542202 1.452 0.01682341471 -0.5467129946 0.8371510506
0.26681015 -0.38612354 1.3760003 0.3429150283 -0.2986348867 0.8906326294
0.23540536 -0.38593826 1.3870001 0.451359719 -0.3297106028 0.8291956186
-0.045083236 -0.074776396 1.2542502 -0.1196203381 0.7363426089 0.6659508348
0.28099778 0.32339457 1.2838334 0.3164266348 -0.4619084299 0.828561902
0.13080305 -0.39490062 1.4210001 0.03498523682 -0.3179629743 0.9474574327
0.044467494 -0.12580329 1.3348751 -0.1295534819 0.7508618832 0.6476282477
0.4000265 -0.43659401 1.2640001 0.6920713186 -0.1932685524 0.6954743266
0.35761774 -0.072960146 1.2150002 0.3970361352 0.888468802 0.2301858515
-0.15945689 0.12608221 1.4100001 0.4996712506 -0.2602154613 0.8262061477
-0.1346409 -0.066886686 1.2426001 0.06596191227 0.6892443299 0.7215201259
0.20550773 -0.10424017 1.3148574 0.06292422861 0.8006423116 0.5958292484
0.42397466 -0.25405642 1.2931112 0.562376976 -0.3157028854 0.7642406821
0.10290752 -0.47216392 1.381 0.1383484304 -0.5160511136 0.8453111649
-0.089981943 -0.1752895 1.3330001 -0.6600066423 0.2817846835 0.696411252
0.26480234 0.0068445741 1.1567498 0.1009670198 0.8152704835 0.570210278
0.27122837 0.39319989 1.325 0.3980685771 -0.5000552535 0.7690813541
0.065017983 -0.14878349 1.3649999 -0.0976132527 0.7679033279 0.6330845952
0.2455368 -0.10649061 1.3138185 -0.04887122661 0.7676565051 0.6389953494
-0.040563367 -0.12864383 1.322 -0.0746023953 0.7885459065 0.6104341149
-0.0049591279 -0.14243658 1.3472 -0.2141641825 0.7246282697 0.6550171971
-0.045089789 -0.092543371 1.2752222 -0.09034407884 0.7692689896 0.6325054169
0.11492383 -0.13736904 1.3540001 -0.03026920184 0.7540681958 0.6560983062
0.025603455 -0.0027766728 1.1754616 0.07878145576 0.6974880695 0.7122526765
0.43180531 -0.41452447 1.2320001 0.5634163618 -0.1927079111 0.8033838868
0.025502235 -0.19879994 1.4120001 -0.09228929877 0.7752214074 0.6249115467
0.15504454 -0.11167175 1.3253334 0.02307751961 0.7994195819 0.6003296971
-0.012106767 -0.17796947 1.381 -0.1636680663 0.7646375895 0.6233314276
0.39611879 -0.26500872 1.3146471 0.6705604196 -0.1727769375 0.72145468
0.34791392 -0.011060903 1.1470001 -0.1185665503 0.6234815717 0.7727953792
0.0052748453 -0.026381234 1.2035999 -0.03992068022 0.7985644937 0.6005839705
0.25476527 0.36547935 1.3220003 0.5717743039 -0.3469942212 0.7434172034
0.17297947 -0.068075798 1.273 -0.002564383671 0.787471056 0.6163462996
-0.032638296 -0.059836883 1.2410001 -0.1074515283 0.7557193041 0.6460205317
0.072907105 -0.039670043 1.223 0.01669024676 0.8384721875 0.5446887016
0.4614335 -0.44233966 1.21 0.4525848925 -0.2173184156 0.8648350239
0.35324055 -0.061762918 1.2360001 0.4555477798 0.8219553828 0.341856122
0.2695531 0.24204767 1.2550001 0.5051528811 -0.3301342428 0.7973906994
0.23531137 -0.35541815 1.3980001 0.4431350529 -0.2460674644 0.8620221019
0.25777858 -0.3380304 1.3870001 0.2532534897 -0.4150027335 0.8738623261
0.30571064 -0.43503085 1.3369581 0.5500959158 -0.2146152854 0.8070531487
-0.023968942 -0.23085876 1.439 -0.1981448084 0.8031303287 0.5618899465
0.20426843 -0.31130204 1.4330001 0.2732680142 -0.516902566 0.8112560511
0.36240953 -0.29495451 1.336889 0.8063725233 -0.2726400495 0.5248149633
0.09556406 0.023720168 1.1434445 -0.02824036032 0.6333533525 0.7733473182
0.33409399 -0.11638054 1.3123848 0.1389581263 0.7590847611 0.6359881759
0.18542275 -0.087695323 1.293923 -0.01437911019 0.7667465806 0.6417888403
0.2639854 0.060844172 1.0930002 0.04126043245 0.6565647721 0.7531402707
0.018054698 -0.29505828 1.4864286 0.2356944829 -0.4299661815 0.8715372682
0.036010616 0.028455939 1.149 0.2239295393 0.4594162703 0.8595302701
0.34496155 -0.26554748 1.3649999 0.6781490445 -0.1982479244 0.7076804638
-0.065862693 -0.0046405154 1.1873635 0.1847273856 0.438459307 0.8795619607
0.42402887 0.17403074 1.5755001 -0.2605516911 -0.7544617653 0.602412045
0.14559679 -0.16258572 1.3840001 -0.0245074518 0.7372740507 0.6751491427
0.22510862 0.013322298 1.1554614 0.05459812656 0.8475751877 0.527859211
0.30866468 -0.37646842 1.3490001 0.6315747499 -0.217321068 0.7442344427
-0.024841227 -0.10162318 1.2880001 -0.1581645459 0.7579461932 0.6328519583
0.16465345 -0.35425428 1.4228749 0.2687016428 -0.3464342654 0.8987673521
0.025230467 -0.38602611 1.4389998 0.5310127139 -0.1272348017 0.8377569914
0.28072181 0.35176161 1.307 0.5252853036 -0.4054088593 0.7481436729
0.22486991 -0.13336536 1.3462309 0.0944359675 0.7423164248 0.6633612514
0.26421419 -0.48458889 1.3430003 0.3176807463 -0.3745527267 0.8710850477
0.027347967 -0.33377311 1.467 0.3512772024 -0.4401966631 0.8263360262
0.29188251 0.23359823 1.2247143 0.3338543177 -0.4140250683 0.8468320966
0.29411748 0.0081527084 1.146778 0.2178436071 0.7605757713 0.6116114855
0.295102 -0.11412454 1.3149168 0.1314717382 0.7773945332 0.6151202321
0.3154912 -0.042627528 1.219 0.04909094423 0.8275211453 0.5592841506
0.1350774 0.044365473 1.1246798 0.1558095515 0.5965825319 0.7872818708
0.16422769 -0.42405066 1.3980001 0.2419877946 -0.2247618735 0.9438877106
0.19642705 -0.1750351 1.3979999 0.1596431732 0.66558671 0.7290462255
0.0216712 -0.050927319 1.2360001 -0.03550934792 0.8069971204 0.5894868374
0.33614084 -0.033812955 1.175182 0.4220443964 0.7951894403 0.4353759885
0.2236772 -0.18608063 1.4040002 0.05223985389 0.6677523851 0.7425481677
0.075455762 -0.49435079 1.3847899 0.4054154158 -0.2766168416 0.8712757826
0.37822643 -0.45548359 1.268 0.6238661408 -0.2274733335 0.7476943731
0.073547944 -0.42212814 1.4100001 0.2121908516 -0.3838326931 0.898692131
0.04487931 -0.4058094 1.4221251 0.493611753 -0.2244791538 0.8402122259
-0.1646082 -0.0066468865 1.3380002 0.08283165842 -0.5224516392 0.8486360908
0.43271452 -0.44534615 1.2234445 0.4816095233 -0.2405448109 0.8427279592
0.27475309 -0.047087517 1.2334547 0.1831792295 0.7986434102 0.5732486844
0.12504072 -0.36594254 1.4150001 -0.0905418247 -0.2775081992 0.9564472437
0.006200444 -0.25421822 1.4890002 0.3829868734 0.5826949477 0.716789782
0.10539988 -0.43508095 1.3980002 0.1287175417 -0.2647511363 0.9556875229
-0.08456029 -0.12305929 1.307 -0.04733989388 0.7764629126 0.6283823252
0.29464611 -0.40551895 1.3561052 0.5634039044 -0.2751238048 0.7790269256
0.11432735 -0.40506339 1.4109523 -0.1060371175 -0.3757296801 0.9206429124
0.13489065 -0.087283567 1.293 -0.0393541418 0.7799654603 0.6245839596
0.2836569 0.28144944 1.2590001 0.4287249148 -0.4292146266 0.7949652672
0.36305913 -0.044013832 1.185889 0.1731260568 0.7893282771 0.5890570879
0.094800912 -0.035159457 1.2150401 -0.07114321738 0.8117293119 0.5796845555
0.27289388 -0.0089102639 1.1818001 0.1322980076 0.815866828 0.5629019141
-0.12531389 -0.095382385 1.2739999 0.2183896899 0.817446053 0.5329989195
-0.014770079 -0.19816524 1.404 -0.1680649519 0.7518481612 0.6375567317
-0.086307399 -0.062500641 1.2345001 0.009376724251 0.7069103122 0.7072410583
0.29497895 -0.31589612 1.3853338 0.5685807467 -0.3778935075 0.7306931019
0.29390207 -0.12796134 1.3330001 0.1019574404 0.7742365599 0.6246298552
0.32746655 -0.49461088 1.2970001 0.6057895422 -0.2557842433 0.7533879876
0.024404239 -0.16489102 1.3760002 -0.1471065283 0.7123885155 0.6861940622
-0.084632523 -0.097436473 1.2748181 -0.01698698103 0.7691995502 0.6387827992
0.37340391 -0.23902887 1.3565001 0.7136574388 -0.3408018351 0.6120026112
0.18330048 -0.29277161 1.452 0.1888738871 -0.3780753613 0.9063032866
0.38204753 -0.068261065 1.223 0.347071141 0.8953840733 0.2789784968
-0.21187514 0.166915 1.6366668 0.9871832132 -0.07669138163 0.1399560422
0.45076886 -0.31652051 1.245 0.6255592704 -0.2496638149 0.7391505837
0.22497019 -0.14958125 1.365 0.08103253692 0.7379310727 0.669993639
0.44061702 -0.364461 1.2410001 0.4922574461 -0.2992166579 0.8174056411
0.08486747 -0.12729858 1.3445002 -0.03523553163 0.7518841624 0.6583529711
0.37584999 -0.41571304 1.2857274 0.5652688146 -0.2737843394 0.7781473398
0.088074319 -0.38827127 1.4150001 0.1631879658 -0.3774754405 0.911527276
0.26456395 -0.072254866 1.268 0.147364527 0.7978460789 0.5845727921
0.40405759 -0.16521081 1.3445793 0.5858507752 -0.07747898251 0.8067067862
0.065014794 -0.20322223 1.4237275 -0.06388951093 0.6574866772 0.7507525682
0.40796208 -0.34682333 1.268 0.6556203961 -0.3116591275 0.6877720952
0.24842367 0.40854508 1.3430001 0.1504347026 -0.4366922081 0.8869438171
0.16535124 -0.042692266 1.2360001 0.01725232787 0.7938624024 0.6078526378
0.36505097 -0.35539436 1.3031363 0.4939318597 -0.2124540061 0.8431456685
0.32491547 -0.38473743 1.3379998 0.5465598106 -0.264113456 0.7946801186
0.13391545 -0.44452819 1.3941431 0.06764127314 -0.3511521518 0.9338719249
0.095083654 -0.36495987 1.423 0.2052852511 -0.3255857825 0.9229581952
0.26493448 0.29309541 1.268 0.3030210435 -0.5016098022 0.8102875352
0.26522118 -0.13352028 1.3462003 0.06774269044 0.7457806468 0.6627383828
0.2763609 0.18600856 1.21 0.5535762906 -0.3245483935 0.7669560909
0.25343499 -0.16747694 1.381 -0.00902550295 0.7095122337 0.7046352625
0.0635904 -0.088832386 1.2919999 -0.01604940556 0.7942814827 0.6073379517
0.31950554 -0.31591558 1.365 0.6137600541 -0.3643538058 0.7003890872
0.22505049 0.025828183 1.1334001 0.05013828352 0.798001647 0.6005659699
-0.19171193 0.21396594 1.4756001 0.2968373895 -0.4839912057 0.8231889606
0.043989878 -0.057452973 1.25 -0.004096305463 0.8072595 0.5901824236
