# .PCD v0.7 - Point Cloud Data file format
VERSION 0.7
FIELDS x y z normal_x normal_y normal_z
SIZE 4 4 4 4 4 4
TYPE F F F F F F
COUNT 1 1 1 1 1 1
WIDTH 512
HEIGHT 1
VIEWPOINT 0 0 0 1 0 0 0
POINTS 512
DATA ascii
0.11601607 -0.18818225 1.2919999 -0.1116460711 0.6743356586 0.7299360037
-0.21137135 -0.47703993 2.2120001 0.119146876 0.8864256144 0.447273612
-0.35125843 -0.043346781 1.705 0.9603608251 0.1222273558 0.2505346537
0.066444114 0.43389142 1.2583846 0.3732793033 -0.4953312576 0.7844166756
0.47441342 -0.036967281 1.7570001 0.417937398 0.7840237617 0.4589499533
0.24368703 -0.32186231 2.0900002 -0.08747839183 0.7469843626 0.6590613723
0.42429775 -0.40414754 1.0448334 0.6230716109 -0.05689313635 0.780092895
0.078878954 0.090024896 0.97800004 0.0840394944 0.5883085728 0.8042576909
0.34054205 0.22659642 1.4770001 -0.627810955 0.6812352538 -0.3765260875
-0.25054169 -0.02886425 1.317 0.6744041443 -0.2710532546 0.6868108511
0.17693412 -0.49785021 1.2256669 0.4595881104 -0.3843567967 0.8006551266
0.30231848 0.0413699 1.21 -0.5283232331 0.7473089099 -0.4029937983
-0.37359151 -0.2507214 1.8940001 0.1125141233 0.8389677405 0.532422483
-0.32262737 0.16918264 1.4960001 0.7586386204 -0.2957201004 0.5805317163
-0.13556598 -0.27001157 1.2780001 -0.3940368295 0.4281382263 0.8132850528
-0.075378269 -0.06265258 1.1246365 -0.07960928977 0.7756414413 0.6261331439
0.33921653 -0.20496467 1.169 0.7447862029 -0.1263421476 0.6552336216
0.0399497 -0.41661829 2.1700001 -0.1264381856 0.9378798008 0.3231019378
0.11944233 0.25270444 1.126 0.6385204196 -0.3708486259 0.6743611097
0.017713049 -0.41448188 1.3470001 0.4948252738 -0.1984725893 0.8460239768
0.13426632 -0.04339391 1.1345 -0.03082526103 0.7786962986 0.6266433001
0.41145122 0.083998695 1.6240001 0.417937398 0.7840237617 0.4589499533
0.23505883 -0.32503247 1.2583046 0.5598444939 -0.2345852554 0.7946974039
-0.24569546 -0.11352395 1.1569998 0.03074412048 0.5343820453 0.8446837068
0.31231105 -0.43382189 1.1610001 0.6693344712 -0.171697095 0.7228495479
0.315157 0.1333832 1.3464288 -0.5707588196 0.720785141 -0.3933232129
0.27058843 0.14875279 1.6160001 0.06708952039 0.8696683049 0.4890562296
-0.024206739 -0.15856774 1.2410001 -0.2239803374 0.67209512 0.7057768703
-0.0054602311 -0.26660171 1.3540001 -0.2153113186 0.7697380185 0.6009529233
0.22837079 -0.11901013 1.223 0.00912422128 0.7230283618 0.6907581091
0.27450314 -0.033327237 1.0861428 0.245759964 0.8765966296 0.4137394726
0.22477873 -0.42543301 2.184 -0.2603339255 0.8227396011 0.50529778
-0.043968782 0.043059681 1.0367501 0.2908156812 0.3886581659 0.8742831945
-0.27420229 0.084409475 1.3954287 0.2739919424 -0.4446717799 0.8527575135
0.11802826 -0.32603848 1.3330001 0.2135730088 -0.518668294 0.8278706074
0.19236472 0.042607378 1.0185715 0.1749596149 0.5241574049 0.8334555626
-0.22902916 -0.44156823 2.0900002 0.119146876 0.8864256144 0.447273612
0.39580017 -0.2851766 1.087 0.6181564331 -0.1712258607 0.7671794295
-0.14510065 -0.16457641 1.2134501 -0.2273239195 0.7013505697 0.6755968928
0.15003537 0.14723969 1.0630001 0.5306053758 -0.4306936264 0.7300417423
0.081139006 0.33193231 1.202 0.5163547993 -0.3053689599 0.8000797033
-0.32725614 0.026917173 1.6160001 0.9569002986 0.1384258419 0.2553040087
0.33206162 -0.076870948 1.1930001 0.2297863662 0.2603913248 0.9377604127
0.06571243 0.010487438 1.0600001 -0.01245575026 0.7897059321 0.6133591533
0.07097055 -0.49453554 1.2850001 0.570649147 -0.1945715547 0.7978104353
0.31967211 -0.31967211 1.1650001 0.7513990998 -0.05662929639 0.6574134827
0.073684268 -0.1119775 1.2050002 -0.07905559987 0.7478280663 0.6591687202
-0.18148607 -0.037470195 1.115 0.2681080401 0.4469728768 0.8534244895
0.27569264 -0.22650003 1.2541876 0.7295784354 -0.04181642085 0.6826175451
0.16474797 -0.40617642 1.2769583 0.3714242578 -0.3485536277 0.8605546951
0.025030669 -0.055411924 1.1334288 -0.1436451524 0.7285380363 0.6697748899
0.34319615 0.1593425 1.5535001 -0.4076198339 0.7902098894 0.4576182067
0.24574715 -0.41530579 1.2241198 0.5470768809 -0.2453718781 0.8003121614
-0.12139554 -0.45667845 2.1980002 0.119146876 0.8864256144 0.447273612
0.3633762 -0.37492216 1.1046398 0.844519496 -0.006953002885 0.5354796648
0.22478434 -0.058931809 1.155 -0.006270627491 0.7776024342 0.6287250519
-0.11390132 0.0031610022 1.0758235 0.2545799613 0.4081381261 0.8767053485
-0.055462122 -0.22349088 1.2970001 -0.1688194424 0.6859635115 0.7077810764
0.1865052 -0.27745762 1.3132502 0.5601079464 -0.3423943222 0.754350841
0.034877598 -0.20718686 1.3045 -0.09023950249 0.6807003021 0.7269827724
0.11460049 -0.38889018 2.1430001 -0.2521078587 0.8638681769 0.4360887408
-0.1445408 -0.10486519 1.1551816 -0.1862718314 0.65065521 0.7361729145
0.26146585 -0.49155575 1.1930001 0.5735077262 -0.2544666529 0.7786755562
-0.22321101 -0.18540917 1.2320002 0.226778686 0.5705409646 0.7893379331
0.3003118 0.079858199 1.2830001 -0.5055834055 0.7090521455 -0.4915592372
0.032996964 -0.3361266 1.3748749 0.2320418805 -0.2563649714 0.9383141994
0.15470435 -0.0934375 1.1954618 0.008286012337 0.7383490205 0.6743679047
0.18511814 -0.0064113922 1.0828749 -0.06458010525 0.754873395 0.6526833773
0.33109596 0.18831852 1.404 -0.7354466915 0.5507765412 -0.3946686983
-0.065565377 -0.11344083 1.1871334 -0.1378180683 0.7356393933 0.6632050276
0.084713064 -0.39652437 1.3069999 0.3449126482 -0.2507274151 0.9045280814
0.39242405 0.16150305 1.6160001 0.3963593543 0.8037304878 0.4437527657
-0.023669997 -0.0198828 1.08 -0.163907975 0.7114847898 0.6833180785
0.37464857 -0.45131063 1.0930001 0.8026246428 0.007104267366 0.5964421034
0.1849755 -0.16278183 1.2659999 -0.01864158362 0.7320386767 0.6810079813
0.39001584 -0.21406884 1.115 0.6337295771 -0.2459174693 0.7334244251
-0.2778908 0.015323039 1.37075 0.6466815472 -0.279139787 0.7098478079
0.024178047 0.053251289 1.011696 0.144355312 0.5981611609 0.7882668972
-0.081238069 -0.2731483 1.3430001 -0.1790320277 0.6554133296 0.7337444425
-0.28848732 0.14487706 1.4369999 0.3286146224 -0.4628811181 0.8232578635
0.0046809614 -0.10241584 1.1860001 -0.124486357 0.8007881045 0.5858682394
0.2888256 -0.28607765 1.2182857 0.7337628007 -0.2076851875 0.6468840837
0.29376134 0.0016741412 1.1436667 -0.07413591444 0.8581581712 -0.5080043077
0.045008235 -0.15478969 1.2522001 -0.0805016011 0.7054325938 0.7041905522
-0.11441553 -0.20520149 1.2652308 -0.1789123118 0.7013964057 0.6899517775
0.11506907 0.046381794 1.0175002 0.002714409959 0.7481312752 0.6635451913
0.360111 -0.13723429 1.177 0.5813888907 -0.1033967361 0.8070291877
0.28170928 -0.35444757 1.21 0.700098753 -0.1897955388 0.6883599162
0.34839711 -0.26411086 1.1368572 0.8181095719 -0.1145394742 0.5635400414
0.12511349 -0.13708085 1.2410001 -0.04049481079 0.7112218738 0.7018002868
0.42256647 -0.33727413 1.0552 0.411523819 -0.263343215 0.8725242019
0.12637922 -0.4582158 1.2667999 0.2271761447 -0.3255663812 0.9178221822
-0.174632 -0.23029594 1.245 -0.1467509717 0.5339329243 0.8326942921
0.18326332 -0.34296739 1.2919999 0.4343084991 -0.3544762433 0.8280837536
0.15516756 0.094312422 1.027357 0.4672828615 -0.2906469405 0.8349677324
0.12591797 0.19468492 1.09575 0.5483950973 -0.3358772099 0.7657998204
0.075713612 -0.028270746 1.1120001 -0.08053253591 0.7781983614 0.6228337288
0.28590515 -0.058278672 1.1547143 -0.4020100236 0.6374723911 0.6572799087
-0.085784689 -0.1610816 1.2270001 -0.2121236026 0.6702380776 0.7111852765
0.12476964 0.0034433519 1.0727777 0.01938754506 0.8107538819 0.5850660205
-0.19525503 -0.14472561 1.1855 -0.05424161628 0.6782915592 0.7327880859
0.23222108 0.0073429607 1.0470001 -0.1669810265 0.5815982223 0.7961537838
0.23558323 -0.26483837 1.277375 0.4496578276 -0.3736746907 0.8112798929
0.094818652 -0.073808022 1.1653812 -0.1643317193 0.7308949232 0.6624104977
0.19489028 -0.44531083 1.2419599 0.4605331719 -0.373886168 0.8050579429
0.082458548 0.38517076 1.2244548 0.4168168604 -0.4558100104 0.7864482999
0.053894464 -0.44479355 1.3120002 0.5563559532 -0.2089513987 0.8042433858
0.20405293 -0.3543101 2.1160002 -0.08747839183 0.7469843626 0.6590613723
0.10402388 0.2948702 1.1650001 0.6199929714 -0.3039419353 0.7233450413
0.33145919 -0.37394303 1.1538889 0.729942143 -0.1419053972 0.6686159372
0.43007952 0.048110589 1.6630001 0.417937398 0.7840237617 0.4589499533
-0.12459507 -0.046024278 1.1040907 -0.001156557235 0.6259340644 0.7798750997
0.3573564 -0.31552476 1.1183335 0.807898283 -0.07497852296 0.5845327973
-0.025010979 -0.074766189 1.1453639 -0.1196341738 0.7923206091 0.5982605815
-0.2031773 -0.082747869 1.1372001 0.1885087192 0.4400944114 0.8779415488
0.086921498 -0.22367799 1.322 0.003649269929 0.6360527873 0.7716369629
0.30917305 -0.23667519 1.2060002 0.8346992135 -0.1330350339 0.5343958139
0.21486543 -0.37523842 1.2558336 0.5319029093 -0.233360067 0.8140161633
0.22519115 -0.027295893 1.1120002 -0.02267240919 0.7629216909 0.6460931897
-0.00492336 -0.3138642 1.404 0.6534385681 0.2595920265 0.7110766768
0.0045779529 0.017400432 1.0447999 -0.03201285377 0.7288025022 0.6839752197
0.046245042 -0.36821184 1.3355 0.5610584021 -0.5370126963 0.6299450994
0.13268341 -0.37361419 1.3025 0.4403739274 -0.3490643501 0.8271788359
-0.00784266 -0.19158497 1.2780001 -0.2369369268 0.673515439 0.7001698613
0.26596534 -0.093477994 1.1876665 0.1281810552 0.7178544998 0.6842912436
-0.065276794 0.0028913436 1.0603335 0.1824896038 0.5186533928 0.8352821469
0.3417685 -0.46361637 1.13 0.7277786136 -0.1013309062 0.6782848835
0.36813161 -0.16860229 1.138 0.7739058733 -0.2080237269 0.5981603265
0.024689192 -0.022266544 1.0941578 -0.1341516376 0.7433043718 0.655363977
-0.0063501354 -0.23264587 1.317 -0.2301311493 0.6876630783 0.6885921359
-0.10501064 -0.23741534 1.302 -0.1514279842 0.6820271611 0.7154778242
0.20586435 -0.091352388 1.1875 0.003831192851 0.7748559117 0.6321262717
0.17547448 -0.062886812 1.1569999 0.04766039178 0.7819650769 0.6214975119
0.27338868 -0.44365522 1.1930001 0.6465678811 -0.2415240258 0.7236132622
0.29504415 -0.39549106 1.1866548 0.6400790215 -0.2073694021 0.7397950888
-0.11917611 -0.13098948 1.189 -0.2559835911 0.6838427782 0.6832506657
-0.067594506 -0.18948624 1.2640001 -0.1322350502 0.6606599689 0.7389467955
0.17461798 -0.12775177 1.2337779 0.02876244113 0.707428813 0.7061991692
0.043875489 -0.24487413 1.3330001 -0.05701472238 0.6073564887 0.7923808694
0.38429925 -0.4051798 1.0738235 0.7557805181 -0.07157608867 0.6509014368
0.3465631 -0.41477695 1.1247647 0.8139885664 -0.09394580871 0.573233664
0.044620581 -0.082489945 1.1674001 -0.08440677077 0.7504070997 0.6555644274
0.38416505 -0.33480096 1.0829706 0.7159781456 -0.1610110402 0.6793016791
0.15497229 0.02409438 1.0426364 -0.01563429646 0.7800914049 0.6254701614
-0.094620004 -0.091142401 1.1570002 -0.1001413539 0.7489732504 0.6549891829
0.33821884 0.14507693 1.5090002 -0.9857144952 -0.06992439926 0.1532236487
0.32280862 -0.27489045 1.1755 0.7966828942 -0.0972456336 0.5965229869
0.015146949 -0.13345255 1.2243333 -0.0642561242 0.7435821891 0.6655499339
0.27344489 0.012855732 1.189 -0.4141860902 0.800391078 -0.4333867133
0.22469792 -0.47516659 1.2143217 0.3450298309 -0.3548859656 0.8689133525
0.29443565 -0.47534296 1.1654001 0.6466573477 -0.196597591 0.7370099425
0.31441125 0.19984844 1.452 -0.6198686957 0.6986843348 -0.3572156131
-0.15458404 -0.072257668 1.1260002 0.03315411136 0.6505907774 0.7587044239
0.10584983 -0.49659479 1.2577502 0.2343738377 -0.475478828 0.8479320407
-0.086001001 -0.029622566 1.09 0.07925755531 0.6658985019 0.741820395
0.075065456 -0.18038118 1.2780001 0.01428207196 0.688893795 0.7247216105
0.095170617 -0.43533733 1.2872858 0.306296885 -0.4180470109 0.8552303314
0.20606418 -0.30620092 1.2863334 0.5796023011 -0.2773207426 0.7662599683
-0.044628177 -0.25185814 1.3280001 -0.1425032765 0.6954510212 0.7043015957
0.17528336 -0.031337328 1.117 0.06921865791 0.7990958691 0.5972056389
0.32771727 -0.11907413 1.202 0.4234578311 0.04182176292 0.9049499631
0.15512684 -0.30517471 1.32425 0.5257365108 -0.2804162502 0.803098917
0.063971065 0.0403179 1.0220001 -0.02868188173 0.7440873384 0.6674664021
0.20602018 -0.3988097 2.1560001 -0.2603339255 0.8227396011 0.50529778
-0.035094719 -0.049717519 1.1120001 -0.09194036573 0.7747027874 0.625605762
-0.17399868 -0.18913206 1.2328001 -0.3081251085 0.4742773771 0.824693799
0.11562357 -0.10925896 1.21 -0.1292404979 0.734608531 0.6660684347
0.25264296 -0.37446266 1.2333335 0.6313141584 -0.1925406009 0.7512460351
-0.3080256 0.192516 1.4640001 0.7586386204 -0.2957201004 0.5805317163
-0.024011899 -0.1270027 1.21 -0.1767431647 0.7412329316 0.6475612521
0.30634063 0.10596017 1.3153335 -0.3855737448 0.7569375038 -0.5276158452
0.085181601 -0.35518205 1.3279996 0.3395301998 -0.3635622263 0.8674916625
0.26302126 -0.284343 1.2528826 0.7316586375 -0.263030082 0.62888062
0.085474998 -0.14793751 1.25 -0.04462638125 0.7084712982 0.7043272257
0.31689951 0.15501189 1.3850001 -0.7495017648 0.5514751673 -0.3662270606
0.06557627 -0.057567637 1.1420001 -0.09258603305 0.7356220484 0.6710349917
0.02273635 -0.29796585 1.365 0.4376739264 0.2652239203 0.8591262102
0.15596245 -0.18365234 1.2866365 0.0144732045 0.6723330617 0.7401072383
0.29629633 0.056190494 1.250625 -0.3207165897 0.7483833432 -0.580571413
0.39415285 -0.24499793 1.086 0.6748737693 -0.245920077 0.6957504749
0.26158857 -0.036523685 1.126 -0.3175829947 0.5311771035 0.7854883671
0.11444707 0.075431034 0.98900002 0.008686439134 0.6833824515 0.7300089002
-0.23509534 -0.14563991 1.1865999 0.001379790134 0.5510507822 0.8344705701
0.30874974 -0.19705187 1.202 0.8284623027 -0.06311060488 0.5564776063
0.13425186 -0.071298428 1.169 -0.06227595359 0.7656288743 0.6402609944
0.075603731 -0.40637007 2.1560001 -0.2521078587 0.8638681769 0.4360887408
0.14443083 -0.49246749 1.25 0.3314780593 -0.4736773372 0.815936327
0.23828225 -0.022859229 1.0715002 0.2455882281 0.8286996484 0.5029346943
-0.18561751 -0.11157336 1.1569999 0.04274014384 0.6359703541 0.7705290318
0.11584103 -0.022781834 1.1071175 -0.01504351851 0.7875729203 0.616037786
0.2202625 -0.14574583 1.25 -0.004736521281 0.7337710261 0.6793803573
-0.24569063 -0.06434755 1.302 0.6384434104 -0.233501792 0.733394146
-0.29449075 0.11089921 1.4150001 -0.1310090572 -0.5107584 0.8496837616
0.40382943 -0.37478527 1.0605714 0.6556714177 -0.09957212955 0.7484520078
0.043901403 0.085708499 0.99341166 0.1597921848 0.4975499213 0.8525905013
0.12834634 -0.41590232 1.2880001 0.4044235945 -0.2501715422 0.8796907067
0.30733991 -0.35391998 1.177 0.7690168023 -0.126556024 0.6265754104
-0.14510962 -0.01706369 1.09 0.1862301826 0.4186877012 0.8888300657
0.051455658 -0.40430698 1.324 0.5593112707 -0.2849707901 0.7784359455
0.02273635 -0.37335479 1.365 0.3479576707 -0.5348190069 0.7699961662
0.1563157 0.054742426 1.0188932 0.1690535396 -0.08753538132 0.9817119837
0.1639998 -0.44324267 1.2640001 0.3924471736 -0.3373875618 0.8556604981
0.10491793 0.21771908 1.1237501 0.6247577667 -0.2988739312 0.7213543653
0.4013288 -0.43317807 1.0530001 0.6587942839 -0.03503018245 0.7515071034
0.26315734 -0.32508805 1.233143 0.695311904 -0.2431111187 0.6763418913
-0.14272441 -0.23445795 1.2645 -0.4807781577 -0.005490794778 0.8768250942
0.35851985 -0.22805607 1.136 0.7292199135 -0.2158678323 0.6493376493
-0.034659017 -0.096431285 1.1743335 -0.09893712401 0.7497828007 0.6542454958
0.29813766 -0.32378894 1.197 0.7109907866 -0.07692032307 0.6989816427
-0.28347895 0.054283198 1.376 0.4237264097 -0.4358147681 0.794053793
0.026783921 -0.17967546 1.273 -0.08002503216 0.7170152068 0.6924486756
0.19117865 0.014774024 1.0535001 0.3031202555 0.8920192719 0.3352905214
-0.011544824 0.061276369 1.013 0.1527143419 0.5314491987 0.8332107067
0.1443309 -0.15762818 1.2640001 0.03633324429 0.7282050252 0.6843956113
-0.256497 -0.0042048688 1.3430002 0.5446136594 -0.4111452997 0.7309962511
-0.15452622 -0.13638024 1.1830002 -0.1322441995 0.6881411076 0.7134236693
-0.34219718 0.01588257 1.647 0.9614320993 0.1217548102 0.2466254383
0.21384454 -0.41456527 1.241941 0.614248693 -0.2469339073 0.7494813204
-0.054976445 -0.14308125 1.219 -0.1645946503 0.6903083324 0.7045445442
0.15276571 -0.3453697 1.3120002 0.4868856072 -0.4035525918 0.7746532559
-0.11518598 -0.073904298 1.1331307 -0.1057986394 0.7213475108 0.6844446063
0.09420941 0.02443251 1.0433573 -0.05117286742 0.8031277657 0.5936051607
0.13544185 0.11605358 1.0534168 0.6525356174 -0.327090174 0.683527112
0.18476646 -0.3755236 1.2773478 0.4953111708 -0.2689631581 0.8260300756
-0.13392398 -0.18673396 1.2420001 -0.2500975132 0.66295439 0.705650568
0.3726829 -0.27462134 1.1132857 0.7092752457 -0.08565361798 0.699708581
0.34514192 -0.34497228 1.1336471 0.8629896641 -0.09601713717 0.496013701
0.29752153 -0.07630419 1.1858001 -0.4555824697 0.5722963214 0.6818515658
0.28468803 -0.25396168 1.2341335 0.7984374166 -0.1945779026 0.5697693229
0.054321334 -0.13230741 1.2270001 -0.05710558966 0.7612720132 0.6459131837
-0.010896089 -0.28814107 1.381 0.1935506016 0.6782231927 0.7089086771
0.03367452 -0.00093540334 1.067 -0.1056335419 0.7737665176 0.6246014237
0.085626274 0.061411176 1.0023334 -0.02729176171 0.7140844464 0.6995273829
0.33583939 -0.24481177 1.1646925 0.7713257074 -0.1889566332 0.6077434421
0.011833538 -0.080806166 1.1570001 -0.1042790487 0.7819873691 0.6145092845
0.33856142 -0.29468828 1.149 0.7971115708 -0.06304967403 0.6005313396
0.042517237 -0.47730839 1.2932501 0.4050336778 -0.3280373514 0.8534279466
0.029105334 -0.46219268 1.3280001 0.4252029061 -0.3276827633 0.8436980844
-0.27565029 -0.03870834 1.3380001 0.6125708222 -0.3262198865 0.7199566364
0.09052898 -0.010482303 1.087 -0.0883583948 0.8003463745 0.5929911137
-0.20154217 -0.2112942 1.2360001 0.1129711494 0.4907127619 0.8639667034
-0.00455424 -0.036440618 1.1053499 -0.1689054072 0.7532058358 0.6357294321
0.41361335 -0.30587691 1.0670002 0.5007457137 -0.203465119 0.8413416147
0.034070771 -0.11442228 1.2037143 -0.03308237344 0.7784031034 0.6268924475
-0.20402078 -0.1683083 1.21 -0.04923995584 0.7445874214 0.6657063961
0.20856543 -0.25550744 1.2953334 0.5771622658 -0.2580819428 0.7747757435
0.035074878 0.027340833 1.0343159 -0.01486075018 0.7622124553 0.6471563578
-0.075176015 -0.24653472 1.3147779 -0.1550034434 0.747785151 0.6455937624
-0.215001 -0.12373801 1.1678571 0.02235767804 0.597029388 0.8019077778
-0.08509995 -0.13690935 1.2038183 -0.1711826921 0.6832944751 0.709792316
-0.085288182 -0.21648908 1.2835001 -0.1133357286 0.6977658868 0.7073031664
-0.025053203 0.0053579221 1.0546002 -0.06485855579 0.6816184521 0.7288275957
0.15436202 -0.013853476 1.0936667 0.04728328064 0.8202510476 0.5700460672
0.21166737 -0.34372696 1.2729999 0.6112219691 -0.315217495 0.7259790897
0.27129108 -0.39487037 1.21 0.6440317035 -0.1993510723 0.7385677695
0.23640339 -0.079721436 1.1810001 -0.006958980113 0.7709569931 0.636849165
0.085849114 -0.46565798 1.278 0.4991013408 -0.3280016184 0.8020678163
0.094717443 -0.045754679 1.1330589 -0.1320418715 0.7538887262 0.6435967088
0.24648359 -0.23415942 1.2780001 0.6436790824 0.03263238445 0.7645995021
0.30315012 0.0088499505 1.1738001 -0.3778570294 0.8333598375 -0.4034048319
-0.024068106 -0.21636611 1.2936666 -0.2587758899 0.6498883963 0.7146188617
0.23831044 -0.44634226 1.2190001 0.4742619991 -0.2356482297 0.8482602835
0.14474204 -0.11901013 1.223 -0.0103626512 0.7366732359 0.6761694551
0.32736924 -0.40593785 1.149 0.7296183705 -0.0960309431 0.6770783663
0.18575691 -0.10827044 1.2108001 0.02373146452 0.7283050418 0.6848419905
0.12648301 0.16452616 1.0847999 0.543150723 -0.3413113952 0.7671334743
0.34745678 -0.16662717 1.176077 0.6304827929 -0.3519330919 0.6918341517
-0.054838017 -0.025887193 1.0837599 0.007094188128 0.7052958608 0.7088775635
0.067669898 0.40492797 1.245 0.3732793033 -0.4953312576 0.7844166756
0.10338004 -0.17007683 1.268 -0.1295255125 0.6870738268 0.714949429
0.20509084 -0.045483403 1.1342105 -0.01806089655 0.7979869843 0.6024039388
-0.23436718 -0.086034484 1.1464002 0.1538619101 0.4736451209 0.8671717048
0.0054866192 -0.15799068 1.2515 -0.1652275473 0.7051010132 0.6895885468
-0.054733586 -0.16611388 1.2424998 -0.1432379931 0.6858897805 0.7134690285
0.23454994 -0.29429591 1.2663635 0.4382785261 -0.3210593462 0.8395432234
0.09198162 0.36158293 1.2060001 0.4030613303 -0.4448984265 0.7997543216
0.117089 -0.21232446 1.312 -0.08039552718 0.6501695514 0.7555237412
-0.055400949 -0.081590489 1.149 -0.1160353944 0.7839084864 0.6099370718
0.045393895 -0.035732348 1.1148889 -0.1131853387 0.7711006999 0.6265722513
-0.11522359 -0.15534103 1.2140527 -0.1755010039 0.6887817383 0.7034053206
0.29686114 -0.21536303 1.2252499 0.7954084277 -0.1163263917 0.5948055387
0.054931574 -0.015835024 1.0925294 -0.07135751843 0.7656015158 0.6393452883
-0.070675991 0.03028971 1.0470001 0.2812084854 0.3838513792 0.8795338869
-0.035242178 -0.27271292 1.3490001 -0.1944273561 0.6969753504 0.6902342439
0.21577646 -0.0066974834 1.0911429 -0.09670365602 0.7365495563 0.6694349647
0.19253354 -0.40362784 1.2640001 0.5469824076 -0.2883067131 0.7859322429
-0.31186539 0.15784207 1.452 0.4863701463 -0.4771122336 0.7319890857
0.35053691 -0.10889515 1.1830001 0.5715841651 -0.03461169451 0.8198131323
0.38162675 -0.36513948 1.0818461 0.7239015698 -0.07127015293 0.6862121224
-0.034508009 -0.1851645 1.26475 -0.2135264277 0.6398416162 0.738247335
0.095049269 -0.12653524 1.2243334 -0.1086213142 0.7508142591 0.6515208483
0.18008661 0.073468171 1.0220001 0.3583078086 -0.07005745918 0.9309712648
0.098643757 0.26257059 1.1458 0.6256064773 -0.3635480106 0.6902531385
0.25484371 -0.062633231 1.1570001 0.02424529009 0.7674120665 0.6406956315
-0.17444789 -0.16281806 1.2060002 -0.07749044895 0.7095511556 0.7003801465
0.0043903952 -0.0059620636 1.0729443 -0.1118360683 0.7481482029 0.6540389657
0.10401721 -0.092277855 1.1875457 -0.1323507577 0.7515205741 0.6462972164
-0.094515629 -0.18820935 1.25 -0.1532771736 0.7068474889 0.6905597448
0.12391245 0.01927527 1.0470001 0.03005860932 0.8159783483 0.5773004293
0.36425561 -0.34469581 1.1036111 0.801674664 -0.1236034259 0.5848417878
0.10269085 0.32280806 1.1764287 0.5705219507 -0.3685757518 0.7339323163
0.3747234 -0.24449316 1.1134193 0.6657526493 -0.2580358982 0.7001363635
0.06500382 -0.20585954 1.3056841 0.01030205283 0.6549513936 0.7556007504
0.31649542 -0.4648312 1.1478237 0.6522521973 -0.1475479305 0.7435030341
0.19721299 -0.47572041 1.2266002 0.4806843698 -0.3529548645 0.8027237058
0.073509373 -0.088004179 1.1810001 -0.09373962134 0.7594051361 0.6438297629
0.10428357 -0.37457752 1.3120002 0.2136259079 -0.4282973409 0.8780235648
0.16503413 0.0066684284 1.0652856 -0.02117978223 0.7986581922 0.6014121175
0.36385494 -0.40452653 1.1024998 0.8154360056 -0.04135688022 0.5773679614
-0.0045191189 -0.057658758 1.1317779 -0.1415954679 0.7670871615 0.6257219911
0.30526507 -0.2951473 1.1943334 0.8011987209 -0.1509230882 0.5790533423
-0.15406036 -0.045505095 1.1064998 0.1897525787 0.4985990226 0.8458090425
0.26730019 -0.25544655 1.2580001 0.7503080964 -0.1797774136 0.6361743808
-0.094314203 -0.11686098 1.1822499 -0.172782734 0.6860384345 0.706751287
0.17762095 -0.30664793 1.3056365 0.5532004833 -0.3037908077 0.7756806016
0.17600836 -0.079721436 1.1810001 0.06039588526 0.74571383 0.6635233164
0.25057063 -0.1110123 1.2060001 0.10413187 0.6874209642 0.7187551856
0.23514624 -0.35459831 1.2531054 0.5574644804 -0.2769835293 0.7826324105
0.25466704 -0.46514311 1.2040867 0.5451793671 -0.2926695347 0.7855724096
0.07503029 -0.42415175 1.3049412 0.3840426505 -0.3684637845 0.8466083407
0.014902073 -0.24634011 1.3333126 -0.03392232209 0.6646552086 0.7463797927
0.35755032 -0.19600479 1.1483848 0.7794523835 -0.1513628364 0.6079007387
-0.20310132 -0.056019437 1.126 0.2620847225 0.3754353225 0.8890218735
0.30689773 -0.2653608 1.2046666 0.8288930655 -0.1263932586 0.5449413061
-0.15370253 -0.20556736 1.2510713 -0.5181856155 0.4221384823 0.7438297868
0.3780016 -0.3056415 1.0963572 0.7185916305 -0.1930363476 0.6681040525
0.16816159 -0.47736642 1.2444285 0.4443086386 -0.3669857085 0.8172584176
0.32433084 -0.2250783 1.1847141 0.7965752482 -0.1090923026 0.5946147442
0.29241666 -0.42502084 1.1831539 0.6726197004 -0.1794663221 0.7178959846
-0.01576707 0.037390929 1.02775 0.1075987443 0.5471225381 0.8301081061
-0.25916311 0.028092491 1.3540001 0.6543926597 -0.2565329373 0.711309433
0.32671839 -0.34565204 1.1570001 0.6951723099 -0.06990269572 0.7154362798
0.017336084 0.076948658 0.99585718 0.166971907 0.4913448691 0.8548102975
0.16421053 -0.3647643 1.2928822 0.4197444618 -0.2512532771 0.8721733689
-0.065062694 -0.046254929 1.1045712 -0.04268474132 0.7588040829 0.649918735
0.0070616747 -0.32601404 1.3751429 0.5240902305 -0.07659730315 0.8482112288
-0.12497497 -0.22631355 1.2843336 -0.6299984455 0.4094505012 0.6598880291
0.21279463 0.022435216 1.034 0.02915578336 0.6981282234 0.7153788209
-0.096510477 -0.049717519 1.1120001 0.001666851924 0.6802434921 0.7329843044
0.3484557 -0.38465035 1.126 0.802383244 -0.06548373401 0.5932056904
0.094475739 0.0084186299 1.067 -0.0788609907 0.7817584872 0.6185746193
0.092099972 -0.20125549 1.2970001 -0.08132856339 0.6620198488 0.7450606823
-0.1150671 -0.022155777 1.087 0.1203958318 0.5054587722 0.8544098735
0.4317145 -0.36267701 1.0500001 0.5226643085 -0.2488456517 0.8154127002
0.35315406 -0.44482478 1.1136316 0.7838517427 -0.01046257466 0.6208598614
0.23519543 -0.043884378 1.1346669 -0.02518279478 0.7891933322 0.6136283278
0.0022740734 -0.21035178 1.2970001 -0.1770746261 0.6664747 0.7241933942
0.11387435 -0.057990078 1.1542307 -0.05357633531 0.7607015967 0.6468868852
0.053530142 0.06150781 1.0010002 0.07516198605 0.6608986855 0.7467018366
-0.23536658 -0.039796282 1.2970001 0.6620365977 -0.2411581129 0.7096127868
0.027618757 -0.38783932 1.3365716 0.529240191 -0.3417411447 0.7766066194
0.31981239 0.21407849 1.4890001 -0.627810955 0.6812352538 -0.3765260875
0.16525355 -0.14708276 1.2507143 0.001050326275 0.7044022083 0.7098002434
0.3829757 -0.43536514 1.0729614 0.8085690737 0.05152450874 0.5861409903
-0.26076451 -0.054470807 1.322 0.6515555382 -0.2505128086 0.7160437703
0.33519921 -0.14328328 1.1930001 0.6103457808 -0.113804318 0.7839174867
0.1261363 0.22243838 1.1079999 0.5702631474 -0.2883387506 0.7691948414
0.20545414 -0.071596891 1.1685556 0.001617090078 0.7422614694 0.6701084375
0.13389111 0.061897054 1.0015002 -0.2388805598 0.6819550991 0.6912838221
0.22863115 -0.38683093 1.2360001 0.5268420577 -0.2591897845 0.8094801307
0.31573516 0.18774185 1.4258001 -0.7122806907 0.584137857 -0.3891518414
0.20499413 -0.12809432 1.2320001 0.06932367384 0.71954 0.690982163
0.052456006 -0.19120516 1.2867501 -0.06378360093 0.7175151706 0.6936163306
0.14483616 -0.39495605 1.2927501 0.3685259819 -0.3868181109 0.8453167081
-0.11598691 -0.10416226 1.1654214 -0.2290128618 0.6882219315 0.6884065866
0.11449958 -0.39534765 1.2970003 0.2352872193 -0.3189207315 0.9181119204
0.38238448 -0.18921097 1.13 0.699421227 -0.06275169551 0.7119495869
0.026776908 -0.43599787 1.3280001 0.5495961905 -0.2064673007 0.8095154762
0.066703625 -0.46579772 1.2959287 0.6170294881 -0.2749290466 0.7373524904
0.14652894 0.06275969 1.0418571 0.7491077185 -0.1029473916 0.6544000506
0.33258644 -0.43481255 1.1445297 0.7260985374 -0.1244598553 0.6762326956
0.051075477 -0.1011086 1.189 -0.1081130058 0.7602230906 0.6406031251
0.22655696 -0.097999059 1.202 -0.02935271151 0.7265359163 0.6865012646
-0.093558654 0.013228549 1.0629001 0.3052405119 0.3985240161 0.8648738861
0.12448657 -0.3453896 1.3167368 0.2370017022 -0.3597018123 0.9024659395
0.31507078 -0.093836062 1.2026666 0.1368708163 0.2137061656 0.9672621489
0.028201198 -0.22754116 1.322 -0.06705544889 0.6174095869 0.7837786674
0.311584 -0.38151044 1.1730001 0.7619088292 -0.09011463821 0.6413846612
0.32100466 -0.25036284 1.1850001 0.8229309916 -0.1602022797 0.5450869203
-0.17504418 -0.084546156 1.1344999 0.02286844328 0.5963792205 0.8023770452
0.14498326 -0.026655793 1.1133847 0.0219335258 0.8067436814 0.5904943347
0.086028762 0.30473399 1.1823336 0.6052131057 -0.3573548198 0.7113470435
0.28626761 0.026804082 1.223 -0.5239452124 0.7341353297 -0.4318873882
0.1548509 -0.052289654 1.1470002 0.0203313455 0.7735808492 0.6333713531
-0.044680722 -0.06553591 1.1326001 -0.06761264801 0.7715401053 0.6325775385
0.39883748 -0.34599635 1.0659093 0.6017526984 -0.1536181271 0.783769846
0.32593712 -0.18793821 1.1818001 0.7325634956 -0.1282643825 0.6685050726
0.074311964 -0.3820132 1.3245001 0.365490526 -0.4205696881 0.8303841352
0.26050499 -0.30786955 2.0780001 -0.08747839183 0.7469843626 0.6590613723
0.21792531 -0.27889922 1.2880001 0.6083209515 -0.294013828 0.7372255325
0.19551176 -0.14654215 1.2505555 0.009240612388 0.7169533968 0.6970598698
0.04347828 -0.35620284 1.3650001 0.4677088261 -0.416559577 0.7795681953
-0.045430139 -0.20459437 1.2752726 -0.1742188931 0.6777967811 0.7143104076
0.33354786 0.21514526 1.4545715 -0.627810955 0.6812352538 -0.3765260875
0.34063849 -0.32446575 1.153 0.7792951465 -0.04735086486 0.6248655915
-0.011880587 -0.13932689 1.2320001 -0.1952596605 0.6959062815 0.6910774708
-0.016301818 -0.25464109 1.3356925 -0.2168683261 0.6709468961 0.7090827823
0.13133693 -0.090685032 1.189 -0.06358047575 0.7551367879 0.6524767876
0.40423101 -0.40376636 1.0600001 0.6008250117 -0.07975192368 0.7953923345
0.14445257 -0.43485662 1.2757083 0.4484236836 -0.3434433639 0.82520473
-0.074759498 -0.10138807 1.1682001 -0.107311748 0.739890039 0.6641136408
-0.044363655 0.017078726 1.0460625 0.1781599075 0.5648624301 0.8057229519
0.12851056 0.13882893 1.0700001 0.5288025141 -0.4199406803 0.7375755906
-0.074699275 -0.014518736 1.0749665 0.1041916311 0.6268495321 0.7721423507
0.21728534 -0.4377977 1.2270001 0.4756098688 -0.235643819 0.8475064635
0.26280493 -0.42457184 1.21 0.6046321392 -0.2032104731 0.7701464295
0.23568937 -0.4946329 1.2056 0.4044673443 -0.3182894588 0.8573785424
0.26227155 -0.01663699 1.074 -0.1945836842 0.5936162472 0.7808693647
0.311584 -0.40619034 1.1730001 0.71785748 -0.1400682777 0.681954205
0.13490738 0.037022509 1.0271176 -0.009055872448 0.7404181957 0.672085464
-0.014801201 -0.087298907 1.1646668 -0.08972818404 0.774987936 0.6255737543
0.3123537 0.071742013 1.2590001 -0.4241667092 0.6988806129 -0.5758892894
0.025012834 -0.092568323 1.1765001 -0.08877012134 0.7618080974 0.6416917443
0.28229007 -0.46288478 1.1816666 0.6265168786 -0.2228979468 0.7468554974
-0.11544323 -0.17401859 1.2340001 -0.1575306505 0.6849965453 0.7113113403
-0.13475156 -0.088453047 1.1409999 -0.1725086868 0.7099690437 0.682777226
0.05632513 -0.22785023 1.322 -0.000537590473 0.6286751032 0.7776678801
0.14122674 -0.32434139 1.3219999 0.4464721084 -0.3639720678 0.8174270391
0.053913247 -0.17007683 1.268 -0.07780211419 0.7061864138 0.7037382722
0.28852606 -0.37446377 1.1954615 0.6938854456 -0.1449483186 0.7053460479
-0.12627126 -0.24807708 1.2746667 -0.7493315935 0.05245951191 0.6601137519
-0.165857 -0.12358706 1.1666666 -0.08332803845 0.6690838933 0.7385005951
0.10494938 -0.4753128 1.2679999 0.1657092869 -0.1932872683 0.9670472741
0.25667265 -0.30578789 1.245 0.7278741002 -0.3078970611 0.6126978993
-0.27894658 -0.0011870067 1.3540001 0.621064961 -0.3528375626 0.6998456717
0.29395795 -0.021765223 1.1415 -0.6635924578 0.1146828681 0.7392516136
0.21019223 -0.00091786997 1.0470001 0.3041877151 0.8521486521 0.4258081019
0.1947892 -0.024003793 1.1061249 -0.01501579117 0.7926781178 0.6094554067
0.20601843 -0.49531046 1.2171851 0.4322837293 -0.3183856606 0.8436595201
0.27677506 -0.30506504 1.224739 0.7547094226 -0.2233670652 0.616863668
0.15214682 0.13198259 1.0455 0.5636774302 -0.4010960162 0.7220731974
0.14413911 -0.47384346 1.2640001 0.353499949 -0.3303151429 0.8751741052
0.25111854 -0.0018532733 1.057 -0.2069114298 0.5991412997 0.7734451294
0.17664535 0.02734749 1.0348572 0.2747372985 0.7845675349 0.5558535457
0.096325755 -0.33438557 1.3330001 0.3216221035 -0.3520326614 0.8789950013
0.19421361 -0.42476892 1.2528335 0.4407924712 -0.3171256185 0.8397221565
0.2976113 0.023281286 1.1962 -0.4713470042 0.7549782395 -0.4558945596
-0.13502392 -0.063761719 1.1170001 -0.08760032803 0.6745739579 0.7329912186
-0.22434078 -0.10432669 1.1564283 0.08834867179 0.5258762836 0.8459601998
-0.21449642 -0.15590423 1.1935334 -0.1559116393 0.6592991352 0.7355380058
-0.03404773 -0.237362 1.3134288 -0.1530785859 0.7281089425 0.6681499481
0.005842824 -0.30482009 1.3842727 0.5590707064 0.3360744119 0.7579538226
-0.13265456 -0.11825795 1.1730001 -0.2700922489 0.6482598186 0.7119054198
0.1410732 0.1817856 1.08 0.5527020097 -0.3259297907 0.7670007944
-0.04579502 -0.12096012 1.1963334 -0.1305305213 0.7496745586 0.6488064528
0.32333484 0.14431599 1.365 -0.7200272679 0.6197897792 -0.3121240139
0.16401663 -0.32412261 1.3120002 0.5414440036 -0.3077687323 0.7823789716
0.33051473 0.17312676 1.381 -0.7544951439 0.5149879456 -0.4068470299
0.14310707 0.011151201 1.0600001 0.04060746357 0.8100250959 0.5849874616
0.014288965 -0.043778978 1.1162667 -0.1556102037 0.7483109832 0.6448380947
0.36829641 -0.42568117 1.095 0.8092114925 -0.0001270580542 0.5875173807
-0.016131224 -0.17383832 1.2571818 -0.2588882148 0.6753777862 0.6905373335
0.014802244 -0.1944035 1.2864376 -0.1255252361 0.6928521395 0.7100699544
-0.17396224 -0.062456358 1.1190001 0.194979012 0.4761608541 0.8574695587
0.025563128 -0.14742827 1.2428461 -0.09607788175 0.7118191123 0.6957604289
0.31206527 0.048760198 1.2360001 -0.455060184 0.7497164607 -0.4804638028
0.38758594 -0.26570162 1.0953847 0.7084308863 -0.1301241517 0.6936810017
-0.035445165 -0.034492671 1.0927501 -0.1000186652 0.754853785 0.648222208
0.2741071 -0.078267343 1.1730002 -0.1228475422 0.7423101068 0.6586988568
0.086555168 0.041482218 1.0231252 -0.04232728109 0.7489314079 0.6612942815
-0.13956621 -0.15005991 1.197 -0.2468048781 0.7020413876 0.6680009365
0.25474766 -0.34600005 1.2342224 0.6639989614 -0.2171000391 0.7155228853
0.20225875 0.0051735756 1.0739166 0.1330737621 0.8944140077 0.4269835651
0.015161111 0.035273965 1.0273749 0.0426196754 0.6785741448 0.7332944274
-0.13552916 -0.2132951 1.2672 -0.3754455149 0.6081402898 0.6994326711
0.12464227 -0.17281863 1.278 -0.1142327115 0.6971833706 0.7077331543
0.0041877693 -0.174697 1.2667693 -0.1501715481 0.6765986085 0.7208764553
0.30282941 -0.45461327 1.1630952 0.6560769081 -0.1411587 0.7413752675
0.055132966 0.023060534 1.0435264 -0.03159847483 0.8042694926 0.5934240818
0.11478722 -0.15297605 1.2589999 -0.1037663817 0.6954940557 0.7109996676
0.1777126 -0.17546308 1.2830001 0.009464886039 0.7144035101 0.6996699572
-0.16218929 -0.24383754 1.2585555 -0.3993646204 0.2712529004 0.8757452369
0.074768938 -0.44521928 1.2922499 0.5319727659 -0.2357235551 0.8132892251
0.34835452 -0.22575009 1.1557999 0.7999019623 -0.1451705992 0.5823078156
-0.1189286 -0.27523476 1.2920001 -0.6936416626 -0.02269849367 0.7199625373
0.0056574219 -0.11915945 1.21 -0.1292013377 0.7425957322 0.6571595073
0.23491231 -0.24714497 1.2920001 0.4409594238 -0.2563274801 0.8601459265
-0.19424783 -0.18553817 1.2241765 -0.02821173891 0.4638258517 0.885477066
0.075101934 -0.13548954 1.2344 -0.07547255605 0.7616741657 0.6435497999
-0.08464285 -0.078194283 1.141889 -0.0841036588 0.7747373581 0.6266646385
0.114668 -0.0086000999 1.09 -0.02051288821 0.8150233626 0.5790649056
-0.22047991 -0.06883762 1.138 0.1976072788 0.4162757695 0.8875054121
0.3535279 -0.28518295 1.132087 0.7923642993 -0.096057266 0.6024382114
-0.14951813 -0.18178824 1.2270001 -0.1873551905 0.6948522329 0.6943186522
0.22208333 -0.31471106 1.273 0.5866417885 -0.2409856766 0.7731606364
0.11585063 -0.44203198 1.2830001 0.04759323224 -0.5466367006 0.8360162973
0.035519902 -0.45946714 1.307 0.4497906268 -0.3756959438 0.8102721572
0.32124925 0.16862507 1.404 -0.7509358525 0.5085984468 -0.4212160707
0.29551542 -0.34556237 1.1951178 0.7403204441 -0.2023095936 0.641090095
0.29801002 -0.056969482 1.1730001 -0.503664434 0.5951957107 0.62615031
0.064754985 -0.35909581 1.3430001 0.4918172657 -0.4925040305 0.7180219889
-0.074986458 -0.17444772 1.2436664 -0.2106519192 0.6648877859 0.7166240811
-0.075271823 -0.2328651 1.2970001 -0.1395901293 0.685684979 0.7143883705
0.17546287 -0.044250868 1.1346959 0.09227008373 0.7928650379 0.602371335
0.025586102 -0.16490228 1.2567779 -0.07118870318 0.6790837049 0.7306007743
0.094942994 -0.10654949 1.2033333 -0.1293282956 0.751873076 0.6464990973
0.27770323 -0.48398292 1.1765001 0.6262292266 -0.2210800648 0.7476366758
0.36490071 -0.29492173 1.1154594 0.7352736592 -0.1639327705 0.6576462984
0.11354616 0.27931681 1.153 0.613917768 -0.3739331365 0.6951827407
0.045210399 -0.064303681 1.1460001 -0.1264631301 0.7449732423 0.6549977064
0.27779382 -0.2764602 1.2344617 0.7707800865 -0.258249253 0.5824133754
-0.045059793 -0.0048649358 1.0629284 0.03804963455 0.6244516969 0.7801361084
-0.092716262 -0.25728765 1.322 -0.1818196028 0.6744073033 0.7156230807
0.06528081 0.075596727 0.987037 0.1469054222 0.5472297072 0.8239893317
0.06419228 -0.042117465 1.1242002 -0.0975722596 0.757358849 0.6456680894
0.32857114 0.20394334 1.4360001 -0.5862574577 0.7089318037 -0.3920687437
-0.085512519 -0.20256786 1.2667999 -0.1537246853 0.7055914998 0.6917436719
0.024925387 0.013290355 1.0530999 -0.07970925421 0.7526156306 0.6536177397
-0.24412675 -0.12742862 1.1735716 0.01934028976 0.5773924589 0.8162376285
0.12565015 -0.48555592 1.258273 0.3124366701 -0.447619319 0.8378664851
0.086829349 -0.49516201 1.268 0.4263892472 -0.2708812952 0.8630269766
0.3926518 -0.23540443 1.105588 0.6692398787 -0.3225281239 0.6693979502
