# .PCD v0.7 - Point Cloud Data file format
VERSION 0.7
FIELDS x y z normal_x normal_y normal_z
SIZE 4 4 4 4 4 4
TYPE F F F F F F
COUNT 1 1 1 1 1 1
WIDTH 512
HEIGHT 1
VIEWPOINT 0 0 0 1 0 0 0
POINTS 512
DATA ascii
-0.07450527 -0.071357161 1.1970001 -0.1111550033 0.725612402 0.6790664196
0.23111476 -0.44791266 2.3330002 -0.05086161941 0.7202451825 0.6918525696
0.4928059 0.047151517 1.7350001 -0.1380435675 0.7314090133 0.6678209901
-0.45475155 -0.45282462 2.1980002 -0.1322645098 0.7046557665 0.6971129179
0.46069098 -0.23345545 0.94600004 0.6266301274 -0.04083095118 0.7782464623
-0.040091719 0.49627048 1.2360001 0.5175394416 -0.4404298663 0.7336037159
-0.32264751 -0.077880435 1.8130001 0.9682825208 0.0385844484 0.2468608022
0.19897878 -0.4268595 1.268 0.7733453512 -0.04439622909 0.6324285865
0.28840026 0.19711293 1.1570001 -0.7093113065 0.5924719572 -0.3819089532
-0.091454744 -0.30422699 2.1290002 -0.05058497936 0.7212617993 0.690813005
-0.24540704 0.13184102 1.4890001 0.9420619011 -0.08972940594 0.323215127
0.33705378 0.27147913 1.4960001 -0.9865853786 0.01449830737 0.1626009494
0.32259843 -0.15873891 1.9470001 -0.003005660139 0.7697650194 0.6383202672
0.026844993 0.13874623 0.96700007 0.05263278633 0.6791245937 0.7321335673
0.29784727 -0.12170303 1.2177501 0.8423938751 0.07761774212 0.5332430005
0.095692456 -0.20571296 1.3740001 -0.2216894329 0.669541955 0.7089198828
0.19597445 -0.28182992 2.1290002 -0.0256488286 0.765375495 0.6430726647
0.38286662 -0.41616634 1.101 0.7209048271 -0.08769784868 0.6874629259
0.13401721 0.018622739 1.138 -0.0268703904 0.7522249222 0.6583582759
0.030030217 0.32064521 1.105 0.6498477459 -0.3195779622 0.689614296
0.39069 -0.038978353 1.034 0.6559370756 -0.1128123328 0.7463376522
0.038077138 -0.44289726 2.286 -0.0626623705 0.7197360396 0.6914141178
0.30332178 0.31747892 1.3141429 -0.2146852463 0.7328227162 -0.645663321
-0.1097499 0.060972165 1.0700001 0.2875387371 0.5781788826 0.7635644674
-0.090864748 -0.21278453 1.312 -0.1551364213 0.6371147037 0.754995048
0.37484783 -0.23519932 1.1040713 0.8851604462 0.06562314928 0.4606350064
0.2204729 0.10005397 1.01 -0.2194698453 0.5629221201 0.796838522
0.49584574 -0.15617861 1.9470001 0.01340249088 0.7625231147 0.6468221545
0.23544455 -0.2648485 1.2738335 0.4298056364 -0.3783545196 0.8198261857
0.085034966 -0.094678283 1.2525003 -0.05793795735 0.6992025375 0.7125720978
-0.21376881 -0.12553494 1.2425001 0.14020136 0.5409177542 0.8293079138
-0.20692316 0.0076638209 1.4100001 0.6450923085 -0.2595364153 0.7186771035
0.30702233 0.042333357 1.123 -0.05252121016 0.4191888273 0.9063786268
0.28362566 -0.48224935 1.1733638 0.6688885689 -0.1430491507 0.7294690013
-0.21877216 -0.32910943 2.1700001 -0.1195100546 0.6331096888 0.7647807002
0.30564269 -0.34501368 1.1863332 0.6751943231 -0.2053246796 0.7084873915
0.0048926347 0.014672225 1.1161906 -0.1640402824 0.7505272031 0.6401560307
0.42687455 -0.3253254 1.0251249 0.8717978001 0.1775344312 0.4565634131
0.139063 -0.31785828 1.3330001 0.7379570007 -0.1542455554 0.6569838524
-0.17164695 -0.016060533 1.1450001 0.1991871446 0.5847465992 0.7863815427
0.19544417 -0.053339321 1.2167778 0.03851716965 0.7238711715 0.6888591647
0.1050949 0.08475133 1.0431602 -0.08234222233 0.8202021718 0.5661167502
0.40380812 -0.15483543 1.0131003 0.8373907208 0.07282105088 0.5417323112
0.35345945 -0.1145615 1.1153332 0.926910758 0.1259919405 0.3535003066
0.060381293 0.23161182 1.028 0.7685855031 -0.2091834098 0.604581356
-0.0072062593 0.40450028 1.1740668 0.5915005803 -0.2933117747 0.7510627508
0.013974856 -0.16287144 1.3065001 -0.09835902601 0.676514864 0.7298309207
0.15707412 -0.34323603 2.2120001 -0.05086161941 0.7202451825 0.6918525696
0.31225365 -0.23486465 1.2037778 0.799305737 -0.06674671173 0.5972061753
0.28479743 -0.39752975 2.256 -0.05086161941 0.7202451825 0.6918525696
0.16239066 -0.14066423 1.3045001 0.01215290092 0.6807026267 0.7324590683
0.3201499 0.34487191 1.4100001 -0.9900042415 0.09333117306 0.1057397947
-0.01003871 0.081222288 1.041 -0.09769426286 0.7798603773 0.618282795
0.27349281 0.13150525 1.087 -0.7068161368 0.6634102464 -0.2455560714
0.034846622 -0.041563254 1.1885556 -0.05794229358 0.7890654802 0.6115704179
0.29508951 0.25030234 1.2360001 -0.7705068588 0.5691686869 -0.2869951129
0.2146564 0.055184651 1.0940001 -0.05781174079 0.8062829375 0.5886982083
-0.11455074 -0.13499351 1.251875 -0.1116927788 0.7168391347 0.68823421
0.36796969 -0.32498133 1.1183847 0.82584095 -0.03661349416 0.5627132058
0.25869557 -0.1777126 1.2830001 0.7369471788 -0.1244259328 0.6643997431
-0.0063927784 -0.10212854 1.245 -0.2608442307 0.6806061864 0.6846426129
-0.085765615 -0.0078878086 1.1245 0.003833539085 0.7536297441 0.6572880149
0.26175633 -0.01256386 1.1746 0.06514076144 0.7403299809 0.6690800786
-0.27285022 0.16480702 1.5640001 0.9097963572 -0.07831348479 0.4075998068
0.23715648 -0.34598964 1.245 0.6141226292 -0.26045084 0.7449957728
0.12224766 -0.43888915 2.286 -0.05086161941 0.7202451825 0.6918525696
0.11379192 0.13316435 0.97668427 0.2834659517 0.3955723345 0.8735957742
0.0035478701 -0.23297679 1.3490001 -0.6071059704 0.07265914232 0.7912919521
0.040980659 -0.38638908 2.2260001 -0.06378873438 0.722926259 0.6879743338
0.41134891 -0.23544338 1.0254999 0.9092721343 0.159500435 0.384426564
-0.15486465 -0.084713265 1.1944001 0.02118005604 0.6802380681 0.7326852083
0.1148591 -0.038988873 1.202 -0.1052978858 0.7448558211 0.6588642597
0.26236296 -0.41405258 1.21 0.6068608761 -0.1974644065 0.769888103
0.32522359 -0.41530132 1.1559628 0.5785810351 -0.1469610482 0.8022757769
0.34162116 -0.17590339 1.1615001 0.8420745134 0.08950984478 0.5318820477
0.35487556 -0.013834677 1.1010001 0.8062972426 -0.1170862988 0.5798065066
0.22726393 -0.48229906 1.2252858 0.6448559761 -0.1610478759 0.7471441627
-0.23380116 0.064590469 1.4573333 0.6091871262 -0.371450305 0.7006537914
0.1531712 -0.25009984 1.365 0.7795902491 -0.1375337094 0.611002028
0.075286381 0.041504029 1.1010001 -0.1154690161 0.775926888 0.620164752
0.085438177 -0.16048522 1.317 -0.09261852503 0.6683949828 0.7380176187
-0.040750097 0.12831946 0.98900002 0.245136708 0.6141070724 0.7501869798
-0.054899331 -0.15625404 1.2845627 -0.0799965784 0.6981067657 0.7115107179
0.17553005 -0.36598369 1.2970002 0.6363495588 -0.1990173608 0.7452860475
0.2771658 -0.29502264 1.2246841 0.6874397993 -0.1579166949 0.7088645101
0.37476489 -0.10530182 1.0515386 0.9192489386 0.09727299213 0.3814700544
-0.025699703 -0.028753132 1.1610001 -0.172899574 0.7852110863 0.594600141
0.37886155 -0.17472804 1.0739411 0.9234496951 0.1531192213 0.3518453538
0.33568496 -0.28559873 1.1660001 0.7188939452 -0.08125581592 0.6903542876
0.19533561 -0.0047623189 1.1660439 -0.01074619405 0.7409027219 0.6715263724
0.44137976 -0.16814467 0.95900005 0.7069681287 -0.2041669786 0.6771350503
0.15436359 -0.092555083 1.2589999 0.0116759846 0.7150472999 0.6989786029
-0.045886662 0.038333304 1.077 -0.05665537715 0.7156231999 0.6961849928
0.4230811 -0.37928194 1.0630001 0.7469332814 0.08971657604 0.6588183641
0.18492997 -0.27482077 1.3130871 0.6346771717 -0.3807213604 0.6724850535
0.14596294 0.058746863 1.0856364 -0.01364513766 0.8161952496 0.5776150227
0.075781591 -0.0062020868 1.1544999 -0.1054420248 0.7374830246 0.6670837402
-0.14114334 -0.18179262 1.2880001 0.06233182177 0.4791970253 0.8754912615
0.43844989 -0.28454715 0.97764283 0.8995993733 0.2166291922 0.3792001605
0.39868921 -0.28504455 1.0647501 0.8861869574 0.09727609158 0.4530011117
0.076587059 0.18236391 0.98900002 0.4954349697 -0.2099407315 0.8428933024
0.035202317 0.2661528 1.0737998 0.6910514235 -0.2915147245 0.6614129543
0.1584312 0.096817754 1.0040001 0.2427014261 0.8864840865 0.3940075934
0.044386417 0.096880198 1.0158422 -0.03703267872 0.8005135655 0.5981693864
0.3259806 -0.089464709 1.1730001 0.8768823743 0.1070877835 0.4686250985
-0.14179744 0.023180721 1.1069999 0.1918284893 0.6379164457 0.7458313704
0.41266748 -0.096532106 0.99799997 0.7616251707 -0.01912815869 0.6477354765
0.29189739 -0.18487111 1.2332002 0.8520280719 -0.01789072528 0.5231903195
-0.076629326 0.092451185 1.0313751 0.214590773 0.6236128807 0.7517032623
-0.1152117 -0.044863947 1.1630003 -0.1384371072 0.7211993933 0.6787537336
-0.21203937 -0.076240197 1.2060002 0.2320110053 0.5890915394 0.774042666
0.27345473 0.073096856 1.086 -0.3857696354 0.4158855081 0.8235417604
0.24498089 0.024828674 1.1332 0.01193062402 0.7653638124 0.6434872746
0.002602122 0.357198 1.1426001 0.6838744283 -0.2508164346 0.6851327419
-0.063930042 -0.11160668 1.2360001 -0.175582543 0.6540135741 0.7358240485
-0.01792871 0.45560279 1.2030001 0.5217465758 -0.4260705113 0.7390834689
0.26837397 0.2004849 1.21 -0.770226717 0.5141499639 -0.3773600757
0.18501067 0.084626839 1.0524001 -0.08198938519 0.7756158113 0.6258577108
-0.015204908 -0.063142791 1.2044002 -0.2283170521 0.6938766837 0.682939589
0.044803254 -0.19571945 1.3448752 -0.1807410866 0.6801056266 0.7104850411
0.04418451 -0.12434837 1.2759166 -0.1439550817 0.6745215654 0.7240839601
-0.04191168 -0.19209521 1.3280001 -0.4816504717 -0.02527433261 0.8759988546
0.025358789 0.055027891 1.0746249 -0.1034571379 0.777794838 0.6199449897
0.19830726 -0.31930831 1.2780001 0.6759300828 -0.1255794615 0.7261875272
0.34507957 -0.36519086 1.1468464 0.7062446475 -0.1654658765 0.6883600354
0.30918938 0.35081351 1.3565001 -0.9900042415 0.09333117306 0.1057397947
0.35757211 -0.064927153 1.0838332 0.9173963666 0.08352416754 0.3891112804
0.34750357 -0.2344794 1.1556666 0.8715725541 -0.02312294208 0.4897209704
0.21944807 -0.21944807 1.2970001 0.5917762518 -0.1602766663 0.7900077701
0.26841629 -0.22573584 1.2571819 0.770116806 -0.2032914162 0.60464257
0.11440869 -0.12117656 1.2870001 -0.1076039672 0.6963579655 0.7095822692
0.26765949 0.1512434 1.135 -0.6838848591 0.5856255293 -0.4351370335
0.18385234 0.027886331 1.126 -0.01560449414 0.7598626614 0.6498963237
-0.16553345 -0.14561185 1.2528572 -0.07651994377 0.6716190577 0.7369345427
0.39885035 -0.33498934 1.0752499 0.7887737155 0.08497513086 0.6087818146
0.036451802 -0.078033857 1.2320002 -0.1013665423 0.7238065004 0.6825166941
0.20491491 -0.093197048 1.2555834 0.08996215463 0.7074173689 0.7010474205
0.35042995 -0.44716838 1.126 0.736800611 -0.1167019159 0.6659621
-0.23421729 0.01145628 1.452 0.7078443766 -0.2804039419 0.6483286023
0.34157389 -0.066928238 1.131 0.9341964722 0.1337371767 0.3307436407
0.07349097 0.13768488 1.01 0.8370383978 0.1344221383 0.5303747654
0.42338592 -0.20500797 0.98616672 0.8827311397 0.07082417607 0.4645101726
0.22541489 -0.39452901 1.2421767 0.675832808 -0.1485035717 0.7219395041
0.25632772 0.088083088 1.0430001 -0.7899575233 0.5631172061 0.2426233888
0.35789078 -0.16451675 1.1161876 0.9123687744 0.1160762161 0.3925679028
0.14522621 -0.013391903 1.1748668 -0.03669464216 0.7669255733 0.6406860948
0.35259882 0.033100504 1.1079999 0.7291833162 0.04040984437 0.6831242442
0.24338123 -0.042501852 1.2060001 0.002086869907 0.706628859 0.7075813413
-0.11434627 -0.10152239 1.2190001 -0.1427284479 0.6551234722 0.7419176698
-0.19213134 -0.045433246 1.1747779 0.1947525889 0.6269214749 0.75434798
0.28921571 -0.43654782 1.1764287 0.6472244859 -0.2153470367 0.7312496901
-0.038258608 -0.00098099001 1.1190001 -0.1329190731 0.75343889 0.6439427733
0.32671931 -0.13501747 1.1756668 0.8270746469 0.06559200585 0.5582519174
-0.094952814 0.023584295 1.0930001 0.1354733258 0.7020451427 0.6991277337
0.12922768 -0.16298987 1.3280001 -0.1304559261 0.6715772152 0.7293595076
0.26558602 -0.36498696 1.2155203 0.6116357446 -0.1598619521 0.7748199105
0.022160381 -0.01108019 1.149 -0.1087052673 0.7631812096 0.636975348
0.36579764 -0.27465776 1.1239376 0.8280181289 0.02397111244 0.5601886511
0.14613746 -0.061927855 1.2270001 -0.009889310226 0.70844239 0.7056993842
0.31518692 -0.46473762 1.1466925 0.5073264241 -0.1519757807 0.8482471704
0.0052652601 0.111448 1.001 0.04599156603 0.754142344 0.6550985575
0.39232272 -0.21526736 1.063 0.9151284695 0.1527642459 0.3730992079
0.37167239 -0.37525126 1.1132501 0.8006594777 -0.02539688349 0.5985811353
0.28237727 -0.14723325 1.2533334 0.8691828847 -0.07982910424 0.4880045652
0.075806342 -0.055618659 1.2122222 -0.08788979053 0.7299571633 0.6778184772
-0.013019961 -0.1347876 1.2729999 -0.2525629997 0.6385896206 0.7269217372
-0.095525801 -0.1709528 1.2880001 -0.3378510475 0.3056754172 0.8901793361
0.064664096 0.074081168 1.0544761 -0.04515499994 0.8273964524 0.5598000884
0.24530776 -0.30484709 1.2557504 0.5005991459 -0.3534546196 0.7902343869
0.1244516 -0.33889127 2.184 -0.05257620662 0.7164554 0.6956489086
0.25420019 -0.4557049 1.2045453 0.6928043365 -0.1358687878 0.7082102895
-0.1750147 -0.11489081 1.2247597 0.1035043076 0.6235731244 0.774882853
0.29502034 -0.39525047 1.1854999 0.5909273028 -0.1911930442 0.7837411165
0.42105493 -0.27681836 1.0232 0.9053066373 0.178032279 0.3856480718
0.26085302 0.1689889 1.1730001 -0.7114027143 0.5870643258 -0.3863440156
0.20555314 -0.36479214 1.2661818 0.7682054639 -0.08640731126 0.6343454123
0.31671405 -0.18542257 1.1941767 0.8267853856 0.04335293919 0.5608444214
-0.064642623 -0.043495089 1.1673334 -0.1271243691 0.763631165 0.6330140829
0.32517406 0.37733838 1.3840001 -0.9900042415 0.09333117306 0.1057397947
0.23109442 -0.43565693 1.2324446 0.7140972614 -0.05691719428 0.6977288127
0.10509481 0.061541997 1.08 -0.09844013304 0.799577117 0.5924407244
0.30903947 -0.27545965 1.197 0.7600474954 -0.1373538524 0.6351863742
-0.12832646 -0.010858393 1.126 0.05790971592 0.6316464543 0.7730907202
0.40314358 -0.19508137 1.0254799 0.8839657307 0.194374904 0.4252327979
0.29058871 -0.42486072 2.286 -0.05086161941 0.7202451825 0.6918525696
0.34523734 -0.32499149 1.1548666 0.7677194476 -0.0461534597 0.6391218305
0.004852287 -0.19412372 1.3362144 -0.1868612766 0.4893405139 0.8518384695
0.10654715 0.11067917 1.01 -0.05459009111 0.8177372813 0.5729970932
0.36158118 -0.20605174 1.13 0.8813098669 0.09848290682 0.4621623755
0.42956772 -0.24475546 0.97675008 0.8899722695 0.1199482605 0.4399565458
0.044365119 0.015969535 1.1246001 -0.178355366 0.7513640523 0.635327816
0.36726713 -0.026707264 1.0643126 0.8796896935 -0.2144744694 0.4244369566
-0.25501621 0.15087345 1.5230001 0.9270167351 -0.03872243315 0.3730154932
0.17252798 -0.32435265 1.3120002 0.7451084852 -0.05714744702 0.6644904613
0.14509402 0.082567163 1.0532143 -0.04202196375 0.8143723607 0.5788192749
0.038372029 0.22814365 1.061125 0.8224528432 -0.1792600751 0.5398492217
0.28237259 -0.25456971 1.2334288 0.7566107512 -0.1781627685 0.6291249394
0.13606989 -0.2159265 1.3760002 0.2746007442 0.1312803179 0.9525544047
0.42359021 -0.13510755 0.98494738 0.8024722934 -0.01814780943 0.5964133143
0.095024958 0.02158485 1.132 -0.1901138723 0.7274363637 0.6593125463
0.36834344 -0.13405554 1.0845 0.9214689732 0.1994313747 0.3333497643
-0.024338022 -0.22665815 1.3219999 -0.4454231858 0.365568012 0.8172870874
-0.15411347 -0.051897787 1.1677692 0.1288854629 0.6180503368 0.7755013704
0.16129878 -0.2825672 1.3430001 0.7259374857 -0.4022763669 0.5578426719
0.24497809 0.10553692 1.0820832 -0.3480478823 0.009711156599 0.9374264479
0.35271493 -0.40466195 1.1308 0.7296785116 -0.1877564788 0.6575080156
-0.24831846 0.089706667 1.483 0.8737300634 -0.1058030948 0.4747646749
-0.066153266 -0.31564558 2.1560001 -0.04932045564 0.7202891111 0.6919183731
0.017799839 -0.39357424 2.256 -0.06640467793 0.7187027335 0.6921392679
-0.035136759 0.095851734 1.0158639 0.06647615135 0.7091309428 0.7019360662
0.10587456 -0.066551439 1.2334547 -0.1326853484 0.7115629911 0.6899802685
0.38386369 -0.14549813 1.0443915 0.9049466252 0.1633735597 0.3929130733
0.18708563 -0.11285125 1.2830001 0.02291091345 0.7128476501 0.7009446025
-0.051400721 0.06884025 1.0470001 0.07170762867 0.7266197801 0.6832874417
-0.035729047 -0.087102339 1.2244285 -0.1197107658 0.6928095818 0.7111147642
0.39303264 -0.075190701 1.0254284 0.6849370599 -0.08799760789 0.7232687473
0.25549683 0.046444505 1.1050525 -0.007782123983 0.7763252258 0.6302844882
0.1052182 -0.016177027 1.1746473 -0.1716039479 0.7353771329 0.6555703878
-0.21858981 0.038944162 1.4330001 0.5136953592 -0.4067343771 0.7554364204
0.08450219 -0.18590972 1.3450001 0.05302174017 0.6557590365 0.7531060576
0.16543926 -0.037935115 1.2019999 0.02708085254 0.7580125928 0.6516774297
0.3861025 -0.30490303 1.0930741 0.854180932 0.009083762765 0.5198965669
-0.18605146 -0.34585026 2.1700001 -0.1195100546 0.6331096888 0.7647807002
0.17955886 -0.30052483 2.1560001 -0.05407811701 0.7221337557 0.6896364093
0.25769526 -0.49245432 1.1969999 0.7251061201 -0.06540830433 0.685523808
0.39442512 -0.38491604 1.0848927 0.7572309375 -0.03202012554 0.6523619294
0.29275233 0.2272279 1.2055557 -0.7592657804 0.5324375033 -0.3742002249
0.20784254 -0.28539357 1.2867501 0.6312061548 -0.2514238656 0.7337334752
-0.0047646835 0.039070401 1.087 -0.1953602284 0.7317410111 0.6529850364
0.33905381 -0.11422668 1.149 0.9085614681 0.1191880479 0.4003877044
0.054768875 0.19630879 1.02425 0.7511359453 -0.1863705814 0.6332935691
-0.10944745 -0.071922608 1.189 -0.1236181706 0.6947032213 0.7085943222
0.12530372 0.039825212 1.108 -0.03528441489 0.7972086668 0.602671802
0.060873974 0.12774962 0.97799999 -0.3293515146 0.4926956892 0.8054679036
-0.057988871 -0.19898142 1.2970001 -0.1503542364 0.08240970224 0.9851914644
0.22455977 -0.018124061 1.1813334 -0.07235373557 0.7026991248 0.7077986002
0.29907045 -0.30956414 1.197 0.7286429405 -0.1316069216 0.6721302271
-0.026252659 -0.16778874 1.302 -0.1795382649 0.7432983518 0.6444172859
0.055549104 -0.14876507 1.302 -0.1231315061 0.6805090904 0.722319901
0.31772617 -0.374742 1.1668667 0.6746385098 -0.1659550965 0.7192508578
0.024867367 0.07742098 1.0434545 -0.06810837984 0.827298522 0.5576185584
0.2790772 0.021005809 1.141 0.03835431859 0.7503044605 0.6599788666
0.22141093 -0.071283519 1.2320001 0.03714535013 0.6880742311 0.7246889472
0.075484321 -0.034022171 1.1851737 -0.1133241877 0.7664760351 0.6321962476
0.3899422 -0.25398174 1.077 0.880371511 0.1149563566 0.460142374
-0.014483848 0.14186378 0.97150004 0.0696195066 0.6308342218 0.7727879882
0.21521471 0.077494554 1.0670002 -0.08705767244 0.7704021931 0.6315864325
0.3718859 -0.065534875 1.0506155 0.8989281654 0.0275292974 0.4372302592
0.018222393 0.28772199 1.0940001 0.5968769193 -0.3307115436 0.7310046554
0.26149291 -0.32437602 1.2320002 0.6317315698 -0.2394121885 0.7372903228
0.44480741 -0.20483063 0.95519507 0.6955552101 -0.001386870514 0.7184712887
-0.084804289 -0.1448431 1.2650666 -0.1429183781 0.7223154306 0.6766349077
0.30457148 -0.15489025 1.2147778 0.8485549092 -0.003563459031 0.5290952921
0.30486959 0.29583642 1.2880001 -0.1528300494 0.7471785545 -0.6468130946
0.32915589 -0.21565385 1.177 0.7781791687 0.02284281328 0.6276267767
-0.07565546 0.049502034 1.0654 0.09962727875 0.6426926851 0.7596186996
0.4416407 -0.31170997 0.99757147 0.8827401996 0.2483277172 0.3988773525
0.0051504164 -0.03296442 1.1750001 -0.1294846535 0.75865978 0.6384896636
-0.05509166 -0.018031631 1.1426002 -0.1154164374 0.7823600173 0.6120390892
0.26346362 -0.27505413 1.2522223 0.7347935438 -0.2439500093 0.6329035163
0.39340633 -0.11534694 1.0254613 0.8052146435 0.04846744612 0.5909994245
0.19220799 -0.39229956 1.2846668 0.6383945346 -0.1506886929 0.754814744
0.16418827 0.0090656104 1.149 -0.03011187911 0.765866518 0.6422941089
-0.049667548 -0.13134308 1.2590001 -0.1644617766 0.6855044365 0.7092503309
0.02530029 -0.10559437 1.2546504 -0.1099480689 0.6782699227 0.7265406847
-0.064612053 0.014163312 1.1029128 -0.02327878401 0.7214019895 0.6921252012
0.32784262 -0.25523886 1.177 0.7256649733 -0.13238208 0.6751927733
0.22457656 0.0070896018 1.1556665 -0.04876758531 0.7730448842 0.6324740052
0.07582593 0.094803646 1.0260499 -0.1347562671 0.8159911633 0.5621380806
-0.14544252 -0.12618177 1.2344 -0.1386286765 0.7008603215 0.6996977329
0.30169082 0.07058832 1.103 -0.3991468251 0.44970873 0.7990268469
0.13505517 0.10299981 1.0264999 0.02595067024 0.8561537862 0.516068995
0.085063189 -0.13429178 1.29375 -0.142545715 0.6854294538 0.7140498161
0.2239103 -0.4478206 2.3010001 -0.05086161941 0.7202451825 0.6918525696
0.20243283 -0.24729013 1.3120002 0.6487585902 -0.2891082168 0.7039380074
0.18554147 0.062949158 1.081875 -0.05335438997 0.8056045175 0.5900463462
0.3766416 -0.20487839 1.0927392 0.9002504349 0.1645830423 0.403065294
0.41318735 -0.31502467 1.052619 0.8600875735 0.1493128538 0.4878063798
0.35925713 -0.10005835 1.087 0.9215296507 0.1324874908 0.3650071323
0.0069344332 0.32789966 1.13 0.6772474647 -0.2664077878 0.6858299971
0.11582219 -0.097760856 1.2651428 -0.1257269979 0.7029601932 0.7000283599
0.29563594 -0.21543573 1.2242725 0.8202570081 -0.08136684448 0.5661783218
-0.12476842 -0.15869471 1.273 -0.1173704788 0.6898388267 0.7143854499
0.018033033 -0.058342166 1.21 -0.1185043678 0.7277195454 0.6755597591
0.42004254 -0.17219135 0.99200004 0.8475091457 0.03033058718 0.5299135447
0.22731659 0.077278607 1.031 -0.2659496069 0.6766483784 0.6865987182
0.21482147 -0.45442462 1.2520714 0.7417013645 -0.1670686156 0.6495899558
-0.063160911 0.11126945 1.0100001 0.2704671919 0.5976465344 0.7547622919
0.24366464 -0.23384853 1.2830001 0.5545994043 -0.1965896189 0.8085616827
0.17523368 -0.076842926 1.2415334 0.001343643176 0.731015861 0.682359159
0.15544583 -0.11714797 1.2848752 0.001503860462 0.7115601897 0.7026235461
0.21478909 0.033030387 1.12475 -0.00669870479 0.7728477716 0.6345561147
0.16124354 0.039825212 1.108 -0.03263660893 0.7999517322 0.5991761684
-0.01200332 -0.00900249 1.141 -0.2300535291 0.7490953207 0.6212338805
0.044464644 0.038695082 1.0966251 -0.1491069347 0.7611929178 0.6311516762
0.28272799 -0.33435458 1.2113847 0.6228483319 -0.2295476198 0.7479089499
0.4239307 -0.35473132 1.0437779 0.8541345596 0.144837454 0.499475956
0.32408917 -0.31510386 1.1754001 0.6632170081 -0.06583169103 0.7455262542
0.065815747 -0.20654178 1.365 -0.1578393281 0.7346699834 0.6598081589
0.34582812 -0.14447546 1.1473638 0.9203098416 0.09461078048 0.3795769215
-0.01531812 0.056352712 1.0638094 -0.1790468693 0.7525648475 0.6337100267
-0.095469519 -0.02713698 1.1463335 -0.05548044294 0.7576211095 0.6503323913
0.050934333 0.25497851 1.0500001 0.8033786416 -0.2012165189 0.5604414344
-0.044746827 -0.0634524 1.1963334 -0.17623505 0.7126455903 0.6790269017
-0.0086489012 0.43375072 1.1836667 0.5461342931 -0.2720694542 0.7922850251
0.18643886 0.08806932 1.0127001 -0.184504658 0.5929040313 0.7838513255
0.1419629 0.12229876 0.98142862 0.004972436 0.5754062533 0.8178526163
-0.085067526 -0.093458503 1.216 -0.1372881532 0.6641834378 0.7348552942
0.24460027 0.073540017 1.0762939 -0.2039830983 0.5138605237 0.8332695961
0.36158118 -0.24518174 1.13 0.859008491 0.04997459054 0.509516418
-0.12398766 0.037376292 1.087 0.2019054145 0.6095616817 0.7665955424
-0.054470807 -0.22367799 1.322 -0.09242157638 0.4967183471 0.8629769087
0.3358247 0.020803301 1.13 0.6105556488 0.07445276529 0.7884659767
0.10001013 0.16349483 0.99200004 0.3772633076 -0.09136623889 0.9215881228
0.054807324 -0.17403702 1.3264002 -0.1841297448 0.7214516401 0.667535603
0.054869004 -0.094850011 1.2517859 -0.1107729524 0.7230256796 0.6818820834
-0.1410206 -0.032233283 1.149 0.1254277378 0.6758952737 0.7262461185
0.034426551 0.11577917 0.99458653 -0.03948740289 0.7756815553 0.6298879385
0.12391045 -0.14158855 1.307 -0.07568512857 0.6884803772 0.7212950587
0.38172665 -0.34599072 1.1018 0.7957965732 0.01516620815 0.6053740978
0.35925713 0.012388176 1.087 0.7886919379 -0.07998944074 0.6095627546
0.45111537 -0.26546276 0.95825005 0.7813924551 0.1798611581 0.5975582004
0.3486343 -0.26446956 1.149 0.8445288539 -0.0276848264 0.5347939134
0.014639854 -0.13706142 1.2843637 -0.1111115441 0.6908337474 0.7144249082
0.39114645 -0.1748115 1.0439999 0.8907746077 0.1913041174 0.4122175872
-0.18137005 -0.071922608 1.189 0.2566187978 0.6392974854 0.724876225
-0.10470416 -0.20398927 1.2870001 -0.289920181 0.4158119559 0.8620015383
0.27581614 -0.19507559 1.2560002 0.7993757725 -0.07249927521 0.5964412689
-0.023954757 0.021497859 1.101 -0.2150050253 0.722446084 0.6571487784
0.0075296899 -0.080675252 1.2270001 -0.1731764078 0.7003706694 0.6924527287
0.37987283 -0.27312374 1.097 0.881505847 0.06632638723 0.4674914479
0.24466985 -0.20452434 1.2847649 0.5298921466 -0.1489522606 0.8348817229
0.31396782 -0.10535412 1.1946002 0.8385823369 0.08294224739 0.5384238362
0.19503419 -0.032916315 1.1956668 0.004580266308 0.7313681841 0.6819674373
0.0040490311 0.38527736 1.1549999 0.6260690093 -0.380048573 0.6808822751
-0.26796544 0.17370623 1.536 0.9270167351 -0.03872243315 0.3730154932
-0.14530919 -0.10393284 1.2143126 -0.09618207067 0.640283227 0.7620934248
-0.20799968 -0.099711187 1.223 0.1679569036 0.563174367 0.8090890646
0.17242806 -0.25610062 1.3379999 0.7586438656 -0.3043126762 0.57606709
0.35276324 -0.29359969 1.1438891 0.8243929148 -0.02554372326 0.5654412508
0.11490261 0.003411877 1.1535 -0.1095903367 0.729626596 0.6750074029
0.05471101 0.057539571 1.0759999 -0.1006625965 0.8030406237 0.5873608589
0.065594696 0.11124424 1.0014286 -0.1019528657 0.7255217433 0.6806054711
0.044543285 -0.023722744 1.168 -0.08447331935 0.7389360666 0.6684592366
0.22051322 -0.33132389 1.2640001 0.6318166256 -0.1513987631 0.7601882219
-0.087447502 0.070878498 1.0500001 0.1978145689 0.6591585279 0.725520134
-0.15327719 0.0039440361 1.1251 0.255921185 0.5820752382 0.7718113661
0.33392191 0.053773515 1.1152666 0.3403797448 0.4206840098 0.840931952
0.42374563 -0.25572631 1.0038 0.9276783466 0.1434495598 0.3447247446
0.023570562 -0.2128133 1.3540001 -0.2495213151 0.3007254004 0.9204908013
0.34560478 -0.20584483 1.1552498 0.8712803125 0.03193391487 0.4897456467
0.40208426 -0.24533375 1.0525 0.8878179789 0.1829066277 0.4222847819
0.24484465 -0.3743462 1.2329526 0.592236042 -0.185861662 0.7840356827
0.074978963 -0.07606253 1.2335557 -0.120962888 0.7400838137 0.6615465879
0.31652552 0.33322725 1.3337144 0.02976726554 0.74556458 -0.6657682657
-0.033237059 0.46853533 1.223 0.5175394416 -0.4404298663 0.7336037159
0.19141841 -0.34319392 1.2920001 0.7081007361 -0.1426695287 0.6915480494
0.3093625 -0.43919334 1.1570001 0.5711280704 -0.228541702 0.7884043455
0.25527394 0.0060707419 1.1545999 0.08548825979 0.7752861977 0.625797987
0.32589582 -0.34517422 1.1668949 0.6307234168 -0.09994192421 0.7695450187
0.094190821 -0.43888915 2.286 -0.05086161941 0.7202451825 0.6918525696
0.075237848 -0.1167638 1.2741765 -0.09909820557 0.6887364388 0.7182072401
0.28836459 -0.36511362 1.1954615 0.6425086856 -0.1917077452 0.7419102192
0.34906089 -0.048758741 1.105 0.9339242578 0.04917244613 0.354072839
0.28314671 0.049285322 1.1023334 -0.40062356 0.6138785481 0.6801866889
-0.090299293 -0.11858582 1.2410001 -0.1505500525 0.6854698658 0.7123662829
-0.024491262 -0.047119252 1.1838 -0.2062962651 0.7545955777 0.6229184866
-0.035775304 -0.11193427 1.245 -0.1442464143 0.6817502975 0.7172234654
0.31791878 -0.15739585 1.189 0.8177949786 0.05088055879 0.5732560754
0.17526932 -0.018669493 1.1830002 0.001514290576 0.7191905975 0.6948111653
-0.21980751 -0.32501453 2.1430001 -0.1195100546 0.6331096888 0.7647807002
0.16085957 0.097240448 1.0366668 0.02279039659 0.8870793581 0.4610539675
0.28224108 0.17315014 1.1416668 -0.7199851274 0.5685009956 -0.3980301917
0.167564 -0.29536414 1.3165456 0.7387030125 -0.1692581922 0.6524335146
0.044723276 -0.057460483 1.2105715 -0.05573813245 0.7356947064 0.6750159264
0.041151434 0.29337755 1.0816 0.6281315684 -0.3387364447 0.7005057931
0.27553692 0.19629492 1.1846924 -0.7367871404 0.5664548278 -0.3691526651
0.087689087 0.13815252 0.98757142 0.48601529 0.1569830626 0.8597356677
0.02067443 0.3494963 1.123 0.7086392641 -0.2100539505 0.6735783219
0.01484399 0.092172183 1.0238461 -0.007528624032 0.7814050913 0.6239786744
0.21854317 -0.30524901 1.268 0.5998482704 -0.2619939148 0.7560034394
0.35615948 -0.34487259 1.134129 0.8211022615 -0.0943832472 0.562923491
-0.13493215 -0.067470901 1.1839999 -0.1025061235 0.6872242093 0.7191768885
-0.18079145 -0.09198162 1.2060001 0.1814079136 0.6491745114 0.7386904359
0.19535176 0.013181559 1.1444285 -0.03390158713 0.751865387 0.6584444642
0.10550759 -0.17579034 1.3330001 -0.1381423622 0.6513155699 0.7461264729
0.42034325 -0.22640617 1.001 0.9318113327 0.1526142806 0.3292969167
0.27287742 0.13822901 1.113 -0.7185531855 0.6091028452 -0.335671097
0.18671253 -0.30550385 1.2966877 0.6237074733 -0.1885094941 0.7585862875
0.35939389 -0.43495378 1.105 0.6591787934 -0.1527724117 0.7363042235
0.2223776 -0.25182661 1.2919999 0.560025692 -0.3713517785 0.7405869961
0.15930085 -0.35253221 1.312 0.6487585306 -0.24862957 0.719232738
0.4072879 -0.12506306 1.00604 0.7660150528 -0.0002377235651 0.6428226233
-0.19415683 -0.14200976 1.245 0.03262311593 0.6191462874 0.7845977545
-0.11990696 0.010723387 1.1120001 0.132567808 0.6377317905 0.7587647438
0.34307304 -0.094877757 1.1329476 0.9395975471 0.116112344 0.3219851255
-0.075125009 -0.17605285 1.3023334 -0.3389801979 0.2826714218 0.8973234296
-0.01043058 -0.17963776 1.322 -0.2054934949 0.7069877386 0.6767132282
-0.23143561 0.015012041 1.427 0.6570089459 -0.2126524001 0.723269105
-0.25693786 0.10277514 1.503 0.8952884078 -0.1238173395 0.4279345572
0.33332106 -0.44481924 1.1444786 0.6348111629 -0.1427449435 0.7593672872
0.20797302 -0.40506646 1.2589999 0.8059152365 -0.05074809864 0.5898518562
0.27610987 -0.38531381 1.205 0.6538716555 -0.191473186 0.7319766879
0.3993839 -0.36161712 1.077 0.7699186802 0.02270213328 0.637738049
0.1246879 0.072819032 1.0640669 -0.01957616955 0.8352066875 0.5495876074
0.055448446 0.0022746311 1.1424546 -0.1116730198 0.7191941738 0.6857761145
0.27551126 -0.45517293 1.1859598 0.6243926883 -0.2182388902 0.7500036955
0.016907832 0.031396501 1.102 -0.136652261 0.7275529504 0.6723041534
0.4312638 -0.28585112 1.0022501 0.9067775607 0.2169488221 0.3615074456
0.27830923 -0.41798502 1.189 0.6304834485 -0.1718046218 0.7569503188
0.0055464678 -0.11646611 1.2652308 -0.1639314741 0.6508658528 0.7412827611
0.025496975 -0.17847882 1.322 -0.0812920779 0.7346480489 0.6735605597
-0.01820749 0.11791518 0.98900002 0.02955713868 0.7004669309 0.7130725384
-0.085989922 -0.051857624 1.1766365 -0.09009798616 0.7386220694 0.6680716872
0.44806522 -0.15910184 0.98100007 0.7254780531 -0.1222382337 0.6773030162
0.36903813 -0.16444468 1.0942143 0.9071724415 0.1314976215 0.3996830285
0.30935425 -0.20574279 1.2060001 0.7950288057 -0.003636929905 0.6065607667
-0.1253017 -0.085347511 1.2040001 -0.1417288929 0.6964902878 0.703430295
0.18495305 0.045707684 1.1055415 -0.05289184302 0.8062016964 0.5892718434
0.065711603 0.026479948 1.1187335 -0.1123991981 0.7488015294 0.6531941891
0.24419911 -0.40512222 1.22375 0.6781765819 -0.147144556 0.7200173736
0.26095912 -0.2537564 1.2640001 0.7066200972 -0.2076499611 0.676438868
0.3044906 -0.41466433 1.1741036 0.664459765 -0.2038613707 0.7189810872
0.065062717 0.16604573 1.0029614 0.8015891314 0.02615864761 0.5973027349
-0.0045349966 -0.15419319 1.29325 -0.2388561517 0.6487721801 0.7225250602
0.29640102 -0.26552162 1.2168947 0.7174986005 -0.1518284529 0.6798116565
0.10102005 0.039825212 1.108 -0.1077605113 0.780533433 0.6157557964
0.0043413881 0.067661397 1.0550771 -0.1001032069 0.7745566964 0.6245328784
0.13909982 -0.02823831 1.1930001 -0.07864186168 0.7368466258 0.6714704037
0.13501281 -0.077307977 1.2420001 -0.02005484328 0.7252468467 0.6881967783
0.18198198 0.10673942 0.99800003 -0.1709063053 0.5953406692 0.7850863338
0.12163224 0.10955528 0.98400003 0.2527629435 0.7890716195 0.5598900318
0.16486385 0.074318372 1.0641904 -0.00910453219 0.8075203896 0.5897693634
0.37105882 -0.0066091898 1.077 0.8638916612 -0.129071489 0.4868590236
0.054343689 0.086093679 1.0349001 -0.05748616159 0.8325765729 0.5509188771
-0.1512513 -0.1624551 1.2780001 -0.1346369237 0.6866894364 0.7143741846
0.35186258 -0.074829571 1.1049373 0.9269643426 0.1085621044 0.3590980172
0.21455331 -0.042699631 1.2056001 -0.04728431255 0.7195196748 0.6928604841
0.25255889 0.12253784 1.067 -0.963968575 0.258942008 0.06093971431
0.29265675 -0.12946525 1.2410001 0.858894825 -0.009122641757 0.512070775
0.41196999 -0.28719273 1.04275 0.8792942166 0.1250650138 0.4595654309
0.12489548 -0.054017331 1.2176667 -0.02837338485 0.744636476 0.6668668985
0.43671742 -0.22498089 0.96512938 0.8101280332 -0.01138206199 0.5861424804
0.3351146 0.01165616 1.108 0.73139745 -0.02799138241 0.6813766956
0.1374118 -0.24213533 1.381 0.6574010253 0.05387526006 0.7516125441
-0.20430189 -0.061499044 1.189 0.2592975497 0.6173524857 0.7427251339
0.085370302 0.067639142 1.0642501 -0.1381956488 0.828818202 0.5421829224
0.27231723 -0.16593897 1.2640001 0.8231685758 -0.07525817305 0.5627874732
-0.034659896 -0.14423038 1.2753333 -0.1741737276 0.6581206322 0.7324894071
-0.036665708 -0.21311942 1.307 -0.406957984 -0.09102000296 0.9089007378
0.31304249 -0.13390908 1.2043334 0.8571180701 0.02932540514 0.5142845511
0.37397218 -0.29485476 1.1148261 0.8477112651 -0.00152510358 0.5304557085
-0.074819744 0.033070371 1.0822858 0.02132170834 0.6911693215 0.7223782539
0.36857584 -0.084617235 1.064 0.9245272279 0.08920861781 0.3705283403
0.3364349 -0.39586499 1.149 0.6890115142 -0.1502187252 0.7090115547
0.31526354 -0.29472044 1.1851479 0.7699649334 -0.1645309031 0.6165091991
-0.13581467 -0.1438971 1.2561667 -0.1846769005 0.7095227838 0.6800528169
0.22168872 -0.37368849 1.251875 0.6124148369 -0.1179274097 0.7816912532
-0.053736228 0.086773276 1.0264999 0.1729819924 0.6825057864 0.7101148367
0.26525339 0.032538716 1.1248002 -0.001629657694 0.7506114841 0.660741806
-0.054142054 -0.078827664 1.2110001 -0.1611878276 0.7290835977 0.6651733518
0.015233742 0.12449231 0.9845677 0.07047860324 0.7057183385 0.7049782872
0.38446376 -0.22506835 1.0843599 0.9000387788 0.07832625508 0.4287134409
0.29613468 -0.45608306 1.1658335 0.6370161772 -0.1946020275 0.7458823323
0.33255211 -0.079852939 1.153 0.9125600457 0.1240184829 0.3896839619
0.35563341 -0.035544857 1.0822308 0.9046438336 -0.1014355943 0.4139206707
0.43168056 -0.18552327 0.97075009 0.7946433425 -0.02488961071 0.6065661311
-0.0026298903 -0.21570525 1.3336251 -0.6301296949 0.01815300621 0.7762776613
0.26690954 -0.43641242 1.1964669 0.636316359 -0.2027063966 0.7443195581
0.0057522487 -0.049155578 1.1930001 -0.1175328344 0.7572203279 0.6424977779
0.03446215 -0.14451966 1.2941874 -0.1420693696 0.6817290187 0.7176780701
0.25456315 -0.027401621 1.1930001 0.01586584561 0.7065784931 0.7074567676
0.42723247 -0.30383444 1.0174117 0.8965500593 0.1617972106 0.4123344123
0.41142604 -0.26438931 1.04175 0.9126039147 0.1271024495 0.3885859549
0.04654311 0.2190264 1.041 0.8017452359 -0.1851472706 0.5682649612
0.36289361 -0.14517643 1.1046817 0.9128251076 0.1557450145 0.3774835467
-0.01630321 0.0066805985 1.1179092 -0.2077791244 0.7445999384 0.6343490481
0.3778508 -0.15238164 1.0651819 0.9319925308 0.1865111142 0.310811162
0.14562193 -0.045829207 1.211 -0.04086617008 0.7101659775 0.7028471828
0.24495602 -0.43488958 1.2145 0.7009467483 -0.1398060322 0.6993768215
0.40197268 -0.21553551 1.0425001 0.8976686597 0.1963348389 0.3945169747
-0.12496384 -0.11582007 1.2329233 -0.1422499716 0.6689321995 0.7295852304
0.3523522 -0.1351946 1.1243846 0.9213910103 0.1429980844 0.3613725305
0.35689679 -0.31537145 1.135524 0.8264193535 -0.02448062599 0.5625226498
0.36856332 -0.18464752 1.1041874 0.9004081488 0.1623406708 0.4036219716
0.055914775 -0.044384565 1.1958891 -0.1055357158 0.7847865224 0.6107145548
-0.073532172 -0.031225991 1.149 -0.08797303587 0.7542224526 0.650699079
0.24479753 -0.28442314 1.2650908 0.4344147146 -0.2761173844 0.8573465347
0.25633907 -0.38599256 1.2155555 0.5776489377 -0.2368380874 0.7811717987
0.25657889 -0.34566972 1.227 0.6382607818 -0.2494075 0.7282987237
0.015243582 0.0034432372 1.1325884 -0.128347978 0.7468318343 0.6525097489
0.3513557 -0.185506 1.1438001 0.9051225781 0.08913500607 0.4157018661
0.37395835 -0.12469862 1.0626428 0.9226281047 0.1594669372 0.3511803746
0.28420457 -0.21516696 1.243476 0.8092333078 -0.150742352 0.5678187609
0.11540256 0.027616665 1.1251001 -0.05997882038 0.783424437 0.6185860634
0.13503559 -0.10601969 1.273 0.0001791174582 0.7130849361 0.7010776401
0.14363851 -0.15194264 1.3149999 -0.02248202451 0.7053176165 0.7085348368
-0.0055792448 0.09691038 1.0161579 -0.04626379535 0.7522393465 0.6572636962
0.16103263 -0.31388506 1.3330001 0.7339878678 -0.1499938369 0.6623923779
-0.11472587 -0.18446119 1.2830002 -0.02091086283 0.1443713903 0.9893025756
-0.17582197 -0.037683833 1.1617274 0.1745928228 0.6183924675 0.7662298083
0.30319685 -0.18535735 1.2124349 0.8191671968 -0.02276700735 0.5731027722
0.17480119 -0.10199053 1.268 -0.001188302995 0.706119597 0.7080916166
0.29053435 -0.15444762 1.2320001 0.8291711807 -0.02297954448 0.5585222244
-0.2374364 0.085990481 1.4640001 0.777897954 -0.2125779688 0.591342032
0.40534148 -0.3922458 1.067 0.6986317039 -8.281900227e-05 0.7154815197
0.26209143 -0.30427986 1.2413077 0.7053346634 -0.2578028142 0.6603338122
0.27983463 0.23158729 1.223 -0.7818391323 0.5445120931 -0.3037008047
0.15497889 0.028626675 1.126 -0.01091715321 0.7775981426 0.6286667585
0.20671061 0.079071447 1.0232859 -0.1894187778 0.5859315395 0.7879116535
0.17476261 -0.057896815 1.2229999 0.007584337611 0.7166068554 0.6974360943
0.16693662 -0.37308654 1.2780001 0.5497868657 -0.1119002029 0.8277757764
