# .PCD v0.7 - Point Cloud Data file format
VERSION 0.7
FIELDS x y z normal_x normal_y normal_z
SIZE 4 4 4 4 4 4
TYPE F F F F F F
COUNT 1 1 1 1 1 1
WIDTH 512
HEIGHT 1
VIEWPOINT 0 0 0 1 0 0 0
POINTS 512
DATA ascii
-0.1754249 -0.027981251 1.0600001 -0.1407466531 0.6916208863 0.7084143758
-0.096987963 -0.48493984 2.1980002 -0.282941401 0.9550235271 0.08873701841
0.32152626 -0.41166514 1.0600001 0.6260408163 0.3166372478 0.7126105428
0.39486644 -0.1589949 1.9930001 -0.8081275821 0.5200508833 0.2765446007
0.16205797 0.29773441 1.4330001 -0.6842131615 0.6390637755 -0.3513543606
-0.37825713 -0.0042500799 1.6160001 0.4682705998 0.8486261964 -0.2460816652
-0.041848559 -0.32371092 1.404 0.652862072 0.5583264828 0.5119009614
-0.18302403 0.42452756 1.2353334 0.408739984 -0.4648506343 0.7853951454
0.22047991 -0.028931754 1.138 0.5657569766 -0.009540002793 0.8245168924
-0.46677241 -0.46319559 2.0400002 -0.2444056422 0.7105160356 0.6598733664
-0.29545432 -0.24727397 1.2410001 0.1844600439 0.5817946792 0.7921423316
0.097247742 -0.49478802 1.219 0.5211911201 -0.3244916797 0.7893446088
0.07060235 -0.30956414 2.0650001 -0.2829664648 0.9545206428 0.09391636401
-0.087660529 0.22531211 1.081 0.6783568859 -0.2392691076 0.6946813464
-0.0064540198 -0.13015607 1.2270001 -0.2387458831 0.7051038742 0.6677042246
-0.37530538 -0.046939716 1.373 -0.6547169089 0.2547358274 -0.7116568089
0.1883399 -0.26657033 1.1962001 0.7394188046 -0.09491972625 0.6665208936
0.045183994 0.045421179 1.0052272 -0.2198732644 0.4698579311 0.8549206257
0.14734575 0.1616905 1.245 -0.3247653842 0.7566372752 -0.5674746633
0.31806344 -0.19442187 1.0220001 0.6518133283 -0.1400523037 0.7453352809
-0.45639968 0.10491946 1.4960002 -0.9341747761 -0.3457666039 -0.0881075561
-0.32193041 -0.10927913 1.123 0.1246080473 0.5036571622 0.8548697233
-0.12488205 -0.23513192 1.2846669 -0.3265798688 0.6412001848 0.6944119334
0.074662313 -0.34545118 1.2839527 0.5161042213 -0.2685867846 0.8133249879
-0.11543972 0.082325287 0.95736372 -0.007087370846 0.5720981956 0.8201545477
-0.1755318 -0.13448505 1.175154 -0.2080999166 0.7030385733 0.6800228953
-0.31316462 -0.44095019 2.0530002 0.09305503964 0.9762964249 0.1954124421
0.095752455 -0.41535005 2.1700001 -0.3365032673 0.9395648837 0.06311412901
0.064587176 -0.033686239 1.1352632 -0.09883514047 0.7740286589 0.6253888607
0.21420275 -0.42257616 1.1610001 0.6029698849 -0.114869386 0.7894506454
-0.14351121 0.31857452 1.161 0.4393385649 -0.4634106457 0.7695662379
-0.28772637 0.091230318 1.6010001 0.03852760792 0.9773552418 0.2080682516
0.23188002 -0.16450262 1.1247501 0.8826442361 0.1291805208 0.4519420266
0.14398424 0.078508906 1.1432222 -0.4067416489 0.7470440269 -0.525819838
-0.063932091 -0.056995898 1.1306667 -0.2050260007 0.7118599415 0.6717289686
0.27042538 -0.29527009 1.09 0.8395991325 0.1330788434 0.5266529322
0.34166592 -0.31165761 0.97800004 0.7838360071 0.1110111177 0.6109644771
-0.005726825 -0.22214337 1.3061668 -0.09686913341 0.6052049994 0.7901539803
0.13958462 0.23342302 1.3380001 -0.7455892563 0.5170475245 -0.4204266071
-0.066064551 0.01874559 1.0380001 -0.1451245844 0.797488451 0.5856201649
0.01804141 -0.44274372 1.2953334 0.6147965789 -0.104136847 0.7817804217
0.11653759 -0.23625723 1.2772307 0.5468285084 -0.1668703407 0.8204467893
0.10296948 -0.10320969 1.2136668 -0.09017989784 0.7276554108 0.6799890995
-0.048442554 0.14294721 1.0170001 0.586982131 -0.2803625166 0.7595056891
-0.42261031 0.023127928 1.439 -0.4357461333 0.4232520759 -0.7943443656
-0.35180965 -0.18781129 1.1810001 0.2295155823 0.4783947468 0.8476208448
-0.20415577 -0.29434806 1.2648889 -0.3144885302 0.06706415862 0.9468893409
0.15260458 -0.36417815 1.223 0.6819229722 -0.1360024214 0.7186685205
0.18139111 -0.1654796 1.21 0.8074336648 0.1234569028 0.5768962502
0.1210063 0.015946567 1.0700001 -0.5839208364 0.773173213 0.2474665493
-0.45999488 0.03139431 1.557 -0.9567629099 -0.1893353909 -0.2208094746
0.27041659 -0.10779493 1.0600001 0.7602579594 0.019522544 0.6493279338
-0.26531178 -0.050985176 1.077 0.1661003828 0.5322819948 0.8301123977
-0.095044695 -0.15876783 1.2320001 -0.1994139999 0.6538894773 0.729837358
-0.26170999 -0.16916029 1.1730001 -0.2690121233 0.6253507733 0.7325085998
-0.18574667 0.041829567 1.001 0.1467683613 0.5820124149 0.7998253703
-0.19483566 -0.20780945 1.2330002 -0.262470156 0.5832030177 0.7687546015
0.0027311088 -0.36366764 1.3357779 0.7284158468 -0.3241093457 0.6036252975
-0.39058656 -0.41886431 2.016 0.3660289049 0.8352437615 0.4103544056
0.065843806 -0.1640515 1.273 -0.1585997939 0.6664988995 0.7284402847
0.22692604 -0.33532855 1.1555998 0.7455709577 -0.01503436454 0.6662566662
-0.1017056 -0.29210797 1.3490001 -0.3276251853 0.6766292453 0.6594198942
0.014935723 0.0063979132 1.0753683 -0.09091746807 0.8047641516 0.5865907073
0.34623426 -0.19687828 1.9360001 -0.4858426452 0.8640150428 0.132041499
-0.1437113 -0.078697681 1.1236668 -0.2682220638 0.7302706242 0.6283006668
0.26706335 -0.45391634 1.1065383 0.7486799955 -0.05209685117 0.6608813405
0.14147559 -0.04580145 1.161 -0.04583088309 0.726629436 0.6854992509
0.096784629 -0.41571844 1.2441999 0.4012274146 -0.4154893756 0.8163241744
-0.23451953 -0.10525961 1.1251428 -0.2690359056 0.6775566339 0.684497416
0.0045092227 -0.071942598 1.1689999 -0.1751274019 0.7329789996 0.6573219895
-0.024499433 0.074948579 0.98812002 0.1753130108 0.2247616947 0.9585132003
0.16483819 -0.48483786 1.1838332 0.5575025082 -0.2478728443 0.7923067808
0.26733738 -0.37523746 1.105476 0.8028210998 0.04249091446 0.5947039723
0.26677763 -0.21487862 1.0729089 0.8751755953 0.1277003288 0.4666479528
0.23759478 -0.24488746 1.1340002 0.8636885285 0.07576149702 0.4982994199
-0.065385833 -0.10690897 1.1839334 -0.1797287613 0.7557633519 0.6296977997
0.29858524 -0.26457089 1.0265 0.815207243 0.1004717648 0.5703881383
0.30818611 -0.34479532 1.0365716 0.8841085434 0.1402093768 0.4457504153
0.14450075 -0.2951799 1.2429047 0.7391935587 -0.1291973293 0.6609848142
-0.10488527 -0.026766229 1.0831817 -0.2530334294 0.7385563254 0.6249068975
-0.064982042 -0.20054802 1.2780001 -0.1518713087 0.6672610044 0.7291761041
0.16455735 0.0068958602 1.1240002 -0.4729347527 0.4627733231 0.7497823238
-0.12253642 0.26263374 1.1254001 0.4928924143 -0.3863858581 0.7795915604
0.22711962 -0.097943097 1.1135 0.8264077306 -0.08433880657 0.556720078
-0.15609722 0.3753942 1.1950001 0.2745191455 -0.4874444604 0.8288770318
-0.14769974 -0.30201972 1.302 -0.7091725469 -0.03929788992 0.7039389014
0.13731201 0.12054312 1.1956667 -0.3932950795 0.7134395838 -0.5799335241
-0.062583484 -0.24917497 1.322 -0.1461817473 0.6526111364 0.7434579134
-0.12714969 0.018759791 1.0190001 -0.1860478669 0.7422210574 0.6438121796
-0.23382686 -0.0065733264 1.0437273 0.1195876226 0.5417895913 0.8319632411
0.15521626 -0.42490739 1.2037389 0.5928711295 -0.1521483958 0.7907937169
0.054557521 -0.49275059 1.2661538 0.7555203438 0.009541369975 0.6550557017
0.3410565 -0.24410242 0.98581833 0.6370468736 -0.1495692432 0.7561748028
0.16327423 -0.22488698 1.2349092 0.8201195598 -0.09883964807 0.5635908246
-0.0064745336 -0.030803088 1.1190001 -0.214820236 0.7671060562 0.604483664
-0.026448857 -0.28664845 1.3590001 0.3671659827 0.4144385755 0.8327243328
0.085589305 -0.2865774 1.2880001 0.5319168568 -0.1813607216 0.8271473646
0.21080765 -0.20875099 1.1730001 0.7834237814 0.05268111452 0.6192510724
-0.0044464529 -0.17285587 1.2679999 -0.1998978555 0.6505131721 0.7327165008
-0.23505487 -0.24603733 1.2521875 -0.2839184105 0.4356251955 0.8541785479
-0.20490435 -0.067537695 1.0912001 -0.1670961529 0.6809920073 0.7129718065
0.045256883 -0.101755 1.2056365 -0.1084375307 0.7031866312 0.7026876211
0.13716349 0.19339529 1.29575 -0.6511242986 0.6452826858 -0.399559021
0.19444433 -0.37472498 1.1855453 0.663428843 -0.09281697124 0.7424601912
0.034625903 -0.38450995 1.2931365 0.5796528459 -0.1530192196 0.8003672361
0.14802077 0.27299398 1.3840001 -0.6868621707 0.6272522807 -0.3671170175
-0.0054072798 0.037850957 1.028 -0.1883535683 0.7718197703 0.6073031425
-0.12268818 -0.11854681 1.1810001 -0.283982724 0.7082040906 0.6463751197
0.085468516 -0.067963757 1.1746001 -0.1377000958 0.7047516704 0.6959624887
-0.085226029 0.051309545 0.99200004 -0.1084424928 0.740459621 0.663294673
-0.31530815 -0.15556006 1.1547141 0.07129324973 0.5744612217 0.8154211044
0.20664699 -0.13735752 1.1658 0.8449795246 0.1651513875 0.5086596608
-0.13593377 -0.19420581 1.2431335 -0.3771383166 0.5797570944 0.7222523093
-0.24521679 -0.2048696 1.2113197 -0.3618705273 0.6066457629 0.7078351974
-0.043552801 -0.0085212002 1.08 -0.1331551075 0.7787594199 0.6130281091
-0.071593866 0.18265612 1.0470001 0.6466841102 -0.266492933 0.7146895528
0.27903247 -0.16521661 1.0470001 0.703563571 -0.0006566465017 0.7106320262
-0.40839273 -0.016985592 1.404 -0.05368783697 0.6444033384 -0.7627987266
0.11393839 -0.011516989 1.118 -0.1158690378 0.7623499036 0.636707902
0.093854927 0.041069575 1.028 -0.3809156716 0.4448072016 0.8105860949
0.22406197 -0.47113031 1.141 0.5820814371 -0.1986107975 0.7885016799
0.18249385 -0.32511532 1.2024704 0.6818737984 -0.08258111775 0.7267932892
-0.3045482 -0.20722052 1.1937999 -0.1289365888 0.6375299096 0.7595597506
0.065065406 0.0018242636 1.09 -0.09407997876 0.77470994 0.6252786517
-0.2112644 -0.168384 1.1930001 -0.3158922493 0.6336992979 0.7061425447
-0.17493825 -0.25603077 1.2846668 -0.2241507322 0.649594605 0.7264869809
0.1447815 0.04922571 1.1010001 -0.2724972665 0.7728527784 -0.5731001496
-0.43630129 0.063318811 1.473889 -0.5549838543 0.4016350806 -0.7284793854
0.22188258 -0.28498676 1.1610001 0.7250255346 0.02528999746 0.6882575154
0.11588671 -0.35575113 1.2570004 0.5060613155 -0.2111163437 0.8362606168
-0.14352699 -0.15679359 1.2105 -0.3187072873 0.6554650068 0.6846833825
-0.27457455 -0.13157851 1.138 -0.07526037842 0.6138714552 0.7858102322
0.03795616 -0.32780319 1.312 0.4923319817 -0.1969769746 0.8478262424
-0.37232444 -0.092190854 1.3540001 -0.6527779698 0.281689167 -0.703229785
-0.18427959 -0.10133239 1.138 -0.2062425464 0.7368517518 0.6438271999
-0.044294834 -0.15713011 1.2410001 -0.1259155273 0.685762167 0.7168511152
-0.26222152 -0.28280917 1.2360001 -0.2045563906 0.1804201901 0.9620838165
0.056803327 -0.43554947 1.2672 0.6867627501 -0.1641015857 0.7081155181
-0.44636098 0.068361588 1.529 -0.9567629099 -0.1893353909 -0.2208094746
0.050820366 0.03049222 1.054 -0.1853476316 0.76128304 0.6213649511
0.071514957 -0.13111076 1.2360001 -0.1266938299 0.6997050047 0.7031084895
0.031336743 -0.19217353 1.2920001 -0.07393415272 0.6545528173 0.7523924112
-0.14451849 0.053910341 0.98215377 0.05462630838 0.6120646596 0.7889187336
0.25222051 -0.14507571 1.0816 0.7906989455 0.07599569112 0.6074700356
-0.28531125 -0.084146507 1.1032172 0.1981782466 0.5204912424 0.8305505514
0.2487559 -0.41558036 1.1260002 0.7186824083 -0.09788212925 0.6884146333
0.12265547 -0.45631272 1.2229999 0.4773703814 -0.1303499192 0.8689801097
-0.0019315887 -0.40756524 1.322 0.6343230605 -0.06891913712 0.7699899077
-0.094082981 -0.087257482 1.154 -0.1402003467 0.7353283167 0.6630505919
-0.22449052 -0.13795327 1.1613334 -0.2952545881 0.6498966813 0.7003278136
0.31418753 -0.30530626 1.0137274 0.8662106395 0.1029553488 0.4889573753
-0.17478648 0.0054487744 1.0256 -0.02628434449 0.6765097976 0.7359644175
-0.02034305 -0.33147204 1.365 0.692776978 0.1174857989 0.7115175128
-0.14706989 -0.050505642 1.087 -0.2454693019 0.6738731265 0.6968786716
0.28629771 -0.33510315 1.0741303 0.8322754502 0.1382019669 0.5368592143
-0.064364865 0.080451697 0.96600008 -0.1545068026 0.6558862329 0.7388781309
-0.1058914 -0.26367924 1.3153335 -0.2810132504 0.6221185327 0.7307530642
0.28512952 -0.41513652 1.0843332 0.7710505128 0.02656822465 0.6362195015
0.081595749 -0.46020004 1.2410001 0.6392242312 -0.1046417207 0.7618677616
0.24289054 -0.20556906 1.1148571 0.862650156 0.1611153036 0.479454428
0.23843756 -0.37411752 1.138 0.7420781851 0.0310570132 0.669593513
0.2487559 -0.30502215 1.1260002 0.7909438014 0.05974722281 0.6089648604
0.025613409 -0.14659661 1.2504545 -0.06320627034 0.6633998156 0.745590806
-0.13539009 -0.012912931 1.0558947 -0.2579744756 0.7043052316 0.6613647342
0.27860802 -0.25533545 1.0648001 0.9056610465 0.1463300586 0.3979516923
-0.10420801 -0.055876058 1.11615 -0.2382255495 0.7286515832 0.6421179771
-0.044050306 0.042500801 1.0100001 -0.1434442401 0.7718712687 0.6193855405
0.28809077 -0.22447634 1.0366668 0.7645513415 0.01911034808 0.64427948
0.074677981 -0.38482425 1.2678094 0.4369268119 -0.2380618155 0.8674223423
-0.018762421 -0.1011086 1.189 -0.2366479337 0.7018479109 0.6718685031
-0.043256924 -0.077862464 1.161 -0.2205717415 0.7201603651 0.6578123569
0.11191877 -0.3147023 1.2640001 0.5135843754 -0.1930846572 0.8360319734
0.28882676 -0.29584205 1.0526001 0.8637320399 0.2089417279 0.4585959911
0.29656115 -0.37474328 1.0630555 0.8219275475 0.09133625776 0.5622212887
0.045015078 -0.063433841 1.1670001 -0.1100053713 0.7321459055 0.6722061634
0.19115514 -0.45532167 1.1730002 0.6407971382 -0.2097549587 0.7384997606
0.33187264 -0.34530902 1.0031819 0.7952457666 0.2355431169 0.5586622953
-0.065212719 -0.13459358 1.2140456 -0.1811591685 0.7281665802 0.6610255837
0.014962945 0.064415112 0.9858461 -0.008000043221 0.5475638509 0.8367256522
-0.22558057 -0.044447929 1.06505 -0.06286733598 0.6265441179 0.7768462896
0.32353559 -0.38121325 1.028 0.8031465411 0.2002327889 0.5611260533
0.14403634 -0.25559717 1.2528572 0.7305454612 -0.2473442256 0.6364936233
-0.16521333 -0.22406065 1.2551055 -0.2871495485 0.6424918175 0.7104572058
0.12379628 -0.074277781 1.1850002 -0.02122733369 0.6811864972 0.7318021655
0.18627806 -0.20502692 1.2047499 0.8002261519 0.01721651852 0.5994511247
-0.046686061 0.10504239 1.0020715 0.756172657 0.06359133124 0.6512749791
0.035607133 -0.018047281 1.1127501 -0.1168809235 0.7687017918 0.6288374066
-0.10519244 -0.20402506 1.2658947 -0.2571428716 0.6008068323 0.7569072843
0.12800473 -0.39477089 1.2270001 0.6014502645 -0.1830547601 0.7776557803
-0.025188003 0.014436673 1.0543126 -0.1804194301 0.8089728355 0.5594745874
0.10411206 -0.03942107 1.153 -0.1257074773 0.7484372854 0.6511830091
0.16191272 -0.18696465 1.2423333 0.8218209743 -0.05316443741 0.5672599077
-0.11703237 0.29908273 1.141 0.3762983382 -0.3688312471 0.8499194384
0.17967722 -0.021079449 1.1450001 0.01699259691 0.3146729171 0.9490480423
0.23445661 -0.058859397 1.1190001 0.5227149129 -0.2453816384 0.8164294362
-0.071425542 -0.029921509 1.1010001 -0.172533229 0.7350917459 0.6556465626
-0.085897952 -0.23288578 1.2970001 -0.230733335 0.6014325619 0.7648797035
0.25930354 -0.24490035 1.0955 0.8750985861 0.1304057837 0.4660437405
0.14072955 -0.20943215 1.2640001 0.7609376907 -0.06216776744 0.6458397508
0.18565689 -0.41464886 1.1841109 0.5964340568 -0.1972322166 0.778052628
-0.24564162 -0.084181301 1.0962942 -0.05353895575 0.6874082685 0.7242951393
0.21485029 -0.24470773 1.1645864 0.7650618553 0.004343845882 0.6439421177
0.2467134 -0.085683092 1.0845 0.8146594763 -0.1428657323 0.5620670319
-0.19756646 -0.24171539 1.2590001 -0.2716511488 0.6708970666 0.6900019646
-0.076883778 0.14621156 1.044 0.6327185035 -0.234212473 0.7381137013
-0.063143671 -0.28235942 1.3590001 -0.2639706135 0.6950837374 0.6687137485
0.015537308 -0.04761279 1.1433333 -0.1191184595 0.7276316285 0.6755464673
0.21606414 -0.17553848 1.1557499 0.859511137 0.1667142808 0.4831634462
-0.095102087 0.0027661754 1.0532001 -0.1662723422 0.7726391554 0.6126844883
0.13459302 -0.49401867 1.2019999 0.5069510341 -0.2571858764 0.8227126598
-0.14523518 -0.26577491 1.3045001 -0.3436162174 0.6880121827 0.6391925216
-0.17529896 -0.17424318 1.2118999 -0.2602775693 0.6258323193 0.73524791
-0.2659241 -0.23395494 1.2247777 -0.3182526231 0.5284821391 0.7870336175
0.11894263 -0.27679172 1.268 0.5886953473 -0.2052815855 0.7818550467
0.26632464 -0.33473915 1.1042776 0.8321179152 0.09048204869 0.5471679568
0.31220892 -0.23481829 1.0112355 0.7763664126 -0.03063426167 0.6295369267
0.32442072 -0.27470696 0.995 0.8090818524 0.0151216872 0.5875013471
-0.34635344 -0.43577346 2.0400002 0.3545815349 0.9014382362 0.2483565956
-0.14424513 -0.1067948 1.1546665 -0.2484266907 0.723865211 0.6436639428
0.16360317 -0.2644994 1.2243332 0.748016417 -0.1344261765 0.6499239206
0.22211458 -0.12571251 1.1346154 0.865077734 0.2044497579 0.458083868
0.14034469 -0.33617449 1.2410001 0.6472525001 -0.2166569084 0.7308378816
-0.045255221 -0.22523664 1.303154 -0.1764951646 0.6456218362 0.7429817319
0.037377559 -0.47684705 1.2920001 0.7747937441 0.0727821067 0.6280106306
-0.024543803 -0.19614008 1.2843335 -0.2327678055 0.656850934 0.7171931267
-0.3541629 -0.15641473 1.1661428 0.4171459079 0.5017592907 0.7577775717
0.20615746 -0.31522968 1.1748949 0.7191800475 -0.03253075108 0.6940618157
0.1443304 -0.022469968 1.1354288 -0.3393924534 0.6698666811 0.660372138
-0.15975234 0.40206125 1.223 0.4186959863 -0.4597555399 0.7831465602
0.14529462 0.10392094 1.1665384 -0.4927376509 0.6619842649 -0.5647888184
-0.29467368 -0.17904367 1.1730002 -0.08413701504 0.625166893 0.775942862
-0.16917738 -0.29017842 1.2780001 -0.5991625786 -0.2186928242 0.770180285
0.25746045 -0.18446112 1.0855881 0.8361356854 0.1145067886 0.536437571
-0.21263111 0.013487016 1.0258571 0.1441253722 0.5872966051 0.7964361906
-0.33614731 -0.21728393 1.202 -0.04370305687 0.5898805261 0.8063070178
-0.14681169 0.34559759 1.181 0.4695874453 -0.361015588 0.8057017922
-0.024457712 -0.056523085 1.1428825 -0.2340302169 0.7112382054 0.6628499627
0.065046988 -0.3151539 1.2950002 0.4931439161 -0.1492288262 0.8570529819
-0.23526324 -0.28420734 1.2560003 -0.5543125272 0.03384207189 0.8316203356
-0.099071801 0.24655317 1.1043334 0.6171687841 -0.3184855878 0.7194926143
-0.12922768 -0.29221755 1.3280001 -0.4969417751 0.3119324744 0.8097820878
-0.095339932 0.028071947 1.0178462 -0.1207394451 0.7917289138 0.59882164
0.17191477 -0.29474762 1.2105001 0.6843375564 -0.03725879267 0.7282127738
-0.01204014 -0.0078356471 1.09 -0.2257941663 0.7643727064 0.6039464474
-0.075072065 -0.1760357 1.2517648 -0.2397174835 0.6819067001 0.6910417676
0.214018 -0.38543525 1.1570001 0.669588089 -0.08704356104 0.737614572
-0.10505097 -0.13356017 1.2043334 -0.1976614296 0.7202249169 0.6649857163
0.201195 -0.16489837 1.1830001 0.8520538211 0.1248564199 0.5083454847
0.15138923 -0.4611927 1.202 0.6198790073 -0.3198671937 0.7165437341
0.25259295 -0.27500483 1.1137143 0.8551832438 0.09106802195 0.5102628469
0.15010023 0.22114004 1.307 -0.732991159 0.5383864045 -0.4157692492
-0.17387569 -0.06797836 1.101 -0.1882289201 0.7287105322 0.6584457755
0.09536124 -0.2558738 1.2924166 0.5462793112 -0.1905644685 0.8156372309
-0.40148526 -0.050033119 1.3920001 -0.5470122695 0.304443717 -0.7798023224
0.2287669 -0.21487537 1.1468183 0.878148675 0.1176911518 0.4636848867
0.015207317 -0.094779164 1.1962502 -0.1382086426 0.7247168422 0.6750435829
0.095732003 0.015648499 1.0500001 -0.06805478036 0.9601821303 0.2709590197
0.09603446 0.012183475 1.09 -0.189405933 0.7532451153 0.6298787594
0.025020672 -0.12378646 1.2245383 -0.05504166707 0.7272577882 0.6841538548
0.19380698 -0.23487565 1.1950001 0.81049788 -0.03531167284 0.5846762061
0.15068059 0.14319998 1.2190001 -0.3693079352 0.7548712492 -0.5420157909
-0.15532137 0.027357262 1.0066667 -0.03848530725 0.6938486695 0.7190917134
0.16714741 -0.39538875 1.2047367 0.6106868386 -0.1809254438 0.7709264755
-0.075573988 -0.011702185 1.0737857 -0.1768355817 0.7611486316 0.6240047812
0.025735574 0.038453378 1.0361668 -0.009374171495 0.881929636 0.4712878168
0.078702748 -0.09129519 1.197 -0.0499237366 0.7321344614 0.6793281436
-0.27450562 -0.19704945 1.194 -0.164863795 0.6677471995 0.7259019017
0.03726184 -0.41552594 1.2880001 0.6026316285 -0.03716260195 0.7971537113
-0.035725042 -0.030872518 1.1073999 -0.1512406468 0.7609401941 0.6309487224
-0.035126016 -0.12560925 1.2142003 -0.1800154448 0.7133556604 0.6772873402
0.10322187 -0.38375965 1.2507143 0.4684389532 -0.2210517675 0.8553952575
0.023003733 -0.36115861 1.312 0.6359049082 -0.2178699076 0.7403767109
0.24293478 -0.11577137 1.0923001 0.8244312406 0.0488181375 0.5638527274
-0.22418822 -0.21832505 1.2320002 -0.2330655307 0.6471812129 0.7258353233
-0.01316315 0.10091748 1.001 0.2880570292 -0.0482984297 0.9563944936
0.075336754 -0.49453983 1.243353 0.7335733175 -0.112593554 0.6702185273
-0.088087477 0.19608016 1.0712 0.6251354218 -0.3304595947 0.7071083188
-0.26523027 -0.10390855 1.1156189 -0.01126948744 0.6741549373 0.7385039926
-0.044878323 -0.17757408 1.2640001 -0.1673624068 0.659640789 0.7327099442
-0.11475567 0.043075286 0.99470013 -0.1211033389 0.7476766706 0.6529269218
0.12568787 -0.42573506 1.2246293 0.5451279879 -0.3354124725 0.7683319449
-0.19688755 -0.1218291 1.1570001 -0.2284166217 0.7270534635 0.6474713087
-0.30336943 -0.23157471 1.2123334 -0.1327785403 0.7393457294 0.660104394
-0.043723937 0.075913772 1.0119287 0.8521450162 -0.1026178449 0.5131456256
0.033126079 -0.17052148 1.268 -0.07892419398 0.6546807289 0.7517739534
-0.16524492 -0.19438426 1.2344617 -0.2505101264 0.5686858892 0.7834801078
0.067044228 0.026995668 1.0238461 -0.3988626301 0.3917917907 0.8291006088
-0.34028256 -0.13952588 1.1450001 0.1835082918 0.5443468094 0.8185421824
0.28863898 -0.19409487 1.0370001 0.7045713067 -0.02045364864 0.709338367
-0.20518185 -0.092391662 1.1179092 -0.1776119471 0.7636535764 0.6207150817
-0.28498462 -0.1549821 1.1554346 -0.1172609255 0.6185048223 0.7769824266
-0.2019314 -0.02111101 1.0470001 -0.007629246917 0.6799039841 0.7332614064
-0.0082783634 -0.30866468 1.3490001 0.6338996887 0.1451604515 0.7596707344
0.28295425 -0.13526066 1.0470001 0.7046943307 -0.03004792519 0.708874464
0.30370888 -0.16852689 1.028 0.5874382257 -0.09528022259 0.8036404848
0.24220981 -0.44479433 1.13 0.6878572106 -0.06241445616 0.7231575847
0.11674318 0.038433615 1.102875 -0.272367239 0.229703024 -0.9343728423
0.046694636 -0.35584876 1.2943077 0.5817276835 -0.3344348967 0.7414487004
0.17452173 -0.35528925 1.2045454 0.646137774 -0.1236880049 0.753131628
-0.24159443 -0.17884263 1.1930001 -0.3596689403 0.6340503693 0.6845570803
0.13175336 0.0086553302 1.097 -0.3662833869 0.5345193148 0.7616597414
-0.21565142 -0.19573632 1.2143571 -0.2560749948 0.6195814013 0.7419868708
0.15233253 0.25520644 1.3540001 -0.7344182134 0.543705225 -0.4062198102
0.20518325 -0.34495521 1.1751668 0.671471417 -0.05476088822 0.7390043139
-0.082502924 -0.26854354 1.3330001 -0.2632912397 0.653924644 0.7092674375
-0.25311953 -0.028848032 1.0615001 0.2111898363 0.5088755488 0.8345325589
0.12778161 0.17688547 1.273 -0.5395218134 0.6433135271 -0.5431978703
-0.0065532783 0.05585818 1.0043334 0.1522328109 0.8344073296 0.5297070742
0.24875589 -0.34450719 1.1260002 0.7603839636 0.02760225907 0.6488869786
-0.30410337 -0.13193172 1.1367692 0.02923136763 0.5665823817 0.8234864473
-0.24405026 -0.12797454 1.1414444 -0.2903162539 0.6816938519 0.6715727448
-0.056171011 0.059118889 0.98880005 -0.1897895932 0.6847958565 0.7035868764
0.047799367 -0.46354273 1.268 0.7020881176 -0.01998247392 0.7118096948
-0.12419849 -0.086957678 1.1438571 -0.2928568423 0.727733016 0.6201931238
0.075199299 -0.016605472 1.1140002 -0.1182804331 0.7907603383 0.6005895734
0.0033304566 -0.33605129 1.3484546 0.753772378 0.01325086504 0.6570019722
0.28541684 -0.44501469 1.0856799 0.7476270795 0.01679611206 0.6639063954
0.20575981 -0.056116309 1.123 0.5121780634 -0.1923445761 0.8370646238
-0.12528619 -0.16956837 1.2320001 -0.2999550998 0.6414322257 0.706110239
0.15646513 -0.31496203 1.2243333 0.7048483491 -0.08814430982 0.7038603425
-0.32539299 -0.17907631 1.1730002 0.0825452134 0.6182914972 0.7816021442
-0.44097209 0.039623581 1.4580001 -0.4795214832 0.4427949786 -0.7576224208
0.073166594 0.021574767 1.0700001 -0.02123620361 0.8455510736 0.5334720612
0.20372301 -0.0056682341 1.141 0.1169887632 0.2038962543 0.9719773531
-0.2024574 -0.26431939 1.2830001 -0.5756959319 0.1163817495 0.8093389273
0.0044351364 0.022343045 1.0500001 -0.1330740303 0.7780233026 0.6139796972
-0.094671771 -0.1144534 1.1842378 -0.1767545491 0.7468120456 0.6411159039
0.26809168 -0.40505156 1.1079999 0.7724283338 0.01447053999 0.6349371076
-0.1951437 -0.04471571 1.0713043 -0.09553831071 0.6817275882 0.7253412008
0.23790103 -0.14429392 1.1059998 0.8728887439 0.1399714947 0.4674112201
0.14726685 0.28669778 1.4116668 -0.6842131615 0.6390637755 -0.3513543606
-0.13406688 -0.21583205 1.2663529 -0.3424407542 0.6129893661 0.7120240927
-0.01659004 -0.15433104 1.245 -0.2832664549 0.651481688 0.7037980556
-0.1845744 -0.15528071 1.1934707 -0.2482329309 0.665153563 0.7042379975
0.087669745 -0.31510687 1.278 0.6022308469 -0.234803766 0.7630106211
-0.14472073 -0.13498759 1.1858419 -0.2687866688 0.700291276 0.661321342
0.12931359 0.062188979 1.126 -0.2172653824 0.8709284067 -0.4407714307
-0.044504855 -0.30310395 1.3720001 0.2260538787 0.6439564824 0.7309033275
0.34345436 -0.27498809 0.97524017 0.7277517915 -0.08996140957 0.6799148917
0.014425551 -0.010578737 1.097 -0.09933845699 0.7934868336 0.600425303
-0.10449298 0.065104388 0.97551364 -0.1339734197 0.6494133472 0.7485408783
0.0045306138 -0.19708169 1.2919999 -0.08472536504 0.6046170592 0.7919973731
-0.29469267 -0.10895097 1.123 0.05754872039 0.5674715042 0.8213794827
0.073689088 -0.41166162 1.2640001 0.5311149359 -0.2215400338 0.8178244829
-0.40657613 0.0050040134 1.427 0.1686849445 0.6097393036 -0.7744439244
0.19098622 -0.48104015 1.1650001 0.598593235 -0.2504578233 0.760892272
-0.1370379 0.2790772 1.141 0.3953974843 -0.3474944234 0.8502402306
0.042487651 0.0084975297 1.077 -0.161122635 0.7674973607 0.6204735041
0.054697733 -0.14528872 1.2514286 -0.08757814765 0.6907722354 0.7177491188
0.28503945 -0.38500711 1.0850303 0.8122273088 0.049152188 0.5812666416
0.20216313 -0.28510424 1.1826 0.7458450198 -0.006701282691 0.6660857797
0.16864042 -0.44582844 1.1886667 0.6070184112 -0.1813011765 0.773730278
0.15573283 0.20054802 1.2780001 -0.5775179267 0.66547364 -0.472882539
-0.048271898 -0.26726148 1.3430001 -0.1875837147 0.7743611932 0.60429883
0.23830107 -0.27543339 1.136 0.8638884425 0.05461744964 0.5007131696
-0.14435141 0.004035363 1.0326155 -0.1868100315 0.7304047942 0.6569709778
0.013925587 -0.38583487 1.3130001 0.6433299184 -0.2108647078 0.7359774113
-0.45034805 0.079626754 1.4890001 -0.9341747761 -0.3457666039 -0.0881075561
0.055357844 -0.08381737 1.1876668 -0.06595059484 0.7148892879 0.6961205602
0.073737316 -0.11129297 1.219 -0.08366936445 0.7082363963 0.7009997368
-0.10543407 -0.18052582 1.245 -0.1919731945 0.6627168059 0.7238457799
0.074449867 -0.052135192 1.1570001 -0.06625696272 0.7396509647 0.6697211862
0.12894364 -0.36407614 1.2360001 0.6318013668 -0.1496017575 0.7605565786
0.30932218 -0.39193049 1.0470001 0.7637830973 0.288403362 0.5774589777
-0.23476161 -0.065257117 1.0822221 -0.07219863683 0.6266848445 0.7759210467
0.30201721 -0.43158504 1.0710001 0.5890004039 0.1398859918 0.7959336638
-0.058524515 0.16377887 1.0350001 0.6168850064 -0.2576845884 0.7436743379
0.27921045 -0.35639831 1.087 0.8155983686 0.07340817899 0.5739430189
-0.0010607666 -0.10925896 1.21 -0.2137328535 0.7055556774 0.6756548285
0.087194145 -0.3642287 1.2590001 0.5217885971 -0.2085449696 0.8271914124
-0.029740039 0.029740039 1.028 -0.1724008024 0.7711948156 0.6128103733
0.22872911 -0.40633842 1.1475456 0.6642203927 -0.09015372396 0.7420805693
-0.01047792 -0.38419041 1.3280001 0.6884408593 -0.2900269628 0.6647807956
0.10368512 -0.44174182 1.2320001 0.2760318518 -0.1486501247 0.9495838881
0.27200291 -0.18471329 1.0619413 0.8469570279 0.0659751296 0.5275518894
0.094830491 -0.027309626 1.1326667 -0.17377536 0.7493803501 0.6389297247
0.016288465 -0.41467804 1.3058463 0.6480720639 -0.05641570687 0.7594866157
0.33258891 -0.22377355 1.001 0.6302061081 -0.177946046 0.7557615042
0.20114855 -0.035377882 1.153 0.3058068156 0.05530932173 0.9504857063
0.17559595 -0.24477957 1.2139997 0.7125806212 -0.09972366691 0.6944667697
-0.23433587 -0.15663716 1.1750953 -0.3147322237 0.6108424664 0.7265088558
0.017577168 0.045699321 1.0025001 0.0660603568 0.8347029686 0.5467239022
-0.15518269 -0.23802383 1.2734998 -0.3008245826 0.6270180941 0.7185769677
-0.13560663 -0.061861217 1.1068749 -0.3076007664 0.7235155106 0.6179863214
0.30486551 -0.31506422 1.0348573 0.8711641431 0.160088703 0.4641601145
-0.068858661 0.039726149 1.0070001 -0.1326780468 0.775596559 0.6171275973
-0.14872913 -0.03086831 1.067 -0.2442784011 0.7123180628 0.6579749584
0.093424611 -0.1193459 1.2320001 -0.0942709893 0.7075640559 0.7003328204
0.040903512 -0.040903512 1.138 -0.09434204549 0.7674968839 0.6340726614
-0.20536105 -0.14496206 1.1756089 -0.2912612259 0.6329183578 0.7173432112
0.21858193 -0.44824404 1.149 0.5869782567 -0.149233371 0.795729816
-0.09496697 -0.072098821 1.1343334 -0.1794076413 0.7112350464 0.6796746254
-0.13696262 0.074436344 0.97037512 0.1127383858 0.5402800441 0.8338990211
-0.067004517 -0.083222441 1.156111 -0.227395013 0.7113670111 0.6650176644
-0.37290508 -0.067909233 1.3590001 -0.6527779698 0.281689167 -0.703229785
0.14397754 -0.003635474 1.1150715 -0.4158763885 0.5904724598 0.6916567683
-0.3882108 -0.027290633 1.3940001 -0.3923654854 0.3243449032 -0.8607262373
0.24445561 -0.17538296 1.1046109 0.8654409647 0.1488620639 0.478384763
0.2983928 -0.40482956 1.0649999 0.6184319854 0.167387262 0.767804265
-0.05457085 0.0032272676 1.0614119 -0.145383656 0.7804868221 0.6080328226
-0.25475505 -0.14571035 1.1545651 -0.2865326405 0.6327285171 0.7194120288
-0.25805342 -0.25453359 1.2355001 -0.4616503417 0.1645266861 0.8716707826
-0.11510139 -0.15214756 1.2167273 -0.2373117208 0.6605035067 0.7123329639
-0.025678132 -0.23459257 1.3145001 -0.1623400748 0.619276762 0.7682070136
0.12948453 0.085645072 1.1630001 -0.4500325322 0.6936291456 -0.5624493957
0.096265703 -0.33563313 1.2679999 0.5285764933 -0.2197451442 0.8199505806
-0.25011301 -0.25678268 1.268 -0.4745093882 -0.04379470646 0.879160285
-0.041413732 -0.09732227 1.1810001 -0.2087788135 0.7100512981 0.6724868417
0.2452146 -0.077384718 1.1071817 0.7923875451 -0.2567920983 0.5533351898
-0.11579363 0.0070883767 1.0368001 -0.2319322824 0.7681099772 0.5968371034
-0.17308354 -0.047771316 1.0805714 -0.1895706356 0.7011380792 0.6873633862
-0.017410891 -0.081939697 1.1683334 -0.230592221 0.7057073116 0.6699286699
0.26330543 -0.16475375 1.0721427 0.8251437545 0.1241697371 0.5511077046
-0.28382084 -0.26628751 1.25 0.1421845108 0.3168473244 0.9377586842
0.17165765 -0.20491505 1.2238001 0.8015679717 -0.04393215477 0.5962874889
0.10044496 -0.47198331 1.2320001 0.3862271905 -0.2776628435 0.8796203136
0.13776875 -0.23471406 1.2662222 0.7146789432 -0.1371403486 0.6858764291
0.075966828 -0.43459395 1.2529169 0.676028192 -0.1762572527 0.7154853344
0.22805704 -0.1852349 1.136 0.8793224096 0.1552175134 0.4502216876
0.1495944 0.18062139 1.2640001 -0.5002061129 0.649484992 -0.5726806521
0.042018194 -0.44419226 1.2838334 0.6729306579 -0.171912238 0.7194515467
0.024859197 -0.078719839 1.1815001 -0.1167964116 0.7332419753 0.6698617935
0.23859759 -0.32552788 1.1361817 0.8203089833 0.0407592468 0.5704663396
0.1011086 -0.080261461 1.189 -0.1091902107 0.6821417809 0.7230215073
0.11179473 0.030572433 1.041 -0.4584615529 0.4820706248 0.7466062903
0.13791545 0.20745264 1.322 -0.7163614631 0.5480510592 -0.4318174422
0.32644787 -0.31491238 0.99578261 0.8190262318 0.1450768411 0.5551115274
-0.16539793 -0.11819578 1.1613637 -0.1920796931 0.7288478613 0.6571804881
0.13443221 -0.31445524 1.2521054 0.6189422607 -0.1525831223 0.7704731226
-0.46168861 0.085987844 1.5090002 -0.9450131655 -0.3202814162 -0.06610520184
0.055238605 -0.39522317 1.2760953 0.590141356 -0.1653504819 0.7901850343
-0.10010394 -0.21932885 1.2830001 -0.2849312127 0.6360688806 0.7170987129
0.058633219 -0.36785808 1.2780001 0.5153434277 -0.2973314822 0.8037506938
-0.15501773 -0.17634518 1.2234704 -0.2950041592 0.6099864244 0.7354516387
-0.044215016 -0.045884728 1.1246156 -0.1833492666 0.7458609343 0.6403706074
-0.095026799 -0.037546553 1.1014705 -0.2496337891 0.7191387415 0.6484770179
0.11592501 -0.053653371 1.1672857 -0.06129712984 0.7348445654 0.6754599214
-0.10576528 -0.10260403 1.1671818 -0.2016175687 0.7360540628 0.6462002993
0.19790454 -0.19469166 1.1864547 0.8360900879 0.03940275311 0.5471752286
-0.16533329 -0.012586222 1.0456367 -0.1437356174 0.7210384607 0.6778227091
0.22577769 -0.36418065 1.1549128 0.7321646214 -0.1016513854 0.6734998226
-0.17163202 0.38675553 1.21 0.3450867534 -0.5293941498 0.7750205994
0.19209023 -0.30608931 1.193 0.7209148407 -0.01844120026 0.6927782893
0.16454436 -0.3348805 1.2136959 0.6666304469 -0.0702951625 0.7420663238
-0.2748616 -0.067520387 1.0903637 0.177347824 0.5473989248 0.817864418
0.044397909 -0.13210945 1.2352002 -0.07700885087 0.7353191972 0.6733314991
-0.27469778 -0.21737169 1.2110001 -0.1207986772 0.679345727 0.7238073349
0.125379 -0.034374304 1.1450002 -0.03680461273 0.7282682657 0.6843031049
0.066194952 -0.47526243 1.2562224 0.7273365259 -0.05282443762 0.6842449307
0.26804748 -0.26464412 1.087 0.8599703312 0.1261012703 0.4945195019
-0.22370081 -0.26141965 1.2653334 -0.430524081 0.03440223262 0.9019232392
0.21812302 -0.14508043 1.1466002 0.8662382364 0.1359065026 0.4807918072
0.10449161 -0.29390323 1.2735882 0.5366716385 -0.2786349058 0.7964584827
-0.12534171 -0.045514584 1.0942223 -0.3151331544 0.6906936169 0.6508712769
0.25360361 -0.38513294 1.1245883 0.7617130876 0.04623245448 0.6462628841
-0.11944233 -0.070085995 1.126 -0.2909395397 0.7189251781 0.6312692165
0.25626782 -0.21443062 1.0934118 0.8730808496 0.1501232535 0.4638888538
0.3039467 -0.21463481 1.0231785 0.6977652311 -0.104133971 0.7087169886
-0.16294549 -0.14746673 1.193 -0.2333105952 0.6782149673 0.6968433261
0.28047195 -0.27765787 1.0700001 0.8945635557 0.1230964288 0.4296548367
0.18217029 0.0021948228 1.138 -0.09998720139 0.470139116 0.8769103289
0.14562197 -0.40517101 1.2165456 0.5996674299 -0.1861469001 0.7782983184
0.2970542 -0.32495505 1.0540476 0.8484889269 0.1672847569 0.5020779967
0.014244831 -0.18166162 1.278 -0.05373557657 0.6748160124 0.7360270619
-0.10688144 -0.24218881 1.2970001 -0.2551456094 0.6349654794 0.7291910648
0.23475853 -0.30448672 1.1444004 0.8427028656 0.02442910708 0.5378244519
-0.10129007 0.20926909 1.09 0.6757392287 -0.2180728316 0.7041453719
0.20280951 -0.39532936 1.1743335 0.707573235 -0.09466270357 0.7002707124
0.20330356 -0.25496501 1.1835262 0.7872184515 -0.03446074575 0.6157106757
0.28217474 -0.30502486 1.0730951 0.8701993227 0.1371868998 0.4732154906
0.20545021 -0.46549785 1.1559564 0.6040862203 -0.2130548507 0.7679111362
-0.16722123 -0.081979148 1.1176667 -0.2164893746 0.751655221 0.6230142713
-0.24489307 -0.22759117 1.2337143 -0.3193225563 0.6396427155 0.6992068887
-0.12499492 -0.25543401 1.305125 -0.2749643624 0.6515167356 0.7070506215
-0.30480683 -0.087436877 1.1143751 0.1623584479 0.5067527294 0.8466649055
-0.12495778 -0.025371332 1.0717199 -0.2784747481 0.7107967734 0.6459255219
-0.16532513 -0.2731162 1.2970001 -0.5794368386 0.1487735957 0.8013235331
-0.2147187 -0.11684167 1.1440003 -0.2595992684 0.7071899176 0.6576402187
0.31119233 -0.36650512 1.0420909 0.8550828695 0.1834770888 0.4849427342
-0.19518106 0.024725536 1.0123003 0.1450927407 0.5971463323 0.788900733
-0.085053325 -0.2528508 1.317 -0.2467763424 0.6614373326 0.7082387209
-0.17120892 0.053122196 0.98799998 0.1310109496 0.6036219597 0.7864328623
0.004766108 -0.14313304 1.2427499 -0.1561920494 0.678047359 0.7182310224
0.27750129 -0.20482865 1.0532942 0.8343794942 0.03441964835 0.5501146913
-0.19475818 -0.18518767 1.214 -0.3216069937 0.5987318754 0.7335455418
0.13654667 0.03691015 1.0841666 -0.9493938684 0.2801384628 -0.1420344114
-0.22497253 -0.025542602 1.0517501 0.04793987051 0.5575968623 0.8287264109
0.24738853 -0.23490939 1.1165 0.8656682372 0.1236912981 0.4850968421
-0.18178824 0.4023006 1.2270001 0.408739984 -0.4648506343 0.7853951454
0.035857506 -0.0049888468 1.0937002 -0.122833088 0.8135341406 0.5683961511
-0.064803198 -0.14796731 1.2320001 -0.1839634627 0.6964774728 0.6935968399
-0.063914016 -0.21795484 1.2919999 -0.1702771634 0.6067605019 0.7764325142
0.30934235 -0.28408608 1.0185715 0.8378515244 0.1361199766 0.5286550522
-0.41930529 0.044337418 1.4450001 -0.4282543659 0.4465774894 -0.7855995893
-0.0043801186 -0.059300069 1.153 -0.1891631037 0.7187914848 0.6689963937
-0.054795176 -0.11907413 1.202 -0.1757880598 0.7289714813 0.6615883708
0.054920003 -0.33533424 1.2961669 0.5887097716 -0.229422152 0.7751040459
-0.1142998 -0.0074341325 1.0600002 -0.2516412735 0.7274155021 0.6383912563
0.2875993 -0.27444312 1.0470001 0.8700048923 0.1198980436 0.4782425165
-0.20529032 -0.22465114 1.2428823 -0.2303303778 0.6334394813 0.7387167215
0.26260746 -0.12557988 1.0706 0.7651212215 0.001456434256 0.6438846588
-0.045067091 0.016781155 1.0443335 -0.111621879 0.8024868965 0.5861359239
-0.2251289 -0.083097994 1.1041578 -0.1971299797 0.7407736778 0.6421791911
-0.085204363 -0.19489951 1.2661177 -0.2740074396 0.6308491826 0.7259126902
0.27242494 -0.42601922 1.1031176 0.7780881524 -0.05237439275 0.6259678602
0.25934955 -0.31180227 1.108 0.8431144953 0.09106463939 0.5299671888
0.32088837 -0.25390252 1.001 0.7691420317 -0.01747230627 0.6388389468
0.014666634 -0.026404025 1.1153336 -0.1175188646 0.784609139 0.608750999
0.094716765 -0.0043362244 1.1042629 -0.1971895099 0.7540116906 0.6265642047
-0.085102156 -0.14333507 1.2165 -0.2028977573 0.693156898 0.691640079
0.28652161 -0.24492122 1.0442071 0.8418406248 0.1166432053 0.5269713402
-0.032252703 0.095569998 0.98868442 0.3583649993 -0.001094274106 0.933580935
