# .PCD v0.7 - Point Cloud Data file format
VERSION 0.7
FIELDS x y z normal_x normal_y normal_z
SIZE 4 4 4 4 4 4
TYPE F F F F F F
COUNT 1 1 1 1 1 1
WIDTH 512
HEIGHT 1
VIEWPOINT 0 0 0 1 0 0 0
POINTS 512
DATA ascii
-0.074677974 -0.10692528 1.9360001 -0.3460167944 0.8177687526 0.4599202275
0.430673 -0.48669553 3.9940002 0.02401701175 0.9120163918 0.4094499648
-0.46469644 -0.24712181 3.0640001 -0.1731427908 0.9070723653 0.3837203383
0.49375883 0.077698089 2.8590002 -0.01115000527 0.8859823942 0.4635848403
0.30459872 0.34897733 2.3010001 -0.3745277524 0.8750908971 0.3065043688
-0.39300847 0.14426894 2.4320002 -0.2283251286 0.8691799641 0.4386272132
0.057182338 -0.24979652 3.4330001 -0.1608716398 0.8836951852 0.4395487607
-0.11552275 0.45747009 1.7570001 -0.8238543272 0.1904275119 -0.5338552594
0.10702839 -0.49531737 2.0280001 -0.791478157 0.130114153 0.5971872807
0.43847096 -0.1346937 3.2690001 -0.05999433994 0.8911835551 0.4496582747
-0.21300545 -0.46278882 1.748 -0.2432888746 0.1044920534 0.9643090367
-0.11151551 0.33076632 2.1560001 -0.1529403776 0.9092133641 0.3872212768
0.30702356 0.027615877 1.853 -0.538406074 0.3700145185 0.7571051121
0.36187837 -0.33625865 3.6530001 0.02612292394 0.8970683813 0.441118896
-0.02550048 0.072251357 1.6160001 -0.1436557323 0.1452880949 0.9789047241
-0.37598917 -0.084900782 2.7670002 -0.2852906287 0.8660264015 0.4106183946
-0.33924809 -0.31564823 3.3650002 -0.2297523171 0.8475281 0.4784453809
-0.38380554 0.3421253 1.9810001 0.01535021234 0.9441718459 0.3290956318
0.17591895 -0.42288208 3.8590002 0.04139168188 0.9177245498 0.3950549662
-0.11110435 0.16774578 2.4850001 -0.2295755595 0.9015981555 0.3666276932
-0.17530294 -0.19780172 3.2080002 -0.2297523171 0.8475281 0.4784453809
0.086834997 -0.24350233 2.0780001 -0.5614258051 -0.6663389802 0.4907070398
-0.24881116 -0.21438444 1.7850001 -0.1372583956 -0.3907871544 0.9101898074
-0.06379503 -0.35423031 1.9150001 -0.6759702563 -0.1084327847 0.728907764
0.085401356 -0.0079075331 1.8040001 -0.2785831392 0.839057982 0.4673041403
0.46469644 -0.034919385 3.0640001 -0.09666058421 0.899589777 0.4259048402
0.33353311 0.26989847 2.503 -0.3745277524 0.8750908971 0.3065043688
-0.09737049 0.24682288 1.7220001 -0.9991750121 0.0372812897 0.01610465162
0.18651959 -0.093259797 1.9700001 -0.1582257301 0.8369998932 0.5238280296
-0.13415805 -0.050309271 1.7390001 -0.222844705 0.8070217967 0.5468601584
0.49730933 -0.34845483 3.8590002 -0.4314247668 0.8096741438 0.3978699148
-0.13567381 0.35893452 1.9590001 -0.9909647107 -0.007540508173 -0.1339108944
0.23339321 -0.23646417 3.5030003 -0.07624712586 0.8868908286 0.4556435645
0.25943285 0.36768541 2.1290002 -0.1146710664 0.9518013 0.2844728529
-0.34591863 -0.23904946 3.2080002 -0.1971910596 0.8913138509 0.4082589149
-0.16157581 0.22293369 2.3330002 -0.2030151635 0.896086812 0.3947319388
0.3930833 -0.25488997 3.5030003 0.03461260349 0.8915641904 0.451569736
0.12340661 0.10259104 1.6960001 -0.3018752933 -0.3150288761 0.8997933865
0.072104082 -0.31663096 3.5760002 -0.1387235522 0.903575182 0.4053488076
-0.10234119 -0.49871024 1.853 -0.669757545 0.2960511446 0.6810129285
0.22058862 -0.4796927 3.9940002 0.01698660664 0.9128888249 0.4078546464
-0.15894142 -0.33448866 1.8040001 -0.7387517095 -0.1724163592 0.651550889
0.061151881 -0.36516413 1.9930001 -0.5761774778 -0.1802635491 0.7971979976
0.044183999 -0.12371519 2.016 -0.1606317312 0.8360157609 0.524666667
-0.057182338 -0.32804602 3.4330001 -0.2357570082 0.8399325013 0.4888067245
-0.13956971 -0.21674356 1.8730001 -0.7212837338 -0.4620772004 0.5159790516
-0.015133898 -0.24387904 1.9810001 -0.7199416757 -0.269682318 0.6394962668
0.0050916797 -0.4837096 1.936 -0.6068902612 -0.09797172248 0.7887241244
-0.31714645 -0.17619246 3.0920002 -0.1731427908 0.9070723653 0.3837203383
0.37386501 -0.39371625 3.7740002 -0.1105950177 0.9380496144 0.3283773363
-0.24529396 -0.10234119 1.853 0.9310341477 -0.2294386327 0.2837839425
-0.035159595 -0.052739389 1.8230001 -0.2383449823 0.9260864854 0.2924987376
0.20396177 0.048265759 1.7760001 -0.4379408658 0.6566994786 0.6139655113
0.38644782 -0.19174892 3.3650002 -0.06447765231 0.887616396 0.4560479522
-0.00750865 -0.0060069198 1.7130001 -0.3748181462 0.8465675712 0.3779348135
0.056751892 -0.068436109 1.904 -0.1988293976 0.8932825327 0.40312922
0.19868159 -0.027913943 1.8730001 -0.3820282519 0.7739023566 0.5051035285
0.13480678 -0.39166835 2.0780001 -0.7892690301 -0.05971411616 0.6111371517
-0.10205539 0.14502609 1.6710001 -0.6533966064 0.2200789601 -0.7243190408
-0.21201745 0.32263523 2.1030002 -0.1260201931 0.9347369075 0.332243681
-0.12227922 0.35476074 1.7220001 -0.5141212344 -0.3457809389 0.7849298716
-0.13571852 -0.088863313 1.8430001 -0.302903831 0.9124026895 0.2752645612
0.29221228 0.30903026 2.398 -0.3745277524 0.8750908971 0.3065043688
-0.25106946 -0.35581008 1.7570001 0.3343609571 -0.1448295861 0.9312503338
-0.091847487 0.011663173 1.6630001 0.185143888 0.567899406 0.802004993
-0.14742728 0.24507391 2.184 -0.2030151635 0.896086812 0.3947319388
0.49967283 -0.0082818698 3.1490002 -0.09526488185 0.8994460702 0.4265223444
0.26476735 -0.052614026 1.9360001 -0.3912435472 0.8191829324 0.4193659127
-0.17950714 0.10597409 2.467 -0.2296319455 0.8703352809 0.435643971
-0.13653673 -0.42647961 1.8040003 -0.721190393 -0.1879373342 0.6667562723
-0.21438444 -0.043815803 1.785 0.1285637319 0.7879918814 0.6021130681
-0.090464108 -0.19799691 1.9470001 -0.7618427277 -0.1179043725 0.6369413137
0.051271848 0.04834203 1.6710001 -0.4156463146 0.5912698507 0.6911136508
0.12267372 -0.30401748 2.0280001 -0.5259747505 -0.2761485577 0.80442065
-0.11822376 -0.30376938 1.8730001 -0.7111461759 -0.1768838912 0.6804286838
0.071457103 -0.15573983 2.0900002 -0.052816201 0.9143233895 0.4015261531
-0.10621518 0.26653999 2.286 -0.1978261769 0.9012864828 0.3854186237
0.12711841 -0.13422993 2.0280001 -0.05341618881 0.7522822618 0.6566720009
-0.055575699 -0.43635178 1.883 -0.5199513435 -0.2690143585 0.8107292056
-0.11312682 0.43224576 1.9260001 -0.9980936646 0.03646305576 -0.04979484528
-0.18405214 -0.2552571 1.8130001 -0.7092801929 -0.279597491 0.6471065283
0.12412548 0.035245508 1.748 -0.3259889185 0.8144960403 0.4799243808
0.13598417 -0.058758583 1.9150001 -0.1333226264 0.849272728 0.510843277
-0.0017068699 -0.39428696 1.9470001 -0.7406070828 -0.4034540951 0.5373321772
0.064257033 -0.44632584 1.9810001 -0.4484172463 -0.02046945319 0.8935899138
0.050973784 -0.27947694 2.0050001 -0.4907931685 -0.2827746868 0.8241119981
-0.067876086 -0.27589434 1.9260002 -0.647973001 -0.1101494133 0.7536565065
-0.0068695601 -0.31771713 1.9590001 -0.6093107462 -0.140005976 0.7804734111
-0.00171739 -0.096173838 1.9590001 -0.3047519326 0.8165614605 0.4902587533
0.42532361 -0.35661748 3.7320001 -0.4151139259 0.8245388269 0.3844686449
0.17651507 -0.43955716 3.9480002 0.05324759707 0.9161835313 0.3972058296
0.094986834 -0.0880787 1.9700001 -0.1194887832 0.8475624919 0.5170689225
-0.11371243 -0.37525102 1.853 -0.7875154614 -0.1695519984 0.5925129056
-0.22334398 -0.28341582 1.7570001 -0.05120141059 -0.4011154771 0.9145954251
-0.03004512 -0.132552 2.016 -0.06414632499 0.9621955752 0.2646977901
-0.16558705 -0.49451438 1.7939999 -0.4403221309 0.5354821682 0.7206769586
-0.061612137 -0.035426978 1.7570001 -0.2292795628 0.9285729527 0.2918615043
-0.33558801 -0.28351399 3.3000002 -0.2297523171 0.8475281 0.4784453809
-0.19120188 -0.39478931 1.766 -0.590241611 0.00860760361 0.8071807623
-0.14933403 0.28760627 2.1030002 -0.01858898811 0.9547834396 0.2967205048
0.1237152 -0.42593375 2.016 -0.5616910458 -0.3212028742 0.7624512315
0.15502185 -0.0026636056 1.8230001 -0.1403885782 0.811479032 0.5672678947
0.033929631 -0.040392417 1.8430001 -0.1694717258 0.9097089171 0.3790896535
0.05533836 0.016110854 1.7342001 -0.3684417903 0.843986392 0.3897918165
0.26352197 0.064529516 1.8130001 -0.6698275805 0.1226965263 0.732309103
-0.082700349 0.079798579 1.6550001 -0.2776887417 -0.1645365059 0.9464759231
-0.024906099 -0.083573796 1.8940001 -0.2335812002 0.8905588388 0.3903136849
0.44121143 -0.16070615 3.3330002 0.0103769172 0.8886822462 0.4584060907
-0.23681396 -0.19223721 3.1780002 -0.2297523171 0.8475281 0.4784453809
-0.22818406 -0.16551378 1.8330001 0.3295233548 -0.3205223382 0.8880764842
0.014012639 -0.02024048 1.7760001 -0.2957877517 0.8928613663 0.3395705819
-0.14688724 -0.11517296 1.904 -0.297209084 0.8649707437 0.4043418467
0.02400138 -0.21601242 2.0280001 -0.3763566315 -0.2896932364 0.8800190091
-0.37473553 0.082568847 2.4150002 -0.2283251286 0.8691799641 0.4386272132
0.26412216 -0.013206107 1.8830001 -0.3861184716 0.7166339755 0.5808169246
0.17505367 0.094377846 1.7363334 -0.5977787971 -0.09157274663 0.7964137793
-0.0261159 0.018861484 1.6550001 -0.3137724996 0.7731254697 0.551202178
-0.050973784 -0.19510655 2.0050001 -0.4282288849 -0.7872582674 0.4436715543
0.096360572 -0.037564289 1.863 -0.1746253222 0.8800373673 0.4416335821
0.027300276 0.10201682 1.6390001 -0.3145159185 -0.03464376926 0.9486198425
0.22871971 0.012319797 1.8330001 -0.2709770799 0.7953824401 0.5421606898
-0.045937914 -0.49756852 1.8940001 -0.6118348837 0.07559879869 0.7873645425
-0.10537358 -0.064482339 1.794 -0.3175273538 0.8929248452 0.31915766
-0.096643731 0.30479947 1.6960001 -0.2351503521 -0.06892295927 0.9695122242
-0.083741821 -0.083741821 1.8730001 -0.2701614201 0.9189020991 0.2874574363
0.20478606 -0.056684013 1.9260004 -0.347312212 0.813724637 0.4660755396
-0.19497593 -0.092160754 1.8230001 0.03538284823 0.9077115059 0.4181002975
0.47865999 -0.054703999 3.1200001 -0.09526488185 0.8994460702 0.4265223444
0.29425317 0.28351402 2.45 -0.3745277524 0.8750908971 0.3065043688
-0.088188283 0.19281845 1.705 -0.7709360123 -0.3368069232 0.5405726433
-0.18488185 -0.20473187 1.8430002 -0.499687463 -0.6098653674 0.6151232719
-0.24182762 -0.4158819 1.7570001 0.4056245387 0.1432558298 0.902743876
-0.10234119 -0.43535617 1.853 -0.764380455 0.01320449915 0.6446302533
-0.064272813 -0.016441884 1.705 -0.2003258765 0.8783544898 0.4340079725
0.098361999 -0.3523148 2.0400002 -0.5614210963 -0.193908155 0.8044911027
-0.19847839 -0.33657724 1.766 -0.7918449044 -0.1009222642 0.6023257971
0.095661864 0.053809799 1.705 -0.4457847774 0.7002686858 0.5575838089
0.41186851 -0.46378469 3.9480002 0.0277761817 0.9111629725 0.4111088514
0.01489895 -0.24434277 3.3990002 -0.1839583218 0.8766003847 0.4446696639
0.080184318 0.10059487 1.6630001 -0.5018657446 -0.09709887952 0.859478116
-0.10706349 0.40439549 1.7363335 -0.8249356151 0.06658899039 -0.5612906218
0.044902861 -0.49565855 1.9700001 -0.5023613572 0.04976545274 0.8632244468
-0.12043296 -0.019328747 1.6960001 -0.04703605548 0.8373610973 0.5446228385
-0.25635663 -0.3035388 1.794 0.5906540751 -0.2848157287 0.7549885511
-0.1057143 -0.24536848 1.9040002 -0.6673997641 -0.2454527169 0.7030864358
-0.16503775 -0.071620159 1.7760001 0.04481517896 0.8670733571 0.4961606264
-0.18882962 -0.10672978 1.8730001 -0.05589276925 0.9773486257 0.2041216046
-0.16627596 -0.44618931 1.766 -0.5578406453 -0.03691796213 0.8291265965
-0.008394083 -0.4348135 1.9150001 -0.6735230088 -0.04855088145 0.7375700474
-0.40285727 0.14402668 2.381 -0.2170387655 0.8740946651 0.434571892
0.34086114 0.30275244 2.4150002 -0.3745277524 0.8750908971 0.3065043688
-0.1355045 -0.18730797 1.9150001 -0.4467203319 -0.6758846641 0.586191833
0.027154749 -0.15025628 2.0650001 -0.1422138959 0.9129122496 0.3825786114
-0.14379703 -0.26497424 1.8430003 -0.7149986029 -0.02412522398 0.6987095475
0.17143393 -0.11311104 2.016 -0.01041455287 0.8622711897 0.5063397884
0.39163506 -0.34632191 3.6920002 -0.1558061689 0.9159029722 0.3699272275
-0.06010865 -0.23528242 1.9590001 -0.6047984958 -0.3346562684 0.7226506472
0.028537547 -0.32439616 1.9930001 -0.6550319195 -0.09081760794 0.7501235604
0.046085492 -0.090464108 1.9470001 -0.04736142606 0.9134100676 0.404275775
0.19503291 -0.43454701 3.9030001 0.05839335918 0.9180426598 0.3921580315
0.14470419 -0.032337956 1.8630002 -0.06984753907 0.8665992618 0.494092077
0.42680165 -0.38048211 3.7740002 -0.4154849946 0.8212652802 0.3910186589
0.084054798 -0.152014 2.0400002 0.5057972074 0.7432060838 0.4379656017
-0.044902865 -0.12261937 1.9700001 -0.1621973813 0.7428168058 0.6495500207
0.018032596 -0.44394529 1.9590001 -0.6449160576 -0.2843492627 0.7093862295
0.00721935 0.051979318 1.6470001 -0.3665665388 0.6416859627 0.6736973524
-0.036933966 -0.39620072 1.9150001 -0.5013377666 -0.2720276117 0.8213777542
0.01485687 -0.057776716 1.8830001 -0.1541962624 0.8903048038 0.4284633994
0.086750194 -0.28544778 2.0530002 -0.5622413158 -0.4301091135 0.7063220739
0.1839948 -0.40478855 3.8160002 -0.01903743856 0.9384020567 0.3450205624
-0.13827752 -0.3798658 1.8130001 -0.8532583714 -0.1522246003 0.4987763166
0.21457961 0.092581965 1.766 -0.5983102322 0.05592212826 0.7993106842
0.044902865 -0.40585282 1.9700001 -0.3765683174 -0.2568295002 0.8900758028
-0.076760493 -0.39535782 1.8830001 -0.7384502888 -0.197836712 0.6446330547
-0.12874113 -0.47522959 1.8130001 -0.7347903848 0.1956272423 0.6494714022
0.16348079 0.027091105 1.7760003 -0.3054120541 0.7989991903 0.5179997087
-0.095036797 -0.34500954 1.8830003 -0.7379229069 -0.2425467074 0.6297942996
0.23184764 -0.073847771 1.9590001 -0.1931832731 0.8915170431 0.4097287059
0.062593997 -0.23785719 2.0400002 -0.7373878956 -0.466504097 0.4885008037
-0.1336989 -0.33404529 1.8430002 -0.6877831221 -0.2002887726 0.6977382898
0.014756054 0.025081083 1.6832001 -0.3313820958 0.7965488434 0.5056637526
-0.20717737 -0.21824792 1.8040001 -0.6432882547 -0.4293214083 0.633926928
-0.18934685 -0.2973215 1.7850001 -0.6566810608 -0.2380684018 0.7156070471
-0.25824395 -0.25698572 1.794 0.4851782024 0.00149545446 0.8744140267
-0.047522347 -0.3139869 1.936 -0.5896779299 -0.2039577365 0.7814609408
0.085425034 -0.4067356 2.0050001 -0.6743838191 -0.3755292296 0.6357548833
-0.26153859 -0.14457723 1.853 0.6485030055 -0.08020668477 0.7569747567
0.36643264 -0.38279125 3.7320001 -0.1249125227 0.9419456124 0.3116653562
-0.061784837 0.044542555 1.6390001 0.5483683944 0.1977701634 0.8125140071
0.14414416 -0.097253896 1.9810001 0.02810745873 0.8886030316 0.4578150809
0.086128116 -0.1165952 2.0050001 -0.03606871516 0.8852820992 0.4636535943
0.069337316 -0.32179627 2.0280001 -0.46714589 -0.2879935205 0.8359631896
0.1429107 0.06491366 1.7220001 -0.5487242937 0.5583894253 0.6221759915
0.083516002 -0.48397344 1.9930003 -0.7412317395 0.06886520982 0.6677073836
0.096242219 -0.072603777 1.9260001 -0.03990801796 0.9088208079 0.4152735472
0.084763572 0.014320788 1.7659999 -0.2357467413 0.8459389806 0.4783415794
-0.025882704 -0.35514468 1.936 -0.5482224226 -0.2777835727 0.788852632
0.38161036 -0.27612457 3.5390003 0.03869240731 0.8935570121 0.4472792447
-0.18388961 -0.044439986 1.748 0.3381967545 0.8063741922 0.48516348
-0.034920264 -0.27535483 1.959 -0.4633107483 -0.3248699307 0.8245014548
0.015630091 -0.28481498 1.9810001 -0.4683100879 -0.1011609212 0.8777540326
0.071358033 -0.29473972 3.5390003 -0.1632864624 0.8649912477 0.4744761586
-0.078739569 -0.069097988 1.8330001 -0.256457597 0.9238279462 0.2842032313
0.23535345 -0.036721814 1.9040002 -0.1445437223 0.7182453871 0.6806105375
0.12424646 0.0062909601 1.794 -0.2920642793 0.8026463389 0.5200551152
0.0045427112 -0.12335209 1.9930003 -0.3310705721 0.8285879493 0.4514800608
-0.2225804 -0.38265535 1.7390001 -0.02794614062 0.01851103827 0.9994380474
-0.086463176 -0.30679408 1.904 -0.7158336639 -0.2182209641 0.6632961631
0.12129121 -0.32766733 2.0650001 -0.3836919069 -0.09170084447 0.9188968539
0.00476819 -0.03814552 1.8130001 -0.3655652702 0.8657723665 0.3417604864
0.045072939 -0.021350341 1.8040001 -0.197004199 0.8578054309 0.4747201502
0.10909239 -0.3952364 2.0400002 -0.7904045582 -0.2355680466 0.5654805899
0.015543299 -0.36440405 1.9700001 -0.3800934255 -0.1314951479 0.915553391
-0.024911359 -0.03425312 1.7760001 -0.296700418 0.8999504447 0.3194651902
-0.16269302 -0.2956602 1.8230002 -0.8192130327 -0.2224436104 0.5285913944
-0.02123199 -0.057163049 1.863 -0.3192254305 0.838254571 0.4420682788
0.27157116 0.027317809 1.8330001 -0.5877285004 0.5029300451 0.6337480545
-0.095824055 -0.036507908 1.7350001 -0.1231884509 0.8962240219 0.4261538088
-0.10849626 -0.10181957 1.904 -0.2655858994 0.881916821 0.389470011
-0.21477567 -0.25546175 1.785 -0.4546149969 -0.3259858489 0.8288899064
0.1939064 0.007946983 1.8130001 -0.3738667071 0.6196613908 0.6901039481
-0.16584167 -0.18554564 1.8730003 -0.6144523025 -0.5656997561 0.5499383211
-0.03564176 -0.096741922 1.9360001 -0.1518972516 0.9181115627 0.366057843
-0.077173844 -0.47453701 1.8730001 -0.6616603732 -0.03539391607 0.748967886
0.01826272 -0.25391075 2.016 -0.4406903982 -0.5130903125 0.7365665436
0.11409203 -0.017676231 1.8330001 -0.2102853358 0.868660152 0.4485639036
-0.0070308656 -0.20565285 2.0050001 -0.6470614672 -0.4759349525 0.5956486464
0.17434269 -0.051472608 1.8940001 -0.04808164388 0.8339476585 0.549744904
0.16802543 -0.069586292 1.9360001 -0.05944050103 0.8462273479 0.5294960737
0.23406298 0.039537668 1.8040001 -0.4437371194 0.6477012038 0.6193387508
0.17535186 0.052320968 1.748 -0.3778600693 0.7288858891 0.5709177852
-0.064482339 -0.048754942 1.794 -0.2863924801 0.8814274073 0.3755863905
-0.24336793 -0.3173025 1.7570001 0.2529599667 -0.2111303657 0.9441584945
0.072311848 -0.030531669 1.8330001 -0.2190205157 0.8835844994 0.4138942957
0.01519614 -0.079357617 1.9260001 -0.07218462974 0.90996176 0.4083614051
0.40030792 -0.34266359 3.6530001 -0.182475701 0.8873414397 0.4234710932
0.037338547 -0.10680562 1.9810001 -0.111349456 0.8618972301 0.4947064221
-0.25271407 -0.18754882 1.8130001 -0.1444488168 -0.6913014054 0.7079808712
-0.35647547 -0.30388072 3.3330002 -0.2297523171 0.8475281 0.4784453809
-0.16356495 -0.40104869 1.794 -0.633146584 -0.2080961168 0.7455343604
-0.1095395 0.18256584 2.45 -0.2295755595 0.9015981555 0.3666276932
0.12129121 -0.27516812 2.0650001 -0.2338491678 -0.4834468663 0.8435601592
-0.17213349 -0.36461008 1.785 -0.807969451 -0.2904434502 0.5126674771
-0.057131488 -0.00146491 1.6710001 -0.08958564699 0.8503320217 0.5185651779
-0.11986575 -0.26600346 1.8730001 -0.7687342763 -0.1957174987 0.6088860631
0.0088894004 -0.13689676 2.0280001 -0.2302372605 0.8495274186 0.4746514559
-0.2088597 -0.4192439 1.7390001 -0.2397783101 0.1341874599 0.9615092874
-0.028965943 -0.022867849 1.7390001 -0.321305722 0.873985827 0.3645702302
-0.21546538 -0.08020974 1.794 0.08557476103 0.7700954676 0.6321629286
-0.099606864 0.3693116 1.748 -0.6866320372 -0.2487312704 0.6831318736
-0.13759108 -0.080656841 1.8040001 -0.1645822674 0.9266983271 0.3378504217
-0.12437153 0.41852829 1.7660002 -0.8007539511 0.224348262 -0.5553926229
-0.025182249 -0.47510508 1.9150001 -0.5464799404 0.06229097769 0.8351523876
0.23289859 -0.012739194 1.8630002 -0.1100925207 0.765984118 0.6333624721
-0.111512 0.22451083 1.6960001 -0.8983342648 -0.2777465284 0.3403709829
-0.19539848 -0.48187914 1.7760001 -0.2717925906 0.6026726961 0.7502762079
0.12460151 -0.083636619 1.9470001 -0.004289690871 0.9014514089 0.4328590631
0.39035249 -0.20560551 3.3990002 0.008437878452 0.8792690635 0.4762507379
0.10460562 -0.056453828 1.8940001 -0.1061748043 0.8436508775 0.5262889862
0.20420372 -0.46378469 3.9480002 0.05324759707 0.9161835313 0.3972058296
-0.078006849 -0.23537132 1.9260002 -0.6269625425 -0.4731380343 0.618917048
0.044897605 -0.0030963868 1.766 -0.3585376441 0.8558226228 0.37285164
0.33522418 0.27683032 2.467 -0.3745277524 0.8750908971 0.3065043688
0.11311104 -0.46128097 2.016 -0.6738432646 0.1189166307 0.729242146
-0.066766933 -0.091804534 1.904 -0.1884425879 0.9023054838 0.3877295256
0.24255174 0.079807349 1.7850001 -0.684710443 0.2003010809 0.700750351
0.06206274 -0.05063013 1.863 -0.1801047176 0.8668329716 0.4649332464
0.063845746 0.035232607 1.705 -0.4330589771 0.7825126052 0.447363317
0.1858051 -0.012925573 1.8430001 -0.3155837357 0.7671089768 0.5585255027
-0.1162346 -0.40494636 1.8330001 -0.6375968456 -0.1574579477 0.7541069388
-0.086429693 0.11279807 1.6710001 -0.7336083651 -0.08991974592 0.6735972166
0.30499232 0.28320718 2.4850001 -0.3745277524 0.8750908971 0.3065043688
-0.056992099 -0.19860883 1.9700001 -0.5166031718 -0.5610899329 0.6467605829
-0.097209185 0.047879148 1.6550001 -0.6585689783 -0.1602527499 0.7352591157
0.30474424 0.33474144 2.3330002 -0.3745277524 0.8750908971 0.3065043688
0.19257736 -0.45868427 3.9940002 0.05324759707 0.9161835313 0.3972058296
-0.16641676 -0.234276 1.8430002 -0.5448772311 -0.2711726725 0.7934570909
0.02415392 0.0075480998 1.7220001 -0.3445610106 0.8567403555 0.383762449
0.085891061 0.032474715 1.7310002 -0.2864655554 0.8101097941 0.5115267038
-0.11031973 -0.11371419 1.9360001 -0.2440620065 0.8440311551 0.4775407314
0.13138516 -0.41755283 2.0530002 -0.7408578396 -0.3610687852 0.5663558841
-0.10778002 -0.20716599 1.9150002 -0.6571558118 -0.4428501725 0.6099425554
0.2781935 0.01252143 1.863 -0.4390100241 0.6540122032 0.6160667539
0.49415156 -0.06349434 3.1490002 -0.09526488185 0.8994460702 0.4265223444
-0.16641675 -0.10340458 1.8430001 -0.1315634698 0.9322775006 0.3369713128
-0.10416377 0.32607794 1.7220001 -0.4388381839 -0.4834346771 0.7574377656
-0.11210375 0.27203843 1.705 -0.7281134129 -0.02341333963 0.6850566864
0.42400157 -0.33661196 3.6920002 -0.1558061689 0.9159029722 0.3699272275
-0.32275361 -0.1941992 3.1200001 -0.1731427908 0.9070723653 0.3837203383
-0.05226336 -0.07022889 1.863 -0.1871217638 0.9118385315 0.3654257059
-0.16152933 -0.040759739 1.7220001 -0.009850017726 0.8302934766 0.5572393537
-0.39609379 -0.10024595 2.789 -0.2806493938 0.8684959412 0.408596009
-0.02432224 0.042921599 1.6320001 -0.1602959782 0.5277740359 0.8341221213
-0.1444957 -0.1001618 1.8730001 -0.3325953186 0.9051580429 0.2647060156
-0.12988254 0.44754708 1.7850001 -0.8287053704 0.1839933395 -0.5285772085
-0.23621871 -0.12694746 1.8330001 0.3426757157 0.07957766205 0.9360772967
-0.0038991631 0.083900012 1.6380001 -0.3899479806 -0.09065754712 0.9163633585
0.08203496 0.068850771 1.6710001 -0.4817022979 0.3928129375 0.7833651304
-0.068850771 0.04687712 1.6710001 0.04629833624 -0.0834171772 0.9954386353
0.052715424 0.08511848 1.6550001 -0.4693962336 0.1330096275 0.8729121685
-0.21718277 -0.06007183 1.7570001 0.2240226865 0.8248681426 0.5190437436
-0.09521389 -0.051864475 1.766 -0.2747684121 0.884454608 0.3771503568
-0.15255578 -0.45452186 1.794 -0.7546836734 -0.06045771763 0.6532973051
0.08306592 -0.36937824 2.016 -0.6542847753 -0.08799435198 0.7511114478
-0.094586492 -0.2754136 1.9040002 -0.7122372985 -0.2133641839 0.668725431
0.1305532 -0.3451612 2.0400002 -0.2756676674 -0.2122520804 0.9375267625
-0.11986225 -0.44588757 1.8230001 -0.8180249333 -0.1176054254 0.5630312562
0.09376622 -0.44669995 1.9930001 -0.8054332733 -0.0701199919 0.5885239244
-0.034197014 -0.0034692623 1.6960001 -0.2603905499 0.8854591846 0.384913981
0.11356779 -0.106579 1.9930001 -0.07204198837 0.8750058413 0.4787220061
0.23469596 -0.065849937 1.9260001 0.1038732529 0.9332968593 0.3437547982
-0.0898408 0.17231759 1.6800001 -0.9779265523 -0.05387320742 0.2018843442
0.28753 0.051982827 1.853 -0.6935806274 0.1963972896 0.6930902004
-0.1134696 -0.075113676 1.8230001 -0.3094753325 0.9106366038 0.273799181
-0.097264938 -0.46435124 1.8430001 -0.7621814609 -0.1351470202 0.6330992579
-0.025181811 -0.21447957 1.9810001 -0.4963231087 -0.5744787455 0.6508744359
0.15367705 0.092606686 1.7129999 -0.7424803972 0.05576981604 0.6675421596
0.05939329 -0.13858435 2.0530002 -0.1297512352 0.8959214091 0.4248405099
-0.2053013 -0.2053013 3.2080002 -0.2297523171 0.8475281 0.4784453809
-0.14132831 -0.29402786 1.853 -0.7776331902 -0.1859116703 0.6006025672
0.27474594 -0.033049632 1.904 -0.222331211 0.7662376165 0.6028671265
-0.045779783 -0.46609989 1.8940001 -0.6029676795 0.09091622382 0.7925681472
0.0045972397 -0.011748503 1.748 -0.3401680887 0.8785153627 0.3354049325
0.054489214 -0.33572388 2.0050001 -0.4055204093 -0.4370912015 0.8028103709
-0.092183247 -0.0074341334 1.6960001 -0.07027205825 0.8014088869 0.5939744115
-0.21607028 -0.35398746 1.748 -0.2996961176 -0.3777163327 0.87607795
-0.22251552 -0.19231699 1.8130001 -0.386603117 -0.7208040357 0.5753082633
-0.11493976 -0.092772812 1.8730001 -0.2384542972 0.9274150729 0.2881681025
-0.13016133 -0.49814832 1.8330001 -0.6666110754 0.2712250352 0.6943102479
0.46894303 -0.046081107 3.0920002 -0.09666058421 0.899589777 0.4259048402
-0.13389856 -0.070063196 1.7760001 -0.2137986422 0.8937489986 0.3943384588
0.39587811 -0.36316091 3.7320001 -0.1205633134 0.928239584 0.3519030213
0.064765625 -0.26541209 2.0280001 -0.644761622 -0.2574178874 0.7197350264
-0.083245635 -0.42471781 1.8830003 -0.7118387818 -0.2008819729 0.673002243
0.063900232 -0.098440908 1.9700001 -0.02528041415 0.8764122725 0.480897516
-0.035887226 -0.42814296 1.904 -0.4071764648 -0.3236991763 0.8540645242
0.1019388 -0.32191199 2.0400002 -0.5709680915 0.03973903134 0.8200098872
0.0048470898 -0.0468552 1.8430001 -0.2534536719 0.9203427434 0.2978765965
-0.24755664 -0.28180975 1.7760001 0.5824318528 -0.2526236475 0.7726282477
0.1971435 -0.075955719 1.9470001 -0.3125005066 0.8178904653 0.4831134975
-0.074262433 -0.12520993 1.9700001 -0.3206029236 0.7929943204 0.518048048
0.063759968 -0.22528522 2.0780001 -0.6076894999 -0.7107565403 0.3543142974
-0.24552436 -0.385692 1.7570002 0.5344544649 0.06980423629 0.8423098326
-0.18843044 -0.36710563 1.7570001 -0.5415654778 -0.2845872045 0.791022718
-0.099627033 0.12850443 1.6470001 -0.8639702201 -0.1270278841 0.4872570038
0.12491185 -0.36749429 2.0650001 -0.7676191926 0.1248256341 0.6286329031
0.20955577 0.0016244634 1.853 -0.2594229579 0.7678356767 0.5857713223
0.026742214 -0.47571704 1.9589999 -0.7073543072 -0.005665553734 0.706836462
-0.10289349 -0.40014136 1.863 -0.7716737986 -0.3179628849 0.5508349538
-0.066433169 -0.32449126 1.9150001 -0.6512592435 -0.2938691676 0.6996444464
0.013240588 -0.33562014 1.9700001 -0.4838692546 -0.1901818365 0.8542256355
-0.13751797 -0.24531114 1.8630002 -0.8477833867 -0.2458177954 0.469932884
0.075102285 -0.085343495 1.9470001 -0.1812394112 0.8502324224 0.4942237139
-0.0017577166 -0.23553404 2.0050001 -0.7895308137 -0.2760511041 0.5481212139
0.45527667 -0.037274115 3.0370002 -0.09666058421 0.899589777 0.4259048402
0.015456509 -0.41389099 1.9589999 -0.6577566862 -0.1443183571 0.7392755747
-0.014096798 0.011572001 1.6800002 -0.4023880064 0.8033818007 0.4389323294
-0.19150607 -0.060721438 1.7760001 0.3633307815 0.7433109283 0.5616757274
0.10452741 0.084737204 1.684 -0.5745388269 -0.05398557708 0.8166949749
-0.1660582 -0.082238346 1.8040001 -0.1165088639 0.907645762 0.4032429755
0.031765141 0.066418022 1.6470001 -0.5795221329 0.3942867219 0.7132265568
-0.11371419 -0.18584633 1.9360001 -0.5453586578 -0.297799319 0.7835174203
0.19187428 0.02988206 1.794 -0.3508619368 0.8216797113 0.4491529167
-0.19465013 -0.44461295 1.766 -0.2989031672 0.1550505012 0.9416030049
0.082790643 -0.25737092 2.0530002 -0.6796951294 -0.3584171236 0.639962256
0.072940417 -0.41506568 1.9810001 -0.645060122 -0.3144969642 0.6964116096
0.05649269 -0.39428404 1.9930001 -0.6165659428 -0.3755974472 0.6919342279
0.1927776 0.074475288 1.7479999 -0.7728117108 0.05537261814 0.6322150826
-0.0085869497 -0.28508675 1.9590001 -0.5997116566 -0.136720255 0.7884500623
-0.0016972268 -0.45655397 1.9360002 -0.7045864463 -0.01979391277 0.7093420625
-0.019103443 -0.13198742 1.9810001 -0.1642421484 0.8554862142 0.4910884202
0.097204797 -0.14669088 2.016 -0.0892431438 0.6083829403 0.7886101007
-0.12227922 -0.031702019 1.7220001 -0.09766937047 0.8430328965 0.5289198756
-0.15757294 -0.20955577 1.853 -0.5892757773 -0.6176174283 0.5208673477
0.15628248 -0.085297041 1.9590001 0.1034743711 0.8599754572 0.4997351766
0.0052415901 -0.26207951 1.9930001 -0.5599431396 -0.5895939469 0.5821019411
-0.18287554 -0.22488441 1.8230001 -0.6274602413 -0.4648267925 0.6246836782
-0.21410216 -0.31576219 1.7570001 -0.3325769901 -0.1246038079 0.9348082542
-0.056310929 0.018770309 1.6470001 0.2359537482 0.6005298495 0.7639958858
0.14413276 -0.11073615 2.0050001 -0.07282428443 0.8341132998 0.5467646718
-0.16815168 -0.47175887 1.7760001 -0.4783046544 0.5551229715 0.6804874539
-0.23821488 -0.24444272 1.7760001 -0.0774628371 -0.1241677925 0.9892329574
-0.014311585 -0.34405044 1.959 -0.6977012753 -0.2496306896 0.6714890003
0.16651006 0.013329842 1.804 -0.2244922072 0.7894735932 0.5712571144
0.1145663 0.017030127 1.766 -0.329395473 0.8070217371 0.4901168346
-0.064645931 -0.027618682 1.7310002 -0.2445196509 0.8919905424 0.3802143931
0.061827797 -0.47424334 1.97 -0.3580844402 0.02935824916 0.9332275391
0.064158849 -0.0065723695 1.7850001 -0.2082622349 0.8546923995 0.4755289555
0.066492707 -0.29477251 2.0280001 -0.6461214423 -0.1466597021 0.7490113974
-0.092992999 -0.37362278 1.8830003 -0.6926700473 -0.2780255377 0.6655148268
0.033979598 -0.14247586 2.0400002 -0.1690706909 0.8893952966 0.4247247577
-0.18243784 -0.32555714 1.794 -0.5997653008 -0.0872702226 0.7954027653
-0.03263041 -0.30226064 1.9590001 -0.5721221566 -0.05657402799 0.8182148933
0.097204797 -0.43300319 2.016 -0.6473559141 -0.2004936337 0.7353452444
-0.0036447418 0.031344779 1.6630001 -0.4596807361 0.7240523696 0.5142390728
-0.02477951 -0.38459155 1.9360001 -0.5566072464 -0.2570940554 0.7899942994
-0.1245305 -0.22415492 1.8940002 -0.7005249262 -0.321495831 0.6371069551
-0.06379503 -0.38109139 1.9150001 -0.5265805721 -0.2798163891 0.8027550578
-0.12164013 0.2958408 1.7130001 -0.3707762957 -0.07944709063 0.9253178239
-0.11595934 -0.33481216 1.863 -0.7951388359 -0.2872651219 0.5340720415
-0.16875307 -0.4195604 1.766 -0.655323565 -0.1400052309 0.7422597408
0.11624074 0.052836701 1.7220001 -0.2889644802 0.7507724166 0.5940036178
0.12436042 0.073839001 1.7050002 -0.3445869386 0.4447358549 0.8267223835
-0.25091165 -0.10707694 1.8230001 0.9762585163 -0.1355882436 0.1689236164
0.036691129 -0.3546809 1.9930001 -0.4237239659 -0.3185571432 0.8479264975
0.04457061 -0.057776716 1.883 -0.06771855056 0.8918054104 0.4473223388
-0.14543286 -0.35639042 1.8230002 -0.8031327128 -0.2794772089 0.5261847377
0.2542285 0.007310085 1.853 -0.3436703086 0.718321681 0.6049005985
-0.096112467 0.28431177 1.7220001 -0.2706880867 0.04606486857 0.961564362
-0.10880134 0.43367299 1.748 -0.8239174485 0.1860770732 -0.5352899432
-0.15618676 -0.055758983 1.7570002 0.0780300051 0.8691813946 0.4882980585
0.1097876 -0.30056605 2.0530002 -0.4527092278 -0.515403986 0.7276077867
0.037367918 0.022420749 1.705 -0.3712095618 0.8220588565 0.4317669868
-0.02576085 -0.10647818 1.959 -0.1628133655 0.8267126679 0.5385517478
-0.0067152665 -0.49357212 1.9150001 -0.5249584913 -0.1063408107 0.8444585204
-0.042921599 0.06152096 1.6320001 0.1024173722 0.3114930987 0.9447130561
0.026706774 -0.071774453 1.904 -0.01170405094 0.898198247 0.4394348264
0.17475562 -0.027764909 1.863 -0.1159503162 0.8532527685 0.508443892
-0.25389493 -0.15908606 1.8330001 0.5599998832 -0.267259419 0.7842018604
-0.049499229 -0.25773737 1.9470001 -0.6554080248 -0.2111608982 0.7251560688
-0.0017366767 -0.30391839 1.9810001 -0.5797698498 -0.04269686714 0.8136608005
-0.14224149 -0.20201616 1.8940001 -0.6136357188 -0.6478818059 0.4513317645
0.077843614 -0.15206659 2.0650001 0.2223587781 0.9236180782 0.3122278154
0.143797 -0.016156966 1.8430001 -0.1083690673 0.8431390524 0.5266618133
0.075996481 -0.34463519 2.016 -0.653281033 -0.3058490157 0.6925895214
0.044902865 -0.43348536 1.9700001 -0.329559505 -0.1165442392 0.9369140863
0.21456856 0.025430346 1.8130001 -0.1299178451 0.7433228493 0.6561954618
0.025756175 0.044222862 1.6630001 -0.3975668252 0.6908681393 0.6038557887
0.076448843 -0.12267372 2.0280001 0.1192333624 0.8617814183 0.4930681884
0.14528558 -0.047321592 1.8940001 -0.0670895651 0.8561127782 0.5124157071
0.0033944531 -0.42600393 1.936 -0.8392830491 -0.120398365 0.5301963091
-0.22765684 -0.43713808 1.7570002 0.1830007285 0.2584942877 0.9485206604
0.11986575 -0.037765924 1.8730001 -0.1425988227 0.8551009297 0.4984656572
-0.12106065 0.38310331 1.748 -0.7869662642 -0.2259645462 0.574129045
-0.069981672 -0.21506561 1.9470001 -0.5917468667 -0.4442925155 0.6726364493
0.23159778 0.0563346 1.7850001 -0.55442518 0.3657987118 0.7475319505
0.1511198 -0.12267372 2.0280001 -0.05249365047 0.7846196294 0.6177511215
0.03691205 -0.30056953 2.0050001 -0.6527172923 -0.04407724366 0.7563182712
-0.01350768 -0.08948838 1.9260001 -0.3222902119 0.8792984486 0.3506611288
0.20256962 -0.041510165 1.8940001 -0.3405254781 0.7817201018 0.5224519968
-0.15265834 -0.31656522 1.8330001 -0.7679323554 -0.1945142448 0.6102819443
-0.097395033 -0.31529579 1.883 -0.6867464781 -0.1474814564 0.7117784023
0.15245233 0.047260225 1.7390001 -0.3017440438 0.7058520317 0.6408771276
0.064646281 -0.11182059 1.9930001 -0.01808759756 0.9103975296 0.4133390188
0.18299101 -0.062116217 1.9150001 -0.1449781954 0.8628477454 0.4842262268
0.044183999 -0.25803456 2.016 -0.3026081324 -0.4825436473 0.8219367266
0.033105563 -0.25581571 3.4330001 -0.1729035079 0.8783068657 0.4457370043
-0.17554724 -0.28625271 1.804 -0.6335719824 -0.2411569655 0.7351393104
-0.01510935 -0.40795246 1.9150001 -0.4510896802 -0.3702759147 0.8120430112
0.10439494 -0.2564615 2.0650001 -0.4215956032 -0.4065893888 0.8105197549
-0.20707569 -0.27713889 1.7760001 -0.6047801971 -0.4603809714 0.649838686
0.065427825 -0.075558588 1.9260004 -0.2109743804 0.8644602895 0.4562874734
-0.085598603 -0.025529411 1.7130001 -0.1407140195 0.8580898643 0.493843466
0.16598368 -0.106579 1.9930001 0.1347914636 0.8809072971 0.4536888301
-0.045588419 -0.36639583 1.9260004 -0.4359042346 -0.1969183087 0.8781859875
-0.12107205 0.32136407 1.705 -0.1470893025 -0.3865315616 0.9104713798
-0.0017270333 -0.38167438 1.9700001 -0.5952489376 -0.3268513083 0.7340619564
-0.1446351 -0.49377254 1.8130001 -0.5908444524 0.4252868295 0.6855902076
0.107304 -0.1448604 2.0400002 -0.04347567633 0.8529942036 0.5201064944
0.038554221 -0.38311088 1.9810002 -0.4931175709 -0.294174999 0.8187161684
-0.064755857 -0.41344127 1.8940002 -0.6077676415 -0.2420274615 0.7563340664
-0.045588419 -0.33600354 1.9260004 -0.5866997838 -0.2765510082 0.7611194849
0.095455848 0.0031297 1.785 -0.2263549417 0.8480744958 0.4790960848
-0.2607908 -0.23587944 1.7760001 0.3633044064 -0.07243339717 0.9288505316
-0.034540668 -0.25387391 1.9700001 -0.4976018965 -0.1786861867 0.8488012552
-0.20401436 -0.24513353 1.804 -0.5374022722 -0.2023850828 0.8186812997
-0.054635618 -0.062670268 1.8330001 -0.2770750821 0.9207292199 0.2747490704
0.0755485 -0.057284031 1.8940001 -0.1793314666 0.8818538785 0.4360893965
-0.11794586 -0.35383758 1.8430001 -0.6836681366 -0.1636235565 0.7112138867
0.029115854 -0.0045972401 1.748 -0.3745753765 0.845813632 0.3798586428
-0.22690324 -0.2253384 1.7850001 -0.2249617279 -0.2072301507 0.952075541
-0.042463981 -0.039318498 1.794 -0.1957118511 0.9124402404 0.3593740463
0.02576085 -0.094456457 1.9590001 -0.01430218481 0.8795211315 0.4756448567
-0.083819844 -0.061678756 1.8040003 -0.2815946937 0.890455246 0.3574827611
-0.02560305 -0.32643887 1.9470003 -0.5714840889 -0.2491792291 0.7818667889
-0.087298468 -0.10240781 1.9150001 -0.2385704815 0.857463479 0.4558953047
0.21677248 -0.05974045 1.9470001 -0.1092867106 0.859360218 0.4995562136
-0.10559011 -0.083930612 1.853 -0.2418311834 0.9272835851 0.2857670188
-0.052912969 -0.28504729 1.9470001 -0.6256956458 -0.2816565335 0.7274438739
0.041133199 -0.22712679 2.0400002 -0.4952578247 -0.5757205486 0.650588572
0.14426428 -0.076375201 1.936 -0.0804316923 0.8479492068 0.5239397287
-0.087799922 -0.18741906 1.9260001 -0.6637724638 -0.2933298349 0.6880143285
0.10159602 -0.49462146 2.0050001 -0.8069975376 0.08933399618 0.5837588906
-0.089011028 -0.45485455 1.863 -0.7399351597 -0.06190816686 0.6698233485
-0.0033208132 -0.06807667 1.8940001 -0.3708680272 0.8410332799 0.3938526511
0.244519 0.030365104 1.8230001 -0.3146615922 0.6462174654 0.6952633262
-0.045328051 -0.092334919 1.9150001 -0.127633214 0.9296555519 0.3456159234
-0.14145631 -0.40529618 1.8130001 -0.8366311789 -0.07801699638 0.5421822667
-0.091748416 0.21457295 1.6880001 -0.8328764439 -0.33100155 0.4435704648
0.22615458 -0.023110688 1.8830003 -0.1005831808 0.8353712559 0.540405333
0.15948758 -0.062116217 1.9150001 0.008715120144 0.8772435188 0.4799665213
-0.19247656 -0.34896156 1.7850001 -0.7412723303 -0.2586123645 0.6193827391
-0.10729962 -0.28558207 1.883 -0.7081626058 -0.1784988195 0.6831133962
0.072510853 0.04883384 1.6880001 -0.4047212005 0.7464703321 0.5281882286
-0.1283326 -0.31352141 1.853 -0.7624507546 -0.3335849643 0.5544275641
0.091095306 -0.020776123 1.8230001 -0.2614509165 0.8440936804 0.4681338072
-0.045288596 -0.01811544 1.7220001 -0.2765825391 0.8631312251 0.4225003719
0.11487839 -0.11841312 2.016 -0.00129934703 0.8141313791 0.5806792378
0.085097149 -0.10593728 1.9810002 -0.1180314422 0.8459815979 0.5199843049
0.28492177 -0.0029713742 1.8830001 -0.3953864276 0.6929357648 0.602917552
0.13483274 0.022108832 1.7760003 -0.238161087 0.8060820699 0.5417665243
-0.16511205 -0.25510013 1.8330001 -0.5983940959 -0.3041430414 0.741229713
0.065249421 -0.49544907 1.9810001 -0.5098398924 0.1793546528 0.8413650393
0.10133916 -0.37691057 2.0280001 -0.6062630415 -0.1500785202 0.7809747458
-0.0078637004 -0.03460028 1.794 -0.3590404391 0.8392577767 0.4083336592
-0.20570645 -0.20524982 1.8230001 -0.6499606967 -0.5310595632 0.5436237454
0.06315244 0.0077015166 1.7570001 -0.3331181705 0.8395305276 0.4292094409
-0.12339456 -0.24555103 1.8830003 -0.7682014704 -0.2758220136 0.5777445436
0.02449845 -0.05171895 1.863 -0.1226732805 0.9116622806 0.3922030032
0.02477153 -0.032762349 1.8230001 -0.2413648069 0.9008770585 0.3607818186
-0.01386273 -0.022077681 1.7570001 -0.3508590162 0.8871106505 0.2998876572
-0.25828966 -0.12183475 1.853 0.6252391338 -0.1735373139 0.7608947754
