# .PCD v0.7 - Point Cloud Data file format
VERSION 0.7
FIELDS x y z normal_x normal_y normal_z
SIZE 4 4 4 4 4 4
TYPE F F F F F F
COUNT 1 1 1 1 1 1
WIDTH 512
HEIGHT 1
VIEWPOINT 0 0 0 1 0 0 0
POINTS 512
DATA ascii
0.24616273 0.085150629 1.7659999 -0.4238727093 0.6154533625 0.6644915938
0.49448645 -0.47589672 4.2410002 -0.4313017726 0.8665888309 0.2510032356
-0.33341035 -0.15721789 3.0920002 -0.201180473 0.8768455386 0.4366558194
0.36131379 0.23077461 2.6590002 -0.2468853891 0.8852417469 0.3942013085
0.42259893 -0.1368126 3.4680002 -0.1701607853 0.9208692312 0.3507779539
-0.15258208 -0.46241713 1.7760001 0.08584760129 -0.62900877 -0.7726436257
-0.48419878 0.072961457 2.5220001 -0.1525934041 0.8924267888 0.4246053398
-0.11835789 0.34755889 2.1430001 -0.1690506786 0.9055980444 0.3889911175
-0.20281333 -0.0061927736 1.766 0.9094110131 0.3824508786 0.1634104252
0.1627444 -0.26289481 2.0400002 0.1680598855 0.4061754942 -0.8982078433
0.25759271 -0.34457207 3.8160002 -0.2492370158 0.8757327199 0.4134888947
-0.12798543 0.48451698 1.7380002 0.9470796585 0.008553587832 0.3208845854
0.01460965 -0.17239387 3.3330002 -0.2259701341 0.9031721354 0.3649898767
0.2609705 0.44095019 2.0530002 -0.21181117 -0.7900476456 0.575291872
-0.07624808 0.14596061 2.4850001 -0.2401521504 0.8575292826 0.4549401104
-0.34267583 -0.30095878 3.3990002 -0.1417674124 0.8980903029 0.416336149
0.26538453 0.34209725 2.365 -0.2032218426 0.9183531404 0.3396003544
0.0056667733 0.11475217 1.6159998 -0.3642928302 -0.1392378807 0.9208167791
0.035052639 -0.046736851 1.904 -0.2394697517 0.878146708 0.4141408503
0.4656871 -0.36064488 3.9940002 -0.2902815342 0.8726115823 0.3927921355
0.062473021 -0.4812111 1.9260001 0.4156690836 -0.003925753757 -0.9095074534
-0.12400471 -0.22417791 1.8430002 0.6392025352 0.2216472626 -0.7364051938
0.083768129 -0.25750944 3.5390003 -0.1839589328 0.9039478898 0.3860535324
-0.13373023 -0.13651629 3.1780002 -0.1115883142 0.9033384919 0.4141588509
0.24339966 -0.033796024 1.9470001 -0.1780001372 0.901022017 0.3955695033
0.45326999 -0.27460882 3.7740002 -0.2530008256 0.9068739414 0.3370018303
0.25074857 -0.18584895 3.3650002 -0.1622003019 0.9042413235 0.3950173855
-0.11248948 0.27611056 2.3330002 -0.1870028079 0.8894310594 0.4170639217
0.33745268 -0.46807951 4.1390004 -0.3768094778 0.8746471405 0.3049705625
0.01527504 -0.30380356 1.936 0.5802642107 0.001574677532 -0.8144267797
-0.18700352 -0.2337544 3.3330002 -0.122355327 0.9023730159 0.4132216275
0.36644754 0.30939582 2.503 -0.267634213 0.8963463306 0.3534617424
-0.026051024 -0.0015324134 1.748 -0.3553116918 0.8616921306 0.3622710705
0.1126692 -0.1055156 2.0400002 -0.02190408111 0.9043266773 0.4262785912
-0.21668324 -0.31598365 1.7479999 -0.100467518 -0.005223094486 -0.9949266315
0.49672809 -0.10226755 3.3330002 -0.1471063495 0.9191923738 0.3653014004
-0.11165577 -0.072247855 1.8730001 -0.4080200195 0.8762303591 0.2563980818
0.40440983 -0.24139191 3.5760002 -0.1870992482 0.9196879268 0.3452072442
0.10416379 0.06491366 1.7220001 -0.3798917532 0.8133056164 0.4406996965
0.15729503 -0.41532961 2.016 0.8138841391 0.1871026158 -0.550077498
-0.03263041 -0.16315205 1.9590001 0.4938494265 0.5677662492 -0.6586002111
-0.32670385 -0.23786333 3.2690001 -0.200244233 0.8854899406 0.4192968011
0.04477312 0.20467712 2.4320002 -0.2514106929 0.8708884716 0.4223102331
0.15349118 0.0080784829 1.8430001 -0.1659511477 0.8290963173 0.5339096785
-0.10444256 0.02575296 1.6320001 -0.5849602222 0.7169646025 0.3791877031
-0.053607289 -0.3947446 1.8529999 0.6970707774 0.2219466567 -0.6817858815
0.43420687 0.19648467 2.7670002 -0.2855867743 0.8362936378 0.4680311084
-0.10011095 0.17555688 1.6550001 -0.8975117207 -0.1643606573 0.409216702
-0.22299244 -0.15498765 1.8040001 0.4459211528 0.704025805 -0.5527223945
0.41448537 -0.46408191 4.0410004 -0.4866871536 0.6168732047 0.6185491681
0.31358016 0.05063013 1.863 -0.4514744878 0.5469096899 0.7050252557
0.304028 -0.16113484 3.4680002 -0.1664245874 0.9175747037 0.361053437
0.065644674 -0.21440598 1.9930001 0.6641951203 0.1544630826 -0.7314273715
0.4825936 -0.42453724 4.1390004 -0.6596110463 0.6437571049 0.387930423
-0.076643459 -0.21289849 3.2380002 -0.1906019002 0.8946277499 0.4041189849
-0.2270216 -0.1449656 3.1200001 -0.1261554956 0.8889293671 0.440328747
-0.044830978 -0.4964616 1.8940001 0.4231620729 -0.5179915428 -0.7433832288
0.13484274 -0.055188794 1.9470001 -0.09792687744 0.9289585352 0.3569963872
-0.12177601 -0.32420886 1.8040003 0.6747539639 0.2759099901 -0.6845296025
-0.032449815 -0.26254851 3.3650002 -0.2006946504 0.9263824821 0.3186489344
0.34576872 -0.49448645 4.2410002 -0.3650858402 0.8820689321 0.2977696061
0.10550311 -0.32519272 1.9810001 0.4786992073 0.08992858231 -0.8733612895
0.054993123 -0.002860914 1.8130001 -0.2590102851 0.8592090011 0.4412182271
0.17645328 0.13891003 1.7130001 -0.6816779375 -0.2677052617 0.6809177995
0.48587146 -0.31821159 3.9030001 -0.1290056258 0.9050865769 0.4051862359
0.095656388 0.13464087 1.6470002 -0.5911338925 0.162773326 0.7899782062
-0.11054416 -0.038924001 1.7760001 -0.2653277218 0.9075447321 0.3255207837
-0.062398851 -0.28492177 1.8830001 0.574293673 0.2650298178 -0.7745618224
0.013977574 -0.087359831 1.9930001 0.07648763806 0.9382739663 0.3373300433
-0.014578965 0.034017589 1.6630001 -0.4130983353 0.8171462417 0.4020221233
0.035457656 -0.39341119 1.9260004 0.3432177007 0.1349638999 -0.9295086861
-0.03312178 -0.036353175 1.8430001 -0.3019102216 0.8866294026 0.3503406346
-0.11415953 -0.14941469 1.9150001 0.4676541686 0.7472688556 -0.4721110761
0.37545353 -0.16388845 3.3990002 -0.1664245874 0.9175747037 0.361053437
-0.18378878 -0.074314594 1.8230001 0.3370424509 0.7887085676 0.5141412616
-0.19550969 -0.2355458 1.7760001 0.654165864 0.3198087513 -0.6854118109
-0.15281275 -0.014703065 1.6960001 -0.265071094 0.8438211679 0.4665866792
-0.043899961 -0.069226861 1.9260001 -0.2172663361 0.7843539119 0.5810200572
0.23728998 0.032674242 1.8330001 -0.2236849815 0.8236326575 0.5211470723
-0.20381097 -0.4030247 1.748 -0.01984534226 -0.1825910956 -0.9829886556
-0.087898985 -0.48104715 1.8230001 0.6462999582 -0.2672970593 -0.7147367597
-0.26589563 -0.25420791 3.3330002 -0.122558549 0.9147828817 0.3849047422
0.16503777 0.051379681 1.7760001 -0.3054431677 0.7762397528 0.5515037179
0.05472504 -0.23410156 3.4680002 -0.2105826885 0.9172518849 0.3380886316
-0.078303866 0.10108317 1.6240001 -0.1135316417 0.2146959454 0.9700599313
0.1030434 -0.41389099 1.959 0.7434157133 0.2322387546 -0.6272146106
-0.10576677 -0.40380096 1.7939999 0.6848366857 0.04617961496 -0.7272318602
0.106188 -0.18897864 2.0530002 0.4046468735 0.6568932533 -0.6362013817
-0.063762411 -0.20597598 1.904 0.729136169 0.2259477079 -0.6459938884
0.05477526 0.073103108 1.6630001 -0.3433489203 0.7812492251 0.5213071108
0.12548256 -0.48248926 2.016 0.6023122072 -0.5851674676 -0.5429540277
-0.00171739 -0.23528242 1.9590001 0.7625186443 0.2958107889 -0.5753792524
0.037937749 0.031867709 1.7310001 -0.3153233826 0.8679638505 0.3836794794
0.49464512 -0.13409054 3.3990002 -0.1679846197 0.9240436554 0.3434014022
-0.077314988 -0.0014868267 1.6960001 -0.2107547373 0.8275682926 0.5203009844
0.093593813 -0.018061964 1.8730001 -0.0606145449 0.9152275324 0.3983521461
-0.16318536 -0.16318536 1.8430001 0.4963389933 0.563581109 -0.6603210568
0.20090921 -0.011622846 1.8940001 -0.3058333099 0.827892065 0.4701709747
-0.021699255 -0.35553393 1.9039999 0.6633589268 0.1599780768 -0.7310006618
0.18520284 -0.075129457 1.9930001 -0.06872894615 0.7750532031 0.6281471848
0.16318624 -0.34522429 2.016 0.2208542973 0.05857193843 -0.9735464454
0.27396709 0.0016604067 1.8940001 -0.09587787837 0.8967229724 0.432082504
0.29403839 0.10331079 1.8130001 -0.6438773274 0.3274927139 0.6914987564
0.0049812198 -0.44498897 1.8940004 0.5882977247 0.03216372058 -0.8080044985
0.37639245 -0.49110252 4.0890002 -0.4242340922 0.8000792265 0.4241446853
0.44518802 -0.40267667 4.0410004 -0.3889134228 0.7609704733 0.5192978978
-0.15711094 -0.35735038 1.7570001 0.3344963789 0.2199490517 -0.9163703322
0.074262433 -0.067354299 1.9700001 -0.1560920477 0.8542046547 0.4959532917
0.10387147 0.027358009 1.7760001 -0.3171332479 0.8098375201 0.4935480952
-0.33017808 -0.26589563 3.3330002 -0.200244233 0.8854899406 0.4192968011
-0.048718996 -0.16335192 3.2690001 -0.1906019002 0.8946277499 0.4041189849
0.10370529 -0.26541519 2.0050001 0.5650145411 0.2053024769 -0.7991304398
-0.33955666 -0.18496177 3.1490002 -0.1818962097 0.8792369366 0.4402909577
0.40616316 -0.38515472 3.9940002 -0.364941597 0.8424822688 0.3962842524
0.3496322 -0.20369875 3.4680002 -0.1664245874 0.9175747037 0.361053437
0.022713557 -0.16947807 1.9930001 0.3771824241 0.7541202307 -0.5376207829
0.13580118 0.10421712 1.681143 -0.5694925785 0.4590015113 0.6819060445
-0.15024313 -0.27043763 1.8040001 0.6122214198 0.1157298982 -0.782171011
-0.074725308 -0.3362639 1.853 0.7125418186 0.1689799875 -0.6809772253
0.44656348 -0.3044751 3.8590002 -0.1370584816 0.9080611467 0.3957776725
0.41940874 -0.4265781 4.0890002 -0.5944042802 0.6207796931 0.5111908913
0.053538028 -0.2745983 1.9700001 0.4372841716 0.1893639714 -0.879160881
0.28591168 -0.20465258 3.4330001 -0.1671360284 0.9165734053 0.3632612228
0.19448563 0.088640139 1.7390002 -0.4619843662 0.6416856647 0.6122173071
-0.045484975 -0.45647418 1.853 0.6719989181 -0.1983199716 -0.7135030627
0.064292103 -0.3453567 1.9470001 0.6697716713 0.299215883 -0.6796144247
0.49950799 -0.38614449 4.0410004 -0.2645787001 0.8705639243 0.4148693681
0.0084423004 -0.49809569 1.9260001 0.5409418344 -0.3870854378 -0.7466905713
0.35654032 0.32647067 2.45 -0.267634213 0.8963463306 0.3534617424
0.23386188 0.13324332 1.7390001 -0.4091021717 0.13526766 0.9024068117
0.4958865 -0.45180771 4.1900001 -0.4665249884 0.8357508779 0.2896116674
-0.10178889 -0.28597832 1.8430001 0.6970689893 0.1699853092 -0.6965628862
-0.16597195 -0.047642972 1.7760003 0.1583627462 0.897916317 0.4106915593
-0.024893327 0.068203673 1.6160001 -0.01374771446 0.5331473351 0.845910728
0.14404026 -0.025321202 1.8940001 -0.1652546972 0.8291985393 0.5339668989
-0.22690324 -0.35522094 1.7850001 -0.7111359835 -0.1189427674 -0.6929200888
-0.016068673 -0.26405391 1.9150001 0.5144526958 0.3430271745 -0.7859203815
0.00157274 -0.01100918 1.794 -0.230772242 0.9273201227 0.2946549356
0.0984409 -0.47320712 1.9700001 0.6795093417 -0.3768779635 -0.6294680238
0.024366951 -0.022742487 1.853 -0.1725715995 0.8940987587 0.4132873714
-0.05347316 -0.02673658 1.794 -0.3265880644 0.8993936777 0.2905706465
-0.1672049 -0.30499411 1.7659999 0.5388022661 0.1933899373 -0.8199344277
0.49493444 -0.34610802 3.9480002 -0.2324217856 0.8809289336 0.4122430086
-0.15973218 -0.20717737 1.8040001 0.4011523426 0.6014466882 -0.6908969879
-0.1262549 -0.059132043 1.8230001 -0.3421286047 0.8432861567 0.4145075381
0.39322969 -0.41448537 4.0410004 -0.4648827314 0.6351456642 0.6168257594
-0.10344579 -0.18554561 1.8730003 0.6003531814 0.3907030225 -0.6978017092
0.19178662 -0.042430665 1.9360001 -0.2518716455 0.8407154083 0.4793311059
0.3416107 -0.48119357 4.1900001 -0.3650858402 0.8820689321 0.2977696061
0.12405097 -0.078623846 1.9930001 -0.0001393507555 0.8203734159 0.5718281269
-0.14817718 -0.41372547 1.7570002 0.3630762994 0.01926987246 -0.9315600991
0.49110252 -0.40506998 4.0890002 -0.5036231875 0.7277829051 0.4655059278
0.4337475 -0.47676376 4.0890002 -0.4976792634 0.721979022 0.4806886911
-0.1228245 0.02663664 1.6880001 0.05333914235 0.7972159982 0.6013332009
0.12754536 -0.37390009 1.9930001 0.6606857181 0.2425604463 -0.7103934288
0.085629039 -0.044623584 1.9260004 -0.06782307476 0.8716636896 0.4853889942
-0.23224127 -0.20393194 1.794 -0.1567504704 0.1503609121 -0.9761254191
0.14045252 -0.21690136 2.0280001 0.5148460865 0.3589625359 -0.7785109878
0.0051206094 -0.068274796 1.9470001 -0.2827011645 0.8824309707 0.3760261238
-0.045478541 -0.093835473 1.9700001 -0.1039322838 0.9681033492 0.227978155
0.21483628 0.055045895 1.794 -0.124928236 0.8340775967 0.5373150706
0.31817302 0.29623005 2.503 -0.2468853891 0.8852417469 0.3942013085
-0.43555781 0.084016226 2.5220001 -0.1525934041 0.8924267888 0.4246053398
-0.047809891 -0.18561488 3.2080002 -0.193242386 0.8918723464 0.4089268148
-0.22342587 -0.26572049 1.7479999 0.4710068405 0.3499142826 -0.8097608089
-0.064974152 0.051979318 1.6470001 0.2586320341 0.3913912177 0.8831321597
-0.11229574 -0.019727631 1.7310001 -0.1110937893 0.8798412681 0.4621012211
-0.080184318 0.1297528 1.6630001 -0.8238376975 -0.2237107158 0.5208118558
0.054367349 0.11445759 1.6320001 -0.2878589034 0.1067284271 0.9517070651
0.05511428 -0.17601012 2.0280001 0.4529952407 0.8027052283 -0.3878912032
-0.064379767 -0.062729001 1.8830001 -0.2936057746 0.8844301105 0.3627382219
0.075581811 -0.10018984 2.0050001 -0.271984309 0.8394988775 0.4703894258
-0.011622846 -0.051472608 1.8940001 -0.2644974291 0.901892066 0.3415139616
-0.053695831 0.16967884 2.45 -0.2380146533 0.8546159863 0.4614981711
0.1360867 -0.30575329 2.016 0.5013441443 0.1751160175 -0.8473420143
0.37540531 -0.23268925 3.5390003 -0.1756550968 0.9223693013 0.3440641463
-0.06810122 -0.15590113 1.9260001 0.5359383821 0.5855566859 -0.6081886292
-0.10068429 -0.36278307 1.8230001 0.7974749207 0.2352793366 -0.5555874109
0.27178684 0.058807675 1.8130001 -0.3599770963 0.6851488352 0.6332358122
0.14240748 -0.44285256 1.9810001 0.5874596238 -0.1912197322 -0.7863372564
0.19980898 0.012995707 1.853 -0.2858290076 0.6950457096 0.6597069502
-0.082803547 -0.24418835 1.8730001 0.7590836287 0.1888976693 -0.6229844689
0.46500504 -0.29104632 3.8160002 -0.1370584816 0.9080611467 0.3957776725
0.10509322 0.0028924742 1.8329999 -0.186891675 0.8739745617 0.4485977888
0.056008484 -0.43618721 1.936 0.2868870199 -0.006423574872 -0.957942903
-0.084016226 -0.050086595 1.8430001 -0.3277496099 0.8950414658 0.3024581969
-0.014444179 -0.40443698 1.8830003 0.7030615211 0.2122172415 -0.6787255406
-0.08232075 -0.15612556 3.2380002 -0.1906019002 0.8946277499 0.4041189849
-0.018360907 -0.30879706 1.904 0.6803729534 0.1615086943 -0.7148479819
-0.025410183 0.014448929 1.705 -0.3523649871 0.8760579228 0.3291830122
0.025106331 0.046373561 1.6847999 -0.3245413005 0.852642715 0.4094794095
0.14643314 0.081519485 1.7220001 -0.3876642585 0.799052 0.4596001506
-0.11228697 -0.44756639 1.8040001 0.5695106983 -0.3992299736 -0.7185214162
0.035031602 0.01323416 1.7760001 -0.2971567512 0.8377539515 0.4581115246
-0.026171129 -0.21696711 1.9260001 0.4932594001 0.3055860102 -0.8144398928
-0.17528196 -0.027645331 1.7326 0.05521067977 0.945135057 0.3219806552
0.013410661 0.066574365 1.6390001 -0.385445714 0.613304615 0.6894120574
0.096713871 0.082967736 1.6800002 -0.4134877026 0.6866218448 0.5979785323
0.21708459 -0.04689027 1.9810001 -0.3676825166 0.8237766623 0.4315108359
0.015699346 -0.35514471 1.936 0.2568839192 0.1551433504 -0.9539083838
-0.29605034 -0.24397634 3.3000002 -0.200244233 0.8854899406 0.4192968011
0.13759108 0.030048626 1.8040001 -0.1671520174 0.8498486876 0.4998174012
-0.072023429 -0.016856547 1.748 -0.2942956686 0.9016644955 0.3168456852
-0.10576544 -0.082262017 1.9150001 -0.1933791041 0.9008625746 0.3886529207
0.27615875 0.030864803 1.853 -0.3354701102 0.7241075635 0.6026011109
0.039922524 -0.25488997 3.5030003 -0.2012030929 0.9206043482 0.3346714675
0.0880787 -0.37476623 1.9700001 0.4512095749 0.1733399779 -0.8754217029
-0.12352321 0.36319512 2.1030002 -0.1697280407 0.9338056445 0.3149594069
0.065020174 0.053062443 1.705 -0.3736660779 0.8361026645 0.4016291797
-0.23119278 -0.25163841 1.794 -0.4897880554 0.3048259616 -0.8168162704
-0.075525708 -0.42583644 1.8329999 0.7124381065 -0.01734850742 -0.7015205026
0.45340148 -0.35649124 3.9480002 -0.2629165947 0.8767799735 0.4026558697
-0.13382274 -0.15516868 1.8730001 0.4605726898 0.5870649219 -0.6657534242
-0.12570961 -0.36356679 1.785 0.8003363013 0.1925628334 -0.5677863359
-0.080028273 -0.49160221 1.863 0.5662837029 -0.5917230248 -0.5737478733
0.076620668 0.042907573 1.748 -0.330417484 0.8330861926 0.4436121285
0.036267702 -0.3160471 1.9700001 0.4101259708 0.3497436643 -0.8423039913
0.085986972 -0.23646417 3.5030003 -0.1839589328 0.9039478898 0.3860535324
0.32202685 -0.14747024 3.4330001 -0.1664245874 0.9175747037 0.361053437
-0.0034540666 -0.19515477 1.9700001 0.5768248439 0.343457371 -0.7411546111
0.1855053 0.032469105 1.813 -0.3516222835 0.7469161153 0.5643386841
-0.19501975 -0.18558332 1.7939999 0.4281585515 0.4250230789 -0.7975184321
0.25468042 0.42324591 2.0900002 -0.6548520923 -0.6704541445 0.3487979174
-0.29275054 -0.14908594 3.0920002 -0.2020065784 0.8759034276 0.4381626844
-0.20381097 -0.36164954 1.748 -0.2717431188 0.06102463603 -0.9604330659
0.44823352 -0.33531973 3.9030001 -0.1396742761 0.9048419595 0.4021842182
-0.205403 -0.216975 3.3000002 -0.1372527629 0.8769540191 0.46055758
0.23480552 0.0038313258 1.8730001 -0.1967059672 0.8485924602 0.4911187589
0.17049852 -0.28299239 2.0050001 -0.3093590438 0.1069258451 -0.9449147582
0.15206659 -0.22991021 2.0650001 0.6825277209 0.4150262177 -0.6015888453
-0.1377892 0.45671704 1.7660002 0.9470796585 0.008553587832 0.3208845854
-0.05508272 -0.24536848 1.9040002 0.5861814022 0.2072033882 -0.7832356691
-0.052736759 0.021973649 1.6710001 -0.1329293549 0.8599718809 0.4927252829
0.26164466 0.12230727 1.766 -0.6554588079 0.1543241739 0.7392954826
-0.047617905 -0.35795528 1.8730001 0.665599525 0.1173868552 -0.7370194197
0.04653785 -0.26991951 3.5390003 -0.1894039363 0.9012980461 0.3895997405
0.10326432 -0.2143555 2.016 0.379537195 0.3409273326 -0.8600698113
0.13485238 0.055166882 1.748 -0.2735247612 0.7944045663 0.5423150063
0.2711609 -0.19368635 3.3990002 -0.1671360284 0.9165734053 0.3632612228
0.024749614 -0.26371139 1.9470001 0.5950404406 0.4467707276 -0.6680739522
-0.21735021 -0.055935718 1.8230001 0.3773643076 0.7637999058 0.5236467123
0.24536848 -0.021699253 1.904 -0.1579827815 0.8566437364 0.4911242127
0.066567928 -0.40111443 1.9470001 0.3224761784 0.3839843869 -0.8651965857
0.48379725 -0.12094931 3.3650002 -0.1550140828 0.9189873338 0.3625368178
0.027207933 -0.21476901 1.9810001 0.3320610821 -0.006574369036 -0.9432349801
0.30764642 0.06632378 1.8230001 -0.5411828756 0.6218267083 0.5660853386
-0.32744816 -0.28614837 3.3650002 -0.200244233 0.8854899406 0.4192968011
0.031897515 -0.46167457 1.9150001 0.5673052073 -0.2520327866 -0.7839925289
0.34610361 -0.1896046 3.4330001 -0.1664245874 0.9175747037 0.361053437
-0.0049812198 -0.48317835 1.8940001 0.5799233317 -0.3572694957 -0.7321525812
0.085097156 -0.2934984 1.9810001 0.2074301392 0.2977761328 -0.9318273067
0.1326686 0.13704228 1.6630001 -0.5205877423 -0.02055962384 0.8535606265
0.18086071 0.097156584 1.705 -0.4413659871 0.5508542657 0.7083470821
-0.092540935 0.062643096 1.6240001 -0.4552634656 0.1323691458 0.8804621696
0.04582512 -0.06279739 1.9360001 -0.1610834748 0.8859983683 0.4348091483
-0.00503645 -0.38780665 1.9150001 0.7068337798 0.2620610297 -0.6570464373
0.48377711 -0.3044751 3.8590002 -0.1370584816 0.9080611467 0.3957776725
-0.19150607 -0.272468 1.7760001 0.5110337734 0.3690721095 -0.7762926221
-0.13410282 -0.18580511 1.8430002 0.4417794645 0.4780160487 -0.7591650486
0.0816238 -0.24834476 1.9810001 0.4833316505 0.2974140942 -0.8233683109
0.057469882 -0.024629951 1.8730001 -0.1742102504 0.9250041246 0.3376656771
0.0049397978 0.016336901 1.7340001 -0.3023068309 0.8857979774 0.3520973325
-0.12785307 -0.47465447 1.8230001 0.3124051988 -0.5542023778 -0.7715327144
0.16406816 -0.056992099 1.9700001 0.00590900518 0.8534522653 0.521137476
-0.045588419 -0.18404213 1.9260004 0.6061800718 0.2623374164 -0.7508160472
0.17240965 -0.0082099829 1.8730001 -0.1037914306 0.895578146 0.4326280951
-0.037198719 0.097288959 1.6320001 0.6453615427 -0.1389929354 0.7511254549
-0.10201682 0.14368567 1.6390001 -0.8975117207 -0.1643606573 0.409216702
0.070063196 0.01712656 1.7760001 -0.2412781119 0.8574118614 0.4545654356
-0.071093284 0.085602127 1.6550001 -0.4208784401 -0.1783250421 0.8894163966
-0.10204005 -0.32540333 1.8330001 0.7590945363 0.1816880405 -0.6251119375
-0.092289329 0.02343856 1.6710001 -0.1735645533 0.8226062655 0.5414741635
0.04241664 -0.097204797 2.016 0.0120059168 0.9293361306 0.3690395355
0.091829613 -0.44481033 1.9470001 0.7176950574 -0.2477632612 -0.6507896185
-0.04457061 -0.31859732 1.8830001 0.5065278411 0.1301615536 -0.8523423672
0.27184206 -0.01181922 1.9260001 -0.3041555285 0.8605237007 0.4086421728
0.15702678 -0.038834579 1.9260001 -0.1976721585 0.8444396853 0.4978426993
-0.15455633 -0.064554222 1.8040001 -0.09193730354 0.8228646517 0.5607506037
-0.17494585 -0.43349412 1.7659999 -0.05477652699 -0.4288619459 -0.901707828
-0.12665445 -0.25410798 1.8230001 0.7872393131 0.2260601074 -0.5737168789
-0.18379268 -0.33507326 1.7659999 0.3028038442 0.1865468025 -0.9346176386
-0.14557926 -0.035245508 1.748 -0.081149064 0.9047855735 0.4180645347
0.037131213 -0.076852985 1.9700001 -0.08471292257 0.8355374336 0.5428636074
0.016884601 -0.422115 1.9260001 0.4764715433 0.318479836 -0.8194787502
0.12575871 -0.013065839 1.863 -0.1744502336 0.8833136559 0.4351139069
-0.19497593 -0.16780715 1.8230001 0.2735441029 0.8525406122 -0.4453629255
0.2725969 0.094829917 1.7850001 -0.6618891358 0.3305489719 0.6727853417
0.075937741 -0.011309877 1.8430001 -0.1879075319 0.90664047 0.3777483106
-0.024629951 -0.43512914 1.8730003 0.5759952068 0.02880776487 -0.8169453144
0.014465 -0.164901 3.3000002 -0.2149260491 0.9039270282 0.3697603345
-0.063543431 -0.14941293 1.9590001 0.4432753325 0.8052770495 -0.3937458992
0.20281333 0.069668703 1.766 -0.3782024086 0.7825955153 0.4944767058
-0.0048207901 -0.020890092 1.8330001 -0.2418369353 0.9292370677 0.2793444395
0.132552 -0.24743038 2.016 0.4419821203 0.1424769908 -0.8856365681
0.17245436 -0.30757323 2.0280001 -0.2222473472 0.03180966899 -0.974471271
0.16550064 0.072023429 1.748 -0.2589578629 0.757106185 0.5997757912
-0.055855941 -0.00301924 1.7220001 -0.3542662859 0.872382164 0.3368155956
-0.12850004 -0.4412351 1.766 0.4614917636 -0.3257182539 -0.8251866102
-0.083104491 -0.39474633 1.8230001 0.8040368557 0.1682083905 -0.570290029
0.13198742 -0.40464565 1.9810001 0.522370398 0.1780702174 -0.8339185715
-0.07803911 -0.17766351 1.8940001 0.6797913909 0.4068899155 -0.610183835
-0.10911432 0.0014947166 1.705 0.02080471255 0.8486306071 0.5285766125
0.15530013 0.13459367 1.687111 -0.5757753253 0.1039681956 0.810970664
-0.082238346 -0.039537668 1.8040001 -0.3428145051 0.9093056321 0.2358843684
-0.02105315 0.10245866 1.6010001 0.002559429267 0.08722092211 0.99618572
-0.12238354 -0.292449 1.8130001 0.7388560176 0.2250113487 -0.6351863146
-0.19973798 0.01100918 1.794 0.9315410852 0.2373334616 0.2755067945
0.086762816 0.10185201 1.6550001 -0.5072128773 0.5560484529 0.658441484
0.11583835 -0.037773374 1.9150001 -0.008844204247 0.8855425715 0.464474082
-0.13856944 -0.33474639 1.7760001 0.6536874771 0.3576267064 -0.6669301391
0.043175831 -0.24351169 1.9700001 0.3374750316 0.3635232747 -0.8683094978
0.10476079 -0.06010865 1.9590001 -0.02089037187 0.8949993253 0.4455780685
-0.17377423 -0.38549596 1.7570001 0.1430043429 -0.1350010782 -0.9804715514
-0.14626481 -0.30511153 1.7940001 0.5639124513 0.2786062062 -0.7774196267
0.15376031 -0.37644768 2.016 0.4459584653 0.1728826463 -0.8781985044
-0.11817905 0.27575111 2.365 -0.2207355499 0.8835465312 0.4130634069
-0.0057163048 -0.032664601 1.863 -0.269949019 0.865549922 0.4218421578
-0.036123928 -0.050901897 1.8730001 -0.221111089 0.8911982775 0.3960751891
-0.16513769 -0.24377471 1.794 0.2449303716 0.2628894448 -0.9332193136
0.094746634 0.014521107 1.8040001 -0.1973960102 0.8555980921 0.4785255194
-0.29517981 -0.23213169 3.2690001 -0.2005363703 0.8847966194 0.4206187427
-0.073867932 -0.082262017 1.9150001 -0.2650685012 0.873287499 0.4087880552
-0.12647231 0.44645861 1.7381113 0.9470796585 0.008553587832 0.3208845854
0.0038704835 0.0038704835 1.766 -0.3730255663 0.8224556446 0.4294399023
-0.3364296 -0.17231759 3.1200001 -0.2001647949 0.8769598007 0.4368930459
-0.13312007 -0.39313239 1.7760001 0.6395941973 0.04193356261 -0.7675681114
-0.013816266 -0.091532767 1.9700001 -0.2948361933 0.8873841763 0.3544303775
-0.080028273 -0.30214754 1.863 0.7619717717 0.2344743013 -0.6036728024
0.0052315085 0.03213641 1.705 -0.4087364376 0.8222122788 0.3961079121
-0.14631304 -0.13527054 3.1490002 -0.09374761581 0.9050406814 0.4148647785
0.074262433 -0.32640925 1.9700001 0.4114300609 0.3094420433 -0.8573044538
0.087116122 -0.19023316 2.0280001 0.4981149435 0.5596949458 -0.662286222
0.13534418 -0.33572388 2.0050001 0.6556758285 0.2918367684 -0.6963623166
0.21913511 0.10573652 1.748 -0.3529898822 0.2908066213 0.8892860413
0.17359403 -0.023368426 1.904 -0.1470611244 0.8741694093 0.4628183842
0.045153596 -0.18929775 1.9810001 0.3839664757 0.483781606 -0.7864636779
-0.1910879 -0.044823088 1.794 0.4593377411 0.6609178782 0.5934613943
0.19691424 0.1342161 1.7358001 -0.6154106259 -0.007016221527 0.7881754637
-0.034862597 0.04536818 1.6343334 -0.09099531174 0.7462076545 0.6594649553
0.13689676 -0.27557138 2.0280001 0.3693785071 0.1305968463 -0.9200565219
-0.090791978 -0.21625 1.883 0.6958665848 0.2363865376 -0.67815274
-0.024911361 -0.01401264 1.7760001 -0.2770946622 0.9025210738 0.3296578526
-0.00337692 -0.32587278 1.9260002 0.6915028095 0.1133600324 -0.7134236693
0.11313098 -0.29483944 1.9930001 0.7017086744 0.257643342 -0.6642475724
0.22372095 -0.023638438 1.9260001 -0.1183051914 0.8618280888 0.4932101667
0.15550049 -0.082118243 1.9930001 -0.03338934854 0.7667359114 0.6410937309
-0.024237555 -0.19492456 1.9470001 0.6465934515 0.4340231121 -0.6273283362
-0.29511493 -0.2629737 3.3330002 -0.1518763155 0.9071099758 0.3925367892
-0.078092009 -0.36568603 1.8430001 0.6995174289 0.2316801995 -0.6760175228
-0.055935718 -0.035159595 1.8230001 -0.285171479 0.9235070944 0.2565381825
0.042671751 -0.29699537 1.9470001 0.5648137331 0.03764672205 -0.8243592381
0.46408191 -0.37905926 4.0410004 -0.3631484807 0.8202172518 0.4420032203
-0.028852854 -0.093347467 1.9360001 -0.2693708539 0.8340570927 0.4814437628
-0.19784613 -0.13767172 3.1200001 -0.08934592456 0.9004196525 0.4257484972
0.024608385 0.093569078 1.6320002 -0.3425639868 0.4915594161 0.8006367683
0.24314561 0.065111436 1.794 -0.3437516093 0.7642682195 0.5456454158
-0.027019743 -0.023840949 1.8130001 -0.3235309124 0.9127160311 0.2495539337
-0.13668811 -0.22410493 1.8130001 0.7900400758 0.2500897646 -0.5597247481
-0.324016 -0.25458398 3.3000002 -0.200244233 0.8854899406 0.4192968011
-0.031547725 -0.38189355 1.8940001 0.5283790231 0.4305638969 -0.7317310572
0.30322203 0.024629951 1.8730001 -0.3699826002 0.6284573078 0.684218049
0.022374287 -0.01438347 1.8230001 -0.2058168203 0.9473308325 0.2453643829
0.01485687 -0.041269083 1.883 -0.1469053626 0.8924995661 0.4264544249
0.063428581 -0.038390987 1.904 -0.186380744 0.8883039951 0.4197358787
-0.10502028 -0.25366437 1.8430002 0.7114988565 0.1732142568 -0.681003809
-0.13614194 -0.051640049 1.7850002 -0.1831521541 0.9257304668 0.3308751881
0.056008484 -0.37508705 1.936 0.4795341492 0.141337052 -0.866066277
-0.051982824 -0.42398492 1.853 0.6864250898 0.04973274097 -0.725497961
0.10573652 0.045972396 1.748 -0.2402924597 0.8112037778 0.5331115723
-0.0016972267 -0.28004241 1.9360001 0.6054391861 0.1212217286 -0.7866057754
-0.077848002 -0.032696161 1.7760001 -0.2966282964 0.9045732617 0.3062007129
-0.085444488 -0.012982732 1.7220001 -0.1669705361 0.9172084332 0.3617313206
-0.16501035 -0.18418832 1.8230001 0.5767677426 0.3852679729 -0.7203523517
-0.041729335 -0.27207527 1.904 0.533634901 0.3257273436 -0.7804713249
-0.19197598 -0.037156641 1.766 0.7277607918 0.603602469 0.3256198466
-0.068397827 -0.47124484 1.8430001 0.58900249 -0.4294104576 -0.6846040487
0.13545553 0.037367042 1.7760001 -0.1277350783 0.8747904897 0.4673599303
-0.052677143 0.066914208 1.6240001 0.4820020199 0.08669205755 0.8718706965
-0.17647299 -0.216975 3.3000002 -0.09065952152 0.8723855019 0.480337739
-0.014713724 -0.066814773 1.9260004 -0.3137823641 0.8286559582 0.4635406435
0.46600968 -0.41940874 4.0890002 -0.5582953095 0.6699484587 0.48936221
0.11571124 -0.44384757 1.9700001 0.5440971255 -0.1287190616 -0.8290897012
-0.12042332 0.018861484 1.6550001 -0.1813531816 0.9748763442 0.129333511
0.10427424 -0.09190271 2.016 0.03686517105 0.8656948805 0.499212712
0.12346359 0.078024209 1.7050002 -0.3059800267 0.8545750976 0.419615984
-0.20366982 -0.21467902 1.794 0.3366631866 0.1440022439 -0.9305489063
0.15724769 -0.39311925 1.9930001 0.7491616011 0.1800228357 -0.6374548674
0.14237505 -0.46227947 2.0050001 0.708381772 -0.525323391 -0.4714134037
0.037551142 -0.33283964 1.9470001 0.34908548 0.5629923344 -0.7491187453
-0.091095306 -0.44908389 1.8230001 0.6986404061 -0.2106028497 -0.6837748289
-0.14190428 -0.01811544 1.7220001 -0.1369170547 0.864110291 0.484321326
-0.10729962 -0.15352099 1.8830001 0.4881183803 0.6767322421 -0.5511568785
0.11444489 0.1086133 1.6630001 -0.3748213947 0.3249925077 0.868267715
-0.0028944612 -0.16729987 1.9810001 0.6052845716 0.2612409592 -0.7519200444
0.49369833 -0.36414629 3.9940002 -0.2909293771 0.8718749881 0.3939468563
-0.027092945 -0.46386409 1.8730001 0.5824120641 -0.2907347083 -0.7591241598
0.089107029 -0.078623846 1.9930001 -0.185805425 0.8473772407 0.4974215329
0.10593727 -0.35601872 1.9810001 0.3806225657 0.1425997019 -0.9136694074
0.07163506 -0.18695004 1.9930001 0.5873411894 0.502835393 -0.6341820359
0.027700037 0.064147457 1.6630001 -0.4111548364 0.7529509068 0.5138254762
0.1139842 -0.38512847 1.9700001 0.3811998367 0.1958499253 -0.9035095572
0.00176736 -0.097204797 2.016 -0.0004936374025 0.9650512934 0.262060672
0.086128116 -0.2333369 2.0050001 0.4641823471 0.4485445321 -0.7637686729
0.19558653 -0.063468471 1.9700001 -0.3156146109 0.7861978412 0.5313006639
-0.20281333 -0.29570493 1.7660002 0.2554417551 0.1444550008 -0.9559718966
0.054395288 0.086416669 1.6390001 -0.353618443 0.6007435322 0.7169805765
-0.11921088 0.47684354 1.766 0.9470796585 0.008553587832 0.3208845854
0.083636627 -0.472803 1.9470001 0.686875701 -0.3413214982 -0.6416396499
-0.3364296 -0.1449656 3.1200001 -0.2001647949 0.8769598007 0.4368930459
-0.03208074 -0.24482669 1.9260001 0.4129291773 0.2717976868 -0.8692615032
0.054163098 -0.088233434 1.9930001 -0.02924045548 0.8455803394 0.533046782
0.086558558 -0.41582051 1.936 0.4171492755 0.1934468895 -0.888011694
0.0028333864 0.087834984 1.6160001 -0.4913159907 0.4773204625 0.7285422087
-0.16368333 -0.28417677 1.7850001 0.610045433 0.2591658235 -0.7487841249
-0.084228002 -0.27554923 1.863 0.7570348978 0.199143365 -0.6222862005
0.10693843 0.13916644 1.6710001 -0.4354120493 0.1626119465 0.8854228854
-0.053896591 -0.48180285 1.863 0.5001906157 -0.623452723 -0.6009293199
0.0050364495 -0.052043315 1.9150001 -0.1545539796 0.9186114669 0.3636839986
0.075270101 0.067252859 1.6834286 -0.3483136892 0.7906028628 0.5036116242
0.43824217 -0.29104632 3.8160002 -0.2397381961 0.8827764988 0.4040189385
0.003338347 -0.41562414 1.9040002 0.7676170468 0.2666839361 -0.5827896595
-0.12874375 -0.0044394401 1.6880001 -0.2350716442 0.7076579928 0.6663043499
-0.053525761 0.010407787 1.6960001 -0.2914256752 0.8545042872 0.4299923778
-0.05523175 -0.047109436 1.853 -0.2758023739 0.8902364969 0.3625079095
-0.13087143 -0.075937741 1.8430001 -0.439129442 0.8328861594 0.3368471265
-0.10912396 -0.052189719 1.8040001 -0.271369189 0.9018900394 0.3360849321
-0.12127587 -0.42329195 1.7850001 0.797916472 0.01317866798 -0.6026239395
-0.21330088 -0.23667634 3.3330002 -0.1080593839 0.8919125795 0.4391071498
-0.058033578 -0.090464108 1.9470001 0.0932443887 0.9412898421 0.3244671226
0.19977918 -0.028539883 1.9150001 -0.263786763 0.8352144361 0.4825280905
0.20247318 0.030531669 1.8330001 -0.2122285515 0.7876162529 0.5784631968
-0.11208797 -0.20305791 1.853 0.7318232656 0.2298026532 -0.6415804029
0.12785307 0.011187144 1.8230001 -0.2580599189 0.8338801861 0.4879025817
0.2564171 0.014699069 1.863 -0.2159005105 0.8048722148 0.5527817607
-0.14694494 -0.38168716 1.7570002 0.4448102415 0.006906828377 -0.8955982327
0.1555908 -0.23785719 2.0400002 0.6691926122 0.4620473385 -0.5819737911
0.29567251 0.054933686 1.8430001 -0.5067436099 0.6451535225 0.5718284845
0.18934685 0.051640049 1.7850001 -0.3514149189 0.8047152162 0.4784777462
0.053910617 0.024131419 1.7570001 -0.2949974835 0.8816819787 0.3682572246
0.24476708 0.047681902 1.8130001 -0.3692106903 0.6940472126 0.6180468798
-0.10289349 -0.22701897 1.863 0.7444811463 0.2915236354 -0.6006345153
0.03545766 -0.48458803 1.9260004 0.2961758077 -0.2316619605 -0.9266135097
0.10460562 -0.028226914 1.8940001 -0.0824823305 0.9029588699 0.4217367768
-0.085442185 0.12436894 1.636 -0.8878018856 -0.2793503106 0.365747422
0.21449666 -0.038120095 1.9470001 -0.2153638303 0.877592802 0.428309828
-0.096471906 -0.42542532 1.804 0.6940615177 -0.1127322018 -0.7110345364
-0.22139165 -0.33905435 1.766 -0.6666306853 -0.1698608845 -0.7257760167
0.11706217 -0.47523749 1.9930001 0.5771365762 -0.603418231 -0.5502724648
0.076565146 -0.35173914 1.9700001 0.5808195472 0.1500484645 -0.8000838161
-0.054186765 -0.017030127 1.7660002 -0.3376660943 0.8839150071 0.3235364258
-0.11228696 -0.37481704 1.8040003 0.6784660816 0.2101792842 -0.703923583
-0.08846619 -0.15690228 1.904 0.4609577656 0.7204911709 -0.5180833936
0.044382349 -0.17445336 2.0050001 0.3182860911 0.8408498168 -0.4377962351
-0.093518421 -0.027065331 1.7570001 -0.2449408025 0.8927384615 0.3781825006
0.022451432 -0.18824664 1.9700001 0.3469347656 0.4386891425 -0.8289681077
-0.087113492 0.036096748 1.647 -0.4367989302 0.6784513593 0.5906863809
-0.094643176 -0.07416483 1.8940001 -0.1973966062 0.9062094092 0.3739239573
-0.12988254 -0.46789014 1.7850001 0.5027750134 -0.6630830169 -0.5545612574
0.22575919 0.074734077 1.7760003 -0.2310311347 0.7553621531 0.6132313013
-0.027396711 -0.33291152 1.8940001 0.6660341024 0.07144875824 -0.7424914837
0.12656687 -0.064887106 1.9700001 -0.120704852 0.8590711951 0.4974203408
-0.035052639 -0.061759412 1.9039999 -0.235011518 0.9104495645 0.3403691053
0.27992669 0.080656841 1.8040001 -0.5808898211 0.4932575226 0.6475059986
0.074802652 0.13362604 1.6336155 -0.3657129705 0.08048027754 0.9272415638
0.037518002 0.13260126 1.6334002 -0.1933534145 -0.1482431144 0.9698651433
0.22539428 0.015026286 1.8529999 -0.1779130101 0.7886092663 0.5885935426
-0.19560625 -0.02034305 1.7850001 0.9275695682 0.2737517357 0.2543121278
0.064490229 -0.24874803 3.5030003 -0.1915507019 0.8992397785 0.393288821
-0.20635207 -0.25545192 1.7659999 0.1427804083 0.5055561066 -0.8508976102
-0.2315978 -0.22690324 1.7850001 -0.4426031411 0.1189137101 -0.888798058
0.26514342 0.040173251 1.8330001 -0.3059003949 0.7388527393 0.6004345417
-0.066030532 -0.25916985 1.8830001 0.7419637442 0.2160960436 -0.6346592307
0.0063175522 0.051998317 1.6630001 -0.4331671894 0.8106747866 0.3939194977
-0.011880587 -0.23421729 1.9360001 0.6975973248 0.1530485749 -0.69995296
0.16307209 0.022569433 1.8130001 -0.1878842115 0.811163187 0.5538175106
0.1782652 0.0070013516 1.8430001 -0.07362162322 0.8257926106 0.559147954
-0.065884128 -0.44833347 1.8330001 0.5485011339 -0.06545039266 -0.8335843086
-0.070878498 0.15249616 2.45 -0.2380146533 0.8546159863 0.4614981711
0.28570741 0.00492599 1.8730001 -0.1918001622 0.8048117757 0.5616855621
-0.038189352 -0.29389197 1.8940001 0.6164819598 0.2437658608 -0.7486843467
0.075102285 -0.05974045 1.9470001 -0.151048094 0.8914672136 0.4271658361
0.1477797 -0.013135973 1.8730001 -0.1468678117 0.8776711822 0.4562051892
0.0058719134 -0.075644061 1.97 -0.2133777291 0.8763549328 0.4318239689
-0.042691913 -0.38586923 1.8730001 0.7191488147 0.3538196087 -0.5980273485
0.16503775 0.11448565 1.6960001 -0.466568321 0.2677949369 0.8429708481
0.11371419 -0.049219575 1.9360002 0.01182004251 0.8855608702 0.4643729627
0.11200644 -0.1955668 2.0280001 0.3874007165 0.6281384826 -0.6748057008
0.034481931 -0.031197937 1.8730001 -0.2106269151 0.8948253393 0.3936038315
-0.01002936 0.064470358 1.6343335 -0.4827700853 0.5742526054 0.6611860394
0.1520061 -0.4245688 1.9930001 0.6988396645 0.2034161836 -0.6857441068
0.34934202 0.23597938 2.6390002 -0.2468853891 0.8852417469 0.3942013085
0.044994041 -0.01124851 1.8330001 -0.1845524609 0.9194911718 0.3470970988
0.052342258 -0.41029578 1.9260001 0.318428874 0.1006564945 -0.9425875545
0.19646625 0.11494678 1.7220001 -0.7606786489 0.04995342717 0.6472036839
0.2241549 -0.0071950951 1.8940001 0.00967974402 0.8950878382 0.4457847774
-0.063695967 -0.37204981 1.8630002 0.6648189425 0.3481272459 -0.6609259844
0.16727325 -0.052912969 1.9470001 -0.04261313751 0.9106831551 0.4109018147
0.0253269 -0.056844819 1.9260001 -0.0794326365 0.9141788483 0.3974512219
0.033576332 -0.43817115 1.9150001 0.551486969 0.2693049908 -0.7895168662
-0.062395871 -0.33496734 1.8730001 0.7183264494 0.1800739765 -0.6719973683
-0.14391711 -0.24513353 1.804 0.6189454794 0.177005142 -0.7652291656
0.024639593 -0.0068152067 1.794 -0.3557420075 0.8448261023 0.3996454179
-0.12575871 -0.17475559 1.863 0.585523963 0.5782158971 -0.568179667
-0.1848364 -0.4143416 1.7570001 -0.004129841458 -0.2570084035 -0.9664003253
-0.065473847 -0.17627573 1.9150001 0.6202446222 0.3493776619 -0.7023046613
-0.10284352 -0.059456408 1.8330001 -0.4286841154 0.8476965427 0.3124747276
0.15609112 0.094167151 1.705 -0.3873806298 0.6926236153 0.6084478498
0.015618255 -0.37610444 1.9260004 0.3795988858 0.3335736096 -0.8629214168
0.062913358 -0.30617833 1.9700001 0.3215004504 0.2424455732 -0.9153456092
0.21138975 0.03814552 1.8130001 -0.09216459841 0.7982914448 0.5951777101
-0.0037338983 -0.25696009 1.9360001 0.6270463467 0.3449946642 -0.698420763
-0.044368725 -0.22616057 1.9150001 0.5648738742 0.2042336464 -0.799503684
