# .PCD v0.7 - Point Cloud Data file format
VERSION 0.7
FIELDS x y z normal_x normal_y normal_z
SIZE 4 4 4 4 4 4
TYPE F F F F F F
COUNT 1 1 1 1 1 1
WIDTH 512
HEIGHT 1
VIEWPOINT 0 0 0 1 0 0 0
POINTS 512
DATA ascii
-0.072617508 0.36239266 1.189 0.6258050203 -0.2935497463 0.7226317525
0.10277689 -0.49449259 2.2120001 -0.1660708785 0.7372054458 0.654941678
0.30389425 -0.45085889 1.0925715 0.7307749987 0.01566428505 0.6824386716
0.46021843 -0.030048626 1.8040001 -0.01455856953 0.7423703074 0.669831574
-0.47571704 -0.3280215 1.9590001 -0.2085054815 0.6458261013 0.7344617844
-0.27505416 -0.23122083 1.25 0.3098345399 0.5484683514 0.7766498923
-0.21782711 0.10962541 1.6240001 -0.3528441489 -0.8330295682 0.4261018336
0.20290188 -0.0060390644 1.1476668 -0.552509129 0.5093944669 0.6597355008
0.24187234 0.25681949 1.5500001 -0.9842472672 0.0792830959 0.1580237448
-0.14466068 0.036466703 1.0264118 0.1603241116 0.5404502749 0.8259598613
0.015517002 -0.44500172 1.3247273 0.7074956894 -0.02112896182 0.7064017653
0.36937824 -0.25626719 2.016 -0.4357150197 0.8373606801 0.3301204145
-0.37130341 -0.00492336 1.4040002 0.654128015 -0.2000471652 0.7294502258
0.00448152 -0.16357549 1.278 -0.142331779 0.6845836639 0.7149034142
-0.32289124 -0.4722051 2.1290002 -0.2111108005 0.6168426275 0.7582463026
0.20434995 0.18131641 1.3140001 0.4964223504 -0.7091158032 0.50071913
0.32771516 -0.20513761 1.0547143 0.7098786831 -0.1186029613 0.6942662597
0.18672979 -0.3047671 1.2345884 0.7150298953 -0.06101273373 0.6964263916
0.19098446 0.068521142 1.6630001 -0.9555640817 0.2436453551 0.1659343243
0.1044373 -0.30964744 2.0900002 -0.1672204286 0.7474855185 0.642886281
-0.0084186299 0.19269308 1.067 0.558044076 -0.2960211635 0.7752149701
-0.28133109 -0.07206025 1.126 0.2109986991 0.5143459439 0.8312206864
0.0049796421 -0.033858795 1.1358001 -0.1417280883 0.7652702928 0.627912879
0.15880045 -0.49627787 1.2060001 0.5241233706 -0.3364463747 0.7823672295
-0.42858744 0.12149987 1.5230001 0.8814870715 0.06914455444 0.4671183228
-0.12715524 -0.28138983 1.3430001 -0.5224260092 0.4786884189 0.7056404352
-0.14514621 -0.13426501 1.2044616 -0.2917437255 0.6954832673 0.6566495299
0.072778016 0.05866237 1.0062501 -0.05096451566 0.6148329377 0.7870089412
0.23266318 -0.15545991 1.1947144 0.8273975253 0.04447346553 0.5598530173
0.36158288 -0.34418842 1.0123999 0.6538985968 0.07718961686 0.7526342869
0.06811963 -0.30827019 1.317 0.5177433491 -0.2349289507 0.8226482868
0.27879277 -0.31573948 1.126 0.8404506445 0.03214728832 0.5409337282
0.10713743 -0.08804363 1.21 -0.09193746746 0.7144130468 0.6936580539
0.2037496 0.26522991 1.4215002 0.6198154092 -0.6101546884 0.4934977889
0.18495005 0.10443252 1.2143636 0.1196756512 -0.8239648938 0.553858757
-0.045345876 0.091930181 0.97799999 0.02859493531 0.6036921144 0.7967045307
-0.12380845 -0.048548523 1.1136364 -0.2473251224 0.7618616819 0.598662734
-0.030902499 -0.3201499 1.4100001 0.6519098282 0.2361789346 0.7205783129
0.11531548 -0.40448722 1.2665713 0.4379939735 -0.2105081528 0.8739837408
0.22577843 -0.4053995 1.1863911 0.5741307139 -0.1090059802 0.8114749789
-0.43593127 -0.47303179 2.1160002 -0.2111108005 0.6168426275 0.7582463026
0.28392899 -0.1087756 1.1053751 0.7693412304 -0.1348392665 0.6244456768
-0.33042705 -0.15426879 1.189 0.1873870641 0.5033830404 0.8434996009
-0.060856447 0.26437637 1.138 0.6208301783 -0.3299202323 0.7111417055
0.02818045 -0.36634585 2.1430001 -0.1660708785 0.7372054458 0.654941678
0.10440192 0.0062723942 1.0961177 -0.1348873824 0.755646646 0.6409395933
0.17493248 -0.20729639 1.2729999 0.7119128704 -0.1179942042 0.6922841668
-0.044864293 0.017700711 1.0543077 -0.0619750917 0.7996020317 0.5973237157
-0.10347822 -0.1990831 1.2830001 -0.19848077 0.6606487036 0.723981142
-0.045850761 -0.10244836 1.1955001 -0.1333513111 0.7488218546 0.6492174268
-0.11156084 0.43415418 1.2528572 0.5335201025 -0.3730224073 0.7590853572
-0.0082783634 -0.24007253 1.3490001 -0.2364588827 0.6955185533 0.6784844398
0.077536568 -0.4958477 1.2589999 0.6136379242 -0.134444803 0.7780572772
-0.21190278 -0.011888827 1.0762001 0.1882178634 0.5621342063 0.8053441644
0.2704429 -0.2169487 1.13 0.8883977532 0.07887976617 0.4522470236
-0.32848436 -0.063577622 1.3430001 0.5741119981 -0.3145522475 0.7559446096
-0.38523188 0.073945075 1.4519998 0.3999988735 -0.3394290507 0.8513453007
-0.23541473 -0.15355033 1.1944544 -0.2107264102 0.6687047482 0.7130416036
-0.19594902 -0.24352047 1.2920001 -0.5764485598 0.0624419786 0.8147441745
0.092284329 -0.15563861 1.2729999 0.07013929635 0.6474678516 0.7588582635
-0.19535737 -0.093354039 1.1450001 -0.1684208363 0.7367504239 0.6548535824
0.020606926 0.12543347 1.0220001 0.5481691957 -0.4040260017 0.7323069572
0.0055826711 -0.36482626 1.3462003 0.673600018 -0.3141241372 0.6690209508
0.23165831 -0.24483459 1.2025001 0.7233805656 -0.09284586459 0.6841784716
0.32261506 -0.28563201 1.0517778 0.838091433 0.0335280858 0.5444984436
0.25296128 -0.4737255 1.1551331 0.675819993 -0.1067035273 0.7293022275
0.31757101 -0.37471211 1.0743332 0.8420884013 0.1027885303 0.5294540524
0.26157716 -0.056997359 1.161 0.2801233828 -0.3657295108 0.8875656724
0.13514401 -0.27539954 1.2936667 0.6640046239 -0.2324761748 0.7106705904
0.035044111 -0.11196541 1.2248181 -0.07951677591 0.721593082 0.687735796
0.034609921 0.018708067 1.0670002 -0.05160003528 0.8362541199 0.5459088683
-0.18454117 -0.18744935 1.2423333 -0.2419570982 0.6699925065 0.7018310428
0.12450145 -0.037453711 1.1546 -0.04810962826 0.7702632546 0.6359087825
0.27399531 -0.39478624 1.1315998 0.7996070385 0.00860546343 0.6004619598
-0.074207835 -0.14772654 1.2431818 -0.1756910235 0.6910241842 0.7011548877
0.23506311 -0.33492103 1.1864665 0.7210882902 -0.04785689339 0.691188395
0.17347285 -0.37422213 1.2333335 0.6735699773 -0.1907340884 0.714089632
0.18899852 0.062548704 1.1570001 0.5642482638 -0.6934551597 0.4480444491
0.16092588 0.018223854 1.057 -0.24090904 0.4717416763 0.8481878638
0.061408393 -0.38191915 1.302 0.4483763278 -0.2790720761 0.849162817
0.0053427578 0.056085277 1.0156003 -0.2476676702 0.6419764757 0.7256217599
0.054687344 -0.061910193 1.177 -0.07742035389 0.7450604439 0.6624885201
-0.07412158 -0.24357928 1.3280001 -0.2246417552 0.6828210354 0.695191741
0.11988066 -0.33835477 1.2780001 0.484488368 -0.2696173489 0.8322124481
-0.064673156 -0.058219142 1.1427779 -0.1450892985 0.7232707739 0.6751506925
-0.10944219 -0.0018708067 1.067 -0.2256998271 0.7303868532 0.6446663141
0.1962506 0.22138025 1.365 0.3031549454 -0.7344107032 0.6072379947
-0.10430103 0.073230602 0.99395669 0.09193193167 0.5944686532 0.798846364
0.041406721 -0.20243284 1.312 0.0344636701 0.6529567242 0.7566106915
0.17609507 -0.43535274 1.2180001 0.5759633183 -0.2023553997 0.7920344472
-0.10459072 -0.093146704 1.177 -0.1647711098 0.7644211054 0.623306334
0.20056731 0.13851333 1.2640001 0.2856127322 -0.7245532274 0.6272543669
0.16156529 -0.074007325 1.189 0.02554645762 0.7314328551 0.6814348102
-0.28508106 -0.18669493 1.21 -0.08892445266 0.6284680963 0.7727355957
-0.037522208 -0.20125549 1.2970001 -0.1974709779 0.6361489892 0.7458683848
0.29826918 -0.16485806 1.087 0.5986246467 -0.05219148844 0.7993276119
-0.28480077 -0.12664711 1.1635262 0.06753430516 0.5754195452 0.8150653243
0.2894727 -0.26543012 1.097 0.876272738 0.05607064813 0.4785416722
-0.054244798 -0.017180737 1.101 -0.1429480165 0.7612020969 0.6325640082
0.12498645 -0.46492231 1.2417271 0.5129644275 -0.2554001212 0.8195353746
0.26240805 -0.15533288 1.1331578 0.8742194772 0.06344683468 0.4813676178
0.064553522 -0.025824845 1.1328001 -0.05219846219 0.7898539901 0.6110695004
-0.054346763 -0.27803919 1.37 -0.4281637967 0.5957450271 0.6795319319
0.067782983 -0.44255009 1.2780001 0.628439486 -0.1575790644 0.7617300153
0.10564648 0.024571586 1.0418574 0.1067570895 0.799148798 0.5915776491
-0.185509 -0.052995309 1.1052306 -0.02758523822 0.7305305004 0.682322681
-0.02702588 0.2377634 1.101 0.5929812789 -0.3389955759 0.7303801775
0.1874699 0.033997133 1.108 -0.9900105596 0.05475771427 0.1299254894
0.25837004 -0.2656967 1.1557692 0.8771799803 -0.01895578764 0.4797873795
0.36275706 -0.28580442 1.0122942 0.6903504133 -0.1111798584 0.7148813009
-0.016664382 -0.13180789 1.2344002 -0.1961447001 0.7122702003 0.6739424467
0.20854321 -0.19456723 1.2262002 0.7920998335 0.01096206624 0.6102931499
-0.14200641 -0.23642664 1.3028334 -0.2926601768 0.6440733075 0.7067670226
-0.058015175 0.31450328 1.161 0.6112163067 -0.2482430637 0.751525104
0.0052103801 -0.083333127 1.1882001 -0.1749314964 0.7362673283 0.6536890864
0.20445666 -0.47513482 1.18388 0.5660967827 -0.1704460829 0.806524992
-0.17137781 -0.29099724 1.312 -0.2057634443 0.5754447579 0.7915331721
0.068635985 -0.33946988 2.1160002 -0.1671346128 0.738948524 0.6527029276
-0.12571236 -0.16450377 1.2438573 -0.3012719154 0.63625139 0.7102248669
0.15456598 -0.0072494745 1.123 -0.08030910045 0.7629289031 0.6414747834
0.18882085 -0.24994205 1.245 0.7386750579 -0.1623500586 0.6542183161
-0.085388899 0.036227558 1.026421 -0.0521594137 0.7381452322 0.6726225019
0.0012010334 -0.30866557 1.3700001 0.1265389919 -0.3834258914 0.9148619771
-0.16454419 -0.00119139 1.057 0.07188379019 0.6521192193 0.7547007203
0.038584728 -0.4823091 1.2945001 0.6981045604 -0.0837688446 0.7110785842
-0.087629847 0.40288356 1.2190001 0.5745489597 -0.3472394347 0.7411600947
-0.0047999253 -0.0028821295 1.0952001 -0.1607931852 0.7922225595 0.5886671543
-0.40528387 0.12430432 1.4770001 0.822332859 -0.07202449441 0.5644299388
-0.22546963 -0.21562712 1.255895 -0.2536075413 0.5813571215 0.7731152177
0.1245205 -0.12256221 1.2437999 -0.0428491123 0.6914769411 0.721126616
0.2480403 -0.20523055 1.1747143 0.8496920466 0.04252262786 0.5255618691
-0.14543259 -0.08296375 1.1465387 -0.1717733145 0.7764771581 0.6062813997
-0.23561731 -0.050970275 1.097 0.008856915869 0.5722953677 0.8199997544
-0.19464824 -0.12702554 1.1831334 -0.1705857068 0.6644745469 0.7275809646
0.30524164 -0.32475635 1.0847096 0.8191090226 0.1046264619 0.5640156865
-0.24462487 -0.10591273 1.1453202 -0.1152227968 0.6656491756 0.7373160124
0.40185523 -0.22888276 1.9930001 -0.8044617176 0.5765629411 0.1428863406
0.22009681 0.22563383 1.5790001 -0.9842472672 0.0792830959 0.1580237448
0.34439242 -0.24411982 1.0330403 0.6761469245 -0.1736237854 0.716016829
-0.23713483 -0.26040506 1.2640001 -0.206317395 0.3140717149 0.9267103672
-0.38490069 0.034208089 1.4259092 0.5299420357 -0.3420213163 0.776004374
0.328246 -0.33424574 1.0450909 0.8682627678 0.1047930792 0.4849105179
0.34099573 -0.38180983 1.0345001 0.8401894569 0.1543473005 0.5198640227
-0.045005992 0.053025641 1.0107896 -0.05078224093 0.7372633219 0.673694253
0.21837941 -0.040173247 1.1750001 0.250725925 0.5936226845 0.7646885514
-0.35253921 -0.036791947 1.3760002 0.5200071335 -0.3265911937 0.7892596126
0.037621275 0.090116076 0.99800003 0.3969946504 0.1636019796 0.9031221867
0.044847846 -0.14531115 1.2667693 -0.08273481578 0.6964623928 0.7128078938
0.077243976 -0.11858582 1.2410001 -0.05689718574 0.702624619 0.709282279
0.17506331 -0.039694589 1.161 -0.06678014994 0.7704946399 0.633938849
-0.013050687 0.14495771 1.0455716 0.5571751595 -0.272305429 0.7844778895
-0.14494377 -0.20410942 1.2653333 -0.3207340539 0.6443298459 0.694239676
0.28034922 -0.44083184 1.13 0.7693379521 -0.07059431821 0.6349295378
0.26123613 -0.35439253 1.155 0.7858431339 -0.01297901385 0.6182896495
0.32645577 -0.42186689 1.067 0.8158477545 0.1077712402 0.5681353807
-0.084861338 -0.11880588 1.21 -0.1664110422 0.7523398995 0.6374104023
0.22234192 -0.29505092 1.202 0.6839493513 -0.04968191311 0.727835834
0.29720536 -0.21402378 1.0860525 0.7331266403 -0.02252483368 0.6797190309
0.036693938 -0.33585468 1.3330001 0.5406191945 -0.369695127 0.7556827664
0.25792846 -0.10302849 1.1409999 0.6677350998 -0.2686430216 0.694233954
0.20701151 -0.3656005 1.2060002 0.694127202 -0.07674567401 0.7157496214
0.15653971 -0.30552602 1.2663999 0.6777166128 -0.2035216838 0.7065968513
-0.024842629 -0.06699539 1.1614001 -0.2128601223 0.7269870043 0.6528249383
-0.3133119 -0.45622611 2.0900002 -0.2111108005 0.6168426275 0.7582463026
-0.00353209 -0.41089979 1.3430001 0.5647169352 -0.1627452075 0.8090789914
0.2911272 -0.35501468 1.1133637 0.8356788754 0.03318454325 0.5482149124
0.24850433 -0.42702171 1.1570001 0.7009842992 -0.1554164141 0.696036458
-0.23495558 -0.18453409 1.2237998 -0.2065016627 0.6313494444 0.7474991679
-0.038906466 -0.17007683 1.268 -0.1254743189 0.7390570045 0.6618541479
0.062510721 -0.00096170331 1.097 -0.04798856005 0.8146885633 0.577909708
0.06223632 0.0411858 1.044 0.1689816117 0.8964216709 0.4097234905
0.3010076 -0.40580183 1.101 0.7726129293 -0.02021092921 0.6345555782
-0.14432001 -0.027305124 1.082647 -0.1134484112 0.7011913657 0.7038892508
0.15193735 -0.23640092 1.2919999 0.6724622846 -0.1199578345 0.7303455472
0.145036 -0.42476201 1.2429999 0.5299116969 -0.2365144491 0.8144043684
-0.0044265669 0.025826925 1.0543685 -0.1397064328 0.8098984957 0.5696898103
-0.18511614 -0.15504223 1.2117369 -0.2141333818 0.6622100472 0.7180701494
0.15553144 -0.34549868 1.2567921 0.6126335859 -0.2033610791 0.763756752
0.0835917 -0.34351459 1.3032501 0.5224467516 -0.2525133789 0.8144239783
0.026532257 -0.40574595 1.3159286 0.644559741 -0.164872691 0.7465652823
0.094847448 -0.056835338 1.1748183 -0.08441202343 0.7548006177 0.6505002975
0.25412616 -0.30475402 1.1641999 0.7859194875 -0.01418797392 0.6181660295
0.31370237 -0.24458748 1.0666379 0.7785302997 -0.07675696909 0.622895658
0.21633846 0.29459751 1.4449999 0.6561529636 -0.5979667306 0.4603250027
0.063689969 -0.17521276 1.2919999 -0.004361578729 0.596971035 0.8022509217
-0.22499014 -0.07743571 1.1247647 -0.1087419465 0.6496029496 0.7524567842
-0.091399513 -0.26707649 1.3540001 -0.1807482094 0.6325801611 0.7531085014
-0.10604325 -0.067988321 1.1423334 -0.16243653 0.7554562688 0.6347442269
0.10364094 -0.30293292 1.302 0.4217139781 -0.250117451 0.8715495467
0.098920435 -0.31915838 2.1290002 -0.1663635671 0.7560611963 0.6330044866
-0.0078032101 0.080633171 0.98900002 -0.4545540214 0.4100466669 0.7907227278
0.14465104 -0.094326854 1.2169412 -0.007430918049 0.710202992 0.7039577365
0.0045784647 -0.19345777 1.3057501 -0.127377674 0.6702846885 0.7310905457
-0.034672167 -0.038634699 1.13 -0.1903284043 0.7276994586 0.6589602828
-0.084995799 -0.036384903 1.1124618 -0.1901015192 0.7387797832 0.6465801001
-0.16384725 -0.1072891 1.1730002 -0.1792160869 0.6850169897 0.7061396837
0.16005655 0.030818339 1.1340001 0.3189555407 -0.309468925 0.895821631
-0.31125259 -0.10375087 1.149 0.1573436111 0.5552043915 0.8166952133
0.094849385 -0.37453139 1.2846669 0.4096499979 -0.2600114942 0.8744031787
0.064180098 -0.08629714 1.2039046 -0.05219294503 0.7295895219 0.6818907261
-0.20422739 -0.27565119 1.273 -0.4464988112 0.3089526594 0.8397541642
-0.10541391 -0.23030646 1.307 -0.2224665582 0.6795458198 0.6990894675
0.24727027 -0.13824186 1.1623334 0.8901494741 0.09081157297 0.4465278685
0.015657319 -0.055616099 1.1633531 -0.1224378347 0.7196093202 0.6834993362
-0.073050879 -0.20887986 1.302 -0.1822447777 0.6866230965 0.7038007975
0.27641454 -0.18460564 1.1141599 0.8238152266 0.03015740775 0.5660556555
0.22278665 -0.44370949 1.1812667 0.5692830086 -0.2461310625 0.7844337821
-0.27489418 -0.15449981 1.184826 -0.02356772497 0.6049434543 0.7959195971
0.11493926 -0.013383193 1.1247145 -0.04255600646 0.7895025015 0.612270236
0.03423883 -0.013698881 1.1158 -0.09104905277 0.8042072058 0.5873337388
0.14427513 -0.38484126 1.2571821 0.5569250584 -0.2891391814 0.7786096334
-0.074648827 -0.17566702 1.2669473 -0.2129804045 0.657325685 0.7228847146
0.19237916 -0.40353748 1.2124166 0.6341210008 -0.1625746042 0.7559497952
0.11868226 -0.49731806 1.2270001 0.4393883646 -0.4501354992 0.7773776054
-0.03440683 -0.22597547 1.3230003 -0.209618628 0.662573874 0.7190659642
-0.044508126 -0.25343597 1.3457273 -0.1994218826 0.7313985825 0.6521403193
0.20767562 -0.26538309 1.219 0.7630329132 -0.1091900915 0.6370700598
0.096340157 -0.43559104 1.2579091 0.3782132268 -0.3451751173 0.8589580059
-0.075061291 -0.0029425574 1.0758235 -0.1143206507 0.7628388405 0.6364021301
-0.01773935 -0.32995191 1.3490001 -0.2846232355 -0.476687789 0.8317201138
0.15498717 -0.46508062 1.2229998 0.5112840533 -0.275003016 0.81422472
0.0130974 -0.22149158 1.3280001 -0.09082678705 0.672457993 0.7345411777
-0.11390668 -0.13782564 1.2241429 -0.1755266637 0.6987498999 0.6934976578
-0.1850538 -0.21514767 1.2640001 -0.174345836 0.6554268599 0.7348599434
0.24631286 -0.38451347 1.1671333 0.7005251646 -0.004125919193 0.7136157751
0.19432458 0.085144222 1.186684 0.4648662508 -0.6920523643 0.5522344708
0.16571499 -0.26519117 1.2663999 0.6756844521 -0.2076000273 0.7073562145
-0.11407624 0.020990029 1.041 -0.08327178657 0.7226430178 0.6861871481
0.086068802 0.021907607 1.0710001 -0.1646525711 0.7626529932 0.6254997253
0.33852026 -0.30592087 1.0277272 0.7958515882 -0.06828113645 0.6016293764
-0.068494841 0.068494841 0.98900002 0.02268106677 0.6135556102 0.7893257141
-0.24698241 -0.1311774 1.169 -0.1921007186 0.6617771983 0.7246711254
0.054249734 -0.41487837 1.2940588 0.5785624385 -0.1331043392 0.8047041297
0.034073226 -0.3724876 1.322 0.5428122282 -0.3517648876 0.7626377344
0.20567326 -0.32515407 1.214 0.690664053 -0.1345331073 0.7105519176
-0.005094171 -0.10443619 1.2135791 -0.1994113028 0.7523649335 0.6278392673
-0.055340458 -0.080961041 1.169 -0.1842197776 0.7601246238 0.623116076
0.18915311 0.15970412 1.2920001 0.3940941393 -0.7458275557 0.537057817
-0.15492848 -0.062265243 1.1185 -0.1243406385 0.7730801105 0.6220020652
-0.032595441 0.20587152 1.09 0.5845910311 -0.2988760173 0.7542721033
-0.054748356 -0.12668149 1.2246001 -0.146003589 0.7327030301 0.6647023559
-0.15543601 -0.16284543 1.2265557 -0.2838020623 0.6565829515 0.6988241673
0.015450575 -0.13685542 1.2519232 -0.08360250294 0.7356012464 0.6722361445
-0.024549998 -0.29433015 1.3862002 0.4334409833 0.2222791612 0.8733389378
0.12551363 -0.065030031 1.1859089 -0.009201420471 0.7471905351 0.6645461321
-0.081792124 0.32716849 1.1810001 0.6049785614 -0.2915948033 0.7409273982
0.16578469 0.12135872 1.2360001 0.12326888 -0.8198339939 0.5591753125
0.24236314 -0.27523667 1.1840001 0.7731622458 -0.05450159684 0.6318620443
0.21279331 0.24703854 1.3950001 0.3539087474 -0.7709317803 0.5295401812
0.0070023127 0.095469415 1.0168573 0.6764302254 -0.0612603128 0.7339546084
-0.47758609 -0.35254535 1.9810001 -0.2085054815 0.6458261013 0.7344617844
0.25942671 -0.18501699 1.1470001 0.9042111039 0.05698219687 0.4232673645
0.23077197 -0.19494437 1.202 0.81904006 0.03383557126 0.5727377534
0.1868929 0.19773936 1.3442 0.359346211 -0.7187880278 0.5951588154
-0.13015869 0.061094899 1.01 0.1640997231 0.5970665216 0.7852278948
0.25797114 -0.23092306 1.1570001 0.8797890544 0.06719627976 0.4705910385
0.034746781 0.048765652 1.028 0.06879109144 0.827814877 0.5567677617
-0.25349081 -0.20779715 1.2410001 -0.2188570499 0.5537870526 0.8033813238
-0.03423759 0.0014883295 1.0805714 -0.1320207417 0.787801981 0.6016132832
0.10926773 -0.26799348 1.312 0.3693034053 -0.2376460731 0.8984093666
-0.12559038 -0.25351313 1.3265002 -0.298835367 0.6456392407 0.7027427554
0.27202919 -0.28447697 1.133158 0.8591373563 0.05353774503 0.5089368224
-0.31981063 -0.12854125 1.1730001 0.2036622018 0.5763326883 0.7914305925
0.043537021 -0.4440124 1.302 0.6269593835 -0.1638443768 0.7616278529
0.19475676 0.26858613 1.452 0.6561529636 -0.5979667306 0.4603250027
-0.035868116 0.26340851 1.1178 0.604336977 -0.3159167171 0.7314187884
-0.42098936 0.14426427 1.4960001 0.8814870715 0.06914455444 0.4671183228
0.17792055 -0.33742055 1.2360001 0.7005072832 -0.2121362537 0.6813866496
0.035116985 -0.037125487 1.1444669 -0.08351717889 0.7739513516 0.6277134418
-0.1276444 -0.11203828 1.187 -0.2906780243 0.6997970343 0.6525261402
0.08498501 -0.46488959 1.2577695 0.537827909 -0.1709233224 0.8255460858
0.1944977 -0.18846011 1.2535 0.8248056173 -0.0004457797622 0.5654162765
-0.18222481 -0.021715909 1.077 0.06418640167 0.6292892694 0.774516046
0.08438465 -0.4039197 1.2834167 0.4164872468 -0.3263358772 0.8485536575
0.27898988 -0.24448569 1.1182001 0.8595436811 0.06077968702 0.5074352026
-0.11497691 -0.027475053 1.0924736 -0.2447448224 0.6926490068 0.6784816384
0.20388763 -0.22522219 1.234286 0.8273029327 -0.07529460639 0.5566871166
0.20232064 -0.4334439 1.202 0.6011592746 -0.1798181087 0.778635323
0.095314406 -0.033294216 1.1460668 -0.1043136269 0.7742680311 0.6242015958
0.29795152 -0.29509273 1.087 0.8431971669 0.07934165746 0.5317174792
0.29456618 -0.13516489 1.0929259 0.6853042245 -0.008457788266 0.728207767
-0.16423075 -0.22727495 1.2841111 -0.258259207 0.7229633927 0.6408011913
0.092824973 0.05136916 1.028 -0.1179444715 0.6868770123 0.7171395421
0.20126952 0.11858582 1.2410001 0.1013530642 -0.7942534685 0.59907341
-0.18056133 0.021996005 1.0455 0.2660175264 0.494998157 0.8271707892
-0.31459823 -0.18344171 1.2033333 -0.07189694047 0.5584212542 0.8264360428
0.034298506 -0.082556576 1.1966923 -0.1038590819 0.7329570651 0.6722999811
-0.085081451 0.013922581 1.0528182 -0.115265213 0.769305408 0.6283972263
-0.036609598 -0.26725009 1.3920001 -0.1508238465 0.5481273532 0.8226837516
-0.016272467 -0.15252969 1.2585 -0.2603707016 0.6777060032 0.6876929998
0.13025513 -0.31374496 1.2920001 0.5476679206 -0.2298616469 0.8045020103
0.24404283 -0.17536165 1.1746002 0.8490362167 0.06138347089 0.52475667
-0.13970298 -0.28979707 1.317 -0.7427894473 0.1994181126 0.6391371489
0.18405136 -0.46497896 1.2034544 0.6131651998 -0.2696730196 0.7424990535
-0.21474472 -0.11507986 1.1643044 -0.2081745565 0.6707677841 0.7118524909
-0.27461517 -0.10523698 1.1450002 0.09125386924 0.5772977471 0.8114185333
0.035430048 -0.16871451 1.2830001 -0.06168489903 0.6800113916 0.7306021452
-0.28288981 -0.20716861 1.2340001 -0.06011846662 0.7127296925 0.6988577247
0.011276564 -0.33651638 1.3540001 0.5463629961 -0.4648329914 0.6967192888
0.35891706 -0.315191 1.0056 0.6400261521 -0.01644678228 0.7681770921
-0.21433452 -0.16701271 1.2112143 -0.2320264876 0.6628127098 0.7119290829
-0.046790209 0.29455817 1.1420667 0.6522607803 -0.3205805421 0.6868653297
-0.084478229 -0.078371368 1.161 -0.1323670596 0.7861807942 0.6036544442
0.025083622 0.0026278084 1.09 -0.07465827465 0.8084834814 0.5837641358
-0.45994842 -0.33774811 1.9360001 -0.2085054815 0.6458261013 0.7344617844
-0.024716705 0.035530724 1.0352694 -0.1181655526 0.7811187506 0.613098979
0.34121549 -0.27339301 1.0315 0.7405059934 -0.09733991325 0.664963007
-0.25493893 -0.1748118 1.2044444 -0.2990244031 0.6565123796 0.6925142407
0.055234715 -0.35442513 1.3126252 0.4557077587 -0.3558746874 0.8158943653
-0.25506121 -0.065480135 1.1147199 0.1557494551 0.5441665053 0.8243936896
-0.13488902 0.0043282718 1.0538844 -0.1039865091 0.7005414963 0.7059946656
0.16552551 -0.40554482 1.2348573 0.5812323093 -0.2289736867 0.7808585167
0.32174543 -0.18104044 1.0700001 0.6676361561 -0.1344026327 0.7322553396
-0.2060318 -0.036867853 1.0922501 0.1290131509 0.6124904752 0.7798788548
-0.39850813 0.096899718 1.4640001 0.5856629014 -0.3237427175 0.7430946231
0.063692175 -0.47529006 1.2746665 0.6765825748 -0.150256753 0.7208737135
0.27536395 -0.13515408 1.1147941 0.7725285888 -0.03862351552 0.6338042021
0.21548441 -0.16834806 1.2142859 0.7850067616 0.073455818 0.615116775
-0.075196669 -0.096092544 1.1836666 -0.1152290776 0.7471566796 0.6545832157
0.22732329 -0.37471104 1.1876665 0.6465319991 -0.07301969826 0.7593842745
-0.024695875 -0.085302524 1.1836667 -0.1937046796 0.7248174548 0.6611491442
-0.2236346 -0.23772597 1.2754999 -0.4860284626 0.07595071197 0.8706364632
-0.16435875 -0.25433266 1.3054616 -0.4834869206 0.08467111737 0.8712469339
-0.067514732 0.28736168 1.161 0.6290474534 -0.2965580225 0.7185768485
0.071742013 -0.14017287 1.2590001 -0.06704793125 0.7191560268 0.6916062236
-0.17513114 -0.075675629 1.1333684 -0.132161513 0.7432487607 0.6558312178
0.15466264 -0.027327979 1.1431334 -0.02755834721 0.785502255 0.6182448864
0.23137425 -0.47817343 1.1730001 0.4995809495 -0.1299090683 0.8564709425
-0.016937202 -0.18405092 1.2880001 -0.2269290835 0.6582215428 0.7178074718
0.17345202 -0.23465689 1.266 0.7356673479 -0.193935737 0.6489857435
-0.34702849 -0.0622258 1.365 0.5741119981 -0.3145522475 0.7559446096
0.13287474 0.031286858 1.0452858 -0.2025694102 0.5190250278 0.830408752
0.084910169 -0.013203167 1.1178236 -0.10671103 0.7922567725 0.6007844806
0.14518331 -0.050216343 1.169 -0.04621554166 0.7446641922 0.6658373475
0.13430522 0.0030372411 1.1063999 -0.1018269733 0.7577882409 0.644506216
0.065793425 -0.043526903 1.1545999 -0.06912753731 0.7849128246 0.6157379746
-0.10416202 -0.17840517 1.2640001 -0.180768311 0.6430833936 0.7441549301
-0.015464108 -0.023298118 1.1164666 -0.2090891451 0.759044826 0.616549015
-0.24470977 -0.23549427 1.2517602 -0.4423446953 0.3159203231 0.8393601775
0.084423877 -0.10152239 1.2190001 -0.03099379689 0.7507447004 0.6598649621
-0.0039260052 0.11769104 1.0326667 0.6099898219 -0.3351176977 0.7180588841
0.24850431 -0.081144273 1.1570001 0.3995973468 -0.3758282661 0.8361070752
-0.11702535 0.038412903 1.0190001 0.04209100455 0.6618838906 0.7484236956
0.18081249 -0.28162917 1.25 0.689301908 -0.1739531308 0.7032803297
0.12511197 -0.36528701 1.2742501 0.5418362617 -0.208583802 0.8141905665
0.2415414 -0.029107526 1.1650001 0.1971182525 0.3595971167 0.9120495319
-0.18385422 -0.27535164 1.2931764 -0.4446213841 0.4078828394 0.7974606156
-0.093712822 0.37684375 1.2130001 0.6230735779 -0.2941207588 0.7247567177
0.1851178 -0.49225304 1.193 0.5626295209 -0.274808079 0.7796977162
0.33975741 -0.35525829 1.028 0.8425984383 0.0544741936 0.535780251
0.27498633 -0.36522612 1.1340001 0.817327261 -0.0138297528 0.5760077238
-0.044818237 -0.14369129 1.243353 -0.1397254765 0.6897920966 0.7103968263
-0.15541686 -0.18300994 1.2447144 -0.2523833215 0.6164152622 0.7458785772
0.099321947 -0.48787814 1.245 0.4250492752 -0.3357838988 0.8405844569
-0.19394593 0.004225852 1.0608182 0.2072563022 0.5289838314 0.8229343295
-0.054773308 -0.18495813 1.2838336 -0.1919875592 0.6363042593 0.7471664548
-0.12557456 -0.21393329 1.2866112 -0.2995039225 0.6583889127 0.6905225515
-0.41486907 0.10797962 1.4959999 0.8748259544 -0.05141123384 0.4817016423
-0.01068306 -0.38459015 1.3540001 0.5953699946 -0.2165756673 0.7737115026
-0.055186056 0.032932367 1.0349132 -0.08279622346 0.8035843372 0.5894039273
0.3271901 -0.3652865 1.0513334 0.877368331 0.08759721369 0.4717536569
-0.23168914 -0.026845461 1.0857999 0.09232326597 0.5266478658 0.8450552821
0.33378613 -0.40192652 1.0503334 0.8341328502 0.1621619165 0.527186811
0.08665061 -0.32447886 2.1030002 -0.1673410386 0.7566454411 0.6320480108
0.045095291 0.065470852 1.0044285 0.3088015616 0.4918816388 0.8140602112
0.12289289 0.0083160596 1.054 0.02107024752 0.7698428631 0.6378855705
0.31702742 -0.31484064 1.0632173 0.8757075667 0.04205895215 0.4810065627
0.18064418 -0.0049356334 1.126 -0.4225116372 0.4104825556 0.8080767393
-0.39650318 0.048137769 1.4450001 0.4570825398 -0.4483945072 0.7681262493
0.26179633 -0.40465558 1.153 0.790419817 -0.06361714751 0.6092531085
0.29876915 -0.37410259 1.097 0.8211588264 0.06621128321 0.5668458939
-0.30589157 -0.16332927 1.189 0.008043236099 0.5714776516 0.8205782175
0.01091976 0.039129138 1.0380001 -0.07739400864 0.7955735326 0.6008934379
-0.090778835 -0.018155767 1.09 -0.2128171027 0.7094736099 0.6718304157
-0.20628405 -0.20191824 1.245 -0.2340216339 0.6961171031 0.6787155867
0.10584522 -0.10836535 1.2320002 -0.08279652148 0.7293770909 0.6790830493
-0.014993465 0.16607952 1.0605626 0.4868345559 -0.362937659 0.794524014
-0.096436836 0.42150483 1.2360001 0.5335201025 -0.3730224073 0.7590853572
0.0058802902 -0.11892588 1.2320002 -0.1429534853 0.7296906114 0.6686672568
0.004946427 0.012476666 1.0744375 -0.08633925766 0.8151005507 0.5728495121
0.31572261 -0.34509945 1.0728461 0.8594685793 0.08250261098 0.5044869184
-0.26122913 -0.25233623 1.268 -0.2396329939 0.4258794785 0.872469306
-0.38493469 0.0087202033 1.4210001 0.6191105843 -0.25168401 0.7438798547
-0.1244497 -0.086929403 1.1620001 -0.2425584495 0.7819987535 0.5741457939
0.10475539 -0.13441008 1.2550529 -0.001125279581 0.6808467507 0.732425034
0.19949865 -0.022509292 1.1670001 -0.4560345113 0.5157269835 0.7252987027
-0.050030489 0.24230453 1.1190001 0.6079457402 -0.339733243 0.717623353
-0.018160149 -0.3208293 1.381 0.4391795695 -0.4654323161 0.7684361339
0.27247196 -0.079072267 1.149 0.3512646556 -0.4474997222 0.8224093318
0.011863929 0.14449657 1.041 0.5760284066 -0.2757155895 0.7695272565
0.24835353 -0.24526197 1.1755002 0.8340818882 0.008607184514 0.5515735149
0.19227463 -0.35417128 1.223 0.685423851 -0.09102264792 0.7224327326
0.085653231 -0.076629236 1.1948463 -0.06246223301 0.7188161612 0.6923884749
-0.20509844 -0.064982012 1.1155599 -0.08183089644 0.6616365314 0.7453461289
0.26311934 -0.45504734 1.1417501 0.7436393499 -0.08977223933 0.6625266075
0.022874447 0.073876664 1.0130001 0.3232133985 0.1609476954 0.9325389862
0.014590547 -0.38516742 1.3345791 0.6631575227 -0.136322394 0.7359608412
0.29215753 -0.31569558 1.1041051 0.8770020008 0.07280606031 0.4749386907
0.12482948 -0.43435332 1.254348 0.4173439145 -0.3854296207 0.8229629993
0.24486287 -0.35481215 1.1748334 0.7633677125 -0.06013162807 0.6431593299
0.21667826 -0.21508884 1.2146 0.7763038278 -0.008187701926 0.6303057075
-0.25063023 -0.087175727 1.13 0.03107994236 0.6313636899 0.7748637795
-0.16489166 -0.042206962 1.0964546 -0.05926231667 0.7094210982 0.702288866
0.045058131 -0.12569055 1.2428826 -0.07991177589 0.72577703 0.6832728386
0.33138001 -0.22920451 1.0500001 0.6649266481 -0.2488922328 0.7042195797
-0.014500065 -0.045964412 1.1452223 -0.2258531153 0.7284048796 0.6468513608
-0.13418329 -0.067055963 1.1312308 -0.228934139 0.7552241683 0.6141869426
-0.084704995 0.056077056 1.003 0.06055231765 0.7089615464 0.7026427984
-0.035234429 -0.11478981 1.2141052 -0.1402490884 0.7727419138 0.6190316081
0.026730347 -0.46366119 1.3131113 0.6513118744 -0.1270279884 0.7481020689
0.23903458 -0.22446495 1.1872224 0.8089598417 0.05187965557 0.5855702758
0.30648175 -0.27534035 1.0751303 0.7973673344 0.05923924595 0.6005797386
0.26599699 -0.32462212 1.1450003 0.8364295959 -0.01339702401 0.5479106307
-0.069660813 0.09202107 0.98100007 0.1015358195 0.506331265 0.8563405275
0.29646781 -0.24508607 1.0854398 0.8170944452 -0.01593668759 0.5762835145
0.3276796 -0.25516784 1.0470002 0.7581180334 -0.04928144068 0.6502525806
0.18356699 0.048219591 1.138 0.4229413867 -0.8177975416 0.3902918398
0.28408015 -0.15549913 1.1044798 0.7821936607 0.009608606808 0.6229612827
0.28441277 -0.294949 1.1142174 0.8630882502 0.1017043218 0.4947068393
-0.36975697 -0.030508 1.3920001 0.6037026048 -0.2655515075 0.7516818047
0.24244754 -0.45315447 1.1627144 0.6483713984 -0.09508192539 0.7553634644
0.14235806 -0.32407638 1.2736249 0.6238358021 -0.2084273249 0.7532508969
0.31140852 -0.42480245 1.09 0.7367480397 0.04168189317 0.6748814583
-0.10538051 -0.11320245 1.1966366 -0.1794280857 0.7253177762 0.6646199822
-0.17469051 -0.13409668 1.1950002 -0.2210712582 0.7056258917 0.6732158065
0.18462063 -0.025698056 1.1437502 -0.3955691159 0.6321592331 0.6662580371
0.2838515 -0.22475876 1.1050907 0.8590835333 0.04483109713 0.5098682642
0.27582005 -0.097308837 1.125 0.7185104489 -0.3299066424 0.6122943163
0.19137728 -0.21504146 1.2522223 0.7808051705 -0.09964239597 0.6167776585
0.29148114 -0.42503604 1.1120001 0.7864410877 -0.007741211448 0.6176167727
0.20812505 -0.38791713 1.197 0.6435391307 -0.1324593574 0.753864646
0.17704371 0.069368005 1.1810001 0.5464624763 -0.6339117885 0.5472975969
-0.024576252 0.061443154 1.0012501 -0.1125893742 0.7221422195 0.6825205088
0.28404212 -0.46054193 1.1167144 0.7739250064 -0.1150279045 0.6227428317
0.07057254 0.038412903 1.0190001 0.1007742584 0.8664834499 0.4889283776
-0.36998576 0.052321218 1.4210001 0.4779978693 -0.4163756371 0.7734012008
-0.4080112 0.13157363 1.516 0.8814870715 0.06914455444 0.4671183228
0.10569137 -0.32540402 1.2940835 0.4361205697 -0.2388536632 0.867610395
0.26269537 -0.12512881 1.1332381 0.8281619549 -0.06030595675 0.5572351217
-0.066119395 -0.26307994 1.3490001 -0.2321089208 0.646907866 0.726385355
0.2311358 -0.049155578 1.1930001 0.3013000786 0.4131312072 0.8593840003
-0.20593104 -0.18274438 1.2270001 -0.2439868152 0.6336438656 0.7341429591
-0.22448041 -0.13717566 1.1815716 -0.2067525834 0.6473930478 0.7335772514
-0.05538179 -0.033987828 1.1173844 -0.1978354603 0.7174787521 0.6678962111
0.19828182 -0.28576967 1.2270001 0.7494261861 -0.111981526 0.6525492668
-0.2067259 -0.15005991 1.197 -0.2641827166 0.6577446461 0.7053931355
-0.013423229 -0.20673834 1.3125558 -0.2404813319 0.6662659645 0.7058742046
-0.089569032 0.35300738 1.202 0.6255111098 -0.3024086654 0.7192251682
0.13523799 -0.24775058 1.3036667 0.5851902962 -0.2185079902 0.780901134
0.14116818 -0.49283776 1.223 0.446891129 -0.3619707525 0.8180865049
0.061810847 -0.33416489 1.322 0.5141166449 -0.2903844714 0.8070693612
-0.12450069 -0.19342074 1.2679999 -0.3423861563 0.6121643782 0.7127597928
-0.098603956 -0.15061484 1.2360001 -0.1764934957 0.684263289 0.7075548172
-0.29131281 -0.090785846 1.138 0.1491397172 0.5191866159 0.8415477872
-0.36718306 0.022328701 1.4150001 0.6088485122 -0.292119205 0.7375431061
0.13425332 -0.078372829 1.2026668 -0.01468625944 0.725266695 0.688311398
-0.17517897 -0.095036261 1.1560767 -0.1967922896 0.7472285032 0.6347616911
-0.26241198 -0.19647393 1.223 -0.2463109791 0.6898715496 0.6807408929
0.31374055 -0.39503258 1.0845 0.7885705829 0.06889721006 0.6110725403
0.1728677 -0.31477812 1.25 0.6623066068 -0.114623256 0.7404130697
-0.29519302 -0.14311874 1.1757693 0.07112908363 0.5930127501 0.8020452261
0.23587759 -0.30533651 1.1865382 0.7309681177 -0.07472147048 0.6783084273
-0.0041133198 -0.068898112 1.1730001 -0.1871197224 0.7177321911 0.6707060933
-0.19675556 -0.25455946 1.268 -0.5297681093 -0.03484629467 0.8474263549
-0.095970653 -0.051220905 1.126 -0.2289507687 0.7346991897 0.6385911107
-0.14088121 -0.099748008 1.1730001 -0.2076808363 0.7030552626 0.68013376
0.2427416 -0.055098739 1.1737275 0.5943364501 0.01797799021 0.8040155172
0.29787856 -0.18765375 1.0865715 0.6976044178 -0.03248943761 0.7157461047
-0.095853567 -0.25030586 1.3280001 -0.1570060402 0.7208460569 0.675077796
-0.15523313 -0.27850646 1.302 -0.4920731783 0.05189237744 0.8690058589
0.23527163 -0.42509943 1.1753706 0.6436337829 -0.1537556499 0.7497298121
0.086917363 -0.31738752 1.307 0.4675422907 -0.2677972019 0.8424303532
0.0455762 -0.09580788 1.2125626 -0.09626310319 0.70668751 0.700946629
0.14759628 -0.25751412 1.2852223 0.6606471539 -0.2766717076 0.6978524923
-0.17614096 -0.17183828 1.2270001 -0.2121189684 0.6451252699 0.7340428829
-0.075259849 -0.19435257 1.2848185 -0.2204971611 0.6601669192 0.7180255055
-0.14663039 -0.26208737 1.317 -0.6635832191 0.10823524 0.7402313352
-0.15490885 0.014790612 1.0443873 0.1258908957 0.5701565146 0.8118331432
0.064757951 -0.15403256 1.2753075 -0.02626851387 0.6789874434 0.7336797714
0.15336983 -0.2842603 1.2729999 0.6733735204 -0.1274683774 0.7282306552
-0.017319428 0.048389193 1.0184 -0.1105132699 0.7838231325 0.6110712886
-0.055370048 -0.22262052 1.31575 -0.1418494731 0.6716110706 0.7271983027
0.1337678 -0.022913814 1.1362858 -0.04541708902 0.7835616469 0.619651854
0.25303915 -0.33473933 1.1619999 0.7689885497 -0.02135777473 0.638905704
-0.035156265 -0.054649301 1.1458002 -0.2179939002 0.7135802507 0.6657941341
0.105261 -0.35487509 1.2873183 0.3827033341 -0.2361921817 0.8931692839
0.084656872 -0.42481059 1.273682 0.5023366809 -0.3391739428 0.7953733802
0.21931833 -0.32005784 1.197 0.6962247491 -0.07912547886 0.7134495378
0.26870078 -0.25476879 1.1351999 0.885302186 0.03916962072 0.4633635283
0.087081052 -0.28874242 1.307 0.4879361093 -0.2307323664 0.8418318629
0.07709109 -0.36680803 1.2970001 0.4772382379 -0.326950103 0.8156882524
0.15120746 -0.44498199 1.2320002 0.4778404832 -0.2287879586 0.8481300473
-0.1562046 -0.12255136 1.189 -0.1882544607 0.7125047445 0.6759417653
0.1752404 0.018705437 1.123 0.3732701242 0.02651357464 0.9273437858
-0.084790215 -0.13410896 1.2262499 -0.1776476204 0.6877189875 0.7039061785
-0.13420072 -0.14708771 1.2246667 -0.324881345 0.6496686935 0.6873010397
0.024735296 -0.35466906 1.3330001 0.5392776132 -0.3075377941 0.7839643955
0.065077268 0.02526433 1.0642916 -0.1307328641 0.7876777053 0.6020571589
0.025796091 -0.18787774 1.302 -0.05226290226 0.6631973386 0.7466176152
0.25441816 -0.16512731 1.1555712 0.9050476551 0.07074805349 0.4193846881
-0.16424204 -0.14762336 1.21 -0.2024451643 0.6608987451 0.722653985
0.21321234 0.23552877 1.3760002 0.268063426 -0.7598503232 0.5922579169
0.022014415 0.1118368 1.0045 0.4258592129 -0.1868740469 0.8852807283
0.2131166 -0.24394508 1.214579 0.7430855036 -0.14165622 0.6540316939
-0.26439509 -0.1210402 1.1570001 -0.02740268223 0.6236562133 0.7812182903
0.10475669 -0.45471802 1.2506818 0.337693572 -0.2180539519 0.9156503081
-0.067069381 0.34308568 1.177 0.6047328711 -0.3072680831 0.7347682714
0.0054094424 -0.01649004 1.1150001 -0.1163731888 0.7758081555 0.6201443076
-0.084519103 -0.22612301 1.3123848 -0.2375163883 0.6391069889 0.7315245867
0.25887352 -0.21052361 1.149 0.8970262408 0.09795124084 0.430986613
-0.065201528 0.045835745 1.0153751 -0.04090272263 0.7373366952 0.6742860079
-0.018105797 0.22203425 1.087 0.586173892 -0.3173224926 0.7454572916
