# .PCD v0.7 - Point Cloud Data file format
VERSION 0.7
FIELDS x y z normal_x normal_y normal_z
SIZE 4 4 4 4 4 4
TYPE F F F F F F
COUNT 1 1 1 1 1 1
WIDTH 512
HEIGHT 1
VIEWPOINT 0 0 0 1 0 0 0
POINTS 512
DATA ascii
-0.01095395 -0.37086946 1.7850001 -0.5492944121 -0.6105185747 0.5705634952
0.21454488 -0.4201504 3.3990002 -0.1553035975 0.8916911483 0.4251678288
-0.46410382 -0.29124883 2.7010002 -0.2994794548 0.8342903852 0.4628948569
0.495094 0.043956943 2.6390002 -0.4001999795 0.7871031165 0.4693704844
0.19231699 0.4148325 1.8130001 -0.9295190573 -0.3672755063 0.03321121261
-0.25117552 0.077132642 2.256 -0.557302177 0.6822564006 -0.4732234776
-0.22992073 0.11143398 1.6090001 -0.249256283 -0.2228977084 0.9424372315
-0.25505829 -0.49578744 3.2690001 -0.2836987078 0.8150930405 0.5051122308
0.28425041 -0.025037602 1.6800002 -0.5211761594 0.5621473193 0.6421571374
0.4526791 -0.22498423 3.0920002 -0.1873981357 0.9054836035 0.3807641566
0.15498765 0.20413008 2.1560001 -0.3163850605 0.8619132638 0.3962399065
0.31364501 -0.35326338 1.8830001 -0.6183809042 -0.2939319909 0.7288408875
0.057439201 -0.31454799 3.1200001 -0.1519663334 0.9098675251 0.3860664964
0.34086114 0.17995775 2.4150002 -0.6873112321 -0.5475896597 0.4772303998
-0.010205276 -0.088931695 1.6630001 -0.4184401631 0.77038306 0.481058985
-0.21565737 -0.3487792 3.0370002 -0.2607086599 0.8530771732 0.4519849122
0.13229163 -0.16495623 1.863 -0.1454402655 0.7383278012 0.6585736275
-0.28695753 0.33304918 1.6960001 0.6368687153 -0.2624926567 0.7249109149
-0.18187326 -0.20717737 1.8040001 0.1326961517 0.8454097509 0.5173723102
0.11329251 0.080533229 1.557 -0.03214212134 -0.5030842423 0.8636394739
0.17213351 -0.49918714 1.7850001 -0.2773242295 0.06408759207 0.9586365819
-0.36132693 -0.17729707 2.5600002 -0.2526811063 0.9101129174 0.3284003437
-0.18372829 -0.08089529 1.5640001 -0.01811892167 0.2479179353 0.968611598
-0.18374847 0.18374847 2.1030002 -0.2006938457 0.9065964222 0.3712207675
0.30367908 -0.32039535 3.1780002 -0.188615948 0.9063352346 0.3781275749
-0.15413904 -0.49511325 1.7760001 0.6452006102 0.4057229757 0.647383213
-0.35187998 -0.46469644 3.0640001 -0.2884407938 0.8539586067 0.4330780208
-0.052718058 0.031453628 1.5160002 0.1438548118 -0.1304301471 0.9809657335
0.15502185 -0.33401614 1.8230002 0.03258649632 -0.2171099633 0.9756031036
-0.023722598 -0.16763969 1.804 -0.3494667113 0.7893316746 0.5048054457
0.13435617 -0.081519485 1.7220001 -0.07335849106 0.8785057664 0.4720658958
0.15568723 -0.27707049 3.0100002 -0.1679407358 0.9125917554 0.3727898002
-0.18113862 -0.34834349 1.766 0.553491056 -0.2689956129 0.7882188559
0.25145957 -0.10912396 1.8040001 -0.2104193717 0.810656786 0.5464057922
0.24820362 -0.23469594 1.9260001 -0.6613729 -0.4702121019 0.5843684077
0.12490045 -0.35483083 3.2380002 -0.1339640617 0.8971210718 0.4209838808
0.23302501 0.28596166 1.7760001 -0.5334419012 -0.3937844336 0.7485810518
-0.13499685 -0.15479547 1.6847999 -0.2576945126 0.8332996964 0.4890860021
-0.089451559 -0.33612102 3.0920002 -0.255520463 0.8361412287 0.4853628874
0.29728204 -0.47725821 1.8330001 -0.3137534559 0.2401268333 0.9186391234
0.035810083 -0.49511325 1.7760004 -0.3870869875 -0.4405737817 0.8099743128
0.043623809 -0.26982135 1.8430001 -0.07030713558 -0.4230837524 0.9033587575
0.23719881 0.063159451 1.6010001 -0.5229847431 0.05049941689 0.8508447409
0.095626801 -0.026208827 1.6160001 -0.1957183778 0.8178764582 0.541084528
-0.34931135 0.0097572999 2.2260001 -0.9596729279 0.1184671745 -0.2549380958
-0.24616654 0.22585416 1.6550001 -0.2015909553 -0.2706669271 0.9413291216
-0.084522747 -0.2757093 1.804 -0.2861991525 -0.4514977336 0.8451271057
0.43028903 -0.22780007 3.2080002 -0.1986422688 0.8991447687 0.3899743259
-0.074418485 -0.066149764 1.572 -0.2965068221 0.7921732664 0.5334278345
-0.065607257 -0.45541105 1.7331821 -0.3560678661 -0.2286118418 0.9060642123
0.02531112 -0.37404209 3.2080002 -0.1586829573 0.9054352641 0.3937089145
-0.25535196 0.030889349 2.3490002 -0.6942518353 0.6401008368 -0.3290672302
-0.18332699 -0.0042967624 1.6337501 -0.9117816091 -0.2349127233 0.3368536234
0.32670385 -0.36395955 3.2690001 -0.1975521892 0.8978933096 0.3933963776
0.094890393 -0.41593626 1.8040003 -0.1849302053 -0.2522866428 0.9498169422
0.23493001 -0.39474636 1.8230002 -0.1726145446 -0.3371502161 0.9254912138
0.063212574 -0.12424541 1.7760003 -0.1416135281 0.867942512 0.4760476351
0.037967555 -0.17993321 1.8830001 -0.2334710807 0.8959530592 0.3778350353
0.18426217 -0.027566783 1.6550001 -0.2159284353 0.7990381718 0.5611709952
0.18356436 -0.24691842 1.853 -0.2926289141 -0.4987227619 0.8158700466
0.044300817 0.015217838 1.5430001 -0.3020502925 0.5713295937 0.763117373
0.2241549 -0.151097 1.8940001 -0.4340220988 0.7739822268 0.4610600173
-0.055252094 -0.14220621 1.7220001 -0.3217410445 0.8517735004 0.4134787321
-0.093958504 -0.35581011 1.7570001 -0.04275066406 -0.2857851684 0.9573396444
-0.26293337 -0.39846605 3.0920002 -0.2833662927 0.8149687648 0.5054992437
0.22610898 -0.068287946 1.7310001 -0.1701637059 0.8537008762 0.4921779633
0.16513769 -0.1179555 1.794 -0.07097795606 0.8836421967 0.4627511501
0.22361049 -0.33403543 3.1490002 -0.1486769021 0.8969364762 0.4164134264
-0.10275936 -0.18839216 1.7760001 -0.3866732419 0.8232461214 0.4156315327
0.24529396 -0.31352141 1.853 -0.1177719608 -0.2922109962 0.9490745664
0.00419222 -0.042388003 1.5940002 -0.4198709726 0.7754132152 0.4716383219
-0.12414476 -0.015058065 1.5267501 0.2088095695 0.2550395131 0.9441151619
0.1647616 0.015989523 1.5860001 -0.4028883278 0.6482361555 0.6461198926
0.13527054 -0.30642918 3.1490002 -0.1604137123 0.8959647417 0.4141432047
-0.12466902 -0.11333547 1.6160001 -0.2053379864 0.8590369821 0.4689261615
0.09630359 -0.23743816 1.8940001 0.1853326261 -0.8578424454 0.4793309271
-0.1741998 -0.28447306 1.8230001 -0.6430191398 -0.4816925824 0.5953978896
0.37874103 -0.23369128 3.0640001 -0.1852094531 0.9054490924 0.3819153905
0.074607454 -0.34503081 1.8330001 -0.1496815979 -0.3831620216 0.911472559
-0.14634547 -0.41681641 1.748 0.514880836 -0.1846194118 0.8371459842
0.065815926 -0.077617958 1.6832001 -0.2618729472 0.8273921013 0.4968348444
0.49415156 -0.24293485 3.1490002 -0.1875319183 0.8991144896 0.3955059052
-0.012715173 -0.30357477 1.8130001 -0.5134915113 -0.3697914183 0.7743260264
0.1660582 -0.40486571 1.8040003 0.04123564437 -0.1364596486 0.9897870421
0.19873595 0.34896156 1.7850001 -0.4913162887 -0.4499485195 0.7457577586
0.23248148 -0.46970749 1.8040001 -0.2017610967 -0.08152592927 0.9760358334
0.10537358 -0.48597664 1.794 -0.09468627721 -0.1730499715 0.9803510904
0.015096201 -0.11095706 1.7220001 -0.2318354994 0.8947473168 0.3816798925
0.02673658 -0.42621255 1.794 -0.4849353433 -0.3713380992 0.7917990088
-0.19703434 0.054498859 1.5940001 0.8034323454 -0.04146544635 0.5939503908
-0.074352726 -0.11614577 1.6630001 -0.3419319093 0.8492968678 0.4022156298
0.26621649 -0.24906757 1.863 -0.3153716922 -0.17484653 0.9327214956
0.24527469 0.0039360141 1.6337501 -0.3282862008 0.6515436769 0.6838998199
0.11471446 -0.27668804 1.8430002 -0.06054708362 -0.3168189526 0.9465515614
0.30442443 -0.41228881 1.853 -0.4912037551 -0.473002106 0.7314286828
-0.17364649 -0.18318513 1.7310001 -0.07033863664 0.914031446 0.3994984627
-0.18625923 -0.14005539 1.6470001 -0.07091227174 0.8468711376 0.527049005
0.072311848 -0.15265834 1.8330001 -0.2148144543 0.8789642453 0.4257659316
-0.033817414 -0.025701238 1.5430001 -0.3542081416 0.660620451 0.6619042754
-0.12529846 -0.4755303 1.7220001 0.2312278599 -0.08024635166 0.9695845246
0.102833 0.016453281 1.5640001 -0.2825500667 0.6916231513 0.6646975875
0.12558739 -0.052276008 1.6630001 -0.1496967226 0.8378149867 0.5250304341
-0.23417585 0.16685838 1.6337501 -0.3858295381 -0.5452783704 0.7441821694
-0.021564247 -0.49135676 1.7570001 -0.5256752968 -0.1943196058 0.8281940222
0.19334503 -0.143797 1.8430001 -0.2568990588 0.827178359 0.4997788072
-0.19794871 -0.023532363 1.5790001 -0.4470813572 -0.29140082 0.8456972241
-0.2624214 0.28283197 1.6630001 0.5018843412 -0.1870645285 0.844463706
-0.13575074 -0.31492606 1.785 0.2120256126 -0.8142158985 0.5404605269
-0.00134656 0.052515838 1.536 -0.2490214109 -0.4752327204 0.8438851833
-0.037161022 -0.26012716 1.8430001 0.004459280055 -0.7554582953 0.6551815867
-0.054680768 -0.39816841 1.7570001 -0.20642066 -0.3264704943 0.9223923087
-0.40964267 -0.27230582 2.7010002 -0.2994794548 0.8342903852 0.4628948569
0.2921851 -0.29878816 1.8830001 -0.6247018576 -0.4401231706 0.6450110078
0.18133762 0.07059709 1.5790001 -0.3522773683 -0.1791189015 0.9185951948
0.044447437 -0.054490101 1.6355001 -0.2140979767 0.8021734953 0.5573865175
0.31217048 -0.27279761 3.2080002 -0.1892396212 0.903024137 0.3856627047
-0.041084107 -0.077918135 1.6160001 -0.3498885632 0.8098137379 0.4709348977
0.20088729 0.39034197 1.863 -0.9208321571 -0.3899464607 0.003149208846
-0.06133686 -0.32870266 1.794 -0.5510866642 -0.2740381658 0.7881665826
0.20519347 -0.35222188 1.8430001 -0.1749168485 -0.329099983 0.9279533029
0.1168886 -0.10914762 1.766 -0.1463016272 0.9158529043 0.3739108741
0.063288316 0.06598144 1.536 -0.1210359856 -0.220701158 0.9678022861
0.27628413 -0.36514747 1.8430003 -0.2750042677 -0.4512861073 0.8489484787
-0.12639622 -0.072889403 1.557 0.03927355632 0.7346167564 0.6773446798
-0.015916469 -0.43795958 1.7570001 -0.5416924953 -0.1751021892 0.8221365213
-0.0030963868 -0.13469282 1.766 -0.3913963735 0.8417761326 0.3717819452
0.151097 -0.23743816 1.8940001 0.05105915666 -0.9716876149 0.2306861579
0.18235719 -0.091944799 1.748 -0.2216277272 0.8361892104 0.5016659498
0.23479626 -0.045782261 1.6844444 -0.1621860266 0.7966272235 0.5823064446
0.044830978 -0.2474006 1.8940001 0.07368779182 -0.9395315051 0.3344407678
0.21625 -0.21955152 1.8830001 -0.345250994 -0.4761259556 0.8087680936
0.11602596 -0.13319144 1.8130001 -0.06948476285 0.8619474769 0.5022134781
0.023840949 -0.34489906 1.813 -0.1726031899 -0.2675429881 0.9479603767
0.14626482 -0.45452186 1.794 0.06007967144 -0.2688553929 0.9613049626
0.055615731 -0.01459913 1.5860002 -0.2528074086 0.7812857032 0.570684731
0.29118046 0.022620631 1.647 -0.6177799702 0.5406050682 0.5710464716
-0.0032489267 -0.18518881 1.853 -0.367025435 0.8512285352 0.3751030862
0.12556233 -0.3750976 1.8129998 0.09284166247 -0.4462591708 0.8900748491
0.055352733 -0.38430607 1.804 -0.1381694227 -0.2170541435 0.9663315415
0.19226789 -0.29567248 1.8430001 -0.4641082585 -0.2529904544 0.8488812447
-0.11229574 -0.16844361 1.7310001 -0.3570165634 0.8358524442 0.4170010388
0.023840949 -0.15470128 1.8130001 -0.2845748067 0.8092074394 0.5140043497
0.17395872 -0.065420374 1.6960001 -0.3344832361 0.7635971308 0.5523045659
-0.17602736 -0.11313003 1.6063334 -0.06874296814 0.8427246213 0.5339378119
-0.075754516 -0.013290267 1.5159999 -0.1275211722 0.3033992946 0.9442918897
0.26369694 -0.43629858 1.8230001 -0.231208846 -0.1754984409 0.9569444656
0.2359145 -0.17311712 1.9360001 -0.9029507041 -0.05256194621 0.426517576
0.1440305 -0.016055858 1.6160001 -0.1687823385 0.8019964099 0.5729871988
-0.055734958 -0.1625603 1.766 -0.3529213965 0.8599355221 0.3687239587
0.27123716 -0.065893769 1.748 -0.1140177697 0.8645693064 0.4894077182
-0.09604498 -0.41467032 1.7390002 -0.2795499861 -0.2272747904 0.9328440428
0.19977042 -0.43310225 1.8230001 -0.1247618347 -0.06312635541 0.9901764989
-0.18349685 -0.16425928 1.6880001 -0.03119149432 0.8387909532 0.543559432
-0.14707837 -0.20281333 1.766 -0.1331636906 0.9165952802 0.376988709
0.14517871 0.044666085 1.5535001 -0.3750675917 0.1391071677 0.9165006876
-0.14251444 -0.3693116 1.748 0.1334456652 -0.391543299 0.9104318023
0.19833706 0.0014166933 1.6160001 -0.16490753 0.772768259 0.6128904223
-0.064841777 -0.19136231 1.8040003 -0.3945807219 0.7904118896 0.4685671031
0.064482346 -0.45452186 1.794 -0.09781588614 -0.1139650047 0.9886577129
0.075171188 -0.10378454 1.7358 -0.2157000452 0.8994164467 0.3801625073
-0.025276056 -0.1174593 1.6960001 -0.3880824149 0.8320103884 0.3964224458
0.2237525 -0.26621649 1.863 -0.06583855301 -0.3434920907 0.936844945
0.31311116 -0.43231589 1.8130001 0.05291591212 -0.2148454189 0.9752134681
-0.0060319053 0.0073723281 1.5290002 -0.4050599635 0.4879367352 0.7732038498
-0.16964816 -0.2439702 1.8430001 -0.7952612042 -0.08923520893 0.5996638536
-0.083018228 -0.096618488 1.6159999 -0.3647273183 0.8007199764 0.4752067924
-0.086551547 -0.49767137 1.7220001 -0.1333513707 -0.109978348 0.9849478006
0.2057782 0.033369441 1.5860002 -0.3332566023 0.47782287 0.8127886057
0.21589844 -0.09705051 1.7760001 -0.2077016234 0.8273753524 0.5218333006
0.11471447 -0.33121783 1.8430001 0.03970075771 -0.337666899 0.9404280782
0.139127 0.19848785 2.1160002 -0.2369787991 0.8965552449 0.3742055297
-0.094165683 -0.14620461 1.6960001 -0.3820732534 0.8258177042 0.4147832692
0.19977042 0.36917573 1.8230001 -0.9779641032 -0.193361491 -0.07872460037
0.0044092573 -0.25596902 1.8529999 -0.2372395247 -0.3655676544 0.9000431895
0.015082174 -0.014396621 1.5640001 -0.320553124 0.7417256832 0.5891423225
-0.14438701 -0.13427991 1.6470001 -0.05911527202 0.8683998585 0.4923281968
0.3543925 0.1610875 2.45 -0.276070267 -0.8183380365 0.5040912628
0.077173844 -0.16912566 1.8730001 -0.09187803417 0.9079111814 0.4089690447
-0.094569951 -0.044850808 1.536 -0.182363376 0.5640373826 0.8053604364
-0.15783857 -0.46432123 1.748 0.7180740833 0.2678031921 0.6423792243
0.044994041 -0.31495827 1.8330001 -0.1406841725 -0.4647534192 0.8741922975
0.085188329 -0.051979318 1.6470002 -0.2040126622 0.8078357577 0.5529739261
0.26456749 0.035771508 1.6160001 -0.3899445832 0.3396032751 0.8559280634
-0.18561751 0.015989523 1.5860001 -0.5155133605 -0.2633531094 0.8154085279
-0.16460688 -0.047028929 1.5778333 0.4712921679 -0.03096738458 0.8814333081
-0.036053792 -0.052935664 1.5751112 -0.3872031868 0.7704824209 0.5063897371
0.20503217 -0.11920475 1.8130001 -0.09948573261 0.8589924574 0.5022295713
0.27054372 -0.053809799 1.705 -0.1772412807 0.8517736197 0.4930185378
-0.096531525 -0.31917679 1.7760001 -0.3708095849 -0.6801763773 0.6323450804
0.073495351 -0.24988419 1.863 0.1382943243 -0.7955068946 0.5899520516
0.35276103 0.19829762 2.381 -0.9169169664 -0.2136868685 0.3370476961
0.15510686 -0.27628413 1.8430003 0.08302763104 -0.2361998409 0.9681508541
-0.086179838 0.020198399 1.536 0.2167277336 -0.6354515553 0.7411007881
0.1148784 -0.28719601 3.1200001 -0.1735568494 0.9053115845 0.3876712322
0.025156826 -0.091748424 1.6880001 -0.2791446149 0.8184303641 0.5022450089
0.0048705847 -0.066156946 1.6334002 -0.384755373 0.789524138 0.4781369865
-0.1451968 -0.097128905 1.5860002 -0.02376492321 0.8081791401 0.5884570479
0.12657532 -0.23600173 1.863 0.04125110433 -0.7545290589 0.6549689174
-0.054493599 -0.36355016 1.7760001 -0.3407768011 -0.5436286926 0.7670326233
0.19657409 -0.38515735 1.8230002 -0.3211956918 -0.3528627455 0.8788180947
-0.23906349 -0.36531049 3.0640001 -0.2815752327 0.8172450066 0.5028179884
0.30641693 -0.0044841501 1.7050002 -0.7087785006 0.4898030758 0.5076671839
0.15587221 -0.1398029 1.8330001 -0.002580643632 0.8755754828 0.4830743968
0.10615943 -0.074638702 1.6960001 -0.178305462 0.8770447969 0.4460937083
0.1856689 -0.46401405 1.8040001 -0.3765364587 -0.1840871722 0.9079274535
0.23104462 -0.13410282 1.8430001 -0.07033718377 0.8899303079 0.450640291
0.085631929 -0.30536664 1.8430002 -0.08671152592 -0.2029233128 0.9753477573
0.26369694 -0.49383247 1.8230002 -0.3370173872 0.1766030937 0.9247868061
-0.10650412 -0.090931728 1.5860001 -0.3156564534 0.7813370824 0.5383989215
-0.046092499 -0.284502 1.813 -0.1513370723 -0.6751405001 0.7219988704
0.28908172 -0.33154568 1.863 -0.4324105382 -0.3141253293 0.8451901674
0.2074579 0.31273505 1.766 -0.5350107551 -0.3732087314 0.7579437494
0.0046708803 -0.46397412 1.7760001 -0.3707236946 -0.1770919263 0.9117030501
0.012925574 -0.2924411 1.8430001 -0.3461342752 -0.3722148836 0.8611893654
0.20717737 -0.49817461 1.8040001 -0.09646622092 -0.03640961647 0.9946700931
-0.17369835 -0.31453484 1.7850001 0.2079577297 -0.7654469013 0.6089701056
-0.20643747 0.085896969 1.6240002 -0.1902869493 -0.2257980406 0.9554088712
-0.04475997 -0.098664455 1.647 -0.3241629899 0.8241776228 0.4643808901
-0.10788435 -0.1326686 1.6630001 -0.3387387097 0.8262018561 0.450162828
0.22633779 -0.024665017 1.6550001 -0.2459712178 0.8399173021 0.4837738276
0.27168775 -0.39794266 1.8230001 -0.3153848946 -0.2484443784 0.9158644676
-0.015053368 -0.33544299 1.7939999 -0.488227278 -0.24325867 0.8381285071
0.0031139194 -0.40480959 1.7760001 -0.6111003757 -0.1747204512 0.7720292211
0.11738215 0.0013974067 1.5940001 -0.1919942051 0.7627595663 0.617524147
-0.11281648 -0.33576334 3.0640001 -0.2563361824 0.8598462939 0.4415383339
0.061029151 -0.41781494 1.7850001 0.01025622897 -0.4465092719 0.8947202563
0.13191992 -0.41324311 1.8130001 0.06546188146 -0.08946915716 0.9938359857
0.22831906 -0.20649445 1.9150001 -0.685860455 -0.3865234554 0.6165996194
0.14154483 -0.49580234 1.8040001 0.173873201 -0.05369606614 0.9833030105
-0.14654213 -0.038326409 1.5430001 0.5935291648 0.3958447278 0.7007353902
0.10686918 -0.34591863 3.2080002 -0.1698270887 0.9014446139 0.3981913924
0.47501305 -0.23431547 3.1200001 -0.1892396212 0.903024137 0.3856627047
0.031253166 0.057071 1.5500001 0.01011763886 -0.5226888657 0.8524634838
0.094272494 0.052337438 1.5465 -0.1684681326 -0.2478828579 0.9540296793
0.24393198 -0.35577428 1.8329999 -0.4397811294 -0.398024112 0.8050896525
0.065740533 -0.49415487 1.794 -0.3400891125 -0.3256541491 0.882206738
0.015498765 -0.3830409 1.8040001 -0.3689635694 -0.2615599334 0.8918813467
-0.11504547 -0.44434437 1.7332859 -0.004919326864 -0.08617899567 0.9962674975
-0.013673954 -0.12918706 1.7336668 -0.4187225103 0.825615108 0.3781945705
0.044439986 -0.11339859 1.748 -0.2284187227 0.9000681043 0.3710826039
0.29532093 -0.27303258 3.1780002 -0.188615948 0.9063352346 0.3781275749
0.25235552 -0.088247016 1.766 -0.06605874002 0.8957641721 0.439593941
-0.22778869 0.19296749 1.6550001 -0.4704312086 -0.3033643663 0.8286522627
0.26556319 -0.28777513 1.8630002 -0.3440007567 -0.4341357052 0.8325801492
-0.04402357 -0.49489704 1.7316669 -0.4148316383 -0.1422261 0.8987137675
0.23327222 -0.43570507 1.8040001 -0.09231358021 -0.1005735546 0.9906377792
0.2507214 -0.24574019 1.8940001 -0.2081387639 -0.8159154058 0.5394073725
0.055985339 -0.1420193 1.8040001 -0.1494341791 0.8557732105 0.4952995181
0.11544999 -0.44440335 1.804 0.04911603406 -0.05724237114 0.9971514344
-0.053910617 -0.43436554 1.7570001 -0.3978340924 -0.246090591 0.8838368058
-0.17158979 -0.38415164 1.7570002 0.5014353395 -0.1339651644 0.8547607064
-0.12437153 -0.34421495 1.7659999 0.01317613758 -0.266168803 0.9638363719
-0.2139207 0.035417333 1.6160001 0.7779750824 -0.07017345726 0.6243640184
0.035168067 -0.035171185 1.6045556 -0.3194493949 0.7709428072 0.5509984493
0.03406376 -0.38605595 3.2380002 -0.1586829573 0.9054352641 0.3937089145
-0.15545054 -0.17189242 1.705 -0.1149971858 0.8688214421 0.4815858305
-0.2651487 0.25049961 1.6710001 0.8560636044 0.1765403301 0.4857866168
0.045552477 -0.10061591 1.7129999 -0.1853841096 0.8931674361 0.4097373486
-0.07775069 -0.16007495 1.7390001 -0.3469384313 0.839687109 0.4178028703
-0.11586377 -0.38722891 1.7390001 -0.05361863226 -0.4510377944 0.8908928037
0.26841342 -0.0072544166 1.6550001 -0.4572657943 0.6944040656 0.5556176901
0.11148307 -0.1470284 1.8430001 -0.02668552101 0.7974943519 0.6027359366
0.20369525 -0.049065281 1.6960001 -0.05070799962 0.8777852654 0.4763630331
0.2953867 -0.30642918 3.1490002 -0.188615948 0.9063352346 0.3781275749
0.094171748 -0.36436915 1.813 0.03631032631 -0.351546526 0.9354659915
0.026602449 -0.13718519 1.7850002 -0.2287792116 0.880207479 0.4158063233
0.04386051 -0.16731972 1.853 -0.2116672546 0.9075663686 0.3626572788
-0.067491055 -0.26835731 1.8330001 -0.04808380827 -0.8740301132 0.483486563
0.15449409 -0.038984489 1.647 -0.2201163322 0.7492389083 0.6246517897
-0.1446351 -0.30039597 1.8130001 0.09716563672 -0.525916934 0.8449676037
-0.21603872 0.13019551 1.6320001 -0.2588540912 -0.1798178852 0.9490311146
0.16370785 -0.36397186 1.813 -0.06917904317 -0.4131736457 0.9080207944
0.14481306 -0.098074451 1.748 -0.118045792 0.8753584623 0.4688419402
0.18479696 -0.32620677 1.8329999 -0.28425318 -0.1857185215 0.9405896068
0.13410282 -0.30536669 1.8430002 0.0007108970312 -0.1985982656 0.9800807238
-0.25576049 0.19110194 1.6390001 -0.429132998 -0.4180683792 0.8006645441
0.12473959 -0.034417056 1.6355001 -0.1688673347 0.7622936964 0.6248136759
0.057973091 -0.32851419 3.1490002 -0.1519663334 0.9098675251 0.3860664964
0.089646183 -0.12739193 1.794 -0.2154132575 0.8730127215 0.4375453889
0.19549578 -0.071706951 1.7220001 -0.2288990021 0.8136870861 0.5343393683
0.074735828 0.023100168 1.5500001 -0.2002402693 0.5297094584 0.8242037296
0.034114782 -0.073769569 1.6630001 -0.220503822 0.8518986106 0.475022912
-0.19827008 -0.054781497 1.5860001 -0.3919795156 -0.3491081297 0.8511613011
0.23402792 -0.34268373 3.1780002 -0.1486769021 0.8969364762 0.4164134264
0.13505577 0.0206718 1.572 -0.1565178037 0.6862892509 0.710288167
-0.035245508 -0.46393812 1.748 -0.4379820228 -0.145216167 0.8871775866
-0.055493001 -0.12356441 1.6880001 -0.2618986964 0.8663051724 0.4253521264
-0.064117819 -0.038687125 1.5430001 -0.2722427249 0.6839683056 0.6768096089
-0.11391132 -0.29365301 1.7939999 0.2676353157 -0.6209746003 0.736723721
0.064813718 -0.035771504 1.6160001 -0.2640450001 0.7853050232 0.5599787831
0.30470291 -0.37478688 1.8529999 -0.3950373828 -0.2830520272 0.8739719987
-0.084100559 -0.385692 1.7570002 -0.2413937449 -0.1970532686 0.9502100348
0.034113728 -0.45537132 1.7850001 -0.5236631036 -0.1188168377 0.8435991406
-0.035245508 -0.14711168 1.748 -0.3597992957 0.8510568142 0.3824222386
-0.024771092 -0.39478934 1.7660002 -0.319511801 -0.2377259731 0.917277813
-0.034407023 0.0054637766 1.5159999 -0.06096936762 0.2076046914 0.9763109088
0.23581943 0.025774717 1.609 -0.368139714 0.4964236319 0.7861531377
-0.16565669 -0.43349415 1.766 0.6362285018 -0.11083287 0.7634981275
-0.17825 -0.014035434 1.6010001 -0.7731685638 -0.3861559033 0.5030844212
0.2772879 -0.27396709 1.8940001 -0.7859068513 -0.4878758788 0.3799046576
-0.26588145 0.31497481 1.6822859 0.4446822107 -0.3615373969 0.819480598
0.1439662 0.073765539 1.5640001 -0.310765624 -0.5073492527 0.8037546277
0.16530338 -0.082274288 1.7220001 -0.1694336534 0.8755404949 0.4524611831
0.27178684 -0.46569324 1.8130001 -0.2760042846 -0.006706942338 0.9611330032
-0.015727958 -0.064331308 1.6046363 -0.4176215529 0.7542198896 0.5066997409
-0.093898371 -0.46768028 1.7220001 -0.09683676809 -0.1744180769 0.9798984528
0.1048695 -0.095755085 1.7336668 -0.1832746267 0.8427994847 0.506062746
0.17554724 -0.43491435 1.804 -0.1808145493 -0.1901587993 0.9649589062
0.20196559 -0.15270568 1.8730001 -0.2634486258 0.8817982674 0.3911861479
0.025224328 0.035704002 1.5290002 -0.05663309991 -0.2569694221 0.9647587538
0.013318028 -0.31590363 1.8230001 -0.4240331054 -0.5000628233 0.7550715804
0.14615436 -0.062008392 1.6840001 -0.1297722757 0.8458228707 0.5174387097
0.29750559 0.0103096 1.6800001 -0.7665910125 0.435125947 0.4722325504
-0.14251444 -0.49650192 1.748 0.6328853965 0.4426765442 0.6352114081
-0.19030154 -0.34128457 1.794 0.6195830107 -0.4821109474 0.6194238663
-0.023519415 0.035022363 1.5230001 -0.1347863078 -0.305103302 0.942732513
-0.01233996 -0.027422134 1.5640001 -0.4631589651 0.6796860695 0.5687799454
0.22175634 0.33184814 1.794 -0.5314216018 -0.3742775619 0.7599390745
0.085230656 -0.0025707621 1.5790002 -0.2224345207 0.729392767 0.6469227672
-0.023354402 -0.15413904 1.7760001 -0.3866473138 0.8460244536 0.3670783043
0.21327195 -0.31667656 1.8430001 -0.2382012904 -0.3857560456 0.8913205862
-0.15415582 -0.32843813 1.7659999 0.1187499464 -0.568097353 0.8143486977
0.13525563 -0.12110098 1.794 -0.06933233887 0.8682596087 0.4912415147
0.044215854 -0.36384854 1.8230001 -0.1520907432 -0.4274851382 0.8911368251
-0.071167797 -0.30206776 1.8040001 -0.1385047436 -0.575558126 0.8059461713
0.25635925 -0.03076311 1.6710001 -0.2589554787 0.7452471256 0.6144499779
-0.093308896 -0.19768833 1.8040003 -0.3681834042 0.8071843982 0.461404711
-0.18698511 -0.23173368 1.8230001 -0.8681907058 0.2578889132 0.4239554703
-0.12476457 -0.18637671 1.7570001 -0.3238601089 0.8309376836 0.4523905218
-0.144961 -0.1837732 1.7360002 -0.1947219968 0.8820922375 0.4289483428
0.03103137 -0.24988419 1.863 -0.1510468125 -0.8366006613 0.5265778303
0.10234119 -0.24854289 1.853 0.08111346513 -0.6205863357 0.7799315453
0.097460203 -0.36429298 3.2380002 -0.1339640617 0.8971210718 0.4209838808
-0.24401402 0.26711595 1.6470001 0.4012313187 0.1451445371 0.9044039249
0.1584233 -0.23681834 1.863 0.1111304313 -0.8008666635 0.5884408355
0.19247656 -0.11110435 1.7850001 -0.232904017 0.8527457714 0.4675257504
-0.014003247 -0.2738668 1.8330001 -0.4475850165 -0.5310629606 0.7194718719
0.20524956 -0.24411018 1.8730001 -0.3649490774 -0.6018608809 0.710334897
0.21255572 0.39474633 1.8230001 -0.9081228971 -0.4176165164 -0.03015393764
-0.15570126 -0.2123199 1.794 0.04182810709 0.9111940861 0.4098484516
0.16549349 -0.30536667 1.8430002 0.05092443153 -0.2848964036 0.9572046399
-0.15518402 -0.12101506 1.6240001 0.02010187693 0.8659850955 0.4996655583
0.1667525 0.045477957 1.572 -0.5673961639 0.1756161749 0.8045001626
0.17369221 -0.0099659469 1.6240001 -0.2456067204 0.8026601672 0.5435199738
0.13551776 -0.35191765 1.8330001 0.146397531 -0.4367204905 0.8876051903
0.095219158 -0.062991127 1.6710001 -0.1797021031 0.850917697 0.4936052859
0.0046708798 -0.43439183 1.7760001 -0.3952237666 -0.1899530441 0.8987302184
0.087100342 -0.088602066 1.7130001 -0.2720113099 0.8392028213 0.4709016979
0.086093552 -0.27720737 1.8430002 0.1264216155 -0.2939166129 0.9474337101
-0.16553481 -0.15088573 1.6710001 -0.00792141445 0.8464697003 0.5323779583
-0.15634006 -0.075490355 1.572 0.375701189 0.3316511214 0.8653647304
0.01124851 -0.1719415 1.8330001 -0.34312132 0.8375973701 0.4250864089
0.16565669 -0.10527715 1.7659999 -0.09854213893 0.8634694815 0.494681567
0.19762082 -0.27601588 1.863 -0.4586287439 -0.2651973069 0.848133266
-0.17960182 -0.25907165 1.8130001 -0.7695251107 -0.4997755289 0.3975619376
0.20532221 -0.014360384 1.6378335 -0.02526235767 0.7682839036 0.6396105886
0.0046445802 -0.49387366 1.7659999 -0.3517929018 -0.2584329844 0.8996967077
-0.035157837 -0.10840334 1.6710001 -0.3378299773 0.8266852498 0.4499581754
0.22580041 -0.29402784 1.853 -0.09731800109 -0.2449820936 0.964631021
0.094495021 -0.46219531 1.804 -0.1038650945 -0.2107467353 0.9720071554
-0.0031454801 -0.14941029 1.794 -0.3641478717 0.7910243273 0.4916063547
-0.094401509 -0.11350914 1.6343334 -0.3301398158 0.8538790345 0.4023658633
-0.1049931 0.0013290267 1.5160002 0.1996238232 -0.4047707617 0.8923625946
0.24478197 -0.058567468 1.7129999 -0.1100479811 0.8962771893 0.4296238124
-0.12523007 -0.053862397 1.5360001 0.08092375845 0.543309927 0.8356229067
-0.14473906 -0.44484264 1.7342001 0.3140368164 -0.1144881099 0.9424825311
0.16553484 -0.04834203 1.6710001 -0.3488981724 0.7836006284 0.5140429735
0.24197052 -0.49501157 1.8040003 -0.2617064118 0.009770255536 0.965098083
0.064978532 -0.29077893 1.853 -0.03610600531 -0.2046354711 0.9781721234
-0.035386652 -0.3176935 1.794 -0.2220896035 -0.2318143249 0.947068274
0.014302525 -0.12463629 1.748 -0.2692053616 0.8762913942 0.3995521367
-0.024805533 -0.083853543 1.6370001 -0.3780810237 0.7986751795 0.4681589007
0.20508739 -0.039552569 1.6710001 -0.0330032967 0.861487627 0.5067048669
-0.029415673 -0.36692181 1.766 -0.2499580979 -0.5795217752 0.7756774426
0.20682099 0.066391274 1.5860002 -0.3338237703 -0.2587608695 0.906423986
0.26478752 -0.3362639 1.853 -0.2687529624 -0.1870265901 0.9448772073
-0.078254774 -0.082446992 1.5940001 -0.3414039314 0.7963759899 0.4992280602
0.16569525 -0.15432401 1.853 -0.07918862998 0.8402553797 0.5363767743
0.21992499 -0.17627575 1.9150001 -0.9098334312 0.01659252122 0.4146417975
0.052515838 0.04174336 1.536 -0.2563515604 -0.1887629181 0.9479727745
0.31323999 -0.45867288 1.8230001 -0.08312481642 0.2665667534 0.9602252245
-0.0964633 -0.064271778 1.5538182 -0.3311105669 0.7493934631 0.5733892322
0.085769907 -0.11487594 1.766 -0.1390663236 0.8942890763 0.425332278
0.054570042 0.0030164346 1.5640001 -0.3304566443 0.7438097596 0.580986619
0.2163913 -0.36789718 1.8230002 0.05606933311 -0.3760299683 0.9249095321
-0.078957863 -0.33595797 1.7660002 -0.3564043939 -0.4300683737 0.8294679523
-0.031963266 -0.18378878 1.8230001 -0.3530271649 0.8084365726 0.4709587693
0.0044604801 -0.10556469 1.6960001 -0.3224075139 0.8661159873 0.3819639683
-0.05393989 -0.072385669 1.5940001 -0.346899122 0.8114567399 0.47031793
0.17515537 -0.35191765 1.8330001 -0.3003676832 -0.4018163085 0.8650565743
0.22697887 -0.33625007 1.8330001 -0.06698446721 -0.4723385572 0.8788682222
-0.17379916 -0.09732753 1.5860001 0.113970615 0.7179169059 0.6867357492
0.015583627 -0.049584266 1.6160001 -0.3281602263 0.7982894778 0.5050195456
-0.15092781 -0.39180249 1.7390001 0.4638796449 -0.2200552821 0.8581324816
-0.11509318 -0.15794171 1.705 -0.348536402 0.847812295 0.3996706903
0.094291635 -0.14223653 1.8230001 -0.1814014465 0.8768541813 0.4452193677
0.28759402 -0.39584568 1.8430001 -0.4999920428 -0.2308952212 0.8346827626
0.21456856 -0.41483253 1.813 0.1270183325 -0.1583577842 0.979177773
-0.17184946 -0.19662055 1.766 0.08716963977 0.9311764836 0.3539940119
-0.036617491 -0.34770969 1.7850001 -0.3418231606 -0.4680324495 0.8149248958
0.13483046 -0.26478752 1.853 0.123803243 -0.4535999 0.8825643659
0.16513769 -0.47496748 1.7940001 -0.1775994599 -0.1229672357 0.9763900042
0.090261601 -0.29266641 3.1200001 -0.1519663334 0.9098675251 0.3860664964
0.09584333 -0.1640708 1.853 0.03028276563 0.808760047 0.5873585939
0.10445045 -0.35191765 1.8330001 -0.02518467046 -0.6390252709 0.7687733769
-0.094728656 -0.17405428 1.7570001 -0.3877031505 0.8277903199 0.4055237472
0.090145878 -0.38746914 1.8040001 -0.1583372951 -0.2237689644 0.9616947174
0.077194884 -0.018246064 1.6010001 -0.201680094 0.7948669195 0.5722863674
0.28607124 -0.4251115 1.8230001 -0.08644807339 -0.3136999607 0.9455786943
-0.0047445199 -0.35583895 1.804 -0.4902573824 -0.3143667579 0.8129091263
-0.068603553 -0.42534199 1.739 -0.3990699947 -0.3560924232 0.8449504972
0.03479315 -0.40486574 1.8040004 -0.1327907592 -0.1946533173 0.9718419313
-0.074799828 -0.17870586 1.7850001 -0.393125087 0.7958076596 0.4605896473
0.011493976 -0.18554562 1.8730001 -0.3233249187 0.8820557594 0.3426932693
0.014428765 0.0058616851 1.5430001 -0.3087530434 0.6144758463 0.7260103226
0.14533029 0.0027948134 1.594 -0.1768871546 0.7741653323 0.6077655554
0.18378878 -0.13264756 1.8230001 -0.2321585864 0.831474781 0.5047296882
-0.26456484 0.32734296 1.705 0.6368687153 -0.2624926567 0.7249109149
0.096468404 0.070284121 1.572 -0.07584875077 -0.4601143301 0.8846139312
0.11436637 0.035393719 1.5530623 -0.2116982788 0.4764517248 0.8533332348
0.21683648 -0.083516523 1.748 -0.1706349999 0.8717374206 0.4593011737
-0.15481932 -0.35298809 1.7659999 0.1504679322 -0.2311132997 0.9612210989
-0.069313653 -0.35889068 1.7570001 -0.4070214331 -0.3992683589 0.8215341568
0.22162366 -0.0023728444 1.6240001 -0.2766722739 0.6905863285 0.6682386994
-0.099676996 -0.022593454 1.516 0.04658319801 0.3854367435 0.9215576649
-0.11697648 -0.12272084 1.6372501 -0.300732106 0.8517978191 0.428952992
-0.12580094 -0.4134348 1.7353078 0.17712906 -0.1853070855 0.9665849805
-0.045609459 -0.17142867 1.794 -0.3472328782 0.8107506037 0.471288383
-0.0094688768 -0.01217427 1.5430001 -0.4356184304 0.656464994 0.615865469
0.083879471 -0.43512473 1.794 -0.3298235536 -0.06317008287 0.9419267178
0.046238553 -0.47433838 1.794 -0.3636523187 -0.3491947651 0.8636087179
-0.073241115 -0.13801217 1.705 -0.3499521017 0.8372430205 0.4201876819
0.21456856 -0.45615685 1.813 0.08736743033 -0.1123416647 0.9898213148
0.23503433 -0.15612996 1.9150001 -0.9000673294 0.0046484177 0.4357261062
0.057441127 -0.067354821 1.6630001 -0.2213310599 0.8380593061 0.498667419
0.12493903 -0.47603348 1.804 -0.029204702 -0.05381466821 0.998123765
0.24584539 -0.22438458 1.9040002 -0.6917970181 -0.4947704077 0.5259459615
0.25510013 -0.38365456 1.8330001 -0.265268147 -0.4076051712 0.8737796545
0.14352173 -0.39419055 1.804 -0.07534705848 -0.1248918101 0.9893052578
0.18580511 -0.26982135 1.8430001 -0.4075681269 -0.2711322308 0.871995151
0.13526616 0.20853533 2.1430001 -0.3151355684 0.8603482246 0.4006126523
-0.035426978 -0.41434163 1.7570001 -0.2549721003 -0.1767148972 0.950663507
0.068721026 -0.3659794 1.8230001 -0.1115252823 -0.4188557565 0.9011781216
0.091595009 -0.32620677 1.8330001 -0.04942497611 -0.286849916 0.9566996694
-0.16444249 -0.26514348 1.8330001 -0.7131719589 -0.5356160998 0.4522180259
0.22660731 -0.11454628 1.804 -0.08604855835 0.8313688636 0.549018681
-0.06525293 -0.48408568 1.7310001 -0.2430175692 -0.08677577227 0.9661327004
0.23003295 0.31140515 1.7850001 -0.5334419012 -0.3937844336 0.7485810518
0.1446351 -0.13191992 1.8130001 -0.09088130295 0.8621643186 0.4984107912
0.046986002 -0.15310405 1.8230002 -0.1797258258 0.8601887226 0.4772567451
0.25410795 -0.41392434 1.8230002 -0.245891571 -0.1744103581 0.9534769654
-0.053406533 -0.0093461433 1.5230001 -0.2754219472 0.3828946948 0.8817791343
-0.10524295 -0.10493574 1.6054446 -0.3096882403 0.8147036433 0.4902561903
0.13456444 -0.15256794 1.8430002 -0.2240034938 0.7712367177 0.5958324671
0.23480552 -0.24794149 1.8730001 0.02164742909 -0.7969377637 0.6036733985
-0.062951677 -0.098719679 1.6320001 -0.3538615704 0.8340209723 0.4233095348
0.18506722 0.013834928 1.601 -0.1922879815 0.6524549127 0.7330265045
0.11443656 -0.39575979 1.8130001 0.1487491578 -0.07359461486 0.9861326218
-0.11887162 -0.49622574 1.7310001 0.3152264953 0.08590229601 0.9451206326
0.05433755 -0.33401617 1.8230001 -0.3381512165 -0.3764629662 0.862513423
-0.11552276 -0.36505193 1.7570001 -0.08846221119 -0.3721680045 0.9239401817
0.034834351 -0.12617776 1.766 -0.2670439184 0.8658889532 0.422993958
0.045863692 -0.44440338 1.8040003 -0.1113857552 -0.1558702588 0.9814773202
0.2844266 -0.49814832 1.8330001 -0.4083113372 0.2921976149 0.8648135066
0.24498451 -0.27601585 1.8630003 -0.2426488847 -0.2688376009 0.9321200848
-0.23206419 0.14521807 1.6240001 -0.3850364387 -0.3204865158 0.8654682636
0.22523655 0.044335898 1.594 -0.532674253 0.1953526139 0.8234655261
0.031837903 -0.02076385 1.5790001 -0.3296291828 0.7692521811 0.5473533869
0.074330814 -0.40486565 1.8040003 -0.07989569753 -0.243182838 0.966684401
-0.01386273 -0.46517166 1.7570001 -0.4935380518 -0.06250371039 0.8674753308
0.14518231 -0.43364906 1.8040001 0.007599095348 -0.2270119935 0.9738622904
0.28254879 -0.30541402 1.863 -0.5129422545 -0.3126957417 0.7994445562
-0.16476744 -0.22198574 1.8130001 0.2973564565 0.6868781447 0.6631572843
-0.065122306 0.01196124 1.5160002 0.125827685 -0.4040179551 0.9060556889
-0.20572931 0.024066448 1.594 0.4603690505 -0.03564430028 0.8870117664
0.024911359 -0.47487274 1.7760004 -0.4787310362 -0.2817009389 0.831541419
0.18541022 -0.04545214 1.682182 -0.268144846 0.8209115267 0.5041850805
0.14479728 -0.11054417 1.7760001 -0.07580091804 0.8942264318 0.4411500394
-0.0047681895 -0.32582632 1.813 -0.5277808905 -0.3127438128 0.7897078991
0.2135781 0.36393204 1.794 -0.9012024999 -0.310434401 0.3024310768
-0.18508187 -0.12457433 1.6240001 -0.13315323 0.852674365 0.5051897168
0.21557671 0.01549742 1.6072223 -0.3199907541 0.5901299715 0.7411832213
0.066061504 -0.16244633 1.853 -0.1421848983 0.9122924209 0.384065032
-0.066949278 -0.3160629 1.7760001 -0.3384395242 -0.4475134611 0.8277623057
-0.17174383 -0.41357145 1.7570001 0.5862129927 -0.02164281905 0.8098678589
0.076485366 -0.23826016 1.883 0.2550890744 -0.8186950684 0.5144588947
0.24545789 -0.014438698 1.6470001 -0.3205280304 0.7072557807 0.6301198602
0.13612993 -0.32666591 1.8330001 0.1577586979 -0.4077159166 0.8993775249
0.26582778 0.013217602 1.6351112 -0.4220176935 0.5717098117 0.7035971284
0.22747572 -0.24407978 1.8940001 -0.2793097794 -0.6686270833 0.6891471744
0.034983091 -0.0031828845 1.5546668 -0.2980694175 0.727410078 0.6180850863
0.17440015 -0.38593444 1.8129998 -0.06156735122 -0.3243181705 0.943942368
-0.045672797 -0.042948995 1.55525 -0.3749300539 0.7367071509 0.5627521873
0.10797465 -0.11736375 1.7850001 -0.1630304456 0.8840113282 0.4381153286
0.31254789 -0.41860527 1.8330001 -0.3236227334 -0.6558613777 0.6819928288
-0.094850071 -0.076228581 1.57375 -0.3695175946 0.7688421011 0.5218606591
0.1043158 -0.04281833 1.6390002 -0.1543911397 0.7892705798 0.5943192244
0.17897764 -0.23808952 1.8730001 -0.156321153 -0.8589622974 0.4875935316
0.1859594 -0.36556125 1.8130001 -0.3053043485 -0.4494075477 0.8395368457
0.2141467 -0.062772319 1.7130001 -0.1024694815 0.8514786363 0.5142802
0.22048604 -0.14535747 1.863 -0.2129047215 0.9017429948 0.376206249
-0.08498057 -0.44463047 1.7310003 -0.1304645389 -0.2485534847 0.9597917199
-0.095106065 -0.15750368 1.7220001 -0.3781942725 0.8413770795 0.386074692
-0.13215223 -0.16969548 1.7130001 -0.3164662421 0.8612425923 0.3976308107
-0.013933738 -0.41491583 1.7660002 -0.5334935188 -0.09855420887 0.8400427103
0.10344579 -0.23808952 1.8730001 0.1554212868 -0.8126873374 0.5615901947
0.064692743 -0.11244214 1.7570001 -0.1454051733 0.905356288 0.3989829421
0.19507235 -0.09443979 1.7659999 -0.2692461014 0.8250222802 0.4968347251
-0.19904542 0.066584587 1.6160001 -0.4240871668 -0.5007238388 0.7546030283
-0.035325103 -0.13254464 1.7220001 -0.3359186351 0.8540455699 0.3971961737
0.24771531 -0.11986225 1.8230001 -0.1615289003 0.8417169452 0.5151903033
0.29670346 -0.35223326 1.863 -0.5619158149 -0.2666578889 0.7830352187
