# .PCD v0.7 - Point Cloud Data file format
VERSION 0.7
FIELDS x y z normal_x normal_y normal_z
SIZE 4 4 4 4 4 4
TYPE F F F F F F
COUNT 1 1 1 1 1 1
WIDTH 512
HEIGHT 1
VIEWPOINT 0 0 0 1 0 0 0
POINTS 512
DATA ascii
-0.0015245234 -0.34759134 1.7390001 -0.6076660156 -0.3116880655 0.7304742336
0.48226133 -0.48873466 3.6920002 -0.3214861453 0.871491909 0.3703356981
-0.34489295 -0.40194291 2.9580002 -0.3804599643 0.7782886028 0.4995168746
0.36765385 0.17671759 2.3170002 -0.8809117675 0.1689063311 -0.4421143234
-0.18378776 0.37475467 1.6378335 0.1865419 -0.5029032826 0.843972981
-0.37632847 -0.014316843 2.3330002 -0.2809856236 0.8614931107 0.4229381382
0.49691218 -0.24017423 3.1490002 -0.3196714222 0.8697292209 0.3760069609
0.28398359 0.081873357 1.6010002 -0.5219294429 -0.0302987732 0.8524503708
0.065288872 -0.42863566 3.2380002 -0.2438236177 0.8286039233 0.5039499998
-0.11243565 -0.013024461 1.516 -0.1916720569 -0.1639206707 0.9676734209
-0.2032464 0.21208319 2.016 -0.2425664961 0.8597700596 0.449396193
0.25450948 0.38258523 1.8730001 -0.9443885088 0.1575172246 -0.288649708
0.28265661 -0.49221238 1.853 -0.7607468963 0.04052847251 0.6477820277
0.22336327 -0.13873161 1.8330001 -0.09346242249 0.8351964951 0.5419516563
-0.07415022 0.046093378 2.286 -0.2053699344 0.8299458027 0.5186647773
0.40227166 -0.35459501 3.3990002 -0.3250236511 0.8723033667 0.3653032184
-0.27809358 -0.11078525 2.5790002 -0.2964608669 0.8517057896 0.432097435
0.13714485 0.15593182 2.1430001 -0.8754039407 0.2354249507 -0.4221883714
-0.16218683 -0.16368857 1.7130001 0.2313677967 0.7641640902 0.6020981669
0.085188329 -0.063048989 1.647 -0.2861819267 0.8429381251 0.4555822611
-0.33232594 -0.29351413 2.7670002 -0.576595366 0.7131864429 0.3986261785
-0.13370237 -0.49466985 1.6470001 0.5120556355 0.07403858751 0.8557554483
-0.1578304 -0.3043249 2.9840002 -0.3416156471 0.7901220918 0.5089261532
-0.13546078 0.18199249 1.5766667 -0.7750056982 -0.3541778326 0.5233777165
0.28102601 -0.35483083 3.2380002 -0.2207911164 0.852693975 0.4734598398
0.027019743 -0.16529724 1.8130001 -0.3188464046 0.8610605597 0.3961207867
0.17459935 -0.33361661 1.8230001 -0.2001529038 -0.2031286508 0.9584767222
0.066540316 0.063575648 1.5030001 -0.3704850078 -0.2064975947 0.9055935144
0.10527714 -0.49387372 1.7660002 -0.2482749969 -0.2418863922 0.9380034804
-0.1012024 -0.41301519 3.1200001 -0.3369080126 0.7557958961 0.5614851117
0.31386158 -0.04955709 1.7130001 -0.2440033555 0.8212269545 0.515798986
-0.32736924 0.15948758 1.9150001 -0.9011179209 -0.1435148865 -0.4091331661
-0.17165834 -0.33591762 1.6880001 0.3085333109 -0.4858509004 0.8177750707
0.44986588 -0.41884065 3.5390003 -0.3214861453 0.871491909 0.3703356981
-0.34696364 -0.49062824 3.0920002 -0.3211612105 0.7911357284 0.5205379128
0.07415022 0.10320909 2.286 -0.2316399068 0.8505089879 0.4722048342
0.26844847 -0.43364754 3.3650002 -0.2408544719 0.8886323571 0.3902840614
-0.056236412 -0.10748985 1.6240001 -0.2988611758 0.8649318218 0.4032058418
-0.25518012 -0.37874103 3.0640001 -0.3211612105 0.7911357284 0.5205379128
0.49470299 -0.321123 3.3000002 -0.3196714222 0.8697292209 0.3760069609
-0.32772255 0.015513493 2.2120001 -0.2809856236 0.8614931107 0.4229381382
-0.0074341334 -0.48916596 1.6960001 -0.7059787512 -0.2191441655 0.6734759808
0.16432492 0.015187959 1.5751112 -0.3552356958 0.7410544753 0.5697770715
0.1876961 -0.075984202 1.7220001 -0.2910844386 0.8189396858 0.4945782721
-0.084716685 -0.25415006 1.7570001 0.2241429389 -0.9325842857 0.2829249203
0.20864667 -0.24369931 1.904 -0.4031180739 -0.6648209095 0.6288950443
-0.32584822 -0.10721458 2.398 -0.2771021426 0.8593859076 0.4297327399
0.0081161801 -0.039228205 1.5430001 -0.4736011326 0.8016608953 0.3647488952
0.065524697 -0.28607124 1.8230001 -0.3017761111 -0.3218494654 0.8974096775
0.27421343 -0.37273324 1.8730001 -0.3301191926 -0.2278852761 0.9160183668
-0.077268526 -0.39508998 1.6630001 -0.4199866056 -0.301982075 0.8558142781
0.014516723 -0.11763552 1.7129999 -0.3175614178 0.8727892637 0.3706664741
0.19241665 -0.44440341 1.8040003 -0.6038631797 -0.391464889 0.6943374872
0.24570248 -0.012931711 1.6390001 -0.19229047 0.7408140302 0.6435984373
0.094974555 -0.38301215 1.7760001 -0.3256355226 -0.1689552963 0.9302771688
0.12424646 -0.13132378 1.794 -0.1246447265 0.8518244028 0.5087817907
-0.1077248 0.09021952 1.536 0.7151058912 -0.01551625226 0.6988438964
-0.17067735 0.27646911 1.6090001 0.03622703254 -0.2879836559 0.9569498301
-0.025838433 0.025835367 1.4734999 0.08742013574 -0.1587444097 0.9834418893
-0.065449297 -0.16286917 1.7363335 -0.4286100864 0.847815156 0.3122545183
0.33604521 0.025513193 1.6630001 -0.8374837637 0.2285203338 0.4963863492
-0.27800414 -0.04530438 2.3490002 -0.2629031539 0.8671581149 0.4229879081
-0.17405428 -0.26339188 1.7570001 0.4486928582 -0.4188184738 0.7894718647
0.28167301 -0.092326149 1.7850001 -0.4015088677 0.8288532495 0.3896061182
-0.012715174 -0.24317768 1.8130001 -0.3161383867 -0.8465749025 0.4282143116
-0.14094695 -0.12670989 1.6240001 0.1313050091 0.7899782658 0.5989100933
0.48570576 -0.37843332 3.3990002 -0.3250236511 0.8723033667 0.3653032184
-0.08474911 -0.31520727 1.6960001 -0.4452048838 -0.3707493544 0.8150690198
0.14333537 -0.25458762 1.8430002 -0.1361355782 -0.6125555038 0.7786160111
0.45278782 -0.28404701 3.2080002 -0.3196714222 0.8697292209 0.3760069609
-0.16104805 -0.41350174 1.6550001 0.3875654042 -0.02446883917 0.9215174317
0.084015429 -0.0045817788 1.5525455 -0.3549287617 0.7778809667 0.5185815096
0.041924391 -0.43525141 1.7390001 -0.5491903424 -0.1315298676 0.8252816796
0.16508247 -0.042834807 1.647 -0.3023563027 0.7765524983 0.5527629256
0.10416377 -0.098125301 1.7220001 -0.2710720301 0.8609498739 0.4304476976
-0.074782297 -0.075562283 1.551 -0.1204265729 0.8384697437 0.5314751863
0.20977932 0.08089529 1.5640001 -0.5065542459 -0.1201599687 0.8537940979
0.2564171 -0.29561463 1.863 -0.3963342607 -0.5304065943 0.7493917942
0.013694703 -0.073195815 1.6160001 -0.3239882886 0.8552297354 0.4044918716
0.13797507 0.079809099 1.5430001 -0.3126562834 -0.3389326334 0.8873391151
0.19426759 -0.17268229 1.8940001 -0.06469453126 0.6247437 0.7781451941
0.13320599 -0.17056865 1.853 -0.1045385525 0.8045885563 0.5845587254
-0.065605342 -0.46506903 1.6630001 -0.2874148488 -0.07403346151 0.9549406767
-0.016441884 -0.41403648 1.705 -0.7080434561 -0.1421372294 0.6917163134
-0.1826272 -0.1045688 1.6800001 0.6057447195 0.08601646125 0.7909958959
0.25443056 -0.42690769 1.8330001 -0.5129872561 -0.2946752012 0.8062323332
0.26254851 -0.36579794 3.3650002 -0.2378480434 0.884775281 0.400750488
0.24606982 -0.052782349 1.6960001 -0.1092726439 0.8587041497 0.5006861687
-0.096684061 -0.14795591 1.6710001 -0.2436804026 0.8874620199 0.3911917806
-0.024644854 -0.28495616 1.7570001 -0.5211853981 -0.3672881722 0.7703669071
0.23669882 -0.49712026 1.8040003 -0.4784905612 -0.3040089309 0.8237872124
0.21508288 -0.10520601 1.7760001 -0.1767099351 0.8530647159 0.4909726679
0.054960862 -0.12772594 1.766 -0.2297659963 0.8494482636 0.4750213325
0.24192843 0.027807865 1.5860001 -0.2996154726 0.603461802 0.7389616966
-0.044888835 -0.034332022 1.5060002 -0.07237894833 0.6944636106 0.7158781886
0.046423882 -0.33435628 1.785 -0.4970211685 -0.3095375299 0.8106518984
0.13545553 -0.43439186 1.7760001 -0.1682073921 -0.2379962206 0.956589818
0.1155914 -0.026280781 1.6034615 -0.2846435308 0.7669556737 0.5751147866
-0.33812946 -0.46060154 3.0370002 -0.3804599643 0.7782886028 0.4995168746
-0.033027541 -0.17142867 1.794 -0.320171237 0.8484781384 0.4213967025
0.03435339 0.0052807117 1.5071251 -0.3981846273 0.6111094952 0.6841010451
0.01703188 -0.38889459 3.2380002 -0.3545137644 0.6845269799 0.6369794607
-0.13215223 -0.27782005 1.7130001 -0.1190168262 -0.8483471274 0.5158896446
-0.27194726 -0.086227179 2.5220001 -0.2738448083 0.8617971539 0.4269832671
0.22214471 -0.37556839 1.8230001 -0.4529272318 -0.4358153343 0.777767241
-0.03995496 -0.13170339 1.6880001 -0.3605665267 0.8464791775 0.3917457759
0.10446671 -0.33507371 1.8129998 -0.1306212991 -0.2267861962 0.9651456475
0.49845862 -0.41694969 3.5760002 -0.3207157254 0.8720876575 0.3696005344
-0.25068283 -0.35095596 3.0100002 -0.3804599643 0.7782886028 0.4995168746
0.16503775 -0.49511325 1.7760005 -0.2327824533 -0.05553855002 0.9709417224
0.19547708 -0.28211513 1.853 -0.5119575262 -0.3937256932 0.7634655237
0.043788448 -0.49471083 1.7342001 -0.3615977466 -0.1875671893 0.9132719636
0.16304071 -0.38427281 1.794 -0.3213353157 -0.3304986358 0.8874199986
0.074725315 -0.17056865 1.853 -0.03467571363 0.8855522871 0.4632436633
0.29328358 0.018508187 1.6240001 -0.3856518865 0.6305017471 0.6736024022
-0.15711094 -0.20794095 1.7570001 0.9988453984 -0.02042288519 -0.04348254576
0.055893809 -0.042546038 1.5860001 -0.3591876924 0.782787323 0.5081616044
-0.12796792 -0.36707348 1.6550001 -0.06109872833 -0.1633871347 0.9846682549
0.085631929 -0.2375074 1.8430001 -0.08744057268 -0.5286742449 0.844309032
0.29517937 -0.017578918 1.6710001 -0.3036523163 0.6675922871 0.6797910333
0.038087659 -0.089359507 1.6710001 -0.3092763126 0.861939013 0.4017577767
-0.047082845 -0.35634279 1.6960001 -0.4790355861 -0.3636409342 0.798930645
0.035608452 -0.38550019 1.7659999 -0.370971173 -0.4188952148 0.8287986517
0.19611084 -0.005059619 1.6160001 -0.1509671956 0.8119649887 0.5638455153
0.13483484 -0.073325574 1.684 -0.1384174079 0.8672685027 0.4782112539
-0.11470746 -0.09732753 1.5860001 0.06733383983 0.8459160924 0.529048264
0.15557064 -0.10628093 1.7570001 -0.1008189842 0.8923736215 0.439891845
-0.025292806 -0.072809123 1.5735556 -0.3328526318 0.8410431147 0.4264452755
-0.16785625 0.3314808 1.6090001 0.05493445694 -0.2399771959 0.9692229629
0.12455679 0.027604479 1.536 -0.2976960838 0.6795469522 0.6705169678
-0.11171801 -0.43961763 1.6550001 -0.0933637321 -0.1863714606 0.978033185
-0.015834937 -0.14762248 1.748 -0.3233698606 0.8590631485 0.3967901766
0.016251648 -0.28256896 1.794 -0.556891799 -0.3712360859 0.7430042624
0.17712875 -0.12810203 1.8040001 -0.1690415889 0.8295034766 0.5323053002
0.015956614 0.053888902 1.488077 -0.2129092664 -0.1146772355 0.9703189135
-0.13486065 0.13486338 1.5538889 -0.03450904414 -0.1935138106 0.9804904461
-0.098298877 0.03905024 1.536 -0.4423890114 -0.2986837924 0.8456240296
0.085150629 -0.44433144 1.7659999 -0.2916053236 -0.05535463244 0.9549357295
0.25154635 -0.080799736 1.7390001 -0.09438648075 0.8553541899 0.5093725324
-0.15511213 0.22637987 1.5940001 -0.8547990322 -0.311350137 0.4151863754
0.11496636 -0.28556159 1.8130001 -0.263671875 -0.3240170479 0.9085648656
0.23083247 -0.42367986 3.3330002 -0.2378480434 0.884775281 0.400750488
-0.014025207 -0.10397997 1.6550001 -0.3654180467 0.8551612496 0.3676531911
0.21645974 -0.3362639 1.8529999 -0.4138160944 -0.1117167845 0.9034796953
-0.10812455 -0.17269894 1.7130001 -0.278423965 0.8316541314 0.4804492295
0.036757756 -0.24611714 1.8230001 -0.449282527 -0.6434470415 0.6197749972
-0.1049931 -0.062464252 1.516 -0.1893492043 0.658583045 0.7282961011
-0.14502609 -0.15088573 1.6710001 0.2179105282 0.8508468866 0.4780947864
0.20508739 -0.042482391 1.6710001 -0.1168203875 0.8183065653 0.562785387
-0.046194375 -0.3158125 1.7220001 -0.5687100291 -0.251493305 0.7831475139
0.084873781 -0.14654236 1.8130001 -0.1214092374 0.8299736381 0.5444295406
0.18356436 -0.15432401 1.853 -0.1404999346 0.8765477538 0.460351795
0.13211016 0.17614688 2.184 -0.8754039407 0.2354249507 -0.4221883714
0.17589341 0.053296465 1.5500001 -0.4968297184 0.2684873343 0.8252725601
-0.17296751 -0.28794876 1.6960001 0.2295784354 -0.6410828233 0.7323295474
-0.1255562 -0.32512063 1.6800002 -0.1532735527 -0.3979629874 0.9045068622
0.05706574 -0.10361937 1.7130001 -0.1994719058 0.9079494476 0.3685631156
-0.17182054 -0.35374814 1.6470001 0.06403680891 -0.1442844719 0.9874620438
-0.0072132135 -0.012459187 1.4960001 -0.4212812483 0.6299189329 0.6524754763
-0.062247716 0.0033844593 1.4854 0.5364601016 0.132081911 0.833525598
-0.045151841 -0.24755664 1.7760001 -0.3672839999 -0.695721209 0.6173123121
0.085057706 0.025251506 1.5159999 -0.4020765126 0.4904492795 0.7731713653
0.28254879 -0.44913825 1.863 -0.8366897106 -0.06724094599 0.543533802
-0.074726194 -0.27852491 1.7220001 -0.3214342296 -0.4975545108 0.8056795597
0.01051211 -0.44901726 1.7130001 -0.5908221602 -0.2653476596 0.7619184852
0.45450258 -0.39615425 3.5030003 -0.3214861453 0.871491909 0.3703356981
0.15587221 -0.29406819 1.8329999 -0.2676660717 -0.4753224254 0.8381070495
-0.053020801 -0.42563918 1.6800002 -0.620521605 -0.1693719923 0.7656801343
-0.090963811 -0.49524739 1.647 -0.2761813998 -0.07075103372 0.9584978223
-0.093950599 -0.12542646 1.6320001 -0.2343736887 0.8455146551 0.4797644317
0.083779521 -0.083784781 1.684 -0.2753123045 0.8301147223 0.4848841727
0.24513353 -0.11544999 1.8040003 -0.07454330474 0.8671086431 0.4925098121
0.29269093 -0.075088255 1.748 -0.2504925728 0.8686287403 0.4274781942
-0.15016335 -0.45486379 1.6630001 0.6502639651 -0.0388821736 0.758712709
0.19557965 -0.48763123 1.8040003 -0.4585566819 -0.158035472 0.8745001554
0.0155696 -0.14791121 1.7760001 -0.3760308921 0.811922729 0.4465223551
0.24498731 0.074988551 1.5860003 -0.3722103238 -0.1040208191 0.9223009944
0.04531534 -0.016908707 1.5430001 -0.3821487427 0.7772964835 0.4997724593
0.27128538 -0.3362639 1.853 -0.01059688535 -0.1147566363 0.9933370948
0.33295798 -0.0221972 1.6880001 -0.4979563653 0.5783788562 0.6461558342
0.0027867481 -0.31490248 1.766 -0.5245499015 -0.342466265 0.779464066
-0.09495151 -0.35307828 1.6811429 -0.3842707276 -0.4932283163 0.780424118
0.47362792 -0.26467443 3.1780002 -0.3196714222 0.8697292209 0.3760069609
0.11989644 0.00137812 1.572 -0.3729087412 0.7621631026 0.5291941762
0.093958504 -0.11706305 1.7570001 -0.1607020199 0.8900063634 0.4266890883
0.45456919 -0.43575943 3.5760002 -0.3214861453 0.871491909 0.3703356981
-0.065348484 -0.09454675 1.5860001 -0.2389928997 0.8598396182 0.4511742592
0.1057746 0.0651263 1.523 -0.2652513385 -0.3240412772 0.9080963731
0.15471296 -0.015475797 1.6043333 -0.2590915859 0.783970654 0.5641468167
0.14492351 -0.089067578 1.7220001 -0.05647848919 0.8936251402 0.445246309
0.22659555 -0.26600346 1.8730001 -0.4351986051 -0.4468844235 0.7815986872
0.2352307 -0.45615682 1.8129998 -0.3549468815 -0.1139256656 0.9279189706
-0.03905024 -0.060595199 1.536 -0.2781522274 0.8538696766 0.4399294257
0.12561668 -0.050535452 1.647 -0.2697296441 0.8254703879 0.4958271682
0.19708519 -0.40529612 1.8130001 -0.4592476487 -0.07269248366 0.8853290081
0.015232958 -0.40429279 1.7370001 -0.4976661205 -0.2162037045 0.8399906754
-0.1585101 -0.2490873 1.7220001 0.01349751092 -0.372826308 0.9278029799
0.14180844 -0.34582278 1.804 -0.1963633299 -0.2264912128 0.9540142417
-0.025799714 -0.45504692 1.687111 -0.6277509928 -0.230350107 0.7435505986
0.20533989 0.033074882 1.572 -0.3452855051 0.6537248492 0.6733660102
0.11460049 0.18786967 2.1430001 -0.8754039407 0.2354249507 -0.4221883714
0.17897764 -0.25286749 1.8730001 -0.4362178445 -0.6697119474 0.6009991169
0.053626284 -0.062168527 1.6240001 -0.3511657715 0.8276876211 0.4377394021
-0.075811163 -0.006428773 1.5278002 0.8741443157 0.3020889461 0.3802814484
0.28355476 -0.39584568 1.8430001 -0.1612482816 -0.3962846994 0.9038569927
0.014534695 -0.051909626 1.5790001 -0.3832272291 0.7903513908 0.4779974818
0.17563568 -0.063469112 1.6835557 -0.3989134729 0.7539476156 0.5219492912
-0.039363209 -0.49276906 1.6630001 -0.4859498739 -0.1209235862 0.8655808568
0.27522209 0.044785794 1.601 -0.4839267135 0.3135831058 0.8169948459
-0.01952249 -0.37543249 1.7130001 -0.7318866253 -0.2707058787 0.6253481507
0.14543286 -0.14223653 1.8230001 -0.1308419108 0.8224356174 0.5536064506
-0.018417014 -0.092085063 1.6160001 -0.4429275692 0.8020944595 0.4005741179
0.26514345 -0.46440274 1.8329999 -0.6490927339 0.05680366233 0.7585855126
0.073555842 -0.47811294 1.748 -0.5394695997 -0.330278039 0.7745249867
-0.17964478 -0.19474098 1.7220001 0.9138754606 0.07378285378 0.3992339373
-0.36262441 -0.46469644 3.0640001 -0.3519258201 0.7851737142 0.5095590949
-0.12586412 -0.4044337 1.655 -0.02105598338 -0.1304206252 0.991235137
-0.065870106 -0.1256465 1.6550001 -0.334435463 0.851583302 0.4036816061
0.48674724 -0.36579794 3.3650002 -0.324554801 0.8717406392 0.3670591712
0.24529396 -0.36550426 1.853 -0.4646943808 -0.2765020728 0.8411930203
0.086418293 -0.042784136 1.6159999 -0.2992119491 0.8096683025 0.5048856139
0.063835353 -0.36588562 1.7760001 -0.2324571908 -0.3977471292 0.8875589371
-0.16699973 -0.3823415 1.6710001 0.2460664213 -0.0620762296 0.9672631025
0.074330814 -0.31471983 1.804 -0.2518654466 -0.2506448925 0.9347410798
0.2768189 -0.057566315 1.7129999 -0.1868686974 0.808680892 0.5577771068
0.25925487 0.01275024 1.6160001 -0.2734624743 0.654809773 0.7045866847
0.16259111 -0.4566341 1.7760001 -0.3434416652 -0.2192513645 0.913223207
0.2507214 -0.28060871 1.8940001 -0.6475875974 -0.4011900127 0.6478247643
0.065024123 -0.40407848 1.766 -0.4541651607 -0.4211348295 0.7850983739
0.12772594 -0.4667803 1.766 -0.06296740472 0.009747438133 0.9979679585
0.16828318 -0.41834885 1.794 -0.4461693466 -0.1114370525 0.887983501
0.31547374 0.043636959 1.6320001 -0.699349165 0.233257547 0.6756491065
0.053607289 -0.24529396 1.853 -0.1838101298 -0.7802299857 0.5978754163
0.31414488 0.0039190757 1.6470002 -0.396774739 0.6084595919 0.6872748733
0.024518613 -0.13025513 1.748 -0.3226017952 0.8551909328 0.4056803882
-0.038475148 -0.38919091 1.6880001 -0.4640537798 -0.2868480682 0.8380765319
-0.15314315 -0.098130554 1.6960001 0.3072420061 0.091180861 0.947253108
0.26473019 -0.032855835 1.6710002 -0.2069369256 0.7796735764 0.5910044312
0.12518801 -0.39590704 1.785 -0.2704798579 -0.3151618242 0.9096778035
0.20840821 -0.08734756 1.748 -0.1732134372 0.8389965892 0.5158311725
0.085509188 -0.026417471 1.5860001 -0.371106118 0.7766564488 0.5090039372
0.05190042 -0.14626482 1.794 -0.1927181184 0.8775933981 0.4389642477
-0.075488716 -0.046250127 1.5159999 0.1458377987 0.4664284587 0.872453928
-0.016519031 -0.13065051 1.7129999 -0.3858754039 0.8557803035 0.3445870578
-0.066907197 -0.15016949 1.6960001 -0.3544908464 0.8413423896 0.4080186784
0.043294329 0.034591947 1.4890002 -0.2315409482 0.06316556036 0.970772326
0.01434139 -0.48458803 1.7220001 -0.6653679013 -0.1952561587 0.7205280066
-0.01095395 -0.26132995 1.7850001 -0.6233790517 -0.6271090508 0.4670469165
-0.078347698 -0.43526495 1.655 -0.3334312737 -0.1067243591 0.9367141724
0.2152392 -0.061283384 1.705 -0.1090535969 0.8324908018 0.5432000756
-0.0044300887 -0.11327469 1.6853334 -0.3997712731 0.8344953656 0.3792102933
0.015305022 -0.087498523 1.6470001 -0.3697523475 0.8218504786 0.4334108829
0.19765238 -0.35513151 1.8330001 -0.6906374693 -0.3169458508 0.6500501633
-0.10486949 -0.26596868 1.7336668 0.06392466277 -0.8303043246 0.553632021
0.21034038 -0.12177601 1.8040001 -0.1855197698 0.8560582399 0.4824382663
0.12412548 -0.10726894 1.748 -0.1381059587 0.8611907959 0.4891596437
0.1124851 -0.25871572 1.8330001 -0.2638047338 -0.7479324341 0.6091010571
0.043623809 -0.16964816 1.8430001 -0.1913795918 0.8923224211 0.4088209271
0.22474869 0.0089335255 1.6090001 -0.2459103763 0.738004148 0.6283931136
-0.10233506 0.065122306 1.5160002 0.7945321202 -0.0009105532081 0.6072214246
0.15146783 0.04423397 1.529 -0.4468388259 0.4151602089 0.7924500704
0.21395314 -0.1584233 1.863 -0.1019050106 0.8702668548 0.4819242954
0.026706332 -0.35453627 1.7659999 -0.517693758 -0.170597896 0.8383851051
-0.055823628 -0.26510748 1.748 -0.5234441757 -0.5635865927 0.6390432715
0.22410493 -0.42595828 1.8130001 -0.1332249343 -0.1675163954 0.9768261909
-0.00476819 -0.17006545 1.8130001 -0.2820355594 0.861350894 0.4225288033
-0.028682778 -0.34570298 1.7220001 -0.5517829657 -0.4614059925 0.6947230101
-0.057283152 -0.17184946 1.766 -0.3821157515 0.8270815611 0.4122179449
0.10364698 -0.1631034 1.8330001 -0.09505482763 0.8398871422 0.5343727469
0.11544999 -0.36374652 1.804 -0.1774847806 -0.501922965 0.8465060592
0.18465546 -0.11490364 1.7760003 -0.1996080875 0.8615395427 0.466804266
-0.15599494 -0.10059487 1.6630001 0.5224559903 -0.2376998365 0.8188641667
0.0052204402 0.015651457 1.4878752 -0.3415483236 0.3404196799 0.876047492
0.276555 -0.10648958 1.8130001 -0.3598569632 0.8609260321 0.3595960736
0.27770433 -0.0062567703 1.647 -0.2959184349 0.7028126121 0.6469054818
0.13509873 -0.31628993 1.813 -0.1746283919 -0.2073638141 0.962551415
-0.10481485 -0.46520913 1.6378335 -0.147315219 -0.2117254585 0.9661628008
0.25300598 -0.10198088 1.7760001 -0.1240315959 0.8510277271 0.5102626681
0.22620235 -0.30459741 1.863 -0.4337754548 -0.311499387 0.8454625607
0.24489345 -0.39538404 1.8430002 -0.5839521289 -0.3705074489 0.7223047614
-0.019818803 -0.31862536 1.7390001 -0.6295811534 -0.30169788 0.7159650922
0.19136231 -0.3748171 1.8040003 -0.4511401653 -0.2818333507 0.846783638
0.48278618 -0.27467251 3.2080002 -0.3196714222 0.8697292209 0.3760069609
0.08020974 -0.34600282 1.794 -0.3034929037 -0.5403828025 0.7847792506
0.2155285 -0.02155285 1.6390001 -0.167588532 0.8185444474 0.5494534373
-0.07132297 -0.24280161 1.7310001 -0.1709627807 -0.7234741449 0.6688473821
-0.12325232 -0.10058523 1.6160001 0.04982110485 0.8350343108 0.547937572
-0.10512841 -0.29146975 1.705 -0.2315353155 -0.7250672579 0.6485899091
-0.13762264 -0.29744247 1.6880001 -0.09509329498 -0.5290678144 0.843234539
-0.13604464 -0.16726801 1.6960001 0.0798215121 0.8739657998 0.4793874323
0.19229595 -0.30585232 1.8330001 -0.6403166056 -0.3936198354 0.6595892906
0.089196451 -0.12988254 1.7850001 -0.1579099894 0.8930603862 0.4213165343
0.44298142 -0.27024654 3.1780002 -0.3196714222 0.8697292209 0.3760069609
0.23472136 -0.030615829 1.6630001 -0.09672005475 0.8200368881 0.5640786886
0.017357124 -0.017357124 1.5230001 -0.3927858472 0.7235693336 0.56759727
-0.16267602 0.25722277 1.5860001 0.2932730615 -0.156270951 0.9431703687
-0.015800649 -0.036179058 1.5159999 -0.4439727962 0.6880059242 0.5740522742
-0.12561668 -0.14005539 1.647 0.03625725582 0.8623678088 0.5049823523
-0.13180684 0.10463016 1.5500001 0.3533898592 -0.1633494794 0.9211040139
0.012565789 -0.37482831 1.7479999 -0.7495707273 -0.2724186778 0.6032675505
0.26050061 -0.49543065 1.8230001 -0.6867123842 -0.1423647553 0.7128522992
0.094974555 -0.4172653 1.7760001 -0.1943628192 -0.1256658137 0.9728469849
0.10693843 -0.068850771 1.6710001 -0.1934580207 0.8541997671 0.4826145172
0.03617302 -0.30554047 1.7940001 -0.5109196305 -0.3777316213 0.7721916437
-0.25293148 -0.36475381 3.0370002 -0.3519258201 0.7851737142 0.5095590949
-0.13626537 0.21412486 1.5735556 -0.9682103992 -0.2201629579 0.1187305748
0.035047673 -0.46474198 1.7381114 -0.4525636733 -0.06046842411 0.8896795511
0.16985416 0.082888834 1.5500001 -0.3997931182 -0.08768645674 0.9124014974
0.15492015 -0.12049345 1.7850002 -0.1105918288 0.874879837 0.471544981
-0.095675893 -0.11209732 1.605 -0.1331906766 0.8623726964 0.4884399474
0.064522266 0.0052226218 1.5246364 -0.3850197494 0.7160145044 0.582308352
0.035648774 -0.035648771 1.5640001 -0.3484537899 0.791903019 0.5014674067
0.014233559 -0.25462258 1.804 -0.1121046767 -0.4908755124 0.8639871478
0.087416813 -0.26860803 1.8130001 0.06636287272 -0.6053337455 0.7932004929
0.12575871 -0.24139139 1.8630002 -0.2166076303 -0.646273911 0.7317179441
0.03508858 -0.057545274 1.6010002 -0.3010071814 0.8465592265 0.4390127063
0.043755013 -0.27781799 1.8040003 -0.3313472569 -0.2146080285 0.9187776446
-0.012455679 -0.15725295 1.7760001 -0.3148836195 0.8399654031 0.4419348538
-0.12129179 0.064929433 1.5430001 0.65828228 -0.0411831364 0.7516437769
0.13809955 -0.029897841 1.6240001 -0.2932201326 0.7919884324 0.5355150104
0.18535452 -0.022989707 1.6390001 -0.2993078828 0.7616469264 0.5747249722
0.2253045 0.055288445 1.5766668 -0.5878938437 0.1335405558 0.7978394032
-0.10467698 -0.3845931 1.6630001 -0.2028359622 -0.2301240861 0.9517880678
-0.034640845 -0.0062674494 1.4835454 -0.04905232042 0.4272614419 0.9027965069
-0.16538982 0.35227728 1.6348002 -0.0341360122 -0.5421016216 0.8396193385
-0.063151777 -0.33369547 1.705 -0.5965877771 -0.3982696235 0.696752727
-0.11144839 0.016138179 1.5159999 -0.05467279255 -0.4203864634 0.9056964517
0.056991223 -0.45592979 1.7570001 -0.5317177176 -0.2122886926 0.8198840022
-0.17188101 -0.27539784 1.7220001 -0.07039496303 -0.6303046942 0.7731497884
-0.0452886 -0.14794275 1.7220001 -0.414725095 0.8560546637 0.3085020781
-0.10204951 -0.083637513 1.5640001 0.01320258528 0.8326579332 0.5536302924
0.074587092 -0.11264407 1.7363334 -0.1708454192 0.9065864086 0.385892421
-0.15798235 0.30468026 1.6090001 0.06096002832 -0.2189863324 0.9738217592
0.06560535 -0.077268526 1.6630001 -0.2991357744 0.8631896377 0.4067203999
0.034197014 -0.10407786 1.6960001 -0.3119968176 0.86578089 0.3912562728
0.16325374 -0.36306363 1.813 -0.09926339239 -0.3987327218 0.9116792083
-0.16846465 -0.13477172 1.6710001 0.717487812 0.4531541169 0.5290203691
0.19982915 0.01257666 1.5940001 -0.2260462642 0.7608311772 0.6083083153
-0.15307915 -0.33968988 1.6630001 0.03358511254 -0.5167108774 0.8555009961
-0.069834389 -0.01844682 1.503 0.726377666 0.2099379152 0.6544475555
0.24498449 -0.33481213 1.8630003 -0.2041831464 -0.2258704305 0.9525186419
-0.14332184 0.1637964 1.557 -0.3919328749 -0.4355792701 0.8103451729
0.062328368 -0.25730428 1.8230001 -0.4292015731 -0.6869415045 0.586427629
0.1917796 -0.14223653 1.8230001 -0.2010027021 0.84178406 0.5009964705
-0.10992172 -0.26164466 1.766 0.1332621723 -0.9002583027 0.4144589007
0.064442016 -0.020566599 1.5640001 -0.3877704144 0.7791444063 0.4925119877
-0.1642147 -0.22503333 1.734429 0.8453753591 -0.1531997919 0.5117326975
0.17287955 -0.26982135 1.8430001 -0.3520628214 -0.4546759427 0.8181207776
-0.014595748 -0.056637675 1.554 -0.433860302 0.7908911109 0.4315744638
0.045125831 -0.11509261 1.7350001 -0.2615437806 0.8854724765 0.3841006756
0.13753147 -0.4961513 1.7760001 -0.1504483819 -0.02978144586 0.9881691933
0.1084349 0.1769201 2.1700001 -0.8754039407 0.2354249507 -0.4221883714
-0.0069870334 -0.071267739 1.5940002 -0.4218322933 0.8298553824 0.3652362823
0.30044857 0.052190598 1.6090001 -0.5134822726 0.09705433249 0.8525938988
0.044439986 -0.40608954 1.748 -0.3638557494 -0.4774954915 0.7997543812
-0.15648413 -0.18155459 1.733 0.3965438306 0.5771480799 0.7138999104
0.14386784 0.01719862 1.557 -0.3168695569 0.7844271064 0.5331676602
0.17465615 -0.095051579 1.7367145 -0.2233218402 0.8493159413 0.4783197939
0.27290985 -0.42398492 1.853 -0.5398178697 -0.08719913661 0.8372532129
0.043076769 0.063962474 1.4890001 -0.1888610125 -0.1411656439 0.9718043804
0.12107205 -0.085198849 1.705 -0.1967086196 0.8967342377 0.396451056
-0.039363209 -0.12100542 1.6630001 -0.3596208394 0.860183239 0.3616042137
-0.064994313 -0.38406149 1.6849999 -0.5269135833 -0.3355265856 0.7808866501
0.1666609 -0.078472622 1.705 -0.2543081343 0.8515840769 0.4584014714
0.14648223 0.15789643 2.1700001 -0.8754039407 0.2354249507 -0.4221883714
-0.34113553 -0.48081309 3.0640001 -0.3343758285 0.7888426185 0.5156744123
0.055935718 -0.15662001 1.8230001 -0.2066655755 0.8795900941 0.4284980297
0.32447755 -0.002197365 1.6710001 -0.5178590417 0.6263198853 0.5827052593
-0.064927027 -0.49438849 1.655 -0.3489545286 -0.339148432 0.8736183643
0.23489626 -0.09164805 1.7570001 -0.1141015887 0.8710511923 0.4777558148
-0.095735215 -0.41452861 1.6630001 -0.1871226132 -0.1668878198 0.9680566192
0.0033211641 -0.42480701 1.7220001 -0.5799868703 -0.3015016019 0.7567774057
-0.042907573 -0.15477374 1.748 -0.3411825299 0.8572226167 0.3856991529
-0.095156901 -0.15686022 1.6960001 -0.2698534727 0.8665344119 0.4198776186
0.18621714 -0.46476045 1.7850001 -0.5038293004 -0.3013024032 0.8095510602
0.2339911 -0.07095214 1.7220001 -0.0998987779 0.8314083219 0.54660815
0.17544292 0.0014035433 1.6010001 -0.3760811985 0.7225641012 0.5800551772
0.04475997 -0.07845027 1.647 -0.271294415 0.8687551618 0.4143232405
0.21350339 -0.46790004 1.804 -0.4207896888 -0.2722676992 0.8653359413
-0.041456398 -0.087105013 1.5940002 -0.3619289994 0.8227641582 0.4382539093
0.2047455 0.054598793 1.5569998 -0.4154770672 0.1155189425 0.9022384286
0.11119523 0.037655756 1.5160002 -0.3537333608 0.4266242087 0.8323848248
-0.01358971 0.044868674 1.4864285 -0.1144756228 -0.2977437079 0.9477573633
-0.0046708798 -0.28492367 1.7760001 -0.6304541826 -0.3336191177 0.7008750439
-0.15476906 -0.31542701 1.6813335 0.2183997333 -0.369826138 0.903067112
0.11602595 -0.1462245 1.8130001 -0.124620527 0.8177215457 0.5619618893
0.11532024 -0.041287493 1.6240001 -0.2856732309 0.8166643381 0.5014480352
0.14433177 -0.05685797 1.6630001 -0.1650527865 0.7899683714 0.5905146599
-0.12850443 -0.46492612 1.6470001 0.4562700391 -0.237980485 0.8574280739
0.1459913 0.0013903934 1.5860001 -0.2248983234 0.7676733732 0.6000819802
-0.047205873 -0.28627548 1.737 -0.5547980666 -0.4781781435 0.6808412671
0.13489665 0.064110197 1.5235001 -0.2613387406 -0.2446319014 0.9337329865
0.10587328 -0.45463231 1.7760001 -0.2358685136 -0.1574946195 0.9589377046
0.094528511 0.013196288 1.536 -0.3770586252 0.7408953309 0.555788517
0.16358547 -0.15651497 1.8329999 -0.1678395569 0.8144959807 0.5553613305
0.16447692 -0.24570008 1.8529999 -0.3157019615 -0.6496341825 0.6915979385
0.19977042 -0.42990592 1.8230001 -0.360817641 -0.03272353113 0.9320620894
0.17961498 0.031535454 1.5640001 -0.2394512147 0.6639298797 0.7084209323
0.024911359 -0.32540464 1.7760004 -0.3653055429 -0.4251804054 0.8281143904
-0.0045525301 -0.38393006 1.7310001 -0.6702953577 -0.1658649892 0.7233207822
-0.052368559 -0.078552842 1.572 -0.3264403939 0.8055461049 0.4945019484
0.29662192 -0.043861389 1.6960001 -0.1589416414 0.8073574901 0.5682529807
-0.10186253 -0.03439514 1.5090001 -0.1315813065 0.1524435282 0.979513824
-0.087925285 0.017585056 1.5430001 -0.5840229392 -0.3895715177 0.7121455669
-0.03441092 -0.10466961 1.6355001 -0.3576614559 0.8558579683 0.3736113012
0.01171928 -0.10107879 1.6710001 -0.3379043937 0.8643637896 0.3724188805
-0.039363209 -0.46798483 1.6630001 -0.5390235782 -0.165209204 0.8259295225
0.20090921 -0.2224945 1.8940001 -0.4969033301 -0.5600936413 0.6628591418
-0.046900786 0.023446448 1.4860001 0.3127785623 -0.03734102845 0.9490917921
0.15017475 -0.47684354 1.766 -0.2885014117 0.01202013623 0.9574040174
0.23253277 -0.40513438 1.8230001 -0.5236424208 -0.3024868667 0.7964297533
-0.32353821 -0.089755766 2.381 -0.2771021426 0.8593859076 0.4297327399
0.079219982 -0.097156584 1.705 -0.2359449565 0.8708915114 0.4311356544
0.13508089 -0.37553534 1.794 -0.1992271096 -0.4563844502 0.8671919107
-0.14416344 -0.26657593 1.7310001 -0.2666586339 -0.5204415917 0.8111928105
0.012322427 -0.33732644 1.7570001 -0.4734255373 -0.5184882879 0.7120661139
-0.10145225 -0.071692921 1.5430001 -0.06811152399 0.8237800002 0.5628030896
-0.13638304 -0.43671584 1.6550001 0.4314689338 0.1598528028 0.8878522515
-0.17067735 0.35546029 1.6090001 0.0001054192326 -0.4944617748 0.8691993952
-0.1819618 0.30750138 1.6090001 0.03403142095 -0.1745817661 0.9840543866
-0.025434602 -0.25722128 1.7659999 -0.3485161662 -0.6203910708 0.7026032805
0.054753095 -0.093228243 1.6880001 -0.220912993 0.8678469658 0.4450158179
-0.08308132 -0.37313351 1.6710002 -0.5109674335 -0.3394327462 0.7897453308
-0.088633627 0.0013228899 1.5090001 -0.308458358 -0.3142870069 0.8978179693
-0.084323063 -0.16627386 1.7220001 -0.3422530293 0.8671376705 0.3618496656
0.055341877 0.016750468 1.5057695 -0.3460339904 0.6462045312 0.6802060008
0.14553106 -0.41468525 1.7850001 -0.2825052142 -0.287240833 0.9152505398
0.15634209 0.073723286 1.5290002 -0.4036738575 -0.2497163415 0.8801642656
0.16543472 -0.02363353 1.6240002 -0.3299134672 0.7656322122 0.5522358418
0.055230878 -0.42534378 1.7570001 -0.4806180298 -0.02959210239 0.8764306307
-0.090375565 -0.098717928 1.5860001 -0.05386384204 0.8432295918 0.5348481536
0.26432341 -0.38592607 1.8529999 -0.3769192398 -0.4322599471 0.819196701
0.49591631 -0.2563163 3.1780002 -0.3196714222 0.8697292209 0.3760069609
0.012057673 -0.16304071 1.794 -0.3203399777 0.8304595947 0.4557622075
-0.14952251 0.27528912 1.5940001 0.1415132433 -0.2146045119 0.9663947821
-0.17532018 -0.24544826 1.7390001 0.6841130853 -0.2836087942 0.6719786525
0.003809555 -0.13324325 1.7370002 -0.3620792925 0.8422553539 0.3993801773
0.22522812 -0.3557764 1.8430001 -0.4074030221 -0.4412697554 0.7995647192
-0.16129965 -0.15242077 1.6880001 0.5028825402 0.7339118123 0.4565989971
-0.06557554 -0.30585232 1.7130002 -0.4439524114 -0.4225477874 0.7901642919
0.21546537 -0.49541309 1.794 -0.3309611976 -0.1713930517 0.9279488921
0.20671295 -0.3131153 1.8529999 -0.528475225 -0.227427125 0.8179185987
0.26493219 -0.087797292 1.7570001 -0.204578951 0.87232548 0.4440672398
0.18223709 -0.042279001 1.6630001 -0.405689925 0.7738287449 0.4864203334
0.093774401 -0.30516416 1.8129998 -0.1549602747 -0.1850818247 0.9704287648
0.13594627 -0.27446365 1.8329999 -0.2213944495 -0.4862877727 0.8452861905
0.2071708 -0.25751907 1.8830001 -0.2805688083 -0.8083644509 0.5175210238
-0.010463017 -0.44243613 1.705 -0.6782282591 -0.2914652824 0.6745772362
-0.26482347 -0.10772479 2.5600002 -0.2964608669 0.8517057896 0.432097435
0.22551489 -0.047168177 1.6813335 -0.0738388747 0.8239831924 0.5617824793
-0.1157279 -0.34425387 1.6710002 -0.2099457234 -0.496481657 0.8422759175
0.26119533 0.055814359 1.5860002 -0.5120549798 0.1116701439 0.851662755
0.19211361 -0.16255766 1.8730001 -0.1107352749 0.8893126845 0.4436897933
-0.11572701 -0.12467603 1.6240003 -0.02347412147 0.8153530955 0.5784879327
-0.15453705 -0.36447418 1.6630001 0.1947803795 -0.06878315657 0.9784321785
-0.0044841501 -0.46485689 1.705 -0.6892381907 -0.06408815831 0.7216948271
0.084260292 0.070970029 1.516 -0.3650430143 -0.3720588088 0.8534142375
0.25411248 0.39428046 1.8529999 -0.9439408779 0.1622207612 -0.2875066102
0.18945731 -0.097039111 1.7570001 -0.2508633435 0.8250360489 0.5063428283
-0.17544554 -0.31461251 1.6960001 0.3671735823 -0.2967357039 0.8815506101
-0.11501788 -0.15538508 1.6844445 -0.1415807307 0.8778263927 0.4575758874
0.25730428 -0.11986225 1.8230001 -0.2692634165 0.8596280813 0.4342082739
-0.0047123334 -0.092462413 1.6370001 -0.4156606495 0.8013707399 0.4301525354
-0.17405428 -0.22334398 1.7570001 0.9002588987 -0.118485719 0.4189213216
-0.067063242 -0.41550052 1.6630001 -0.5400003791 -0.1963421702 0.8184432387
-0.047365423 -0.44582093 1.6710001 -0.540094316 -0.367587626 0.7570848465
0.28103215 -0.4694699 1.853 -0.7838098407 0.04268134758 0.6195324063
-0.094307423 -0.45412648 1.6550001 -0.3315786123 -0.2239541709 0.9164606929
-0.10506675 -0.30928099 1.6880001 -0.2430311739 -0.4535065889 0.8574774861
-0.016812932 0.0051686075 1.4752501 -0.2467043996 0.4630787969 0.8512901664
-0.022681121 -0.49397716 1.6800001 -0.7081563473 -0.1113568097 0.6972189546
0.24558443 -0.47358906 1.8230001 -0.5344865322 -0.01732786559 0.844999373
-0.06807141 -0.34775612 1.6880001 -0.4108344913 -0.3266526163 0.8511833549
0.076168478 -0.15780053 1.8329999 -0.01800340042 0.8741083741 0.4853971601
0.116772 -0.11988592 1.7760001 -0.1391378194 0.8799660206 0.4542031586
0.19477428 -0.057986241 1.6960001 -0.2867415547 0.8022970557 0.5235443711
-0.14280836 -0.38406953 1.655 0.1930643618 -0.1741944849 0.9655995369
0.10393672 -0.014159481 1.5755 -0.3116331697 0.7932594419 0.5230910182
0.26820564 -0.44350871 1.8430001 -0.7166870832 -0.2432485968 0.6535975337
0.13584387 -0.29526067 1.8230001 -0.3877453208 -0.4062887728 0.8273953199
0.27524528 -0.042914588 1.6880001 -0.2056747675 0.8074712157 0.5528906584
0.17228201 -0.30588844 1.8230002 -0.1796368659 -0.4515964687 0.8739514947
0.078957863 -0.46600619 1.7660002 -0.375272125 -0.1770859212 0.9098414183
-0.26508558 -0.095787227 2.5410001 -0.2787376344 0.8606199622 0.4261907935
0.024918372 0.022295386 1.4959999 -0.2697461545 0.4007715285 0.8755679131
-0.074267469 -0.10595065 1.6060001 -0.256314218 0.8713774085 0.4183352888
0.085810058 -0.25743017 1.8329999 0.01073684916 -0.684478879 0.7289535999
0.035810079 -0.13856944 1.7760001 -0.2696169317 0.8477960229 0.4566712081
0.18405214 -0.35507122 1.8130001 -0.4230526388 -0.3664953113 0.8286782503
0.11929768 0.081765823 1.529 -0.196288541 -0.4485625327 0.8719303012
0.26295003 -0.31684661 1.863 -0.01321852487 -0.3662074506 0.930439353
0.187782 -0.49605748 1.785 -0.5433827043 -0.06194132194 0.8371968269
-0.087127507 -0.060319051 1.5289999 -0.1338495314 0.7653974891 0.6294847131
0.17772663 -0.2924411 1.8430001 -0.3451223671 -0.4645450711 0.8155295253
0.31108955 -0.06221791 1.7310001 -0.2214379162 0.8403728008 0.4947108328
-0.074710406 -0.13818984 1.6710001 -0.3589585721 0.8324325085 0.4221432209
0.31427535 -0.034017295 1.687 -0.3247224391 0.6939102411 0.6426849365
0.17213351 -0.43815798 1.7850001 -0.5094641447 -0.2795153558 0.8138288856
0.0053910618 -0.14247806 1.7570001 -0.3495120704 0.8354336023 0.424136728
0.068516754 0.034258381 1.5030001 -0.4525880218 0.3118637204 0.8354071379
0.25366732 -0.30429068 1.883 -0.3439848721 -0.554707408 0.7576107979
0.19977042 -0.38196105 1.8230001 -0.454720974 -0.369489789 0.8103740811
0.11618024 0.012908917 1.5500001 -0.3241538405 0.7444102168 0.583761692
-0.023591101 -0.2448232 1.794 -0.4734067321 -0.7922491431 0.3850030303
-0.11135639 -0.49499714 1.6390001 -0.000318235805 0.1633319855 0.9865711331
-0.15234275 -0.13783392 1.6550001 0.4236650467 0.7543900609 0.5014016032
-0.073545903 -0.11796573 1.6343335 -0.3043800294 0.8480267525 0.4338242114
0.25970811 -0.018861484 1.6550001 -0.2238213122 0.771026969 0.5961723328
-0.053519621 -0.022191063 1.489 0.3119522333 0.5092684627 0.8020794392
0.1353121 -0.11425667 1.766 -0.1323622465 0.8919026256 0.4324233234
-0.08386106 -0.47385851 1.6550001 -0.5586947203 -0.2021471858 0.804361105
0.25429294 -0.063573234 1.7130002 -0.1032387987 0.8276208043 0.5517114997
