# .PCD v0.7 - Point Cloud Data file format
VERSION 0.7
FIELDS x y z normal_x normal_y normal_z
SIZE 4 4 4 4 4 4
TYPE F F F F F F
COUNT 1 1 1 1 1 1
WIDTH 512
HEIGHT 1
VIEWPOINT 0 0 0 1 0 0 0
POINTS 512
DATA ascii
0.19971782 0.0012404834 1.4150001 0.342920661 -0.3176158965 0.8840393424
-0.49270421 -0.27487707 2.9580002 -0.1317341328 0.8418607712 0.5233703852
0.49400169 0.094504662 2.45 0.06379894912 0.7951173782 0.6030904055
-0.30231848 0.29132509 2.0900002 0.3620177805 0.9280787706 0.08725237846
0.052342258 -0.49471879 1.9260001 0.8182369471 0.3730574548 0.4373973906
0.30657151 0.41562414 1.9039999 0.1132092103 0.9836127162 -0.1403198391
0.49829733 -0.40433267 1.6240001 0.3326230049 -0.1413647383 0.9324043989
-0.24757768 -0.092086822 1.7220001 -0.1072885543 0.7156003118 0.6902212501
0.19974236 -0.057776716 1.8830001 0.06859044731 0.6778578162 0.7319864035
-0.051793467 0.45134306 1.6880001 0.6635357738 -0.1096457317 0.7400662303
-0.43746981 0.047686283 2.365 0.03303559124 0.8349799514 0.5492878556
-0.093829639 0.14476572 1.5290002 0.5960714221 -0.1949454099 0.778906405
0.20617972 0.27362168 2.1980002 0.0521398969 0.8012946248 0.5959935784
-0.48164067 -0.096328132 2.6800001 -0.1769928038 0.8356520534 0.5199607611
-0.075249314 -0.20502353 1.9700001 -0.2333751172 0.8165306449 0.5280281901
0.40942436 -0.10908539 1.6160001 -0.5396314859 0.7493100166 0.3838389516
0.22410494 -0.32472345 1.7390002 0.5044127107 -0.1852977425 0.8433460593
-0.058758583 0.24678604 1.9150001 0.4515974224 -0.2480427325 0.857049942
0.25825721 0.11461978 1.6550001 -0.7112902403 0.261072278 0.6526158452
-0.16703303 -0.34479299 1.748 0.5547961593 -0.5615007281 -0.6139366031
-0.003951137 0.0027343233 1.7342001 -0.2443334162 0.8770518303 0.4136196673
-0.25898135 -0.26944524 2.9840002 0.1956710964 0.8598855138 0.4714973569
-0.28516194 0.26817638 1.8630002 0.1167949066 -0.03570033982 0.9925141931
0.37556398 -0.48823321 1.7850001 -0.7076929808 -0.09774818271 0.6997256279
0.1185867 0.18842109 1.503 -0.4095341265 -0.2068844438 0.8885272145
0.14535747 0.28581524 1.863 -0.2095092237 0.4940323234 -0.8438234329
0.37342319 0.18370551 2.286 0.06379894912 0.7951173782 0.6030904055
0.10399809 -0.24596375 1.8830003 0.6430805326 -0.05828092247 0.7635775805
0.044584345 0.32308379 2.0900002 -0.3193847239 0.9413173795 0.1091558188
-0.24060643 0.072609037 1.6240001 0.6080012321 -0.03663571551 0.7930904031
0.34215072 -0.012385546 1.766 0.8800427318 0.1137156412 0.4610786438
0.16587612 -0.4957121 1.7760004 0.007179141976 0.1645391285 0.9863444567
-0.034297831 -0.35604414 1.863 0.8462035656 -0.06385119259 -0.5290203691
0.36818686 -0.29021788 1.6470001 0.1966021359 0.1528901458 0.9684896469
-0.13827226 0.23414101 2.1030002 0.3180480003 0.9404384494 0.1200874075
-0.10707694 -0.11187144 1.8230001 -0.666541636 0.4958457947 0.5566499829
0.29658961 -0.17494583 1.7659999 0.7031850815 -0.07556957752 0.7069795132
0.0031297 0.33174819 1.7850001 -0.3395544291 0.8107479215 0.4768548608
0.085422397 0.083998695 1.6240001 0.01239989139 0.8943924904 0.4471110702
0.28384212 -0.092841998 1.5159999 -0.09357479215 0.8543448448 0.511212945
-0.24326478 -0.23842849 1.6550001 -0.5696111321 0.3660780787 -0.7358872294
0.043512911 -0.091130815 1.8730001 -0.1928549409 0.8433572054 0.5015531778
0.15477373 0.012259305 1.748 -0.1675582677 0.7728008628 0.6121299863
-0.43905833 -0.21346483 2.7670002 -0.1317341328 0.8418607712 0.5233703852
0.25321814 0.35159066 2.0780001 -0.3629709482 0.9048922062 0.2223109007
-0.33109158 0.14015533 2.3170002 -0.1055282056 0.9041343927 0.414010644
-0.095957831 0.037301116 1.6240002 -0.1419410557 0.8931199312 0.4268366098
0.1045823 -0.37477976 1.8129998 0.5878053308 -0.4399078488 0.6789447665
0.16845764 0.343862 1.9810001 -0.5411126614 0.8196316957 -0.1881513745
0.4112452 -0.37634248 1.7310001 0.6252346635 0.4673449993 0.62503618
-0.13505839 -0.028832689 1.7310001 -0.1351266056 0.703821063 0.6974071264
0.41841635 -0.49422696 1.6630001 0.811031878 -0.1076853871 0.5750053525
0.22135045 -0.25043297 1.8430001 0.6954257488 -0.1964072138 0.6912360191
0.27288967 -0.44058725 1.7390001 -0.1538616568 0.7122071981 0.6848996282
0.04455746 -0.16337736 1.97 0.3392822444 -0.06700953096 0.9382948875
0.48093933 -0.2870838 1.6880001 0.1874808818 -0.3576304913 0.9148504734
-0.16666266 0.27175045 1.8730001 -0.3454520404 0.05063395947 0.937069416
0.024127619 0.11929768 1.529 -0.0845893696 0.8328217864 0.5470398068
0.42186779 -0.092568107 1.7310001 -0.225715369 -0.08050826192 0.9708609581
-0.046855204 0.41846544 1.8430001 0.8486569524 0.3503190279 0.3963054121
-0.37408417 -0.27990913 2.9840002 0.8159448504 0.4386900365 0.3765435815
0.24421097 0.33734688 1.853 -0.1792204678 -0.05162843317 -0.9824533463
0.41582754 -0.19533537 1.6879998 0.2434625626 0.07377075404 0.9671007395
0.00168846 -0.27184206 1.9260001 0.165022999 -0.2706161737 0.9484378099
0.045588419 0.28197283 1.9260001 0.008051177487 0.9991379976 -0.04072352499
-0.30339679 -0.0073639997 1.6800001 0.5173051953 0.450842768 0.727417469
0.15473013 -0.15473014 1.8529999 0.3875091076 -0.3221967518 0.8637279272
-0.49626523 -0.21805593 2.8590002 -0.1317341328 0.8418607712 0.5233703852
-0.29367369 0.31771713 1.9590001 0.7918054461 -0.525452137 0.3113586009
0.16406141 0.10528667 1.554 0.1303760111 0.7752494216 0.6180537343
-0.21138975 -0.13509871 1.8130001 0.1717624962 0.8396467566 0.5152581334
0.26605958 0.025410181 1.705 -0.3146797121 0.678204596 0.6640897393
0.29146975 -0.25559655 1.705 0.658559382 0.06452304125 0.7497575283
-0.043170571 -0.14777619 1.8940001 -0.4379561841 0.6391583681 0.6321952939
0.073918782 -0.025163839 1.794 -0.07607853413 0.7931576371 0.6042458415
0.26727462 -0.086982869 1.8040001 0.7538157701 -0.1661724299 0.6357267499
-0.1976103 -0.012477597 1.6550001 -0.2772623003 0.7518123984 0.5982505679
0.088381149 -0.4708305 1.8330001 0.8797774911 0.3962551057 0.2626279294
-0.14691794 -0.17993321 1.8830001 -0.3111739755 0.7372812629 0.599655807
0.31405079 -0.35601237 1.6960001 0.2158286422 0.3066101372 0.9270427227
-0.16281891 0.075753644 1.5640001 0.2412324846 0.3893071711 0.8889582753
-0.023722598 -0.064841777 1.804 -0.2304111123 0.7214438915 0.6530156136
0.054793421 -0.39019558 1.8940001 0.474781543 -0.0950082615 0.8749605417
-0.0057754801 0.062086411 1.6470001 -0.165250957 0.7837077379 0.5987439156
-0.14620462 -0.26812443 1.6960001 0.7764319777 0.2706277966 -0.5691344142
0.12050309 -0.12050309 1.9360001 0.4535965323 0.1050394773 0.8849954009
0.17713489 -0.40509978 1.7570001 0.5464391708 0.08531725407 0.8331417441
-0.088597685 -0.32765415 1.794 0.5642002821 -0.5131496787 -0.6468040347
0.074735835 0.040357351 1.705 -0.1061070934 0.8339402676 0.5415579081
0.19646436 0.072223455 1.4711667 0.3633268178 -0.5198825002 0.7731208205
0.16685158 0.059486218 1.6550001 0.2205893844 0.9327067137 0.2853042483
0.37165055 -0.084833279 1.536 -0.4887879789 0.5623115897 0.6670022607
-0.016969636 0.18797135 1.4890001 0.2428794056 -0.3600216806 0.9007741213
-0.324375 0.35243797 1.8830001 0.5609004498 0.1668817997 0.8108891249
0.25620407 -0.49817461 1.8040001 -0.2654766142 0.6681626439 0.6950401664
-0.045246523 0.078153081 1.5640001 -0.1628259867 0.8577245474 0.4876436591
0.17622752 0.26897886 2.1160002 -0.2452324182 0.9518787265 0.1838148683
0.15587221 -0.30692363 1.8330001 0.5498529077 -0.7720985413 0.3186308146
0.0016244634 0.26478752 1.853 -0.162247628 0.7203004956 0.6744204164
0.26667672 -0.038824063 1.452 -0.2239578664 0.6658331752 0.7116945386
-0.39335594 0.08270561 2.3010001 -0.09977252036 0.8829260468 0.4587886333
0.34693205 0.01181396 1.684 0.8605136275 0.5043334365 0.07186150551
-0.035098661 0.3762728 1.7220001 -0.210357517 0.6120480895 0.7623298764
0.35832521 -0.13530123 1.6960001 0.7689273953 -0.02995921113 0.6386337876
0.21034038 -0.01423356 1.8040001 -0.06734588742 0.9135325551 0.4011518061
-0.22153717 -0.31074676 1.6960001 0.149479419 -0.6311997175 -0.7610800266
0.22648902 -0.16370785 1.8130001 0.6153227687 -0.005117219407 0.7882586718
0.12345921 -0.060105141 1.853 -0.1938997358 0.8926098347 0.4070019126
-0.15342368 -0.36917573 1.8230001 0.1684113443 -0.8109189272 -0.5604000092
0.49145234 -0.48429871 1.6320001 0.4109588563 -0.3881344199 0.8249027133
0.23842177 -0.23842177 1.766 0.7295923829 -0.6698247194 0.1379484236
0.34605482 -0.41639534 1.7570001 -0.03430373967 0.5688255429 0.821742475
-0.17361419 -0.094838679 1.7570001 -0.443618983 0.5902468562 0.6743966937
0.31297001 0.38450599 2.0400002 -0.303417325 0.9296374321 0.2090744674
0.24144977 0.3799035 1.9260001 -0.769269824 0.6227735877 -0.142748028
0.064755857 -0.31381688 1.8940002 0.2034743577 -0.1514841914 0.9672904015
0.0045288601 0.49062648 1.7220001 -0.6753252745 0.3704101741 0.6377554536
0.44757429 -0.35135311 1.6630001 0.6428402066 -0.2841231525 0.7113582492
-0.069880851 -0.0014868267 1.6960001 -0.2329408228 0.7542559505 0.6138701439
-0.03243053 -0.33625337 1.9470001 0.8383465409 0.0476613678 0.5430501103
0.31400096 0.081519477 1.7220001 -0.5819581151 -0.5430804491 0.6053002477
0.34425384 -0.21534178 1.6710002 0.1607435495 -0.5949419141 0.7875313759
0.30338013 -0.10671663 1.7390001 0.5335264802 0.06244605035 0.8434749246
0.43639705 -0.42424795 1.6630001 0.7683488727 -0.06986733526 0.6362063885
0.41312039 -0.42407435 1.7850001 0.6447905898 0.5331411958 0.5477276444
0.095840268 0.11862747 1.529 0.03438469768 0.8945112228 0.4457211792
-0.064692743 0.46517161 1.7570001 0.9554656744 -0.1493929476 0.2544938624
-0.0016972267 -0.40224272 1.9360001 0.6972714067 0.5482730269 0.4617459178
0.19350575 0.33252931 2.1430001 -0.06053545699 0.9168581963 0.3945966661
0.09485314 -0.18383041 1.9150001 0.6541852355 -0.5137576461 0.5550628304
0.116772 -0.44061968 1.7760001 0.4842431247 0.116624251 0.8671259284
0.048525251 0.21115042 1.4960001 0.1290126741 -0.7234372497 0.6782287359
0.41413906 -0.4533892 1.7220001 0.9650090933 -0.1186938509 0.2338144183
0.39199796 -0.027676366 1.7220001 -0.5852617025 -0.5383296013 0.6063579917
-0.064179309 -0.036453847 1.7570001 -0.2546514869 0.7395845056 0.6230307817
0.18264472 0.33374172 1.8940001 -0.5406323075 0.5352445841 -0.6490222812
-0.15021507 0.14194636 1.572 0.4907964766 -0.3796457052 0.7842116952
0.41582754 -0.26488659 1.688 -0.1695294976 -0.2963911593 0.9399000406
-0.053538032 -0.27632535 1.9700001 0.8872488141 -0.1693233848 0.4290910363
-0.0017270333 -0.2124251 1.9700001 0.1571531445 -0.5000668764 0.8516079187
-0.16443811 0.26650316 2.1560001 -0.0197729785 0.997150898 -0.07279526442
-0.12479204 0.23559393 1.9150001 -0.2302092165 0.3244693577 0.9174548388
-0.22333539 0.25605118 1.904 0.1166406423 0.7921398282 0.5990905166
0.027109688 0.091949359 1.5940001 -0.2058576345 0.8824909925 0.4228856862
-0.34023696 0.12732795 2.381 -0.03863884881 0.8608984351 0.5073075294
0.38440084 -0.34463516 1.6800002 -0.1951856464 0.5762126446 0.7936507463
0.23600394 -0.3869659 1.7220001 0.5055929422 0.02669069916 0.8623592257
-0.17490903 0.029621691 1.6090001 -0.124198094 0.7623370886 0.6351511478
0.19515915 -0.28368497 1.785 0.6832731366 -0.5274226665 0.5049387217
0.19221091 -0.052189719 1.452 -0.0001088013378 0.7585039139 0.651668489
-0.19700365 -0.054706626 1.7050002 -0.3976422548 0.6301973462 0.6668822765
0.29405677 0.37807304 1.8430001 -0.0444580093 0.4328412414 -0.9003732204
0.055719178 -0.23469594 1.9260004 0.3642202318 -0.3597631752 0.8590192795
0.20630683 -0.11533689 1.853 0.6461119652 -0.3066693842 0.6989228725
0.016095599 0.3523148 2.0400002 -0.1719187498 0.9464302063 -0.2733383775
-0.10824116 -0.29728204 1.7390001 0.5187379122 -0.4755506217 -0.7104665041
-0.13770154 0.0043947301 1.6710001 -0.3913618624 0.8462786078 0.3614531755
0.16168977 -0.22701897 1.863 -0.02113073692 0.1422891468 0.9895995855
0.31490251 -0.49449292 1.766 0.5959993005 -0.5270938873 0.6057696342
0.17632572 -0.34447739 1.7760001 0.5257465243 -0.3776064813 0.7622361183
-0.30334944 -0.063072659 1.7130001 0.2592856288 0.6710498929 0.6945955753
0.49402621 -0.33314735 1.6240001 0.7939795852 -0.2947484255 0.5317139626
0.22145739 0.091686182 1.6090001 -0.5930043459 -0.06363456696 0.80268085
-0.03439514 0.12832034 1.5090001 0.1558998376 0.5352827311 0.8301612139
0.011684213 -0.34551886 1.9039999 0.6171037555 -0.01265613362 0.7867799997
0.21607028 -0.46432126 1.748 0.2018488348 0.3465901613 0.9160416722
-0.25432363 0.0071842833 1.6390001 0.2818428576 0.5869162679 0.7590084672
0.32586634 -0.11562999 1.5640001 -0.04649509117 0.8667156696 0.4966308475
-0.024366951 -0.1023412 1.853 -0.2858697772 0.7632603645 0.5794066787
0.16513593 0.01540128 1.4640001 0.6593607664 0.03077367879 0.7511966228
-0.32415348 0.29477599 1.904 0.6413539648 -0.07038953155 0.7640094757
-0.11739478 -0.073799908 1.7760003 -0.3553311229 0.7543509007 0.5519914031
0.0073166601 -0.13563962 1.9260001 -0.4245881438 0.69644171 0.5785272717
0.13480628 -0.024489809 1.7940003 -0.07350344956 0.7859918475 0.6138517857
0.3137207 -0.046557721 1.4890002 -0.5806270838 0.2361680418 0.7791641951
-0.087298468 -0.18299101 1.9150001 -0.4807173312 0.743588686 0.4647437036
0.24561381 0.055755373 1.655 -0.7359189987 0.2464641333 0.6306176782
-0.25379238 -0.22676122 1.7129999 -0.6690981984 0.6681044698 -0.3254904151
-0.15587221 -0.14783753 1.8330001 -0.2593304515 0.7654671669 0.5889038444
-0.10482603 0.084400572 1.5529166 0.1090614945 0.6489523649 0.7529717088
-0.25332159 -0.0397656 1.6800001 0.0570150651 0.6305922866 0.7740172148
0.16438024 -0.10460562 1.8940002 0.2953492105 -0.2053904086 0.9330506921
0.057776716 -0.45395991 1.883 0.7700599432 0.300802052 0.5626062751
-0.18426217 -0.24519928 1.655 0.4584982395 -0.2536678314 -0.8517229557
0.11110844 -0.34427199 1.8730001 0.7175295353 -0.5169144273 0.4668520093
0.09630359 0.29721278 1.8940001 -0.3984199166 0.07836002856 -0.9138497114
-0.094808877 -0.37120083 1.8330001 0.1256688088 -0.8014922142 -0.5846517086
0.095666371 0.0063485689 1.748 -0.0464952141 0.7774947882 0.6271682382
0.065386504 0.15557478 1.4890002 0.1427856088 0.4677588046 0.8722465038
0.30435058 -0.19772778 1.7130002 0.4473663867 -0.6209282875 0.6436702609
-0.030365104 0.30205286 1.8230001 0.03169728816 0.7882550359 0.6145317554
0.072706349 -0.41200265 1.8430001 0.944773078 -0.08544955403 0.3163893223
0.27454355 -0.31577286 1.7130001 0.4229965508 0.003042750992 0.9061262012
-0.0044841501 0.4215101 1.705 -0.1838581711 0.6417859793 0.7445179224
-0.19703434 0.11039513 1.5940001 0.6263720393 -0.2849079967 0.7255932093
0.035159595 -0.055136636 1.8230001 -0.2076256573 0.768009007 0.6058496237
0.18385015 0.040357351 1.705 0.1475597471 0.8886656165 0.4341653287
0.065427825 -0.11608163 1.9260004 -0.1458293051 0.7592471838 0.6342535019
0.14507116 0.08366818 1.6021427 0.006370116025 0.9442952871 0.3290376961
-0.28022298 -0.10372895 1.766 0.2633278668 0.8233762383 0.502702713
0.31481406 0.028203681 1.7390001 -0.1166480184 0.9154213071 0.3852234483
0.23661759 -0.074105509 1.483 -0.1155875325 0.7996578217 0.5892256498
0.32506153 -0.29418451 1.6836923 0.5751277208 0.07872849703 0.8142665029
0.013811591 0.027129911 1.6880001 -0.2514842153 0.8072451949 0.5339577794
0.15106604 0.14574993 1.5160002 -0.3828735948 0.564773798 0.7310528755
-0.10452671 -0.14862393 1.863 -0.4426940084 0.7083703876 0.5497575998
0.11536167 0.054567896 1.6710002 -0.1136714891 0.7331118584 0.6705414057
0.095196642 -0.08412727 1.8940001 -0.1092839614 0.7893189788 0.6041792035
0.24204503 -0.07310085 1.853 0.6154072881 -0.4387328327 0.6548185349
0.35891348 -0.37993768 1.7130001 -0.3073523343 0.8143278956 0.4923460484
0.36492038 -0.19071971 1.7129999 0.07305641472 -0.4205003381 0.9043462873
0.024911359 -0.01712656 1.7760001 -0.1144021824 0.8340714574 0.5396637321
0.11292273 -0.49604219 1.794 0.7304634452 0.3361580074 0.594492197
0.26436147 0.41214117 1.8730001 -0.510761559 0.6925079226 -0.5094658136
-0.045923747 0.031344779 1.6630001 -0.01160031278 0.8145995736 0.5799077749
0.24476708 -0.21456856 1.8130001 0.7521400452 -0.05355519801 0.6568235755
-0.033568442 -0.17808343 1.9470001 -0.3528491855 0.8368497491 0.4185450077
0.074030027 0.1025398 1.5735556 0.0690946579 0.9453181624 0.318746835
0.19765238 -0.2040801 1.8330001 0.769849062 0.0950293541 0.6311116219
0.30796248 -0.40608779 1.7220001 -0.3356239796 0.5476129651 0.7664701939
-0.23068081 -0.12385546 1.766 -0.3582361937 0.7640407085 0.5365711451
-0.39202866 0.13203038 2.3170002 -0.09977252036 0.8829260468 0.4587886333
0.19764304 0.3059406 1.853 -0.4312973917 0.1703991592 -0.8859721422
0.027859589 -0.44322073 1.9260001 0.8260549307 0.4275098741 0.3672446012
0.044977382 0.058518961 1.6550001 -0.1728580743 0.8452469707 0.505645752
-0.045395993 0.28475669 1.8830001 0.3970918953 0.708787024 0.58304286
-0.074330814 -0.075912319 1.8040001 -0.1830848306 0.8252401948 0.5342832208
0.12643375 -0.29438654 1.8730001 0.5319302678 0.09133096784 0.841848433
-0.057412025 0.18024705 1.5230001 0.3718811274 -0.3737940788 0.8496955037
0.1655138 -0.036959391 1.8330001 -0.3190264106 0.8441601992 0.4308314025
0.26654613 -0.13822842 1.7850002 0.5725137591 -0.1977702528 0.7956851721
0.25209951 -0.27487853 1.7323333 0.6800944805 -0.2332492173 0.6950297356
0.28405315 0.075527467 1.6810001 -0.6303405166 -0.05132555217 0.7746202946
-0.17420068 -0.30635291 1.7130001 0.4621262252 -0.7124332786 -0.5280891657
-0.044861957 0.057139963 1.6160001 -0.321737498 0.8793491125 0.3510414958
0.38894805 -0.4955709 1.7130001 0.7638747096 -0.5176632404 0.3853831589
0.38276315 -0.11455783 1.5743333 -0.4901457727 0.6779775023 0.547817111
-0.052560549 0.49406919 1.7129999 0.8178393841 -0.3254461288 0.4745772779
0.31766453 -0.44911194 1.7850001 -0.1627286524 0.2478507757 0.9550337195
-0.14731331 -0.11376152 1.794 -0.411624521 0.6203560829 0.6676253676
0.13545552 -0.38456911 1.7760001 0.5415714383 -0.003904862795 0.8406456709
0.33320507 -0.15433404 1.7332858 0.7552437782 -0.1860632896 0.6284801364
0.044031948 0.013663043 1.731889 -0.2135621905 0.7817735672 0.5858509541
0.1249456 -0.14487046 1.8940001 0.6508261561 -0.4999293387 0.5713982582
0.12643375 -0.1953976 1.8730003 0.7064402699 -0.1541204602 0.6907886863
-0.096242219 0.27521896 1.9260001 -0.002797831316 -0.3884626329 0.9214602113
-0.059456408 -0.32781371 1.8330001 0.8423609734 0.2157173753 -0.4938562214
-0.25332159 -0.2783592 1.6800001 -0.148349449 -0.663369298 -0.7334395647
0.43961763 -0.23939575 1.6550001 0.3742014766 0.2397857606 0.8958103061
-0.13415104 0.051704045 1.5940001 -0.2034363598 0.8110086322 0.5485240221
0.42577711 -0.31454098 1.6844445 -0.0468005389 -0.003759006271 0.9988971949
-0.13301225 -0.34270215 1.7850001 0.1873001456 -0.8233420253 -0.535748601
0.015300755 0.1525704 1.4960002 0.1333132088 0.5034638643 0.8536695838
0.028062977 0.2921851 1.8830001 -0.6431390643 0.6752420664 0.3611375093
0.082868323 -0.49423853 1.8830001 0.8110235929 0.2690043449 0.5194972754
0.12464359 0.034539789 1.7130001 -0.008852659725 0.9113138914 0.4116170704
-0.2446575 0.29063341 1.8730001 -0.1315863878 0.2501264811 0.9592297673
0.40250921 -0.14946115 1.6880001 0.2323383838 0.2983077168 0.9257599115
-0.047174308 -0.23412436 1.9930001 0.7835534811 -0.226739198 0.5784749389
-0.066602997 -0.12183475 1.853 -0.2861784399 0.6660346389 0.6888394356
0.27430201 -0.21504867 1.748 0.5927442312 -0.7879688144 0.1666113734
0.16472636 -0.44539437 1.7760005 0.1823769063 -0.104145281 0.9776974916
0.40421608 0.16859265 2.3170002 0.06379894912 0.7951173782 0.6030904055
-0.2035933 0.065348484 1.5860002 0.4306027591 0.1073691174 0.89613235
0.34215248 0.19975376 2.256 0.06379894912 0.7951173782 0.6030904055
0.2129413 0.033641458 1.4519999 0.1165547967 -0.3037167788 0.9456062317
-0.032346372 0.34656826 1.7570001 -0.2719796002 0.727550745 0.6298388839
0.18356435 -0.27453429 1.853 0.5186775923 -0.4640437067 0.7180787325
0.38657492 -0.23045813 1.6960001 -0.2582506537 -0.4008289874 0.8790009618
0.45412651 -0.46573353 1.655 0.2390543371 -0.2293320745 0.9435358047
0.4264822 -0.38327163 1.6880001 0.8827133775 -0.03549205512 0.4685695767
0.31561276 0.043388307 1.6960002 0.04162413254 0.7264603972 0.6859465837
0.07634978 -0.066602997 1.853 -0.2039080262 0.8175765276 0.5385073423
-0.0054598805 0.098960325 1.557 -0.2896077037 0.8516897559 0.4367516339
-0.33265644 0.32586753 1.9360001 0.9124655724 0.3096540868 -0.2674339712
-0.21958746 0.032583948 1.6160001 0.2268945873 0.4812876284 0.8466882706
0.14075409 -0.34318694 1.8040001 0.6495025754 -0.4785807729 0.5908526182
0.038189352 -0.2772879 1.8940001 0.3341902792 -0.2017819285 0.9206524491
0.24306832 -0.0053284597 1.423182 -0.4545152783 0.1332051754 0.8807225823
0.24132267 -0.12305857 1.8230001 0.4767843485 -0.3001851439 0.8261752725
0.20428249 -0.36459655 1.7479998 0.479137063 -0.1269004941 0.8685182333
-0.014320789 -0.035221402 1.7659999 -0.3781303167 0.6521221399 0.6570799947
-0.02560305 -0.24408242 1.9470003 0.6099352241 -0.4993460178 0.6153312325
0.33336827 -0.080696292 1.5090001 -0.3696547449 0.6985595822 0.6126743555
-0.27000368 0.047647711 1.6470001 0.7483406067 -0.1152376607 0.6532278657
0.38744634 -0.070581309 1.7130001 0.05703613162 -0.06864261627 0.9960095882
0.37522736 -0.4452906 1.7760004 -0.3414806426 -0.02413669042 0.9395788312
0.27301452 -0.36552107 1.7130001 0.4472356141 0.1218713075 0.8860743046
-0.08481399 0.064421557 1.5860001 -0.2107497901 0.8454213142 0.4907620251
-0.096684061 0.021973649 1.6710001 -0.2875294983 0.8691413999 0.402392894
0.12202849 0.10009079 1.5640001 -0.02098149993 0.8763595819 0.481200248
-0.2253384 -0.2076648 1.6799999 -0.4898641407 0.8261012435 -0.2785496116
0.21369275 -0.49744874 1.7760001 -0.01044633146 0.7611799836 0.6484565735
-0.16721891 -0.0221972 1.6880001 -0.5059053898 0.7640251517 0.40040645
0.08022289 -0.15532517 1.9470001 0.5204342008 -0.1802440733 0.8346617818
0.21327195 -0.032313935 1.8430001 0.04401840642 0.8290888071 0.5573815107
0.27558193 -0.46241713 1.7760001 -0.2923036516 0.6751400232 0.6773068309
0.35174146 -0.0075480998 1.7220001 0.7339604497 0.6585415006 0.1662081778
0.01446237 0.30049592 1.8330001 -0.1724625081 0.8223873377 0.5421584249
-0.065144576 0.10616152 1.5290002 0.0144233685 0.6657437086 0.7460410595
-0.1919032 -0.28419253 1.6710001 0.1724624336 -0.6593189836 -0.7318163514
-0.025276056 0.011894614 1.6960001 -0.1636140198 0.8664386868 0.4717144072
0.35360435 -0.49535263 1.748 -0.1302214712 -0.464571923 0.8759082556
-0.021824617 -0.37101847 1.9150001 0.4575513005 -0.06597495079 0.8867322803
0.1760281 0.14606626 1.5535001 -0.5268529654 0.3394916952 0.779211998
0.19971694 0.0015481933 1.766 0.04140679911 0.9050948024 0.4231889546
0.096471913 -0.41593626 1.804 0.6461780071 -0.1769796908 0.7423827648
0.34531024 -0.25535545 1.6550002 0.5166410804 0.1273865402 0.8466727138
0.46573356 -0.3946403 1.6550001 0.6431028843 -0.03537900746 0.7649620771
0.0041269083 -0.11142652 1.8830001 -0.3560116291 0.7503281236 0.5570129156
0.047522347 -0.18839216 1.9360001 0.5499432683 -0.454875648 0.7004644871
-0.29711285 0.32715797 1.904 0.9628654122 0.1247063577 -0.2394546419
0.0015481933 0.37001821 1.766 -0.6109358072 0.4175901711 0.6725889444
-0.03564176 -0.29362023 1.936 0.7321206331 0.0458680205 0.6796289086
0.11409993 0.1462315 1.4960002 -0.2716058791 0.512947917 0.8143185377
0.1954993 -0.15510687 1.8430003 0.59156847 -0.2316358387 0.7722639441
0.083294727 -0.3740097 1.863 0.7637645602 -0.6101363301 0.2107067257
-0.13229373 0.11443814 1.5430001 0.5000348687 -0.04503410682 0.8648335338
0.24629951 0.37437522 1.8730001 -0.6012634039 0.6774680614 -0.423697263
0.25741783 -0.18621714 1.7850001 0.7066969275 0.08718965948 0.7021235228
-0.13458177 0.024337582 1.6331668 -0.2470255643 0.805303216 0.5389481783
0.085027605 0.190341 1.4770001 -0.04496324062 -0.3582309186 0.932549715
0.30609834 0.0059164483 1.7760003 -0.0652647838 0.8313658834 0.5518797636
-0.014672769 0.075459957 1.5940001 -0.3495668173 0.8895528316 0.2941068709
0.22483112 -0.42435578 1.7360911 0.2518495917 0.2123568356 0.9441802502
-0.095106065 -0.0226443 1.7220001 -0.09336491674 0.7621927261 0.6405819058
0.016406523 -0.22686262 1.936 0.2886678874 -0.530890882 0.7967595458
0.16841204 -0.023702437 1.423 0.2674434483 0.2999656796 0.9156935215
0.0028623168 -0.16429698 1.9590001 -0.4175192118 0.683802247 0.5984080434
-0.0050075199 -0.30545869 1.9039999 0.2837586701 -0.1377569437 0.9489489198
0.38425264 -0.40570644 1.748 -0.03085907176 0.4875051379 0.8725746274
-0.01611401 0.44240281 1.6710001 0.07329311222 0.1385769695 0.9876358509
0.12518825 0.073961362 1.636 0.1000143364 0.9563625455 0.2745319009
-0.044243611 0.41463441 1.7050002 0.5165176988 0.4423325956 0.7331789136
0.34718367 -0.32521003 1.6710001 0.4946442842 0.3674521446 0.7875950336
0.14457725 -0.26478752 1.853 0.3763157427 0.09935687482 0.9211485386
0.10521805 -0.043549467 1.8130001 0.03549066558 0.7790638804 0.6259391904
-0.014794043 0.49554169 1.6873332 -0.3466985226 0.09238257259 0.9334160686
0.15681067 -0.071426854 1.8730001 -0.1697529256 0.7109936476 0.6824015975
0.1228701 0.26732546 1.8940001 -0.1901042908 -0.1436057687 -0.9712042809
-0.18621716 -0.12174533 1.7850001 -0.09180744737 0.8031316996 0.588685751
0.48501408 -0.44495392 1.6320001 0.3997593224 0.2332581431 0.8864440918
-0.20517711 -0.088153504 1.7336668 -0.1818339676 0.8005865216 0.5709620118
-0.12710878 0.25916985 1.8830001 -0.2682732046 0.3344969451 0.9034053683
0.01502256 -0.38557905 1.904 0.6267644167 0.4074967206 0.6641631722
-0.20497036 0.27519926 1.863 -0.01554111019 0.3228684962 0.9463162422
0.0048470902 -0.077553444 1.8430001 -0.2977217138 0.814989984 0.4971449375
0.46725586 -0.31709254 1.6630001 0.5992500186 -0.2928987741 0.7450568676
0.21666642 -0.25462258 1.8040001 0.7052483559 -0.7087349892 0.01787246764
-0.055439081 -0.37361121 1.8330001 0.462977767 -0.5882231593 -0.6630573869
0.41597918 -0.41522837 1.7130001 0.9456118941 -0.09256224334 0.3118499219
0.35632294 -0.043396316 1.7370002 0.8738422394 0.1718291342 0.4548346102
0.29115152 -0.10431632 1.7760001 0.8312291503 0.007236388978 0.5558828712
-0.16531993 -0.06467589 1.7336668 -0.58999753 0.5090251565 0.626734674
0.20633139 0.3424339 1.863 -0.4632764459 0.3490637243 -0.8145731688
0.21517257 -0.032109082 1.427 -0.004021341447 0.6647908092 0.7470186949
0.42448622 -0.45461971 1.6847999 0.9402080774 -0.2047446817 0.2721917927
0.45505315 -0.25576225 1.6864001 0.1893073022 0.1601683199 0.9687666893
0.14777619 0.31713766 1.8940001 -0.04055080563 0.5654448867 -0.8237886429
0.40818039 -0.026185157 1.7570001 -0.6469157338 -0.5447921157 0.5335744023
0.07305789 -0.35366663 1.8940001 0.2911405861 -0.2102780193 0.9332846999
-0.092982769 0.24075897 1.8940001 0.240370512 0.3185942173 0.9169077277
-0.26732635 0.28207538 2.1030002 0.4238834083 0.9049468637 0.03733710572
0.22149563 -0.28433999 1.7570002 0.7172737718 -0.3502863646 0.6023436189
0.27432039 -0.068905123 1.4830002 -0.04128354788 0.7790747881 0.6255702376
0.38245487 -0.25610384 1.6630001 -0.6266120076 -0.5328819752 0.5686775446
-0.036470208 -0.19971782 1.9810001 0.1501971632 0.552303493 0.8200010061
0.087490462 -0.28558207 1.883 0.4501750767 -0.03698093444 0.8921741843
0.31738138 0.39884827 1.9360001 -0.192059949 0.9765566587 0.09721161425
-0.22488691 -0.27131519 1.6550001 -0.05009928718 -0.5738195777 -0.8174479604
0.035052639 -0.11406017 1.9039999 -0.3078736365 0.8225618005 0.4781275094
0.01455179 0.20240217 1.5090001 0.2594265342 -0.3773317337 0.8889986873
-0.28377438 -0.089533091 1.7310001 0.2283282727 0.7852515578 0.5755399466
0.12852634 -0.10181957 1.904 0.350779593 0.5030174255 0.7898905873
0.15543 -0.19614558 1.8430001 0.1598412842 -0.07409776747 0.9843577743
-0.033027541 0.33342087 1.794 0.0890616253 0.8690357804 0.4866670966
0.26880968 -0.40246361 1.7130001 0.2889743745 0.2843329608 0.9141381383
0.17457414 -0.014154661 1.794 -0.1623892635 0.8811702132 0.4440369308
0.038189352 -0.42340371 1.8940001 0.5798835158 0.303992331 0.7558596134
-0.0452886 -0.01056734 1.7220001 -0.1890070587 0.7648172975 0.6158984303
-0.057046011 -0.092398465 1.8330001 -0.1859537512 0.7074216008 0.6818913817
0.30960098 -0.42666402 1.7570001 -0.482162565 0.6764391661 0.556730926
-0.29021788 0.00721935 1.6470001 0.5283892155 0.1713557392 0.8315299153
-0.26456487 -0.064272813 1.705 0.2073058337 0.7093825936 0.6736472249
0.15242077 0.04883384 1.6880001 -0.146334216 0.8758276105 0.4599046409
0.11409203 -0.34548998 1.8330001 0.7286708951 -0.6348158121 0.2569972277
0.0079075331 -0.039537668 1.8040001 -0.4138606489 0.6714723706 0.6146903038
-0.07593511 -0.16012405 1.8830001 -0.3144074976 0.6864721775 0.6556705236
0.057148144 0.12825108 1.516 0.03455122933 0.8309745193 0.5552365184
-0.13383077 -0.32180679 1.748 0.08896204829 -0.8022069931 -0.5903809667
0.044704389 0.077734388 1.6240002 -0.1837750673 0.8388853669 0.5123456717
-0.42338091 -0.19004029 2.7440002 -0.1317341328 0.8418607712 0.5233703852
-0.31033736 0.31362137 1.8730001 0.3365405202 0.06199033931 0.9396263361
-0.35353684 -0.26536876 2.9580002 0.8159448504 0.4386900365 0.3765435815
0.31563997 -0.23547336 1.6872 0.4554755092 -0.2542632222 0.8531660438
-0.16552851 0.006022525 1.6362002 -0.2574717104 0.8407830596 0.4762270451
0.48833138 -0.36874002 1.6240001 0.4888537526 -0.2206286788 0.8440053463
0.093593806 0.26764545 1.8730001 0.1776058078 0.01916918717 -0.9839149714
0.13584477 -0.47487283 1.7760001 0.2643103302 0.07791996747 0.9612848163
0.40509978 -0.45130888 1.7570001 0.6886435747 -0.72076267 0.07919094712
0.1250166 -0.0042575318 1.7659999 -0.02538786083 0.8198270202 0.5720481277
0.081789494 -0.22366923 1.904 0.7449215651 -0.2952979207 0.5982398987
0.40558687 -0.29420355 1.6630001 -0.7710822821 -0.02815520205 0.63611269
0.31268159 -0.137087 1.7570001 0.4053427577 0.1170402616 0.9066414833
0.22711805 0.11283998 1.6376002 -0.7492483854 0.06138559803 0.6594381332
0.1029423 0.091763042 1.5940002 0.2042907476 0.9307357669 0.3033088446
0.19894284 -0.31350914 1.766 0.7353712916 -0.09670510888 0.6707288623
-0.10496067 -0.046429146 1.7570001 -0.2072488815 0.7427090406 0.6367347836
0.19150607 -0.46864495 1.7760001 0.4088311195 0.3204557896 0.8544970751
0.34524712 -0.46600616 1.7659999 0.2576322258 -0.2596068978 0.9307147264
0.45833412 -0.49603632 1.636 0.560240984 -0.330971241 0.7593339682
0.31240192 -0.098298877 1.536 -0.02766660601 0.8461897969 0.5321629047
-0.058875181 0.44533789 1.7220001 0.9676574469 0.06262957305 0.2443698496
0.044980597 0.10767103 1.5546666 -0.1142026931 0.9151220322 0.3866644502
0.1733088 0.068473518 1.6160001 0.2303446084 0.8929801583 0.3866882026
-0.11448565 -0.0029736534 1.6960001 -0.1660197377 0.7686445117 0.6177564859
0.16622339 0.054838788 1.4717501 0.5761806965 -0.3326095045 0.7465833426
0.2347012 -0.053575724 1.4549999 -0.08902866393 0.7994760275 0.5940639973
0.19438627 -0.43528971 1.7570002 0.4988858104 0.03251984715 0.8660573959
0.134656 0.12253696 1.536 -0.2460544705 0.7539328337 0.6091325879
-0.11550083 0.16170117 1.5500001 0.5715543032 -0.274612993 0.7732486129
0.096471913 -0.45389238 1.804 0.847440362 0.08705832064 0.5237038136
0.33304918 -0.18882698 1.6960001 0.1660755873 -0.8476390839 0.5039115548
-0.15017475 -0.069668703 1.766 -0.4371854663 0.5933765173 0.6758499742
0.17221503 -0.31533438 1.794 0.732912302 -0.3405857682 0.5889319777
0.17516391 -0.12616701 1.863 0.4687201679 -0.5543801785 0.6877238154
0.25160319 -0.34386775 1.7310002 0.5772281289 -0.1805898398 0.7963635921
0.066056252 -0.006708838 1.7659999 -0.1649263501 0.8303681612 0.5322481394
-0.11456806 -0.1760031 1.8940001 -0.3252500892 0.6897130013 0.6469222307
0.28636754 -0.49605748 1.785 0.4088361263 0.3167669177 0.8558689952
0.086327568 0.063113421 1.6550001 -0.1341002882 0.8171487451 0.5606113076
-0.21427518 -0.036854427 1.6814545 -0.2331089675 0.6874790788 0.6877737045
0.27653286 -0.22590308 1.7130002 0.7241404057 -0.3724308312 0.580444634
-0.23504311 -0.015959717 1.6550001 0.1238416508 0.656676054 0.7439353466
0.29744247 -0.31372041 1.6880001 0.4835984707 0.2047694176 0.851000607
-0.24356283 0.25669882 1.8730001 -0.175492987 0.4401350617 0.880615294
-0.063309737 0.14608486 1.5089999 0.2717682421 0.039501708 0.9615516663
-0.074701644 -0.35284603 1.8130001 0.3539562821 -0.5511856675 -0.7555853724
0.48024237 -0.35401553 1.6550001 0.4091043174 -0.5703835487 0.7122473121
0.19313931 -0.090791985 1.8830001 0.5645766854 -0.5345286131 0.628913641
0.27466843 0.34737477 1.8430001 -0.2023573369 -0.05379681289 -0.9778330326
-0.053987324 -0.057117023 1.7850001 -0.2987437248 0.8148918748 0.4966924787
0.045134306 0.039215054 1.6880001 -0.2175069749 0.834351182 0.5065065026
0.14553016 -0.4149158 1.7659999 0.1977461129 0.05519424006 0.9786981344
-0.1980916 0.24926527 1.8830001 -0.02726623416 -0.05366331711 0.9981867671
0.19290501 -0.2359533 1.8529999 0.5255302191 0.2490565628 0.8135040402
-0.29448283 -0.042914588 1.6880001 0.3912269771 0.5549637675 0.7341367006
-0.048685685 -0.17291811 1.9150001 -0.2872563899 0.7785999179 0.5579121113
0.24616274 -0.47405678 1.766 -0.4120828509 0.635869205 0.6525779963
0.17250477 0.29796278 1.8830001 -0.1949408799 0.525894165 -0.8279090524
0.17282256 -0.37834129 1.7760001 0.5052215457 -0.2301559895 0.8317328095
-0.1370865 -0.29498267 1.7130002 0.5210906267 -0.4215741158 -0.7421184778
0.29391742 0.39736319 1.8730001 0.4741564691 0.5536851287 -0.6845498085
0.19737318 -0.2748841 1.8230001 0.7267736197 -0.6778767109 0.1108296365
-0.23168106 -0.064272813 1.705 -0.2725639939 0.7379136086 0.6174077988
-0.024761448 0.25916985 1.883 0.7358727455 0.1160282567 0.6671047807
-0.27612561 -0.017786339 1.6630001 0.2670900822 0.5742146969 0.7739123702
0.41528401 -0.42141366 1.748 0.9693537951 0.2260656655 0.09616392106
0.13418068 -0.32131884 1.853 0.7268410921 -0.5170243382 0.4520927668
-0.032489266 0.28753 1.853 0.4449118376 0.774808526 0.4491382837
-0.33772355 0.13385385 2.3490002 -0.07124911249 0.8740395904 0.4806020856
-0.18278061 -0.15099268 1.8130001 -0.07299114764 0.8633527756 0.4992937446
-0.1668472 0.051444553 1.5860001 0.05303321779 0.6287931204 0.7757620215
0.066210546 -0.25649628 1.9040002 0.4776258171 -0.3231984079 0.8169555664
0.4154194 -0.35356736 1.6960001 0.3519352674 0.6028346419 0.716053009
0.3408927 0.03153633 1.7130001 0.7932380438 0.532689631 0.2949834168
0.07310085 -0.44997635 1.853 0.9097551703 0.3183847666 0.2664144039
-0.017347772 -0.15389152 1.9150001 -0.49857077 0.6510570645 0.5723214746
0.34509701 -0.3551088 1.6861539 0.1902388334 0.4513244331 0.8718460202
0.033574756 0.18455288 1.4845999 0.3681957424 -0.1081351563 0.9234384894
-0.10505597 -0.3266688 1.7659999 0.5082726479 -0.708961904 -0.4889089167
0.44036719 -0.21502879 1.6800001 0.3701526523 -0.03268704191 0.9283956885
0.12421994 -0.07469704 1.8830003 -0.03927344829 0.7984610796 0.6007640958
-0.0060069198 0.38744634 1.7130001 -0.2908341885 0.5854210258 0.7567679286
0.034218054 -0.31797752 1.904 0.2927098572 -0.2531098425 0.922093451
-0.15386434 0.24463326 1.8940001 -0.1483494341 0.4675159156 0.8714478016
0.13584387 -0.044748574 1.8230001 -0.2572610974 0.8745804429 0.4110058248
0.24282877 0.084774546 1.6390001 -0.8051472306 -0.0194212161 0.5927568674
-0.015925352 0.15585957 1.4890002 0.1624370217 0.1782347262 0.970487833
0.10434683 -0.15297447 1.9260002 0.7212230563 -0.3203475177 0.6141781211
0.12575871 -0.23355187 1.863 0.6147812009 -0.1087905392 0.7811585665
-0.073637366 0.033209011 1.6470001 -0.2657344043 0.9172510505 0.2967081666
0.18196839 0.025128335 1.7370002 0.2587219775 0.7674793005 0.5865479112
0.26550567 0.045389019 1.6800002 -0.514980197 0.5661640167 0.6436254382
0.37557238 -0.1647404 1.6960001 0.6189225912 0.30303213 0.7246422172
0.28388572 -0.20292377 1.7760001 0.5678290129 -0.4385706484 0.6965816617
0.21300545 -0.39536265 1.748 0.5221578479 0.02433309518 0.8525016904
0.026190195 -0.19449443 1.9589999 0.4772460461 -0.4852175415 0.7326664925
0.0085001597 0.075084746 1.6160001 -0.1462758183 0.9138834476 0.3787088394
-0.19504781 0.0099659469 1.6240001 -0.05349363014 0.776309967 0.6280773878
0.18315822 -0.18397048 1.8529999 0.5183383226 0.01051334199 0.8551110029
0.060753871 -0.41542518 1.8730001 0.8813513517 -0.01544309128 0.4722089767
0.28883272 0.011634243 1.7310001 -0.5186946392 0.6807791591 0.5171998143
-0.13483046 -0.16082187 1.853 -0.2691437602 0.7499276996 0.6042930484
0.025182249 -0.2535013 1.9150001 0.3312145472 -0.5197075009 0.7875284553
-0.00398708 0.13423169 1.5159999 -0.1553108841 0.5688010454 0.8076781034
0.41185099 -0.48173183 1.6960001 0.825607419 -0.4659597874 0.3182041049
-0.17258644 -0.25667396 1.6826668 0.8077287078 -0.1441247016 -0.5716663003
0.078310005 -0.43629858 1.8230001 0.8587056994 0.1483714134 0.4905205369
0.15488701 0.033513565 1.7220001 -0.2288744748 0.8224437833 0.520771265
0.092594407 -0.49546131 1.853 0.8713492751 0.3893544078 0.2985860109
-0.036057882 0.096204244 1.5360001 -0.03305657208 0.7759138346 0.6299722195
-0.025233094 -0.12286396 1.8830003 -0.3713279665 0.6689078212 0.6439548731
-0.095942393 0.11412097 1.5360001 0.2854150236 0.3830969036 0.8785072565
0.10399809 -0.31529582 1.8830003 0.4587147236 0.04960468039 0.8871979117
-0.014578965 0.033531625 1.6630001 -0.2745319009 0.7128877044 0.645308733
0.075912759 -0.048743982 1.8230001 -0.07743746787 0.8358302712 0.5434989929
-0.16512044 0.1155647 1.564 0.4763130248 -0.1286766976 0.8698092699
0.33805582 -0.285824 1.6550001 0.6619505882 0.053734079 0.7476189137
0.17802207 -0.047363669 1.863 -0.1856283844 0.7546308637 0.6293444037
-0.13025513 0.069926441 1.5640001 0.03885616735 0.672447145 0.7391244769
-0.20747632 -0.21327984 1.6550001 0.003597349394 0.8104854226 -0.5857477784
