# .PCD v0.7 - Point Cloud Data file format
VERSION 0.7
FIELDS x y z normal_x normal_y normal_z
SIZE 4 4 4 4 4 4
TYPE F F F F F F
COUNT 1 1 1 1 1 1
WIDTH 512
HEIGHT 1
VIEWPOINT 0 0 0 1 0 0 0
POINTS 512
DATA ascii
-0.08342097 0.04386051 0.98100007 0.09350088984 0.8848661184 0.4563655257
-0.32277465 -0.487872 2.1160002 -0.3636185229 0.9205188751 0.1429215074
0.19474098 0.0075480998 1.7220001 0.7715260386 0.5802521706 0.2608735263
-0.48243669 0.047844961 1.516 0.9862312078 0.07525010407 0.1472598761
0.01200595 -0.49224395 1.245 0.7452891469 -0.07513735443 0.6624940634
-0.30337447 0.41489664 1.2185 0.6307455897 -0.282961458 0.7225599289
0.28114173 -0.24796867 0.94600004 0.6751883626 0.06587580591 0.734697938
-0.39865628 -0.24288313 1.169 -0.1806599945 0.4961251318 0.8492478132
0.062888563 0.31315935 1.4640001 0.9970192909 0.05908934399 -0.04960877076
0.025344433 -0.33852923 2.0650001 -0.3996896446 0.8952543139 0.1968955994
-0.011967377 -0.15666384 1.2410001 -0.2485652417 0.586222291 0.7710763812
0.051075477 0.15114172 1.189 0.4439223707 -0.6623955965 0.6034608483
-0.32347873 -0.037777208 1.0321251 0.02729466185 0.5500037074 0.8347160816
0.16231152 -0.054979075 1.0813333 0.7112330198 -0.3117693961 0.6300376058
0.20797843 -0.44573611 1.087 0.6505942941 -0.004905983806 0.7594096661
-0.21054991 0.23132165 1.077 0.6612825394 -0.1828104705 0.727520287
0.20492785 -0.19971782 1.9810001 -0.8043599725 0.5691251755 0.1705917567
-0.20757926 -0.31547812 1.2858572 -0.6383733749 0.08182239532 0.7653656006
0.14678518 -0.25488821 1.1454707 0.8457234502 0.0612289533 0.5300970078
-0.20631425 -0.14436595 1.1667143 -0.2716676593 0.6824828982 0.6785380244
-0.47411275 -0.44979924 1.9810001 -0.2110867947 0.9539867043 0.212959528
-0.0051792217 -0.032201469 1.1178572 -0.1761499345 0.731580317 0.6586056948
-0.0062986752 -0.32415682 1.2830001 0.3605894148 -0.2941584885 0.8851248622
0.091405652 0.12042332 1.6550001 0.82663697 0.5407531261 0.1557477713
0.049646508 0.25054169 1.317 0.6242261529 -0.5994243026 0.5010311007
-0.23389392 0.062473517 0.94657147 0.02264456637 0.6031047702 0.7973405123
-0.1746082 -0.037923347 1.0700001 -0.257363826 0.7242794037 0.6396743059
0.10496754 -0.39512995 1.1873075 0.503641665 -0.201720342 0.8400321603
0.19854622 -0.18374558 1.0368572 0.805924356 0.1880021095 0.5613743067
0.22355329 -0.31550458 1.0520771 0.8590044379 0.2186167985 0.462945044
-0.34119868 -0.13940403 1.1120001 -0.2088654786 0.6691570282 0.713164866
0.016695241 -0.45819157 2.1160002 -0.3996896446 0.8952543139 0.1968955994
-0.12521604 -0.2160808 1.2640001 -0.326313287 0.5739222765 0.7510877848
0.073096469 0.19536692 1.516 0.9913987517 0.05596870184 -0.1183045879
-0.15810473 0.14345808 1.0064 0.5477374196 -0.2223032713 0.8065760732
0.051732451 0.071821436 1.0808001 0.1553761512 -0.7903269529 0.592656374
-0.26624385 0.3167837 1.153 0.6618958712 -0.2299534529 0.7134530544
-0.27453378 -0.23672421 1.2115999 -0.2849693596 0.5919396281 0.7539229989
0.12111939 -0.13943997 1.161 0.8497897983 0.1958412975 0.4893909395
-0.10525969 -0.30265874 1.3456668 0.1158095971 0.5807170272 0.8058262467
-0.094429322 -0.096351802 1.162647 -0.1639476717 0.7117149234 0.6830688715
0.067541905 -0.24741288 1.2360001 0.7892986536 -0.2146400511 0.5752715468
-0.25589517 -0.090848625 1.085125 -0.241642952 0.7278394103 0.6417620182
-0.043534879 -0.4146477 1.2880001 0.6293885112 -0.04698966071 0.7756687999
0.16879866 -0.35437846 1.126 0.7477684617 0.008276090957 0.6639080048
0.032105081 -0.093124717 1.1813077 -0.0915928781 0.6314775348 0.7699654698
-0.084567785 -0.0053701252 1.0622857 -0.129606396 0.7616134286 0.6349387169
-0.34834349 -0.291006 1.2340001 0.09017731994 0.4168460965 0.9044929147
0.0055832709 0.018089797 1.0190001 -0.1068214923 0.8473131061 0.5202400684
0.095876396 -0.0045888545 1.1244346 -0.01415592246 0.381468147 0.9242736101
0.14153345 -0.47177815 1.1450001 0.6115326285 -0.2071187347 0.7636292577
-0.17523663 0.017287863 0.99753857 -0.186599493 0.776455462 0.6019116044
0.26756963 -0.33175477 0.97616673 0.8276640177 0.3085052371 0.468824923
0.02562622 -0.39577094 1.2352382 0.4682378173 -0.2345984429 0.8518902063
0.25442329 -0.39600894 1.0325001 0.8012480736 0.2244700491 0.5546302199
0.052059095 0.30872256 1.381 0.7555715442 -0.5084689856 0.413002342
-0.25614178 -0.0022172926 0.99615389 -0.1012832895 0.691304028 0.7154302597
0.099270396 -0.31418139 1.197 0.6360683441 0.04372637346 0.7703928351
0.069316715 -0.47687817 1.189 0.5747751594 -0.1394449174 0.8063427806
-0.1968476 -0.21190698 1.2270001 -0.2914878428 0.5551873446 0.7789748311
-0.13564599 -0.15388799 1.2045456 -0.3039934933 0.6867933869 0.6602293253
-0.32433668 -0.19743082 1.1631539 -0.2368348539 0.6024717093 0.7621923089
-0.41057983 -0.16999795 1.1340001 0.2879835963 0.5048152208 0.813773334
0.15737006 -0.13341808 1.08575 0.8640034199 0.2107203901 0.4572690725
0.1903068 -0.2490084 1.08 0.8245223165 0.1569282115 0.5436326861
0.2459009 -0.18623987 0.97586966 0.7635622621 -0.03606410325 0.644726336
0.20167907 -0.10758176 1.0255001 0.7288433909 0.09628228843 0.6778768897
-0.16879866 -0.091802776 1.126 -0.2539294958 0.6921417117 0.6756179929
0.23249024 -0.25481492 1.0038637 0.8563725948 0.2171971649 0.4684563875
0.088334687 -0.17986219 1.2140001 0.7449679971 0.09653198719 0.6600790024
-0.27461627 -0.14817935 1.1413635 -0.249896124 0.6457142234 0.7215296626
0.041637283 -0.41275221 2.0650001 -0.3996896446 0.8952543139 0.1968955994
-0.047987856 -0.21092337 1.273 -0.09062532336 0.6625745296 0.7434931397
-0.26691768 -0.30414817 1.2346668 -0.47243613 0.2322347909 0.8502182961
-0.05687638 -0.3528496 1.324 0.7466988564 -0.0852637738 0.6596748829
-0.36083952 -0.08693815 1.0663334 0.1096459255 0.5583270192 0.8223434091
-0.13812384 0.086130001 0.97000015 0.3060052395 0.007014944218 0.9520039558
0.0399497 0.2358321 1.47 0.9930554032 0.07391385734 -0.09152979404
-0.11502062 -0.05228284 1.1066667 -0.2928848565 0.7273796201 0.6205943227
-0.14667773 -0.27305123 1.2970001 -0.3294789493 0.5769282579 0.7473937273
0.15786427 -0.19438216 1.1142309 0.8554185629 0.1724972725 0.4883684516
0.044188052 0.0053771813 1.0833808 -0.3870633543 0.6023800969 0.6980832219
-0.03509267 -0.11153216 1.189 -0.1559990942 0.7013239264 0.6955638528
0.047902524 -0.31664178 1.245 0.6541239023 -0.1140956134 0.7477326393
0.038908221 0.10076232 1.138 0.6091070175 -0.6580158472 0.442723155
-0.22843425 0.28344649 1.1126001 0.6150515676 -0.1810126007 0.7674281597
0.21299458 -0.37488449 1.0836999 0.7472344041 0.07294711471 0.6605448723
-0.075757906 -0.16119684 1.2270001 -0.1969627887 0.6402696967 0.7424690723
-0.33566207 -0.48504519 2.0530002 -0.2644182146 0.9571589231 0.1180246025
-0.087081052 -0.25093094 1.307 -0.1935160011 0.6477056146 0.7369049788
-0.23593056 -0.044107594 1.0459502 -0.2730540633 0.6434426308 0.715138495
-0.186993 0.18584962 1.0417501 0.6136417389 -0.2839379311 0.7367652655
0.16696544 -0.41572133 1.1260002 0.7000412941 -0.03451149911 0.7132679224
0.05101411 -0.05101411 1.141 0.02318220027 0.7141815424 0.6995765567
-0.22572958 -0.26461676 1.2569286 -0.2737468779 0.659130156 0.7004356384
-0.023450833 0.00093803334 1.0700001 -0.2097365558 0.7615593076 0.6132193208
-0.42946848 -0.47188511 2.016 -0.2057225555 0.9552633762 0.2124855369
0.11190738 -0.2311358 1.1930001 0.725028336 -0.09202785045 0.6825428605
-0.25478274 -0.18700306 1.1825385 -0.4234203994 0.5470345616 0.7221276164
-0.28489661 0.36395371 1.1847647 0.5987496972 -0.2831653953 0.7492103577
-0.3450647 -0.24533145 1.1947781 -0.2840044796 0.5511461496 0.784588635
-0.044874549 -0.066165633 1.1452003 -0.1504019946 0.7393425107 0.6563168764
0.1760208 -0.29533011 1.1155001 0.7766852379 0.09814308584 0.6221960783
-0.13922694 -0.00090997998 1.0380001 -0.2358315736 0.8036671281 0.5463539362
0.14263879 -0.31363088 1.1610001 0.7463909984 -0.002184721408 0.6655040979
-0.02861177 0.051154375 0.98900002 -0.3038455248 0.4809608459 0.8224077821
-0.22506487 -0.11154531 1.126 -0.2852594256 0.7110897303 0.6426339746
0.027790334 -0.2678988 1.268 0.5900703073 -0.197241053 0.782887578
0.06565474 -0.42536861 1.2080001 0.5755342245 -0.2083596438 0.7907885909
-0.0051287673 -0.43518651 1.2567394 0.6442988515 -0.02684829757 0.7643023729
-0.30507156 -0.084546022 1.0649258 -0.1451507509 0.6742967367 0.7240546942
0.065342419 -0.36446512 1.2185832 0.5676451921 -0.1183865368 0.8147168159
-0.064700171 -0.036165584 1.1043911 -0.167050302 0.7457758784 0.6449128389
-0.15496953 -0.12444454 1.1650002 -0.2392464727 0.7309230566 0.6391499043
-0.17679736 0.071541257 0.93800002 -0.1802636832 0.624732554 0.7597461939
-0.016515398 -0.37477249 1.2679999 0.5217034817 -0.07270096242 0.8500235677
0.13177636 -0.19371441 1.1630001 0.8421952724 0.1353811026 0.5218995214
-0.20494094 -0.075404964 1.0935217 -0.3123583496 0.6756635904 0.6677656174
-0.055278085 0.028156443 1.025923 -0.1567155868 0.7934941053 0.5880538821
-0.17442182 -0.24563301 1.26425 -0.3025901318 0.6103516221 0.7320588231
-0.29407278 -0.11741152 1.1029284 -0.2289536446 0.7129102349 0.6628266573
0.14162463 -0.017459255 1.1065 0.6221473217 0.01563687809 0.78274405
0.11282612 -0.44483203 1.1744119 0.5366160274 -0.1245818436 0.834579289
0.13407171 -0.1094251 1.1245 0.8860653639 0.1984947175 0.4189128876
0.043805279 0.03924223 1.041 -0.9252627492 0.3762948513 0.04786475748
0.1443072 -0.38430461 1.1555454 0.6893806458 -0.07740478963 0.7202519178
-0.36377829 -0.18256932 1.1380001 -0.1727930903 0.645509541 0.7439489365
-0.21263959 -0.0092581846 1.0220002 -0.2829390764 0.743730545 0.6056486964
0.22318679 -0.14545545 1.0048825 0.6970360875 0.001608975232 0.7170342803
0.25545493 -0.28502178 0.9743939 0.8502626419 0.1935604215 0.489477098
-0.18519716 -0.16886395 1.202 -0.2516829371 0.6442294717 0.7222354412
0.01289727 -0.12428855 1.2117144 -0.02404341474 0.7144498229 0.6992734671
0.20838542 -0.23022494 1.0380001 0.8496927619 0.2279983163 0.4754355848
-0.39286229 -0.13580626 1.1065 0.173464179 0.562294364 0.8085389733
0.0053957859 -0.065093175 1.154111 -0.1068573967 0.7027537227 0.7033624649
-0.21521209 0.026650028 0.9743104 -0.1636421829 0.7259443402 0.6680015922
0.24869309 -0.34240261 1.018 0.8618671894 0.191484496 0.4695940912
0.16897626 -0.094612122 1.0565716 0.793427527 0.1106837839 0.5985164046
-0.3018223 -0.27315706 1.2340001 -0.4599661231 -0.0215782728 0.8876742125
-0.42483386 -0.20539406 1.161 0.06246710569 0.4956946969 0.8662474155
0.12113517 -0.27488366 1.1810001 0.7184897661 0.01929552481 0.6952698231
-0.13494174 0.037193995 0.98672229 -0.2072775513 0.7365093231 0.6438866854
-0.30124348 0.0030865243 1.00475 0.1730460823 0.5569031835 0.8123508692
-0.095492668 -0.13222063 1.1970001 -0.1701125503 0.6762227416 0.7167876363
0.028325977 -0.44604453 1.2270001 0.6309480667 -0.1503681242 0.7611136436
-0.15464775 -0.19531339 1.2336001 -0.2506331205 0.5822579265 0.7734072208
0.17399202 -0.46039465 1.115 0.6869239211 -0.148509264 0.7113933563
-0.27475139 -0.034034599 1.0257894 -0.1154915988 0.701233983 0.7035144567
-0.12497292 -0.02631337 1.0718499 -0.2518783212 0.729866147 0.635494113
0.18392888 -0.20557506 1.0734999 0.8734332919 0.2413568348 0.4229198098
-0.10393059 0.020606926 1.0220001 -0.2062819302 0.7859966755 0.5828009844
0.025253929 -0.35515448 1.2527621 0.5800813437 -0.2020730823 0.7890957594
-0.26658997 0.031888753 0.97000003 0.07888172567 0.6182565093 0.7820079923
0.197304 -0.33545703 1.0943334 0.7544298172 0.1131524816 0.6465540528
0.019198123 0.043117095 1.077 0.4660131335 -0.1869224012 0.8648073673
0.24315812 -0.42746267 1.0600001 0.6245179176 0.2353228927 0.744715035
-0.084816709 -0.19607678 1.2565002 -0.1734925359 0.6548785567 0.7355504036
0.12138134 -0.35584024 1.1834002 0.6255087256 -0.06369771808 0.7776126266
0.18064418 -0.14632584 1.0524 0.8255355954 0.1782926023 0.5354463458
0.14465399 -0.15527567 1.1248463 0.8906447291 0.191674456 0.4123261273
0.076943278 -0.28533131 1.219 0.7045635581 -0.09630633146 0.7030755877
-0.31547549 -0.16214271 1.1370001 -0.2483924329 0.6149593592 0.7484157681
-0.38438252 -0.26354128 1.2031429 -0.1558496058 0.6337044835 0.7577133179
-0.12627797 -0.082401402 1.1342666 -0.3284049332 0.66166085 0.6740586758
0.043919247 0.2773639 1.3540001 0.7692548037 -0.5042846799 0.3923569918
0.21930517 -0.27572393 1.0380001 0.8609670401 0.2229910046 0.4571769238
-0.068585142 -0.30573049 1.3260001 0.7446351051 0.1475181729 0.6509661674
0.20235746 -0.2956908 1.0829231 0.7928771377 0.1535125226 0.5897285342
-0.084248684 -0.064724453 1.1328335 -0.1931253225 0.6971246004 0.690449059
-0.36470616 -0.21520258 1.1627778 -0.2281956822 0.6046674252 0.7630885243
0.25216156 -0.23512483 0.97174996 0.7900000811 0.006616951898 0.6130710244
0.16587883 -0.23464386 1.1157 0.8219313622 0.1330294907 0.5538339019
-0.23561676 -0.21499535 1.215 -0.3589482009 0.5482138395 0.7553924322
-0.11564006 -0.17508434 1.2328002 -0.2245674282 0.6288756132 0.7443687916
-0.23680024 -0.32050321 1.2563335 -0.3512262106 0.4430145025 0.82485044
0.2417233 -0.29839104 1.01 0.8541212678 0.2344654202 0.4642228484
0.2255037 -0.21493611 1.0048181 0.813606143 0.1042970121 0.5719853044
-0.30541047 -0.22410673 1.1889999 -0.2639257014 0.6213946939 0.7377071977
0.068264283 -0.20695996 1.2360001 0.6880643368 0.06956002116 0.7223079801
0.034470633 -0.024315663 1.1160383 -0.1053244025 0.7092695832 0.697024703
0.23192999 -0.35527691 1.0519376 0.8314950466 0.1968241483 0.5194961429
-0.19143471 -0.27646682 1.2830001 -0.3453812897 0.5958971381 0.7249954343
-0.044490833 -0.17730583 1.25 -0.1306447685 0.665359199 0.7350027561
-0.042902861 -0.37617561 1.296375 0.6941480637 -0.2221319824 0.6847012639
-0.15868105 -0.060587309 1.097 -0.2570514977 0.6934696436 0.673070848
0.14247571 -0.42608288 1.1539999 0.6749119759 -0.07447223365 0.734130621
-0.17574157 -0.013171331 1.0360001 -0.2374664247 0.7861068249 0.5706537962
0.042539533 -0.49456069 1.2103637 0.6496729851 -0.09526193887 0.7542215586
-0.26421884 -0.26639882 1.242 -0.3570306301 0.5353659987 0.7654491663
-0.29007584 -0.17811675 1.161 -0.2735935152 0.5774078369 0.7692507505
0.10447061 -0.48173329 1.1683334 0.5417968035 -0.3318271935 0.7722350359
-0.24340095 -0.15654971 1.1633333 -0.3846664131 0.6338530779 0.6710156798
-0.16522831 0.047525816 0.96439147 -0.1860076487 0.7018416524 0.6876186728
-0.33536503 -0.11409516 1.0849999 -0.09912782907 0.647100091 0.7559332848
-0.044883579 -0.14213133 1.2190001 -0.1223071218 0.6434226632 0.7556773424
0.19009639 -0.38214248 1.1120001 0.6880759001 0.02871508524 0.7250702977
0.17105433 -0.16773877 1.0810001 0.867071569 0.2122712135 0.4506970942
0.14749259 -0.096734464 1.0925001 0.8732693195 0.1642436385 0.4587208033
-0.097582065 0.071990401 0.96233338 0.1524770409 0.3851344287 0.910177052
-0.2754935 -0.065578274 1.0546799 -0.2070294023 0.6417566538 0.7384356856
-0.11534413 -0.27221662 1.31575 -0.3970875144 0.6759659648 0.6207990646
-0.22754541 0.24788232 1.1045001 0.6753594875 -0.2133866549 0.7059431076
-0.13888504 0.12249488 0.98400003 0.367906481 -0.439594388 0.8193910122
-0.12548164 -0.24597561 1.2862145 -0.3994622231 0.6147834063 0.6800524592
0.044777252 0.12530133 1.1647145 0.4853035808 -0.6622698307 0.5708581805
0.0047809891 -0.0076476894 1.0904001 -0.1371334195 0.7687103748 0.6247229576
0.10885183 -0.16484126 1.189 0.7762281299 0.1223734543 0.6184615493
-0.093874469 -0.22555831 1.2830001 -0.1874279082 0.6012776494 0.7767470479
-0.25495279 0.28781199 1.136 0.6848194599 -0.2490160316 0.6848455071
-0.33561429 -0.068301097 1.0500001 0.09128377587 0.5937206745 0.7994767427
0.039642867 0.22766332 1.2920001 0.6242261529 -0.5994243026 0.5010311007
-0.37257871 -0.11356077 1.0862499 0.07154159248 0.6100921035 0.7890940309
0.28243375 -0.28618807 0.95175004 0.6250244379 0.1807128042 0.7593993545
-0.19481513 -0.11674601 1.143316 -0.2382743806 0.7256074548 0.6455378532
-0.024886997 0.02363733 1.0433685 -0.07328442484 0.8672164679 0.4925088286
0.070460327 0.020269411 1.1010001 -0.5855487585 0.3652679026 0.7236794829
0.069462679 -0.32487163 1.2190001 0.6338784695 -0.1290736794 0.7625864148
0.090960741 -0.2548492 1.21 0.7236952186 -0.09960441291 0.6828939915
-0.0051812748 -0.095351174 1.1822 -0.1522364467 0.7059682012 0.691688478
-0.23257354 -0.06813962 1.0706002 -0.3462093174 0.6866665483 0.6392403245
0.26325196 -0.37448519 1.0070001 0.8074190617 0.2304236889 0.5431200266
-0.054730363 -0.092847571 1.1677692 -0.1975199878 0.6686554551 0.7168582678
0.19728658 -0.4147689 1.097 0.6919717193 -0.0732518211 0.718198657
0.2204729 -0.18151383 1.01 0.7723188996 0.06488981098 0.6319120526
-0.0354749 -0.022056051 1.0936667 -0.1267412752 0.7754835486 0.6185158491
-0.21534891 -0.18361787 1.1959336 -0.3213752508 0.6082917452 0.7257403731
0.23201574 -0.39537641 1.0608824 0.7895436883 0.08277969807 0.6080857515
-0.12336014 -0.1169789 1.1746001 -0.3442327976 0.675797224 0.6517683268
0.025187653 -0.30433631 1.2667366 0.586019218 -0.1866575927 0.7885051966
-0.1769201 -0.30019346 1.302 -0.3652261198 0.4643085003 0.8068627715
-0.25593382 -0.12420627 1.1248947 -0.2956302762 0.6997536421 0.650344193
-0.20520672 -0.034361724 1.0545998 -0.3199203908 0.7059485912 0.6318920255
-0.31080464 -0.24928017 1.21 -0.2626144588 0.6112558842 0.746592164
-0.21476002 -0.23782441 1.2410001 -0.3068188727 0.5481457114 0.7780735493
-0.055331901 0.0068858122 1.0533078 -0.1472862214 0.7672557831 0.6241998076
0.062890574 -0.012582357 1.1036999 -0.489302814 0.569026053 0.6609025002
0.051504165 -0.28162917 1.25 0.7365637422 -0.1704270393 0.6545444727
-0.30131909 0.3827281 1.2060001 0.6307455897 -0.282961458 0.7225599289
-0.03048696 -0.34551889 1.2880001 0.7482450604 -0.02251491696 0.6630402803
-0.093072191 -0.02924034 1.09 -0.1884640157 0.7692496777 0.6105212569
0.091676541 -0.35511488 1.202 0.6418831348 -0.08001980186 0.7626157999
0.14864935 -0.21449403 1.138 0.8701100945 0.1187502518 0.4783374965
-0.27539062 -0.21201535 1.189 -0.3096579313 0.6248914599 0.7166747451
0.075787395 -0.39512086 1.2034998 0.5465567708 -0.2373039871 0.8030955791
-0.3183983 -0.30011192 1.2270001 -0.05279608071 0.3353347182 0.940618515
0.14504378 -0.34490168 1.1549128 0.7160384655 0.02195071802 0.6977155805
0.19847895 -0.15381072 1.026 0.7712935805 0.1031119376 0.628071785
-0.22519638 -0.29017842 1.2780001 -0.6105930209 0.1422678232 0.7790610194
-0.20423996 0.052495468 0.95229429 -0.1240474805 0.6422111392 0.756423831
-0.39518446 -0.1940717 1.1478573 0.1047630236 0.5860894322 0.8034450412
0.17635086 -0.26496592 1.106263 0.8081020713 0.1546234637 0.5683859587
0.078369841 -0.44653168 1.1880001 0.576544404 -0.1515421569 0.8028894663
-0.24548523 -0.021261096 1.0190001 -0.1974892765 0.7222350836 0.662853241
0.092612013 -0.21506454 1.2121538 0.7831993103 -0.004727827851 0.621752739
-0.16658397 -0.22275069 1.244 -0.31378299 0.5907735825 0.7433214784
0.13387734 -0.22504614 1.1658002 0.8164165616 0.03005089611 0.5766809583
-0.19350269 0.21313056 1.0561001 0.7010979652 -0.1916180402 0.6868363023
-0.17478652 -0.14734027 1.1815001 -0.2363806665 0.7172219157 0.6555279493
0.13802503 -0.05115613 1.1010001 0.6220370531 -0.2327994406 0.7475789785
-0.065155983 -0.12396701 1.1953533 -0.1922886074 0.6679679155 0.7189186215
-0.0062294584 -0.40433866 1.2652308 0.6525737047 -0.1286133677 0.7467303276
-0.18171334 0.1557136 1.0227501 0.5375742316 -0.4167719483 0.7330178022
0.15206683 -0.28562242 1.1446365 0.818498373 0.05639028177 0.5717346668
0.10904652 -0.19540149 1.1947778 0.7495377064 0.04733380303 0.6602671742
-0.22484814 0.0060424698 0.99531019 -0.2114217132 0.7261965275 0.6541708112
-0.14043762 0.068038099 0.99500006 0.9812024832 0.1863490939 0.05015693977
-0.24457312 -0.2441716 1.2337501 -0.2597366273 0.5987979174 0.7576133013
0.0043628779 0.013389915 1.0656667 -0.2022758126 0.7483463287 0.631713748
-0.034293737 -0.042134635 1.1176667 -0.1510487497 0.754693985 0.6384522319
0.16357991 -0.32522869 1.1341904 0.7826120853 0.06305536628 0.6193079352
-0.33752191 -0.21845745 1.1810001 -0.2134591937 0.6392375827 0.7387898564
0.035623346 -0.067853995 1.1610001 -0.1710259169 0.7305118442 0.6611373425
-0.069464438 -0.3308391 1.3430001 0.7461619377 0.1456325203 0.6496410966
-0.38528383 -0.16259909 1.1190001 0.1419827938 0.4843204319 0.8632928729
-0.015995834 -0.13332154 1.2166001 -0.1850556135 0.6822007298 0.7073588371
-0.30333436 -0.13772015 1.123 -0.2519324124 0.6693454385 0.6989325881
-0.055042215 0.036734257 0.9876191 0.02583947405 0.9021452069 0.4306580424
-0.26528499 0.34452847 1.1642728 0.6468378901 -0.2606698871 0.7166951299
0.051977564 -0.45294738 1.21 0.558842957 -0.1680877954 0.8120597601
0.048563823 -0.24502657 1.2589999 0.7066137195 -0.06661545485 0.7044568658
-0.15147047 -0.0195146 1.0600001 -0.2219101787 0.7315881252 0.6446198225
-0.23068519 -0.089764528 1.1010001 -0.3250788152 0.7299880385 0.6011998057
-0.22561651 -0.13242234 1.1472224 -0.2944929898 0.6741749644 0.6773197055
-0.35483655 -0.26731366 1.2121819 -0.2119838148 0.6304559112 0.7467182875
-0.10507535 -0.15342428 1.2153125 -0.1736728698 0.6996204257 0.6930865645
0.16387063 -0.38464156 1.1335 0.7609440088 -0.06353213638 0.6456995606
0.17481084 -0.068642996 1.044 0.7879545689 0.009984244592 0.615652442
-0.14742815 0.01853887 1.0070001 -0.2172305882 0.7714262605 0.5980906487
0.12191167 -0.30464977 1.1810001 0.6641480923 -0.04066634551 0.746494174
0.098757371 -0.28484568 1.197 0.6201140881 -0.07488485426 0.7809294462
-0.0027037198 -0.4642579 1.2557273 0.6615745425 0.03343518823 0.7491336465
0.13365307 -0.16504566 1.1549999 0.8623446822 0.1226833761 0.4912335873
0.026617058 -0.47507948 1.2254443 0.6936979294 -0.06097146124 0.7176807523
-0.14512469 -0.10520444 1.1454802 -0.2935497463 0.6558033824 0.6955217123
0.12696905 -0.40547782 1.1675265 0.6534499526 -0.181085214 0.734990716
0.014921042 -0.044964414 1.1346003 -0.1219766065 0.7282583117 0.6743600965
-0.11493497 -0.0042724973 1.0536665 -0.2476882488 0.7665101886 0.5925475955
0.2206044 -0.41848558 1.08 0.7164483666 0.02069088817 0.6973332167
-0.19567686 -0.092868805 1.1150588 -0.2681282759 0.7072156072 0.6541814208
0.0018599943 -0.35302696 1.273 0.4855878353 -0.2405386418 0.8404436707
-0.015870769 -0.052986942 1.137077 -0.2074313015 0.7186512351 0.6637112498
-0.2847133 -0.096330456 1.0816666 -0.1831092536 0.7004979253 0.6897634268
0.046544362 0.084367149 1.1061428 0.5534660816 -0.6862472296 0.471953392
0.050804 -0.40428534 1.2243334 0.6146704555 -0.183667466 0.7671026587
0.2070508 -0.27467582 1.0638999 0.8457157016 0.2399712354 0.4766327739
0.21594927 -0.34473169 1.0732608 0.8147976398 0.1376779526 0.5631603599
-0.055634722 -0.01100246 1.0756668 -0.1483364105 0.7896525264 0.5953530073
0.046064604 -0.34590605 1.2355295 0.6890688539 -0.2080754191 0.6941820383
-0.025972828 -0.083954789 1.1664002 -0.1574055851 0.6981572509 0.6984267831
-0.29847345 -0.050048899 1.0380001 -0.09000745416 0.5869058967 0.8046366572
-0.062295932 -0.22653067 1.2920001 -0.1163242757 0.6185655594 0.7770748138
-0.0055015222 0.044081792 1.0039998 -0.3199180365 0.5375816822 0.7801656127
-0.026708625 -0.43487859 1.2752222 0.6378733516 -0.1025287136 0.7632859349
0.15459061 -0.44582236 1.1376804 0.6719091535 -0.157044664 0.7237921357
-0.35708034 -0.16186334 1.1190001 -0.2056750506 0.6119770408 0.7636634111
-0.10566159 0.037823375 0.99720001 -0.2132903785 0.7743211389 0.5957633853
-0.13872246 0.056721333 0.9657144 -0.2782134414 0.532258153 0.7995614409
0.26187402 -0.20607528 0.96437514 0.7351560593 0.005171435419 0.677878201
-0.44902954 -0.45252395 1.9930001 -0.2057225555 0.9552633762 0.2124855369
0.12109309 -0.02658141 1.123 0.5526140332 0.144611448 0.8207954764
-0.32457966 -0.2748363 1.2175 -0.07080364227 0.239283368 0.9683647752
-0.20642836 -0.054252241 1.0757368 -0.3466451466 0.6615756154 0.6649472117
0.27092814 -0.22413254 0.93650007 0.69282794 0.01028703898 0.7210295796
-0.14536458 -0.23488198 1.2657777 -0.2976769805 0.5644419193 0.7699310184
0.044610288 -0.37482491 1.2333915 0.5800841451 -0.1910083592 0.7918447852
-0.19107124 0.040090844 0.97300005 -0.1924224496 0.7371519804 0.6477503777
-0.079529449 -0.29793867 1.3540001 0.5529617071 0.5521114469 0.624024272
-0.15450132 -0.1747552 1.21545 -0.2715002 0.6057156324 0.7479279637
-0.24204241 0.041324314 0.96200007 -0.01911894046 0.6385248899 0.7693636417
0.12141833 0.00097134669 1.108 0.4581859112 0.3541544378 0.8152547479
-0.052725364 -0.3267433 1.317 0.7521710992 0.1216417775 0.6476433873
-0.28218979 0.014999545 0.98475015 0.1999654323 0.5648969412 0.8005656004
0.094247036 -0.4250702 1.1833702 0.4137690067 -0.1688867956 0.8945794702
-0.30520722 -0.024208937 1.0174487 0.0979610458 0.6253209114 0.7741946578
-0.14509465 -0.073823407 1.1168 -0.292042613 0.6781699061 0.6743861437
0.0090005174 -0.41567373 1.2445 0.641715765 -0.1432952732 0.7534369826
0.03815604 0.30894083 1.404 0.9389986396 -0.3150566816 0.1379160285
-0.077686697 0.041491758 1.0070001 -0.01900446229 0.9122077227 0.4092870057
-0.39557567 -0.21544869 1.1636671 0.03831003979 0.5343264937 0.844409585
-0.37432232 -0.24532871 1.1866471 -0.1282529086 0.5908077955 0.7965533733
0.0072963322 -0.37628749 1.2564377 0.5826963782 -0.245399192 0.7747542262
-0.2632288 -0.32050321 1.2563335 -0.3637404442 0.4858593345 0.7947537899
0.18132252 -0.32525581 1.1126667 0.762294054 0.07705429196 0.6426277161
0.18245976 -0.43549967 1.1130002 0.6966712475 -0.0564009212 0.7151700258
-0.21302527 0.20535555 1.0733845 0.6957951784 -0.1770015806 0.6960887313
-0.33528379 -0.093061447 1.066579 0.0007397449226 0.612244308 0.7906683087
-0.26443803 -0.10836174 1.1027272 -0.2835939229 0.7368454337 0.6137045622
0.27089703 -0.3522096 0.99200004 0.813002646 0.2685905993 0.5166099072
0.1305979 -0.25194085 1.1730001 0.7630000114 0.01955296844 0.6461026669
-0.14572409 -0.29352289 1.3130002 -0.3535052538 0.5494808555 0.7570368648
-0.2452618 -0.28166834 1.2583333 -0.5005960464 0.09765857458 0.8601548672
-0.11451703 -0.19598898 1.2515626 -0.2593113482 0.6300548315 0.7319757938
0.2087751 -0.20517683 1.0264999 0.8357239962 0.1644188315 0.5239578485
-0.083430611 0.01065676 1.0420001 -0.1529436111 0.8019026518 0.5775468946
-0.24521069 0.01971974 0.9780001 -0.07226974517 0.6812196374 0.7285031676
-0.29517758 -0.20482352 1.1740528 -0.2466681749 0.6027647257 0.7588343024
-0.027476361 -0.39511329 1.2830001 0.6201359034 -0.02993470803 0.7839230895
0.18346523 -0.11596805 1.0416002 0.7098252773 0.08292135596 0.6994799376
-0.28456971 -0.25686675 1.2240908 -0.3110628724 0.6108267903 0.7281005979
-0.16010913 0.11898822 0.99800003 0.5946314335 -0.3308018148 0.7327916622
0.2544446 -0.31502345 0.9952144 0.8659512401 0.2550969422 0.4301790893
-0.16309068 -0.25925797 1.2830001 -0.2614026666 0.6312426925 0.7302063704
-0.18315029 -0.058289569 1.09 -0.2665803134 0.6579912305 0.7042602301
0.04230107 0.048837785 1.0645 0.5004534125 -0.6415899992 0.5812991261
0.1806021 -0.22455816 1.09 0.8420935869 0.1649995297 0.5134720802
-0.11610135 0.09202107 0.98100007 0.5422068834 0.1464128643 0.8273904324
0.21788061 -0.25299546 1.0270001 0.8573440313 0.2156827152 0.4673779309
0.2496361 -0.37129989 1.028 0.8402575254 0.1751571298 0.5131152272
-0.076302215 -0.082345948 1.149 -0.2043649256 0.7070072293 0.6770345569
-0.085067406 -0.047828913 1.1133846 -0.1702421159 0.7341384888 0.6573113799
-0.45420977 -0.46111789 1.9700001 -0.2057225555 0.9552633762 0.2124855369
0.26497409 -0.26460752 0.95550007 0.6944310069 0.06833699346 0.7163069844
0.24116969 -0.21533126 0.98250002 0.7868213654 0.03707076982 0.6160665154
0.18655115 -0.08381284 1.028 0.7265847921 0.1094977483 0.6782954931
0.19536924 -0.21474706 1.0526429 0.8612582684 0.2357351333 0.4501812458
-0.36481634 -0.13543209 1.1049998 0.03694885224 0.6143737435 0.7881495357
0.18780717 -0.35425022 1.1076999 0.7471595407 0.06629172713 0.6613305211
0.17184573 -0.19596635 1.0930834 0.8524466753 0.2349034697 0.4670706391
0.15707916 -0.16509537 1.1055999 0.8710415959 0.2042256445 0.4467419684
0.026826745 0.034630213 1.02335 -0.5662338734 0.4448543489 0.6938903332
0.034609921 0.021514276 1.067 -0.1965371221 0.3455361724 0.9175935388
0.26620698 -0.30480558 0.96376014 0.7689719796 0.2192456424 0.6005109549
-0.29161441 -0.30241495 1.2320001 -0.1716399789 -0.1250046194 0.9771968126
0.16336228 -0.27523294 1.1248333 0.7840696573 0.1460547745 0.6032435894
-0.024247656 0.027897695 1.0016924 -0.1830735505 0.7389068007 0.6484603882
-0.23088156 -0.16876096 1.1810001 -0.2982760668 0.611330092 0.7330121994
0.24623732 -0.26468939 0.9853214 0.8550002575 0.1916907579 0.4819016755
-0.13465585 -0.047614634 1.0921819 -0.2605188191 0.7157469392 0.6479477286
-0.029918879 -0.19170246 1.2640001 -0.09847220778 0.6229937077 0.7760038972
0.16811872 -0.12422349 1.0654 0.8669816852 0.1402025372 0.4782112539
0.12729506 -0.45491508 1.1569999 0.616048336 -0.2388577461 0.7506207228
0.0032401599 -0.13932689 1.2320001 -0.1444066614 0.6417651176 0.7531827688
-0.14406218 -0.1364574 1.1836668 -0.2856064141 0.6941607594 0.6607342958
-0.075238734 -0.10492431 1.1756668 -0.1657325476 0.7185798883 0.6754078269
0.23367704 -0.16510007 0.99415648 0.727345109 0.0197792463 0.6859867573
-0.27564406 -0.013332542 1.0063334 -0.008209491149 0.6581098437 0.7528771758
0.14583673 -0.18551064 1.133818 0.8764977455 0.168577686 0.4509249628
0.20165086 -0.23882154 1.0600001 0.8703702688 0.2170417309 0.4419824481
-0.40564653 -0.14813505 1.1240001 0.2967730165 0.4588459134 0.8374880552
-0.24741638 0.3122634 1.138 0.6854227185 -0.2313716859 0.6904076934
-0.24842131 0.26811126 1.123 0.6442837715 -0.1329456568 0.7531426549
0.061488431 -0.22586343 1.25 0.6770465374 0.02676939964 0.7354531884
-0.11571172 0.054248765 0.97368002 0.04446320608 0.6994413137 0.7133055925
-0.063889079 -0.052959587 1.1243638 -0.1620951593 0.7434981465 0.6487955451
-0.091387242 -0.1784227 1.2410001 -0.1375943422 0.6660832167 0.7330763936
-0.28058153 -0.12896906 1.123 -0.258525908 0.7146632075 0.6499391198
-0.12336935 -0.097078994 1.1535001 -0.3624789715 0.6508681774 0.667067945
-0.18340936 -0.12885474 1.161 -0.1958854944 0.7014607191 0.6852603555
0.23143251 -0.30519563 1.0316668 0.8361177444 0.2394814938 0.4935137033
-0.076282375 0.061046489 0.96566665 0.01377885323 0.7021015882 0.7119434476
0.014962422 -0.081370972 1.169 -0.1101705134 0.7132725716 0.6921738982
0.15565401 -0.36532959 1.1461669 0.7757058144 -0.01442906447 0.6309297085
-0.33534443 -0.1835119 1.1470002 -0.2266063392 0.5887987018 0.7758644223
0.14861605 -0.13404584 1.108 0.8800335526 0.2186127603 0.4216033816
0.1591025 -0.074997738 1.066 0.8290368319 -0.1198758259 0.5461938381
-0.19250138 -0.23925693 1.25 -0.3479338586 0.5631780028 0.7495148778
-0.067669898 -0.18008925 1.245 -0.1786116362 0.6452065706 0.7428367138
-0.25638554 -0.22228889 1.2060002 -0.3799308836 0.6002640128 0.7038008571
0.1913271 -0.27495375 1.0907273 0.8051601052 0.2040557116 0.5568469167
-0.26449502 -0.16740818 1.1624547 -0.3216145039 0.6037873626 0.7293866873
-0.19551337 0.0074863387 1.0050499 -0.2023663968 0.7775477767 0.595371604
-0.25578082 -0.070986725 1.067 -0.2033073455 0.6790447831 0.7053823471
0.016352866 -0.10480355 1.1945385 0.03762224317 0.6830145717 0.7294351459
-0.17588374 -0.18458864 1.2170769 -0.2511622012 0.6065964103 0.754293263
0.039807681 0.28468525 1.376 0.7555715442 -0.5084689856 0.413002342
-0.03588818 -0.16254325 1.2338183 -0.07645463943 0.6514734626 0.7548092604
0.13517652 -0.36530244 1.166 0.6791642904 -0.05041700229 0.7322526574
0.20846608 -0.3226063 1.076 0.79231143 0.1458272487 0.592433095
0.13126592 -0.1282616 1.1430001 0.8751040101 0.2216053903 0.4302138984
0.18308263 -0.40454236 1.1128334 0.6829049587 -0.03452949226 0.729690671
-0.1524348 -0.0383454 1.08 -0.2176167518 0.7107617259 0.6689250469
0.12560302 -0.33460683 1.1744001 0.7184616327 0.0001713715465 0.695566535
-0.075036965 -0.21278934 1.2774999 -0.1641451865 0.6581779718 0.7347503901
-0.12413827 0.02184573 1.0102501 -0.2271454185 0.7807502747 0.5820944905
-0.31233618 -0.17891102 1.153 -0.2692233324 0.6083583236 0.7466049194
0.15378666 -0.40477741 1.1418422 0.7325739861 -0.09392587841 0.6741759777
0.23230352 -0.19507386 0.99473917 0.775818944 0.01420125365 0.6307957768
0.056522887 -0.031475738 1.1181111 0.002324718749 0.6886029243 0.7251349092
-0.22470507 -0.026167827 1.0324092 -0.315866977 0.7035134435 0.636629343
0.18413973 -0.17438647 1.0525 0.8571982384 0.2100280821 0.4702121019
-0.16418573 0.001612979 1.0223002 -0.2162385136 0.7728575468 0.5966004729
0.21243414 -0.12710536 1.0139002 0.689945519 -0.02421457879 0.7234562039
-0.16503979 0.032362513 0.98331809 -0.1943265498 0.7349911928 0.6496346593
-0.24447078 -0.19810563 1.202 -0.4010118544 0.5635544658 0.7222159505
-0.15147048 0.1031714 0.9780001 0.5323542953 -0.2432559431 0.8108177781
0.018132597 -0.33411282 1.2589999 0.5446640849 -0.1887398511 0.8171403408
-0.31957304 -0.1311318 1.108 -0.2204055041 0.7185420394 0.6596353054
-0.21549875 -0.20378619 1.215611 -0.3185061812 0.5626055598 0.7629081011
0.063390821 -0.30565506 1.2320002 0.7088399529 -0.06765267998 0.7021175027
-0.10565692 -0.084618241 1.1457621 -0.2075940967 0.7092174292 0.6737323999
-0.19429895 -0.25713915 1.2648889 -0.3342905641 0.6251525879 0.7052900195
0.032281596 -0.42398092 1.2320002 0.4871260822 -0.1915201992 0.8520728946
0.13484196 -0.28511652 1.1656958 0.7590974569 0.07126860321 0.6470639706
-0.2755481 -0.19274272 1.1748668 -0.3476290405 0.5682589412 0.7458121777
0.011967377 -0.43844116 1.2410001 0.6359151602 0.01805835962 0.7715476751
-0.043110847 -0.3456029 1.3069999 0.779587388 -0.05054206029 0.62425071
-0.26450473 -0.047084518 1.0414287 -0.1714850366 0.6690074801 0.723202467
0.092352629 -0.46300554 1.181 0.4272619486 -0.2445106208 0.8704376817
-0.32408795 -0.23586254 1.1943336 -0.2196856439 0.6008045673 0.7686169744
0.10944745 -0.25329268 1.189 0.7034659982 -0.01771102101 0.7105082273
-0.35407656 -0.19716133 1.1542307 -0.234471187 0.5982919335 0.7662049532
-0.18415602 -0.025863945 1.0535003 -0.2550007701 0.758008182 0.6003317237
-0.20577297 -0.16502994 1.187476 -0.3344385028 0.6198406219 0.7098932862
0.12131325 -0.17631057 1.174143 0.8369003534 0.120114103 0.5340134501
-0.30533248 -0.10457112 1.0853499 -0.1943252087 0.7074922323 0.679479599
0.044247475 0.26480147 1.3353335 0.7299900651 -0.5387243629 0.4205836058
-0.17637122 -0.073573999 1.1050587 -0.2551704049 0.6766232252 0.6907018423
-0.14425883 -0.21608336 1.2520714 -0.3599454761 0.5791881084 0.7314235568
-0.10443136 -0.017443135 1.072111 -0.2089295685 0.739546299 0.6398590803
0.081872463 -0.23469187 1.2244546 0.7715706229 -0.1467256248 0.618991375
0.038125794 -0.0082042851 1.1010001 -0.1554590613 0.7549651861 0.6370714307
-0.05364674 -0.39493132 1.302 0.6486574411 -0.1083734408 0.7533251047
-0.12383022 -0.13784477 1.193 -0.2990027964 0.6984769702 0.6501747966
-0.1742982 -0.10827994 1.1409999 -0.2187001556 0.6891860962 0.6907914281
0.085012294 -0.30499393 1.2121998 0.6745565534 -0.04539419338 0.7368261814
-0.21364841 0.2510035 1.087 0.6807344556 -0.2235365808 0.6975901127
-0.11493926 -0.065359503 1.1247145 -0.2567805648 0.7106930614 0.6549649835
0.075836934 0.0032948423 1.114375 -0.5194190145 0.4021583796 0.7539711595
0.15316093 -0.036071483 1.0947647 0.6360712051 -0.1735228598 0.7518665195
-0.084525943 -0.14477523 1.2117144 -0.1615587771 0.6988343596 0.6967993379
0.22478864 -0.44237867 1.0728889 0.6131550074 0.1024437249 0.7832919359
0.10270379 -0.37379155 1.1930001 0.5605536103 -0.07503962517 0.8247113228
-0.20927875 0.068663165 0.93800002 -0.03642810136 0.5960094333 0.8021506667
-0.098958135 -0.28057542 1.3280001 -0.172103703 0.7245597243 0.667378068
-0.25307 -0.13903846 1.141 -0.332382828 0.647398591 0.685854733
0.23428948 -0.23466815 0.99510723 0.8407984972 0.1113008335 0.5297830105
0.10583797 -0.33514747 1.1953639 0.6027317643 -0.07787802815 0.7941343784
0.2295841 -0.2715703 1.0190001 0.8513016105 0.2519041598 0.4602498412
0.18774834 -0.30473211 1.0965385 0.7889865637 0.1013761461 0.6059893966
-0.3148849 -0.06367451 1.0446316 -0.02831951156 0.5909060836 0.8062431216
0.15809168 -0.10382757 1.0747001 0.8314755559 0.2001968771 0.5182369947
0.014719378 -0.02183689 1.1069999 -0.1072217822 0.7493448257 0.6534414887
0.21746244 -0.29456523 1.0533334 0.8714888692 0.2132151723 0.4416405559
-0.2446882 -0.10820872 1.1120001 -0.3157385588 0.730687201 0.6053143144
0.16799179 -0.2148129 1.1068748 0.8280104995 0.1579150259 0.5380162001
0.12191167 -0.21509258 1.1810001 0.792412281 0.0160452798 0.609774828
0.20869313 -0.39594519 1.087 0.7379019856 -1.058086582e-05 0.6749078631
0.19090497 -0.45199001 1.1016666 0.6763649583 -0.07718918473 0.7325109243
-0.31305152 0.39648816 1.2247144 0.6307455897 -0.282961458 0.7225599289
-0.0052733249 -0.11603139 1.2031999 -0.149997592 0.6838121414 0.7140740156
-0.11513451 0.0073991134 1.0350002 -0.2291632295 0.8084759712 0.5420800447
-0.35804731 -0.23009957 1.177 -0.3206470609 0.6184270382 0.7174493074
-0.20510361 -0.29300785 1.2855 -0.4352629781 0.3154521585 0.8432295322
-0.16565053 -0.16115323 1.1969999 -0.2399570346 0.6742545366 0.698427856
-0.2949971 -0.23524649 1.2048571 -0.2825111151 0.6210462451 0.7310875654
-0.094206788 -0.11643761 1.1823335 -0.2046025991 0.6977717876 0.6864781976
-0.017778946 -0.011748063 1.0865 -0.2383389026 0.7636161447 0.6000707746
0.12362759 -0.38541788 1.1746843 0.6679365635 -0.05909761414 0.7418680787
-0.1379009 -0.18350931 1.2270001 -0.3362514079 0.5722650886 0.7479623556
-0.2202362 -0.049251132 1.0600001 -0.3996877372 0.6497320533 0.6466050148
-0.065119803 -0.19647253 1.2651428 -0.1255533695 0.6492167115 0.7501693368
-0.11506295 -0.037419278 1.0911177 -0.2770604789 0.7327404618 0.6215536594
