# .PCD v0.7 - Point Cloud Data file format
VERSION 0.7
FIELDS x y z normal_x normal_y normal_z
SIZE 4 4 4 4 4 4
TYPE F F F F F F
COUNT 1 1 1 1 1 1
WIDTH 512
HEIGHT 1
VIEWPOINT 0 0 0 1 0 0 0
POINTS 512
DATA ascii
0.13453414 -0.082118243 1.9930001 0.1017878801 0.9086984396 0.4048534632
0.46082246 -0.49710768 4.1390004 -0.1477295607 0.9270111322 0.3447119594
-0.42255041 -0.2553876 3.1780002 -0.5224711895 0.8115770221 0.2614699304
0.48602396 -0.104148 3.3000002 -0.1363693625 0.9090598822 0.3937176168
0.39561248 0.2568011 2.6390002 -0.308244437 0.8764135838 0.3699791431
-0.087304212 0.49462339 1.7336668 -0.884108305 -0.05309781805 -0.4642554522
-0.49958953 -0.49958953 3.7740002 -0.4058652222 0.8681994081 0.285487622
-0.11895052 0.14706609 2.467 -0.05153144524 0.8623114228 -0.5037494898
0.29693928 0.4098855 2.0780001 -0.9643319845 -0.188138634 0.186192438
-0.16720489 -0.43194595 1.766 0.0597329326 0.5146731734 0.8553031683
0.0090287896 -0.2738733 3.4330001 -0.2447818518 0.8542752266 0.4585800767
0.36316091 -0.33044371 3.7320001 -0.1621087939 0.8870696425 0.4322362542
-0.062951677 0.064382397 1.6320001 0.05689956248 0.20286645 0.9775518775
0.14669088 -0.46128097 2.016 -0.7946969271 0.2370856255 0.558790803
0.26510751 0.114931 1.748 -0.5818750858 0.1009870321 0.8069838881
-0.48948509 -0.41043779 3.4680002 -0.5369158983 0.812123239 0.2284231633
0.48817387 0.35817471 2.3170002 -0.9466592073 0.2507981062 -0.2023281753
-0.19226789 -0.1405656 1.8430001 -0.1437222213 -0.5034220815 0.852003634
-0.15323256 -0.14208838 3.1780002 -0.2479160726 0.9568400383 0.1516403109
-0.00675384 -0.28534976 1.9260002 -0.6015196443 -0.04048414156 0.7978315353
0.28903964 -0.19368635 3.3990002 -0.1441081166 0.9069517851 0.3958172202
0.22601256 0.20845819 2.503 -0.7315891385 0.6817326546 0.004235988948
0.0047944901 -0.020776123 1.8230001 -0.227518186 0.9192755222 0.3211976886
0.44595242 -0.42314157 3.9030001 -0.07271637768 0.8959461451 0.4381698668
0.15361305 -0.31349599 3.5760002 -0.2451377809 0.8244434595 0.5100984573
-0.015418061 -0.48744798 1.8940001 -0.5641953349 0.189748764 0.8035415411
0.30378956 -0.0083458666 1.904 -0.2091976851 0.7011926174 0.6815902591
-0.06881132 0.30262181 1.6880001 -0.2617465556 -0.5462480187 0.7956770062
-0.30095878 -0.24836405 3.3330002 -0.4606384933 0.859808147 0.2203228474
0.16162173 -0.26457009 2.0530002 -0.6814343929 -0.2893890738 0.6722359061
0.43575943 -0.24139191 3.5760002 -0.05005772039 0.8876281977 0.4578323364
0.10663993 0.12622684 1.655 -0.4969996214 0.2416777313 0.8334165812
-0.18715605 0.033027541 1.794 0.3695437014 -0.1146393567 0.9221145511
-0.12365507 -0.28386623 1.8130001 -0.6518466473 -0.2232941687 0.7247314453
-0.44510731 -0.33407402 3.3330002 -0.5217074752 0.8235499859 0.222680822
0.16301265 0.0079908166 1.8230001 -0.1803648919 0.8643542528 0.46942541
-0.042934749 -0.087586887 1.9590001 -0.2962559462 0.8416570425 0.451492846
0.12217139 -0.17580761 3.3990002 -0.2239298075 0.8527632952 0.471858263
0.47551626 -0.16552782 3.4330001 -0.1786276549 0.9009420276 0.3954688609
0.35780361 -0.47825235 4.0410004 -0.1280883998 0.9119583964 0.389775902
-0.036902405 -0.19586661 3.2380002 -0.1420048922 0.9185801148 0.3688429892
0.045700632 -0.18280253 2.0050001 -0.481451273 -0.6972370744 0.5310980678
0.32477343 -0.40258375 3.8590002 -0.1731887907 0.8845072389 0.4331888556
0.25393176 -0.235122 3.5760002 -0.2473830879 0.842577219 0.4783986211
-0.086567037 -0.014682122 1.7323333 -0.04819430411 0.8805909157 0.4714201689
0.095517218 -0.3455987 1.9810001 -0.4577176869 -0.1444549412 0.87728405
0.043550175 0.033538636 1.7129999 -0.3245986998 0.8821281791 0.3412998319
-0.077585876 -0.18983778 1.8830001 -0.6888437271 -0.354125917 0.6325260401
0.36969119 -0.12609623 3.2690001 -0.1018971428 0.9228482842 0.3714405
-0.066243559 -0.38615146 1.8430002 -0.70934093 -0.2277261168 0.6670654416
-0.098333068 -0.2354034 3.3990002 -0.1411762089 0.9140520692 0.3802343011
-0.10615995 -0.065873601 1.863 -0.2681319714 0.9332052469 0.2392347306
-0.0064882101 0.16653073 2.467 -0.03252905235 0.8459963799 -0.5321954489
0.33321705 0.064725615 1.8230001 -0.1548706144 0.8040539026 0.5740317106
0.29196945 0.29196945 2.467 -0.7339199781 0.6784793139 -0.03205125034
0.085127838 -0.036721811 1.904 -0.1119899079 0.9190386534 0.3779235482
0.4348968 -0.35460818 3.8160002 -0.2116810381 0.8794944882 0.426240027
0.24139805 -0.057310328 1.9810001 -0.07225194573 0.8891572356 0.451861769
0.16616735 0.07208173 1.7310001 -0.2409018874 0.7829422951 0.5735569596
-0.20486034 -0.32808462 1.7570001 0.2660282254 -0.08337940276 0.9603524804
0.03798509 -0.16655001 3.3330002 -0.1719095111 0.8992753625 0.4021826982
0.13215311 -0.16111818 2.0650001 -0.9996580482 -0.01692776009 0.01993085258
0.018573061 -0.39341119 1.9260001 -0.4220994711 -0.09211348742 0.9018576145
0.082916006 -0.29174152 3.5030003 -0.2061245441 0.8617368937 0.4635970294
-0.059773762 0.16182654 1.6630001 0.4724236429 -0.04946686327 0.8799823523
-0.20161317 -0.22498861 3.3330002 -0.2386906594 0.9278356433 0.2866142988
-0.38762343 -0.21414161 3.0920002 -0.5332845449 0.8024659753 0.2676862478
0.45699668 -0.45699668 4.0410004 -0.1427751482 0.9175112247 0.3711986542
0.18312164 -0.36268753 2.0280001 -0.2360773385 -0.0969677344 0.966884017
0.069981672 -0.47963047 1.9470001 -0.5021933913 0.2925339639 0.8137724996
-0.21034038 -0.23406298 1.8040001 0.2233561873 -0.1588015854 0.9617141485
-0.068287946 0.3975876 1.7310001 -0.3373283148 -0.1493380219 0.9294663668
-0.10364699 -0.47484779 1.8330001 -0.3919042051 0.5429574251 0.7427033782
0.40351039 -0.28501925 3.6530001 0.0008218571311 0.8895485401 0.4568398893
0.19362411 -0.031714294 1.904 -0.04042047262 0.8769772053 0.4788289964
0.34355164 -0.16417512 3.4680002 -0.1832553744 0.9121143222 0.3666945696
0.016310208 0.11131002 1.6320002 -0.07244519144 0.1063863933 0.9916822314
0.043679919 -0.089107029 1.9930001 -0.1474719644 0.8676316738 0.4748339653
0.24635649 0.039734915 1.8130001 -0.2399430573 0.7475334406 0.6193715334
-0.018775569 -0.18946257 1.9470001 -0.6736943126 -0.3833624721 0.631798327
-0.18059246 -0.049543064 1.8230001 0.3368383646 0.7731000185 0.5374535322
0.17504491 -0.27331573 3.5030003 -0.2148342431 0.8508116603 0.479547441
-0.097526245 0.44651207 1.8040003 -0.9460542798 0.02934577875 -0.3226765394
0.064257041 -0.26571152 1.9810001 -0.3719787598 -0.1251603961 0.9197644591
0.082937047 0.01721335 1.7850001 -0.2318234295 0.895139873 0.3807657063
-0.067321859 -0.27421343 1.8730001 -0.6802230477 -0.2697436512 0.6815679669
-0.13520463 -0.2055238 1.8230002 -0.647832334 -0.4664620459 0.6022677422
-0.013283253 -0.051472608 1.8940001 -0.3319602609 0.9031969905 0.2720985711
-0.12863067 -0.36523598 1.7850001 -0.6620771885 -0.2213460952 0.7160025835
-0.40592647 -0.3037352 3.2380002 -0.5171585083 0.8224732876 0.2368222624
0.36441278 0.19814946 2.598 -0.7715821862 0.634822309 -0.04076219723
-0.45590788 -0.37247375 3.3990002 -0.5217074752 0.8235499859 0.222680822
0.11311104 -0.21738528 2.016 -0.3020009398 -0.3475930989 0.8876792789
-0.02549522 0.016625106 1.6859999 -0.195037812 0.872518301 0.4479643404
-0.064841777 -0.037956163 1.8040001 -0.2912473679 0.9190586805 0.2655298114
0.11225717 -0.41621503 1.9700001 -0.6107379198 -0.1590363532 0.7756975293
0.30095878 -0.16655001 3.3330002 -0.1192726865 0.9193217158 0.37499547
0.16503775 0.13480562 1.6960001 -0.5770977736 -0.2516490817 0.7769368887
0.46904734 -0.14454918 3.3650002 -0.1539242566 0.9119104147 0.3804296553
-0.0025671723 0.0025671723 1.7570001 -0.3589033484 0.8536883593 0.3773653507
-0.026566505 -0.34453434 1.8940001 -0.6766181588 -0.1002416089 0.7294788957
0.10556469 0.06839402 1.6960001 -0.4070667326 0.8126250505 0.4170578122
-0.3066431 -0.22066839 3.2690001 -0.4682438672 0.8458603621 0.2554758787
0.40506998 -0.49110252 4.0890002 -0.1750398874 0.9046564102 0.3885328472
0.087631598 -0.1126692 2.0400002 -0.1388040632 0.7312240601 0.6678658128
0.24465752 0.0016419967 1.8730001 -0.05067472905 0.8616806865 0.5049143434
0.36464423 -0.37133497 3.8160002 -0.1831858009 0.8784254193 0.4413748682
0.036494538 -0.32458672 1.9589999 -0.6405567527 -0.1691942215 0.7490395904
-0.13597451 -0.035810083 1.7760001 0.3368467391 0.7680248022 0.5446761847
-0.018061964 -0.42527711 1.8730001 -0.6696109176 -0.05159573629 0.7409177423
0.075291462 -0.012602434 1.8430001 -0.2030708939 0.8632714748 0.462087214
0.12245426 -0.28416419 2.0050001 -0.5755167007 -0.3147681355 0.7547857761
0.40596682 -0.39581764 3.8590002 -0.2146996111 0.8914850354 0.3989467323
0.18581475 -0.32244325 2.0780001 -0.9449386001 -0.140400812 0.2955988944
-0.068850771 0.42042917 1.6710001 -0.9766783714 0.1648243964 -0.1375946999
-0.066191837 -0.14765872 1.9360001 -0.5514090657 -0.6560521722 0.5153092146
0.033944532 -0.06279739 1.9360001 -0.1073016524 0.896187067 0.4305056632
-0.13392486 -0.15679008 1.863 -0.5539296865 -0.7139511704 0.4282938242
-0.10726087 -0.42558345 1.794 -0.6444410086 0.1435104907 0.7510662675
0.29732323 0.11228697 1.8040001 -0.6422539949 -0.01949145459 0.7662440538
0.014508834 0.05295724 1.6550001 -0.3026437759 0.8104777336 0.50153023
0.0058719134 -0.24143925 1.97 -0.4870173335 -0.2725245655 0.8297858238
0.18376072 -0.06010865 1.9590001 -0.07598231733 0.9098058939 0.4080195725
0.21674708 0.07276509 1.766 -0.2496728003 0.8313637972 0.4964853525
-0.085227996 -0.32435113 1.8430002 -0.6670577526 -0.01909033023 0.7447613478
0.13628572 -0.01477797 1.8730001 -0.1485704035 0.9160808325 0.3724550009
0.4236702 -0.43767583 3.9940002 0.02807052992 0.9121814966 0.4088238776
-0.041970417 -0.23503433 1.9150001 -0.702750206 -0.195434466 0.6840668917
-0.17593648 -0.27869585 1.7760001 -0.1722560078 -0.5122745037 0.8413695693
0.29402786 0.030864803 1.853 -0.2746758461 0.7654719353 0.5818985701
0.49110252 -0.46600968 4.0890002 -0.1580499113 0.920370996 0.3576833904
0.32042867 -0.32042867 3.6920002 -0.005837386474 0.8810203671 0.4730423093
0.066899307 0.083263166 1.647 -0.4410549104 0.612128973 0.6563296914
-0.20917442 -0.17614688 1.794 -0.5799377561 -0.414722383 0.701197207
0.13407354 0.03746628 1.766 -0.2527519464 0.8467561007 0.4681031406
0.37933016 -0.25393176 3.5760002 -0.2116480619 0.8619585037 0.4606871009
0.13238367 -0.052614026 1.9360001 -0.1299351007 0.8707997203 0.4741568565
-0.03369293 0.092289329 1.6710001 -0.5717757344 -0.2542074621 0.7800327539
0.43438509 -0.12740625 3.4329998 -0.1539242566 0.9119104147 0.3804296553
0.26646459 -0.035076018 1.936 -0.03320860863 0.8976675272 0.4394202828
0.15467906 -0.40603256 2.0050001 -0.2315329164 -0.3345179856 0.9135043621
0.063972779 -0.38598335 1.9589999 -0.5524281263 -0.3607478142 0.751454711
0.02316767 -0.45428777 1.9150002 -0.6482269764 0.03030447662 0.760843873
-0.063428581 -0.071774453 1.904 -0.2805570066 0.900998354 0.3308923841
0.21396892 0.12595333 1.7310001 -0.5667786598 -0.1040406749 0.8172743917
0.34558463 -0.42770374 3.9030001 -0.1647720039 0.8969284892 0.4103285372
0.034481931 -0.033387266 1.8730001 -0.1653160155 0.9298077226 0.328828603
0.18380544 -0.086600639 2.016 -0.1277913004 0.8388034105 0.5292240977
-0.13263352 0.01372071 1.7390001 0.864961803 -0.05022224411 0.4993183613
-0.10178889 -0.2439702 1.8430001 -0.628700614 -0.2008861452 0.7512524724
-0.19465013 -0.38521871 1.766 0.4120156765 0.10554979 0.9050427079
-0.054257073 -0.46557122 1.853 -0.5722192526 0.5501888394 0.6081590056
-0.083871447 0.014152907 1.6868572 -0.01729139313 0.8632287979 0.5045166612
0.085010804 -0.060967345 1.9590001 -0.03829533234 0.8911408782 0.4521077573
-0.0017471967 -0.1624893 1.9930001 -0.543964684 -0.536283195 0.645370245
0.1360867 -0.33403105 2.016 -0.4884240329 -0.0433039926 0.8715312481
0.28979445 0.42491332 2.0280001 -0.7824668884 -0.403306067 0.4744362533
-0.082595147 0.34689963 1.7130001 -0.6834508181 -0.409722954 0.6041705608
0.11288399 -0.48105943 1.9810001 -0.517085135 0.1825188994 0.8362474442
0.14938313 -0.21417581 2.0530002 -0.6996247768 -0.6059926152 0.3785473704
-0.053607289 -0.050358366 1.853 -0.2777173519 0.8978242874 0.3417376578
-0.037303042 0.14701788 2.503 0.01300715469 0.8065821528 -0.5909788609
-0.090412386 0.44593227 1.748 -0.8669555187 0.1010935232 -0.4880248308
0.19187427 0.037745759 1.794 -0.379555434 0.7987219691 0.4668842554
0.41532958 -0.41879067 3.9480002 -0.1045313329 0.9076216221 0.406566292
0.4649384 -0.43494239 3.9480002 0.1209732071 0.9191545844 0.3748603761
0.34134507 0.027764909 1.863 -0.3845808208 0.5644299388 0.7304220796
-0.15465803 -0.32540464 1.7760001 -0.5102423429 -0.3644685447 0.778983593
0.28152046 0.067627817 1.794 -0.3258466423 0.7148579955 0.6187099814
0.084229916 0.03620743 1.7390002 -0.2820849717 0.8283081651 0.4840802252
0.19370107 -0.006206274 1.8630002 -0.2013576329 0.8321157098 0.5167577863
0.40385753 -0.46408191 4.0410004 -0.1280883998 0.9119583964 0.389775902
0.12721047 -0.18989389 2.1030002 -0.9867351055 -0.132164225 0.09426769614
-0.14553104 0.01095395 1.7850001 0.466592133 0.2222262472 0.8561000228
0.076375209 -0.42600387 1.936 -0.3480666876 0.0155250961 0.9373412132
-0.1153902 -0.057536162 1.8130001 -0.1320038438 0.9035215974 0.4077053964
0.40022552 -0.23268925 3.5390003 -0.1528388858 0.8874878287 0.4347477555
0.11483945 0.0043378719 1.8230001 -0.2081859857 0.8650296926 0.4564890563
-0.14941029 -0.2437747 1.794 -0.3984656632 -0.2874913812 0.8709614277
0.043755013 -0.0026358443 1.8040003 -0.3572503626 0.881880641 0.3076664805
0.42400157 -0.30100876 3.6920002 -0.1868758053 0.8843582869 0.4277707338
0.0043175835 -0.075125955 1.9700001 -0.2009958774 0.8986490369 0.389910996
0.4150438 -0.26296669 3.6140001 -0.01123079285 0.8689610958 0.4947529733
-0.045438949 -0.014632882 1.7570001 -0.2987228632 0.8772501349 0.3757616878
-0.17804223 -0.015481934 1.766 0.168316856 0.1002610549 0.9806208014
0.14717743 0.094793081 1.6830001 -0.532612443 0.5198067427 0.6679258347
0.041588191 0.01386273 1.7570001 -0.2739828527 0.8974837065 0.3456246555
-0.3872605 -0.28417677 3.1780002 -0.5224711895 0.8115770221 0.2614699304
0.36724794 -0.35401377 3.7740002 -0.1705176979 0.8796232343 0.4440570772
0.072799861 -0.21723479 1.9930001 -0.6637684703 -0.3433198631 0.6644869447
0.087006971 -0.084370404 2.0050001 -0.1109360605 0.8597720265 0.4984829426
0.028852854 -0.49389297 1.9360001 -0.5003499985 0.1777600795 0.8473790288
0.402127 -0.124399 3.3000002 -0.1062660441 0.9184054136 0.3811023533
0.022451432 -0.19860883 1.9700001 -0.316970706 -0.07346561551 0.9455857277
0.24395704 -0.25663015 3.6140001 -0.2417473793 0.8471779227 0.4731255472
0.40375233 -0.40375233 3.9030001 -0.2042501867 0.8917176127 0.4038831294
-0.17554723 -0.20401436 1.804 -0.2667118907 -0.4324406683 0.8613128662
0.0084861331 -0.35132593 1.9360001 -0.4966976047 -0.1339666992 0.8575222492
-0.086982869 -0.38746914 1.8040001 -0.7094678283 -0.08302410692 0.6998302937
-0.10785875 -0.32357627 1.8040001 -0.7035871148 -0.1149305701 0.7012532949
0.16734314 -0.30581641 2.0400002 -0.7249664664 -0.1656907499 0.6685582995
-0.16471033 -0.17274497 1.8330001 -0.3223167062 -0.5172008872 0.7928525805
-0.077031478 -0.43629855 1.8230002 -0.6936916709 0.1071508452 0.7122573853
0.083865441 -0.30226502 1.9930001 -0.09191717952 -0.2136312425 0.9725805521
0.12405097 -0.37564731 1.9930001 -0.6042215228 -0.2658397555 0.751162827
-0.21438445 -0.29575667 1.7850002 0.6125056744 -0.1576128006 0.7745934725
-0.047006864 -0.18634863 1.9150001 -0.609967649 -0.3781718016 0.6963659525
-0.093473703 -0.15523313 1.904 -0.5143201351 -0.6169085503 0.5957336426
0.4656871 -0.44467863 3.9940002 0.02807052992 0.9121814966 0.4088238776
-0.043170571 -0.302194 1.8940001 -0.6463045478 -0.2148384452 0.7322123051
-0.14626484 -0.45609462 1.794 -0.1168717667 0.7316193581 0.6716204882
-0.024426565 0.04741627 1.6390001 0.1858315468 0.4472027719 0.8749150634
0.065225407 0.054594595 1.6832001 -0.3892136812 0.7805649042 0.4891126156
0.22359997 -0.039258011 1.9470001 -0.1564845741 0.8843001723 0.4399156272
0.38491103 0.25508896 2.598 -0.7339199781 0.6784793139 -0.03205125034
0.44318041 -0.37551928 3.8590002 -0.2132779062 0.8671253324 0.4501179457
-0.047647711 0.12417282 1.6470001 -0.09549412876 -0.06912010908 0.9930273294
0.14581859 -0.29473972 3.5390003 -0.2373904288 0.8282247782 0.5076313019
-0.064683974 -0.18561488 3.2080002 -0.2278217971 0.9420859218 0.246112451
0.20327663 0.021693554 1.8330001 -0.3061732352 0.8005952239 0.515077889
-0.025704743 -0.3850995 1.8830003 -0.5107727051 -0.4259736538 0.7467647791
0.065031387 0.12411095 1.6380001 -0.237567082 0.1096295491 0.9651648998
-0.057163049 -0.34787798 1.863 -0.7956613302 -0.2039069831 0.5703902245
-0.13624102 -0.40407845 1.7659999 -0.5006246567 0.07141396403 0.8627137542
0.026190195 -0.27607042 1.9589999 -0.565022409 -0.2590419352 0.7833561897
-0.10559011 -0.19493559 1.8529999 -0.7373603582 -0.3622421324 0.5701581836
0.12622948 -0.10222811 2.0280001 0.01869359426 0.8017318249 0.5973915458
-0.070982821 -0.23440839 1.8830001 -0.7040906549 -0.1707855761 0.6892667413
-0.028309319 -0.020445621 1.794 -0.3519822061 0.9070729017 0.2309270799
-0.15865125 -0.36351159 1.7570001 -0.2546769083 -0.09040572494 0.962790966
-0.43273932 -0.30091146 3.2690001 -0.527118504 0.8125754595 0.2487310767
-0.094974555 -0.036848053 1.7760001 -0.149720192 0.9015243649 0.4060020447
-0.054813143 0.0022525948 1.7130001 -0.1691063643 0.8705682158 0.4620757401
0.36537009 -0.40596682 3.8590002 -0.1731887907 0.8845072389 0.4331888556
0.19281845 0.10313545 1.705 -0.6814296246 0.2676753402 0.681178093
0.1097876 -0.19257824 2.0530002 -0.5588079095 -0.7059485912 0.4351669848
0.094916701 -0.25486889 2.0050001 -0.6072079539 -0.1980063915 0.769475162
-0.05420725 0.035122056 1.6630001 -0.2321878076 0.648840189 0.7246345282
0.44450158 -0.48393315 4.0890002 -0.1520961523 0.9236729741 0.3517029285
0.086600639 -0.18734017 2.016 -0.5269224644 -0.4667795599 0.7102602124
0.23535343 -0.021699255 1.9039999 0.01459846925 0.8446286917 0.5351534486
0.12747085 0.063735418 1.7310001 -0.3135507405 0.7750083208 0.5486784577
-0.051982827 -0.42398492 1.853 -0.6399126053 -0.1998970658 0.7419926524
0.35926852 -0.31395537 3.6920002 0.009223138914 0.8875138164 0.4606887698
0.0030034599 0.01952249 1.7130001 -0.3827343285 0.8525212407 0.3559802771
-0.073889852 -0.49314633 1.8730001 -0.4606856108 0.642147541 0.6127114892
-0.093710415 -0.28597829 1.8430001 -0.6581186652 -0.1971362829 0.7266478539
-0.015432402 -0.041423813 1.853 -0.3016097844 0.8621822596 0.4070298374
0.34610361 -0.14747024 3.4330001 -0.1832322478 0.9184595942 0.3505110145
-0.013577813 -0.069586292 1.9360001 -0.3254708052 0.8337557316 0.4460046291
-0.036065191 -0.15585315 1.9589999 -0.5528568625 -0.5045170784 0.6631830931
-0.098088481 0.47331583 1.7760001 -0.945284307 0.0134309018 -0.325971067
0.13328993 -0.44676006 1.9810001 -0.6741117835 0.04030430689 0.7375288606
-0.01250277 0.083798304 1.636 0.5046403408 -0.065839082 0.8608155251
0.15523313 -0.031714294 1.9039999 -0.1806723773 0.8419903517 0.5083401203
0.40478855 -0.37802568 3.8160002 -0.1837495863 0.8781329989 0.4417222738
-0.097487964 -0.35639039 1.8230001 -0.8190822005 -0.3232549429 0.4739310145
0.10059487 0.088931695 1.6630001 -0.3625057936 0.5843300819 0.7260495424
-0.20186564 -0.35365611 1.7850001 0.5687162876 0.06293091923 0.820122838
0.096877806 -0.018061964 1.8730001 -0.1370435059 0.92051512 0.3658838868
0.0087885829 -0.094916701 2.0050001 0.1008940637 0.900519371 0.4229482114
0.14299235 -0.24407752 2.0280001 -0.586661756 -0.1733042896 0.7910711765
-0.43591374 -0.27279761 3.2080002 -0.5224711895 0.8115770221 0.2614699304
-0.0067889066 -0.24949232 1.9360001 -0.7983995676 -0.308815062 0.5169056058
-0.0029797901 -0.2652013 3.3990002 -0.2429810315 0.8590036631 0.4506361783
-0.085167289 -0.049814831 1.8330001 -0.3488002121 0.8930088282 0.2843828797
0.49575412 -0.11785118 3.3330002 -0.1539242566 0.9119104147 0.3804296553
-0.17381757 -0.06985192 1.853 0.2511556149 0.8515160084 0.4602622688
-0.071093284 0.097209185 1.6550001 0.01359674521 -0.3337805867 0.9425527453
-0.46247467 -0.38422516 3.4329998 -0.5391442776 0.8114056587 0.2257085443
0.042430665 -0.36490369 1.9360002 -0.5010557175 -0.244253993 0.8302307725
-0.0016691734 -0.41562417 1.904 -0.8195212483 -0.1716621816 0.5467330217
0.25235552 0.078957863 1.766 -0.4482583106 0.696754992 0.5599973202
0.15491489 0.028309319 1.794 -0.1913239062 0.837505579 0.5118393898
0.17494583 0.052638575 1.7659999 -0.2532810271 0.8281223178 0.500062108
-0.43105701 -0.33269501 3.3000002 -0.4700701833 0.8428941369 0.2618463039
0.0250376 -0.048406024 1.9039999 -0.1484428346 0.9233692288 0.3540536463
0.042211499 -0.42380348 1.9260001 -0.2648578286 -0.004671371542 0.964276135
0.3245087 0.083355218 1.794 -0.01993814856 0.5394265056 0.841796577
0.29645929 0.053538471 1.8230001 -0.3281021714 0.690335989 0.644814074
0.23281649 0.096916124 1.7390002 -0.3771453798 0.3209550679 0.8687630296
-0.0067152665 -0.32401159 1.9150001 -0.8127200007 -0.1227981001 0.5695672631
-0.1136309 -0.0025028833 1.7129999 0.2694282234 0.7403333783 0.6158854365
0.13770154 0.13037699 1.6710001 -0.5621618032 0.1014009938 0.8207873702
0.47378659 -0.15196928 3.3990002 -0.1786276549 0.9009420276 0.3954688609
-0.12259307 -0.019921374 1.748 0.2813231647 0.8141145706 0.5080105662
0.094456442 -0.44480401 1.9589999 -0.5854467154 0.2180968076 0.7808238864
0.045153599 -0.23445134 1.9810001 -0.1759961694 -0.1621901095 0.9709375501
0.11706217 -0.31624261 1.9930001 -0.6822493672 -0.02018212713 0.7308409214
-0.10626603 -0.081359923 1.8940001 -0.2083133459 0.9322151542 0.2959398925
0.2439702 0.022619752 1.8430001 -0.08688802272 0.8669402599 0.4907801151
-0.15182464 -0.052189719 1.8040001 0.3643556535 0.7081070542 0.6048382521
-0.070966169 -0.20154391 3.2380002 -0.2317989469 0.9268746972 0.295249939
-0.40404046 -0.2859219 3.2080002 -0.5224711895 0.8115770221 0.2614699304
0.033677354 0.075413287 1.6373847 -0.2978843153 0.5501062274 0.7801589966
0.014136875 0.035651777 1.6845714 -0.3050684333 0.8645558357 0.3993450999
-0.025797671 0.00151751 1.7310001 -0.3045429885 0.9043845534 0.2989015579
0.063114084 -0.34562474 1.9589999 -0.5136986375 -0.3736777604 0.7723202705
0.037161022 -0.017772663 1.8430001 -0.1698337197 0.886205554 0.4310408533
0.15163949 -0.36513656 2.016 -0.5325267911 -0.1585781276 0.8314253688
0.21403159 -0.072508663 1.9930001 -0.2089916468 0.8500425816 0.4834770858
0.27650285 0.002476145 1.8830001 -0.2845519781 0.7870206833 0.5473834276
-0.15255578 -0.29410234 1.794 -0.5452402234 -0.08576070517 0.8338814378
-0.073971376 0.43326098 1.7220001 -0.8316938877 0.103527531 -0.5454973578
0.11481002 0.020445621 1.794 -0.1907420903 0.8845658898 0.4256297052
-0.027913943 -0.46304306 1.8730001 -0.4868601561 0.3043701947 0.8187343478
0.065849937 -0.052342255 1.9260001 -0.1694294661 0.8872230649 0.429102391
-0.035052639 -0.26539856 1.904 -0.6580702066 -0.2006804496 0.7257210016
0.30384827 -0.17404902 3.3650002 -0.1192726865 0.9193217158 0.37499547
0.28180975 0.10431632 1.7760001 -0.6235814691 0.269942373 0.733673811
0.34682292 0.063354068 1.853 -0.5036718249 0.6196275949 0.6019769907
0.094986834 -0.38512847 1.9700001 -0.4148993194 -0.3430951834 0.842700541
0.048370961 -0.45740259 1.9360001 -0.3624747097 0.1647017747 0.917325139
0.053969786 -0.29489094 1.9700001 -0.5339332819 -0.09051275253 0.8406680226
-0.066962428 -0.30541402 1.863 -0.8230495453 -0.08002895117 0.5623031259
0.19575047 0.084035069 1.737667 -0.4742586315 0.6543781757 0.5889549851
-0.19973798 -0.26579306 1.794 -0.04658301547 -0.2967892289 0.9538061619
0.074701644 0.0015893966 1.8130001 -0.1643115878 0.9000110626 0.4037100673
-0.0040324158 -0.45708624 1.8940001 -0.707990706 0.1178276539 0.6963230968
-0.19497591 -0.16780715 1.8230001 -0.07595471293 -0.7300425172 0.6791676879
0.11743827 -0.067354299 1.9700001 -0.02834115736 0.9098639488 0.4139376879
0.15370595 -0.063900232 1.9700001 -0.08023000509 0.8355202675 0.5435706377
0.31362134 0.014777971 1.8730001 -0.1147969738 0.8263659477 0.5513084531
-0.41685411 -0.24293485 3.1490002 -0.5224711895 0.8115770221 0.2614699304
-0.035159595 -0.031963266 1.8230001 -0.3467773199 0.8809429407 0.3220015168
0.01095395 -0.0046945498 1.7850001 -0.2203058749 0.9204311967 0.3229113221
0.16395208 -0.047861792 1.9360001 0.0426559411 0.8773931265 0.4778721333
0.43454701 -0.39348745 3.9030001 -0.07271637768 0.8959461451 0.4381698668
0.16365752 -0.4344171 2.016 -0.669754684 0.3214488626 0.6694021821
0.014850733 -0.31398693 1.936 -0.4631638527 -0.07903622091 0.8827414513
0.16534282 -0.33601931 2.0280001 -0.4295203388 -0.1909415871 0.8826401234
0.17198008 -0.23715149 2.0650001 -0.7521904111 -0.3657849133 0.5480975509
-0.1262549 -0.24360575 1.8230001 -0.6870004535 -0.2658156753 0.6762931347
0.14400828 -0.28623867 2.0280001 -0.4764889479 -0.2224698812 0.8505676985
-0.06449461 -0.086558558 1.9360001 -0.285205096 0.8318850994 0.476051718
-0.04457061 -0.057776716 1.883 -0.2492804974 0.9239658713 0.2900797129
-0.10672978 -0.16912566 1.8730001 -0.5981244445 -0.5900845528 0.5422613025
0.11415953 -0.038612783 1.9150001 -0.0008032800397 0.8965616226 0.4429183006
0.15376031 -0.094553754 2.016 0.04332678765 0.8762388229 0.4799252748
0.007554675 -0.48601741 1.9150001 -0.6516274214 0.2049096823 0.7303380966
0.10434823 0.028796395 1.766 -0.2685182691 0.8802880645 0.3911404908
-0.0070105284 -0.36621663 1.904 -0.6460720897 -0.3089125156 0.6979712844
0.22595032 0.052948911 1.794 -0.2559452057 0.7728296518 0.5807119608
-0.07279519 -0.065132529 1.8730001 -0.2435963005 0.9183591604 0.3118930161
-0.091605529 0.38894805 1.7130001 -0.4190157652 -0.07465703785 0.9049044847
0.16472057 -0.0048733898 1.853 -0.1734144837 0.8713237047 0.4590451419
0.054956481 -0.066978209 1.9590001 -0.1806878448 0.8740730286 0.450941503
-0.043745227 -0.49110207 1.8830001 -0.3045386374 0.4940199554 0.8143712282
-0.0084861331 -0.21894224 1.9360001 -0.7538631558 -0.1305265129 0.6439356804
-0.16565669 -0.39478931 1.7659999 -0.0146614043 0.1350167543 0.9907348156
-0.11650432 -0.45283806 1.804 -0.5343225002 0.4834103584 0.6934074163
0.26539853 -0.016691733 1.9040002 -0.06935858727 0.8138152361 0.5769698024
0.063554384 -0.032189887 1.8830001 -0.1595554501 0.9293596745 0.3329153955
-0.21281959 -0.20499535 1.785 -0.6346186996 0.04582332447 0.7714657187
-0.13506629 -0.43439183 1.7760001 -0.36404863 0.4284165502 0.8269993067
0.074262433 -0.31950116 1.9700001 -0.2661290169 -0.2717124522 0.9248501062
-0.09309411 -0.22048604 1.863 -0.7748318911 -0.3079613149 0.5520827174
-0.042075615 0.068191513 1.6550001 -0.4877820611 -0.1600674838 0.8581649065
-0.042211499 -0.069226861 1.9260001 -0.2473526299 0.8489533663 0.4670062661
0.16598368 -0.078623846 1.9930001 -0.1280901432 0.833724916 0.5371179581
0.16591354 0.086693563 1.705 -0.3174988627 0.7393497229 0.5937646627
-0.13176826 -0.072311848 1.8330001 0.008491928689 0.9470626116 0.3209365606
-0.014578965 0.032802675 1.6630001 -0.2639978826 0.7965191007 0.5439323187
0.27157116 0.027317809 1.8330001 -0.2115164697 0.7831795216 0.5847141743
0.025181811 -0.16585262 1.9810001 -0.4295152724 -0.5643588305 0.7049934268
0.045194793 0.062689558 1.6630001 -0.2922084033 0.7573096156 0.5840346217
0.056555521 -0.10250688 2.016 -0.2127305418 0.8229387403 0.5267993808
-0.0662646 0.36369658 1.7310001 -0.8070878983 -0.101436913 0.5816525817
-0.17360103 0.01401264 1.7760001 0.2837386131 -0.06379568577 0.9567771554
0.046249427 -0.39502949 1.936 -0.4790287912 -0.3304659724 0.8132181168
0.21721959 0.01143261 1.863 -0.2846115828 0.758338213 0.5864464045
-0.054753095 0.017757758 1.6880001 -0.0668354705 0.8625454903 0.5015459061
-0.18423502 -0.30499408 1.7659999 0.09067638218 -0.02180052362 0.995641768
-0.076443955 -0.46394363 1.8330001 -0.5419879556 0.3395012021 0.7687574029
0.08559861 0.04955709 1.7129999 -0.3171276748 0.8820392489 0.3484777808
0.32152364 0.046855204 1.8430001 -0.3440026045 0.6402568221 0.6868284941
-0.06383536 -0.02958224 1.7760001 -0.2690146863 0.9048823714 0.3298771679
0.054994762 -0.19740224 1.9810001 -0.3301937878 -0.3985506296 0.8556456566
-0.045030486 -0.39407507 1.863 -0.7189115286 -0.2909168005 0.6312952042
-0.17142867 -0.033027541 1.794 0.2586514056 0.6920730472 0.6738948822
0.1347491 -0.0029082538 1.8430001 -0.09970086068 0.8729400635 0.477530539
0.13452451 0.074735835 1.705 -0.2967790961 0.876226306 0.3796703815
-0.046841525 0.095694654 1.6390002 -0.4872146547 -0.252473861 0.8359897137
0.17922135 -0.29689193 2.0650001 -0.9325978756 -0.1222272068 0.3395905495
-0.11611187 -0.39528111 1.7850001 -0.6774000525 -0.05569681525 0.7335032225
0.23752406 0.12412548 1.748 -0.4134103954 0.02523651533 0.910194993
-0.12925661 -0.3358168 1.7850001 -0.617708385 -0.2238730639 0.7538681626
0.044352319 0.10444255 1.6320001 -0.1245612949 0.11372675 0.9856727123
0.00492599 -0.037765924 1.8730001 -0.2657390833 0.9100916386 0.3179873228
0.19433245 -0.046673734 1.9360001 -0.2463220209 0.8366482854 0.4892290533
-0.13623196 -0.17586957 1.8329999 -0.41108796 -0.3814543188 0.8279488683
0.18771625 0.13065051 1.7130001 -0.6361243129 -0.4257839322 0.6434702277
-0.072189115 -0.17291811 1.9150001 -0.5834255815 -0.4039539099 0.7045820355
-0.058114234 -0.20755084 1.8940001 -0.6614508033 -0.3265425563 0.6751687527
-0.051173665 -0.32850191 1.8830001 -0.6320101619 -0.1453055739 0.761215806
0.12230378 -0.34419775 1.9930001 -0.7220833302 -0.1330815405 0.6788851023
-0.036560506 -0.18280253 3.2080002 -0.1725882441 0.9302809834 0.32371369
0.0622258 -0.17956588 2.0280001 -0.3800351322 -0.7890262008 0.4827121198
0.0880787 -0.47320712 1.9700001 -0.6241365075 0.1215157509 0.7718079686
0.12754536 -0.40360245 1.9930001 -0.6648421884 -0.1538942158 0.7309592962
-0.18401057 -0.23433825 1.794 0.05364276096 -0.1789461225 0.9823954105
0.16342556 -0.01485687 1.8830001 -0.08113881946 0.9202070832 0.3829300106
-0.075937741 -0.35383758 1.8430002 -0.6057389379 -0.191282168 0.7723286152
0.07511127 -0.075111277 1.9810001 -0.1235601753 0.8793022633 0.459956944
0.12333806 0.10496856 1.6630001 -0.3604072034 0.2870772779 0.8875208497
0.21587916 -0.052674517 1.9700001 -0.2555558085 0.8477019072 0.4648577273
0.095044695 -0.049219575 1.9360001 -0.01323498692 0.8865653276 0.4624140561
0.17143393 -0.38705185 2.016 -0.1954515874 -0.4643959403 0.8637911081
0.025797671 0.022762651 1.7310001 -0.2819469869 0.8828708529 0.375559479
0.21419246 -0.0074718297 1.8940001 -0.3037568629 0.80982095 0.5019181371
0.03584427 -0.29870224 1.9470001 -0.6219159365 -0.1427099407 0.769970417
-0.091727391 -0.0474452 1.8040001 -0.305885762 0.8958027959 0.3224456906
-0.18423502 -0.34524709 1.7659999 0.1996204257 -0.1221953034 0.9722242355
-0.0017270333 -0.18651959 1.9700001 -0.5125223398 -0.3528539836 0.7828249335
-0.07775069 0.46802866 1.7390001 -0.8788539171 0.0142834112 -0.4768771529
0.25360128 -0.047514457 1.9590001 -0.0400233306 0.853865087 0.5189533234
0.44647932 -0.41532958 3.9480002 0.1099793017 0.9043782949 0.4123159349
0.28760752 0.43447095 2.0530002 -0.7867103219 -0.3978753984 0.4719979465
-0.12739193 -0.30825704 1.794 -0.4980827272 -0.2296861708 0.8361566067
0.15022559 -0.309288 2.016 -0.5724717975 -0.1563908309 0.8048713803
-0.10388062 -0.30524918 1.8230002 -0.7367300391 -0.2806659937 0.6151873469
0.15416077 0.055473365 1.7479999 -0.2569178045 0.8183953166 0.5140256286
-0.035506129 -0.44487092 1.8529999 -0.6845829487 0.1284464449 0.7175288796
0.13234159 -0.19851241 2.0400002 -0.4564053714 -0.7738922238 0.4390728772
0.085716955 -0.21385056 2.016 -0.5702367425 -0.1987355798 0.7970785499
0.054225337 0.026500056 1.7374001 -0.3539964855 0.840598762 0.4099758267
0.12453049 -0.026566507 1.8940001 -0.1656749547 0.8622583747 0.4786045551
-0.14170791 -0.0030806067 1.7570001 0.8526208997 0.3292459846 0.405752033
0.21520431 0.038463399 1.8130001 -0.1537030488 0.8394297957 0.5212801099
0.27284643 0.048211697 1.8130001 -0.2380189896 0.6944903135 0.678992033
-0.042430665 -0.17141989 1.9360001 -0.7134920359 -0.4490338266 0.537864089
0.11294623 -0.18581477 2.0780001 -0.9760077 0.03180912882 0.2153998464
0.065024123 0.020900609 1.766 -0.2977457643 0.895388484 0.3310996294
-0.09059561 -0.41165373 1.8130001 -0.752974391 0.05150315166 0.656031251
0.085910261 0.1032367 1.6470001 -0.4800783992 0.4090449512 0.7760199308
0.051744372 -0.041729335 1.904 -0.1531616002 0.9131991267 0.3776359558
-0.069097988 -0.40976715 1.8330001 -0.7189450264 -0.09256654233 0.6888754964
0.18297933 -0.32816291 2.0530002 -0.8626122475 -0.2683275342 0.4288361371
0.4286558 -0.47116712 4.0410004 -0.1167474315 0.9159725308 0.383880645
0.019103443 -0.2222946 1.9810001 -0.3015919924 -0.1182690039 0.9460732937
-0.17182054 -0.25507057 1.7850001 -0.006841298193 -0.3256157041 0.9454774261
0.25635663 0.062909603 1.794 -0.3072035611 0.7679156661 0.5620778203
0.036267698 -0.081170566 1.9700001 -0.03338687494 0.8243549466 0.5650878549
-0.15651497 -0.066526905 1.8329999 0.2267511338 0.8629268408 0.4515984952
0.090464108 -0.40794194 1.9470001 -0.5844678283 -0.4659326673 0.6643072367
-0.069880851 0.33304918 1.6960001 -0.08557698131 -0.5301414132 0.8435797095
0.11440863 -0.014156037 1.8529999 -0.1449416429 0.9013391733 0.4081415832
-0.012089233 -0.1606141 1.9700001 -0.6871734262 -0.39277035 0.6111662388
0.13600694 0.013850455 1.813 -0.1064969301 0.8667047024 0.4873206019
0.1062257 0.05007783 1.7310001 -0.3581655025 0.796168685 0.4876811802
-0.08559861 0.0015017301 1.7129999 -0.05836826563 0.846382618 0.5293672085
-0.028115576 0.15355431 2.467 -0.02536164224 0.8404965997 -0.54122293
0.043175831 -0.25732797 1.9700001 -0.4605919421 -0.2259091884 0.8583822846
0.0099659469 0.088269815 1.6240001 -0.03685122728 0.1941667199 0.9802761078
0.14152293 -0.4245688 1.9930001 -0.7138215303 -0.0896230489 0.6945693493
-0.15735027 -0.1891382 1.8130001 -0.4219019711 -0.60067904 0.6791049242
-0.021824617 -0.302187 1.9150001 -0.7089149356 -0.2580518723 0.6563907266
-0.11087817 -0.26514345 1.8330001 -0.6495180726 -0.1536372751 0.7446622849
0.13215311 -0.19732451 2.0650001 -0.4894942045 -0.7919422984 0.3649970293
-0.041269083 -0.36151716 1.8830001 -0.6667451262 -0.1619728357 0.7274721861
0.017222293 -0.42312807 1.9260002 -0.5335481763 -0.1680407077 0.8289081454
0.1858051 0.0064627863 1.8430001 -0.2670261264 0.8126704097 0.5179419518
0.011684213 -0.38390988 1.904 -0.6686187983 -0.179670006 0.7215729952
0.18756108 -0.071203746 1.9810001 -0.09925663471 0.8793718219 0.465675056
-0.027578181 -0.20655493 1.9260001 -0.6956195235 -0.2902442813 0.6571695209
0.13139217 0.13139217 1.6470001 -0.4198932946 0.1853173673 0.8884520531
-0.081894815 -0.24428454 1.863 -0.7813770175 -0.1401689053 0.6081140041
0.19484837 0.065462895 1.7570001 -0.3948126435 0.7972570658 0.4566225708
-0.056037411 0.041668843 1.6390001 -0.2133264393 0.5722290277 0.7918621898
0.08661104 -0.27480906 1.9930001 -0.6261896491 -0.06693760306 0.7767920494
0.076663621 0.072757192 1.6710001 -0.3762848079 0.7290313244 0.5717718601
-0.0082538165 -0.40443704 1.883 -0.7785322666 -0.1382700056 0.6121837497
0.074694186 -0.36440402 1.9700001 -0.4574751556 -0.1657286137 0.873642087
0.1859594 0.023311151 1.8130001 -0.3713262081 0.7864477634 0.4935755134
0.11487842 -0.24566303 2.016 -0.4088105261 -0.1894102395 0.892747283
-0.064149082 0.14376821 1.6470002 0.2858358324 -0.1617292017 0.944532454
-0.067262247 0.41702595 1.705 -0.9808547497 0.1264662892 -0.1480886042
0.075102277 -0.45573425 1.9470001 -0.5852662921 0.06790979952 0.8079923391
-0.01089872 -0.01089872 1.7760001 -0.3517755568 0.9001498222 0.2568740547
0.30635619 0.073509589 1.813 -0.251724869 0.5999049544 0.7594396472
-0.048151795 -0.2474006 1.8940001 -0.7117639184 -0.1910000741 0.6759520173
0.24313824 -0.02870382 1.9260001 -0.01303182729 0.9030898213 0.4292539656
-0.00171739 -0.21467376 1.9590001 -0.7180600762 -0.1459478736 0.6805063486
-0.15884674 -0.21861085 1.794 -0.2486204207 -0.1959991306 0.9485632181
0.054769747 0.0078242496 1.7850001 -0.3403131068 0.8849678636 0.3178346157
-0.085156776 -0.025304984 1.7570001 -0.1182954982 0.8839609027 0.4523486793
0.0084861331 -0.059402931 1.9360001 -0.1894794554 0.8931973577 0.4077940881
0.11354849 -0.084018856 2.0050001 0.0150020076 0.8939282894 0.4479589164
-0.13442807 -0.26411164 1.804 -0.6141368747 -0.1161820889 0.7806007862
0.132552 -0.265104 2.016 -0.5444694161 -0.07614657283 0.8353171945
0.26621649 0.01143261 1.863 -0.1778329909 0.8177673221 0.5473865867
-0.11228697 -0.35425746 1.8040001 -0.7221667767 -0.1953458935 0.6635624766
-0.18307386 -0.41375467 1.7659999 0.05089550093 0.1140288562 0.9921728969
0.38228539 -0.38905153 3.8590002 -0.178073436 0.8859524131 0.4282267988
-0.085048355 0.41460165 1.7323335 -0.8276533484 0.005005990621 -0.561217308
0.00168846 -0.37652659 1.9260001 -0.6117183566 -0.4214964807 0.6694336534
-0.16430925 -0.01095395 1.7850001 -0.3315249979 0.302415669 0.89366436
0.017869096 -0.027615877 1.853 -0.1984251589 0.9014639258 0.3846949339
0.30201605 0.095455848 1.7850002 -0.5420790911 -0.03792457283 0.8394712806
-0.055424996 -0.011957358 1.7355716 -0.27236709 0.8875133991 0.3716667593
-0.015456509 -0.082434721 1.9590001 -0.3511434197 0.8639944792 0.3608487248
-0.073995046 0.024665019 1.6550001 -0.1585606933 0.8339322805 0.5285976529
0.12620191 0.083639018 1.6822859 -0.3129536211 0.7566131353 0.5741050243
0.28703821 -0.02870382 1.9260001 -0.1260205954 0.8972864151 0.4230791032
-0.094569102 -0.45377275 1.8130001 -0.4762587845 0.3763844967 0.7946774364
0.21359017 -0.034613431 1.9260001 -0.2478670925 0.8474851847 0.4693940878
-0.08479698 -0.2654373 1.853 -0.7985545397 -0.1850667447 0.572766006
0.011880587 -0.27495074 1.9360001 -0.6157320142 -0.3062333167 0.7260133028
0.20789887 0.10319068 1.7310001 -0.5468555689 0.1273692101 0.8274817467
0.036030497 0.044031709 1.6822859 -0.2873418033 0.834354341 0.4704121053
0.06491366 0.040759739 1.7220001 -0.3581713438 0.8690864444 0.3411774039
-0.11309876 -0.21488763 1.8430001 -0.5840524435 -0.2163163126 0.7823618054
