# .PCD v0.7 - Point Cloud Data file format
VERSION 0.7
FIELDS x y z normal_x normal_y normal_z
SIZE 4 4 4 4 4 4
TYPE F F F F F F
COUNT 1 1 1 1 1 1
WIDTH 512
HEIGHT 1
VIEWPOINT 0 0 0 1 0 0 0
POINTS 512
DATA ascii
-0.11481002 -0.086500697 1.794 -0.3248799741 0.8963073492 0.3018047512
0.29403663 -0.49950799 4.0410004 -0.05594440922 0.9665796757 0.2501879036
-0.46825922 -0.26421329 2.9840002 -0.279094547 0.8519012928 0.4431369901
0.4633157 0.11643536 2.7670002 -0.2497615665 0.8449584246 0.4729317427
0.38439292 -0.21454488 3.3990002 -0.235417977 0.8683698773 0.4364770055
-0.16302055 0.15878625 2.4150002 0.3860105574 0.8365541697 -0.3888096213
0.21795687 0.38142452 2.0050001 -0.9586856961 -0.2352235317 0.1599737257
0.12538806 -0.49564752 1.9810002 -0.5898845792 0.2902553678 0.7535170913
-0.48891699 0.20801196 2.0280001 0.8509629965 -0.157582894 0.5010285974
-0.17269894 0.42198613 1.7130001 -0.6667093635 -0.5080003738 0.5453753471
-0.0091208396 -0.36179331 3.4680002 -0.2244674414 0.8430799246 0.4887029529
-0.20459104 -0.48510331 1.7390001 -0.03732142597 0.5787981749 0.8146163225
0.27648225 0.020776123 1.8230001 -0.4233108759 0.6538586617 0.6271178126
0.30914775 0.28782719 2.4320002 -0.2336536944 0.8796488047 0.4142752588
-0.16334696 0.32487217 2.0780001 -0.2588944435 0.9084560871 0.3281481564
0.44003582 -0.33416253 3.7740002 -0.4820962548 0.5104637146 0.7120463252
0.44857982 -0.045663811 3.0640001 -0.2980296016 0.8596203923 0.4150073528
-0.29606962 -0.039016925 2.618 -0.236226052 0.8741220236 0.4243912101
0.021158351 0.10297064 1.6090001 -0.3833934367 -0.170686841 0.9076758623
0.11664576 -0.13962144 2.016 -0.1501955688 0.9047507048 0.398581773
-0.05384462 -0.32330489 1.8940001 -0.6115846038 -0.3383710086 0.7151708603
-0.35154334 -0.33466926 3.2080002 -0.3179554343 0.7989667654 0.5104473233
-0.38678357 0.16232885 2.286 0.871296525 0.4463239014 0.2040522844
0.22656573 -0.40458167 3.6920002 -0.2821345627 0.8512328863 0.4424959123
-0.25337991 -0.26339188 1.7570001 0.1399635077 -0.2211138457 0.9651522636
0.49493444 -0.46032363 3.9480002 -0.2250086069 0.9059066176 0.35875386
-0.15307915 0.21431081 1.6630001 0.142169401 -0.1364067048 0.9803984165
-0.0060121799 0.21844254 2.286 -0.196374774 0.9176824689 0.3453922868
-0.020251 -0.23433299 3.3000002 -0.2283682525 0.8206457496 0.5238209963
0.1896046 -0.28591168 3.4330001 -0.2141631842 0.8449327946 0.4901251495
0.078366987 -0.016088588 1.7760001 -0.2876073718 0.8322211504 0.4740146995
-0.42935538 -0.089752257 2.7670002 -0.2396642119 0.876057148 0.4184315503
0.28261542 0.14696002 2.5790002 -0.2131390274 0.8693841696 0.4458058774
0.38560009 -0.30409113 3.5760002 -0.2372976989 0.8727776408 0.4265548289
0.49108586 -0.10502993 3.2380002 -0.2877497673 0.87369591 0.3922442496
-0.13240471 -0.0028474133 1.6240001 -0.3780289888 0.6285256147 0.6797423363
-0.29275054 -0.20872031 3.0920002 -0.319175452 0.8049945831 0.5001106858
-0.054956481 -0.13910858 1.9590001 -0.1574542075 0.9268401265 0.3408452868
-0.055374328 -0.49631259 1.8430003 -0.481874764 -0.1540297121 0.8625957966
0.13689676 -0.32357416 2.0280001 -0.7223007679 -0.3245252967 0.6107085943
0.18170933 0.091605529 1.7130001 -0.6498542428 -0.2112485915 0.7301119566
0.17386828 -0.063807055 1.8940001 -0.1027111784 0.8317499757 0.5455661416
-0.49591044 -0.37591699 3.2080002 -0.3037847579 0.8111252189 0.4997906685
-0.25730428 -0.12945123 1.8230001 0.9361178875 -0.06882573664 0.3448859751
0.27483499 -0.199617 3.3000002 -0.2436060756 0.8710666299 0.4264961481
-0.14470418 -0.21329984 1.8630002 -0.611662209 -0.676877439 0.4095196128
-0.14866075 -0.35678577 1.7850001 -0.7421922684 -0.3493472934 0.5719327927
0.38566846 -0.44656345 3.8590002 -0.1573133618 0.9249452949 0.346018374
0.034540668 -0.24696577 1.9700001 -0.410092324 -0.2811607122 0.8676248789
-0.43861824 -0.19299203 2.8590002 -0.2903653979 0.8499490023 0.4396300614
0.36416733 0.18090893 2.6800001 -0.2497615665 0.8449584246 0.4729317427
0.052342258 -0.39509964 1.9260001 -0.4546058774 -0.349685818 0.819178462
0.25750944 -0.32576495 3.5390003 -0.2417674363 0.869192481 0.4313385189
-0.014762366 -0.0044331281 1.6840003 -0.424513787 0.7985081673 0.4268169999
0.034666032 -0.077585876 1.883 -0.09023019671 0.8867872357 0.4532846212
-0.39203656 0.26250905 1.9700001 -0.4519131482 0.8805958033 0.1425675452
-0.19879732 -0.067262247 1.705 -0.190681383 0.8879070282 0.4186426699
-0.24218616 -0.37546405 1.7220001 0.1718197018 -0.08813612163 0.9811778665
0.084962532 0.045745969 1.6834288 -0.4052236974 0.7730433941 0.4880550206
-0.13738769 0.106778 1.6240001 -0.538761735 -0.4394901395 0.7187379599
0.48211846 -0.15486228 3.3330002 -0.2510150075 0.871362865 0.4215664268
-0.14875279 0.3225432 1.6800001 0.4651739895 -0.2385647595 0.8524670005
0.32188043 -0.45340148 3.9480002 -0.1101541221 0.9672415257 0.2287135124
0.18372127 0.0077848001 1.7760001 -0.3778333962 0.6594285965 0.6499198675
0.032548878 -0.49490988 1.904 -0.5996178389 0.004181912169 0.8002755642
-0.40305102 -0.26778045 3.1490002 -0.3125983477 0.8070703745 0.5009188056
-0.01721335 -0.051640049 1.7850001 -0.3492538929 0.877441287 0.3288137317
0.0029499833 -0.30679828 3.3650002 -0.2260617912 0.8126493096 0.537119329
-0.37540355 -0.20500763 3.0370002 -0.279094547 0.8519012928 0.4431369901
0.28591168 -0.26183492 3.4330001 -0.2353986055 0.8712041378 0.4308026135
-0.12518799 -0.45537135 1.785 -0.8120445013 -0.002380570397 0.5835906267
-0.060088485 0.05310145 1.5940001 0.3086967468 -0.004206063226 0.9511511922
-0.10463017 -0.049325649 1.705 -0.2720645368 0.8809108138 0.3872686923
-0.065893546 -0.22705995 1.9150001 -0.4948430955 -0.4283758402 0.7560585141
-0.1172042 -0.12050572 1.8830001 -0.4373408258 0.8164368272 0.3770462871
0.45550284 -0.085579321 3.1490002 -0.2686635554 0.8780772686 0.3959800303
-0.073913082 -0.4053036 1.853 -0.7113783956 -0.1554263681 0.6854074597
0.45671263 -0.36875317 3.8590002 -0.5665634274 0.509036541 0.6479873657
0.035576887 -0.124001 1.97 -0.07668568194 0.8212726712 0.5653586984
0.33453602 -0.38471639 3.8160002 -0.3692634702 0.8212438822 0.4349746406
0.1434495 -0.4067297 1.9810002 -0.6278420687 -0.1732858866 0.758805871
-0.17238422 -0.27360067 1.8040003 -0.5102987289 -0.2755703032 0.8146510124
0.2418548 0.38476902 2.0900002 -0.1919321567 0.9281461239 0.3189151585
0.42127603 -0.14042534 3.2690001 -0.2677741349 0.8761094809 0.4009104073
-0.19686428 0.30056953 2.0050001 -0.3946738243 0.8953546286 0.2063313723
0.10311704 -0.24712531 2.0280001 -0.477896452 -0.5513419509 0.6838399172
0.3930833 -0.26410285 3.5030003 -0.2330255359 0.8747311831 0.4249051809
0.073686756 -0.32756066 1.9700001 -0.3640122414 -0.3136110902 0.8770080805
0.24306636 0.069668703 1.766 -0.6819140911 0.3087407053 0.6630779505
-0.044097211 -0.089827649 1.863 -0.1584651917 0.9207491279 0.3565246165
0.10420971 -0.095384136 1.9360001 -0.09500115365 0.8347473145 0.5423759818
0.11309877 -0.050086595 1.8430001 -0.1065222546 0.84734267 0.5202532411
0.053099699 -0.24484861 3.3650002 -0.2185161263 0.8128648996 0.5399086475
0.17529389 -0.10621255 1.9700001 -0.04937145859 0.9228898287 0.3818859458
-0.11363733 -0.31398371 1.8430001 -0.7065207958 -0.2585500479 0.6587717533
-0.19150607 -0.1012024 1.7760001 0.05278241262 0.8949328065 0.4430680871
0.45978975 0.07704585 2.835 -0.2434132546 0.8566671014 0.4548312724
0.46347877 -0.44994652 3.8590002 -0.136819914 0.9905365109 0.01085082628
0.39456314 -0.48109013 3.9480002 -0.1078171954 0.9554668069 0.274697274
0.24301551 -0.036123928 1.8730001 -0.134284243 0.8443530202 0.518686533
-0.23733558 -0.19351979 1.7850002 0.05114517361 -0.4382453859 0.8973991275
-0.17544816 -0.41473672 1.7375455 -0.6569211483 -0.100407362 0.7472435832
-0.014113456 -0.38604456 1.8940001 -0.5541115403 -0.3490177095 0.7557427287
0.36524126 -0.18700352 3.3330002 -0.2436691076 0.869592905 0.4294572473
0.32245114 -0.28559959 3.5030003 -0.2372976989 0.8727776408 0.4265548289
0.0046673729 -0.30422786 1.936 -0.6074112654 -0.1636124551 0.7773561478
0.023851821 0.037645645 1.6390002 -0.3804718256 0.6820024848 0.6245908737
0.086558558 -0.456554 1.936 -0.5434933305 -0.003636020003 0.8394055963
0.13566539 0.033081718 1.7310002 -0.258150667 0.7923715711 0.5527255535
0.12158754 0.10400861 1.6710001 -0.3859737515 -0.163556546 0.9078950882
-0.20177974 -0.31576219 1.7570001 -0.5454080105 -0.2237205505 0.807761848
-0.065067604 -0.0025826599 1.6348002 -0.2431199998 0.8295627832 0.5027108788
-0.01889129 -0.20780419 1.9590001 -0.4086984098 -0.6398690939 0.650794208
0.044382829 0.0045288601 1.7220001 -0.380695045 0.8070351481 0.4514039457
0.17515537 -0.024907414 1.8330001 -0.195344165 0.8262991905 0.5282710791
-0.16229993 -0.11730589 1.8330001 -0.3689194322 0.8563057184 0.3614400625
0.03675776 -0.049543064 1.8230001 -0.09172885865 0.8904308677 0.4457787871
-0.01477797 -0.45483309 1.8730003 -0.534286499 -0.06555151939 0.8427579403
0.035557598 -0.22223499 2.0280001 -0.2499153167 -0.9517844915 0.1779007167
-0.0084423004 -0.11481528 1.9260001 -0.2848505974 0.7973472476 0.532069087
-0.072394259 -0.056991223 1.7570001 -0.2579265535 0.8964547515 0.3603370786
-0.19765238 -0.20729397 1.8330001 -0.2118616849 -0.7284001112 0.65157336
0.072920471 0.085133761 1.6390001 -0.6403646469 0.08105973154 0.7637816668
-0.10179707 -0.26357189 1.883 -0.5950645804 -0.1413389444 0.7911519408
-0.2264275 -0.43433365 1.7130002 -0.15566504 0.18222785 0.9708560109
-0.10912396 -0.39695817 1.8040001 -0.6562188268 -0.2589922845 0.7087311149
-0.15088573 -0.03369293 1.6710001 0.0214629285 0.8006530404 0.5987436771
0.42428213 -0.45507678 3.9030001 -0.2186136246 0.9224047661 0.318398416
-0.13319108 0.15582487 1.6550001 -0.8218132854 -0.2597486675 0.5071030855
0.22118826 -0.069226861 1.9260001 -0.2687403262 0.8023279905 0.532961905
0.13211015 -0.01100918 1.794 -0.2119753063 0.8516854048 0.4792686701
-0.14542191 -0.072332449 1.7370002 -0.2446335554 0.8807479739 0.4055088162
-0.11532024 0.055524554 1.6240003 0.4411461949 0.2160811871 0.8710332513
0.22410493 -0.0015893966 1.8130001 -0.2083367705 0.8029640913 0.5584303737
0.084624626 -0.38512844 1.9700001 -0.523450613 -0.463660121 0.7148557305
-0.018573061 -0.25495747 1.9260001 -0.4798400104 -0.3699800372 0.7955302
0.40478855 -0.41817001 3.8160002 -0.1402820051 0.8151340485 0.562029779
-0.11248071 -0.19810036 1.9150001 -0.6072077155 -0.4498108923 0.6549572349
-0.014591942 -0.026456574 1.7341999 -0.4372039437 0.8159790039 0.3781943619
0.26960832 -0.48669553 3.9940002 0.04642418399 0.9343830943 0.3532322049
-0.065165266 -0.074701644 1.8130001 -0.2679675221 0.9196361899 0.2871631086
-0.25438061 -0.32538244 1.748 0.1119698659 -0.3439047337 0.9323047996
-0.08662045 -0.45611581 1.8230002 -0.8431276083 -0.2220079452 0.4897431433
-0.15512557 0.3731935 1.6960001 -0.7460016012 -0.3155642152 0.5864306092
-0.21125475 -0.24255174 1.7850001 -0.7131918073 -0.4390074313 0.5464704633
-0.084111348 -0.35400259 1.863 -0.6753021479 -0.3572801352 0.645227015
0.14576671 -0.44685856 1.9470001 0.04676098004 -0.6471486092 0.760928452
-0.073867932 -0.11751717 1.9150001 -0.2809767723 0.8517195582 0.4422961771
0.095596619 -0.28579143 1.9930001 -0.43177405 -0.4354821444 0.7898901701
0.19768132 0.050569639 1.748 -0.4534087181 0.5830823779 0.6741182804
0.25437009 -0.2847729 3.4680002 -0.2345806658 0.8748892546 0.423722446
0.026141573 -0.44440675 1.9150001 -0.5689291954 -0.2340788394 0.7883696556
0.11788888 -0.06807667 1.8940001 -0.110013999 0.8812904358 0.4595911801
0.49613634 -0.43454701 3.9030001 -0.4244264066 0.7548935413 0.4999979436
0.43540877 0.079383917 2.7440002 -0.2497615665 0.8449584246 0.4729317427
-0.15680288 -0.49320513 1.7570002 -0.4781609178 0.4140664041 0.7745392919
0.13215311 -0.28784034 2.0650001 -0.900696516 -0.2839407027 0.3288212717
0.01527504 -0.35472038 1.936 -0.2581584454 -0.2138106376 0.9421460629
-0.14586318 0.26473016 1.6710002 0.8092830777 -0.0005735160667 0.5874186158
-0.13377967 -0.26400483 1.8430002 -0.7161304951 -0.2578188479 0.6486035585
-0.064773589 -0.025420995 1.6835557 -0.3117558658 0.8603536487 0.4032367766
0.44823352 -0.39348745 3.9030001 -0.3783739209 0.7727512121 0.5095966458
0.024771091 -0.023222897 1.766 -0.2762598097 0.8411625028 0.4648936689
-0.19537969 -0.36486807 1.7372859 -0.628323853 -0.2584723532 0.7337582707
0.084228814 -0.12590906 1.9810001 -0.0210692808 0.8193932176 0.5728445649
0.055719178 -0.097930685 1.9260001 -0.1934357285 0.8317704797 0.5203273296
-0.021250401 0.032583948 1.6160001 -0.4672989845 0.6878564358 0.5554144382
0.44647932 -0.46724579 3.9480002 -0.2340318114 0.9085439444 0.3460881412
0.21147609 0.39415547 2.0530002 -0.1123106033 0.8896861076 0.4425437152
0.49369833 -0.47619128 3.9940002 -0.2250086069 0.9059066176 0.35875386
-0.096941799 -0.095326103 1.8430001 -0.3309135437 0.8924997449 0.3064970076
0.11496554 -0.35537976 1.9930003 -0.6767778397 -0.2837354243 0.6793128252
0.14323097 0.067898415 1.6960001 -0.4392656386 0.4587758482 0.7723796964
-0.056036532 -0.27589053 1.9040002 -0.5524483323 -0.3321841955 0.7644962072
-0.015625548 0.075078852 1.594 -0.4127690494 -0.08371634781 0.9069803357
-0.0037699586 -0.066243567 1.8430001 -0.3665060699 0.850607872 0.3770140111
0.1511198 -0.41246814 2.0280001 -0.9483731389 -0.04080662876 0.3145206571
0.086498067 0.022762651 1.7310001 -0.3261291981 0.8066491485 0.49290663
-0.18791701 0.42512372 1.7570001 -0.9624159336 -0.2590297163 0.0816039443
-0.1044636 -0.023214133 1.655 -0.09815971553 0.8221985698 0.5606729984
-0.14391711 -0.3147198 1.804 -0.6668874621 -0.2514179647 0.7014628053
-0.10279793 -0.49501157 1.8040003 -0.7069344521 0.03069858812 0.7066125274
-0.23355187 -0.09593714 1.794 0.07118825614 0.6228045821 0.7791320086
0.0397656 0.022092 1.6800001 -0.4416800439 0.7764872909 0.4494287372
0.07414864 -0.062389385 1.8630002 -0.1060758904 0.8975145221 0.428036958
0.21156509 -0.2652013 3.3990002 -0.1373735666 0.8599380255 0.4915639758
-0.11666591 -0.35639045 1.8230001 -0.7660995126 -0.2852449417 0.5759572983
0.045224603 -0.29424617 1.959 -0.4578853846 -0.1214481816 0.8806766272
0.1088031 -0.43348536 1.9700001 -0.7176312804 -0.1630444676 0.6770685911
0.07163506 -0.23587155 1.9930001 -0.6937571168 -0.325458318 0.6424779892
-0.14301789 -0.40547687 1.7760001 -0.8189653754 -0.08597671241 0.5673655868
-0.053607285 -0.44510296 1.8530002 -0.5454608202 -0.2499364614 0.8000026345
0.12952749 -0.1088031 1.9700001 -0.08342858404 0.8278223276 0.5547520518
-0.012089233 -0.13643563 1.9700001 -0.1903552115 0.8867390752 0.4212584794
0.24568145 0.029732149 1.7850001 -0.4761455357 0.5303911567 0.7014062405
0.15364987 -0.086111456 1.9260001 0.0233405102 0.8775322437 0.4789493084
-0.0082538165 -0.49687976 1.8830001 -0.5912914872 0.02359122597 0.8061128259
-0.16525009 -0.23429075 1.8230002 -0.6164341569 -0.6052951217 0.5036137104
0.34438008 -0.29473972 3.5390003 -0.2372976989 0.8727776408 0.4265548289
-0.24611714 -0.17100348 1.8230001 0.9966771007 0.07954858989 0.01751347631
0.44580925 0.083945803 2.7890003 -0.2434132546 0.8566671014 0.4548312724
-0.21453786 -0.078153081 1.748 0.2401279658 0.8715808392 0.4274171591
0.0030095966 -0.34008443 3.4330001 -0.2260617912 0.8126493096 0.537119329
-0.021824617 -0.3424786 1.9150001 -0.6122101545 -0.1880363673 0.7680111527
0.15022559 -0.3623088 2.016 -0.4502693415 -0.2574653625 0.8549672961
0.2068758 0.091944799 1.748 -0.46875 0.1083974838 0.8766546845
-0.20662156 -0.12238354 1.8130001 -0.06947681308 0.804627955 0.5897006392
0.012230377 -0.21839958 1.9930001 -0.4412616193 -0.7043921947 0.5559854507
-0.16459067 -0.45534959 1.7338573 -0.6130290627 -0.1209291443 0.7807506323
-0.085712232 -0.30442619 1.8730001 -0.5022864342 -0.1886166632 0.8438791633
-0.21225381 -0.27509817 1.7570002 -0.5901395082 -0.2464028299 0.7687789202
0.068927042 -0.14315616 2.016 -0.06167102978 0.9253903031 0.3739645779
0.39402047 -0.28543216 3.5390003 -0.2372976989 0.8727776408 0.4265548289
-0.06010865 -0.20093463 1.9590001 -0.5440526605 -0.7200148106 0.4307961762
0.26413774 -0.005523175 1.853 -0.5461395979 0.5872793198 0.5973562598
0.083602265 -0.034648851 1.8130001 -0.2548731863 0.8420892954 0.4753159285
-0.0043170573 -0.086673222 1.8940001 -0.2644772828 0.8626037836 0.4312383235
-0.23785719 -0.13614196 1.7850001 0.3277828693 0.004453576636 0.9447425604
0.44552201 -0.153329 3.3000002 -0.2581315041 0.8734596968 0.4128392935
-0.20573699 -0.39645672 1.7130001 -0.2846724689 -0.1995602101 0.9376232028
-0.093096741 0.01269501 1.6090001 0.2734100819 0.412302047 0.869053483
-0.053814881 -0.37274235 1.8830001 -0.514182508 -0.217634365 0.8296093345
-0.058875181 -0.037740499 1.7220001 -0.2478395253 0.9155637622 0.3167309761
-0.22543658 -0.33765164 1.7220001 -0.1143665239 -0.3830788434 0.9166083932
0.086558558 -0.41582054 1.936 -0.4755007625 -0.2958365083 0.8284804225
0.20368712 -0.033364557 1.863 -0.2445352674 0.8131297827 0.5282257199
-0.034481928 -0.41542515 1.8730003 -0.3195970654 -0.2250804752 0.9204327464
-0.027433529 0.00721935 1.6470001 -0.4166918695 0.8109098673 0.4108442962
0.2610319 -0.30402538 3.5030003 -0.2411217541 0.8688164353 0.4324561357
0.092170984 -0.49499226 1.9470001 -0.6777914166 0.3004266322 0.6710757613
-0.15255578 -0.099082619 1.794 -0.3026111424 0.8960071802 0.324957937
0.11244214 0.0077015166 1.7570001 -0.272649467 0.8373708129 0.473785162
0.42321959 -0.29155129 3.5760002 -0.2599233687 0.8946759701 0.3633108735
0.42626512 -0.4364143 3.8590002 -0.1288488954 0.9315294027 0.3400749564
-0.2653144 -0.2133456 3.1200001 -0.3189457655 0.8064017296 0.49798581
0.052912969 -0.35502896 1.9470001 -0.6561072469 -0.2348849475 0.7171835899
-0.16970864 -0.3036072 1.7760001 -0.734153688 -0.2082995176 0.6462427378
-0.11343102 -0.22521128 1.8830003 -0.4813388884 -0.4586739838 0.746947825
-0.37333024 -0.32318139 3.1780002 -0.3179554343 0.7989667654 0.5104473233
0.012591125 -0.40459481 1.9150001 -0.6573955417 -0.1663455367 0.7349559665
-0.25316167 -0.22762755 1.7760003 0.03050965443 -0.7526184916 0.6577496529
0.15515685 -0.050630134 1.863 -0.09588238597 0.8826109171 0.4602222443
0.055755373 0.052024532 1.655 -0.4102198482 0.7520056367 0.5159527063
0.38664418 -0.46192005 3.9030001 -0.1463230848 0.9626643062 0.2277431786
0.38221878 -0.23173894 3.4330001 -0.2299052477 0.8719346523 0.4322887063
0.24377733 -0.2738733 3.4330001 -0.233610332 0.8714196682 0.4313398004
0.12356266 -0.28712761 2.0280001 -0.8451523185 -0.2254710048 0.484644562
-0.00171739 -0.26276067 1.9590001 -0.5875433087 -0.4540508687 0.6697989702
-0.0029797901 -0.32479709 3.3990002 -0.2260617912 0.8126493096 0.537119329
0.081789494 -0.081789494 1.904 -0.1976164877 0.8847268224 0.4221446812
0.36579794 -0.20649883 3.3650002 -0.2338158786 0.8675333858 0.4389942884
0.055297062 -0.47487938 1.9260004 -0.2262272537 -0.03405135497 0.9734792113
-0.15657157 -0.056425553 1.705 0.0447422713 0.8206551075 0.5696694851
-0.025601953 -0.29421264 1.9150001 -0.3831927776 -0.2233736068 0.8962519169
0.26579306 0.06133686 1.794 -0.5729956031 0.2812079191 0.7698039412
0.034168959 0.069761626 1.6240001 -0.5421611071 0.1817923188 0.8203736544
-0.1660447 -0.37552595 1.7570002 -0.5994276404 -0.1625686884 0.7837460637
0.46192005 -0.44823352 3.9030001 -0.2389525175 0.912158072 0.3329704702
0.21352831 -0.052800935 1.8940001 -0.2356023192 0.7995783687 0.5524182916
0.48432413 -0.12323041 3.2690001 -0.2858731449 0.8738447428 0.3932835162
-0.10671663 -0.062505454 1.7390001 -0.363068074 0.8687294722 0.3368837237
0.10176118 0.074935891 1.6630001 -0.4677919745 0.1744999439 0.8664412498
0.0043736901 0.01749476 1.6630001 -0.3997038305 0.792347312 0.4608932137
-0.12639683 -0.49468863 1.7760003 -0.6616883874 -0.04057544097 0.748680234
0.16703305 0.032180678 1.748 -0.3050589859 0.7673051357 0.5640761256
0.47528657 -0.095619783 3.2080002 -0.2686635554 0.8780772686 0.3959800303
-0.12477596 0.11752155 1.6550001 -0.6964766979 -0.3422165513 0.6307202578
-0.053601153 0.018337237 1.6090001 -0.1694405824 0.7221747637 0.6706366539
0.015724771 -0.14152293 1.9930001 -0.07356709242 0.8537083268 0.5155287981
0.13520463 -0.031643637 1.8230002 -0.2319955528 0.7657691836 0.5998129249
0.14067081 -0.45327261 1.9810001 0.1963802576 -0.5920770764 0.7815878391
-0.075980701 -0.19552368 1.9260002 -0.587259233 -0.2722329497 0.7622439265
0.1660582 -0.0079075331 1.8040003 -0.06149173528 0.8553152084 0.5144459605
-0.094808869 -0.3840563 1.8329999 -0.6092298031 -0.2717677653 0.7449707389
0.014947166 -0.0029894335 1.705 -0.2781880796 0.8689166307 0.4093840718
0.19079597 -0.086111456 1.9260001 0.01205328573 0.7992659211 0.6008566022
0.11539213 0.043944672 1.7050002 -0.2388866842 0.7273823023 0.6433103085
0.23427601 -0.021004057 1.8430001 -0.08954583853 0.7107134461 0.6977592707
-0.18113862 -0.34215072 1.766 -0.5725447536 -0.3605327904 0.7363481522
0.11300425 -0.46609959 1.959 -0.6278886795 0.09320728481 0.7727018595
-0.034218051 -0.10766168 1.904 -0.1726236492 0.883580029 0.4353015125
-0.0042921598 0.098719679 1.6320001 -0.2256464958 -0.4449653327 0.8666542172
0.045609459 -0.033027541 1.794 -0.1715304554 0.8841024041 0.4346726239
0.11182059 -0.31624261 1.9930001 -0.676427424 -0.1091359183 0.7283785343
-0.035426978 -0.043128494 1.7570001 -0.2797414362 0.8821430206 0.3789041936
0.41965243 0.0994552 2.7670002 -0.2497615665 0.8449584246 0.4729317427
-0.074284345 -0.1050986 1.883 -0.281673491 0.875551343 0.3925172985
0.064257041 -0.27613157 1.9810001 -0.5150765777 -0.2267702073 0.8266022801
-0.1262549 -0.10068429 1.8230001 -0.3446689248 0.8840968013 0.3155569136
0.025458399 -0.11031973 1.9360001 -0.07113816589 0.8568947315 0.5105592608
0.17576289 0.054130666 1.7220001 -0.5121693015 0.588661015 0.6254285574
-0.031430546 -0.067655586 1.8230001 -0.2360194474 0.8871493936 0.3965612352
-0.17775995 -0.08734756 1.748 0.005338907242 0.8885333538 0.458781004
-0.13085565 0.025330406 1.605 -0.07895441353 -0.3161793053 0.9454082847
-0.086066753 -0.070418246 1.7850002 -0.3009501398 0.8904004693 0.3414909244
-0.03564176 -0.22742838 1.936 -0.5020691752 -0.5713102221 0.6492543221
-0.10744426 -0.12591125 1.9150001 -0.2236370891 0.881041646 0.4168357849
-0.14940943 -0.43590584 1.7570001 -0.5138993859 -0.07318022102 0.8547233939
0.14797695 0.10014602 1.705 -0.615387857 -0.03407960385 0.7874873877
0.14442432 0.013049058 1.7659999 -0.1770595163 0.830920279 0.5274669528
-0.13548025 -0.11468711 1.853 -0.4276345968 0.8448697329 0.3214401305
0.053538032 -0.21933323 1.9700001 -0.2388942689 -0.3401191235 0.9095320106
-0.032120191 -0.48289168 1.863 -0.6016651392 -0.2425262034 0.7610388398
0.065468587 0.024214409 1.7050002 -0.3921917975 0.7654310465 0.5101969242
0.0054643885 0.054846268 1.6160001 -0.4862505794 0.539960444 0.6870247722
-0.14356118 0.18311375 1.6710001 -0.9102310538 -0.2223251313 0.3493579328
0.055719178 -0.43393421 1.9260004 -0.3548596203 -0.2311603576 0.9058915377
-0.0049812198 -0.42340368 1.8940002 -0.6713895798 -0.1694112718 0.7214817405
-0.13469282 -0.084118508 1.7660002 -0.2671017349 0.9062849283 0.3275734186
-0.19575877 -0.44463041 1.7310001 -0.4333625734 0.1130643338 0.8940991759
-0.10754245 -0.43491432 1.804 -0.6182822585 -0.116392538 0.7772900462
0.21438444 0.015648501 1.785 -0.1552663445 0.711004734 0.685831368
0.028050704 -0.32229686 1.9590001 -0.5738509893 -0.3066057563 0.7593997121
-0.16152933 0.39250118 1.7220001 -0.8160892725 -0.3192289472 0.4817583859
-0.04851035 -0.061029151 1.7850001 -0.293346405 0.891918838 0.3441346586
-0.2119219 -0.2119219 1.8040001 -0.5121207833 -0.6548782587 0.5557578206
0.034113731 -0.064978532 1.853 -0.08123277873 0.9061570764 0.4150669873
0.014943659 -0.46657425 1.8940002 -0.5018182397 -0.2264343351 0.8348088861
0.01258192 -0.042463981 1.794 -0.2668385506 0.8991464972 0.3468900919
-0.2295052 -0.23874702 1.7570001 -0.292201966 -0.5576910973 0.7769161463
-0.034378488 -0.025410181 1.7050002 -0.3867442608 0.850517869 0.3564382493
0.015047789 -0.013356988 1.7354445 -0.257119745 0.8945741057 0.3655496836
-0.40397677 -0.2813907 3.1780002 -0.3125983477 0.8070703745 0.5009188056
0.14152293 -0.12754536 1.9930001 -0.1398268193 0.8682465553 0.4760214388
0.066506743 -0.0064361356 1.7479999 -0.2708601356 0.8160992265 0.5105064511
-0.24277969 -0.40696883 1.7129999 -0.1823005676 -0.3390263319 0.9229450822
-0.16480106 -0.19873069 1.8430001 -0.6205586791 -0.4034439325 0.672413528
0.47084188 -0.086367443 3.1780002 -0.2686635554 0.8780772686 0.3959800303
-0.10883904 -0.28428108 1.853 -0.7725888491 -0.2434636205 0.586371839
0.042921599 0.10158112 1.6320001 -0.3848190606 0.04448983446 0.921919167
-0.23445924 -0.2957558 1.748 -0.105875127 -0.07766260207 0.9913420081
-0.1868352 -0.27558193 1.7760001 -0.6954799891 -0.4167246819 0.5853615403
-0.052342258 -0.25326902 1.9260001 -0.45988819 -0.3010339141 0.835392952
0.075102285 -0.11094655 1.9470001 -0.1864231974 0.8515405655 0.4900255799
0.22448803 0.04438154 1.7659999 -0.4785508215 0.6095004082 0.6320588589
-0.22307397 -0.45980552 1.7310001 -0.132614702 0.3388111293 0.9314613938
-0.14372686 -0.28495616 1.813 -0.7460744977 -0.2307049185 0.6246182919
0.20678112 0.40826017 2.016 -0.1123106033 0.8896861076 0.4425437152
-0.036490373 -0.12304893 1.9360001 -0.1634538472 0.8806070685 0.4447629154
0.11635733 -0.38380554 1.9810001 -0.5029233694 -0.184604764 0.8443868756
-0.085167289 -0.42583644 1.8329999 -0.7531310916 -0.1320152283 0.6444885731
-0.12578817 -0.19710115 1.8830001 -0.4530443251 -0.5371215343 0.7115134001
-0.07803911 -0.24574019 1.8940001 -0.7298868895 -0.2303402722 0.6435903311
-0.046652693 -0.010205276 1.6630001 -0.3655048609 0.8359604478 0.4093608856
0.47085065 0.093677089 2.812 -0.2434132546 0.8566671014 0.4548312724
-0.081953429 -0.48529285 1.8330001 -0.7273275852 -0.07635390759 0.6820298433
-0.047720473 0.080001973 1.6010001 0.1984297931 -0.3112442493 0.9293829203
-0.16179761 0.2951912 1.6800002 0.691848278 -0.01997780427 0.7217664719
0.2040801 -0.0160693 1.8330001 -0.2960211039 0.8059843779 0.5126018524
0.076448843 -0.23290227 2.0280001 -0.4960408509 -0.75387609 0.4308297634
-0.17660157 -0.11439564 1.804 -0.1811527312 0.8956032991 0.406298399
-0.11731904 0.085843198 1.6320001 -0.3293073475 -0.457349509 0.8260678649
-0.0034540666 -0.23487654 1.9700001 -0.5779473782 -0.4659296572 0.6699898243
0.088931695 0.10205276 1.6630001 -0.613912344 -0.08066538721 0.7852418423
-0.17017853 0.34183687 1.6880001 0.5066051483 -0.2751159072 0.8171061873
-0.099082619 -0.46710378 1.794 -0.5665282011 -0.1426319778 0.8116045594
-0.13571852 -0.23427601 1.8430001 -0.7312559485 -0.3441823423 0.5889000297
-0.065435715 -0.08482407 1.8430001 -0.2192326039 0.9093485475 0.353584826
0.0050364505 -0.37605491 1.9150001 -0.5522602201 -0.3529546857 0.7552692294
0.047174308 -0.13802853 1.9930001 -0.1471341848 0.840908885 0.520791471
-0.13126506 -0.37323558 1.8040001 -0.7049482465 -0.2821742594 0.6507116556
0.36544463 -0.27331573 3.5030003 -0.2372976989 0.8727776408 0.4265548289
-0.10444255 -0.0042921598 1.6320001 0.009034209885 0.6764189005 0.736461699
-0.1860906 -0.22720979 1.804 -0.3607567251 -0.6043787003 0.7103385925
0.069097988 -0.049814831 1.8330001 -0.2372334152 0.8714771867 0.4292410314
-0.17410952 -0.071958549 1.7220001 0.05144743249 0.7960059047 0.6030985117
-0.10759943 -0.07353919 1.766 -0.4058129489 0.8572320342 0.31696859
0.21678388 0.37709466 2.0780001 -0.1919321567 0.9281461239 0.3189151585
0.017746363 -0.28565922 1.9590001 -0.4798919857 -0.2748036087 0.8331786394
0.23070359 0.37735239 2.0400002 -0.499229759 0.5840316415 -0.6400598884
0.084624633 -0.35404184 1.9700001 -0.4506210387 -0.1204802617 0.8845480084
0.14152293 -0.3773945 1.9930001 -0.7509767413 -0.187735945 0.6330791116
-0.091804534 -0.22200005 1.904 -0.6549212337 -0.5205048323 0.5478621125
-0.1470134 -0.46636963 1.7570001 -0.6725982428 -0.03535732627 0.7391626239
-0.093774401 -0.084238023 1.8130001 -0.3281422257 0.8975694776 0.2944345772
0.10132601 -0.40530404 1.9590001 -0.678612113 -0.397696346 0.6175137758
-0.0055628885 -0.053244788 1.8130001 -0.3922225833 0.8481894732 0.356000036
0.4499518 -0.037274115 3.0370002 -0.3574468791 0.8408358097 0.4064810574
-0.091686182 0.040906142 1.6090001 0.4017820358 0.2104138285 0.8912335634
-0.1848364 -0.4959777 1.7570001 -0.2164182216 0.6940326691 0.686645329
-0.0046445802 -0.035092384 1.7659999 -0.3661259413 0.8330126405 0.4147791862
-0.37874103 -0.21220243 3.0640001 -0.279094547 0.8519012928 0.4431369901
0.19768833 0.0015815067 1.8040001 -0.4118745327 0.7693469524 0.4883283973
0.10562737 -0.013301225 1.7850001 -0.2495113313 0.8139863014 0.5245668292
-0.11922579 -0.24498451 1.863 -0.7468677759 -0.2995268404 0.5936936736
-0.077585876 -0.27732825 1.8830001 -0.5655329227 -0.2700547576 0.7792579532
-0.13053742 -0.42306706 1.794 -0.736050427 -0.2821947038 0.6153014898
0.14528558 -0.072227687 1.8940001 -0.01703644358 0.8201739192 0.5718605518
0.036611605 -0.37460217 1.936 -0.4240614474 -0.2868749797 0.8589962721
-0.13377231 0.036483359 1.6320001 0.08120726049 -0.1711809337 0.9818872213
0.01510935 -0.095692553 1.9150001 -0.1044617146 0.8659843206 0.4890387952
-0.16922207 0.43448916 1.739 -0.830326438 -0.4614074528 0.312507838
0.39809784 -0.44493288 3.8160002 0.02134836465 0.9046193361 0.4256854951
-0.12578411 -0.0443944 1.6880001 -0.09425637126 0.8220440745 0.5615686178
0.14337708 -0.10070533 1.9470001 -0.02979102731 0.8922191262 0.4506190419
-0.01469907 -0.0816615 1.863 -0.3499688208 0.8751201034 0.3341954947
0.1001618 -0.067321859 1.8730001 -0.1480327249 0.9172204137 0.3698554337
-0.0046659489 0.024771202 1.6381251 -0.4784117937 0.715387404 0.5092573166
-0.065445296 -0.33660933 1.8730001 -0.4679048955 -0.2367700785 0.851472199
-0.12772244 0.063159451 1.6010001 0.554733336 0.1006584764 0.8259169459
-0.10394315 -0.34306625 1.8430001 -0.7336052656 -0.2835958004 0.6175732613
-0.15182552 -0.26050061 1.8230001 -0.7449586987 -0.3104084432 0.5904940367
-0.034868538 -0.3536666 1.8940002 -0.5271512866 -0.2722823024 0.8049682379
-0.025153318 0.047977626 1.594 -0.3802791536 0.454072386 0.8057332039
0.12783904 -0.34699169 2.016 -0.4266880453 -0.05116129667 0.9029506445
0.086714029 -0.25486889 2.0050001 -0.6794009805 -0.3391156495 0.6507033706
0.065249421 -0.3044146 1.9810001 -0.4994855523 -0.1471200883 0.8537387848
-0.18201704 -0.054753091 1.6880001 -0.1524970382 0.8647608161 0.4784698486
0.064861059 -0.38404575 1.9470001 -0.5262491107 -0.3880986273 0.7565985322
-0.084035516 -0.046798218 1.7220001 -0.3861903846 0.8639145494 0.3232779205
0.0028287109 -0.27551648 1.9360002 -0.6963532567 -0.2933115661 0.6550270915
-0.12785307 -0.32442716 1.8230001 -0.7850154042 -0.2658180594 0.5595458746
0.18390363 -0.050901897 1.8730001 -0.2616769671 0.8257670999 0.4996337593
-0.13442807 -0.34476849 1.8040003 -0.6515036821 -0.2210423946 0.7257294059
0.25410798 0.0063926536 1.8230001 -0.2896624207 0.7837638259 0.5493722558
0.12591125 -0.082262017 1.9150001 0.009300777689 0.8837584853 0.4678508937
0.052638572 -0.020126512 1.766 -0.1750124097 0.861645937 0.4763789773
0.19617696 0.032696161 1.7760001 -0.3392627835 0.7109249234 0.6160247326
0.041729335 -0.46903771 1.904 -0.4414641559 -0.3075214028 0.8429353237
-0.13139217 -0.01588257 1.647 -0.02485623769 0.8176237941 0.5752160549
0.10476079 -0.10819557 1.9590001 -0.1201808229 0.8455263376 0.5202323794
0.12971774 -0.057469882 1.8730001 -0.1620142907 0.8935755491 0.4186574519
-0.008394083 -0.31393871 1.9150001 -0.5916324258 -0.2309927046 0.7724075913
0.10471607 -0.27349895 2.016 -0.5190150738 -0.3404422402 0.7840423584
-0.067040451 -0.13153505 1.9360001 -0.2110022157 0.8490543962 0.4843394756
0.18968874 0.074357986 1.7310001 -0.6772177815 0.09025172889 0.7302264571
0.22438909 0.06633161 1.748 -0.5603849888 0.3116436303 0.7673636079
0.11531498 -0.12754536 1.9930001 -0.2010522187 0.8594200015 0.4700800776
-0.097993799 -0.32501277 1.863 -0.7629079819 -0.2041480541 0.6134288311
-0.12694746 -0.29406819 1.8330001 -0.7023184299 -0.1773710251 0.6894116402
0.045067679 -0.08846619 1.9039999 -0.1273417026 0.8822934628 0.4531471431
-0.17532019 -0.48022485 1.739 -0.2870238125 0.5424817204 0.7895130515
-0.16117954 -0.33435628 1.7850002 -0.7577185631 -0.299392879 0.5798503757
0.036958516 -0.27252588 1.97 -0.4520711899 -0.2885434628 0.8440226912
-0.12590231 -0.063102111 1.7220001 -0.2380041033 0.8970122933 0.3724553883
0.11532258 0.064587198 1.6821334 -0.3707829714 0.6423708797 0.67073071
0.042981036 -0.22329172 1.9930003 -0.2190664262 -0.9437279105 0.2477650493
-0.21587567 -0.36532807 1.7220001 -0.283469528 -0.137962237 0.9490054846
0.0051206099 -0.12118777 1.9470001 -0.2522184849 0.865860641 0.4320546389
-0.072706349 -0.46370494 1.8430001 -0.5771108866 -0.09555362165 0.8110564351
-0.17836922 -0.38875344 1.7390001 -0.6483201385 -0.2101637572 0.7317869663
-0.075238667 -0.014301564 1.655 -0.2709437907 0.8446490765 0.4616897106
-0.20565169 -0.33513448 1.737667 -0.6200704575 -0.3941453397 0.6783524752
0.19481638 -0.074158981 1.9040002 -0.1960883439 0.7794382572 0.5950003266
0.077311352 0.065289751 1.655 -0.5653287768 0.5650144815 0.600967586
-0.071862116 -0.3821758 1.863 -0.7120364904 -0.407520324 0.5717789531
-0.086429685 -0.03076311 1.6710001 -0.2829848528 0.8449190259 0.4539068937
-0.16218683 0.35591 1.7130001 -0.6098518372 -0.3643048108 0.7038201094
-0.22465178 -0.3215003 1.7479999 -0.1577132344 -0.3758869469 0.9131459594
0.2654672 0.033211641 1.804 -0.512324214 0.4939157665 0.7025461793
-0.24671502 -0.15446049 1.804 0.977052927 0.006214969791 0.2129061073
0.00168846 -0.33600354 1.9260001 -0.631072104 -0.1064607725 0.768384099
-0.083262295 -0.037170667 1.6960001 -0.3453574777 0.8795958161 0.3271687925
-0.19776022 -0.42118397 1.7220001 -0.5294151306 0.1449578851 0.8358868361
-0.21552774 -0.093640029 1.7760001 0.3289704025 0.7602180243 0.5602205396
-0.24431913 -0.35206231 1.7310001 0.2529604137 -0.2922882736 0.9222682118
0.23353085 0.39283872 2.0650001 -0.1919321567 0.9281461239 0.3189151585
0.035457656 -0.41367269 1.9260004 -0.2073931992 -0.1929161698 0.9590471387
0.072603777 -0.49303031 1.9260001 -0.4561151266 0.2589092553 0.8514252901
-0.094643176 -0.11456806 1.8940001 -0.1645817459 0.8908857703 0.4233620167
0.063908122 -0.073341057 1.8830003 -0.1465389282 0.8879636526 0.4359436333
-0.014679082 -0.24203417 1.9470001 -0.7080762982 -0.4472512305 0.5464377999
0.060446166 -0.12261937 1.9700001 -0.1306067705 0.8548533916 0.5021628737
0.17239387 -0.097291589 1.9470001 0.05904401094 0.8957512379 0.4406171739
0.13885961 -0.40251711 2.0050001 -0.9241547585 -0.09275382757 0.3705869317
-0.25145957 -0.20085135 1.8040001 -0.3310753405 -0.4420964122 0.8336305618
0.46455443 0.105136 2.789 -0.2434132546 0.8566671014 0.4548312724
0.36131379 0.19347771 2.6590002 -0.2497615665 0.8449584246 0.4729317427
-0.053247605 -0.39525205 1.8730001 -0.4906663895 -0.2313652635 0.8400694132
0.01252143 -0.07131771 1.863 -0.1502775103 0.9055225253 0.3967942297
-0.10741076 0.025784908 1.6240003 0.2922029495 0.1383567005 0.946295321
-0.16442738 -0.40471473 1.7570001 -0.5826770663 -0.2282987982 0.7799788713
-0.056008477 -0.21385056 1.936 -0.6064425111 -0.6168007851 0.5017810464
0.14327013 -0.42806318 1.9930001 -0.3006913364 -0.3047372699 0.9037255645
0.16591354 0.074735828 1.705 -0.4596714973 0.1544690728 0.8745521307
0.087797292 0.0015403033 1.7570001 -0.385926038 0.7711653113 0.5063251257
0.095517218 -0.33517858 1.9810001 -0.4421665072 -0.2425715774 0.8635089993
0.15579931 -0.035776138 1.8430002 -0.2260385007 0.7908163667 0.5687847137
-0.14285371 -0.12643375 1.8730001 -0.5007961988 0.793862462 0.3449428678
0.0051720408 0.084633388 1.6089998 -0.2808809876 -0.1056881398 0.9539055824
-0.24671504 -0.118613 1.8040001 0.6994575262 -0.3532598913 0.6212621331
0.10155877 -0.43610528 1.9470001 -0.7608998418 -0.137202844 0.6341977715
0.13729769 0.084931463 1.6800002 -0.5750073195 0.2336510271 0.7840750813
-0.18463968 -0.255413 1.794 -0.5254613161 -0.3988262117 0.751550436
-0.085127838 -0.19195493 1.9039999 -0.5557225943 -0.3664098084 0.7462682128
-0.024761448 -0.092992999 1.883 -0.2982597649 0.8715527654 0.389148891
0.032247305 -0.33774811 1.9360001 -0.3541258574 -0.3981570303 0.8462067246
-0.23433828 -0.21546538 1.794 -0.1340626627 -0.4649824798 0.8751105666
-0.1143261 -0.10779318 1.863 -0.3921785057 0.86882478 0.3022242486
0.15536726 0.0038003493 1.785 -0.1888759583 0.8252723813 0.5322136879
-0.06042951 -0.42463979 1.863 -0.6521854401 -0.350127995 0.67235744
0.046085488 -0.1143603 1.9470001 -0.1003181562 0.8937902451 0.4371215105
0.1546782 0.048055362 1.7130002 -0.3079048991 0.6950567961 0.6496850252
0.15321252 -0.11472435 1.9700001 -0.1373889744 0.8501492143 0.5083016753
-0.033929631 -0.082400531 1.8430001 -0.1980476975 0.9062241912 0.3735436499
0.4442026 -0.1346937 3.2690001 -0.2677741349 0.8761094809 0.4009104073
-0.13211016 -0.39475775 1.794 -0.7635014057 -0.09265828878 0.6391244531
-0.039721765 -0.20551696 1.9700001 -0.3339869976 -0.7409104109 0.5826700926
-0.086561188 -0.10289349 1.863 -0.2312146127 0.8980649114 0.3741914034
-0.051173665 -0.10069656 1.8830001 -0.1721461564 0.8953046799 0.410847038
0.077669159 -0.08948838 1.9260001 -0.186050877 0.8416688442 0.5069305897
0.0046793278 -0.44544181 1.8940003 -0.5865268111 -0.1337363273 0.7988122106
-0.047293246 -0.29766926 1.9039999 -0.5396293998 -0.1771305501 0.8230582476
-0.096953191 -0.4148325 1.8130001 -0.7429122925 -0.1272518039 0.6571820974
0.094005406 -0.040976714 1.8330001 -0.1416942328 0.8460595608 0.5139124393
0.118094 -0.41506568 1.9810001 -0.5480210185 -0.2262858748 0.8052749038
0.054448158 0.064471371 1.6343335 -0.2990044057 0.4825171232 0.8232700825
0.026242141 0.030615829 1.6630001 -0.3846211731 0.7826682925 0.489384234
0.035245508 -0.012770112 1.748 -0.2487424761 0.8783922195 0.4081106186
0.053836983 -0.25529146 1.9810001 -0.4656870365 -0.1458924413 0.8728407621
-0.0053649805 -0.47376907 1.8830003 -0.6008994579 -0.0144764306 0.7991935611
-0.19537939 -0.074737363 1.7310001 0.0726808086 0.8961929083 0.4376708865
