# .PCD v0.7 - Point Cloud Data file format
VERSION 0.7
FIELDS x y z normal_x normal_y normal_z
SIZE 4 4 4 4 4 4
TYPE F F F F F F
COUNT 1 1 1 1 1 1
WIDTH 512
HEIGHT 1
VIEWPOINT 0 0 0 1 0 0 0
POINTS 512
DATA ascii
0.027495071 -0.36422485 1.9360001 0.3903066218 0.2872554064 -0.8747256994
0.46445099 -0.49710768 4.1390004 -0.1179002151 0.9024413824 0.4143659472
-0.49108586 -0.32076707 3.2380002 -0.2922751009 0.8674552441 0.4026122987
0.49313027 -0.036218606 3.1780002 -0.2383767962 0.8817969561 0.406952858
-0.11720828 0.48558187 1.7363335 0.9592758417 0.006279475056 0.2824012041
-0.24429457 0.12400362 2.5410001 0.5516146421 0.785735786 0.2798938453
0.12720345 -0.30094478 3.5390003 -0.0150689967 0.9419375658 0.3354497552
0.3097465 0.19670033 2.5790002 -0.7882164717 0.2090365291 -0.5788078308
0.29095688 0.10380083 1.794 -0.7281728387 0.00234942208 0.6853895187
-0.45961881 0.25752962 2.0400002 0.9585576653 -0.1733516604 0.226089403
-0.20486034 -0.0077015166 1.7570001 0.7932074666 0.6041752696 0.0761192143
0.27143529 0.42445922 2.0780001 0.2669957578 -0.6100507975 0.7460236549
0.45657852 -0.27460882 3.7740002 -0.7529780269 0.5484266281 0.3636650741
-0.059059281 -0.19405192 3.2080002 -0.1961426288 0.8611027002 0.469073832
-0.10773532 0.34399697 2.1560001 -0.2224512696 0.8881462216 0.4021340311
-0.39317623 -0.12929957 3.0100002 -0.2187904567 0.8772117496 0.4273526669
0.16522536 -0.089643553 2.0050001 -0.1442577243 0.8442379832 0.5161898136
-0.22026338 -0.3173025 1.7570001 -0.06197442487 0.1070919707 -0.9923157096
0.034880813 0.12172692 1.6240001 -0.4555747211 -0.1960739195 0.8683356047
0.35459501 -0.17580761 3.3990002 -0.305795759 0.8698135018 0.3871865273
-0.35872674 0.16633698 2.286 0.9941695929 -0.03708452359 0.1012497768
0.035159595 -0.012785306 1.8230001 -0.2110704035 0.92942518 0.3026848137
-0.11060114 -0.17002863 1.8830001 0.5208879709 0.57486552 -0.6310351491
-0.34863544 -0.28308004 3.3990002 -0.2292844802 0.8538373113 0.4673227072
-0.11345907 0.28350258 1.6550001 -0.7423203588 -0.1498063356 0.6530838609
0.32633215 -0.28197631 3.6140001 -0.192891404 0.8702121973 0.4533471167
-0.094834 -0.47417 1.8130001 0.4412908554 -0.5493071079 -0.7095943093
-0.0059595797 -0.2652013 3.3990002 -0.1252231002 0.8908880353 0.4366207719
0.3281565 -0.39581764 3.8590002 -0.1725078523 0.9081220627 0.3815171421
-0.05881995 0.14378211 2.4850001 -0.331181258 0.7921433449 -0.5126674175
0.1663212 -0.2807788 2.0400002 0.1763796061 0.04782066494 -0.9831598997
-0.14629638 0.22245066 2.286 0.7748682499 0.5997655988 0.1996508986
-0.20513999 -0.13949519 3.1200001 -0.1334972829 0.8970444202 0.421295315
-0.33779895 -0.20722121 3.2380002 -0.2922751009 0.8674552441 0.4026122987
0.027786829 -0.19624446 1.9810001 0.4355508387 0.1757756174 -0.8828354478
0.1555005 -0.45951271 1.9930001 0.7812297344 -0.08210325241 -0.6188207865
0.49380615 -0.11395527 3.3330002 -0.2436747402 0.8818582296 0.4036690891
0.2754136 -0.01502256 1.904 -0.2928741276 0.7456160784 0.5985661745
0.14719847 0.07132297 1.7310001 -0.3301849961 0.7962767482 0.5068739653
-0.056232907 0.0073990668 1.6880001 -0.1724032015 0.854403019 0.4901761711
0.21752466 -0.25328216 3.3990002 -0.07778407633 0.8223167658 0.5636885166
-0.33935943 0.01594306 2.598 -0.2275317162 0.8936764002 0.3867452145
-0.092094712 -0.32313934 1.8430001 0.6609479189 0.09754220396 -0.7440654039
-0.12050572 0.46716601 1.8830001 0.9989872575 -0.04499167949 -0.0004587624571
-0.34863016 0.3074128 1.9590001 -0.5209557414 0.8502696753 0.07514391094
-0.22490181 -0.17562263 1.794 0.1030533165 0.7759332657 -0.6223404408
-0.4926472 -0.37464789 3.3650002 -0.3153462708 0.8614268899 0.3981211483
0.00503645 -0.49860856 1.9150001 0.6441392899 -0.2655974329 -0.7173162103
0.37197405 -0.47116712 4.0410004 -0.1179002151 0.9024413824 0.4143659472
-0.11395527 -0.21330088 3.3330002 -0.1494145542 0.8823106289 0.4463218749
-0.022063946 -0.078072429 1.9360001 -0.3853254616 0.7889142632 0.4786841869
-0.091405652 0.14653921 1.6550001 0.8739178777 0.03461857513 0.4848392606
0.10429265 -0.18474698 3.3990002 -0.176515758 0.8559750915 0.4859514534
-0.09059561 -0.049271297 1.8130001 -0.3528560698 0.8818425536 0.3128039539
0.14487049 -0.0253212 1.8940001 -0.1177728027 0.8654005527 0.4870436192
0.35334575 -0.33371544 3.7320001 0.00301737641 0.9042972922 0.4268925786
0.020251 -0.164901 3.3000002 -0.147041291 0.8658100367 0.4782800972
-0.20738983 -0.074183829 1.853 0.8686235547 -0.2311291844 0.4382606745
-0.17929237 -0.4244785 1.748 0.1894008219 -0.1010199338 -0.9766894579
0.40022552 -0.23579177 3.5390003 -0.2084486037 0.877086699 0.4327448308
0.2388943 -0.28232962 3.5390003 -0.3037464023 0.8960364461 0.3238160312
0.20616306 0.034360517 1.8230001 -0.2179575861 0.8201920986 0.5289418101
-0.031897515 -0.26357421 1.9150001 0.5787907839 0.2406898886 -0.7791467309
-0.29815784 -0.13699144 3.0640001 -0.22350353 0.8718873262 0.4357277155
-0.12043296 0.38508812 1.6960001 -0.237350136 -0.4421107769 0.8649872541
0.0452886 0.036230877 1.7220001 -0.3511534929 0.8603383899 0.3694712818
-0.2290388 0.08097332 2.6390002 -0.198113367 0.8987352252 0.3911854923
0.49056426 -0.15348943 3.4330001 -0.2348226756 0.8789871335 0.4150179625
-0.13759108 -0.2356445 1.8040003 0.6184594631 0.2072261423 -0.7580007911
0.10258841 -0.18537906 2.0530002 0.4978958666 0.6337395906 -0.5920082927
0.062899083 -0.096095823 1.9930001 -0.3062520027 0.8157823682 0.4906209111
-0.034297828 -0.40504107 1.8630003 0.5472742319 0.3060807884 -0.7789772153
0.085097156 -0.29349837 1.9810001 0.1881045699 0.1331008226 -0.9730883241
0.49730933 -0.3044751 3.8590002 -0.7165349722 0.6265977621 0.306517303
0.41147926 -0.36464423 3.8160002 -0.2657739222 0.8843610883 0.3837573528
0.1297528 0.13558438 1.6630001 -0.3144218028 -0.4838335216 0.8167276382
0.21800683 0.13263352 1.7390001 -0.4494573176 -0.07181016356 0.8904108405
0.13962144 -0.36761087 2.016 0.5786411166 0.1675047427 -0.7981958389
0.086134255 -0.43576288 1.936 0.6191523075 -0.02914472856 -0.784729898
-0.061826043 -0.15628248 1.9590001 0.5404474139 0.7075430751 -0.4553014338
0.31314883 -0.21585988 3.4680002 -0.3130614758 0.8589440584 0.4052253962
0.055639114 -0.045624074 1.9040002 -0.2316594422 0.866558671 0.4420519471
-0.041287493 0.075456455 1.6240001 0.6094088554 0.1255360842 0.7828547359
-0.10515792 -0.081789494 1.9039999 -0.1933890581 0.8752479553 0.4433302283
-0.14124854 -0.016355094 1.6960001 -0.4102309346 0.7767652273 0.4778559506
0.11544999 0.015815066 1.804 -0.1736125201 0.8407273889 0.5128705502
0.31677034 0.042236045 1.853 -0.3415445387 0.7561277747 0.5582276583
-0.13517244 -0.35456225 1.7760003 0.6683384776 0.3060821891 -0.6779655814
0.25939953 -0.31704387 3.6530001 -0.1789962053 0.919839263 0.3490788937
0.40030792 -0.29142416 3.6530001 -0.2259301394 0.8581357002 0.4610408843
-0.025700008 -0.01145663 1.766 -0.3014641702 0.8873178363 0.3489790857
0.22726794 -0.054384019 1.9590001 -0.2264914215 0.8748714924 0.4281373024
0.25663015 -0.2376205 3.6140001 -0.2356547713 0.9159404635 0.3248383105
-0.02449845 -0.050630134 1.863 -0.2818147242 0.9022459388 0.3263934553
-0.086094551 -0.24568443 1.863 0.791208148 0.1737353504 -0.5863494277
-0.33269501 -0.25169098 3.3000002 -0.2912064195 0.8693974614 0.3991827071
0.46521866 -0.085019432 3.2690001 -0.2383767962 0.8817969561 0.406952858
-0.15880466 -0.15323256 3.1780002 -0.1234032214 0.8967731595 0.424934715
0.084802002 0.075687021 1.6710002 -0.4102349877 0.6564839482 0.6330371499
-0.061078243 -0.49687976 1.8830001 0.322834909 -0.7273019552 -0.6056479812
-0.028226914 -0.33374175 1.8940001 0.6764262319 0.1089973301 -0.7284003496
-0.20458455 -0.2450655 1.7760003 0.001641165814 0.3859125078 -0.9225339293
-0.16513769 -0.056618642 1.794 0.274922967 0.734459579 0.6204727888
0.11094655 -0.063154191 1.9470001 -0.08256269991 0.8746901751 0.4775986373
-0.16229993 -0.16551378 1.8330001 0.4850514531 0.6246824861 -0.611961484
0.228021 -0.24018212 3.4680002 -0.3692904413 0.8593396544 0.3537795246
0.44282624 -0.47116712 4.0410004 -0.1179002151 0.9024413824 0.4143659472
-0.083443329 -0.39655447 1.8130001 0.8347522616 0.1535451859 -0.528783977
-0.095929071 -0.026663993 1.7479999 -0.2432196587 0.8879695535 0.3903258443
0.086351663 -0.37476623 1.9700001 0.5406196713 0.2462126911 -0.8044312596
0.024465136 -0.29642642 1.9470001 0.5563331246 0.2155518979 -0.8025153279
0.014370696 0.052276008 1.6630001 -0.3291441798 0.8134221435 0.4795920849
0.10420749 -0.2327719 2.0050001 0.5689638853 0.372502476 -0.7331588864
0.21210249 0.069668703 1.766 -0.2343116999 0.7766209841 0.5847716928
0.01435489 -0.42630687 1.904 0.6895601749 0.2146793753 -0.6916787624
-0.36400867 0.074610472 2.5790002 -0.2337554991 0.8936115503 0.3831668198
-0.16196197 -0.29497421 1.7850001 0.689741075 0.2584953308 -0.676341176
-0.093305387 0.21139501 1.6630001 -0.7566483617 -0.2439765036 0.606595993
0.1126692 -0.1055156 2.0400002 -0.03446115926 0.8506736159 0.5245634317
0.20634542 -0.0082538165 1.883 -0.245281443 0.854364574 0.4581464529
-0.062116217 -0.20313682 1.9150001 0.6615402102 0.2521083951 -0.7062619328
-0.091351002 0.037781995 1.6366668 0.04166829959 0.5896474719 0.8065851331
0.25828966 0.021118023 1.853 -0.296371907 0.7471638322 0.5949032307
0.15380239 -0.21639639 2.0400002 0.3480924368 0.5103035569 -0.7863981128
-0.061949648 -0.21534878 3.3650002 -0.1321145594 0.8799278736 0.4563690126
-0.098873973 0.32635844 1.6960001 0.2960638702 -0.1463476419 0.9438900948
0.095843323 -0.014078681 1.853 -0.1364869773 0.8916940093 0.4315705299
-0.21751414 -0.37086946 1.7850001 -0.4793328643 0.0604547672 -0.8755485415
-0.12988254 0.45224166 1.7850001 0.9592758417 0.006279475056 0.2824012041
0.103622 -0.48184231 1.9700001 0.4745385647 -0.2223305553 -0.8516937494
0.40506998 -0.48393315 4.0890002 -0.1179002151 0.9024413824 0.4143659472
0.15995397 0.0016156967 1.8430001 -0.2025463283 0.8612657189 0.4660432935
-0.11721684 -0.43350214 1.7760001 0.6810055971 -0.1930107474 -0.706383884
-0.21165626 -0.13248712 1.8430001 0.6470583081 0.1715183705 -0.7428976893
0.17395873 0.11448565 1.6960001 -0.5693502426 0.03827384859 0.821203649
0.06383536 0.0155696 1.7760001 -0.3386983573 0.8521095514 0.3989896774
-0.0084861331 -0.21554779 1.9360002 0.7499579787 0.2904377282 -0.5943138599
0.17481434 -0.052614022 1.9360002 -0.08101391792 0.8575985432 0.5078991055
0.25462258 0.057461407 1.8040003 -0.3162745237 0.7271791101 0.609246254
0.16672097 -0.405514 1.9810001 0.4829975963 0.330724746 -0.8107616305
0.055523563 -0.48273975 1.936 0.2105697542 -0.1709508598 -0.962515533
0.36787388 -0.20369875 3.4680002 -0.2493534833 0.8731218576 0.4189046621
0.1627444 0.039121252 1.7850001 -0.2255403847 0.8310321569 0.5084457397
-0.018061964 -0.46304306 1.8730001 0.6493967772 -0.1855952889 -0.7374538779
-0.092714123 0.093667932 1.6382222 -0.5218779445 0.09983789176 0.8471574783
-0.12291831 0.42793781 1.7310001 0.9498556852 -0.01487652864 0.3123344779
0.0075711855 -0.097260617 1.9930001 -0.09854225069 0.8458223343 0.5242843032
0.053836975 -0.24487144 1.9810001 0.2925051153 0.2678914964 -0.91797328
-0.087722771 0.25722101 1.6960001 -0.7646394968 -0.111442022 0.634749651
-0.0045288601 0.01358658 1.7220001 -0.3951729238 0.8672490716 0.3028487563
0.096044965 0.045735702 1.7390002 -0.2713649869 0.8152143359 0.5116508603
0.38679615 -0.38679615 3.8590002 -0.1851966828 0.9241634607 0.3341019452
0.07733953 -0.18456025 2.0050001 0.5466726422 0.672619462 -0.4987304807
0.35795352 -0.37133497 3.8160002 -0.09006543458 0.9188456535 0.3842016459
0.13323493 -0.31533438 2.0050001 0.6533842087 0.1195485443 -0.7475274205
-0.12305857 -0.28447306 1.8230001 0.7524955869 0.2491656691 -0.6096448898
-0.0085869497 -0.15971726 1.9590001 0.3565859199 0.4749392569 -0.8045366406
-0.1157916 -0.20627062 1.8430001 0.6986925602 0.3337132633 -0.6328223348
-0.13498211 -0.076730907 1.8330001 -0.3550702631 0.8689829111 0.3446647227
0.03584427 -0.069981672 1.9470001 -0.1312145293 0.9214008451 0.3657912016
-0.18235719 -0.3570523 1.748 -0.09533857554 0.2017225176 -0.9747915864
0.084774546 0.12500654 1.6390001 -0.374179095 0.1793909967 0.9098400474
-0.034966726 -0.031787936 1.8130001 -0.3606216609 0.8758343458 0.3207276464
0.41356748 -0.33416253 3.7740002 -0.2273273021 0.9036125541 0.3630518913
-0.16117954 -0.45850104 1.7850001 -0.03201965988 -0.5500896573 -0.8344915509
-0.064978532 -0.36550424 1.853 0.7612859011 0.3161935806 -0.5660966039
0.38516176 -0.32042867 3.6920002 -0.1637422293 0.8482444286 0.5036565661
-0.073495351 -0.062607147 1.863 -0.2745948732 0.9029889107 0.3304673731
-0.064448364 -0.29350689 1.8730001 0.6830410957 0.175450623 -0.7089936137
-0.33521748 -0.15631433 3.0920002 -0.2480094731 0.876606226 0.4123746455
0.45525563 -0.48393315 4.0890002 -0.1179002151 0.9024413824 0.4143659472
0.11706217 -0.082118243 1.9930001 0.08530554175 0.8868399262 0.4541342258
-0.18187326 -0.21034038 1.8040001 0.250403434 0.3050150275 -0.9188383818
-0.059456408 -0.43547803 1.8330001 0.6452020407 0.09024488181 -0.7586634159
0.37306023 -0.25393176 3.5760002 -0.2314357013 0.8725028634 0.4303211868
0.11571124 -0.41621503 1.9700001 0.3883173168 0.2047620416 -0.8984888196
0.0066766934 -0.048406027 1.904 -0.1719596684 0.917086184 0.3596981764
0.34586602 -0.30423403 3.6530001 -0.2090503871 0.8591759801 0.4670273662
-0.14404684 -0.035245508 1.748 -0.03248254582 0.920309186 0.3898408711
0.30691838 -0.18474698 3.3990002 -0.3661116958 0.855091989 0.3671237528
0.13318321 0.087308988 1.6880001 -0.3081955612 0.755420506 0.5782346725
0.064034119 -0.33390969 1.9589999 0.4861566126 0.4542269409 -0.746545136
0.27563977 -0.29464942 3.6140001 -0.1818429828 0.9240180254 0.3363389075
0.17556566 -0.32579648 2.0280001 0.1869567037 0.2073440999 -0.9602372646
0.44168219 -0.25846589 3.7320001 -0.7515779734 0.5550732613 0.3564045727
0.46500504 -0.29439169 3.8160002 -0.7227390409 0.5809928775 0.3742934465
0.0053065433 0.08503411 1.6240004 -0.107268922 0.5178729296 0.8487054706
-0.045337521 0.034941651 1.6470001 -0.09868962318 0.801153481 0.5902655721
0.25312319 0.10833467 1.7570001 -0.6810361147 0.09412690252 0.7261748314
-0.1016232 0.0103096 1.6800001 -0.1035079658 0.8307873011 0.546880722
0.37386501 -0.36063087 3.7740002 -0.1423622519 0.9237413406 0.355576843
0.31576014 0.065165266 1.8130001 -0.2495896667 0.4305333495 0.8673788309
-0.075546749 -0.15780877 1.9150001 0.5659318566 0.4650706947 -0.6807572246
-0.0036721814 -0.37556398 1.904 0.5552000999 0.2871229351 -0.7805851698
-0.14509657 -0.39524183 1.7570002 0.2947621346 -0.04539828748 -0.9544916153
-0.065849937 -0.08948838 1.9260001 -0.3486070931 0.7386459708 0.5769533515
0.02449845 -0.032120191 1.863 -0.1792996973 0.9002838731 0.3966617882
0.39587811 -0.35007402 3.7320001 -0.1398795396 0.9161973 0.3755212724
0.055297062 -0.40396404 1.9260004 0.3089616895 0.1262996048 -0.942651093
0.008635167 -0.24005763 1.9700001 0.4879459739 0.4618875086 -0.7406542301
0.021067176 -0.27688289 3.4330001 -0.1235215217 0.8935856819 0.4315635562
-0.10331079 -0.35443544 1.8130001 0.8221413493 0.2955656946 -0.4865434766
0.02310455 0.010782124 1.7570001 -0.2897187769 0.8812793493 0.3733761907
0.1688986 -0.43558061 2.0280001 0.9157681465 -0.02675373852 -0.4008153677
-0.054688223 -0.0075963167 1.733 -0.283144474 0.9152466059 0.2866231799
0.37464789 -0.15634912 3.3650002 -0.2437247485 0.8887448311 0.388240695
0.1276034 -0.27323383 2.016 0.6798297763 0.2083353549 -0.7031556368
0.0538023 0.08541315 1.6390001 -0.3865631223 0.5917049646 0.7074278593
0.23503433 -0.025182249 1.9150001 0.08640101552 0.8861867785 0.4552008808
0.10515792 -0.038390987 1.9039999 -0.09154509008 0.9040323496 0.4175464213
0.25393176 -0.29782119 3.5760002 -0.2393871099 0.9058684111 0.3494226336
-0.12581919 -0.31612074 1.794 0.4411263764 0.2776835263 -0.8534045815
0.19794731 0.095170058 1.7342001 -0.5191896558 0.5626093149 0.6433606148
0.0037146122 -0.32722357 1.9260002 0.5386913419 0.1484773457 -0.8293166757
-0.06383536 -0.028025279 1.7760001 -0.302162528 0.8895340562 0.3426762521
0.19624448 -0.072940424 1.9810001 -0.1566590518 0.851187408 0.5009370446
0.11635733 -0.34559864 1.9810001 0.4419120252 0.11546202 -0.8895967007
0.15370597 -0.065627269 1.9700001 -0.1123954505 0.8139388561 0.5699744225
0.45671263 -0.31462428 3.8590002 -0.6793290377 0.6615751386 0.3175380826
-0.35574257 0.061968058 2.618 -0.2275317162 0.8936764002 0.3867452145
0.30208969 0.018158397 1.8830001 -0.2867861688 0.827162087 0.4832768738
0.045588419 -0.44406494 1.9260002 0.3169350922 0.02773958631 -0.9480414987
0.074701644 0.0015893966 1.8130001 -0.2293184847 0.8620893359 0.4519015253
0.34309402 -0.19562379 3.4330001 -0.3389758468 0.8491705656 0.4049750268
-0.013866763 0.022723202 1.6832001 -0.4254074693 0.8168456554 0.3896045089
0.12540366 0.038704835 1.7660002 -0.2457536459 0.8661035895 0.4352811575
0.23646417 -0.26410285 3.5030003 -0.3657931089 0.8791662455 0.30538854
-0.078092009 -0.49494174 1.8430001 0.6417436004 -0.5118496418 -0.5711174607
-0.23107618 -0.21647091 1.7850002 -0.3898413777 0.008868440054 -0.9208393097
-0.116772 -0.046189815 1.7760001 -0.2738347352 0.8854057193 0.3755945861
-0.090791985 -0.20469466 1.8830001 0.6303115487 0.2452380657 -0.7365905643
0.16613184 -0.24566303 2.016 -0.02338538133 0.1918787211 -0.9811400175
0.076828435 0.053510856 1.7050002 -0.4119153023 0.8371079564 0.3599666655
-0.03406376 -0.20154391 3.2380002 -0.149766624 0.8795725703 0.4515773058
-0.19977042 -0.049543064 1.8230001 0.7139856219 0.4982002079 0.4919564128
-0.056453828 -0.24075897 1.8940001 0.6698476672 0.08735054731 -0.7373425364
-0.19507235 -0.28486755 1.7660003 0.2765072584 0.09661144018 -0.95614326
0.01527504 -0.25967568 1.9360002 0.5448203683 0.3999515474 -0.7370275259
0.34632191 -0.31395537 3.6920002 -0.2147841603 0.8575910926 0.4673384726
-0.20381097 -0.39383021 1.748 -0.08415239304 0.03422548249 -0.9958649278
0.073847771 -0.066978209 1.9590001 -0.02196740173 0.9061619043 0.4223600626
-0.037904728 -0.17707731 1.9360002 0.6498685479 0.5612927079 -0.5124659538
-0.19470522 -0.014783755 1.794 0.9354469776 0.3531225026 0.01560436469
-0.11736375 -0.3880828 1.7850001 0.6715289354 0.2695396245 -0.6902154088
-0.045067679 -0.065097757 1.9039999 -0.2884718776 0.847923398 0.4447582364
-0.16470046 -0.25546178 1.785 0.2980655134 0.3330328166 -0.8945647478
-0.021824617 -0.30050817 1.9150001 0.6906349063 0.1621909738 -0.7047818899
-0.11501028 -0.24631943 1.8330001 0.7533071041 0.1863630861 -0.6307116747
0.076448843 -0.10845068 2.0280001 -0.2499257177 0.7937794328 0.5544829369
-0.10722353 -0.012314186 1.7130001 -0.1778480411 0.8595234156 0.4791550338
-0.33924809 -0.26844847 3.3650002 -0.2646930814 0.872210741 0.4113221765
-0.084215224 -0.43530971 1.804 0.6675538421 0.03205406293 -0.7438712716
0.021699253 -0.46403018 1.904 0.604111135 -0.1906318516 -0.7737630606
0.45582107 -0.1168772 3.3330002 -0.2383767962 0.8817969561 0.406952858
-0.056584448 0.091405652 1.6550001 -0.5581245422 -0.04596400261 0.8284831643
0.2844266 0.040173251 1.8330001 -0.2224532217 0.7783020139 0.5871630907
0.21605362 0.012995706 1.853 -0.1146677062 0.804718554 0.5824769735
-0.050358366 -0.46622097 1.853 0.5889714956 -0.4475517273 -0.6729115844
0.074677095 -0.21361123 1.9810001 0.5199127197 0.1854302734 -0.8338503242
-0.17494585 -0.3251206 1.7660002 0.3678519726 0.09249138832 -0.9252730608
0.17713489 0.06007183 1.7570001 -0.3110594451 0.8168358803 0.4858200848
0.24596374 -0.0057776719 1.8830001 -0.02490779757 0.8685997725 0.4948878884
0.48313099 -0.095468998 3.3000002 -0.2383767962 0.8817969561 0.406952858
0.17143393 -0.38705185 2.016 0.1826162636 0.3632622957 -0.9136146903
0.13025075 -0.38380554 1.9810001 0.5875398517 0.3170740604 -0.7444870472
-0.013408458 0.052998565 1.6339092 -0.4013646543 0.6466575861 0.6486450434
-0.0029499833 -0.25074857 3.3650002 -0.1205472276 0.8814803362 0.4565750659
0.26624015 0.079404958 1.7760001 -0.432831198 0.5810618401 0.6892200708
0.046292208 0.052775335 1.6816002 -0.3541673422 0.8242344856 0.4418178797
-0.060753874 -0.33496729 1.8730001 0.7021405697 0.1455057114 -0.6970127225
0.064037867 -0.027913943 1.8730001 -0.1577523202 0.917639792 0.3647622168
-0.0048207901 -0.026246523 1.8330001 -0.3219616711 0.879604876 0.3501942158
0.17324424 0.017483363 1.8130001 -0.2249308378 0.7787764668 0.585588038
-0.17739613 -0.078310005 1.8230001 0.3964140117 0.8044249415 0.4424436986
0.11563321 0.067577846 1.7129999 -0.2255561203 0.8550857306 0.4668542147
-0.034666028 -0.37472329 1.8830003 0.5490480065 0.3078850508 -0.7770155072
0.19642155 -0.032736924 1.9150001 -0.1916526705 0.8288839459 0.5255669951
-0.20656259 -0.16461082 1.8230001 0.1794762611 0.7759529948 -0.604719162
0.0046945498 -0.0078242496 1.7850002 -0.2576212883 0.9120372534 0.3190913498
0.22571975 -0.26183492 3.4330001 -0.1904328316 0.8594814539 0.4743700624
0.10536616 0.10404081 1.6630001 -0.4362532496 0.4380865395 0.7859792113
-0.14543286 -0.20296673 1.8230001 0.6020381451 0.5947874784 -0.532708168
-0.088863313 -0.28759402 1.8430001 0.7046087384 0.1080686823 -0.7013185024
0.12564169 -0.45377797 1.9700001 0.4186132252 -0.08618433774 -0.9040659666
0.13290593 -0.044623584 1.9260004 -0.1202248111 0.8562042713 0.5024542212
-0.18496177 -0.13527054 3.1490002 -0.1334972829 0.8970444202 0.421295315
0.22175634 0.048754938 1.794 -0.175691396 0.81590271 0.5508496165
-0.14285371 -0.15927367 1.8730001 0.3939602077 0.7830553651 -0.4812688231
0.40740016 -0.47116712 4.0410004 -0.1179002151 0.9024413824 0.4143659472
-0.088662557 0.29662189 1.6800001 -0.6705489755 -0.2107700408 0.711294651
-0.10721458 -0.068227455 1.853 -0.3537454903 0.904124558 0.239630729
0.48478058 -0.12488262 3.3650005 -0.2403152138 0.883100152 0.4029673934
-0.023936069 -0.49605435 1.8830001 0.3978796899 -0.5094754696 -0.7629721761
0.18618648 0.13435619 1.7220001 -0.7049162984 -0.324531883 0.6306917071
-0.49578744 -0.33530134 3.2690001 -0.3153462708 0.8614268899 0.3981211483
0.046629898 -0.28323346 1.9700001 0.4213441908 0.1284372807 -0.897759974
0.12212668 -0.00160693 1.8330001 -0.1741439253 0.8594101071 0.4807162583
0.13555808 -0.01143261 1.863 -0.1644899994 0.9071887136 0.3872359991
0.15242077 0.14058226 1.6880001 -0.6388811469 -0.1981317848 0.7433536649
0.11511773 -0.20490067 2.0280001 0.4363802671 0.5124256611 -0.7395892143
-0.0034540666 -0.20378992 1.9700001 0.5581920147 0.1546889544 -0.8151643872
0.096532613 -0.26338992 1.9930001 0.4655009806 0.2745928168 -0.8413724303
0.0051521701 -0.077282548 1.9590001 -0.3422577381 0.8425036073 0.4159895778
-0.08310011 0.17932129 1.6630001 0.8724857569 -0.1028006226 0.4777034521
0.30998847 -0.20164298 3.4330001 -0.3661116958 0.855091989 0.3671237528
-0.073769569 0.026533719 1.6630001 0.03801193088 0.8810548782 0.4714842141
-0.14478852 -0.43282524 1.7570001 0.1538143903 -0.2337875813 -0.9600440264
-0.12424646 -0.46081281 1.794 0.5415141582 -0.5139012337 -0.665332973
0.090464108 -0.40452823 1.9470001 0.6910523772 0.3639461994 -0.6244915724
0.014868267 0.033453602 1.6960001 -0.3560760915 0.8601648211 0.365138799
0.050363623 -0.17193098 1.9810001 0.4349882305 0.4085985124 -0.8023917079
-0.17184946 -0.035608448 1.766 0.4420881271 0.7527377009 0.4877950847
-0.33310002 -0.2629737 3.3330002 -0.2912064195 0.8693974614 0.3991827071
-0.1137025 0.35490039 1.6844444 0.3233813941 -0.07165738195 0.9435516596
-0.056242544 -0.046600971 1.8330001 -0.2561486363 0.9208475947 0.2939856648
-0.074718297 -0.0755485 1.8940001 -0.2537139058 0.8511698246 0.4594987929
0.016884601 -0.39341119 1.9260001 0.6210647225 0.06262612343 -0.7812532187
0.13600782 -0.24268062 2.0280001 0.4304124117 0.2847255468 -0.8565492034
0.37318999 -0.18358539 3.4330001 -0.2334068269 0.8786126375 0.4166066647
0.095419407 0.022464709 1.7760001 -0.2323192358 0.8669927716 0.4408529401
-0.10107879 0.24171014 1.6710001 -0.8480568528 -0.2050008476 0.488645345
0.17483085 -0.014556729 1.8830001 -0.1072258353 0.88406533 0.4548968375
-0.13521881 -0.062469512 1.8040001 -0.2255080342 0.8591865897 0.4592869282
-0.085557058 0.12504491 1.6320002 -0.9643599391 -0.1038921326 0.2433441579
0.064861059 -0.3635633 1.9470001 0.6871813536 0.1910068542 -0.7009266019
-0.064627863 -0.4055399 1.8430001 0.6667169929 0.1602747291 -0.7278739214
0.40440983 -0.24766184 3.5760002 -0.2195890099 0.8784392476 0.4244115949
-0.20742022 -0.10452671 1.863 0.994653821 -0.08861199766 -0.05302559212
0.035991549 -0.00156485 1.7850002 -0.2900255024 0.8638739586 0.4118336737
0.17496866 -0.35523933 2.016 0.2359931022 0.1331063211 -0.9625954032
0.24487413 0.033916578 1.8230002 -0.2547399402 0.7343916893 0.6291075945
0.036470208 -0.083360486 1.9810001 0.0659115091 0.7590492964 0.6476880908
0.35801488 -0.28197631 3.6140001 -0.2193490863 0.8728830218 0.4358454049
-0.13456444 -0.17703417 1.8430002 0.4841100574 0.5368039608 -0.6909985542
0.03584427 -0.32601216 1.9470003 0.547530055 0.3296488822 -0.7691179514
0.17495155 0.087851204 1.7130001 -0.3997167945 0.7394144535 0.5417496562
0.068958603 0.032180678 1.748 -0.3496063352 0.817260325 0.4581058919
-0.03726973 -0.22731178 1.9150002 0.5578698516 0.2258463651 -0.7986079454
0.088570513 -0.32475853 1.9810001 0.3064704537 0.02402342856 -0.9515769482
0.41611597 -0.37551928 3.8590002 -0.398286283 0.8842576742 0.2438369542
0.084490061 -0.46512204 1.9470001 0.6742316484 -0.1857558787 -0.7147771716
0.110986 0.13762264 1.6880001 -0.233035937 -0.3479236066 0.9080988169
0.22603098 0.091178589 1.748 -0.2542356551 0.5675753951 0.7830851674
0.066243567 -0.016156966 1.8430001 -0.1436317861 0.8766442537 0.4592001438
0.28730705 0.074330814 1.8040003 -0.5466606021 0.5767877102 0.607024014
-0.064382389 0.054367352 1.6320001 0.1977676749 0.04690560326 0.9791260362
-0.05431902 -0.2730183 1.8940001 0.6307549477 0.2757882178 -0.725319922
0.36920026 -0.23579177 3.5390003 -0.2518717945 0.8688291907 0.4262585938
-0.30359316 -0.14908594 3.0920002 -0.22350353 0.8718873262 0.4357277155
-0.0082538165 -0.42754769 1.8830001 0.7412904501 0.05491328612 -0.668934226
0.11592317 -0.29393253 1.9810001 0.6460142732 0.1084795669 -0.7555777431
-0.21179171 -0.35658023 1.7570001 -0.196527943 0.0005829603761 -0.9804980755
-0.12259307 0.45359433 1.748 0.9592758417 0.006279475056 0.2824012041
0.075980701 -0.052342255 1.9260001 -0.1062134728 0.8740022182 0.4741717279
0.19247656 0.04851035 1.7850001 -0.2764246166 0.7974389791 0.5363585949
0.37639245 -0.4946872 4.0890002 -0.1179002151 0.9024413824 0.4143659472
-0.1056734 0.40457815 1.7220001 0.2291271836 -0.4822235703 0.8455537558
-0.034113731 -0.43373173 1.853 0.6944936514 0.04977817833 -0.7177748084
0.015630091 -0.16845764 1.9810001 0.4293371737 0.1613752246 -0.8886099458
0.14240748 -0.42548582 1.9810001 0.5985491872 0.01568040065 -0.8009325862
-0.17377423 -0.38549596 1.7570001 0.100395225 -0.1171826571 -0.9880228043
-0.0033944536 -0.28343689 1.936 0.6511244178 0.03120048344 -0.7583293915
-0.034539789 0.0025028831 1.7129999 -0.3076489568 0.8935700655 0.3269321918
-0.042838491 -0.30319023 1.8940001 0.5353316069 0.2750120163 -0.7986165881
-0.076588228 -0.01051211 1.7130001 -0.2101669014 0.8950592875 0.3933176696
0.035378236 -0.25795197 1.959 0.5900632143 0.3001134992 -0.7495046854
-0.064841777 -0.037428994 1.8040003 -0.2574681342 0.9082650542 0.3297949433
-0.074722245 -0.46600968 1.8330001 0.64211303 -0.4403062165 -0.6275517941
-0.2101896 -0.19773392 1.7760001 0.3808883131 0.2000027746 -0.9027308226
-0.14301337 -0.26456347 1.804 0.630523622 0.03614334762 -0.7753280997
-0.00168846 -0.35626507 1.9260001 0.5942079425 0.3312894702 -0.7329149246
-0.23386456 -0.17526525 1.8230001 -0.2652839124 0.7537372708 -0.6012524962
0.14391711 0.022457397 1.8040001 -0.2288824916 0.7529619932 0.616977334
0.03691205 -0.10194756 2.0050001 0.03778192028 0.9164430499 0.3983774781
0.022510752 0.066574365 1.6390001 -0.3244251907 0.5959308743 0.7345846891
-0.021250401 0.094918452 1.6160001 -0.000559296459 -0.09585299343 0.9953953624
0.27567747 0.0049522901 1.883 -0.3781416118 0.7664645314 0.5191734433
-0.22534102 -0.11666592 1.8230001 0.6795465946 0.1914632767 -0.7082077265
-0.0084423004 -0.24651515 1.9260001 0.6779987812 0.2445201576 -0.6932009459
0.272468 0.11832896 1.7760001 -0.7098665833 -0.0006374621298 0.7043358684
0.16704226 -0.034415741 1.9150001 -0.09853423387 0.8414933085 0.5312061906
0.21554779 -0.037338987 1.936 -0.2648023069 0.8232614398 0.5021158457
0.070808366 -0.26769015 1.9700001 0.2918428481 0.09758780152 -0.9514748454
-0.10569488 -0.32582632 1.8130001 0.866702795 0.1404483318 -0.4786444902
-0.085569024 -0.3651748 1.8330001 0.6878139377 0.3573934436 -0.6318084598
0.18661295 0.012117725 1.8430001 -0.3649394512 0.7811716795 0.5065470934
-0.19452532 -0.18503629 1.804 0.424751848 0.4442078173 -0.7888379097
-0.12489344 0.010407787 1.6960001 -0.3002207279 0.7727552056 0.5592109561
-0.15179045 -0.32235909 1.7850001 0.678088367 0.2889533937 -0.6757974029
-0.0049812198 -0.47653669 1.8940002 0.6242388487 -0.1241992414 -0.7712978721
0.12459888 -0.096321121 2.016 0.0402247645 0.8678215742 0.4952450693
-0.013756361 -0.39343193 1.8830003 0.6344309449 0.3646683991 -0.681552887
-0.10565953 -0.41534635 1.7940001 0.6844073534 0.02697988972 -0.7286004424
-0.13284656 -0.0226443 1.7220001 -0.2355561256 0.8994798064 0.368034482
-0.020445621 -0.01730014 1.794 -0.3451938331 0.8950526118 0.2823509872
-0.036267702 -0.15370597 1.9700001 0.3096520007 0.6683652997 -0.6763160825
0.19492376 -0.055815175 1.9590001 -0.1732671857 0.877283752 0.447606653
-0.15595572 -0.35619518 1.7570001 0.3488739729 0.3183285892 -0.8814498782
-0.19187428 -0.042463981 1.794 0.6568222642 0.5369787812 0.5293754339
0.009208506 0.11475217 1.6160001 0.02327935956 -0.06660784036 0.9975076318
-0.087631598 -0.039121252 1.7850001 -0.3299819529 0.8907777667 0.3124530911
0.15140383 -0.29750562 2.016 0.3786797523 0.1474647522 -0.9137044549
0.083263166 0.098664455 1.647 -0.4743111432 0.5474290252 0.6894565821
0.14759159 0.11432234 1.6811429 -0.6776725054 0.1822088212 0.7124323845
-0.069761626 0.10393059 1.6240001 -0.629588604 -0.05773071572 0.7747808695
0.026291732 -0.48507041 1.9260004 0.573096931 -0.290086478 -0.7664266229
0.40458167 -0.30100876 3.6920002 -0.2075253278 0.846185863 0.4908184111
-0.0040047886 0.0027725461 1.7570002 -0.3131394088 0.8765535355 0.3655100465
0.14799973 -0.39618936 2.0050001 0.4421134889 0.4946585298 -0.7482303381
0.019727631 0.022762651 1.7310001 -0.3631755412 0.8477414846 0.3865719736
0.086128116 -0.087885827 2.0050001 -0.1899708211 0.8183758259 0.5423762798
0.12526794 0.056055579 1.7368183 -0.2358837724 0.8149132133 0.5294103622
-0.21372169 -0.091595009 1.8330001 0.9118612409 -0.3001878858 0.2799934745
-0.055820651 -0.17669544 1.9150001 0.56976825 0.3398413062 -0.7482460141
0.036470208 -0.22403128 1.9810001 0.2674070597 0.1513992697 -0.9516153336
0.14786913 0.05083001 1.7570001 -0.295396924 0.8271066546 0.4781582355
-0.015959717 0.036272086 1.6550001 -0.4380826354 0.7940024137 0.4214780331
-0.090135358 0.064382397 1.6320001 -0.3181121945 -0.04101184756 0.9471656084
-0.16476746 -0.18701901 1.8130001 0.4623884857 0.4729404151 -0.7500161529
0.40242156 -0.32390028 3.7320001 -0.2792151272 0.8540537953 0.4388975501
-0.083337687 0.16667537 1.6390001 0.8436126113 0.0008371446747 0.5369516015
-0.086894609 -0.17655657 1.8940001 0.6239945292 0.5011595488 -0.599558115
0.063900232 -0.30568489 1.9700001 0.4019315541 0.1699527502 -0.8997594714
0.38471639 -0.37133497 3.8160002 -0.1568306983 0.917837441 0.3646622598
0.1581945 -0.42712516 2.0050001 0.8643078208 -0.1043319553 -0.4920232594
-0.1038324 0.27467719 1.6800001 -0.7745807171 -0.0636408478 0.62926507
0.40033334 -0.3639394 3.7740002 -0.2099710703 0.9205055833 0.3295173347
0.077459045 -0.24402513 1.9930001 0.3652051389 0.2056404501 -0.9079301953
0.12607343 -0.072535403 1.9700001 -0.1171217263 0.8493730426 0.5146338344
0.14508395 -0.055188794 1.9470001 -0.08923665434 0.8849008083 0.4571513534
-0.00337692 -0.059096098 1.9260001 -0.3286601901 0.8132477999 0.480219245
-0.15884674 -0.21861085 1.794 0.279569149 0.3238593936 -0.9038562775
-0.067681298 -0.21955152 1.8830001 0.6727935672 0.3048063815 -0.6741230488
-0.022326069 -0.091021672 1.9590001 -0.427094698 0.8224092126 0.3758100271
0.094227642 -0.1866774 2.0280001 0.5098923445 0.6481431723 -0.5656149387
0.11329777 -0.021345956 1.8730001 -0.17131944 0.8939680457 0.4140903056
-0.14791121 -0.048265759 1.7760001 0.05918096751 0.8725690842 0.4848926067
0.15376031 -0.33403105 2.016 0.3390756249 0.2071111053 -0.9176778793
-0.022326069 -0.18204334 1.9590001 0.5613772869 0.344317466 -0.7525297999
0.29711285 0.0033383467 1.904 -0.4099904001 0.7722690701 0.4852920175
0.30463436 0.091655202 1.8130001 -0.4669069946 0.390720576 0.7933065295
-0.23003295 -0.24255174 1.7850001 -0.4656792581 0.0768160522 -0.8816133738
-0.1840106 -0.23433825 1.794 0.2512095869 0.1546534747 -0.9554978013
0.2438349 -0.037904728 1.9360002 0.08835271001 0.8855444789 0.4560754299
0.045588419 -0.057970461 1.9260001 -0.1394933313 0.9179778099 0.3712928891
0.093158983 -0.20916829 2.0050001 0.6918689609 0.4842011333 -0.5355992913
0.28581524 0.021231988 1.863 -0.263359338 0.8246257901 0.5006337762
-0.12107205 0.33631125 1.705 0.1897622049 0.007164685056 0.9818039536
0.085097156 -0.078150451 1.9810001 -0.05118060485 0.888967216 0.4551019669
0.097891234 -0.43449965 1.9590001 0.7425756454 0.01573652774 -0.6695773005
-0.1119328 0.30781519 1.6800001 -0.3749277294 -0.4922843575 0.7855477929
0.23541236 0.073799893 1.7760003 -0.2565980256 0.7688983679 0.585621655
0.37468821 -0.29142416 3.6530001 -0.2259301394 0.8581357002 0.4610408843
0.18673263 -0.0038108698 1.863 -0.2000478357 0.8367370963 0.5097567439
-0.03545766 -0.20430365 1.9260004 0.5666304231 0.2382930964 -0.7887625694
0.25346187 -0.3073225 3.6140001 -0.1591095924 0.9433127642 0.2912819088
-0.043947302 0.021973649 1.6710001 -0.1193442717 0.8703634143 0.4777283967
-0.13856944 -0.44996142 1.7760001 0.1728517413 -0.6600399613 -0.731074214
-0.016691733 -0.058421068 1.904 -0.3359579742 0.8538431525 0.3975978792
-0.076341666 -0.34373945 1.8430002 0.6506319046 0.09678992629 -0.7531996965
0.092442751 -0.031364504 1.8830001 -0.106341064 0.9091534615 0.4026556611
0.044977382 0.068191513 1.6550001 -0.3788661957 0.7535670996 0.5372123122
-0.11669731 -0.34505916 1.794 0.6986630559 0.1787716597 -0.6927558184
-0.17960182 -0.16688664 1.8130001 0.3363449574 0.6556916237 -0.6759738326
0.1833557 0.075035028 1.7367144 -0.4430777133 0.6925899386 0.5692111254
0.22194727 -0.064951703 1.9810002 -0.2485848963 0.8538674712 0.4572919011
-0.00326646 -0.037564289 1.863 -0.3387460113 0.8798633218 0.3333041072
-0.19407822 -0.30806068 1.7570001 0.2118418366 0.2514235079 -0.9444094896
-0.072023429 -0.019921374 1.748 -0.3085452318 0.8963339925 0.3184103966
-0.018417014 0.069417976 1.6160001 -0.2074552476 0.4977265298 0.8421583176
-0.074984513 -0.26545614 1.8730001 0.781863749 0.2347468436 -0.5775664449
0.19222145 0.10662282 1.7130002 -0.7140179276 0.2100171149 0.6678856611
0.045972399 0.0229862 1.748 -0.3187514246 0.8495804071 0.4202507138
-0.10942641 -0.18455499 1.863 0.7384530902 0.3897772729 -0.550237
-0.0083458666 -0.34718806 1.904 0.724424839 0.2064172626 -0.6577237844
0.0253269 -0.42380345 1.9260004 0.4969145656 0.161026448 -0.8527287841
-0.10315342 -0.22498816 1.853 0.6852879524 0.2886645496 -0.6686204076
-0.047617901 -0.35631332 1.8730001 0.6173243523 0.1479347199 -0.7726745605
-0.13314462 0.46755439 1.766 0.9592758417 0.006279475056 0.2824012041
0.012715174 -0.01430457 1.8130001 -0.2410633564 0.9257446527 0.2913508415
0.069981672 -0.39087322 1.9470001 0.5451167822 0.4422148168 -0.7122455239
0.053836975 -0.19624445 1.9810001 0.2346653193 0.3168225586 -0.9189971089
0.044976506 -0.34708285 1.9360001 0.3374314904 0.3504442573 -0.8736869097
-0.21431421 -0.26518339 1.7659999 -0.1657290906 0.43944332 -0.8828496337
-0.10537358 -0.44508541 1.794 0.5397833586 -0.3268810511 -0.7757465243
-0.13722156 -0.29449555 1.7939999 0.5386366248 0.2927835882 -0.7900305986
0.21365419 -0.018360907 1.904 -0.2076975107 0.8293169737 0.5187437534
0.10563599 0.083032019 1.6813334 -0.4178417027 0.7124419212 0.5637684464
0.17423224 -0.30046171 2.0280001 0.3676297367 0.1572033316 -0.9165890813
-0.071535476 -0.31456009 1.8630002 0.7879493833 0.2588879168 -0.5586705804
-0.117465 -0.063127451 1.8230001 -0.3368039429 0.8791946173 0.3370162845
-0.19561853 -0.33424586 1.7570001 0.2460242808 -0.04373278096 -0.9682765603
-0.088863313 -0.26335856 1.8430001 0.6603207588 0.1619364619 -0.7333164811
0.02718368 0.091566078 1.6320001 -0.2849940658 0.4912626147 0.8230670691
0.065849937 -0.42718038 1.9260001 0.3451755047 0.1090572923 -0.9321804643
-0.16441813 -0.44371223 1.766 -0.03517833725 -0.5519208312 -0.8331542015
-0.19873595 -0.21751414 1.7850001 0.4965926409 0.1929479688 -0.8462663889
-0.19977042 -0.1262549 1.8230001 0.6684195399 0.1455116272 -0.7294119
0.094661295 0.067402802 1.6960001 -0.4303332865 0.8202321529 0.3768719733
0.10637298 -0.052342255 1.9260001 -0.07361701876 0.8515223265 0.5191245675
0.4265781 -0.4946872 4.0890002 -0.1179002151 0.9024413824 0.4143659472
-0.092085063 0.1076687 1.6160001 -0.7042915821 -0.01962131634 0.7096396089
0.30499533 0.05752809 1.8329999 -0.269030869 0.6424851418 0.7175201774
0.036316793 -0.037967555 1.8830001 -0.1589084715 0.8839326501 0.4397853315
0.16168977 -0.01143261 1.863 -0.1540033519 0.9088842273 0.3875724077
0.14543286 0.0079908166 1.8230001 -0.1410899162 0.8507512808 0.5062764883
0.23287092 0.11395811 1.7390002 -0.4875153601 0.04726227373 0.8718342781
-0.093593806 -0.070605859 1.8730001 -0.2312633544 0.9234336615 0.306247443
-0.099617384 0.37021983 1.6960001 -0.2299067378 -0.3406146169 0.9116603136
-0.043562267 -0.076656081 1.9260002 -0.3176271021 0.7399973869 0.5928885937
-0.21829526 -0.28951216 1.766 0.2257578969 0.07034603506 -0.9716402888
-0.1035322 -0.30325064 1.8330001 0.7261551619 0.2362248451 -0.6456752419
