# .PCD v0.7 - Point Cloud Data file format
VERSION 0.7
FIELDS x y z normal_x normal_y normal_z
SIZE 4 4 4 4 4 4
TYPE F F F F F F
COUNT 1 1 1 1 1 1
WIDTH 512
HEIGHT 1
VIEWPOINT 0 0 0 1 0 0 0
POINTS 512
DATA ascii
0.27477494 0.062983677 1.5790001 -0.4704696834 0.02864960209 0.8819509149
0.44528967 -0.45450258 3.5030003 -0.2391733974 0.7834237218 0.5736230016
-0.33387062 -0.28177732 2.7010002 -0.3485177755 0.7891972065 0.5056709647
0.39145532 0.11895052 2.467 -0.9571357369 0.09002672881 0.2752933502
-0.19006571 -0.48604593 1.6550001 0.4303182065 0.1628946066 0.8878578544
-0.3424786 0.16788167 1.9150001 -0.7277280688 0.6726703048 0.133889854
0.0027606233 -0.43341786 3.1490002 -0.3057595789 0.6984251142 0.6470807195
0.2924639 -0.42990592 1.8230001 -0.4144861698 -0.3371053934 0.8453171849
-0.14207844 -0.052896898 1.4960002 0.1360304356 0.3112251759 0.9405501485
0.24558589 0.37807304 1.8430001 -0.9657197595 -0.1970090568 0.1690349132
-0.1877031 0.3336944 1.5860001 0.8479576707 -0.0144337574 0.5298674107
-0.38072845 -0.49255079 3.0370002 -0.3372698724 0.786937952 0.5166988373
0.015099268 -0.17880711 1.8130001 -0.1921236217 0.8864107132 0.4211467206
0.49313027 -0.30646515 3.1780002 -0.2391733974 0.7834237218 0.5736230016
0.3316009 0.24627671 2.2120001 -0.9352751374 0.1361514777 0.32668522
-0.33123273 0.078500241 2.184 0.9520835876 -0.04410611466 0.3026408255
-0.1426249 -0.31377476 2.9580002 -0.3372698724 0.786937952 0.5166988373
0.064309813 -0.49575916 1.7220001 -0.3010495007 -0.3360924721 0.892418623
0.21425734 -0.29631332 3.1200001 -0.2604885697 0.7152093053 0.6485532522
0.25545189 -0.11301812 1.7660002 -0.1533111632 0.8555511236 0.4944976866
0.071938388 -0.060653936 1.6090001 -0.2767965198 0.8213047981 0.4988407493
-0.19323137 -0.25361615 1.7220001 0.5327801704 -0.1441888213 0.8338794112
-0.18646261 0.18284199 2.0650001 -0.6032095551 0.7695164084 0.2097205371
-0.16577767 0.13724217 1.5500001 0.09853811562 -0.241233319 0.9654515386
0.20644391 -0.25293526 1.8940001 -0.8292465806 -0.2634814084 0.4928768873
-0.20196559 0.2873494 1.8730001 -0.4713536799 0.8210048676 0.3221439719
0.043778036 0.063635349 1.4721539 -0.0666231364 -0.5675215125 0.8206586838
-0.02566354 -0.33513561 1.7220001 -0.5187857151 -0.3486091197 0.7805978656
0.46458685 -0.40030441 3.3330002 -0.2391733974 0.7834237218 0.5736230016
0.054136213 -0.30440524 3.0369999 -0.3206649721 0.7456576228 0.5840964913
-0.082300588 -0.13716765 1.6470001 -0.4006000757 0.8357453346 0.3755652606
0.14479728 -0.35498688 1.7760004 -0.1839008778 -0.2361402512 0.9541584253
-0.27090314 -0.34049293 2.835 -0.3372698724 0.786937952 0.5166988373
-0.2489032 -0.4950712 3.1200001 -0.3194486499 0.7460482717 0.58426404
-0.27707049 -0.38262117 3.0100002 -0.3372698724 0.786937952 0.5166988373
0.21658051 -0.047647711 1.6470001 -0.1248610467 0.8292548656 0.5447440743
0.11624126 -0.11624126 1.7310002 -0.1218241304 0.8740198612 0.4703702629
-0.05540007 -0.45486379 1.6630001 -0.3936070204 -0.2782547176 0.876155138
0.19561853 -0.49751797 1.7570001 -0.5879294276 -0.1737672985 0.7900277972
0.12374325 -0.43028903 3.2080002 -0.2806384265 0.6862512231 0.6710450053
0.15305899 0.015709868 1.5359999 -0.3653072417 0.7401993275 0.5644958019
-0.14508833 -0.3554664 1.6550001 -0.07358915359 -0.3430416584 0.9364331365
-0.016214125 -0.04226305 1.516 -0.4377383888 0.7525135279 0.4920452535
0.38688615 -0.33530134 3.2690001 -0.2391733974 0.7834237218 0.5736230016
0.38096866 0.12973528 2.3490002 -0.9574588537 0.09558603913 0.2722789347
0.1446237 -0.1719415 1.8330001 -0.06529639661 0.8711231351 0.4867040515
0.056094393 -0.28361747 1.794 -0.416785121 -0.5731280446 0.7055596709
-0.083176382 -0.1832961 1.7570001 -0.2126049995 0.9181563258 0.3343471587
0.25589287 -0.31311116 1.8130001 -0.1813659966 -0.4858078659 0.8550421596
0.0045051896 -0.13165165 1.7129999 -0.3212518692 0.8700403571 0.3739344776
-0.072856262 0.02172906 1.4580001 0.1523333341 0.03659822419 0.9876513481
0.31390569 -0.013227148 1.6366668 -0.4604579806 0.5836476684 0.6688302159
-0.17425853 -0.13491198 1.6029999 -0.2144382596 0.8305715322 0.5139719248
0.054882836 -0.39485154 1.7390002 -0.1971102655 -0.1010544151 0.9751592278
-0.18509939 0.23720145 1.5640001 -0.4313046038 -0.2677966356 0.8615458608
-0.15124322 0.047047544 1.516 -0.1603332907 -0.4766975939 0.8643220663
-0.1048437 -0.28378263 1.705 -0.1670202613 -0.7763516903 0.6077682376
0.15417147 -0.26383984 1.8130001 -0.3066985905 -0.4792578518 0.8223429322
-0.085008614 -0.095520437 1.5640001 -0.2929471135 0.850494206 0.4368541837
0.36035472 0.17320918 2.2710001 -0.9575533271 0.1043856218 0.2686916888
-0.18201704 -0.16721891 1.6880001 0.344452709 0.8440005779 0.4111148119
-0.024771089 -0.25545189 1.7660002 -0.2455111444 -0.6657389402 0.7046388984
0.064842217 -0.0064646862 1.5250001 -0.3473291099 0.7436048388 0.5713267922
0.0328224 -0.35557601 3.1200001 -0.3166293502 0.7293366194 0.6064766645
0.13415805 -0.43448913 1.7390002 -0.1352205575 -0.2467200458 0.9596064687
0.21438445 -0.41468525 1.7850001 -0.09770797193 -0.2666255534 0.9588347077
-0.0076880157 -0.093679905 1.6240002 -0.3501729071 0.8351152539 0.4242186844
0.19409861 -0.093482696 1.7130002 -0.20578596 0.8452223539 0.4932051003
-0.11484567 -0.4959245 1.6240002 -0.1237991601 -0.03307522088 0.9917559028
0.28264433 -0.072510853 1.6880001 -0.1006732807 0.8382039666 0.5359841585
-0.19732013 -0.29598022 1.6550001 -0.2939893901 -0.2948995233 0.909177959
0.13493215 -0.07302779 1.6550001 -0.09240093082 0.8641219735 0.4947274327
-0.25748402 -0.31356964 2.9080002 -0.3372698724 0.786937952 0.5166988373
0.22719026 0.0025027082 1.5860001 -0.2498095483 0.6888794899 0.6804705858
0.11568055 0.073163308 1.5037501 -0.2011377215 -0.6090310216 0.7672188878
0.20329754 0.071936049 1.5289999 -0.4550617635 -0.1822728962 0.8716050386
0.22534102 -0.15182552 1.8230001 -0.2415519357 0.8580620289 0.4531911314
-0.064172007 -0.38271761 1.6800002 -0.5141031742 -0.3084096014 0.8003633022
0.26253012 -0.4950116 1.804 -0.6344831586 0.3198907971 0.7036341429
0.13834326 -0.027948134 1.5940001 -0.2753994167 0.7638909221 0.5836315751
0.083984315 -0.15507217 1.794 -0.04432930425 0.8603572249 0.5077601671
-0.13448767 -0.42492387 1.6320001 -0.149684459 -0.1662712991 0.974652946
0.0044841501 -0.44542554 1.705 -0.4225302339 -0.2149133086 0.8805001378
0.46426338 -0.36395955 3.2690001 -0.2391733974 0.7834237218 0.5736230016
0.054201666 -0.098148972 1.6710001 -0.2068919986 0.8640176058 0.458987236
0.17282256 -0.14168335 1.7760001 -0.1752535999 0.8142400384 0.5534431338
-0.0041004089 0.01441001 1.4700001 -0.4137832522 0.3992027044 0.8181812763
-0.11448565 -0.1724719 1.6960001 -0.3568169177 0.8416520953 0.405343622
0.18762596 -0.18762596 1.8940001 -0.914477706 0.0343642123 0.4031744003
-0.37408417 -0.45256338 2.9840002 -0.3372698724 0.786937952 0.5166988373
0.016091362 -0.057465654 1.5731667 -0.3476942778 0.8238982558 0.4475493133
0.079404958 -0.34408817 1.7760001 -0.1717821062 -0.3742096126 0.9112946987
-0.075594962 -0.044319663 1.4867501 -0.0828140825 0.693674624 0.7155119777
0.20503217 -0.35443544 1.813 -0.445212841 -0.3633188903 0.8184038997
0.12501089 -0.49547008 1.7390002 -0.08044680953 -0.1684856266 0.9824158549
-0.02372067 -0.16727695 1.7570002 -0.364782244 0.8055775762 0.4668818414
0.26369697 -0.37556839 1.8230002 -0.2250822335 -0.09368176758 0.9698256254
0.017030127 -0.33286157 1.766 -0.3468599021 -0.4074027538 0.8448143005
-0.05829395 -0.15096638 1.705 -0.3250875771 0.8618509769 0.389269799
-0.21782711 0.36731631 1.6240001 0.6971483827 -0.3319710791 0.6354363561
-0.14305212 -0.102833 1.5640001 -0.02459195815 0.8428239822 0.5376271605
-0.019043829 -0.49953431 1.6710001 -0.6595948935 -0.119002685 0.74214077
0.21650335 -0.28274691 1.8430001 -0.5559296608 -0.5381202698 0.6335366964
-0.18426219 -0.40624732 1.6550001 0.6273162365 -0.05649344251 0.7767128348
0.055166882 -0.13536318 1.748 -0.1160774603 0.8742138743 0.4714616537
0.11214758 -0.29784313 1.7850002 -0.2055502534 -0.4926996231 0.8455744386
0.0015017299 -0.38894805 1.7130001 -0.7405058742 -0.2071383297 0.63933146
-0.14438701 -0.15449409 1.6470001 0.002345842775 0.8880419731 0.459756434
-0.094440959 -0.3349866 1.6833334 -0.4664562047 -0.410423249 0.7835632563
-0.11509143 -0.0052915597 1.5090001 0.06979829818 -0.2719599009 0.9597739577
0.093320288 -0.24726471 1.813 0.06210705265 -0.4644070566 0.8834414482
0.28087875 0.0097818468 1.5940001 -0.4521971047 0.635707438 0.6256147623
-0.054513633 -0.28447473 1.7310003 -0.355138123 -0.4145743549 0.8378574252
0.074701644 -0.44516084 1.7390002 -0.09889259189 -0.05370037258 0.9936481118
0.272468 -0.44684753 1.7760001 -0.2045550197 -0.2873055041 0.9357418418
-0.20069267 -0.34718367 1.6710001 0.5663368702 -0.1553331017 0.8094035983
-0.17747064 0.28087875 1.5940001 -0.6085706353 -0.338316232 0.7177631259
-0.11512396 -0.12543842 1.6036668 -0.2428586483 0.8655969501 0.4379058778
-0.0347347 -0.077239007 1.5640001 -0.2829344571 0.8690492511 0.405834347
-0.19575877 -0.19575879 1.7310001 0.381768465 0.3142622113 0.8691905141
0.10535675 -0.38630813 1.7570002 -0.1836210936 -0.4626315236 0.8673265576
-0.15501043 -0.28597394 1.688 0.1163528487 -0.5913677216 0.797963798
-0.096791014 -0.31653276 2.9840002 -0.3244937062 0.7406523824 0.5883347988
0.083977945 0.033794232 1.4890002 -0.3237740099 0.351850301 0.878277719
-0.034114785 -0.12333806 1.6630001 -0.2907797992 0.8725239038 0.3926183581
0.18503629 -0.30523077 1.804 -0.1659859419 -0.4233650267 0.8906237483
0.094998106 -0.024092302 1.5640001 -0.2211789787 0.8089587092 0.5446702242
0.01730014 -0.2437747 1.794 -0.5915148258 -0.4700843394 0.6550808549
0.1832961 -0.44514766 1.7570001 -0.4789904058 -0.2405514419 0.8442174792
0.27289143 -0.043027326 1.6470001 -0.1834276021 0.7345481515 0.6532942057
-0.054173179 -0.1041252 1.605 -0.3550623059 0.8524448276 0.3837559223
-0.17321646 0.18601346 1.5640001 -0.237176463 -0.3927754462 0.8885239363
0.24506164 -0.089067578 1.7220001 -0.06391577423 0.9041074514 0.4224979281
-0.085188329 -0.41655651 1.6470001 -0.3928722143 -0.2078345418 0.8957992196
-0.1434253 0.095170058 1.529 0.4050606191 -0.1389618516 0.9036678076
0.016868945 -0.49432415 1.705 -0.4265718758 -0.2251915783 0.8759710193
0.23578866 0.044975147 1.5546668 -0.3749108911 0.2353971452 0.896677196
0.18478294 -0.022568906 1.6090001 -0.1959032118 0.7663909793 0.6117734909
-0.064658552 -0.4957155 1.6390001 -0.457977891 -0.3611536324 0.8122956753
-0.035557602 -0.4294264 3.1200001 -0.3076995611 0.6981990337 0.6464047432
0.17494583 -0.39478931 1.7659999 -0.2340810597 -0.2533608377 0.9386236668
0.22575919 -0.46553102 1.7760001 -0.3489477932 -0.08710163832 0.9330856204
0.18311375 -0.071780592 1.6710001 -0.2925622761 0.7947052121 0.5318373442
0.14422219 -0.095156908 1.6960001 -0.05314004049 0.8727294803 0.4853033721
0.12549098 -0.14292893 1.7760003 -0.09883505851 0.8661702871 0.4898782074
-0.10447343 -0.077132344 1.5256667 -0.02549300529 0.8078590631 0.5888241529
0.01844682 -0.0092234099 1.503 -0.308141917 0.7780625224 0.5474187136
-0.06133686 -0.25006565 1.794 -0.009336049668 -0.9643560648 0.2644431591
-0.011952823 -0.2951428 1.7479999 -0.714245379 -0.324651897 0.6200441122
-0.045241266 -0.01379698 1.464 -0.2859927118 0.51856637 0.8057897091
-0.025156826 -0.4158276 1.688 -0.4434038103 -0.1297181398 0.8868857026
0.18518881 -0.25179181 1.853 -0.5252436996 -0.6126614809 0.5905632377
0.1953014 0.023347229 1.5500001 -0.1617320031 0.6839168668 0.711407423
-0.15500513 -0.46500117 1.6336155 0.30328089 0.04648781195 0.9517665505
0.16081223 0.065122306 1.516 -0.3521624506 -0.1775062233 0.9189522266
-0.055519737 -0.065554507 1.526 -0.3302386105 0.8400128484 0.4304890633
0.1054779 0.012016471 1.5230001 -0.3163043857 0.7404482365 0.5930328369
0.20486034 -0.11706305 1.7570001 -0.1305623651 0.8615767956 0.4905495942
-0.10555176 -0.37614155 1.655 -0.2966428399 -0.2404575944 0.9242203236
0.24549271 -0.024893327 1.6160001 -0.1197723299 0.8030790687 0.5837110877
0.19526048 -0.172518 1.853 -0.549826026 0.6832154989 0.4805288017
0.040139936 0.01942255 1.4770001 -0.3709555566 0.5322338343 0.7609987259
0.038629439 -0.078689598 1.6320001 -0.2715995312 0.8611121178 0.4297902286
0.2248992 -0.07460171 1.6850001 -0.1126274839 0.8007611632 0.5882997513
0.095156901 -0.099617384 1.6960001 -0.1436505765 0.8802422881 0.4522588253
0.024911361 -0.15725295 1.7760001 -0.193899855 0.836535275 0.5124564171
0.0072894832 -0.10934225 1.6630001 -0.2966865301 0.8668746948 0.4006312191
-0.037845701 0.039107222 1.439 -0.1481674463 0.1428831071 0.9785861373
0.084466398 -0.077247038 1.6470001 -0.1926331073 0.8491780162 0.491720587
0.033141069 -0.031788372 1.5430001 -0.3489766121 0.7670736313 0.5383431911
0.25315064 -0.29234818 1.863 -0.5014259815 -0.5081565976 0.7002491951
0.059132043 -0.1741998 1.8230001 -0.1390238702 0.8397269845 0.5249103904
0.013312183 -0.31682995 3.0370002 -0.3206649721 0.7456576228 0.5840964913
-0.10444256 -0.45496896 1.6320001 -0.3354088366 -0.1323367804 0.93273139
0.16405444 -0.11438893 1.7345557 -0.1387927234 0.8754911423 0.4628735185
0.25225031 -0.41672701 1.8040001 -0.5961873531 -0.2463229448 0.7641240954
-0.1455328 -0.086785614 1.5230001 -0.2567707002 0.8093768954 0.5281835198
0.025916895 -0.36436108 1.7390002 -0.2823884487 -0.3796089888 0.8809959292
0.18437001 -0.15735027 1.8130001 -0.1390119791 0.8698664308 0.4732949436
-0.066907197 -0.30628628 1.6960001 -0.4386085272 -0.4186849594 0.7951889634
0.11404381 -0.053126 1.6160001 -0.2116903365 0.835157454 0.5076408386
0.034902729 -0.43552542 1.7310001 -0.3902731538 -0.2756969631 0.8784520626
0.16646484 -0.0065029883 1.573 -0.342271179 0.7688805461 0.5400677323
0.1570823 -0.048880596 1.6240001 -0.2459816039 0.7882365584 0.5640711188
0.097511634 -0.42069304 3.1780002 -0.2875027955 0.6790033579 0.6754972339
-0.055309951 -0.34583586 1.6960001 -0.5236580968 -0.4132986069 0.7449607253
-0.16182654 -0.31927937 1.6630001 -0.0333782956 -0.5472046733 0.8363330364
-0.20177974 -0.22642459 1.7570001 0.6760763526 0.01679514907 0.7366401553
0.055219151 -0.046936624 1.5746251 -0.3099268377 0.8145651221 0.4903356135
-0.08346305 -0.25645918 1.7310001 -0.2255699039 -0.7073332667 0.6699237227
0.074755117 0.072132133 1.4960001 -0.3332549334 -0.4759061635 0.8139130473
0.044841498 -0.11658789 1.705 -0.2677266896 0.8690471649 0.4160282016
0.30603206 0.040524792 1.5940001 -0.4035071433 0.4677625 0.7863715887
0.014012641 -0.28492367 1.7760001 -0.2788424492 -0.3519431651 0.8935227394
0.0051548001 0.052836698 1.4700001 -0.2521751225 -0.3984463215 0.8818436861
0.14705119 -0.31376162 1.794 -0.2805131376 -0.466861546 0.8386612535
-0.095593922 -0.0064588417 1.4735001 0.6997259855 0.2338225394 0.6750633717
0.16423275 -0.47440395 1.7390002 -0.3173372149 -0.1839453727 0.9303016663
0.13473357 0.034339245 1.5067503 -0.3176301122 0.5456273556 0.7755010724
0.019324364 -0.37820539 3.1490002 -0.306964308 0.7041807175 0.6402362585
-0.14547066 0.0061478126 1.4872857 -0.3213816285 -0.2843317688 0.903254807
0.10707694 -0.17100348 1.8230001 -0.1000607908 0.848539412 0.5195851922
-0.12760438 0.061773147 1.5430001 -0.5184399486 -0.4705093205 0.7140315175
0.18618822 -0.21068667 1.863 -0.9518210292 -0.07425750047 0.2975274622
0.18424027 -0.35861978 1.7760001 -0.4825740159 -0.3362834454 0.808724761
-0.12518799 -0.3122336 1.6800002 -0.2103536874 -0.5812163353 0.7860909104
0.093958504 -0.1340064 1.7570001 -0.1545018107 0.8684921265 0.4710102379
0.22655083 -0.38470152 1.804 -0.3809623122 -0.3313509822 0.8631768227
-0.14512253 -0.38938817 1.6390001 -0.06171329319 -0.2942576706 0.9537315369
0.053244058 -0.24724221 1.8040003 -0.1871880442 -0.3768360019 0.9071688056
0.21894838 -0.32123083 1.8230001 -0.4565551281 -0.2234961987 0.8611660004
0.22377355 -0.13301225 1.7850002 -0.1141108572 0.8245353103 0.5541843176
0.45709398 -0.38476899 3.3000002 -0.2391733974 0.7834237218 0.5736230016
-0.18170144 -0.43923104 1.6320001 0.5345951915 -0.0865573734 0.8406639099
0.054493599 -0.31606287 1.7760001 -0.2385996431 -0.2934776545 0.9257110953
0.12537965 -0.0057649608 1.5532308 -0.3107973933 0.7514770031 0.5819684267
-0.084538713 -0.17058706 1.7220001 -0.3244416416 0.8687989116 0.3740668893
0.10519211 -0.46497959 1.7390002 -0.1902590543 -0.1208414882 0.9742683768
-0.11095532 -0.035244629 1.489 0.4353243113 -0.09056959301 0.8957063556
-0.11225804 -0.15599494 1.6630001 -0.2990931571 0.8898158073 0.3446318507
0.0045972401 -0.14711168 1.748 -0.3187806904 0.8431848884 0.4329181612
0.11521503 -0.33474639 1.7760004 -0.006949101109 -0.1602388322 0.9870538116
-0.015837129 -0.015841512 1.4850001 -0.4854954779 0.6322805882 0.6037510633
0.1377892 -0.39788568 1.766 -0.3078025877 -0.3566776812 0.8820649385
-0.023564801 -0.46540478 1.6800002 -0.6468272805 -0.2229008079 0.7293351293
0.015830189 -0.074929796 1.6050001 -0.2681544721 0.8492997885 0.454734087
0.095435165 -0.4152801 1.7390001 -0.1520903856 -0.2362442315 0.9597172141
0.25550187 -0.3422761 1.8330001 0.2753499746 -0.2411329001 0.9306112528
0.046445798 -0.35453629 1.7659999 -0.2997552752 -0.4994937479 0.8128054738
-0.032710187 -0.38211444 1.6960001 -0.3342365324 -0.2671575844 0.9038322568
0.040759739 -0.46949181 1.7220001 -0.5772235394 -0.2707801163 0.7703837156
-0.18534487 -0.29146975 1.705 0.3774586916 -0.65717417 0.6524162889
-0.024908729 -0.14869756 1.7220001 -0.3255162835 0.8583856225 0.3965012431
-0.13334976 -0.27324119 1.7220001 -0.1722174883 -0.8111303449 0.5589352846
-0.17451364 -0.22307399 1.7310001 0.6412811875 -0.07701463997 0.7634311914
0.19600426 -0.30090794 3.1490002 -0.2604885697 0.7152093053 0.6485532522
0.494973 -0.32341987 3.2080002 -0.2391733974 0.7834237218 0.5736230016
0.23999889 0.39417037 1.8130001 -0.5147544146 -0.5408505797 0.6652131677
-0.14719585 -0.18287967 1.6960001 -0.0486516431 0.9358503222 0.3490231931
0.2452182 -0.058024287 1.6630001 -0.04321743548 0.8664534092 0.4973839521
-0.055666577 -0.41456953 1.6710001 -0.6061583161 -0.1435565799 0.7822810411
-0.08407817 -0.14898892 1.6826668 -0.3527976573 0.8550700545 0.3799854815
0.19018143 -0.26689327 1.8230001 -0.4770164788 -0.6797101498 0.5571798682
0.1439171 -0.15430985 1.804 -0.04036150128 0.8389061093 0.5427775383
0.25523803 0.024830194 1.5737501 -0.3605282307 0.5075681806 0.7825559974
-0.085800767 -0.11151306 1.5940001 -0.2855240703 0.8726574183 0.3961628973
-0.17673337 -0.15086995 1.6390001 0.02582451515 0.9277024865 0.3724260628
-0.054965734 -0.16490653 1.7363335 -0.3304699361 0.8291370869 0.4509116411
0.075474866 -0.37121311 1.7570001 -0.3054398894 -0.5389485359 0.785010159
-0.11381325 -0.18361871 1.7310001 -0.2969649434 0.9194258451 0.2578138411
0.28305534 -0.015016949 1.6159999 -0.4319392145 0.5757557154 0.6942145824
0.31308922 0.01275024 1.6160001 -0.3942616284 0.6633642316 0.636007607
-0.1467277 -0.11877956 1.5940002 -0.03319938481 0.8322889209 0.5533471107
0.089646183 -0.27522948 1.794 0.1850197017 -0.3046489656 0.9343215227
0.073216572 -0.11699555 1.7220001 -0.1223899499 0.8662001491 0.484477073
-0.024221716 -0.086173415 1.594 -0.38884902 0.8185876012 0.4227419794
-0.006781016 -0.17161189 1.7850002 -0.3674066961 0.8289729357 0.421682626
0.15524158 -0.42575312 1.766 -0.3078446984 -0.2424164414 0.9200358391
-0.37470487 -0.474978 3.0100002 -0.3372698724 0.786937952 0.5166988373
-0.015556011 -0.061547697 1.5430001 -0.4117790759 0.7565982938 0.5079340935
-0.053487185 -0.11796572 1.6343335 -0.3354350924 0.8462212086 0.4139962792
-0.064179309 -0.25517693 1.7570001 -0.2507844865 -0.8818268776 0.3993601501
-0.12765889 0.024473466 1.5090001 -0.232869193 -0.3090711236 0.9220883846
0.20589043 -0.21419246 1.8940001 -0.8390247226 -0.1962486356 0.5074682236
-0.16380166 -0.49571553 1.6390001 0.4588519633 0.1269670129 0.8793942332
0.12493902 -0.27518219 1.8040003 -0.2422941625 -0.3008020222 0.9223945141
-0.17555688 -0.36562261 1.6550001 0.2235541791 -0.1829929799 0.9573594332
0.022295386 0.064263172 1.4960001 0.03539859504 -0.6248565912 0.7799366713
0.18497841 0.045574397 1.5289999 -0.2092942446 0.4094091058 0.8880203366
0.18535452 -0.050289985 1.6390001 -0.2043100297 0.8106720448 0.548696816
-0.11301811 -0.19042778 1.766 -0.2314575016 0.9345657229 0.2702115476
0.065344281 -0.025866926 1.5528001 -0.3147768378 0.7791339755 0.5420939326
0.084814869 -0.3139089 1.7850001 -0.1827085018 -0.4781823158 0.8590455651
0.025797671 -0.40517518 1.7310001 -0.3758646846 -0.1365481615 0.9165589809
-0.045377668 -0.043279279 1.4960001 -0.3251017928 0.7370911837 0.5924571157
-0.11159616 -0.13877983 1.6320001 -0.25887537 0.8223543763 0.5066723228
-0.20825392 0.3385897 1.6160001 0.7212833166 -0.2765724361 0.6350260377
-0.14098641 -0.02239971 1.503 -0.4749828577 -0.182495743 0.8608638644
0.05347316 -0.16199222 1.794 -0.2552323043 0.8522068858 0.4567273259
0.17457414 -0.33499363 1.794 -0.3193881214 -0.2897680402 0.9022337198
-0.0045572058 -0.35536733 1.7323335 -0.569105804 -0.3926169574 0.7224752903
0.14478852 -0.12784518 1.7570001 -0.05413909629 0.8650887609 0.4986886382
-0.11517383 -0.34552151 1.6630001 -0.3086412549 -0.2963620722 0.9038307667
0.24534744 -0.44508544 1.794 -0.4958991408 -0.2416276932 0.8340863585
0.095023654 -0.043319605 1.5940001 -0.1360294223 0.8460145593 0.5155146718
0.23354399 -0.49511328 1.7760001 -0.4553896487 0.02770255879 0.8898611069
0.095603131 -0.49470827 1.7310003 -0.1697576195 -0.1858166158 0.9678091407
-0.082700349 -0.46573356 1.6550001 -0.5405160189 -0.1803450435 0.8217774034
0.30178374 -0.037722968 1.6550001 -0.2846688032 0.6868494153 0.6687312722
0.27444825 -0.40404475 1.8230001 -0.3310080171 -0.210146144 0.9199305773
-0.11504305 -0.096719287 1.5538182 -0.02968685701 0.863882184 0.502818346
-0.26944524 -0.36885223 2.9840002 -0.3372698724 0.786937952 0.5166988373
-0.019237572 -0.13170339 1.6880001 -0.3387884796 0.8572802544 0.3876762986
0.23523073 -0.35443544 1.8129998 -0.3388271332 -0.4104849696 0.8465803266
-0.17420067 -0.18471278 1.7130002 0.3186431825 0.6724568605 0.668033123
0.13568257 -0.46497959 1.7390002 0.01907281205 -0.1328147203 0.9909573793
-0.19452867 0.30424336 1.5860003 -0.4938172698 0.04124956951 0.8685867786
0.2123199 -0.25968358 1.863 -0.3541941345 -0.8169612885 0.4551052749
-0.057317782 -0.093231745 1.5755 -0.3477417529 0.8351031542 0.4262374938
0.1350321 0.081551917 1.5250001 -0.2463103384 -0.6280794144 0.7381378412
0.24397019 -0.3126373 1.8430001 -0.3420454264 -0.5305965543 0.7755464315
0.19500399 0.0031007698 1.572 -0.06948173046 0.7811438441 0.620472908
-0.32446602 0.086314261 2.1560001 0.9520835876 -0.04410611466 0.3026408255
-0.15528047 -0.16846465 1.6710001 0.08656957 0.8695438504 0.4862089753
0.22385508 0.01774461 1.557 -0.3120776117 0.5903645754 0.7443636656
0.21580963 -0.027389402 1.6160001 -0.1010887325 0.8161428571 0.5689392686
-0.16728115 0.2134988 1.57375 -0.7340155244 -0.3139360249 0.6022170186
0.0077409665 -0.24306636 1.766 -0.4508028924 -0.214449048 0.8664804697
-0.077640228 -0.35597312 1.6710001 -0.4773995578 -0.3299485743 0.8143854141
-0.11262186 -0.40572748 1.6470001 -0.4393284321 -0.292608887 0.8493353724
0.25272328 -0.47336709 1.7850001 -0.4044243991 0.1105666533 0.9078633785
0.25424737 -0.078801811 1.6960001 -0.05680366978 0.8651955128 0.4982068241
0.19532174 -0.38537988 1.785 -0.5545861125 -0.3427093625 0.7582773566
0.1048457 -0.087685332 1.6710002 -0.1520071477 0.8647516966 0.4786421359
0.12510821 -0.2472647 1.813 -0.131670326 -0.3587945104 0.9240829945
0.22556634 0.072018169 1.5500001 -0.4871798456 -0.01776459627 0.8731209636
-0.16819376 -0.2658062 1.7130001 0.4581671953 -0.3127959371 0.8320105672
-0.0045972397 -0.32487163 1.7479998 -0.6370534301 -0.3436160386 0.6899934411
0.046683025 0.0023727859 1.5042002 -0.3330816627 0.7389219403 0.5857055187
0.22358947 -0.10343265 1.7350001 -0.1698887199 0.854423821 0.4910170436
-0.11700134 -0.11313279 1.5776001 -0.09605880827 0.8432549238 0.5288609266
-0.084995687 -0.063829444 1.5089999 -0.1561300457 0.8041502833 0.5735552907
-0.039173849 -0.47734061 1.6550001 -0.4690252841 -0.2133658379 0.8570240736
-0.1473361 -0.13741925 1.6160001 -0.1516479403 0.8526602983 0.4999732971
-0.0036300265 -0.47425222 1.705 -0.4713820815 -0.1850833893 0.8622894287
-0.096456915 -0.30524516 1.6879998 -0.3717076182 -0.3721181154 0.8505066633
-0.081821404 -0.28411049 1.7220001 -0.3716768324 -0.5231537223 0.7669201493
-0.074256174 -0.022918571 1.464 0.1316226721 0.5693433285 0.8114947081
0.197368 -0.23546234 1.8730001 -0.8379058242 -0.1980181634 0.5086281896
0.0040396801 -0.041743357 1.5359999 -0.3926182687 0.7881547809 0.4739861786
-0.034902729 -0.3050195 1.7310001 -0.4346091151 -0.2501529455 0.8651811481
-0.02586342 -0.11063796 1.6390001 -0.3349856734 0.8342576623 0.4379483759
-0.15762466 0.16441883 1.5500001 -0.2704309523 -0.3344732821 0.9027705789
0.28192696 0.035529252 1.5790001 -0.4194251597 0.3676109314 0.8300269246
-0.052529868 -0.13893414 1.6799999 -0.3229103684 0.8546697497 0.4065323472
-0.073045619 -0.079809099 1.5430001 -0.3434529603 0.829421103 0.4405686557
0.24570249 -0.043105703 1.6390001 -0.07291132212 0.7941423059 0.6033423543
0.025837412 -0.13527112 1.7336669 -0.2254989594 0.8855136037 0.4062214792
-0.035686139 0.015291147 1.4538749 -0.1323141456 0.2150896043 0.9675894976
0.025698256 -0.11255138 1.6848001 -0.2711717784 0.8800768256 0.389782846
0.20396177 -0.44529054 1.7760004 -0.2349859029 -0.1953824461 0.9521592855
0.19816524 -0.13997386 1.794 -0.2287611663 0.7836956382 0.5774855018
0.25339642 -0.0032606155 1.594 -0.2529934049 0.6855327487 0.6826705933
0.26860803 -0.44026288 1.8130001 -0.3704555631 -0.4449063838 0.8153655529
0.15528047 -0.08276742 1.6710001 -0.1456352174 0.8590562344 0.490726769
0.27360064 -0.46970749 1.8040001 -0.8677254915 0.1450616419 0.4754046798
0.085896239 -0.008792528 1.5430001 -0.2765251994 0.7612119913 0.586591959
-0.016616339 0.035789039 1.4580001 -0.3720710278 0.01057316735 0.9281440377
-0.37874103 -0.49692973 3.0640001 -0.3372698724 0.786937952 0.5166988373
0.045343023 -0.065691128 1.6046922 -0.2647911012 0.8348329663 0.4826381803
0.0075480998 -0.42420322 1.7220001 -0.6402090788 -0.2859811783 0.7129846811
-0.20069267 -0.31788546 1.6710001 -0.1028570235 -0.02922568098 0.9942666888
-0.3429558 -0.29521254 2.7230003 -0.3372698724 0.786937952 0.5166988373
0.14039466 -0.10718302 1.7220001 -0.04710300639 0.878374517 0.475646466
0.1719415 -0.1719415 1.8330001 -0.1326370239 0.918094933 0.3735091686
-0.1648818 -0.41564655 1.6383002 0.4339717329 -0.1449979246 0.8891817331
0.15995397 -0.25043297 1.8430001 -0.3969833255 -0.7803867459 0.4831157029
0.032861851 -0.26758936 1.7850001 -0.4473907053 -0.5486218929 0.7062970996
-0.0069212839 -0.07059709 1.5790001 -0.4034253359 0.8479383588 0.3438729048
-0.0269049 -0.35723728 1.705 -0.4085024595 -0.6210016012 0.6689414978
-0.053561702 -0.32487425 1.7129999 -0.6405630112 -0.313395977 0.7010434866
0.20541878 -0.013974067 1.5940001 -0.02904698439 0.8309037685 0.5556574464
0.0752334 0.01451572 1.5055715 -0.3022398055 0.7490098476 0.5896061063
0.11351168 -0.070405975 1.6390001 -0.1479881257 0.8349249959 0.5300940871
-0.19198518 0.26795357 1.5755 -0.5333369374 -0.3985389769 0.7461356521
-0.14744394 0.11768461 1.5430001 -0.1726035476 -0.2301608175 0.9577233791
0.1641199 -0.064492859 1.6470002 -0.3159072995 0.7844754457 0.533667326
0.024545789 -0.095776714 1.647 -0.3314765096 0.8291344643 0.4501770735
-0.034632541 -0.27246308 1.7479999 -0.3971176744 -0.6784054041 0.6181129813
-0.1164785 -0.057185143 1.5030001 0.03280983493 0.6746752858 0.7373850942
0.25251946 0.065518558 1.557 -0.5126658082 -0.1060779095 0.8520101309
-0.084160395 -0.39535505 1.6630001 -0.3396618366 -0.2608071566 0.9036644697
0.1161145 -0.36382544 1.7659999 -0.08384808153 -0.3759187758 0.9228513241
-0.14237067 -0.4861958 1.6240001 0.203999266 -0.05987860635 0.9771381021
0.27178684 -0.34807786 1.8130001 0.1905072033 -0.1390601248 0.9717866182
0.061504744 0.044671863 1.4770001 -0.410274893 0.06109933555 0.9099128246
0.1148933 -0.032530032 1.5790001 -0.2693416178 0.7724599838 0.5751179457
0.051833794 -0.36741012 1.7390001 -0.2938495874 -0.4678220153 0.8335436583
0.09661334 0.055519886 1.4960002 -0.2023273408 -0.24009417 0.9494305849
0.17445435 -0.091687642 1.6960001 -0.2913058698 0.8052445054 0.5164515376
-0.076880157 -0.12243877 1.6240001 -0.3701823652 0.8278259635 0.4215082228
-0.071436934 -0.43445322 1.6630001 -0.5089902282 -0.09789899737 0.8551869392
0.20616305 -0.2956602 1.8230002 -0.5224000812 -0.3753772676 0.7656304836
-0.1737904 -0.30192399 1.6800001 -0.1817578524 -0.6472775936 0.740267396
-0.17098594 -0.38795131 1.6390001 0.3240641057 -0.2379313856 0.915626049
-0.16024064 0.076753914 1.5359999 -0.2716130614 -0.2543049157 0.9282000661
0.10936329 0.031623118 1.503 -0.2901970446 0.5608764291 0.7753730416
0.17343816 -0.12291621 1.7570002 -0.2518157959 0.8214417696 0.5116856098
0.16349657 -0.022358507 1.594 -0.2820318937 0.7591093779 0.5866948962
-0.0077409665 -0.27557841 1.766 -0.5899028182 -0.3484651148 0.7284138203
0.21230763 0.048925012 1.5359999 -0.6044071913 0.1468592137 0.7830225229
0.2348974 -0.26673689 1.853 -0.4899637401 -0.5736711621 0.6563816667
0.16289519 -0.28625271 1.8040003 -0.2674127519 -0.1431359351 0.9528916478
0.20499973 -0.48317659 1.7760001 -0.3377380073 -0.1979516894 0.9201892018
0.074697256 -0.47459036 1.7318001 -0.1336919963 -0.2400906831 0.9615003467
0.022420749 -0.46485686 1.705 -0.5011945963 -0.1101166904 0.858299613
0.065915979 -0.10556469 1.6960001 -0.176675871 0.900785923 0.3966993093
-0.042711198 -0.43447599 1.6799999 -0.4779844582 -0.2757036984 0.8339774013
0.13448767 -0.0572288 1.6320001 -0.1144628078 0.8188692927 0.5624511838
0.27181312 -0.08559861 1.7130001 -0.0589158088 0.9038026333 0.4238746762
0.089044787 0.07841257 1.516 -0.152080521 -0.6663541794 0.7299613953
-0.094074845 -0.48449013 1.6330001 -0.3203107119 -0.2152812928 0.9225264192
0.035604358 -0.016467014 1.5230001 -0.3474365473 0.7730264068 0.5307711959
0.1959431 -0.10615578 1.7360002 -0.1871448606 0.8673349023 0.4612016678
0.024898736 0.038246512 1.4640001 -0.1382013559 0.00521608768 0.99039042
0.15491752 -0.38223368 1.7760001 -0.08508954942 -0.2838766575 0.9550778866
0.15477376 -0.44593233 1.748 -0.4070278108 -0.3828318715 0.8293178678
-0.0046945498 -0.25381869 1.7850001 -0.3503597081 -0.09897491336 0.9313710332
0.06383536 -0.14791121 1.7760001 -0.1806767583 0.8733881712 0.4522709548
-0.12726393 -0.28856361 1.6880001 -0.1614503115 -0.631485641 0.7583928108
0.12792321 0.01211904 1.536 -0.2289948612 0.7738366127 0.5905406475
0.021984344 -0.30623263 1.766 -0.2650320232 -0.3411877155 0.9018586278
0.15888444 0.041390061 1.5230001 -0.48739779 0.3276863694 0.8093608618
-0.059486218 -0.13203038 1.6550001 -0.3609144986 0.8451707959 0.3942423761
0.08057005 -0.092289329 1.6710001 -0.1904295236 0.8628538847 0.468209058
-0.15233661 -0.43992534 1.6240001 0.06454625726 -0.01593147963 0.9977875352
-0.13752182 0.072098821 1.5230001 -0.5268551111 -0.3551511168 0.7721990347
0.084282734 -0.3953627 1.7479998 -0.3608854711 -0.3096595407 0.8797003031
-0.18214153 0.24749002 1.5860001 -0.5437444448 -0.359680444 0.758269012
0.10880134 -0.43367299 1.748 -0.229736656 -0.07138530165 0.970631361
0.0056785685 -0.025493147 1.5159999 -0.376673907 0.7150349617 0.5889327526
0.19655538 -0.32476673 1.8130001 -0.600592792 -0.1378482878 0.7875824571
0.17410055 -0.49668971 1.7390001 -0.4385439157 -0.0768230781 0.8954202533
-0.19504781 0.35735038 1.6240001 0.7225074172 -0.3073009253 0.6193134785
0.11544998 -0.15846696 1.8040001 -0.1206388474 0.8430662155 0.5241046548
0.26807854 -0.057131488 1.6710001 -0.07695029676 0.8086640239 0.5832162499
0.084238023 -0.17006545 1.8130001 -0.03556375951 0.8322084546 0.5533211827
-0.11229574 -0.26556426 1.7310001 0.02299447544 -0.7033556104 0.7104661465
0.13520457 -0.015179265 1.5737501 -0.2866638303 0.7882713675 0.5444741845
-0.13594887 -0.32547542 1.6630001 -0.1577836275 -0.4186802804 0.8943216205
-0.16969548 -0.24177852 1.7130001 0.445828259 -0.2214159369 0.8673016429
0.12412548 -0.40608954 1.748 -0.266759336 -0.339206636 0.9020966291
-0.0059788669 -0.41403651 1.705 -0.749268651 -0.1119092554 0.6527425647
-0.06007183 -0.17713489 1.7570001 -0.2651810646 0.8321681619 0.4870063365
0.22332908 -0.36330295 1.794 -0.2683320642 -0.415862143 0.8689399362
-0.16604505 -0.3364217 1.647 0.05611208826 -0.3078892827 0.9497660995
0.065350331 -0.4240391 1.7336667 -0.1458928883 -0.1547043025 0.9771293998
-0.12399573 -0.47356832 1.6320001 -0.07654566318 -0.1194644347 0.9898833036
0.26352668 0.045794956 1.5640001 -0.5315681696 0.08100705594 0.8431329727
-0.086150907 -0.4437494 1.6470002 -0.6081803441 -0.1844826788 0.7720640302
0.12666079 -0.086895198 1.6800001 -0.129528299 0.8714501262 0.4730719626
0.045151837 -0.29426545 1.7760001 -0.2548241615 -0.3972544372 0.8816198707
0.22531436 -0.43350217 1.7760001 -0.2878785729 -0.2161584198 0.9329530597
0.25350571 -0.12675285 1.7850001 -0.1264125854 0.8257341385 0.5497117043
0.16468972 -0.1051211 1.7130002 -0.1427218616 0.8526203036 0.5026619434
0.2545954 -0.10214307 1.739 -0.09607976675 0.8766022921 0.4715263546
0.077493824 -0.29257873 1.8040001 -0.09428178519 -0.530098021 0.8426784873
-0.034609728 -0.055112623 1.5250001 -0.3788773119 0.8151737452 0.4381138086
0.015204323 -0.38452029 1.7336669 -0.4570897222 -0.2527762949 0.8527444601
-0.17494759 -0.15891074 1.6630001 0.2021041214 0.8553074598 0.4770776033
0.22375776 -0.091605522 1.7129999 -0.1574849039 0.8852658272 0.437610507
-0.1310792 -0.16937199 1.6800001 -0.2620785832 0.8701505065 0.417316258
0.10484495 -0.14866075 1.7850002 -0.04346368462 0.8656001687 0.4988459647
-0.12469145 -0.085371897 1.536 -0.181558609 0.833540082 0.5217733383
0.20567337 -0.066506915 1.6710002 -0.09891267866 0.8169638515 0.5681428909
-0.12726681 -0.37519994 1.6470002 -0.2481941581 -0.1948199868 0.9489176869
0.23412611 -0.11244214 1.7570001 -0.1707570255 0.876979053 0.4491656721
0.075073436 -0.035052728 1.5741001 -0.3217593133 0.7984742522 0.5088318586
0.035426978 -0.14324822 1.7570001 -0.1943268925 0.8618987799 0.4683669209
0.18560655 -0.47672388 1.7570001 -0.6081869006 -0.1624884456 0.7769853473
-0.10537446 -0.42551738 1.6376002 -0.4242871404 -0.3389683366 0.8396909237
0.04317474 -0.49369374 1.7130002 -0.4225618839 -0.3783990741 0.8235627413
-0.15213235 0.02513491 1.5090001 -0.1362401843 -0.4230025113 0.8958278298
0.12406148 -0.10164074 1.705 -0.1132366583 0.8750627637 0.470576942
0.16420504 0.0068133431 1.5543751 -0.392069757 0.668168366 0.6323229671
-0.12572592 -0.073628083 1.5159999 -0.2141117752 0.7362825871 0.6419066191
-0.045151837 -0.25253889 1.7760003 0.02776869759 -0.9336437583 0.3571249545
0.054433465 -0.45578825 1.7342004 -0.2345782965 -0.1067717597 0.9662157297
0.13614196 -0.33174819 1.7850001 -0.1396827251 -0.4453320801 0.8844026923
-0.05240538 0.031954501 1.4580001 0.0605363138 0.1907539219 0.9797695279
-0.12951085 0.046730716 1.5230001 -0.3231322169 -0.5577757359 0.7645075321
0.024992729 0.0048515527 1.4862728 -0.3156642318 0.7037729621 0.6364430189
-0.073845722 -0.33255357 1.6960001 -0.4246840477 -0.3615676761 0.8300073743
-0.0044604801 -0.49511325 1.6960001 -0.5385090709 -0.3296602666 0.7754560709
0.064879693 -0.076353066 1.6355001 -0.233418256 0.8613672853 0.4511787593
0.20488472 -0.082964927 1.6960001 -0.09186752886 0.8494004607 0.5196914673
-0.096041463 -0.090630673 1.5430001 -0.1627126634 0.8517025709 0.498123765
0.25589287 -0.39575976 1.813 -0.487986505 -0.2148592621 0.8459932804
0.20360759 -0.17897764 1.8730001 -0.9073204398 0.2379095554 0.3466535211
0.0014798134 -0.1228245 1.6880001 -0.3296655416 0.8696769476 0.3673998415
-0.047847301 -0.36748698 1.6880001 -0.3912593424 -0.3134678304 0.8652479649
-0.0046445802 -0.15946391 1.7660002 -0.4164279401 0.7898157239 0.4503097534
-0.091933399 -0.032370917 1.4770001 0.3420389593 0.4499712884 0.824945569
0.09593451 -0.12410663 1.737 -0.1518503875 0.8647369742 0.4787185788
-0.19982915 0.28227615 1.5940001 -0.6616056561 -0.2769504786 0.6968331337
-0.12447263 -0.44495392 1.6320001 -0.09081945568 -0.07955553383 0.9926846027
0.20296673 -0.16461082 1.8230001 -0.2349546701 0.8903154135 0.39004457
-0.014868267 -0.39549586 1.6959999 -0.6119855642 -0.1933326423 0.7668743134
0.23248148 -0.14075409 1.8040001 -0.1457900256 0.8415347934 0.5201581717
0.13442807 -0.29534635 1.804 -0.2102240175 -0.3443558514 0.9149999619
-0.18568325 -0.27626047 1.7220001 0.3419014812 -0.434035629 0.833496511
0.19504781 -0.037016373 1.6240002 -0.09757413715 0.7570521832 0.646027267
0.034203678 -0.058118444 1.5860001 -0.2746901214 0.8356708288 0.4756045043
0.18423499 -0.41491583 1.7660002 -0.5048276782 -0.1325438023 0.8529837132
-0.05596377 -0.080533229 1.557 -0.3216861486 0.8293641806 0.4568074346
-0.017123554 -0.44584659 1.688 -0.6292023063 -0.1116362959 0.7691825628
-0.046040621 -0.39532757 1.6843638 -0.4412221611 -0.2316781431 0.8669764996
-0.196033 -0.23492897 1.7334001 0.7231956124 -0.06841298938 0.6872465014
-0.035417333 -0.10058523 1.6160001 -0.3145272434 0.8564065099 0.4094392955
0.15102512 -0.13856944 1.7760001 -0.02955288626 0.8644264936 0.5018898845
0.12262462 0.053771224 1.4960001 -0.3344829381 -0.0459529683 0.9412807822
-0.054923173 0.0051065832 1.4569999 -0.04031056911 0.1134733036 0.9927229285
0.10596094 -0.26411164 1.804 -0.160511151 -0.4012127519 0.9018117785
-0.19390026 -0.37467945 1.6630001 0.5108139515 -0.1469842643 0.8470329046
0.29487753 -0.024120782 1.6376002 -0.4472132623 0.6252965331 0.6395345926
0.19462 -0.12798211 1.7760003 -0.2513523996 0.7933764458 0.5544148684
0.16671044 -0.15255578 1.794 -0.04059708491 0.8645623326 0.5008831024
0.23430072 -0.40558064 1.785 -0.4655126333 -0.291295737 0.8357300758
0.27992669 -0.4238438 1.8040001 -0.4246604741 -0.3852927387 0.8192759156
0.095388345 -0.061219383 1.6240001 -0.1841793954 0.8438596725 0.5039630532
-0.013121069 -0.1171177 1.6630001 -0.3223720193 0.8567273617 0.4026096165
0.01730014 -0.16828318 1.794 -0.17822586 0.8775087595 0.4452122152
