# .PCD v0.7 - Point Cloud Data file format
VERSION 0.7
FIELDS x y z normal_x normal_y normal_z
SIZE 4 4 4 4 4 4
TYPE F F F F F F
COUNT 1 1 1 1 1 1
WIDTH 512
HEIGHT 1
VIEWPOINT 0 0 0 1 0 0 0
POINTS 512
DATA ascii
-0.0054142927 0.43486643 1.6853333 0.002705745632 0.6088117957 0.7933100462
-0.48492464 -0.26709753 2.9580002 -0.05457335338 0.8501592278 0.5236898661
0.4786118 -0.49468195 1.5940001 0.575776875 -0.1608171314 0.8016350865
-0.34840924 0.11746369 2.2710001 -0.2710250914 0.8427405953 0.4651168883
-0.22546725 -0.26435095 1.6550001 0.07139813155 0.7864928842 0.6134584546
0.38309896 0.20235483 2.2410002 -0.7684242129 0.4820365608 0.4209097326
0.24143927 -0.0036767398 1.3980001 -0.3863134682 0.1982361376 0.9008131623
0.1727799 -0.075384855 1.8830003 0.508444488 0.1140609384 0.8535070419
0.10234119 -0.49871024 1.853 0.851960063 0.2644751668 0.451903671
-0.32249585 0.34613431 1.9260001 0.7609379292 0.4153038859 0.49849388
-0.13662237 0.098746859 1.5430001 0.2483366877 0.5106776357 0.8231264949
-0.46964523 -0.067092173 2.6390002 -0.03989821672 0.8879431486 0.4582194686
0.31362137 0.41870916 1.8730001 -0.3513871729 0.771579504 -0.5302755237
0.42279005 -0.15745284 1.6630001 -0.07954868674 -0.03743853793 0.996127665
0.27437615 0.1355844 1.6630001 -0.4945069551 -0.3593971729 0.7913889885
-0.036065191 -0.26276067 1.9590001 0.8570981622 -0.3240323663 0.4004818797
-0.085010014 -0.055116385 1.7760003 -0.2605506778 0.7981328964 0.543228507
-0.14744744 0.28182992 2.1290002 0.4868939519 -0.8581730723 0.1627060473
0.09457878 0.21386048 1.4716154 -0.1079054996 -0.6983226538 0.7076029181
-0.073889852 0.2561515 1.8730001 0.2075302005 -0.849580884 0.4849160612
-0.22235774 -0.25898135 2.9840002 -0.05457335338 0.8501592278 0.5236898661
0.26482037 -0.36460292 1.6960001 0.5728710294 0.06550320238 0.8170239329
-0.29339892 -0.016221058 1.681778 0.4125228822 0.5818482637 0.7009118795
-0.46478763 0.014924373 2.4320002 -0.1614568383 0.8817561865 0.4432129264
0.06560535 0.062689558 1.6630001 -0.1507061273 0.8427193165 0.5168286562
0.14457723 0.28753 1.853 0.2883551717 -0.1582989097 -0.9443477988
0.13733421 -0.28597832 1.8430001 0.4383319914 -0.05825829878 0.8969231248
0.0084423004 0.43393421 1.9260001 -0.5791810751 -0.02567892335 0.8147943616
-0.10458721 -0.35308012 1.794 -0.470744729 0.7441233397 0.47400406
0.39277735 -0.48211494 1.7570001 -0.8237008452 -0.2944788337 0.4845607579
0.33474639 0.0046708803 1.7760001 0.7452253699 0.2838171124 0.6033962369
0.27248204 -0.17494585 1.7659999 0.7247828245 0.1217484549 0.678135097
0.35617915 -0.077083543 1.516 -0.3841637075 0.702652812 0.5989133716
0.49725935 -0.31308922 1.6160001 0.6564737558 -0.2550199926 0.7099345326
0.304028 0.37735239 2.0400002 -0.43762815 0.8774778843 0.1962504089
0.014469258 -0.11361926 1.8940001 -0.3658499718 0.7408936024 0.5632321835
-0.42097533 -0.180418 2.7440002 -0.04891650751 0.872805953 0.4856098592
-0.32435355 -0.20640677 2.8830001 -0.05457335338 0.8501592278 0.5236898661
0.17482443 0.012322427 1.7570001 0.01493615191 0.867151022 0.4978212714
0.16544352 0.10581341 1.556 0.3608372211 0.8289818764 0.4273002744
0.24671504 -0.49817461 1.8040001 0.1600794047 0.8481357098 0.505015254
-0.22595032 -0.10642207 1.794 0.1992670596 0.9016245604 0.3838825226
0.02034305 0.33018336 1.7850001 0.3560732603 0.8442557454 0.4005546868
0.028062977 -0.37472329 1.883 0.4576058388 0.06756319851 0.8865845203
-0.12215649 -0.16342556 1.8830001 -0.1731937379 0.8412628174 0.5121335983
-0.14491493 0.013704228 1.6630001 -0.3710127175 0.8182630539 0.4390844703
-0.20092762 0.30925381 1.9930001 0.3692993224 0.9273606539 -0.06016858667
0.0053616934 0.11795726 1.5290002 -0.2032105029 0.8142089844 0.5438466668
0.15456422 0.34907201 1.9810001 -0.2804262042 0.8747918606 -0.395095408
0.13638479 -0.40915436 1.748 0.4031190574 -0.2935245931 0.8667977452
0.35494384 -0.27479693 1.6325835 0.608445704 0.2272145152 0.7603731751
0.045609459 -0.020445621 1.794 0.02601274289 0.8133943081 0.5811308026
-0.22130266 0.28663185 1.863 0.221339792 0.1825477928 0.9579587579
0.41403651 -0.36535147 1.705 0.6279839873 0.5269790888 0.572650969
-0.24571213 0.20223999 2.1560001 0.01025612932 0.9046646953 0.4260006845
-0.24120519 0.076170057 1.6090001 0.587539494 0.1293885261 0.7987840176
0.41254529 -0.027041076 1.6826668 0.1077177301 -0.09181503952 0.9899327755
0.20725891 -0.27468511 1.748 0.7124103904 -0.3400990069 0.6138436794
-0.46618855 -0.20552397 2.8590002 -0.04972136021 0.849912405 0.5245729089
-0.046270467 0.063354947 1.6240001 -0.200707972 0.9149797559 0.350040555
0.11324237 -0.17432062 1.8830001 0.6432076693 -0.3365383446 0.6877687573
0.15693285 0.056554019 1.4519999 0.5254695415 -0.2515988946 0.8127605319
0.23386456 0.35532498 1.8230001 -0.07646796852 -0.5754702091 -0.8142399192
-0.12705092 -0.28698558 1.705 -0.09544933587 0.8538452983 0.5117006898
-0.41391727 0.072075151 2.3490002 -0.3725072742 0.8467392325 0.379830271
0.25695246 -0.066224866 1.8130001 0.6197862625 -0.5573243499 0.5524984598
-0.070113167 0.19446483 1.5090001 0.4817812443 -0.4240799546 0.7668396235
0.33593756 -0.10612488 1.705 0.7660258412 0.2680165172 0.5842701197
0.046491385 0.31049603 1.8940001 -0.1161868423 0.9802905321 -0.1597845554
0.34021679 0.053020798 1.6800001 0.6264273524 0.7478370667 0.2198373079
-0.015017299 0.01351557 1.7130002 -0.2939220667 0.8438042402 0.449003607
0.17265512 0.066740632 1.6550001 0.30665645 0.8600406647 0.4077889621
0.037967555 -0.25751907 1.8830001 0.2228509486 -0.2345297933 0.9462205172
0.01124851 0.482079 1.8330001 0.9990505576 0.01569074765 -0.04064162448
0.19497593 -0.20616306 1.8230001 0.3942268789 0.04753340781 0.9177830815
0.39899293 -0.49475121 1.6550001 0.8010075688 -0.3917949498 0.4526407123
-0.18771625 -0.061570931 1.7130001 -0.3248550296 0.6338969469 0.7018859386
0.2645824 -0.061944194 1.4754446 -0.1022349149 0.8185426593 0.5652750731
0.27850088 -0.23588224 1.6880001 0.797203064 -0.2271665782 0.5593412519
0.24524926 0.38527045 1.9360001 -0.8350958824 0.5234791636 -0.1690692157
0.0056745382 -0.17541723 1.9700001 -0.123326309 0.3439212143 0.9308645725
0.30652037 -0.43898645 1.7570001 -0.1379718333 0.3542684019 0.9249095321
0.45843354 -0.40575644 1.6240002 0.6743911505 -0.1203317121 0.7285031676
0.46437648 -0.24171014 1.6710001 -0.6051021218 -0.2052315921 0.7692407966
0.15491752 -0.49744874 1.7760001 0.1913590431 0.7013065815 0.6866955757
0.087416813 -0.36715063 1.8130001 0.7728917003 -0.3540811837 0.5265595317
0.076471634 0.11262186 1.5860001 0.07210516185 0.9227051139 0.378703177
-0.05848822 -0.11406819 1.8430001 -0.4054724276 0.5002728105 0.7650616169
0.086561188 -0.066962428 1.863 -0.2846393585 0.8222640157 0.492810607
-0.025276054 0.34940428 1.6960001 -0.9252766967 0.2372901291 0.2958993912
-0.027317809 -0.32781371 1.8330001 -0.568328619 0.537535429 0.6229431629
0.21495777 -0.44516084 1.7390002 0.1298873574 0.2829214931 0.9503076673
-0.46519089 -0.032914449 2.503 -0.1009297445 0.8845611215 0.4553732872
0.34531021 -0.19103299 1.6550001 -0.06014091149 -0.6717303991 0.738350451
0.0082006324 0.19379389 1.4770001 0.4441445768 -0.09407144785 0.8910028934
-0.14391711 -0.12177601 1.8040001 -0.1719331443 0.7767715454 0.6058588624
0.095603131 0.022762651 1.7310001 -0.0695913434 0.8461542726 0.5283748507
0.26365066 0.043027326 1.6470001 -0.4206567705 0.3733691275 0.8268272877
0.16131368 0.16393667 1.4960001 -0.4158376753 0.4855082631 0.7689998746
-0.046798218 0.49666497 1.7220001 0.2702072263 -0.874583602 0.4026060402
-0.040392417 0.41846544 1.8430001 0.9956821799 -0.04796638712 -0.0794750303
0.084049165 0.14260124 1.5081428 0.1403497607 0.8333956599 0.5345592499
0.15362005 -0.33578435 1.7760001 0.2143895477 -0.381488502 0.8991683125
0.34425384 -0.34718367 1.6710001 0.3196106255 0.5509348512 0.7709214091
0.19748734 -0.12671152 1.8230001 0.6095001101 -0.4320696592 0.6646994948
-0.15441781 0.25736302 1.8940001 -0.03311749175 0.2265250832 0.9734421372
-0.021118023 0.31352141 1.853 0.8334229589 0.3428078592 0.4334615767
0.12493902 -0.026885614 1.8040003 -0.09549878538 0.7368990183 0.6692233086
0.40054154 -0.10359219 1.5755 -0.3935037553 0.5795400739 0.7136442065
-0.22558649 0.0050289985 1.6390001 0.1098843291 0.6483204365 0.7533963323
-0.1652751 0.046368495 1.594 -0.1793451458 0.6965103149 0.6947724223
-0.046736851 -0.16190982 1.904 -0.285066992 0.8256162405 0.4869236648
0.24000591 0.10245866 1.6010001 -0.8334642053 -0.002430596622 0.5525681376
0.099619143 -0.1097499 1.9260001 0.1850131303 0.6188195348 0.7634347081
-0.26217067 -0.074977793 1.7220001 0.01327065937 0.6819452047 0.7312828898
0.42676693 -0.30530733 1.655 -0.3610245585 0.2123906761 0.9080481529
-0.28254879 0.35767737 1.863 -0.2068130821 0.02901385911 0.9779501557
0.17713313 -0.021356476 1.4330001 0.5727165937 0.6337831616 0.5199179053
0.053091228 -0.4449811 1.8730001 0.764179647 0.2689304352 0.5862643719
-0.01350768 -0.32587278 1.9260001 0.8280742764 0.3639382422 0.4264293015
-0.014866161 -0.062943965 1.8040001 -0.4329196215 0.6999413371 0.5680341125
0.096471906 -0.44282186 1.8040001 0.881945014 0.3722634017 0.2891244292
-0.44752869 -0.1018187 2.7010002 -0.04715806991 0.8842676282 0.4645932913
-0.064257033 -0.19624446 1.9810001 0.648834765 0.7212069631 0.2426397204
0.19655254 -0.37529153 1.7220001 0.5268168449 -0.09055455774 0.8451413512
0.19443852 -0.025710881 1.8330001 -0.1547425985 0.8590986133 0.4878568053
-0.08559861 -0.00750865 1.7129999 -0.1237950176 0.8394677043 0.5291207433
-0.061423648 0.088723049 1.557 -0.1260718554 0.8537322283 0.5052199364
0.42281327 -0.41665205 1.7570001 0.8625636101 0.2387427539 0.4460784197
0.083741829 -0.32347333 1.8730003 0.2352450043 -0.06922325492 0.9694678783
0.32758754 -0.49817461 1.7220001 0.618934691 -0.3222839832 0.7162771225
-0.1263715 0.16849533 1.5500001 0.5932145715 -0.4600692987 0.6606305242
0.30198538 0.3719188 1.8130001 -0.4721396267 0.3361762464 -0.8149047494
0.28803673 -0.10474063 1.7570001 0.8042716384 -0.04148542508 0.5928120017
0.39099157 0.02717316 1.7220001 -0.01674889401 -0.3694356382 0.9291053414
0.059096098 -0.16715755 1.9260001 0.4245076776 -0.4932144582 0.7592975497
-0.076109864 -0.30597186 1.748 -0.1302922964 0.6168205142 0.776244998
0.015516122 0.088865072 1.6090001 -0.09529069066 0.8826654553 0.4602406025
0.41456953 -0.42921862 1.6710001 0.9075067639 -0.2964439392 0.2975775898
0.34419334 -0.39401081 1.7220001 -0.1153703481 0.8068317175 0.5794067979
-0.194461 0.11561663 1.575182 0.5716992617 -0.1203044578 0.8115952015
0.28858727 -0.30616617 1.6710001 0.2383063138 -0.05876798928 0.9694103599
-0.29383588 0.29383588 1.8830001 0.4544743001 0.2164615244 0.864058733
0.31506294 -0.17390032 1.7130001 0.5365908742 -0.823509872 0.1841242462
0.34990308 -0.025529411 1.7130001 0.8291928768 -0.1080881357 0.5484123826
-0.25969759 -0.23655623 2.9330001 -0.05457335338 0.8501592278 0.5236898661
-0.39269054 0.13294211 2.3330002 -0.4057494104 0.8439049125 0.3509870172
-0.16279846 -0.2454126 1.6630001 -0.4985667467 0.4097361565 0.7639027834
0.1001618 -0.23808952 1.8730001 0.7475548983 0.06606649607 0.660906136
0.24255174 -0.23003295 1.7850001 0.7613902688 -0.6076911688 0.2258235514
-0.20552352 -0.3011854 1.705 0.002877195366 0.7206012607 0.6933437586
0.18455499 0.33807862 1.863 -0.390779227 -0.1513947546 -0.9079489112
0.34044561 0.24090011 2.2710001 -0.7658885121 0.4803087115 0.4274556339
-0.0045972401 0.38157091 1.748 -0.1632988602 0.7048791051 0.6902745366
0.13400288 0.088865072 1.6090001 0.1021448076 0.9513038993 0.290839076
-0.20464294 0.29313716 2.1030002 0.3729663491 0.9187853336 0.1293428689
0.39796719 -0.22217803 1.6710001 -0.1886277497 -0.5635480881 0.8042593598
0.32342687 -0.042353518 1.4640001 -0.4761352837 0.5464497209 0.6889759898
0.0043736901 0.046652693 1.6630001 -0.1665011346 0.6895612478 0.7048281431
-0.20747632 -0.20167278 1.6550001 -0.133122772 -0.9343594909 0.3305309415
-0.14170791 -0.3188428 1.7570001 -0.2478868365 0.7004941106 0.669223547
-0.034722485 0.14698315 1.4890001 0.0895107612 0.435839653 0.8955621719
0.34299058 0.22352195 2.1980002 -0.7776345611 0.4617923498 0.4266524911
-0.1048055 0.061485894 1.5940001 -0.1123224348 0.8699253798 0.4802223146
-0.0084423004 -0.21781133 1.9260001 0.3757980168 -0.5371706486 0.7551314235
0.21212265 0.048378851 1.4150001 0.1769391 -0.5596943498 0.8095892668
-0.1355423 -0.035031307 1.7372224 -0.2611812949 0.591599524 0.7627544403
0.28698558 0.034378484 1.705 -0.3354017735 0.8201220036 0.4635790884
0.0044394401 0.49869713 1.6880001 -0.3819518387 -0.6949264407 0.6092536449
-0.086599067 0.032948464 1.6630001 -0.2382769585 0.8891827464 0.3906125426
0.18345477 -0.27834517 1.8040001 0.6902994514 -0.7098947167 0.139771834
-0.27711871 0.059486218 1.6550001 0.7696325779 0.006268182304 0.638456285
0.26543075 -0.42461416 1.7130002 -0.01143959444 0.6144461036 0.7888758779
-0.034656826 -0.028495612 1.7570001 -0.3092053533 0.7207158804 0.6204519272
0.244782 -0.30485117 1.7130002 0.5533121824 -0.1130011156 0.8252735138
-0.083994485 0.12546012 1.5159999 0.3287315369 0.4420473576 0.8345835805
0.14498752 0.042599425 1.705 -0.1205385551 0.8606194258 0.4947773814
-0.23435988 -0.035378758 1.6813335 -0.06062985957 0.6110028028 0.7893032432
0.44495392 -0.46498394 1.6320001 0.3513738811 -0.2183107436 0.9104267359
0.36884785 -0.13412648 1.6630001 0.5454402566 -0.02033132128 0.8379030824
0.15189038 -0.13555808 1.863 0.5847359896 -0.4847187102 0.6504856348
-0.4633157 -0.14796993 2.7670002 -0.04891650751 0.872805953 0.4856098592
0.49887419 -0.37729979 1.5940001 0.56616956 -0.03537405282 0.8235294223
-0.47332871 -0.23538966 2.9080002 -0.05457335338 0.8501592278 0.5236898661
0.033121783 -0.073514201 1.8430001 -0.0984512642 0.8020159602 0.5891330242
0.044841498 0.027652258 1.705 -0.281622529 0.8100504875 0.5143023729
0.28848001 -0.49593791 1.7660002 0.7384286523 -0.139729932 0.6596959233
0.26316306 0.39312011 1.853 -0.7879936695 0.4831315577 -0.3816410303
-0.17405428 -0.093958504 1.7570001 -0.2308378816 0.6885339618 0.6874844432
-0.079169139 -0.36191607 1.8430001 -0.1471002698 0.7663022876 0.6254136562
0.45122471 -0.35546646 1.6550001 0.7181991339 -0.1531647295 0.6787713766
0.42322659 -0.081389733 1.6880001 -0.04230522364 -0.02577297948 0.9987722635
0.14379701 -0.21488763 1.8430002 0.4123756886 0.05638572574 0.9092672467
0.37062222 0.0073245498 1.6710001 0.5994486213 0.6532939672 0.4624590278
0.1823905 0.01094343 1.3870001 0.3441059887 0.002683733124 0.9389269948
0.49615258 -0.43860728 1.6010001 0.4466489255 -0.03845365718 0.8938825727
0.27662918 -0.026884034 1.4330001 0.04373807833 0.5473424792 0.8357650042
0.096877806 0.31197935 1.8730001 -0.2726743519 0.6015268564 -0.7508755922
0.22678912 -0.16450861 1.794 0.6710427403 0.1430022568 0.7274970412
-0.0046167457 -0.27322739 1.9150001 0.693644762 -0.2427495569 0.6781811118
-0.042482391 0.47170103 1.6710001 0.7274220586 -0.1083610207 0.677580297
0.026051024 -0.0015324134 1.748 -0.09219235927 0.8678542972 0.4881900251
-0.17287955 -0.143797 1.8430001 -0.001045724261 0.871784091 0.4898892045
0.023110688 -0.30869275 1.8830001 0.2995999753 0.05068795756 0.952717483
0.25684959 -0.21430321 1.7336668 0.738366425 -0.6537336707 0.1656723171
0.35643357 -0.44790497 1.7390001 0.1282097995 -0.5627806783 0.8166027665
0.20434691 -0.49392393 1.7570001 0.1429205388 0.6047487259 0.7834875584
0.29449514 0.08310011 1.6630001 -0.6851739287 0.2196249068 0.6944793463
0.30476037 -0.085105568 1.5058004 -0.0483920984 0.8471408486 0.5291603208
0.11497921 0.11768461 1.5430001 0.03669222444 0.918621242 0.3934319317
-0.1853942 -0.015034714 1.6810668 -0.3554316759 0.6163477302 0.7026975155
0.030698236 0.31506085 1.8430001 -0.6723261476 0.4472775161 0.5898478031
0.38414219 -0.48727763 1.705 0.3170953691 -0.9210231304 0.2262011319
0.2242071 -0.044153318 1.439 -0.06112020463 0.7370752096 0.6730411649
0.2156475 -0.075943664 1.8529999 0.6486535668 -0.4302679896 0.6277881861
-0.075546749 0.28707764 1.9150001 0.03149153292 -0.5717040896 0.8198553324
0.24220194 -0.11481002 1.794 0.6919224262 -0.241261214 0.6804677844
0.044656523 -0.21589582 1.9150002 0.5941285491 -0.5508227348 0.5861787796
0.19971256 -0.32624799 1.7390001 0.5895722508 -0.1715408862 0.7892897725
0.14787877 -0.46193057 1.7390001 -0.01701430045 0.112870045 0.9934640527
0.034244549 0.14645009 1.4960002 -0.04482448846 0.7331243157 0.6786158681
-0.094682634 -0.093320288 1.813 -0.5573548079 0.5299025178 0.6391861439
0.13548025 -0.054906856 1.853 -0.1040578112 0.8456979394 0.5234184861
0.075128585 -0.37727612 1.863 0.769025743 -0.4454233944 0.4584728777
0.31629255 -0.24519931 1.6550001 0.6540389061 -0.05718153715 0.7542966008
-0.10502028 -0.13410282 1.8430002 -0.3028821349 0.7293550372 0.6134359241
0.19372317 0.03153633 1.7130001 0.05158931762 0.7996721864 0.5982164741
0.34143975 0.031867709 1.7310001 0.2352822721 0.8997911811 0.3674481213
0.11430638 0.16508378 1.4744999 -0.3268209696 0.5580862164 0.7627108693
0.36414036 -0.22593132 1.6240004 -0.1230630055 -0.4287112653 0.8950207233
0.00168846 -0.15027294 1.9260001 -0.5331990123 0.7121040225 0.4567348063
0.11461978 0.068191513 1.6550001 -0.06901416183 0.855045855 0.5139392614
-0.1281897 -0.083556853 1.7760001 -0.4944389462 0.549839437 0.6732063293
0.40490615 -0.26503351 1.6363751 -0.7503656745 -0.376444906 0.5433604121
0.054107867 0.12444809 1.5430001 -0.05520560965 0.9158026576 0.3978163302
0.11986225 -0.32762349 1.8230001 0.7156934738 -0.6422588825 0.2743836045
0.24131829 0.14592993 1.6240001 -0.8016124964 -0.09045764059 0.5909609199
0.064434998 0.1752632 1.4699999 0.1810752153 0.5286619067 0.8292939067
-0.02310455 0.33732644 1.7570001 -0.4882697165 0.6680092812 0.5615659356
0.071397483 -0.48483875 1.8940001 0.7797800303 0.227228269 0.583361268
-0.01462017 -0.09584333 1.8529999 -0.4198274612 0.72178936 0.5502408743
-0.064482339 -0.31612074 1.794 -0.4447742701 0.7338014245 0.513528347
0.44251943 -0.20167278 1.6550001 -0.5666097403 -0.4553648233 0.6867286563
0.11832896 -0.36899951 1.7760001 0.7017542124 -0.3886818886 0.5970489383
-0.0079741599 0.21663134 1.516 0.2443675846 -0.737477839 0.629611671
-0.039552569 0.02783329 1.6710001 0.01480005775 0.8145398498 0.5799187422
0.49330032 -0.285824 1.6550001 0.1654293835 -0.4499176145 0.8776145577
0.31372041 -0.38031203 1.6880001 -0.1865574419 0.4880706966 0.8526331782
0.35596421 -0.1056784 1.554 -0.3650168478 0.6920164824 0.6227968335
-0.11060114 0.28558207 1.8830001 -0.05576429516 0.2184265852 0.9742587805
0.12540366 0.0015481933 1.7660002 0.09075019509 0.8256171346 0.5568848848
0.11703149 -0.49343008 1.8040001 0.8055698276 0.4752742946 0.3537959754
0.13670681 -0.10349869 1.8940001 0.5221248269 0.06961960346 0.8500227928
-0.03584427 -0.17751448 1.9470001 -0.241661191 0.8994457722 0.3641389608
-0.014619118 0.093518764 1.5734 -0.3160972297 0.8765507936 0.3629617989
-0.32189885 0.3730725 1.8830001 0.5453343987 0.3208237886 0.7743917108
0.17611095 -0.25366437 1.8430002 0.1088032201 0.007409127895 0.9940357208
0.39508998 -0.33871803 1.6630001 -0.222984165 0.7268819809 0.649554193
-0.025410183 0.39759463 1.705 -0.2677764297 0.6688687205 0.6934770346
-0.22679716 -0.090412386 1.748 -0.04891066253 0.902831614 0.4272034466
-0.034666032 0.278979 1.8830001 0.5832374096 -0.4239198864 0.6929112673
-0.12447264 0.041490879 1.6320001 -0.1895171851 0.8978433013 0.3974426985
-0.27115875 0.0049091582 1.6470001 0.3822821677 0.3981715441 0.8338583708
0.086276621 0.087415591 1.6240002 -0.03494159132 0.8346835971 0.5496202111
0.082648627 -0.042913709 1.8130001 -0.06649369746 0.8021547198 0.5934023857
0.24678428 -0.25879815 1.7129999 0.655287981 -0.2688808441 0.7059041858
0.26621851 0.41344127 1.8940001 -0.5680340528 0.8039653897 -0.1760028601
0.26408589 -0.45410514 1.748 -0.3633088171 0.6861451268 0.6302472353
-0.21581517 0.038085029 1.6090001 0.1974563301 0.6865657568 0.6997417212
0.17555711 -0.16551378 1.8330001 0.6156676412 -0.09891692549 0.7817728519
0.064755857 -0.092429303 1.8940001 -0.2469878048 0.8174363375 0.5203795433
0.38440076 -0.17526323 1.6800002 0.3168111145 0.116326265 0.9413282871
0.31557629 -0.13568257 1.7390002 0.5591971278 0.05750453472 0.8270379901
-0.44357404 0.035738192 2.398 -0.3719987273 0.8462890983 0.381328851
-0.114931 -0.28043163 1.748 -0.679707706 0.5322620869 0.5046726465
0.18542202 -0.4122192 1.748 0.404017657 -0.002285668161 0.914748311
0.045588419 -0.11988065 1.9260001 -0.3003496528 0.716947794 0.6291072369
0.17378777 -0.01336829 1.794 -0.1406075358 0.8581568599 0.4937573969
0.18174124 0.13570432 1.5266001 -0.5378988385 0.5327876806 0.653300941
-0.25707039 0.31325349 1.8630002 0.2853030562 0.3528450727 0.8911243081
0.3107608 -0.206192 1.6800001 0.7032554746 -0.09985230118 0.7038900852
0.22701897 0.32501277 1.863 0.05877029151 -0.5584041476 -0.8274846673
0.3848637 -0.30760479 1.6320001 -0.05063281953 0.6692441702 0.7413154244
0.078739569 -0.40976715 1.8330001 0.9630661607 0.02789449506 0.2678160965
0.42198613 -0.41297576 1.7130001 0.9795709848 0.1624540538 0.118530117
0.07740967 0.0030963868 1.766 -0.1438258588 0.7590216994 0.6349804401
0.18969576 0.081657119 1.4330001 0.6152486801 -0.05573362112 0.7863605022
0.33391044 -0.3061364 1.655 0.5607686639 0.1464391351 0.8149197102
-0.16133355 0.14213805 1.5640001 0.4563884139 -0.4288991094 0.7795865536
-0.055935722 -0.075113676 1.8230001 -0.1128070652 0.8214942217 0.5589470863
-0.059456408 0.24586029 1.8330001 0.3926781714 -0.8454884887 0.3618744314
-0.13402626 -0.005480628 1.705 -0.1835926175 0.7979512215 0.574079752
0.27563784 0.35254502 1.8430001 0.06930772215 -0.4598718286 -0.8852764368
0.16327216 -0.37583402 1.7570001 0.5625315309 0.008798701689 0.8267290592
-0.073420711 -0.147076 1.8730001 -0.2459752411 0.769077301 0.5899290442
0.3837398 -0.41419518 1.737 -0.2882510424 0.5491959453 0.7844075561
-0.17555967 0.022051498 1.6334002 -0.2156097889 0.7848845124 0.580920577
0.064755857 -0.29057115 1.8940001 -0.00217172713 -0.02910354361 0.9995740652
0.076710783 -0.19493175 1.8940001 0.6223803163 -0.4155977964 0.6632655859
-0.11583835 0.25685894 1.9150001 -0.2079183459 -0.1984502375 0.9578034282
0.0046708793 -0.02646832 1.7760001 -0.4348117113 0.6392619014 0.634257853
-0.18373838 0.26376665 1.863 -0.406879276 -0.283955127 0.8682273626
0.01124851 0.27799889 1.8330001 -0.101778619 0.4852970839 0.8684053421
0.2139328 -0.24572071 1.8130001 0.5951369405 -0.6134647131 0.5191079974
0.10407786 0.052038934 1.6960001 -0.05417649448 0.8750790358 0.4809382856
0.34940428 -0.15462998 1.6960001 0.7078264356 -0.2496439368 0.6608022451
-0.18558331 -0.12267371 1.794 0.06243349984 0.8621962667 0.5027123094
-0.16623236 -0.28363088 1.6880001 -0.4808957279 0.6109178662 0.6289027333
0.22590308 -0.40503803 1.7129999 0.3250694573 0.1691533178 0.9304391742
0.18125451 0.024449356 1.4378 0.6669496894 0.3835537434 0.6387993693
0.41212624 -0.01056734 1.7220001 -0.2562238276 -0.6394287348 0.7249001861
0.11766269 -0.4427833 1.766 0.5918428302 0.2291451246 0.7727965713
-0.20568553 0.075359315 1.5860003 0.4311846793 0.2451411635 0.8683234453
0.098320447 -0.28516194 1.8630002 0.6446655393 0.02493238077 0.7640580535
0.22676124 -0.34539792 1.7129999 0.505654335 -0.002801148687 0.8627316356
0.098585546 -0.40529612 1.7850002 0.797650516 -0.1952839941 0.5706293583
0.034989081 0.10588803 1.5755 -0.2064934075 0.9243814945 0.3207480907
0.43236318 -0.39464027 1.655 0.8517413735 -0.1179098338 0.5105232
-0.029359566 -0.22278731 1.9700001 0.8080153465 -0.3679176569 0.4601606131
-0.024101144 -0.12578817 1.8830001 -0.4019492567 0.5448067188 0.7359500527
-0.27708277 0.3638798 1.904 -0.7291098833 0.5237388611 0.4405637383
0.042903189 0.21624942 1.4830002 0.1640093178 -0.5678905249 0.8065986037
-0.2548435 0.035592668 1.6240003 0.5137084723 0.2960934043 0.8052529097
-0.042482391 0.41456953 1.6710001 -0.1975063831 0.4019697309 0.8940981627
-0.045552038 0.11521789 1.52825 -0.1115501821 0.7375116348 0.6660578847
0.08772102 -0.45647416 1.853 0.8476236463 0.3614814579 0.3884138465
-0.033939272 0.19580349 1.4890002 0.2483867556 -0.3553193212 0.9011393785
0.48406029 -0.35307926 1.6240001 0.6864376664 -0.4048269391 0.6040848494
0.036196865 -0.41410542 1.8940001 0.5256069303 0.2162983418 0.822771132
0.17188102 0.088036619 1.5940001 0.1817127913 0.939771533 0.289499402
-0.014940329 0.31756145 1.8130001 0.1476332098 0.8978467584 0.414820075
0.17804223 -0.30499411 1.7660002 0.7891691923 -0.2701117992 0.5515900254
0.14132831 -0.17381757 1.853 0.6332600117 -0.2989928722 0.7138522267
0.37468034 -0.3627857 1.6960001 -0.3505367935 0.7771145105 0.5227016211
0.25350258 0.10530107 1.6390001 -0.7157725692 -0.05033331737 0.6965171695
0.025458401 -0.18703437 1.9360001 0.5239121318 -0.5141105652 0.6791217923
-0.083940834 -0.17291811 1.9150001 -0.1568118334 0.8567087054 0.4913860559
0.42628881 -0.25489435 1.6710001 0.04360450059 -0.1904596239 0.9807261229
-0.032489266 -0.36225533 1.853 -0.5316870213 0.5740848184 0.6226841211
0.044652142 -0.14941293 1.9590001 0.290728271 0.3854140639 0.8757471442
0.008394083 -0.36094558 1.9150001 0.8031404614 0.04410450161 0.5941550136
0.27708483 0.40317693 1.8130001 -0.1033551469 0.1022584811 -0.989373982
0.12350796 0.13646701 1.5084 -0.1762135029 0.7410670519 0.6478953958
-0.096195757 0.16566984 1.5240002 0.6187312603 -0.3494582474 0.7035982609
-0.14477555 0.073075138 1.5727779 -0.04448240623 0.7330445051 0.678724587
0.030173989 0.067532264 1.6390001 -0.06084481254 0.8362271786 0.5449972749
-0.28101024 -0.052038934 1.6960001 0.2771639526 0.6788153052 0.6799925566
0.099050187 -0.15612994 1.9150001 0.8070760965 -0.3441392183 0.4797877967
0.41333783 -0.46240309 1.6960001 0.8836454749 -0.464614749 0.05747892708
0.30796248 -0.40910703 1.7220001 -0.4794788957 0.7479842305 0.4589330554
0.18356435 -0.10559011 1.853 0.4672756195 -0.4128445983 0.7818010449
0.23200735 -0.24426667 1.7479999 0.6782267094 -0.507237196 0.5317133069
-0.49458465 -0.1938573 2.835 -0.04972136021 0.849912405 0.5245729089
0.46571878 -0.31500843 1.6384616 0.5682175756 -0.1587824225 0.8074136972
0.05400354 -0.34595284 1.8830003 0.116740495 0.03312902153 0.9926097393
0.21139473 -0.0068531954 1.8040003 -0.1452451348 0.8863642216 0.4396160543
0.14708012 -0.30839381 1.8040001 0.6460341215 -0.7354648709 0.2042824775
-0.23133393 -0.22702335 1.6390001 0.4520319104 -0.2218537182 0.8639722466
-0.052315082 0.010463017 1.705 -0.2215942889 0.8076666594 0.5464161038
0.1398029 0.31977907 1.8330001 0.3837640882 -0.4400914907 -0.8118156195
0.23258172 -0.20609176 1.8130001 0.4877043366 0.09278361499 0.8680643439
0.29308721 -0.34463516 1.6800002 0.08528845012 0.0942550078 0.9918880463
-0.095590562 0.097845055 1.5430001 0.0396409817 0.7028957009 0.7101874352
-0.10527714 -0.32481092 1.766 -0.2405776829 0.6323883533 0.7363473177
0.17381757 -0.050358366 1.853 -0.1132854819 0.6937783957 0.711222887
-0.30484095 0.3345547 1.8830003 0.5559079051 0.09875378013 0.8253569007
0.27712661 -0.069668703 1.766 0.8574540615 0.1534479111 0.4911479056
0.41999346 -0.49972105 1.6240001 0.5468588471 -0.3015345931 0.781039238
-0.22525948 -0.064574391 1.7129999 -0.1416374147 0.7475927472 0.6488789916
0.22871971 -0.041244537 1.8330001 0.5716955066 0.5661071539 0.5938745141
-0.075088255 -0.032180678 1.748 -0.1454942673 0.7964144945 0.5869883895
0.28442764 -0.19552524 1.7130001 0.7168912292 -0.6580039859 0.2304294556
0.38497749 -0.084678814 1.5430001 -0.3606066108 0.6942365766 0.6228952408
0.26783744 -0.1377892 1.766 0.7429872155 -0.1602917463 0.6498280764
0.38630494 -0.053641479 1.684 0.33825472 0.02380901016 0.9407533407
0.40216646 -0.43033373 1.7850001 0.06802929193 -0.7785134912 0.6239300966
0.042913709 -0.052450091 1.8130001 -0.199512735 0.6759089828 0.7094658017
0.18356435 0.30215016 1.853 -0.08253721148 -0.1528077573 -0.9848031998
0.37785998 -0.37785998 1.7310001 0.001225790242 0.3987522721 0.9170578718
-0.11868965 0.13484836 1.5360001 0.4452079833 0.005377566442 0.8954110742
-0.045380648 -0.053204898 1.7850001 -0.1636921614 0.8283049464 0.5358318686
0.12518904 0.10363146 1.5762002 0.09829369932 0.9369655848 0.3353115022
0.27645603 -0.27564886 1.6879998 0.7257584333 0.0002075097145 0.6879495978
-0.19492245 -0.23535082 1.6470002 -0.3066323698 0.2215253264 0.9256905913
0.31495562 -0.27833289 1.6710001 0.6173972487 0.3482345343 0.7053745985
0.23173368 -0.091095306 1.8230001 0.6155236363 -0.3704258502 0.6956402659
0.31567714 -0.47504812 1.748 0.394395411 -0.0388167873 0.9181206226
0.45340586 -0.28137407 1.6630001 0.2233372331 -0.2091412246 0.9520401359
0.14486335 0.015629131 1.7360911 -0.09046547115 0.7478995919 0.6576185822
0.052190598 0.088865072 1.6090001 -0.1188447401 0.7784970999 0.6162939668
0.20398377 -0.01331545 1.4040002 0.09329042584 0.6396553516 0.7629796267
0.31120875 0.40119687 1.8330001 0.2218975276 0.5259484053 -0.8210601807
-0.29151708 0.02343856 1.6710001 0.6417136192 0.1284825802 0.756105721
-0.067199126 0.15600739 1.5030001 0.3959619701 -0.03715408221 0.9175149798
-0.03691205 -0.19862199 2.0050001 0.360637486 0.6436987519 0.6749759316
0.10460562 -0.086341143 1.8940001 -0.006172966212 0.6984015107 0.7156795859
-0.15402727 -0.29667321 1.7310001 -0.2297341377 0.7798137665 0.5823338628
0.10559012 -0.34438622 1.853 0.7611079216 -0.5724182725 0.3050442338
0.071397483 -0.23079653 1.8940001 0.3172060847 -0.2079325318 0.9252806902
-0.083697118 0.05150592 1.6320001 -0.3355627656 0.8475353122 0.4111952782
0.18498418 -0.46344557 1.748 0.3570691645 0.2659353614 0.8954216838
-0.1570259 -0.064029977 1.7390001 -0.5924388766 0.5632417202 0.5759991407
0.23720671 -0.47903433 1.7570001 -0.3377985358 0.7185928822 0.6078786254
-0.032247305 -0.29022574 1.9360001 0.7035434842 0.2213383615 0.6753042936
-0.17335118 0.092817962 1.557 0.2535702884 0.2797367871 0.9259856343
0.31862536 -0.099094018 1.7390001 0.7254992127 0.03938101232 0.6870953441
0.11595932 -0.20415376 1.863 0.6506379843 -0.3199188411 0.6887105107
0.014689648 -0.2430087 1.9150001 0.6084375381 -0.5089776516 0.6088887453
0.20472288 0.33713388 1.8329999 0.1948527694 -0.6948060393 -0.6922982931
-0.065212317 0.067541324 1.594 -0.184410274 0.888730824 0.4197027683
0.072132133 0.23213431 1.4960001 -0.06008947641 -0.7418471575 0.6678712964
-0.25968358 0.2776491 1.863 0.09198978543 0.3745449781 0.922634244
0.15821818 -0.027168777 1.8230001 -0.3095298707 0.8426175714 0.4406664371
-0.1629377 -0.024778545 1.7130001 -0.7157742381 0.5103476048 0.4766681492
0.21122758 -0.25170854 1.7760001 0.7057119012 -0.6949751973 0.1377685517
-0.013244899 0.071970388 1.6337501 -0.2597653866 0.7811037302 0.5678017735
0.31107992 -0.17009787 1.748 0.5044899583 -0.340575248 0.7934093475
-0.055231534 -0.34450173 1.813 -0.3064684868 0.6340326667 0.7099856734
0.076375201 -0.1340809 1.936 0.2966710031 0.1505377889 0.9430401325
-0.19292833 -0.27457052 1.6630001 -0.1372723877 0.6671714187 0.7321465611
0.27928233 0.42300656 1.863 -0.4250442088 0.8454620838 -0.3233130276
0.033387266 -0.091404475 1.8730001 -0.228306368 0.8416993022 0.4893040657
-0.11562628 0.016515125 1.6850909 -0.2523906529 0.78560251 0.5649138689
0.12508367 -0.25504074 1.853 0.4657581151 -0.02283258364 0.8846174479
0.055117045 0.014154186 1.7353079 -0.2411938608 0.820759654 0.5178601742
0.0075480998 0.49364573 1.7220001 -0.07389259338 -0.8857870102 0.4581716359
0.070605859 -0.41542515 1.8730001 0.8503957987 0.09072404355 0.5182626247
-0.13483046 -0.14782616 1.853 -0.2140819281 0.825356245 0.5224518776
0.16296409 -0.43652195 1.7570002 0.1076907739 0.1409797668 0.9841378927
-0.0052210977 0.16443254 1.4886252 0.05283568054 0.3943684697 0.9174322486
0.27820492 -0.39511016 1.6880001 0.2458779067 0.4189046025 0.8741069436
0.12566891 -0.47576252 1.7760001 0.6939463019 0.3356619775 0.6370004416
-0.1444957 0.28242344 1.8730001 -0.1636547148 -0.1502165347 0.9750139117
0.30500495 0.054323174 1.684 -0.2389906198 0.6985718012 0.6744486094
0.33603635 -0.4144083 1.748 0.04599255323 0.5404667854 0.8401073217
0.468775 -0.45749053 1.6090001 0.6702005267 -0.2022075057 0.7141031623
0.25350571 -0.19560625 1.785 0.6694771647 0.004236512817 0.7428205609
0.24042846 0.021177636 1.4210001 -0.5798768401 -0.5937721133 0.5578328371
0.12463263 -0.13618799 1.8830001 0.612688601 -0.4760068655 0.6308963299
0.4526335 -0.49371761 1.6160001 0.5674715638 -0.2337833643 0.7895070314
0.26465514 -0.32620978 1.6960001 0.6498773098 -0.09921567142 0.7535355091
-0.46754387 -0.084580801 2.6800001 -0.04057347775 0.8875800371 0.4588631988
0.43680441 -0.42674643 1.6390001 0.7595108151 -0.1972243786 0.6198756695
0.40608954 -0.44439986 1.748 0.284711808 -0.826487422 0.4856519103
-0.040972769 -0.0075875497 1.7310001 -0.2620841861 0.7072638869 0.6565741897
0.33356297 -0.064820014 1.4868182 -0.399246484 0.6504397392 0.6461659074
0.011808992 0.35375634 1.7570001 0.3831805587 0.6377305388 0.6681859493
0.30805454 0.028832689 1.7310001 -0.2010609806 0.9194361567 0.3379520476
0.24642092 0.072561257 1.6390001 -0.6646544337 0.3083618581 0.6805493236
0.26499456 -0.47238165 1.7760003 0.2727936208 0.5895096064 0.7603039742
0.34911585 -0.0045735701 1.739 0.8076106906 -0.3147467077 0.4986977279
0.33444306 -0.1003345 1.526 -0.1930376291 0.799589932 0.5686759949
0.14438699 0.082300588 1.6470001 -0.04525303096 0.9312024117 0.3616824746
-0.25463003 -0.24447384 1.6550001 0.5169107914 0.358353138 0.7774228454
0.11409992 0.22513968 1.4960002 -0.2754595578 -0.7165470719 0.6408450007
0.098585546 -0.02034305 1.7850001 -0.06855987012 0.8022832274 0.5929933786
-0.0039975997 0.46771923 1.6800002 -0.5811661482 -0.1987766623 0.7891348004
0.41355669 -0.46312514 1.6630001 0.9088907838 -0.3069774508 0.2822806239
-0.010726893 -0.0076620667 1.748 -0.4232080281 0.719592452 0.5505285263
-0.22145799 -0.27550676 1.6857144 0.1436771899 0.780611217 0.6082786918
0.2048776 0.0025803223 1.7660002 0.09885029495 0.8639169335 0.4938381612
0.11493078 -0.3131153 1.8529999 0.6390268803 -0.1945589483 0.744171679
-0.11380185 0.078153081 1.5640001 0.04967342317 0.760538578 0.6473898292
0.14727999 0.063330404 1.6800002 -0.1896394491 0.7888321877 0.5846200585
-0.10476352 -0.025812473 1.731889 -0.1269308478 0.7403922677 0.6600816846
0.28593448 0.10345368 1.6390001 -0.1049490124 0.007902212441 0.994446218
0.25741783 -0.086849168 1.7850001 0.7219985127 -0.3126111329 0.6172458529
0.42416641 -0.34758079 1.6800001 0.6068506241 0.3988476098 0.6874975562
-0.19151661 0.0029017667 1.6550001 -0.2769695818 0.8161488175 0.5071379542
0.37542376 -0.25500485 1.6159998 -0.02266265266 -0.1888038218 0.9817532897
-0.1162929 -0.051600162 1.7570001 -0.2849963307 0.6861438751 0.669315815
0.17622752 -0.34785783 1.748 0.5411598086 -0.5470516682 0.6386552453
0.20415376 -0.047363669 1.863 0.1830787808 0.4762898684 0.8600174785
0.30385646 -0.065947689 1.4749001 -0.03345663473 0.8110548258 0.584012568
0.015599407 0.015599407 1.7220001 -0.03375631198 0.9079090953 0.4178056419
-0.12339456 0.25628102 1.8830003 -0.2040912956 -0.277210027 0.9388830066
0.2149522 0.014657977 1.3931252 -0.0500565581 -0.1831916422 0.9818019867
0.26415354 0.37465519 1.8230001 0.07549363375 0.03489810973 -0.9965354204
0.16765636 -0.28656921 1.8330001 0.5943588614 -0.6975167394 0.4002598226
0.35560966 -0.47544774 1.7130001 0.06121436879 -0.4779005349 0.87627846
-0.014752985 0.080803685 1.6030002 -0.3423468769 0.8764754534 0.3385105431
0.11471447 0.2924411 1.8430001 -0.2491787374 0.4066949487 -0.8789250255
0.20424525 -0.17483906 1.8230002 0.4552926123 0.08639724553 0.8861400485
0.48570919 -0.40430865 1.6042941 0.5631368756 -0.1275439262 0.8164615035
0.12739193 -0.33813909 1.794 0.7485867143 -0.4109473526 0.520326972
0.13781025 0.18461372 1.483 -0.4536627531 0.3732894063 0.8092250228
-0.018669493 -0.24609786 1.9360002 0.6204007268 -0.242097944 0.7459836006
-0.019727631 0.35964987 1.7310001 -0.5999672413 0.5121594667 0.6145990491
0.075376429 0.035659667 1.705 -0.1339695454 0.8277519941 0.544865787
0.084247671 0.11685966 1.5500001 0.1135923043 0.9429904222 0.3128352165
0.49080884 -0.46578178 1.5860001 0.5186138749 -0.241381526 0.8202283978
-0.0040173251 -0.068294525 1.8330001 -0.4305996001 0.7656365633 0.4778960347
0.20607167 0.017139489 1.7380003 0.1175812706 0.8308650255 0.5439098477
0.372877 -0.20602544 1.6550001 -0.6601994634 -0.5980786085 0.4543551803
-0.0029596267 0.028116453 1.6880001 -0.1896369755 0.8825550675 0.4302724004
0.024490997 -0.34411925 1.8940001 0.5079772472 0.04045949504 0.8604197502
0.034669533 0.04638882 1.6710002 -0.1759125739 0.7484018803 0.6394914985
0.24442606 -0.026812412 1.4225001 -0.2631666958 0.6969676018 0.6670677662
0.10068429 -0.4746545 1.8230001 0.9008850455 0.3437538445 0.2650271356
0.0048996899 0.48833576 1.863 0.9980183244 -8.838174108e-05 -0.06292400509
0.10445045 -0.053028688 1.8330001 0.0009501015302 0.9128227234 0.4083550274
0.084188923 -0.26577291 1.8830003 0.4841517508 -0.09115567803 0.8702228069
0.2357716 -0.37543252 1.7129999 0.3105493188 -0.07205928117 0.9478220344
0.35741174 0.01051211 1.7130001 0.917925179 -0.1729780585 0.3570601642
-0.18587594 0.28756297 1.8830001 -0.3506894708 -0.3394334912 0.8728125691
0.36417171 -0.3293505 1.6550001 0.06560198218 0.5952407718 0.8008649945
0.01423356 -0.044282183 1.804 -0.1969298124 0.7452867031 0.6369979382
0.39995638 0.0014868267 1.6960001 -0.6239494681 -0.5793238282 0.5244720578
-0.23389731 -0.2045991 1.6710001 0.4557565451 -0.8225662708 0.3401039541
0.28555837 -0.049643878 1.452 -0.108862862 0.8254523277 0.5538747907
-0.26412213 -0.027001334 1.6800002 0.1510761678 0.6030040979 0.7833020091
0.15216129 0.12523007 1.536 -0.09659593552 0.8092013001 0.579536438
