# .PCD v0.7 - Point Cloud Data file format
VERSION 0.7
FIELDS x y z normal_x normal_y normal_z
SIZE 4 4 4 4 4 4
TYPE F F F F F F
COUNT 1 1 1 1 1 1
WIDTH 512
HEIGHT 1
VIEWPOINT 0 0 0 1 0 0 0
POINTS 512
DATA ascii
-0.043736197 -0.14805567 1.3340001 -0.09054712206 0.7509293556 0.6541455388
-0.48515609 -0.49137604 2.365 0.1709875017 0.969658494 0.1747160405
0.39609113 -0.4326534 2.3170002 0.1917825788 0.961243391 0.1980671883
0.45617527 0.19408698 1.6160001 -0.3320969641 -0.7431476116 0.5808986425
0.4734149 -0.46272835 1.2190001 0.2789430618 -0.09536541253 0.9555606842
-0.24297285 -0.064755857 1.8940001 0.9882200956 0.04051672295 0.1475784332
-0.18497331 0.28472361 1.5050002 0.7938712835 -0.2611803114 0.5491386056
0.30436417 0.13300902 1.1677692 0.4705315828 -0.3486803174 0.8105689883
0.11521477 -0.4943288 1.3712634 -0.0006528295344 -0.301399827 0.9534976482
0.24333636 0.42494839 1.3540001 0.3418563902 -0.4541868567 0.8227080107
0.40180176 -0.14540832 1.3540001 0.3715965748 0.05824920163 0.9265651703
0.08270561 -0.36713222 2.3010001 0.1650166214 0.9699890614 0.1785799116
0.038908221 0.044894099 1.138 0.2031042725 0.3989890814 0.8941791654
-0.16453001 0.06442026 1.3864547 0.2021845132 -0.4244635701 0.8825826049
0.21915351 -0.27995911 1.4450001 0.3098407984 -0.4025212526 0.8613799214
0.18446118 -0.079858199 1.2830001 -0.01393670123 0.7983845472 0.601986587
0.41677171 0.079807349 1.4450001 -0.3827055395 -0.7381594777 0.5555691123
0.019580349 -0.27281955 1.489 0.09355452657 0.1571415365 0.9831348062
0.30583498 -0.43595758 1.3379999 0.520755589 -0.2450744063 0.8177726865
0.30645224 0.30120632 1.4959999 -0.8616428971 -0.4009284675 0.3111718297
-0.12540758 -0.025032343 1.2104706 0.2513739169 0.3222275078 0.9126777053
0.36488104 -0.045830961 1.1941112 0.1535717249 0.8050805926 0.5729406476
0.46080449 -0.2864162 1.2590001 0.5545383692 -0.2384588122 0.7972606421
0.25818884 0.27481043 1.2640001 0.540519774 -0.5449150801 0.6410194635
0.10454074 -0.1753193 1.3920001 -0.08382964134 0.7403014898 0.6670280099
0.19526848 0.014452329 1.1551818 0.01179582905 0.8379454017 0.5456265807
0.11220895 -0.46789014 2.4150002 0.1658323556 0.970143497 0.1769780964
0.35061845 -0.29317924 1.365 0.7380176783 -0.2505102456 0.6265577078
0.044677559 -0.056665976 1.243 -0.0272182636 0.7758734226 0.6303012371
0.25754362 -0.16104016 1.376 0.01632747985 0.7320045829 0.6811040044
0.035892192 -0.40621519 1.4450001 0.7906467319 -0.07534793764 0.6076186895
0.18454394 -0.39362267 1.4039999 0.2681367993 -0.2495823205 0.9304898381
-0.17228253 0.17481609 1.4450001 0.2457372546 -0.5385261774 0.8059793711
0.40154052 -0.39029288 1.2830001 0.721162796 -0.1924165636 0.6655074358
0.30015314 -0.08947961 1.2920001 0.112530835 0.752069056 0.6494066119
-0.14305896 -0.10445998 1.295125 0.4143279195 0.6259075403 0.6607360244
0.37822646 -0.49550167 1.268 0.579385221 -0.2173814625 0.785530448
0.30526021 0.024922626 1.1371431 0.1359851956 0.3482892811 0.9274711013
-0.040935948 -0.22204651 1.4150001 -0.5259247422 0.6002456546 0.6025847197
0.11310565 -0.32483944 1.4449999 -0.01010100078 -0.4974395931 0.8674398065
0.43311062 0.14418022 1.5268573 -0.4726826549 -0.6166425347 0.6295419335
0.23282512 0.080776066 1.0840001 0.1205790937 0.6263853908 0.7701311707
0.22485854 -0.49553573 1.3558183 0.2240469754 -0.4931061566 0.8406243324
0.26489484 -0.03185524 1.2156667 0.08810725808 0.8220093846 0.5626168251
0.056085467 -0.11755861 1.3252728 -0.1226270273 0.7646247745 0.6327018142
0.27375844 -0.35104537 1.3920001 0.2999120951 -0.4518848062 0.8401504755
-0.024932751 -0.015589061 1.1849998 -0.01098453905 0.5976760983 0.8016623855
-0.055127721 -0.084899031 1.2576667 -0.07781415433 0.7477074265 0.6594532132
-0.14756086 -0.018063892 1.3380001 -0.06727391481 -0.345049262 0.9361705184
0.10552678 -0.0085564861 1.1830002 -0.1108201444 0.7861446142 0.6080259085
0.40679234 -0.23513949 1.3166429 0.6771802902 -0.01667799801 0.7356281281
0.13890257 0.071879655 1.108 0.2698109448 0.4302624166 0.8614385128
0.4744513 -0.37242693 1.2328001 0.4440032244 -0.2493600696 0.8606280684
0.27340165 0.1962059 1.223 0.3901182413 -0.4479321837 0.8044653535
0.18437001 -0.20056468 1.4210001 0.0555120185 0.7178495526 0.6939815879
0.17573754 -0.13651934 1.355786 -0.00695792865 0.7777839899 0.6284931898
0.26362503 0.35610214 1.3035386 0.6580899954 -0.2444195151 0.7121633887
0.3842862 -0.078457035 1.2758571 -0.1744933724 0.7311540246 0.6595193744
0.041283108 -0.22142759 1.427 -0.07955155522 0.7483037114 0.6585689783
0.29469183 -0.25574303 1.4104166 0.444450438 -0.04493065923 0.8946759701
0.10532475 -0.41567227 1.404 0.1124649048 -0.1913592666 0.9750555158
0.17525969 -0.030991044 1.2190001 -0.02354260534 0.8087317944 0.5877062082
0.39427859 -0.31453168 1.3032501 0.725263238 -0.1999453306 0.6587982774
0.34564519 -0.36508477 1.3365295 0.6916093826 -0.215449959 0.6893894076
0.054282509 -0.47447768 1.4123687 0.6584142447 -0.1826610267 0.7301545739
0.01447552 -0.17129363 1.376 -0.09328395128 0.7458521128 0.6595473886
0.32142019 -0.14010623 1.3430001 0.1550742835 0.7575992346 0.6340310574
0.10531572 -0.081787743 1.2780001 -0.05248598382 0.7879707813 0.613471508
-0.10052298 -0.19158497 1.3490001 -0.6135681868 0.4501900375 0.6487395763
0.24487758 -0.42461523 1.3759999 0.2425068319 -0.3729310334 0.8956075311
0.042353522 -0.33497784 1.4640001 0.5047947168 -0.5528461337 0.6629807353
0.23521845 -0.11461306 1.3250002 -0.03877426311 0.7566021085 0.6527249217
0.32442906 -0.49469885 1.3123127 0.5680924654 -0.1743680686 0.8042802215
0.0040579149 -0.095380291 1.286 -0.2129832953 0.7302156687 0.649171114
0.11227558 -0.22076659 1.439 -0.07687970996 0.706774652 0.7032489181
0.17764246 -0.32776287 1.427 0.4041680396 -0.4249161184 0.8099966049
0.16515335 -0.4553012 1.3857372 0.1550206691 -0.3984542787 0.9039927125
0.41630057 -0.4456782 1.2442001 0.7329791188 -0.1182668582 0.669891417
-0.18591382 0.22524174 1.4829999 0.3532906175 -0.4811019003 0.8023257852
0.35816655 -0.43434802 1.2970001 0.6072579622 -0.1439937651 0.7813472748
0.32571307 -0.056212217 1.2426001 0.1127194613 0.7976409197 0.5925059319
-0.15945689 0.1223739 1.4100001 0.5496120453 -0.3722627461 0.747895062
0.24493378 -0.06737636 1.2738333 -0.02670054138 0.7995371819 0.6000227928
0.044972125 -0.019871403 1.1930001 0.02953588963 0.7493210435 0.6615478992
-0.11487215 -0.076448947 1.2435 0.04054484144 0.7073414326 0.7057083249
0.24608344 0.03414885 1.1250626 0.06453371793 0.7662837505 0.6392531395
0.11655897 -0.1283326 1.3430001 -0.06752586365 0.7573601604 0.6494966149
-0.10006624 -0.14492352 1.312 -0.5684685707 0.4012673795 0.7182116508
0.43188456 -0.34379008 1.2640001 0.6112364531 -0.2240144312 0.7590833902
0.13514563 0.0252198 1.1433336 0.04679783806 0.732855022 0.6787735224
0.31521097 -0.016179884 1.1848093 0.1520538032 0.8095217943 0.5670574307
0.36456534 -0.23708659 1.3590001 0.735691011 -0.1970615089 0.648016572
0.11530814 -0.046892419 1.2334547 -0.05299317092 0.8192064762 0.5710451007
-0.064906865 -0.044694871 1.2137501 0.01276271697 0.6354796886 0.7720121145
0.43221632 -0.18443665 1.3232 0.5971505046 -0.3473179042 0.7230362892
0.29212025 0.079347536 1.153 0.5412430763 -0.266405642 0.7975487113
0.45796952 -0.23294903 1.2920001 0.355684787 -0.369671762 0.8583886623
0.081657119 -0.37059769 1.4330001 0.3153544664 -0.330345571 0.8896197677
-0.23554718 -0.027615877 1.853 0.9864153862 0.04844557494 0.1569638699
0.24577089 0.0010283299 1.1730001 0.1000798792 0.8410481215 0.5316221118
-0.075302154 0.0052293167 1.1930001 0.2628223002 0.3034933805 0.9158691168
0.40423363 -0.098734587 1.325 -0.3247302771 0.6803333163 0.6570364237
-0.014763944 -0.056358267 1.2323335 -0.1700394005 0.7617934346 0.6251058578
-0.038601387 -0.18215029 1.376 -0.05713384971 0.7933471799 0.606082499
0.25438941 -0.3038334 1.41 0.2314142734 -0.3693741858 0.9000056386
0.35758793 -0.01712393 1.149 0.1248298436 0.6367347836 0.7609115243
0.19621202 0.049538679 1.108 0.01559151523 0.7387502789 0.6737989187
0.063821331 -0.15277232 1.3649999 -0.1096241474 0.745428741 0.6575093269
0.27799627 -0.48795968 1.3380001 0.3462400436 -0.3589996397 0.8667393327
0.34832421 -0.11114293 1.307 0.1629123241 0.7418589592 0.6504650712
0.089828528 0.054950047 1.126 0.148226738 0.4573783875 0.8768317103
-0.011234484 0.031660818 1.1650001 0.1626638621 0.3587089479 0.9191672206
0.29745036 -0.38879028 1.3590001 0.4877103865 -0.3366397917 0.8054888248
0.1345403 -0.37621456 1.4210001 -0.1252784133 -0.2223217338 0.9668911099
0.15567796 -0.16857849 1.3920001 0.03223769739 0.742800653 0.6687360406
0.21662784 -0.3532511 1.4040002 0.3972235024 -0.1614721119 0.9034048319
0.4267 -0.49221063 1.225 0.630808115 -0.09769183397 0.7697645426
0.0051141228 -0.12713771 1.3256001 -0.2227585465 0.7541796565 0.6177310944
0.30235139 -0.30418447 1.3935 0.593296051 -0.3504555821 0.7246934772
0.28564695 0.24324434 1.235 0.5046144724 -0.3124165833 0.8048354983
0.42496678 0.18133762 1.5790001 -0.1392411143 -0.8007181287 0.5826340318
0.05524344 -0.086812213 1.2860001 -0.04472872615 0.7854755521 0.6172742248
0.45605937 -0.41565782 1.2160499 0.4144918919 -0.2394452393 0.8779877424
-0.13939263 0.02621058 1.3590001 0.3556738794 -0.3369923532 0.8717409372
0.20525216 -0.16502246 1.3834709 0.04005428031 0.7169722319 0.6959500909
0.1556627 -0.1055704 1.3136668 0.02987289988 0.8041744828 0.5936421752
0.4251214 0.1055226 1.4860001 -0.3827055395 -0.7381594777 0.5555691123
-0.054244716 -0.11734561 1.2945 -0.09231443703 0.7645821571 0.6378810406
0.42106387 -0.27438527 1.2919999 0.6054517031 -0.3044781983 0.7353374958
-0.0050671338 -0.23435491 1.4449998 -0.1358525157 0.7733370066 0.6192688942
0.37852144 -0.27560163 1.3265001 0.6218428612 -0.2929843068 0.7262724042
0.21606556 -0.048522271 1.2410001 -0.03325848654 0.8047449589 0.5926882625
0.075358957 0.014110873 1.154263 0.1345443726 0.6661134362 0.733614862
0.26009735 0.29447144 1.307 0.8362109661 -0.2149978131 0.5045068264
-0.0645402 -0.22185227 1.3742857 -0.6317490935 0.117876634 0.7661581039
0.3145014 -0.34430885 1.3649999 0.5843042731 -0.3620901704 0.7262776494
0.2816318 -0.11802826 1.3330001 0.1283378303 0.7700463533 0.6249463558
-0.094672553 -0.10343498 1.2754999 -0.01914917864 0.7546114326 0.6558924317
0.15464664 -0.00103096 1.1760001 -0.02685547434 0.7978920341 0.6022018194
0.053898562 -0.18373904 1.3972501 -0.1467662305 0.7453582287 0.6503081918
0.30016276 0.17465918 1.1930001 0.5743703842 -0.3634552956 0.7334840894
0.26544064 0.39415088 1.3279997 0.3044700027 -0.3861734867 0.8707284331
0.0037082999 -0.1990121 1.4100002 -0.09876796603 0.7861621976 0.6100769639
0.15482152 -0.057099484 1.2525001 -0.06587964296 0.7685636878 0.6363723278
0.46268013 -0.32831869 1.2360001 0.6514126062 -0.2437554598 0.7185018063
0.21391192 -0.017913807 1.202 -0.01415643003 0.8170416951 0.57640481
0.42893985 -0.39619634 1.245 0.6564290524 -0.2075563967 0.7252731919
0.36101669 -0.323569 1.3348751 0.7091569304 -0.2681994438 0.6520471573
0.3792609 -0.36092806 1.307 0.6475124359 -0.09735595435 0.7558104396
0.21544416 -0.45742023 1.3755002 0.3025970757 -0.2853192091 0.9094107747
0.27120036 0.056740496 1.097 0.01191983279 0.6991917491 0.7148348689
0.18413074 -0.49435788 1.3716 0.2309884429 -0.449565053 0.8628647327
0.063532911 -0.42978144 1.4210001 0.3545191586 -0.2406279445 0.9035565257
0.28541404 -0.062257592 1.2579091 0.08059208095 0.8291512728 0.5531844497
0.33523163 -0.2550706 1.3855002 0.6264230609 -0.2442514449 0.7402265668
-0.20334108 0.24719897 1.516 0.730920732 -0.3771854043 0.5687583089
0.27494127 0.32244536 1.2780001 0.5219900012 -0.4169819057 0.7440783381
0.24338163 -0.38455045 1.3925456 0.4754563272 -0.3374942839 0.8124277592
0.27644718 0.28505254 1.2270001 0.4019684494 -0.430065006 0.8083720803
0.33744377 -0.40550908 1.3264002 0.6312295794 -0.1921821833 0.751408875
0.035936318 -0.24000327 1.4640001 0.06624114513 0.7995235324 0.5969709158
0.095033802 -0.46489435 1.3926318 0.258697927 -0.3278776705 0.9086096883
0.34149498 -0.079235762 1.273 0.1187988669 0.792787075 0.5978088975
0.15147749 -0.30804664 1.452 0.2161369771 -0.2084289193 0.9538564682
0.09445174 -0.1082737 1.3138751 0.007027418353 0.8085336089 0.5884080529
0.025154447 0.01308613 1.1610001 0.1524651945 0.5598714948 0.8144312501
0.28528863 0.001925647 1.1645555 0.08615724742 0.8200338483 0.5657927394
0.075342491 -0.036026753 1.2141051 -0.01418387517 0.8317486644 0.5549711585
0.26472685 -0.45534918 1.3589998 0.222628817 -0.2556318939 0.9407915473
0.35540828 -0.47498322 1.2941741 0.5755132437 -0.1965788901 0.7938143611
0.053144094 -0.29460582 1.4851818 0.5866352916 -0.2013018578 0.7844339013
0.08559335 -0.20219879 1.4150001 -0.01747075655 0.7143732309 0.6995467544
0.014899882 -0.036188524 1.2139375 -0.06277965754 0.7895872593 0.6104184985
0.21592985 -0.3159751 1.4265 0.3666246831 -0.4941877127 0.7882670164
0.23262876 -0.18585683 1.4039999 0.005763707217 0.7005489469 0.7135810852
0.19522095 -0.11271962 1.3255001 -0.02346382849 0.7665449977 0.6417617798
0.14466009 -0.19579078 1.4225003 -0.03653892875 0.6961092353 0.7170054913
0.3844856 -0.45490202 1.2749445 0.6787164211 -0.2529939711 0.6894476414
0.14523911 -0.42587066 1.4039999 0.04155133665 -0.2415814549 0.9694905281
0.22454807 -0.13811773 1.3552501 0.0804355219 0.7839617133 0.6155762672
0.37000155 -0.057846848 1.245 0.174416095 0.8695636988 0.4619934857
0.14411326 -0.08218772 1.28425 -0.03976574913 0.8114441633 0.5830755234
0.25467077 -0.2671532 1.4240001 0.3491876423 -0.3193022907 0.8809733391
0.13438195 -0.024893105 1.203647 -0.09363863617 0.8018984199 0.5900769234
-0.1817067 0.0902353 1.4100001 0.5275685191 -0.3346315324 0.7808285356
0.31489339 0.060214728 1.126 0.390320003 -0.1685446203 0.9051204324
-0.082022972 -0.15815915 1.3430001 -0.6080728173 0.4769303501 0.6346533298
0.1961654 -0.42660913 1.3864 0.3053922057 -0.358591944 0.8821266294
0.18469229 0.081342392 1.0916001 0.1793601066 0.4720926285 0.8631097674
0.26515454 -0.094270036 1.3045 0.06736972183 0.7863293886 0.6141232848
0.28307423 -0.42268336 1.3649999 0.4664964974 -0.3236262798 0.8231931925
0.02939814 -0.369394 1.4580001 0.5279290676 -0.1208920702 0.8406402469
-0.14295758 -0.053827669 1.2260771 0.1097615138 0.5635575652 0.8187522888
0.41189131 -0.18161201 1.3540001 0.5757267475 -0.3351858854 0.7457808852
0.22475423 -0.092857994 1.2970001 0.03350643441 0.7846366763 0.6190497875
-0.01068306 -0.15549786 1.3540001 -0.2257918715 0.7290175557 0.6461822391
0.32905245 -0.45836428 1.317 0.5308714509 -0.3101094365 0.788674593
0.076007001 -0.22422065 1.4450001 -0.06238920242 0.737586081 0.6723647714
-0.18514848 0.14261438 1.427 0.534360528 -0.3048460484 0.7883703113
0.18571045 -0.29541388 1.4449999 0.2827873826 -0.2570416033 0.9241000414
0.29530665 -0.15383601 1.3649999 0.1067298278 0.7278331518 0.6773976684
0.079035886 -0.49731809 1.3870001 0.4842382073 -0.3157494366 0.8159753084
0.36529094 -0.39538172 1.3049998 0.5847573876 -0.1790382713 0.7912042141
0.30439156 -0.036358047 1.213294 0.08146119863 0.8355700374 0.5433109403
0.073473431 -0.33316401 1.4450001 0.2622238398 -0.5527957082 0.7909839153
-0.01710771 -0.081123665 1.2590001 -0.2209184319 0.7384133935 0.6371347904
0.16441278 0.037222944 1.1254547 0.0589340888 0.722761929 0.6885796785
0.13571677 -0.1477271 1.3700002 -0.1058607325 0.751491189 0.6511946321
0.34109434 0.021005809 1.141 -0.1710722148 0.4033944011 0.8988922238
0.14490248 -0.3456755 1.4373333 0.07301972061 -0.5720210075 0.8169823289
-0.044004794 0.013899448 1.177 0.2359247059 0.3538650572 0.9050519466
0.4272595 -0.30582425 1.2756472 0.6097200513 -0.1808601469 0.7717065811
0.032787334 -0.32262737 1.4960001 0.7094851732 -0.1336387545 0.6919331551
0.17418425 -0.3641234 1.4210001 0.2960639596 -0.3186415136 0.9004519582
0.0849474 -0.06399183 1.2550002 -0.06435184926 0.8107795119 0.5818036199
0.026005829 -0.077281088 1.2653334 -0.09621548653 0.8074193597 0.5820795298
0.4392179 -0.45417908 1.2190001 0.5534558296 -0.1466587037 0.8198645115
0.035426099 -0.14288875 1.3470001 -0.1109560952 0.762406528 0.6375147104
0.27830923 0.14071815 1.189 0.5456968546 -0.4419873655 0.7119424939
0.40476301 -0.34549436 1.2851744 0.6672763824 -0.237695381 0.7058634162
0.15133458 -0.49032405 1.381 0.1242917702 -0.4097664058 0.9036830664
-0.19044882 0.20067427 1.4580001 0.1168448031 -0.5402085185 0.8333799243
0.28585032 0.10489554 1.1747143 0.4116145372 -0.4021894932 0.8178123832
0.31591922 -0.1147354 1.317 0.07927752286 0.7500880957 0.6565690637
-0.13348609 -0.14150672 1.307 0.3035046756 0.3802501261 0.873667419
-0.094691783 -0.05540942 1.2258887 0.09629746526 0.6149783134 0.7826420069
0.44345191 0.11385328 1.5160002 -0.6699390411 -0.5162727237 0.5335205197
0.12524147 -0.45111251 1.3870001 -0.03787572682 -0.2909388542 0.9559916258
0.25612691 -0.05202578 1.245 0.07186757773 0.8042451143 0.589936316
-0.094705641 -0.022823799 1.197 0.2679498494 0.3665422499 0.8909823895
0.39758706 -0.42475975 1.268 0.7409858704 -0.1382306665 0.6571394205
-0.025304105 -0.12767072 1.312 -0.1419421285 0.7585141659 0.6360099912
0.18397595 -0.011465923 1.189 -0.008185300045 0.822329402 0.5689528584
0.27288654 -0.39395419 1.381 0.4171803296 -0.3011149466 0.8574907184
0.42284226 -0.15321048 1.3280001 0.5505614281 -0.09888450801 0.8289173245
0.42633617 0.2026187 1.605 -0.3320969641 -0.7431476116 0.5808986425
0.24378839 -0.33421409 1.4039999 0.3365074098 -0.3124375045 0.8883386254
0.40476811 -0.47468388 1.2532965 0.7763970494 -0.1421329081 0.6140080094
0.33555117 -0.032100029 1.2044001 0.4165582657 0.8085353971 0.4156317115
0.095731996 -0.14718795 1.365 -0.01039009076 0.7266340852 0.686946094
0.064531051 -0.3956373 1.4216666 0.4016310573 -0.2910721302 0.8683142066
0.31852937 -0.0025173484 1.1480001 0.3400640786 0.7504453063 0.5667347908
0.12518752 -0.098500803 1.3047779 -0.06832738966 0.779078424 0.6231918931
0.32463804 -0.31461304 1.3726668 0.6173318028 -0.4070290029 0.6732227206
-0.13328928 -0.092191145 1.267 0.2480196357 0.8049499393 0.5390193462
0.26517877 -0.13827476 1.3547144 0.02352368459 0.7508698702 0.6600311399
0.45242658 -0.25678268 1.268 0.4980709255 -0.4049759805 0.7667592764
0.26499629 0.017059306 1.1450001 0.06519630551 0.8247880936 0.5616707802
0.034888104 -0.10524159 1.3048124 -0.09951275587 0.763174057 0.6384845972
0.31120726 0.10491705 1.1535 0.3786852658 -0.4279735982 0.8206315041
0.2151293 0.032454606 1.1324614 0.04258992523 0.7843687534 0.6188309193
0.28153801 -0.28402948 1.4210002 0.414049983 -0.2624721527 0.8715910316
0.10366897 -0.38490424 1.4150002 0.1390800476 -0.3334745765 0.9324437976
0.28416035 -0.019582102 1.1935713 0.1255422831 0.8145287037 0.5663763285
0.44547585 -0.36423719 1.2427144 0.5893392563 -0.3355384469 0.7349103093
0.43222627 0.16402626 1.5514001 0.8456076384 -0.4446135759 0.2954089344
0.4354817 -0.21538852 1.3053333 0.5849916935 -0.3219720125 0.7443915606
0.21376303 -0.0019142644 1.1747143 -0.0206058193 0.8074707389 0.5895476341
-0.10439487 -0.17399389 1.3231252 -0.303309232 0.4893994033 0.8176134229
0.32498604 -0.28496861 1.3832502 0.5863766074 -0.2540329993 0.769174695
0.23466024 0.05480526 1.104346 0.1167476401 0.7092763186 0.6951957345
0.37190479 -0.071919978 1.21 0.4554975033 0.8305671811 0.3204374909
0.28320345 0.035863906 1.1178 -0.2072119564 0.6820255518 0.7013589144
0.21009491 -0.070031643 1.268 -0.01434751973 0.8048192263 0.5933465958
-0.045023713 -0.064003408 1.234154 -0.08625687659 0.7347980142 0.6727790236
0.0049198535 -0.0069944854 1.1817501 0.05171126127 0.6805003285 0.7309208512
0.3819685 -0.10635588 1.3045001 -0.3503762782 0.7861264348 0.5091578364
0.1030285 0.031008577 1.141 -0.01452295668 0.6255545616 0.7800452113
-0.16143221 0.0045211455 1.3560002 -0.06433914602 -0.3821267188 0.9218674898
0.075462967 -0.015317388 1.1848259 0.01026551705 0.7878396511 0.6157948375
0.48297584 -0.40552759 1.2270001 0.2094693482 -0.1953142881 0.9581100941
0.38546968 -0.24487205 1.3364782 0.6855068803 -0.1554352939 0.7112806439
0.22136605 -0.40587839 1.3920001 0.3735736907 -0.3248617649 0.8688541651
-0.035005298 -0.039248366 1.21 -0.05313077942 0.7407107949 0.6697198153
0.18591033 -0.051298153 1.245 0.03264446929 0.7844212055 0.6193687916
0.069041006 -0.44897079 1.3980001 0.4066534638 -0.2934268415 0.8651784062
-0.11594792 -0.11822074 1.2948571 0.2299697101 0.4606227577 0.8572867513
0.34541699 -0.028120432 1.1745386 0.3779188991 0.777997911 0.5018929243
-0.024783025 -0.10476639 1.2849448 -0.1688597053 0.7494747639 0.6401359439
-0.085474998 -0.079995833 1.25 -0.02261943184 0.764523983 0.6441982985
0.047045734 -0.26630473 1.4770001 0.3215698004 0.3133204877 0.89354527
-0.054296248 -0.16579619 1.3562224 -0.02175395936 0.7770026922 0.6291213036
0.23510446 -0.030991044 1.2190001 0.0122583136 0.8089765906 0.5877130628
0.14526835 -0.12301242 1.3363334 0.002131007379 0.7758723497 0.6308863759
-0.056192078 -0.017784433 1.1932857 0.136147961 0.5404233932 0.8303049207
0.25794601 0.24848677 1.245 0.3886474967 -0.2727977037 0.880076468
0.28186235 -0.32494175 1.404 0.4443122149 -0.4391677082 0.7808446288
0.11412446 -0.19351541 1.4150001 -0.1056396738 0.7372426391 0.6673181653
0.32442755 -0.38468039 1.3438574 0.5390834212 -0.3152782321 0.7810177207
0.12534051 0.005369354 1.1656955 -0.04969185591 0.7650724053 0.6420240998
0.28200132 0.29193482 1.2590001 0.5400719643 -0.4316219687 0.7225127816
0.16418827 0.019138509 1.149 0.01667598449 0.8006774187 0.5988636017
0.28441405 -0.047882363 1.2320002 0.1158865467 0.8079309464 0.5777697563
0.41321021 -0.12485732 1.3360002 0.4139964581 0.4323015511 0.8010756969
0.153855 -0.39756131 1.404 0.158071056 -0.4381337762 0.8849024177
0.43031535 -0.24540529 1.302 0.64523983 -0.1950537264 0.7386606932
0.40330282 -0.26469606 1.3146667 0.7304951549 -0.2716548443 0.6265624166
0.056348041 -0.35659063 1.439 0.2499390841 -0.2697807252 0.9299187064
0.015231207 -0.057660997 1.2410001 -0.08891315013 0.7725433111 0.628706038
-0.073430806 -0.19527151 1.3649999 -0.5973116159 0.2598926723 0.7587322593
0.43281105 -0.42404521 1.2328891 0.5897039771 -0.2533024549 0.7668683529
0.12476557 -0.062937535 1.2562858 -0.009934779257 0.8137271404 0.5811621547
0.35042822 -0.13155611 1.3280001 0.1542986035 0.7297275066 0.6661003828
0.11490755 -0.35472408 1.4247501 0.03405158222 -0.4709813595 0.8814857006
0.054828044 -0.0017934409 1.169 0.07081913203 0.6831766367 0.726811111
0.33583647 -0.33566597 1.3468572 0.6377128363 -0.2907840014 0.7132790685
-0.15542583 0.094592482 1.3979999 0.2818575501 -0.2519266009 0.925791204
-0.064533181 -0.13598284 1.3145001 -0.06796766818 0.7702240944 0.634141326
0.29637295 -0.46528208 1.3380002 0.5584903955 -0.2077632397 0.8030709028
0.42218864 -0.37121573 1.2640001 0.6731225252 -0.250469476 0.6958240271
0.44782144 -0.31649289 1.2579091 0.5751817226 -0.324577719 0.7508763671
0.10255422 -0.03066054 1.2060001 -0.1125597581 0.802018106 0.5865980387
0.35644218 -0.26481351 1.3590001 0.7114335299 -0.2320930064 0.6633213162
0.075518437 -0.13452414 1.3460003 -0.1012719125 0.7595196366 0.6425526738
0.25596341 0.32844362 1.302 0.6684914231 -0.3786061108 0.6401380301
0.35278076 -0.04671625 1.2250001 0.3765007854 0.8903198838 0.2560812831
0.31248608 -0.069810718 1.2640001 0.08715032041 0.8016332388 0.5914295912
0.24592341 0.37408069 1.317 0.5154246092 -0.306799382 0.800132215
0.25441509 -0.49023375 1.3540001 0.2790103853 -0.3432719111 0.8968375325
0.14688724 -0.03888192 1.2320001 -0.09855475277 0.7954512835 0.5979500413
0.12463728 0.052309591 1.123 0.1908710003 0.4870444238 0.8522651792
0.2961047 0.20126688 1.202 0.4417585731 -0.4549676478 0.7732100487
-0.16258261 0.037256833 1.3708572 0.1610801071 -0.5950971246 0.7873452902
0.23788087 -0.46424496 1.3590001 0.411095053 -0.2352227569 0.8807219267
-0.17883386 0.25193384 1.4890001 0.6027851701 -0.3461260796 0.7189205885
0.3782641 -0.41665515 1.2880001 0.5832121372 -0.2571955621 0.7705284357
0.2959725 -0.36475012 1.3736669 0.6227142811 -0.2190979719 0.7511478066
0.25493398 -0.015052915 1.19425 0.1074137837 0.7946504354 0.5974888802
-0.014986397 -0.21733333 1.4247501 -0.207837984 0.742452383 0.636842072
0.27715313 0.16538565 1.2060002 0.5544712543 -0.2779076099 0.7844290733
0.2751171 -0.079408288 1.2830001 0.1021453962 0.7850420475 0.6109625697
0.19488299 -0.18093348 1.4039999 0.1195230111 0.7354315519 0.6669742465
0.22457658 0.015194679 1.1556665 0.03428089991 0.8306832314 0.5556889772
0.29162842 0.21872133 1.223 0.4817383587 -0.423551023 0.7671588659
0.36406186 -0.095077336 1.2847649 -0.009697542526 0.7634029984 0.6458496451
0.19456775 -0.095571741 1.3040001 -0.05239139125 0.7944568396 0.6050565839
0.37441421 -0.33488205 1.3134584 0.5804463625 -0.2469149083 0.7759607434
-0.025355304 -0.20259626 1.404 -0.06955427676 0.7633621693 0.6422152519
0.035457514 -0.19830565 1.4108334 -0.09530220181 0.7491358519 0.6555249095
0.16461016 0.064014666 1.1042607 0.2715027332 0.5216211081 0.8088248968
0.064612299 0.036443442 1.1380002 0.1531443894 0.4547676444 0.8773443699
0.037832551 -0.15913692 1.3700001 -0.1176089048 0.7303847671 0.672834456
0.21416612 -0.38279125 1.4040002 0.2750070095 -0.4295418561 0.8601540327
-0.14166795 -0.073718272 1.2444285 0.1094130501 0.6986070871 0.7070904374
0.045295112 -0.036790695 1.2137142 0.002633729484 0.8286873102 0.5597056746
0.06499128 -0.10325668 1.3047273 -0.08148337901 0.7929093242 0.6038669348
-0.14400828 0.071388721 1.404 0.2514165044 -0.3220590651 0.9127254486
0.36595589 -0.29606378 1.3376667 0.6867232323 -0.3004342318 0.661929369
0.47375533 -0.43509015 1.2129091 0.2141227126 -0.09741345793 0.9719372988
0.23530488 -0.29532009 1.4262 0.4876693189 -0.3865113258 0.782807529
0.13080305 -0.4023751 1.4210001 0.08757261187 -0.3150887191 0.9450132847
0.44573766 -0.47313523 1.202 0.3458151817 -0.1086945161 0.9319857359
0.29552171 0.055064645 1.1436156 0.5636148453 -0.2495965511 0.7874261141
0.015912669 -0.21900858 1.4330001 0.007650129497 0.7501988411 0.6611680388
0.29476434 -0.33479765 1.3837004 0.4922528267 -0.330537647 0.8052527905
0.055501264 -0.49706021 1.398 0.5378531218 -0.2482342571 0.8056635857
0.1346539 -0.17797947 1.404 -0.09191206843 0.7236859202 0.6839815974
0.17520194 -0.15332462 1.3755716 0.002886611503 0.7416418791 0.6707897782
0.41935614 0.12038299 1.5090001 -0.6612095833 -0.5216802359 0.539121151
0.075856738 -0.16794601 1.3822 -0.05941953138 0.7315847874 0.6791561246
0.0513376 -0.30930904 1.4640001 0.5840111375 -0.321556896 0.7453402877
0.18660429 -0.4659076 1.3760002 0.1860327274 -0.3125374913 0.9315106869
0.41671604 -0.21285687 1.325 0.3703050911 -0.3377123177 0.8653464913
0.060704783 -0.071742013 1.2590001 -0.07200487703 0.8033912778 0.5910818577
-0.0045744465 -0.11436335 1.3045001 -0.2264191359 0.7452667952 0.6271457076
0.32488897 -0.095978908 1.2945 0.109648928 0.7759358883 0.6212089658
0.038618043 -0.42355275 1.4210001 0.5575842261 -0.2628957331 0.7873916626
-0.014558102 -0.1861244 1.3840002 -0.18062374 0.7652304769 0.6178975105
0.25806084 0.29615375 1.2780001 0.6473847032 -0.3271940351 0.6883582473
-0.084552258 -0.1180752 1.2936666 -0.03203719482 0.7545369267 0.6554751396
-0.050918549 -0.19512671 1.3940001 -0.6614196301 0.4874846339 0.5699849129
0.095731415 -0.43834913 1.398 0.2647384405 -0.2706693411 0.925554812
0.20141153 -0.28147575 1.427 0.2562862933 -0.3442507982 0.9032213092
0.31222308 -0.27283621 1.4039999 0.6316061616 -0.2888402641 0.7194755077
-0.18139549 0.11759432 1.427 0.5451387763 -0.3783426583 0.7481179833
0.45237616 -0.38607755 1.2320002 0.5220091343 -0.2294238955 0.8215053678
0.25570965 -0.12198992 1.3380002 -0.04204552993 0.7271808982 0.685157001
0.20486122 -0.1283326 1.3430001 0.03823196515 0.7605085373 0.6482014656
-0.0052687665 -0.027397588 1.2019999 -0.1113948897 0.7478800416 0.6544208527
0.0089840796 -0.24257016 1.4640001 -0.1751413196 0.7867061496 0.5919619799
-0.01577772 0.0073755709 1.1686 0.07265688479 0.4183439016 0.9053780437
0.43321097 -0.19215919 1.2970001 0.5138790607 -0.3462867141 0.7848654389
0.25396961 -0.17559773 1.3968002 0.008190562017 0.714438498 0.6996502876
0.075488009 -0.051288504 1.2360001 -0.02504514903 0.8265274763 0.5623388886
0.41110757 -0.40445891 1.2640001 0.6929225922 -0.1792357713 0.6983786821
0.26980644 0.22429691 1.2360001 0.476864785 -0.4004275501 0.7824690342
0.41625011 0.088920303 1.47 -0.3827055395 -0.7381594777 0.5555691123
0.013869231 -0.15375952 1.3560834 -0.1547135711 0.7363114953 0.6587178111
0.35676211 -0.3752352 1.317 0.6113892198 -0.2564504743 0.7486229539
0.17441273 -0.41473991 1.3964213 0.22198309 -0.3055825233 0.9259280562
0.21833909 -0.42823413 1.376 0.3376049399 -0.2900195718 0.8954951167
0.085501164 -0.09388762 1.295077 -0.01312570181 0.7949357033 0.6065516472
0.12467664 -0.11383954 1.3250002 -0.08118588477 0.8082447648 0.5832231641
0.18505391 0.027175387 1.1369336 0.04719244316 0.7689495683 0.6375651956
0.33713448 -0.43527284 1.3170002 0.6625783443 -0.1990156174 0.7220683694
0.015885811 0.034712933 1.1543999 0.3255288601 0.3575327992 0.8753292561
0.11580416 -0.16043702 1.376 -0.1289968491 0.7460787892 0.6532428861
0.44297791 0.18864989 1.5940001 -0.3320969641 -0.7431476116 0.5808986425
0.44182557 -0.28417972 1.2740715 0.6002357006 -0.2588063478 0.756793499
-0.064982034 -0.10307497 1.278 -0.05756354704 0.7417131662 0.6682424545
0.31412053 -0.41372547 1.3430002 0.5415062308 -0.2442493737 0.804433465
0.047551859 -0.44698751 1.4150001 0.5278017521 -0.106203109 0.8427017331
0.17521761 -0.066539876 1.2650001 -0.03322444484 0.7916833162 0.6100276113
0.3523069 -0.23850331 1.381 0.6999528408 -0.1886357069 0.6888269782
0.40598208 -0.29516011 1.2946472 0.6575278044 -0.1637639254 0.7354172468
0.2768378 0.26374847 1.2443846 0.3988953233 -0.3279117942 0.8563622832
0.046496645 0.02122673 1.153 0.09976862371 0.5906233191 0.8007560968
0.17432165 -0.12257219 1.336182 -0.009834903292 0.8011624813 0.5983660817
0.21510175 0.066203237 1.0961579 0.0280737076 0.6509615183 0.7585914135
0.31408685 0.079021856 1.141 0.5720915198 -0.2925640941 0.7662359476
0.21018083 -0.48281538 1.3700001 0.2289597839 -0.4919221401 0.8399940729
0.23424736 -0.1552721 1.3746154 0.03710881993 0.7364940047 0.6754254103
0.29820079 0.15683916 1.177 0.5512353778 -0.3694372475 0.7481014132
0.095601931 -0.34466225 1.4348751 0.1440317482 -0.4721851051 0.8696528673
0.46561256 -0.30626088 1.245 0.6705417633 -0.2520617247 0.6977381706
0.34457096 -0.067527227 1.2524167 0.04966446757 0.7928764224 0.6073552966
0.20350915 -0.34280589 1.4210004 0.3365813792 -0.332007736 0.881183207
-0.074377768 -0.06524834 1.2335558 -0.04827775061 0.7334635854 0.6780121326
0.1403368 -0.47226384 1.3920001 0.03822028637 -0.3456962705 0.9375677705
-0.04637216 -0.21843728 1.3920001 -0.7888380885 0.2977493703 0.5376613736
0.24524336 0.40510425 1.3342501 0.3418563902 -0.4541868567 0.8227080107
0.25538853 -0.36562675 1.3845296 0.3241194487 -0.30459252 0.8956394196
0.16500072 -0.18853155 1.4125 0.01693391614 0.7251983285 0.6883317232
0.29488745 -0.13329324 1.3455 0.1450811028 0.7485753894 0.6469825506
0.094918326 0.0039136717 1.1628947 -0.03994281963 0.7239559293 0.6886888742
0.30709001 -0.48481223 1.325 0.5673334002 -0.1894281209 0.8014048934
0.20495065 -0.036485989 1.2239999 0.03549502417 0.7821870446 0.6220317483
0.11570378 -0.47209954 1.3820001 -0.07946953923 -0.467564404 0.880379498
0.16471374 -0.088258937 1.2939999 -0.01441226806 0.7695009112 0.6384831071
0.16290835 -0.33164388 1.4450001 0.3702381551 -0.3409046531 0.86412251
0.33893073 -0.0091602895 1.161 0.2275359035 0.6722955108 0.7044474483
0.40911052 -0.1889094 1.322 0.4696602225 -0.3646457791 0.8040228486
0.41015464 -0.49719009 1.2410001 0.7712165713 -0.1711042821 0.6131462455
0.28724858 -0.44635814 1.3484001 0.5255315304 -0.1903929412 0.8291966915
0.17466651 0.0068960786 1.1660002 -0.01421714295 0.81834203 0.5745556951
0.4219408 -0.46478292 1.2320002 0.6803975105 -0.2032477856 0.7040948272
0.35700718 -0.3449901 1.3265001 0.6988043189 -0.1849831641 0.6909802556
0.37754437 -0.30596104 1.317 0.6417904496 -0.2295022309 0.7317333817
0.28416589 -0.16399315 1.3827143 0.09272311628 0.7204719186 0.6872573495
0.014659181 -0.18691278 1.3935002 -0.03827594593 0.7538172603 0.6559683084
0.026655927 -0.11937219 1.322 -0.1185151637 0.7645298243 0.6335994601
-0.16813064 0.1989332 1.4640001 0.07118029892 -0.516310513 0.8534382582
0.16346921 -0.38465783 1.4210002 0.2235775292 -0.4392638505 0.8700921535
0.46361378 -0.34959275 1.2270001 0.4958910644 -0.255613029 0.8299120665
0.045414839 -0.38602614 1.4389998 0.5386992097 -0.1859736145 0.8217158914
0.23525991 -0.056070421 1.2540001 -0.03607220948 0.8140780926 0.5796340704
0.41562584 -0.32518473 1.2842504 0.657764256 -0.2159963399 0.7215897441
-0.11411012 -0.043410778 1.2185454 0.1276935786 0.5360146165 0.8344954848
0.15462452 -0.014264648 1.1948462 -0.0433351025 0.8043875098 0.5925223827
0.10511233 -0.45408529 2.398 0.1658323556 0.970143497 0.1769780964
0.083811648 -0.41542268 1.4120588 0.3469195664 -0.1893572211 0.9185807705
0.095332034 -0.12434183 1.3352222 -0.04038089141 0.7895669937 0.612334311
0.21531406 -0.10356657 1.3148947 0.04823689535 0.7962790728 0.6030032039
-0.1412047 -0.00119665 1.365 -0.0326757133 -0.3065752387 0.9512854218
0.32582396 0.034610264 1.1308694 0.1018207297 0.2310951352 0.9675885439
0.36104903 -0.49489588 1.2830001 0.5851111412 -0.2561623454 0.7694321275
0.34423193 -0.31574371 1.3540001 0.6992547512 -0.3322082162 0.6329932809
0.19465506 -0.14519353 1.3649999 0.02087694407 0.7729661465 0.6341037154
0.32486549 -0.039670043 1.223 0.08088514954 0.8383613825 0.5390805006
0.2945897 -0.10816959 1.3126252 0.1357634515 0.7657122612 0.6286915541
0.19599634 -0.36470205 1.4150003 0.2000910938 -0.3469912112 0.9162754416
-0.016298987 -0.14086981 1.3280001 -0.2179016918 0.7540829778 0.6195785999
0.32252556 -0.36494368 1.3547144 0.5200319886 -0.1699381173 0.8370709419
0.35352254 -0.41375291 1.3128335 0.6704736948 -0.2547918856 0.696811378
0.0055098501 -0.072731771 1.2570001 -0.112694338 0.7589470744 0.6413262486
-0.034737915 -0.091986001 1.268 -0.1307231337 0.7463523746 0.6525868773
-0.19044882 0.17766702 1.4580001 0.08061049134 -0.5016703606 0.8612948656
0.41336274 -0.42464995 1.2516667 0.7594660521 -0.2057915777 0.6171394587
0.24729013 -0.39928308 1.376 0.2347778976 -0.2673462927 0.9345615506
0.027302029 -0.24831848 1.4830002 0.02571495436 0.5908271074 0.8063883185
0.13554583 -0.32556331 1.4449999 -0.1803316176 -0.2918080688 0.9393234253
-0.20065849 0.2373803 1.4960001 0.6486804485 -0.368198514 0.6660656929
0.19532618 -0.31475157 1.4350001 0.2627796829 -0.5653653145 0.7818624973
0.45221388 -0.34427428 1.25 0.5555915236 -0.2457803935 0.79429847
0.16448466 -0.43510818 1.3977146 0.2214321941 -0.3195643425 0.9213286042
-0.086636141 -0.17913061 1.3355 -0.7347785234 0.3961185813 0.55062747
0.064953931 -0.20434412 1.4230001 -0.07952943444 0.7044189572 0.705314815
0.28165421 -0.30355087 1.41 0.4041704535 -0.2999241352 0.8641132712
0.47140792 -0.38615212 1.2156668 0.2095231414 -0.2575686574 0.9432700872
0.26424137 -0.10778266 1.322 0.06327626854 0.7702611089 0.6345817447
0.39444482 -0.2849063 1.3143334 0.7204607725 -0.2629008889 0.6417315602
0.07573843 -0.47537589 1.3948237 0.4542939365 -0.2203212678 0.8631775975
0.36521435 -0.075737976 1.2651428 -0.05572492257 0.7881872654 0.6129075289
0.25284585 0.072105549 1.087 0.07715951651 0.6708666682 0.7375529408
0.1545651 -0.027750397 1.2122222 -0.05443382636 0.8198680282 0.5699590445
0.095540948 -0.043685716 1.2245386 -0.07240990549 0.8270753622 0.557407558
0.23406386 -0.44289288 1.3706 0.3517753184 -0.3882494271 0.8517725468
0.35143054 -0.45491922 1.302 0.6579643488 -0.1669845581 0.7343017459
-0.16638345 0.15387341 1.427 0.4274002016 -0.4134342968 0.8039907813
0.095297173 -0.4866187 1.376 0.3932546675 -0.3764760196 0.8388185501
0.025920654 -0.29370522 1.4890002 0.3692856729 -0.02638638765 0.9289412498
0.2455041 -0.086630158 1.2945 -0.06822165102 0.7625963092 0.6432671547
-0.085285649 -0.037551142 1.21 0.08637995273 0.6063984632 0.7904552221
0.38298309 -0.054077283 1.2042223 0.1592360288 0.6863195896 0.7096543312
0.12623474 -0.41547161 1.3980001 -0.1363509148 -0.2938944995 0.9460626245
0.024943359 -0.014553983 1.1855 0.03203979135 0.7532501221 0.6569533348
0.20529106 -0.083897673 1.2874446 -0.001934994827 0.7978510261 0.60285151
0.3907654 -0.37151027 1.2920001 0.7052808404 -0.2071513683 0.6779876351
0.23714975 -0.3566438 1.398 0.3732892871 -0.1544210166 0.9147728086
0.37642524 -0.47498465 1.2753075 0.6583163142 -0.2120282501 0.7222628593
0.39189804 -0.091744922 1.2920001 -0.4127192199 0.7207961679 0.5568803549
0.13527337 -0.0071053831 1.1834617 -0.07285834104 0.7967018485 0.5999648571
0.15416847 -0.13752504 1.3562224 -0.01079219859 0.7885805964 0.6148366928
0.076598749 -0.18261142 1.398 -0.04707251862 0.7423552275 0.6683508754
0.18628149 -0.4457624 1.3870001 0.246049732 -0.3600247204 0.8999120593
0.30426827 -0.054141819 1.2434001 0.06493196636 0.8315010667 0.5517153144
0.39150706 -0.34128457 1.302 0.6800981164 -0.1816536188 0.7102594376
0.26456162 -0.065634288 1.2653333 0.09051104635 0.8269549012 0.5549354553
0.075054355 -0.078278348 1.2735554 -0.05889224261 0.8133250475 0.5788212419
0.23427339 -0.0094127702 1.1930001 0.008175288327 0.8005283475 0.5992391109
0.0353605 -0.17600761 1.383 -0.1346315891 0.7001234889 0.7012142539
0.22575921 -0.16962449 1.3920001 0.04427441582 0.6881794333 0.7241883874
