# .PCD v0.7 - Point Cloud Data file format
VERSION 0.7
FIELDS x y z normal_x normal_y normal_z
SIZE 4 4 4 4 4 4
TYPE F F F F F F
COUNT 1 1 1 1 1 1
WIDTH 512
HEIGHT 1
VIEWPOINT 0 0 0 1 0 0 0
POINTS 512
DATA ascii
0.12575871 -0.47526991 1.863 -0.4010286629 0.1160747334 0.9086818099
0.43155143 -0.4850772 3.8160002 -0.2542936206 0.8547047973 0.4525642991
-0.44733143 -0.3322286 2.9840002 -0.2552320361 0.8597887158 0.4422894716
0.48408273 0.12665407 2.6590002 -0.2194161266 0.8706520796 0.4402516186
-0.16418815 0.41524941 1.6960001 -0.5049368739 -0.3437441587 0.7917567492
-0.12767598 0.14415029 2.3490002 -0.05884695053 -0.9852950573 0.1604080051
0.31508979 -0.22425309 3.2380002 -0.2218047678 0.8603883982 0.4588402808
0.3108581 0.064574391 1.7130001 -0.4215720892 0.2546816468 0.870295465
-0.15933855 -0.098638147 1.7310001 0.4084122777 0.7586653829 0.5075689554
0.31237298 0.28093922 2.2410002 -0.2423100621 0.8688414097 0.431741178
-0.10030381 -0.36395955 3.2690001 -0.3126467764 0.8447348475 0.4343673587
-0.33220845 0.20565285 2.0050001 -0.7938659787 0.5587384105 -0.2399754077
-0.42660177 -0.49672809 3.3330002 -0.2595168352 0.8536483049 0.4515922368
0.12389754 -0.1340809 1.9360001 -0.1050839275 0.8036649823 0.5857302547
-0.1677072 -0.44751817 1.7050002 0.4233687222 0.03680386767 0.9052096009
0.22418033 -0.38387042 3.5030003 -0.2617315352 0.863263905 0.4315924346
0.036106743 0.08516781 1.5720003 -0.2353485376 -0.2424506545 0.9411847591
0.25789648 0.39509395 1.9810001 -0.7409499288 -0.5865216255 0.3270864487
-0.0026624366 -0.22630711 3.0370002 -0.31004408 0.8331717849 0.4579273462
0.49532366 -0.34171063 3.5760002 -0.2599212527 0.8550205231 0.4487547576
0.27034208 0.15787977 2.467 -0.2142804563 0.8770363331 0.4299897254
-0.041458793 -0.28378382 1.8329999 -0.6159541011 -0.1744411439 0.7682257891
0.49854717 -0.23304868 3.3650002 -0.3311592638 0.859043479 0.3903560638
0.24286033 -0.33720896 1.9930001 -0.8223121166 -0.3343778253 0.4604283571
0.11176711 -0.30091146 3.2690001 -0.2901409566 0.8176187277 0.4973106682
0.11372944 -0.033234607 1.7390001 -0.2530321479 0.8238409162 0.5072089434
0.49526671 0.22708735 2.467 -0.2434330136 0.8693474531 0.4300876558
-0.13291636 0.20456436 1.6346251 -0.9449840784 -0.2161028534 0.2455699444
-0.14589049 0.31287357 2.0050001 -0.6966151595 0.7164808512 -0.03718236834
-0.2952964 -0.34591863 3.2080002 -0.2567482889 0.8549801111 0.4506543577
-0.27955586 -0.25293148 3.0370002 -0.2523990571 0.8625484109 0.4385258555
0.26174286 -0.063012168 1.8430001 -0.04228495434 0.8681800365 0.4944445193
-0.19512729 -0.27532363 1.748 0.1682532281 -0.4574042857 0.8731965423
-0.01446237 -0.11409203 1.8330001 -0.3116776049 0.8880243301 0.3380382657
-0.02024048 -0.49511325 1.7760001 -0.7369274497 0.06116111204 0.673199296
-0.10201069 -0.01676888 1.5940001 -0.3188935816 0.592884481 0.7394558191
0.34565562 -0.29499921 3.3990002 -0.252491802 0.8704111576 0.4226491451
0.10474062 -0.31589106 1.9040002 -0.3203884065 -0.1961603165 0.9267536998
0.17673337 0.10201683 1.6390001 -0.4799838066 -0.3401083648 0.8086667061
-0.36647734 -0.25274301 2.8830001 -0.2523990571 0.8625484109 0.4385258555
-0.15510687 0.39261428 1.8430001 -0.966396451 -0.2555501759 0.02778500691
0.37868842 -0.43371153 3.6920002 -0.2550481558 0.8536760807 0.4540787935
-0.019502327 -0.29253489 3.1780002 -0.3643469214 0.8364229798 0.4094482958
-0.025410183 -0.064272813 1.705 -0.3389502466 0.8662754297 0.3669872582
0.21534878 -0.31564823 3.3650002 -0.2428347021 0.8467260599 0.473377496
0.23042744 -0.47621673 1.9470001 -0.8388044238 0.2040257156 0.5047580004
-0.12435736 0.085428104 2.467 -0.250764519 0.8665333986 0.4315519035
-0.19443853 -0.17515537 1.8330001 0.9605433941 0.001478856662 0.2781261504
0.36679032 -0.37619519 3.5760002 -0.252098918 0.8554816842 0.4523242116
0.023831528 -0.39544177 1.8430002 -0.2957663238 -0.1500262618 0.9434057474
0.026002284 -0.21578518 1.9260002 -0.2717195749 -0.7323442698 0.6243720055
-0.068286784 -0.3814818 1.7570001 -0.5308625698 -0.1930411756 0.825178802
0.45604199 -0.29490715 3.4680002 -0.2652436495 0.8531960845 0.4491127729
0.067849614 -0.36284795 3.3650002 -0.2855231762 0.7764256597 0.5618181825
0.18306553 -0.23487654 1.9700001 -0.4776135683 -0.6527915001 0.5880038738
0.43273932 -0.20920511 3.2690001 -0.250842303 0.8324552178 0.494061172
-0.022960776 0.10227982 2.381 -0.0668027997 -0.8770530224 0.4757261574
0.22587772 -0.0064361356 1.7479999 -0.115564175 0.7670184374 0.6311320662
-0.09732841 0.09732841 1.6090001 -0.6654051542 -0.3197969198 0.6745116115
0.052701257 -0.0021658051 1.6470001 -0.3813741803 0.7793099284 0.4972220063
0.48549801 -0.40458167 3.6920002 -0.2745375633 0.8536838293 0.4425529242
-0.16104805 0.31339079 1.6550001 -0.561611712 -0.2894957364 0.7751028538
0.143797 -0.079169139 1.8430001 -0.09469936043 0.8826214075 0.4604470134
0.18527824 -0.38724825 1.9040002 -0.493219316 -0.4933562577 0.7164735198
0.44329438 0.17375359 2.5410001 -0.2142804563 0.8770363331 0.4299897254
0.20920511 -0.27798486 3.2690001 -0.202682063 0.8330119848 0.5147921443
-0.1179555 -0.22490183 1.794 -0.3008619845 -0.6488301754 0.6989287734
0.32398444 -0.0047182199 1.794 -0.4028215706 0.676371038 0.6166498065
0.21656735 -0.11415953 1.9150001 -0.1422904879 0.6865351796 0.7130377889
-0.21573713 -0.38605595 3.2380002 -0.2348312885 0.8357800841 0.49631235
-0.097509876 -0.13053742 1.794 -0.3745946586 0.8534779549 0.362290293
0.0028929999 -0.35005301 3.3000002 -0.3540552258 0.8124070168 0.4632922709
-0.15549088 -0.35476071 1.7220001 -0.009493660182 -0.2013112158 0.9794813395
-0.024569459 0.01683463 1.557 -0.2330329865 0.6422849894 0.7301819324
0.14502609 0.019043829 1.6710001 -0.2894214392 0.7893092632 0.5415036082
0.047809891 -0.23904946 3.2080002 -0.3335831463 0.8336606026 0.4401502311
-0.10559338 -0.074352734 1.6630001 -0.2141561359 0.8025663495 0.5567983389
0.055832274 -0.076277889 1.794 -0.1795947552 0.8931117058 0.4124284387
-0.095106065 -0.49364573 1.7220001 -0.4048032761 0.05301532149 0.9128656387
0.044027735 -0.49642277 1.8430002 -0.4515266716 -0.07661087811 0.8889625669
0.062395871 -0.11001378 1.8730001 -0.2513599992 0.897980094 0.3611785173
-0.10218075 -0.30421999 1.766 -0.5226351023 -0.2024164051 0.828178823
0.024761448 -0.29548663 1.8830003 -0.3324375749 -0.1902948022 0.92372787
-0.09195181 -0.21510155 1.8730001 -0.07138185203 -0.9556219578 0.2858168185
0.22569922 0.045726154 1.6826668 -0.354452014 0.6011019349 0.7162682414
0.37400705 -0.25420791 3.3330002 -0.184204936 0.8965454698 0.402833432
0.10637298 -0.23469597 1.9260004 -0.1170045361 -0.3398055136 0.9331892133
0.10522753 0.0547296 1.609 -0.4061541259 0.5070286393 0.7602372766
0.097395033 -0.39453244 1.883 -0.3796232939 -0.2418252826 0.892976284
-0.025626721 -0.029185986 1.6240001 -0.4146369696 0.8389022946 0.3525892496
0.18596755 -0.31350198 1.936 -0.4028525651 -0.1413230151 0.9042884707
0.42610997 -0.2711609 3.3990002 -0.2482513636 0.8775991201 0.4101110399
0.23173894 -0.35212281 3.4330001 -0.2625631094 0.8621852994 0.4332402349
0.036490373 -0.14171843 1.9360001 -0.200418368 0.8594852686 0.4702314138
0.1762021 -0.045380652 1.7850001 -0.3270914853 0.8252815008 0.4603494108
0.042949475 -0.041748095 1.7130001 -0.2925436795 0.8731919527 0.3898127675
-0.083968885 -0.09762647 1.7310001 -0.3190935254 0.8410604 0.4368028939
-0.020445621 -0.42621255 1.794 -0.7863147855 -0.07415767014 0.6133593321
0.49470299 -0.196724 3.3000002 -0.2946617901 0.8637713194 0.4087462723
-0.018061964 -0.22659555 1.8730001 -0.5973214507 -0.5548801422 0.579063952
-0.023840949 -0.35443544 1.813 -0.7101541758 -0.3402564526 0.6163656712
0.18375166 -0.4964616 1.8940001 -0.5355830789 0.03451247886 0.8437770009
0.44121143 -0.24836405 3.3330002 -0.2891299725 0.8716834188 0.3956916928
0.23384118 -0.4045282 1.9470003 -0.3627966046 -0.02097584866 0.9316322207
-0.1056734 -0.42420325 1.7220001 -0.5979331136 -0.1742058098 0.7823863029
0.32477081 0.25618568 2.3010001 -0.2423100621 0.8688414097 0.431741178
-0.0046445802 -0.077925734 1.7660002 -0.3648691177 0.8833270669 0.2942852676
-0.17839289 -0.13301225 1.7850001 0.364885509 0.6715120673 0.6449264288
0.036613692 0.02178283 1.5860001 -0.5101605058 0.6777751446 0.5294876099
-0.0246168 -0.2653144 3.1200001 -0.3643469214 0.8364229798 0.4094482958
-0.18401058 -0.22490181 1.794 0.6109042168 -0.1326921284 0.780505538
0.20415375 -0.080028273 1.863 -0.2562381327 0.8014717102 0.5403565168
-0.15170892 -0.49803433 1.748 0.3420984447 0.5096859336 0.7894231677
0.321123 -0.25169098 3.3000002 -0.2194891423 0.8727318645 0.436077565
0.28519914 0.01277011 1.748 -0.3346686065 0.6803469062 0.6520161033
-0.094129451 0.044296212 1.5790001 -0.1240067706 -0.4664827883 0.8757945895
-0.19253792 -0.38815644 1.7570001 0.6536703706 0.05117692426 0.7550470233
0.11481002 -0.058191378 1.794 -0.2083917707 0.8804751635 0.4258360565
0.060753874 -0.34317729 1.8730001 -0.2561595142 -0.2037112862 0.9449254274
0.36682537 -0.22353421 3.2690001 -0.1970504373 0.8607968092 0.4692547023
0.076349773 -0.44255024 1.8529999 -0.2883176208 -0.2272999138 0.93016541
-0.06007183 -0.45438948 1.7570001 -0.5988215804 -0.2155230641 0.7713381052
0.16844361 -0.0060700402 1.7310001 -0.2506729066 0.7915309668 0.5573524833
0.26500666 -0.029095689 1.794 -0.1116296202 0.8620487452 0.4943792522
0.22451434 -0.28323346 1.9700001 -0.8177343607 -0.1430039406 0.5575485229
-0.077783123 0.086192116 2.398 -0.08559553325 -0.9798401594 0.1805176437
0.42205188 -0.44168219 3.7320001 -0.2565925717 0.8541013598 0.4524059594
0.16105944 -0.11124725 1.8940001 -0.04493363574 0.8636929989 0.5020112991
-0.0041510165 -0.13698354 1.8940001 -0.352222234 0.8062574267 0.4752772152
-0.061729603 -0.14132831 1.853 -0.3353820443 0.8052148223 0.4890275598
0.26130629 0.091527507 1.684 -0.5830860734 0.002291206736 0.812407136
-0.12840317 0.26623708 1.6550001 0.2251464427 -0.3130325973 0.9226698279
0.090268612 -0.010358693 1.6880001 -0.338961482 0.7844079733 0.5194316506
0.16342556 -0.43415076 1.8830003 -0.3530862629 -0.1424726844 0.9246792197
-0.067921944 -0.2357291 1.8230001 -0.53417027 -0.5432672501 0.6477057934
0.15268502 -0.26557064 1.9260004 -0.2469601184 -0.393586427 0.8854944706
-0.12211897 0.15385289 1.6159999 -0.7275072932 -0.2634553909 0.6335016489
0.17345639 -0.13567381 1.9590001 -0.1155238375 0.9143626094 0.3880660236
0.065097757 -0.26539853 1.9040002 -0.3441718817 -0.4155344665 0.8419482112
0.020776123 -0.44588757 1.8230001 -0.6101590395 -0.2675871253 0.7457231879
0.14312705 -0.35499495 1.8940001 -0.2293569148 -0.3251622021 0.9174230099
-0.14667687 0.35680476 1.6832001 -0.4405481219 -0.4188401699 0.794034183
0.33116522 0.041588191 1.7570001 -0.4650510848 0.5865420699 0.6630956531
0.011371243 -0.33788836 1.853 -0.5344173908 -0.2716335952 0.8003832102
0.11367766 -0.24741608 3.2690001 -0.2904061079 0.8202500939 0.4928022325
0.010205276 -0.030615829 1.6630001 -0.4433752298 0.7564014196 0.4809108973
-0.14787877 -0.29728204 1.7390001 -0.396472156 -0.5066053271 0.7656114697
0.20565504 -0.43565291 1.9150001 -0.6944423914 -0.02304217406 0.7191792727
-0.054493599 -0.10587328 1.7760001 -0.3961134255 0.8617385626 0.3170185685
-0.058191381 -0.31926623 1.794 -0.6983531713 -0.2440624088 0.6728569269
0.21677248 -0.35502896 1.9470001 -0.5899689198 -0.1653192341 0.7903203368
0.13118178 0.10014952 1.6090001 -0.3582285345 -0.5126580596 0.7802909613
0.23239382 0.159904 2.4320002 -0.2142804563 0.8770363331 0.4299897254
-0.055423744 -0.057745159 1.6550001 -0.3668497801 0.8349567652 0.4102053642
0.15521233 0.053847995 1.6350001 -0.3509192765 0.6847559214 0.6387213469
0.082434721 -0.15284771 1.9590001 -0.03364730254 0.8993156552 0.4360036254
0.48474583 -0.37385625 3.6140001 -0.2703244388 0.851955533 0.4484377801
-0.15249704 -0.2531296 1.766 -0.134631604 -0.5116491318 0.8485808969
-0.10824116 -0.3460668 1.739 -0.6288951635 -0.2384616882 0.740018189
-0.013526967 0.063576743 1.5430001 -0.2781069875 -0.1808152944 0.9433781505
0.094808869 -0.081953429 1.8330001 -0.1186702996 0.8971635699 0.425458461
-0.19155167 -0.32487163 1.748 0.4395388961 -0.05395045504 0.8966018558
0.22410493 -0.049271297 1.8130001 -0.1090492383 0.8777427673 0.4665575325
0.11493976 -0.10508779 1.8730001 -0.06568415463 0.8828508258 0.4650376737
0.10251477 0.018770309 1.6470001 -0.3706523776 0.7895920873 0.48904109
0.24926527 -0.087490454 1.8830001 -0.0678517893 0.8226308823 0.56451267
0.033745531 -0.094808869 1.8330001 -0.160527274 0.8835011125 0.4400644898
0.08203321 0.091765955 1.5860001 -0.4021012187 -0.4075768292 0.8198754191
0.068436109 -0.20864667 1.904 -0.1833646297 -0.3571277559 0.9158805609
0.21534176 0.098148972 1.6710001 -0.5573609471 -0.1088065282 0.8231099248
-0.055019852 -0.013705306 1.5860002 0.003170619253 0.7453832626 0.6666286588
0.26880968 0.042048439 1.7130001 -0.3993579149 0.4668754041 0.7890124321
0.076386161 -0.12675066 1.9150001 -0.1123309508 0.8522481322 0.5109353065
-0.075491518 -0.27522948 1.794 -0.5365068316 -0.2150495648 0.8160356283
0.065913938 -0.31237474 3.2690001 -0.3014176786 0.8165282011 0.4923709035
0.18436649 0.028249707 1.6960001 -0.3682053983 0.7225606441 0.585090518
-0.1649799 -0.40220591 1.7220001 0.4328809381 -0.1327522248 0.8916226625
0.42349312 -0.46650413 3.7740002 -0.2548258007 0.8540685773 0.4534652233
-0.1346928 -0.12850004 1.7660002 -0.1936744899 0.8856576085 0.4220198691
0.018264472 -0.2507214 1.8940001 -0.2965588868 -0.4961690307 0.8160080314
-0.12101506 -0.055524558 1.6240001 -0.4058533311 0.8042172194 0.4341863096
-0.14058226 -0.090268612 1.6880001 0.03744664043 0.9065178633 0.4205033481
0.075474866 -0.05083001 1.7570001 -0.2446800917 0.8753769398 0.4169494212
0.015583627 -0.0051945425 1.6160001 -0.3676390648 0.8199244142 0.4388228953
-0.1334164 -0.36050811 3.2380002 -0.3030395806 0.8458260894 0.4390276372
0.071981348 0.048448984 1.5790001 -0.3886533678 0.5580888987 0.7331339121
0.16346765 -0.21619914 2.0050001 -0.4366420805 -0.7483640909 0.4992943704
0.012652053 -0.48552254 1.804 -0.563393116 -0.07488650084 0.8227880597
0.11704815 -0.42845067 1.863 -0.2100739032 -0.3842309415 0.8990192413
-0.066907197 -0.077314988 1.6960001 -0.3138779104 0.8998743296 0.3028313518
-0.12550172 -0.46360555 1.7130002 -0.05357157812 0.1737865508 0.9833251238
0.19369292 0.058035336 1.6550001 -0.3920629621 0.6415750384 0.6592936516
0.18458787 -0.064725615 1.8230001 -0.3543380797 0.7976257801 0.488095969
0.086096555 -0.49546131 1.853 -0.2410397232 0.1048157215 0.964838624
0.3701804 -0.30396926 3.4330001 -0.2621115148 0.8607217669 0.4364121556
-0.12529846 -0.38495311 1.7220001 -0.418646723 -0.1293322891 0.8988927007
0.035426978 -0.065206178 1.7570001 -0.2068661004 0.8983447552 0.3875346482
0.13435842 -0.0041519906 1.705 -0.3296807408 0.7843579054 0.5254457593
0.14563735 -0.31435841 1.9150001 -0.4261133969 -0.3071153462 0.8509450555
-0.0073495349 -0.27683249 1.863 -0.7702756524 -0.2040414065 0.604187429
0.066112362 0.024083786 1.6160001 -0.4072707295 0.7657386065 0.4977699518
0.14361641 -0.39547572 1.8830003 -0.3411751091 -0.2477978021 0.9067501426
0.419485 -0.23433299 3.3000002 -0.2331255674 0.8819788694 0.409592241
0.064535499 -0.39503995 1.8530002 -0.3373829722 -0.2726012468 0.9010334611
-0.11054416 -0.26156926 1.7760001 -0.5828986764 -0.469700098 0.6630316973
0.014699069 -0.11704814 1.863 -0.2230171114 0.8894590139 0.3989060819
-0.17771964 -0.18401058 1.794 0.9106695056 -0.07825896144 0.4056557119
0.48357195 -0.38749805 3.6530001 -0.2740207314 0.8534044027 0.4434112608
0.22525948 0.018020758 1.7130002 -0.09709505737 0.8188632727 0.5657168031
-0.03849531 -0.38526607 1.7850001 -0.5914785266 -0.3131126761 0.7430434823
-0.10284352 -0.21693555 1.8330001 -0.2498460412 -0.874676764 0.4153523445
-0.056856215 -0.20955577 1.853 -0.3785589337 -0.7683557272 0.5160645247
0.0026358443 -0.091200225 1.8040003 -0.3726117313 0.823420763 0.4279471338
-0.077918135 -0.041084107 1.6160001 -0.0190972425 0.8200302124 0.5720015168
0.064281456 -0.30480319 1.8940001 -0.3136530519 -0.3454978168 0.8844506741
0.18647555 -0.27437934 1.9470003 -0.573517561 -0.4411122501 0.6902880073
0.41833395 -0.29193088 3.4330001 -0.2683650255 0.8518099189 0.4498889744
-0.044559591 -0.082818322 1.7355716 -0.3483529985 0.8535104394 0.3875178695
0.38439292 -0.28308004 3.3990002 -0.2601712644 0.8633310795 0.4324006438
0.14483322 -0.22726794 1.9590001 -0.5005938411 -0.6535823345 0.5676583052
-0.057312258 -0.49374357 1.7479999 -0.57453233 0.06780474633 0.8156685233
0.095468998 -0.321123 3.3000002 -0.2883504033 0.7974351645 0.5300483108
-0.063575864 -0.11920475 1.8130001 -0.3157057464 0.8889706731 0.3317545354
0.0045525301 -0.057361878 1.7310002 -0.402633965 0.8277943134 0.3906948864
0.35104802 -0.27434844 3.3650002 -0.2300872356 0.8854429722 0.4037952423
-0.078957863 -0.33905435 1.766 -0.5896770358 -0.3084618151 0.7464129329
0.10534574 -0.27322739 1.9150001 -0.3037704229 -0.5801600218 0.755736649
-0.015667567 -0.31616351 1.8330001 -0.6523103714 -0.2265644968 0.7232978344
0.46046829 -0.27688289 3.4330001 -0.2626801133 0.8736431003 0.4095690846
-0.13005525 0.10233856 2.4320002 -0.08559553325 -0.9798401594 0.1805176437
-0.00476819 -0.39575982 1.813 -0.7702634931 -0.2581215203 0.5831530094
0.17593753 -0.35626504 1.9260002 -0.6526668668 -0.2605433762 0.7114373446
0.14243379 -0.041801218 1.766 -0.167778194 0.8731169701 0.4577304721
0.09597151 -0.35233831 1.8940001 -0.2273451686 -0.2352666855 0.9449676275
-0.034852885 -0.24443181 1.8430002 -0.556732893 -0.4210094213 0.7161002159
0.22944383 -0.33373648 3.3990002 -0.263572067 0.8605093956 0.4359511137
0.045510836 -0.21209766 1.9590001 0.02033117414 -0.884224534 0.4666193724
0.2239673 -0.36584702 3.4680002 -0.262332648 0.8642500043 0.4292475581
0.0028123467 -0.30092108 3.2080002 -0.3632099032 0.8278964162 0.4273945391
-0.058340415 0.025724905 1.572 0.5883846283 -0.01842170954 0.8083713055
-0.015371474 -0.0066376813 1.594 -0.4514341652 0.7420713305 0.4955172539
0.034868538 -0.12508397 1.8940001 -0.2010270953 0.8664811254 0.4569447935
-0.12378883 -0.10718302 1.7220001 -0.02941405214 0.9033141136 0.4279701412
0.015996246 0.044332448 1.5640001 -0.3652476966 0.3631845713 0.8571412563
0.15682252 -0.47046754 1.8830001 -0.4987858832 -0.07119692862 0.8637960553
-0.34367964 0.20724401 1.9700001 -0.8134749532 0.5176947713 -0.2650483847
0.19507237 -0.020126512 1.766 -0.3265016079 0.8055089116 0.4945220947
-0.081217907 -0.41528401 1.748 -0.587443769 -0.258883208 0.7667393684
0.29270849 -0.01089872 1.7760001 -0.3402495384 0.6878634095 0.6411506534
0.0074341334 -0.046091627 1.6960001 -0.3542622626 0.8899689913 0.2871471345
-0.027764909 -0.13229163 1.863 -0.3605688214 0.8023656011 0.4756043851
0.22498861 -0.30095878 3.3330002 -0.2385049462 0.8416360617 0.4845246375
0.42479759 -0.25369856 3.3650002 -0.2444171309 0.8944137692 0.3745453656
0.00292193 -0.36524126 3.3330002 -0.3219899833 0.7863084078 0.5272964239
0.2232607 -0.31771713 1.9590001 -0.8063522577 -0.3534181118 0.4742274582
0.054184012 -0.024249101 1.6834286 -0.2783330679 0.8464522958 0.4539264739
-0.0033383465 -0.21532334 1.9040002 -0.5253652334 -0.5628772378 0.6380913258
0.36451799 -0.243012 3.3000002 -0.1750746816 0.8860464692 0.4292673469
-0.084980555 -0.45525298 1.7310004 -0.5549106598 -0.01700978726 0.8317360282
-0.01712656 -0.4593032 1.7760001 -0.7709130645 -0.1974997967 0.6055467129
0.1604037 -0.13001142 1.9260001 -0.05435108393 0.8905854225 0.451556772
-0.099617384 -0.092183247 1.6960001 -0.3280885816 0.8369115591 0.43810606
0.46314737 -0.23894864 3.3650002 -0.3129583001 0.8638231158 0.3947996199
-0.044897605 -0.4149158 1.7660002 -0.5816267133 -0.2200106531 0.7831383348
0.25854829 -0.0077409665 1.766 -0.2073281109 0.794391036 0.5709272623
0.49770209 -0.21719681 3.3330002 -0.3311620951 0.8569750786 0.3948738873
-0.024903469 -0.04834203 1.6710001 -0.332862556 0.8454145193 0.4177042842
-0.0055212467 -0.27330172 3.1490002 -0.3643469214 0.8364229798 0.4094482958
0.043623812 -0.42492828 1.8430002 -0.3266311288 -0.2334382385 0.9158704281
0.32956967 -0.23213169 3.2690001 -0.2034448981 0.8693923354 0.4502967298
-0.12351181 0.11930119 1.6010001 -0.6890127659 -0.3479616046 0.6357547641
0.22439949 -0.028480271 1.7850001 -0.08882082999 0.8266067505 0.5557266474
0.28479272 -0.046346739 1.8230002 -0.08908764273 0.794066906 0.6012662649
0.12518799 -0.11684213 1.904 -0.1050159186 0.8982278705 0.4268001318
-0.11877956 0.02515332 1.5940001 0.2092655301 -0.3535138369 0.9117214084
-0.22780007 -0.37404209 3.2080002 -0.2433991581 0.8504745364 0.4663152993
-0.053158611 -0.35323739 1.794 -0.5833676457 -0.3443872333 0.7355811
-0.10422719 -0.11552275 1.7570001 -0.305902034 0.893488884 0.3287880421
-0.1384432 0.3195976 1.6800001 -0.5415402055 -0.3242957592 0.7756071687
0.084035516 -0.032708433 1.7220001 -0.2767577469 0.8658252954 0.4168352783
0.069226861 -0.23469596 1.9260001 -0.3131521344 -0.1530009508 0.9372974038
-0.19263949 -0.24660508 1.7659999 0.161698088 -0.7271763086 0.6671344638
0.49292159 -0.18341269 3.2690001 -0.2804586589 0.8597853184 0.4267460406
0.16433643 0.080751516 1.6160001 -0.6307163239 -0.09013991058 0.7707604766
0.17312238 -0.09309411 1.863 -0.08818290383 0.8880575895 0.4511956573
0.20768058 -0.40185347 1.9260001 -0.8082453609 -0.2726204693 0.5219362974
0.38349783 -0.26549849 3.3650002 -0.2306756079 0.888097167 0.3975828588
0.04604736 -0.46289709 1.8430001 -0.3960247338 -0.1151934341 0.9109856486
-0.17405428 -0.11398245 1.7570001 0.4022802114 0.7341979742 0.5469223261
0.23421729 -0.43618727 1.9360001 -0.5519092083 -0.3797989488 0.7423940897
0.1446351 -0.064257041 1.813 -0.1439059526 0.8494520187 0.5076636076
0.21218313 -0.49471879 1.9260001 -0.8255072236 0.06527034938 0.5606046915
0.047617905 -0.37437522 1.8730001 -0.4577198625 -0.5554987192 0.6942000389
0.25479326 0.012377908 1.7344286 -0.298713237 0.7966890931 0.5254111886
0.19177698 -0.45744205 1.8940001 -0.5737962723 -0.0978218019 0.8131350875
0.31428325 0.014449805 1.7659999 -0.4092216492 0.7076963186 0.5759370923
-0.13751556 -0.42498955 1.7130002 0.09743262082 -0.02640586719 0.9948917627
-0.074387796 0.029474409 1.6010002 -0.4011264741 -0.5771545768 0.7113298774
0.22458184 -0.063012168 1.8430001 -0.03465836868 0.8587363362 0.5112442374
0.27947694 0.38845539 2.0050001 -0.7577990294 -0.5711098909 0.3155537248
0.048256993 -0.25263956 3.2380002 -0.3214068115 0.8292466998 0.4572172165
0.065597281 -0.093387268 1.8430001 -0.2964402735 0.853988111 0.4275833368
-0.15505955 -0.47466764 1.7220001 0.2686835825 0.5099332929 0.817176342
-0.11808963 0.19827394 1.6630001 -0.9350184798 -0.2317574769 0.268381983
0.1975884 -0.097963996 1.8940001 -0.2651380002 0.7047197819 0.6580819488
0.27851555 0.07373935 1.705 -0.5663303733 0.09415447712 0.818782568
0.19474098 0.01056734 1.7220001 -0.2847118974 0.7596278191 0.5847262144
-0.095843919 -0.38491428 1.7354445 -0.5730324388 -0.3125068247 0.7576102614
0.12504491 0.042635456 1.6320002 -0.3344079554 0.7823261619 0.5254875422
0.21490519 -0.2626619 1.9930001 -0.7051274776 -0.4359296858 0.5592499375
0.005537027 0.016611081 1.5790002 -0.347878933 0.6533636451 0.6723810434
-0.16206411 0.38211444 1.6960001 -0.5049368739 -0.3437441587 0.7917567492
0.30206776 -0.026885614 1.8040001 -0.305439502 0.7678381205 0.5631441474
-0.19452533 -0.15340614 1.804 0.9792982936 0.01231441461 0.2020475417
0.025037602 -0.07667765 1.7850001 -0.1800615788 0.9140677452 0.3633978367
-0.12706055 0.2353508 1.6470002 -0.9516541958 -0.2115110159 0.2227494866
-0.13159643 -0.28331938 1.766 -0.27003932 -0.2256213427 0.9360415339
-0.091727383 -0.24513352 1.804 -0.4736174047 -0.6003369093 0.644423902
-0.13840112 -0.14311934 1.794 -0.1268720776 0.9452511668 0.3006721139
-0.034793146 -0.10912396 1.8040001 -0.2901706398 0.8878207207 0.3571769595
0.091322362 -0.10792644 1.8940001 -0.08490765095 0.8506826162 0.518777132
0.14439414 -0.025045739 1.7390002 -0.2452248037 0.7823053598 0.5725933313
0.16474232 0.042279001 1.6630001 -0.3964307606 0.771707058 0.4973035455
0.10527714 -0.047993992 1.766 -0.2012417763 0.8601792455 0.4686079621
0.30476508 0.035046507 1.7382002 -0.4611686468 0.5696877837 0.6802788377
-0.13516241 -0.32499376 1.7323335 -0.3717077672 -0.3663803935 0.8529939651
-0.098248035 0.065966539 1.6010001 -0.03612678498 -0.2493882626 0.9677295089
0.2358505 0.074710414 1.6710002 -0.5279889703 0.131101802 0.8390709162
-0.086285323 0.0055370275 1.5790004 -0.1003111228 0.2784723043 0.9551915526
-0.0039238348 -0.3630701 1.8430002 -0.6365920305 -0.2585704923 0.7265616655
-0.0047445199 -0.45389238 1.804 -0.6724516749 -0.2128066272 0.7088879347
0.035078723 -0.32478771 1.8830003 -0.3698348701 -0.3304367661 0.8683511615
0.13368943 0.06629616 1.6090001 -0.3354189098 0.5174823999 0.78721416
0.086066745 -0.064158849 1.7850002 -0.2332710326 0.8651694655 0.4439215958
0.25403461 0.056232903 1.6880001 -0.4507922828 0.4607889056 0.7644997835
0.09584333 -0.46622103 1.8529999 -0.27482149 0.007789845578 0.9614636898
-0.15358637 0.28375131 1.655 -0.1205213442 -0.01352050528 0.99261868
-0.041269083 -0.20964694 1.8830001 -0.5302429199 -0.6332662702 0.5637519956
-0.043093134 0.043097228 1.5523334 0.3866600692 0.1669970751 0.9069762826
-0.12529844 -0.49666494 1.7220001 0.259983629 0.3055849671 0.9159837961
0.088194422 -0.41647363 1.863 -0.6119026542 -0.2713598311 0.7429259419
0.024773065 -0.36509815 1.8529999 -0.3655275404 -0.4751031697 0.8004165292
0.043398507 -0.23702261 1.904 -0.3238323927 -0.4620047808 0.8256416321
-0.16540857 -0.32474712 1.7310003 0.1422431618 -0.2427306622 0.9596086144
0.0054844264 0.07403975 1.5640001 -0.2596170306 -0.3300043046 0.9075770974
-0.091095306 -0.13584389 1.8230001 -0.413125664 0.8444512486 0.3409241736
-0.18058369 -0.36875492 1.7310001 0.609320581 0.03836699203 0.7919951677
0.21274595 -0.46263802 1.9260001 -0.7677730918 0.1508678943 0.6227064729
0.0048996899 -0.30541402 1.863 -0.6622647047 -0.3109066188 0.6817203164
-0.106778 0.12955731 1.6240001 -0.7108266354 -0.3335417211 0.6192539334
-0.43539649 -0.3404009 3.0100002 -0.2553402781 0.8595952988 0.442602843
-0.032512061 -0.088247016 1.766 -0.3948451281 0.8637878895 0.3129980266
-0.24412361 -0.39457187 3.2380002 -0.2433991581 0.8504745364 0.4663152993
0.13430533 -0.28707764 1.9150001 -0.5032337308 -0.2852313221 0.8157199025
0.088001549 -0.28725034 1.8940001 -0.003592849243 -0.1884508133 0.9820760489
-0.13396488 -0.073511422 1.6550001 -0.1643314213 0.8508669734 0.4990196526
-0.17451365 -0.43552536 1.7310001 0.5340476036 0.007150409278 0.8454241753
0.10646878 0.085616134 1.601 -0.3606487513 -0.1797351688 0.9152200222
0.12120969 -0.38023314 1.8940001 -0.1673813313 -0.2483978868 0.9540869594
-0.092418201 -0.3650519 1.7570001 -0.6250003576 -0.300712198 0.720379591
0.076760493 -0.37389791 1.8830001 -0.2858677208 -0.4212158322 0.8607304096
0.18634863 -0.12255362 1.9150001 -0.03088179044 0.8888930678 0.4570726454
0.16385952 -0.24578927 1.9470001 -0.4642731547 -0.6258685589 0.6266889572
-0.16601144 -0.27634519 1.748 -0.1757575423 -0.4692392945 0.865403831
0.11426298 0.0073245498 1.6710001 -0.3366754055 0.757006228 0.5599921942
0.097291589 -0.21677248 1.9470001 -0.2088154405 -0.647954464 0.7324965
0.095044695 -0.13747536 1.9360001 -0.05985297635 0.8470289111 0.5281663537
0.11506513 -0.14941293 1.9590001 -0.06145078689 0.8598945141 0.5067595243
0.082538165 -0.32685113 1.8830001 -0.2762175202 -0.1903491318 0.9420568347
-0.10502993 -0.35483083 3.2380002 -0.3030395806 0.8458260894 0.4390276372
0.1461377 -0.095235802 1.8730001 -0.0461682789 0.8669500947 0.4962520003
0.16591357 0.0059788669 1.705 -0.2834337652 0.7642449737 0.5793055296
0.041084107 0.0099168532 1.6160001 -0.4691445827 0.7880085111 0.3986802995
0.0043708407 -0.42476624 1.813 -0.6954482198 -0.1199051887 0.708501637
-0.037737433 -0.47518358 1.7570001 -0.5434470773 -0.007227629423 0.839412272
0.16378061 -0.29548049 1.9260004 -0.3191491961 -0.1684493273 0.9326138496
-0.03814552 -0.32582632 1.8130001 -0.6415894628 -0.3713783026 0.6711491346
-0.094630033 -0.053054258 1.6355001 -0.1287357211 0.825984478 0.5487957001
0.2331495 -0.35058776 1.9700001 -0.8254762888 -0.1448640972 0.5455303192
-0.11388531 0.17569241 1.6320002 -0.8113828897 -0.3077072799 0.4969648123
0.045477957 0.055124804 1.5720001 -0.3322480321 0.2450810969 0.9107944369
0.18264472 -0.41344127 1.8940001 -0.4079482853 -0.2383184284 0.881352663
0.14736415 0.098719679 1.6320001 -0.5183930993 -0.4514256716 0.72628057
0.053968124 -0.050919078 1.7390001 -0.2845602036 0.8632957935 0.4168283641
0.16558261 -0.028495612 1.7570001 -0.2685266137 0.8003181815 0.5360823274
-0.0026861066 -0.23369128 3.0640001 -0.3643469214 0.8364229798 0.4094482958
0.094399467 -0.35399801 3.3650002 -0.2811352015 0.7908080816 0.5436778069
0.13611758 -0.24541898 1.9360001 -0.4654272795 -0.3181986511 0.825909853
0.40460268 -0.46349367 3.7320001 -0.2550481558 0.8536760807 0.4540787935
0.14613771 -0.49424097 1.8730003 -0.4206447899 0.1023570821 0.9014327526
0.13701336 -0.42259541 1.8830001 -0.2778380811 -0.1976402253 0.9400767684
-0.077015169 -0.10936154 1.7570001 -0.2971939445 0.9009827375 0.3160789013
0.19745748 -0.26308474 1.9700001 -0.6451435089 -0.4973907173 0.5799933672
0.095388353 0.032745253 1.6240001 -0.3733301461 0.7695845366 0.5180388093
0.074935891 0.0026242142 1.6630001 -0.3768357337 0.7456434965 0.549554944
0.20286374 0.08302252 1.6470001 -0.5795315504 0.08916658163 0.8100571036
0.024545791 -0.01299483 1.6470001 -0.3832463622 0.8445724845 0.3739244342
0.2150656 -0.38404575 1.9470001 -0.4825844467 -0.3283834159 0.8119584918
-0.044672657 -0.12244806 1.8329999 -0.3178912401 0.8627353907 0.3932337463
0.07629104 -0.077880435 1.8130001 -0.2675596178 0.8950087428 0.3568910062
-0.15891074 0.34260571 1.6630001 -0.4908842146 -0.3971071839 0.7754602432
-0.14469208 -0.23119278 1.794 -0.1260343045 -0.7849193811 0.6066439748
0.12685716 -0.33216548 1.904 -0.4003832936 -0.401484549 0.8237131834
-0.058012977 -0.26622394 1.8130001 -0.6992456317 -0.2977803051 0.6499095559
-0.030366857 -0.2843442 3.1490002 -0.3643469214 0.8364229798 0.4094482958
0.03196327 -0.47465453 1.8230001 -0.6613855958 -0.09948755056 0.7434186339
0.045495141 -0.28193703 1.8940001 -0.3984135985 -0.1710590124 0.9011134505
-0.045241613 -0.064166382 1.6864001 -0.3781566024 0.8725600243 0.3092516959
-0.0037247813 -0.017486695 1.6348002 -0.4336560667 0.8181741238 0.3775360882
-0.060532957 0.098105133 2.381 -0.08559553325 -0.9798401594 0.1805176437
-0.18415217 -0.29535159 1.7336669 0.2102418542 -0.2298756242 0.950239718
0.16368461 -0.33492392 1.9150001 -0.4723832309 -0.3705969453 0.7996949553
0.011751717 -0.14269942 1.9150001 -0.2631899714 0.8496825695 0.4569141269
-0.074710414 -0.071780592 1.6710001 -0.1559486985 0.8964111209 0.4148819745
-0.03649313 -0.4443315 1.7659999 -0.5808904171 -0.2124178261 0.7857766747
0.24203013 -0.10181957 1.904 0.00841553323 0.7850010991 0.6194372177
0.19452532 -0.045072936 1.8040001 -0.2759037018 0.8270466328 0.4897662997
0.069586292 -0.14426427 1.9360001 -0.07559456676 0.8835189342 0.4622550607
-0.1297528 0.29157934 1.6630001 -0.1131173447 -0.2057522386 0.9720444679
0.091302492 0.067202337 1.5860001 -0.6069450378 0.06978756189 0.7916738391
0.20311753 -0.29699537 1.9470001 -0.7378429174 -0.2313574553 0.6340832114
0.25410798 -0.0479449 1.8230001 -0.07732463628 0.8097623587 0.5816406608
0.23028544 -0.080028273 1.863 -0.06021183729 0.8206477165 0.5682533383
-0.1125605 -0.037990347 1.605 -0.440918833 0.7271341085 0.5261811018
-0.033209011 -0.038984489 1.647 -0.3847598433 0.8418902755 0.3783921301
0.20536442 -0.33435366 1.936 -0.6044120789 -0.106874682 0.789470613
-0.0845019 -0.30201605 1.7850001 -0.6697257161 -0.3381303549 0.6611620784
0.1941729 -0.37652656 1.9260004 -0.5588594079 -0.5390818119 0.6301324964
-0.054039486 -0.30198538 1.8130001 -0.6899635196 -0.2694050372 0.671841681
-0.014987369 -0.074073695 1.7344286 -0.403953433 0.8478343487 0.343509227
0.064962909 0.074644506 1.576667 -0.273476243 -0.2166417986 0.9371643662
0.21708459 -0.30565509 1.9810001 -0.8323084116 -0.1839078963 0.5229154825
0.23335552 -0.45160168 1.9150001 -0.6327299476 0.1543063223 0.7588427663
0.12816137 0.031435806 1.6550001 -0.2497196198 0.7980424166 0.5484235287
-0.014879663 0.037875507 1.5430001 -0.3071038425 0.2452779412 0.9195248485
0.25129649 0.1610875 2.45 -0.2142804563 0.8770363331 0.4299897254
0.085199937 -0.253921 1.9150001 -0.3800419271 -0.4376485348 0.8148815036
0.05600848 -0.20875888 1.9360001 -0.01979853027 -0.9251627922 0.3790537715
0.11533689 -0.089345485 1.853 -0.09188903868 0.8603371978 0.5013744235
0.082478113 -0.097993806 1.863 -0.1877270341 0.8831883669 0.429810226
-0.0049522896 -0.24596374 1.8830003 -0.5980172753 -0.4304328859 0.6760938168
0.16636093 -0.36443615 1.9040002 -0.6384794712 -0.3170238733 0.7013129592
0.13956971 -0.45483306 1.8730001 -0.4996891618 -0.2755289972 0.8212152719
-0.01408365 -0.092326149 1.7850001 -0.381338954 0.8278641701 0.4113654196
0.10361937 -0.01952249 1.7129999 -0.3255482912 0.8316758871 0.4498149753
0.17611094 -0.077553444 1.8430001 -0.2343892008 0.810362041 0.5370056629
0.043210723 -0.10688969 1.853 -0.1656890661 0.8762264252 0.4525200725
0.1973552 0.042711198 1.6800001 -0.2395699471 0.7615043521 0.602260232
-0.15170892 -0.12106065 1.748 0.1949969083 0.8244857192 0.5312245488
0.027913943 -0.3464613 1.8730001 -0.4558356404 -0.3639088869 0.812270999
0.064272813 -0.03138905 1.705 -0.2677175999 0.8721250892 0.4095425904
-0.021004057 -0.29405677 1.8430001 -0.6493659019 -0.2144285738 0.7296193242
0.15456422 -0.22142626 1.9810001 -0.4056393802 -0.7662848234 0.4982612431
0.1764828 0.074607097 1.6366668 -0.5948044658 0.1759846807 0.784370482
0.0279832 -0.0279832 1.6800001 -0.3362457156 0.8171696067 0.4681588113
0.21707538 -0.086665064 1.8830001 -0.06130713597 0.8500063419 0.5231927633
0.10490018 -0.071522847 1.8130001 -0.1367099732 0.8857313395 0.4436106086
0.2471265 0.03338201 1.705 -0.3321603835 0.5829132199 0.7415400743
-0.11458734 0.088036619 1.5940001 -0.5281849504 -0.2246082276 0.8188844919
-0.068603553 -0.43448916 1.7390001 -0.6369169354 -0.141962111 0.7577490211
-0.075112797 -0.11579891 1.7850001 -0.3218078911 0.9052227139 0.2775093913
0.14311934 -0.048754938 1.794 -0.1262258291 0.8897210956 0.4387064874
-0.11799583 -0.31720957 1.748 -0.544818759 -0.3920991421 0.7412359715
-0.18361872 -0.34447479 1.7310001 0.4182985723 -0.1850279719 0.8892642856
0.29283735 0.04655363 1.7129999 -0.461320132 0.4294016063 0.7764006853
0.053800154 0.037031274 1.5940001 -0.4776243269 0.7145235538 0.511205554
-0.015703147 -0.25558224 1.853 -0.7179186344 -0.3453060687 0.6044473052
0.016069299 -0.41619489 1.8330001 -0.734631896 -0.2558122277 0.6283916831
0.32247087 0.053112846 1.7310001 -0.4849166274 0.518458426 0.7043129206
-0.015727401 -0.38532129 1.794 -0.6137222648 -0.233931765 0.7540695667
-0.06491366 -0.08554513 1.7220001 -0.36511603 0.8209090233 0.4390884638
0.053162526 -0.13374573 1.9150001 -0.1802408397 0.8593662977 0.4785423577
-0.036053792 -0.0032251598 1.5751112 -0.1111102402 0.7376254201 0.6660054326
0.15773863 -0.41178086 1.8940001 -0.3084215224 -0.247194916 0.9185699821
-0.055251036 -0.032583948 1.6160001 -0.1718784869 0.8503794074 0.4973053634
0.075855635 0.043543741 1.6023332 -0.3904958665 0.7094401121 0.5866921544
0.11317094 -0.49329534 1.853 -0.3672231436 0.09717126191 0.9250431657
0.0028924742 -0.38469905 1.8329999 -0.6801064014 -0.341340214 0.6488005519
-0.18059246 -0.14862919 1.8230001 0.9862473011 -0.02596131526 0.1632247418
0.066243559 -0.48632473 1.8430002 -0.2493267655 -0.02038122155 0.9682049155
0.011493976 -0.26600346 1.8730001 -0.385127604 -0.3335472643 0.8604783416
0.12494604 -0.26508823 1.9260002 -0.3359845579 -0.3093591034 0.8896130323
-0.12049345 -0.12988254 1.7850001 -0.299798131 0.8693016768 0.3929830492
-0.067079023 -0.47412673 1.7390002 -0.6081784964 -0.02741542459 0.7933267355
0.16526745 -0.056934237 1.8040001 -0.1333044171 0.8551059365 0.5010226965
0.074047908 0.016356234 1.6369002 -0.3470064998 0.8053860664 0.4805619717
-0.00492599 -0.12533908 1.8730001 -0.335732013 0.851441741 0.4029031992
0.19751884 -0.47793996 1.9039999 -0.7407296896 -0.005191224627 0.6717830896
0.10576545 -0.12423243 1.9150001 -0.1590177417 0.8492493629 0.5034767985
0.44241071 -0.29193088 3.4330001 -0.2588875294 0.8742907643 0.410600692
0.064458147 -0.062589787 1.7760003 -0.2325447947 0.8578945994 0.4581918716
-0.053832151 -0.2546984 1.8330001 -0.5684399009 -0.3608696759 0.739357233
0.045297805 -0.085032716 1.8130001 -0.1541263014 0.9084553123 0.3885279894
0.12050309 -0.21894224 1.9360001 -0.2425885797 -0.6825773716 0.6893757582
-0.11229574 -0.40214014 1.7310001 -0.43013376 -0.2095244229 0.8781141639
0.0064627863 -0.10825168 1.8430001 -0.2995478809 0.8711577654 0.3890439868
0.23252006 -0.36829817 1.9360001 -0.4500134289 -0.3709478974 0.812333405
0.11390267 -0.41104007 1.883 -0.05272370204 -0.3278075159 0.943272233
-0.035421893 -0.024463031 1.6034 -0.2581542134 0.813757956 0.520724833
0.021699253 -0.22867675 1.904 -0.3557215333 -0.6680642962 0.6535688639
-0.1084249 -0.44541311 1.7130001 -0.3784604073 0.007145404816 0.9255899191
-0.1281897 -0.24651867 1.7760001 -0.3095181882 -0.7086643577 0.634029448
-0.14466666 -0.10261822 1.7129999 0.2502548993 0.8524959087 0.4589370489
-0.16068511 -0.42498958 1.7129999 0.4715137482 -0.0972025916 0.8764852881
-0.13429962 -0.35357982 1.7310001 -0.3562917113 -0.2384919375 0.9034255743
0.18160325 -0.13068645 1.9360001 -0.06689604372 0.9337770343 0.3515470624
0.2553283 -0.072406523 1.863 -0.04505966604 0.8334916234 0.5506917238
0.11612678 -0.29592058 1.9040002 -0.3857674599 -0.1123815104 0.9157258868
-0.17343816 -0.25599843 1.7570002 0.03132172674 -0.5180296302 0.8547890186
0.24513353 -0.03479315 1.804 -0.2123245448 0.8254143 0.5230769515
0.20565283 -0.0030478779 1.737667 -0.1756792217 0.7870211601 0.5913835168
-0.0057667135 -0.49488887 1.794 -0.6956610084 -0.1644030958 0.6993049383
