# .PCD v0.7 - Point Cloud Data file format
VERSION 0.7
FIELDS x y z normal_x normal_y normal_z
SIZE 4 4 4 4 4 4
TYPE F F F F F F
COUNT 1 1 1 1 1 1
WIDTH 512
HEIGHT 1
VIEWPOINT 0 0 0 1 0 0 0
POINTS 512
DATA ascii
0.19625218 -0.4353053 1.3870001 0.3091273308 -0.3194803894 0.8957524896
-0.15832074 -0.36674297 2.286 0.4711997807 0.8818103075 -0.01952863112
0.2477596 0.43224883 1.3490001 0.1646755636 -0.4795508981 0.861923933
-0.17871025 0.06484177 1.8040001 0.9973352551 -0.0448131524 0.05756926164
0.42361408 -0.43370014 2.3010001 0.3442887962 0.9359986186 0.07329264283
-0.062638268 0.0015530149 1.1810001 0.2166655958 0.4469744563 0.8679112196
0.39012894 -0.062378339 1.2060001 0.4487631917 0.7186331153 0.5312043428
0.45985726 0.18935299 1.6240001 0.8747195601 0.2842027247 -0.3925486803
-0.18463199 0.20260015 1.464 0.1543666273 -0.5284796953 0.8347935081
0.49113497 -0.42536741 1.21 0.2396678925 -0.2411098927 0.9404389262
-0.052826181 -0.21575993 1.452 0.4553051889 0.8103669882 0.3687851727
0.28526965 0.19545062 1.2106315 0.5848888159 -0.4182145 0.6949832439
0.20587407 -0.16124122 1.376 0.03476944938 0.7268859148 0.685877502
0.16521923 0.0081081139 1.1562001 -0.0122540053 0.7964324355 0.6046033502
0.40461278 -0.25454021 1.3232635 0.7275605798 -0.2063443959 0.654276371
-0.15973744 0.0180155 1.3700001 0.05224812031 -0.3363844156 0.9402742386
0.23848315 -0.35672268 2.286 0.4704185724 0.8822562695 -0.01817383803
0.03093669 -0.12030935 1.307 -0.1258883029 0.7601343393 0.6374542117
0.34624612 -0.49486959 1.2967371 0.5904954672 -0.2717687786 0.7599058151
0.038266208 -0.36878529 1.439 0.3807189465 -0.3495567739 0.8560742736
-0.19597445 -0.2967613 2.1290002 0.470505029 0.8822146058 -0.01795629971
-0.1312633 -0.1312633 1.302 0.5727874637 0.3106899858 0.7585421801
0.27811638 -0.29697171 1.4150001 0.3503573537 -0.3801383078 0.856005013
0.32337841 0.062888555 1.1326666 0.3248448372 -0.1432349831 0.9348580241
0.24512199 -0.066550575 1.2651999 -0.00102720724 0.7842825651 0.6204029322
0.092475183 -0.23182134 1.4450001 -0.02487331443 0.7120528817 0.7016851306
0.38309896 -0.30844375 2.2410002 0.6539500952 -0.728856802 -0.2027733922
-0.23355189 -0.05063013 1.863 0.9943760633 0.06289393455 0.0852092281
0.068019688 -0.49697268 1.3980001 0.6561751962 -0.1266962588 0.7438966036
0.40458646 -0.11732298 1.3338333 0.1802292764 0.6885454655 0.7024404407
0.27496484 0.3147088 1.278 0.3830863833 -0.4648036361 0.7982496023
0.055668581 -0.038376208 1.2111429 -0.0366563797 0.8177855611 0.5743544698
0.3517476 -0.37395093 1.3330001 0.6893118024 -0.2752022743 0.6701589227
0.16399972 -0.3337487 1.4449998 0.3469132483 -0.4180001616 0.839599371
0.47259787 -0.31542906 1.2450001 0.2867826223 -0.2729909122 0.9182764888
0.22237176 0.080776066 1.0840001 0.07258360088 0.5580407381 0.8266330361
0.13503899 -0.087774836 1.283625 -0.08293297142 0.7841712236 0.6149777174
0.055228245 0.043265369 1.1372001 0.2017220408 0.3210713863 0.9253222942
-0.055813711 -0.083451509 1.2443333 -0.07085936517 0.7463183403 0.6618065238
-0.069774777 -0.20222859 1.3490001 -0.4625931084 0.3572182357 0.8114202023
-0.16466023 0.11374749 1.4138463 0.3230579197 -0.2650305331 0.9085111022
0.30392793 -0.13707873 1.3430002 0.1405623853 0.7211030722 0.6784191728
0.26434612 -0.0085534174 1.1825 0.10417597 0.825474143 0.5547429919
0.024964135 -0.18733367 1.3822 -0.132594496 0.7362683415 0.6635718942
0.42355138 -0.49486601 1.2325002 0.7018108368 -0.03619847074 0.711443007
0.41370171 -0.40463349 1.2645454 0.7268876433 -0.1619762927 0.6673814654
0.11336952 -0.15221958 1.3565001 -0.06965079159 0.7347467542 0.6747562289
0.28514174 -0.44553751 1.35525 0.451928854 -0.2482271641 0.8568217754
0.02754136 -0.27672508 1.4959999 0.3208840787 0.2530174255 0.912696898
-0.14091277 -0.058086179 1.2270001 0.1017981619 0.5975530148 0.7953411341
0.33470383 -0.085711531 1.2763333 0.1372982562 0.776348114 0.6151689291
0.34779119 -0.24650463 1.3920001 0.6633617878 -0.3265221119 0.6733011603
0.10673141 -0.41760638 1.4040002 0.1097479537 -0.2743551731 0.955345273
-0.18766366 0.27489153 1.5075001 0.8669310808 -0.1898498833 0.4608551562
0.17609191 -0.042526722 1.2258574 -0.02770859748 0.8073607087 0.5894072652
0.34587747 -0.012171639 1.1569999 0.08761738241 0.751667738 0.653696239
0.2517378 -0.37528577 1.3926002 0.437390089 -0.3809086978 0.8146155477
0.14455162 -0.49500784 1.3753333 0.06671118736 -0.412263304 0.9086190462
0.29512426 0.12571055 1.1738423 0.443143785 -0.4088060558 0.7978102565
0.12800333 0.063901104 1.1146001 0.2042670697 0.4162900448 0.8859896064
0.43655106 -0.18447433 1.307 0.5803861022 -0.432269901 0.6901410818
0.16495492 -0.21244702 1.4255 0.06609096378 0.6623494625 0.7462741733
-0.044325653 -0.13757992 1.3132502 -0.08256883919 0.759290874 0.6454918385
0.20551346 -0.11199329 1.317 -0.0009201098583 0.7785784006 0.6275466681
0.40988025 -0.32481787 1.2880001 0.6481560469 -0.1691766381 0.7424775958
0.46284348 -0.24641442 1.2765 0.521638453 -0.1937642694 0.8308722973
0.22494422 -0.49564531 1.3563912 0.2547390759 -0.530926168 0.8082236052
0.044061266 -0.44061005 1.4360001 0.6841798425 -0.1641848981 0.7105922103
0.015390586 -0.23489563 1.4389998 -0.180967778 0.7456862926 0.6412508488
0.25534827 0.032533277 1.1246001 0.06192724034 0.7383409142 0.6715785265
0.3318634 -0.31229019 1.3708572 0.6181312799 -0.3301794827 0.7133689523
0.25226548 0.36545661 1.322 0.5356090665 -0.3499959707 0.7685217857
0.32593766 -0.039670043 1.223 0.05312683433 0.8298585415 0.5554388762
0.0061489404 -0.0010248233 1.169 0.07049807906 0.6054887772 0.792725265
0.015382868 -0.075828888 1.2535 -0.126418069 0.7831094861 0.6088989973
0.27739969 0.25523841 1.2433333 0.5493782163 -0.3306467831 0.7673696876
0.094814062 -0.0047606425 1.1662177 -0.05687448755 0.7412478924 0.6688175201
0.22148809 -0.28895283 1.452 0.4034954906 -0.5101161003 0.7595873475
0.097858168 -0.33718714 1.439 0.2618436217 -0.4348867536 0.8615749478
0.26557389 -0.18071608 1.396 -0.02393144183 0.7267973423 0.6864349246
-0.1474513 -0.036802642 1.3370001 0.1211683527 -0.3983157575 0.9092099667
0.36691299 -0.4346104 1.2970001 0.5563943386 -0.2444833368 0.7941367626
-0.024664776 -0.042516585 1.2041818 -0.0994386524 0.7210251689 0.6857365966
0.11553661 -0.052145183 1.2340001 -0.06974566728 0.8237336278 0.5626708269
0.45859399 -0.37684307 1.2270001 0.3461120129 -0.2169470191 0.9127652645
0.094369657 -0.19241606 1.3980001 -0.06841078401 0.7174501419 0.6932425499
0.07488925 -0.086069681 1.2749999 -0.04112234339 0.7984343767 0.6006758809
0.18831852 -0.37786788 1.404 0.2174031138 -0.5058593154 0.8347707391
0.26651385 -0.10243483 1.307 0.06671471149 0.784694016 0.6162828207
0.18444543 0.044586927 1.114464 0.0868966952 0.7258900404 0.6822995543
0.30386934 -0.38476288 1.3649999 0.4747211337 -0.2750511169 0.8360542655
-0.085486986 -0.04548819 1.2113334 0.1493291557 0.5995315909 0.7862968445
0.056765921 -0.15019317 1.3490001 -0.110045217 0.76459378 0.6350483894
-0.033787608 -0.20271952 1.3930001 0.05744138733 0.8451727629 0.5313977003
0.37348244 -0.3029559 1.3334168 0.6084932089 -0.2664338946 0.7474951744
0.29920283 -0.49828333 1.3280001 0.4877845049 -0.2907634377 0.8231177926
-0.10637824 -0.098621495 1.2640001 0.0699724406 0.7291671634 0.6807489395
0.046393201 -0.322175 1.47 0.348275274 -0.2494608462 0.9035893083
0.43822798 -0.4371523 1.2270001 0.6085438728 -0.1734775007 0.7743254304
0.24552941 -0.13700609 1.3455715 -0.06392154098 0.7374105453 0.6724133492
0.16491048 -0.13551556 1.3462729 0.005398101639 0.7948241234 0.606815815
0.20509242 -0.012778532 1.1875457 -0.02645255066 0.8015561104 0.5973341465
-0.0051914444 -0.15741427 1.3460001 -0.1856711358 0.7394914627 0.6470538378
0.22174229 -0.33385921 1.4210002 0.3944821656 -0.41072312 0.8220038414
0.39243457 -0.093600817 1.2863334 -0.1187825948 0.8147994876 0.5674438477
0.38795304 -0.47465891 1.268 0.6720764041 -0.1404554248 0.7270389199
-0.14570621 0.068581983 1.3920001 0.09145992249 -0.5737317801 0.8139206767
0.35290128 -0.13154121 1.322 0.1768608689 0.7170056105 0.6742575169
0.13480437 -0.3758707 1.4223334 -0.18987827 -0.3209302723 0.9278739095
-0.10006624 -0.17827894 1.312 0.1213566363 0.682639122 0.7206083536
-0.18115002 0.15328078 1.4450001 0.4222641885 -0.4483959377 0.7878032923
0.094681747 -0.11390413 1.3153335 -0.08406191319 0.8086920381 0.5821948051
0.18561926 -0.078275375 1.2754999 -0.02777777053 0.7948309779 0.6061947346
0.26516941 -0.038649779 1.2246001 0.07060343772 0.8169000149 0.5724416971
0.14430809 -0.17610744 1.395 -0.03822950646 0.7561383247 0.6532942057
0.13596223 -0.019871403 1.1930001 -0.09809541702 0.7835446596 0.6135430336
0.33071285 -0.44289812 1.3330001 0.5552758574 -0.258112967 0.7905987501
0.3044636 0.012874475 1.1424286 0.1682944596 0.7025006413 0.69149822
0.39150706 -0.37438574 1.302 0.7100958824 -0.1875606626 0.6786640286
-0.012388176 -0.10792065 1.2850001 -0.2596875727 0.7324927449 0.6292986274
0.24487755 -0.42461529 1.3759999 0.2519365847 -0.3215679824 0.9127551913
0.28678733 -0.33681443 1.3870001 0.5184226632 -0.3483602703 0.780950129
0.29453659 -0.064114556 1.2544708 0.08935574442 0.8148937821 0.572681129
0.10494752 -0.46494192 1.3920001 0.2179068029 -0.4402161837 0.8710489869
0.050859816 -0.21212265 1.4150001 -0.1367582083 0.7893431783 0.5985270143
0.15533201 -0.41627005 1.4039999 0.1795463413 -0.1007650793 0.9785752296
-0.20063744 0.23834112 1.536 0.8627994061 -0.223113656 0.4536491036
0.43476647 -0.28507283 1.2774444 0.6100867987 -0.2049448341 0.7653703094
0.21537952 0.01693562 1.1455334 0.01373977587 0.8006722927 0.5989450216
0.43105349 -0.36013466 1.2640001 0.704472065 -0.2395118624 0.6680967212
0.4132545 -0.16424219 1.3430001 0.5457006693 -0.03134541959 0.8373937011
0.30888036 -0.25926101 1.4150001 0.555529356 -0.3851459622 0.7369190454
0.36432603 -0.061776072 1.245 0.342320323 0.7841150165 0.5176682472
-0.085124344 -0.12598693 1.2946666 -0.100127697 0.7240271568 0.6824654937
0.46259278 -0.47408414 1.2135999 0.4009699523 -0.01533504762 0.9159628749
0.26422203 0.063285597 1.092 0.04352565482 0.6613858938 0.7487818599
0.11470154 0.026929684 1.1377335 0.04912409186 0.6531379819 0.7556438446
0.081657119 -0.38064778 1.4330001 0.3333631754 -0.3900443316 0.8583323359
0.37584904 -0.2385283 1.3581667 0.7348172665 -0.2694824338 0.6224330068
0.22327438 -0.19127253 1.404 -0.01917625405 0.6722881794 0.7400411367
0.43797389 0.18492231 1.5860001 0.8747985959 0.2921079695 -0.386523366
-0.06416586 -0.23123924 1.381 -0.5050777793 0.4858602285 0.7133275867
0.052444827 -0.0082266396 1.1730002 0.06043683738 0.6867334843 0.7243925333
0.21779557 -0.050927319 1.2360001 -0.06195934862 0.8031554222 0.5925389528
0.18232791 -0.47506952 1.3810002 0.1543209106 -0.3572936356 0.9211548567
0.29631048 0.085113995 1.1567332 0.5255694985 -0.3064188659 0.7936524153
0.14461626 -0.11269214 1.3161666 -0.03209649026 0.8092452288 0.5865935683
-0.19016653 0.23213431 1.4960001 0.7970049977 -0.3013694286 0.5234113932
0.015740549 -0.030431729 1.197 0.009481598623 0.7724135518 0.6350491643
0.30957994 -0.021889489 1.189 0.08142572641 0.8066339493 0.5854156613
0.14643352 -0.4547604 1.3870002 0.06495151669 -0.2829416692 0.9569353461
0.35961306 -0.04065191 1.189 0.4496715963 0.7413954735 0.4981246889
0.075793386 -0.059474234 1.2410001 -0.02297590859 0.8095749021 0.5865668058
0.067696199 -0.45294911 1.404 0.4944673777 -0.1242085099 0.8602756858
0.34055871 0.022703914 1.126 0.06610769033 0.2392720282 0.9686994553
0.3149915 -0.10658031 1.3052143 0.07755676657 0.7754477262 0.6266305447
-0.044806432 -0.16625896 1.3450001 -0.1022175178 0.741640687 0.6629635692
0.12448102 -0.21418968 1.424 -0.1194839627 0.698504746 0.7055598497
0.35792759 -0.27589187 1.3590001 0.6820170283 -0.2860428691 0.6730766892
0.094954826 -0.033763502 1.2035 -0.08550390601 0.8195524812 0.5665887594
-0.1215849 -0.02854602 1.2060001 0.1309598088 0.4997379482 0.8562192917
0.29915637 0.16469236 1.189 0.7278116345 -0.1865635216 0.6599123478
0.044717889 -0.24788085 1.4742 0.1717867553 0.7493145466 0.6395444274
-0.022518061 -0.23143561 1.427 0.2504626513 0.8131748438 0.5253713727
0.43447649 -0.22422552 1.3042221 0.6290040612 -0.3678251505 0.6848784685
0.26691854 -0.48501378 1.3468827 0.3005354702 -0.3620625138 0.8823769689
0.29363298 -0.16240349 1.3751429 0.1252596974 0.7384009361 0.6626266837
-0.10511677 -0.073363341 1.2334739 0.04558952153 0.6522975564 0.756590724
0.15461975 -0.064657353 1.2557274 -0.1036293879 0.7904318571 0.6037204862
0.39988536 -0.28988823 1.307 0.7252029181 -0.2512289882 0.6410652995
0.02122673 0.031334698 1.153 0.1644554138 0.4376000166 0.8840026259
0.16489135 0.072467223 1.0956666 0.2171358317 0.517350018 0.8277686834
0.18503627 -0.18558331 1.4040002 0.07296218723 0.641091466 0.7639883757
0.22432084 0.048165377 1.1077 0.04695943743 0.71083951 0.7017848492
-0.0046106093 -0.13264953 1.31575 -0.2392986417 0.7426915169 0.6254162788
0.22426537 -0.08947961 1.2920001 -0.03989469633 0.7663756609 0.6411526799
0.36830783 -0.33713445 1.317 0.6330854297 -0.2200812697 0.7421367764
-0.052451845 -0.10825167 1.273 -0.09560433775 0.7444864511 0.6607569456
0.40948135 -0.44480047 1.2590001 0.7642040849 -0.1440012306 0.6286936402
0.20503935 -0.13551556 1.3462729 0.02581418119 0.7787722349 0.6267754436
-0.082807891 -0.16600823 1.3430001 -0.6688939929 0.4205341637 0.6129696965
-0.014443961 -0.065941595 1.2330911 -0.1835505515 0.7212330103 0.6679312587
0.21555832 -0.40434614 1.3953335 0.3050848544 -0.2482872754 0.9193893075
0.3251299 -0.35494381 1.3575714 0.5460489392 -0.2206136733 0.8081832528
0.32726145 -0.40608567 1.3380002 0.5558714867 -0.2002044767 0.806799233
0.2560147 -0.32494175 1.4039999 0.08542346209 -0.4733258188 0.8767356873
-0.17490815 0.078150451 1.4150001 0.116433166 -0.4997277558 0.8583213091
0.0012361 -0.2089009 1.4100001 -0.1198437363 0.784989953 0.6078060865
0.22538902 -0.45570928 1.3735454 0.4051961899 -0.2536150217 0.8783481121
0.024312599 -0.051850606 1.2251819 -0.07206295431 0.7819789052 0.6191251278
0.052009296 -0.40527058 1.4330001 0.5099481344 -0.1841222048 0.8402689695
0.088472463 0.051965434 1.1255 0.163797915 0.3880065084 0.9069846869
0.065450177 -0.17695209 1.3824999 -0.1303452104 0.7211356759 0.6804215312
0.23535241 -0.024276303 1.2038667 -0.005794715136 0.8103593588 0.5859045386
0.1526899 0.03073681 1.131 0.05788103491 0.6971226335 0.7146116495
0.25595316 -0.27708998 1.4354001 0.3042543232 -0.4918952286 0.8157624602
0.27585453 -0.40609196 1.3728423 0.4556725919 -0.167235449 0.8742967248
0.24997097 0.33557749 1.302 0.5703285336 -0.3838959336 0.7261881828
0.46540335 -0.27777037 1.2590001 0.4084472954 -0.2608912289 0.8747037053
0.18558377 -0.30508366 1.4449998 0.3163355291 -0.4697009325 0.8242043853
0.29478404 -0.086635642 1.2834167 0.06512844563 0.7355251312 0.6743597388
0.26337102 0.40418041 1.3333848 0.1584714502 -0.4797782898 0.8629598022
0.35610238 -0.40673852 1.3170002 0.592412293 -0.2016556859 0.7799888849
0.25573152 0.011118763 1.153 0.05007206649 0.8372520804 0.5445197225
0.17104732 -0.02203677 1.197 -0.03488071635 0.7810383439 0.6235081553
-0.13699359 -0.0051475917 1.3562223 0.345243603 -0.2991222143 0.8895688653
0.44061705 -0.40362698 1.2410001 0.6476106048 -0.2300646752 0.7264094949
0.32198828 -0.283315 1.3930001 0.6534780264 -0.3031823933 0.6935755014
0.44435075 -0.32340884 1.2640001 0.6054557562 -0.3017154932 0.7364720702
0.4462207 -0.17542714 1.3430001 0.6196050048 -0.2467918992 0.7451062799
0.025371708 -0.14325884 1.3357779 -0.1825947016 0.7663328648 0.6159489751
0.096503466 -0.49458024 1.3760002 0.3183655441 -0.3600500226 0.876930654
-0.028058721 0.0024973727 1.1730002 0.0783207044 0.4607605636 0.8840619922
0.26586077 0.28376538 1.2662499 0.3751148283 -0.4319602549 0.8201824427
0.22348687 -0.3661328 1.41 0.4014245868 -0.2012276947 0.8935131431
0.32603282 -0.4763045 1.3170002 0.5262057185 -0.2941585779 0.7978585958
0.42725569 -0.25712481 1.2955 0.6631237268 -0.2504349649 0.7053716779
0.06455563 -0.12702303 1.3244002 -0.1454305202 0.7827889919 0.6050547957
0.076092362 0.016725814 1.1477501 0.1040435359 0.6464568973 0.7558230162
0.17235442 -0.099303536 1.302 -0.0135928886 0.7674151659 0.6410064101
0.25381836 -0.15893675 1.37 -0.04938550666 0.7475656271 0.6623494029
0.066126093 -0.347352 1.4450001 0.2515848577 -0.6209278107 0.7423972487
-0.026489358 -0.091609038 1.2590001 -0.1875578165 0.7355729938 0.6509642601
0.13427904 -0.35089898 1.4450001 -0.1720668375 -0.5290098786 0.8309882879
0.3895556 -0.4064928 1.2880001 0.7171103954 -0.1474146247 0.6811913252
0.35529405 -0.1038744 1.2954615 0.06954076141 0.7536671758 0.6535670161
0.024744792 -0.097854413 1.2830001 -0.110567838 0.7620806694 0.6379716396
0.10526945 -0.072672449 1.2581111 -0.08300352842 0.7844589353 0.6146011353
0.16468148 -0.15747318 1.3712 0.0277615618 0.7298390269 0.6830551028
0.28566384 0.041166011 1.1142857 -0.4258123338 0.6376871467 0.6419026256
0.23137425 0.0010283299 1.1730001 0.00952189602 0.829951942 0.5577536225
-0.055237018 -0.033213101 1.1963335 0.07414031029 0.5727102757 0.816398263
0.27630782 0.22321336 1.2360001 0.5576322079 -0.3673925102 0.744358182
0.46628523 -0.34563339 1.2338184 0.3025321364 -0.3425905108 0.8894414306
-0.014439453 -0.18582627 1.3725717 -0.1833645254 0.740450561 0.6466146111
0.43121216 -0.139063 1.3330001 0.5770639777 0.2818810642 0.7665117383
0.23518863 -0.3052448 1.427 0.400321126 -0.3921632767 0.8282215595
-0.13397548 -0.083768785 1.245 0.09548924863 0.6830607057 0.7240924239
0.34662381 -0.33483699 1.3448753 0.659085393 -0.2935459018 0.6924141049
0.48541242 -0.39486134 1.2180001 0.1473993361 -0.3578794599 0.9220606089
-0.13600168 0.026017712 1.3490001 0.1254253387 -0.2913964987 0.9483441114
0.25369424 -0.45543867 1.3586154 0.1254199445 -0.3255654573 0.9371643066
0.055487305 -0.2333007 1.4384999 -0.03388088197 0.7341263294 0.6781671047
0.04543237 -0.078675576 1.2640001 -0.08558966964 0.7675019503 0.6353071332
0.2687071 0.16965428 1.202 0.5073011518 -0.3325276375 0.7950288653
-0.058776118 -0.060913429 1.2190001 -0.04088782147 0.683488071 0.7288156152
0.12545034 0.0030574049 1.1634002 -0.04239483178 0.7649022341 0.6427497864
-0.084765382 -0.016287591 1.1950002 0.2055794448 0.4104231 0.8884199262
0.16471425 -0.3656134 1.4233999 0.2243967056 -0.2660262883 0.9374839067
0.0590172 -0.27934808 1.4960001 0.5972141623 0.07964747399 0.7981174588
0.35690317 -0.46454266 1.2970001 0.5921953321 -0.2048022747 0.7793334723
-0.12486888 -0.16378587 1.325 0.292499274 0.6105950475 0.7359468937
0.14446568 -0.043696769 1.2248461 -0.1065237299 0.784879446 0.6104236245
0.38735253 -0.27197093 1.3430001 0.6348587275 -0.2710631788 0.72351861
0.27548102 -0.12649754 1.3346667 0.1153432131 0.7438100576 0.6583635211
0.096503466 -0.17008735 1.376 -0.004971573129 0.7075986266 0.7065971494
0.10445813 -0.09334442 1.2876155 -0.09588305652 0.8028967381 0.5883563757
0.054812703 -0.47587395 1.4210002 0.7139623165 -0.04031557217 0.6990224719
0.084959522 -0.13688186 1.3460001 -0.03328381106 0.7618535757 0.6468935609
0.075118154 -0.41611323 1.4150001 0.3783769608 -0.2283490002 0.8970438242
0.32568869 -0.061776072 1.245 0.1038523242 0.790359199 0.6037772894
-0.1056955 -0.14906946 1.302 -0.1441079378 0.4234495461 0.8943843842
0.054083321 -0.10400774 1.2942222 -0.1204023436 0.771718502 0.6244627833
0.41157976 -0.2260066 1.3330001 0.6772587299 -0.2239202112 0.7008426189
0.12472687 -0.13020077 1.3379999 -0.1092380509 0.7783125639 0.618301332
0.21485898 -0.071302056 1.268 -0.03110472299 0.7873918414 0.6156676412
-0.15887742 0.14261438 1.427 0.4177021682 -0.4358493388 0.7972202897
0.29466629 -0.036504403 1.2112501 0.1119643897 0.8185709119 0.563387692
0.30598333 -0.46481022 1.3368094 0.4956965744 -0.2120663226 0.8422070742
0.40815896 -0.37586686 1.2765714 0.7342455983 -0.2269292176 0.6398332119
0.23510486 -0.11826506 1.324 -0.04026189819 0.7593477964 0.6494381428
0.30449539 -0.41459322 1.3562498 0.5451804996 -0.3102191389 0.7788082957
0.30381045 -0.31307259 1.3950002 0.5353979468 -0.3821523488 0.7531989217
0.31523204 -0.0035515828 1.1654706 0.3052054346 0.8190741539 0.4857645035
0.19545853 0.064714976 1.0948571 0.05879167467 0.5530186892 0.831092
0.38078454 -0.082779251 1.2590001 0.1124279425 0.8408664465 0.5294370055
0.19425291 -0.35370797 1.4210001 0.1458625197 -0.2554729879 0.9557498097
0.025373636 -0.16331267 1.3582307 -0.2255783379 0.6916087866 0.6861426234
-0.1451966 0.043983679 1.3745 0.1252561957 -0.5430989265 0.8302736878
0.062888563 -0.29775807 1.4640001 0.5516130924 -0.2234153897 0.8036221862
0.045413345 0.013984534 1.1541764 0.1116505712 0.592728436 0.7976259589
0.1747109 -0.49900305 1.365 0.2151153535 -0.5198224187 0.8267466426
0.29841587 0.044345599 1.141 0.2907620668 -0.2179396302 0.9316435456
0.4123399 -0.47402823 1.2509375 0.7747049928 -0.1312728375 0.6185463667
0.41795263 -0.19442363 1.3280001 0.6143168211 -0.461438477 0.6400698423
0.19528614 0.0039184694 1.165 -0.01509497315 0.8187019825 0.5740202069
0.18373473 -0.058079164 1.25 0.0117370151 0.7999364138 0.5999699235
0.28430822 0.0016963501 1.1610001 0.1185554191 0.8189223409 0.5615254641
0.45722184 -0.41643158 1.2180001 0.4748908877 -0.2139341384 0.8536456227
0.28571969 -0.36562437 1.3810003 0.4562615454 -0.3116660416 0.8334804773
0.45375389 -0.21847411 1.2780001 0.5957250595 -0.2317772508 0.7690194845
0.43586197 0.20312017 1.6090001 0.8743775487 0.226872474 -0.428943783
0.39254239 -0.44540623 1.2830001 0.6581215262 -0.2148244083 0.7216138244
0.26832312 -0.35202023 1.404 0.2307963818 -0.431627959 0.8720265627
0.39221364 -0.32090208 1.312 0.6631886363 -0.2674682736 0.6990290284
-0.12501383 -0.10774115 1.2846667 0.5994657278 0.5812009573 0.5503147244
0.10408783 -0.38579032 1.4150001 0.2156073302 -0.3099510074 0.9259826541
0.46509618 -0.44510594 1.2129201 0.3981868923 -0.1192393303 0.9095214009
-0.18341444 0.1268826 1.4330001 0.4356937706 -0.4487351477 0.7802612782
0.37406346 -0.49466553 1.2837898 0.5598508716 -0.2360455692 0.7942603827
-0.074572839 -0.14421411 1.3145001 -0.2697526515 0.7207657695 0.6385375857
0.42811668 -0.4668408 1.2270001 0.6565030813 -0.1750979125 0.7337195873
0.1292382 -0.43571734 1.404 -0.1945067346 -0.4136504233 0.8894158006
0.19624184 -0.028640701 1.21 -0.01804897003 0.8026903868 0.5961228013
0.3826983 -0.11114293 1.307 -0.2477166951 0.7981603742 0.5491597652
0.18401058 -0.41417763 1.4040002 0.1754344404 -0.2948433757 0.9393029809
0.084727362 -0.21494041 1.423182 0.02043341845 0.7364059687 0.6762312651
0.3537142 -0.03855855 1.2168572 0.4363175333 0.8402982354 0.3217544258
0.27250978 0.35210237 1.2970001 0.5994108915 -0.3342352808 0.7273193002
0.37397459 -0.08139237 1.2270001 0.6178513169 0.7469735742 0.245540753
-0.045716196 -0.18767089 1.37225 -0.5039277077 0.6301629543 0.59072119
0.18790069 -0.32701224 1.427 0.3055777848 -0.5390424728 0.784891963
0.27484715 -0.14643663 1.3563079 0.0534264259 0.7704089284 0.6353075504
0.31291255 0.11208051 1.1570001 0.4563769102 -0.3835275769 0.8028864861
-0.01119591 0.02137401 1.161 0.08532954752 0.4733376503 0.8767384887
0.11493681 -0.35481712 1.425125 0.1177614927 -0.4766639471 0.8711622953
-0.14874403 0.091059364 1.4100002 0.2487517297 -0.3218525946 0.9135280252
0.25510699 -0.08411435 1.2845385 0.02736843377 0.7955691218 0.6052443981
-0.084379166 -0.088762499 1.25 0.001886533224 0.7189278007 0.6950822473
0.26567557 0.25011301 1.268 0.6528116465 -0.248701632 0.7155309319
0.15456842 0.052533764 1.1120001 0.1604450792 0.5782865286 0.7999013066
0.32402006 -0.12510718 1.3238001 0.160171181 0.7274229527 0.6672338843
-0.092431642 -0.19540256 1.3346667 -0.755595386 0.210705325 0.6202248335
0.18438433 0.021005809 1.141 0.00524884183 0.7685771585 0.6397355795
0.17471223 -0.11821324 1.322 -0.002535796491 0.7763475776 0.6302999258
0.24478726 -0.048957448 1.2410001 -0.0008855606429 0.8176134229 0.5757668614
0.22636411 -0.15130652 1.3590001 0.08148403466 0.7565312386 0.6488612294
0.29709563 0.19170858 1.1863333 0.7093461156 -0.2316075861 0.6657221913
0.076277137 -0.022453563 1.1872857 0.01750619151 0.7655118108 0.6431836486
0.12431484 -0.19201104 1.4040002 -0.1829098761 0.7218498588 0.667440474
0.17401764 -0.45176244 1.3920001 0.1472195089 -0.4438378215 0.8839312196
0.35227519 -0.30569389 1.3543848 0.7039849758 -0.3049522042 0.6414119601
0.31477562 -0.33587793 1.3737142 0.5924438238 -0.3853266835 0.7074840069
0.1262812 -0.32681635 1.4356668 -0.1848861426 -0.3474760056 0.9192810059
0.024914866 -0.21675934 1.4210002 -0.07542488724 0.791069746 0.6070582867
0.45393276 -0.49588385 1.2270001 0.4442913234 -0.01807640307 0.8956999779
0.33638334 -0.023080753 1.189 0.2974108756 0.8905675411 0.344145596
-0.11363383 -0.050583083 1.219 0.07187958807 0.5491184592 0.8326477408
0.12304193 -0.47648588 1.376 -0.0854742378 -0.4885755181 0.8683248758
0.23538148 -0.17229219 1.3840001 0.03758443147 0.7303522825 0.6820358634
0.39697251 -0.4981471 1.2589999 0.6751788259 -0.1456911415 0.7231235504
0.2389881 -0.34438798 1.3980001 0.336111486 -0.2223205417 0.9152063727
-0.049062651 -0.21659365 1.365 -0.5462310314 0.398378402 0.7368353605
0.20445283 -0.48438594 1.3700001 0.2172103822 -0.4795862436 0.8501862884
-0.16767828 0.17423524 1.4537143 0.3147175014 -0.371037066 0.8736614585
0.2841281 -0.2654376 1.4215002 0.4456513226 -0.3429214954 0.8269218206
0.0902353 -0.4412877 1.4100001 0.1509277076 -0.3442557156 0.9266654253
0.37117529 -0.38557452 1.3138752 0.5214631557 -0.2284519076 0.8221228123
-0.027359013 -0.15076561 1.3280001 -0.1668356359 0.7440530062 0.6469551921
-0.016719379 -0.024494825 1.1871334 -0.06090382859 0.6474470496 0.7596729994
0.13385686 -0.40451893 1.4121876 0.1431980133 -0.2295847088 0.9626968503
0.13451575 -0.15813607 1.37 -0.1477143019 0.7379665375 0.6584724188
0.044684093 -0.06351091 1.2431818 -0.07765336335 0.7999703884 0.5949935913
0.3188419 0.036523685 1.126 0.1627697498 -0.03247368336 0.9861295223
-0.035180192 -0.12256546 1.2945 -0.09558078647 0.7724174261 0.6278818846
0.42189583 -0.42408749 1.25 0.7304918766 -0.1901996434 0.6559007168
0.30349496 -0.048602398 1.2320001 0.03173276782 0.8243888617 0.5651336312
0.15426362 -0.19307563 1.4127778 0.04076201841 0.6968236566 0.7160832882
0.27425089 -0.071619667 1.268 0.04944652319 0.7758399844 0.6289891601
0.16520448 -0.39452052 1.4128573 0.1775152087 -0.4479811192 0.8762426972
0.044095334 -0.19544956 1.397143 -0.1479247808 0.7419939041 0.6538832188
0.33763248 -0.28546709 1.3731999 0.6324346662 -0.2421630025 0.7357876897
0.2680496 -0.42959735 1.365 0.3620527089 -0.4190667272 0.832646966
0.074705146 -0.15812874 1.3649999 -0.135720402 0.7146897316 0.6861475706
0.20473644 0.033452492 1.1246001 0.01247873344 0.7668620348 0.6416906118
0.34555089 -0.073825106 1.2568462 0.04112496972 0.7773835659 0.6276810765
0.39738962 -0.34587595 1.2940588 0.637537539 -0.1838690341 0.7481564283
0.42678446 -0.38508546 1.2554448 0.6506071091 -0.1501377225 0.7444252968
0.31465781 -0.074506678 1.2655385 0.1084247455 0.7997931242 0.5904024243
0.050054159 -0.35037911 1.4640001 0.1891877353 -0.5697818398 0.7997228503
-0.084482618 -0.11004972 1.268 -0.03068058379 0.7452969551 0.6660264134
0.48062372 -0.36613807 1.2320001 0.07548797131 -0.2894338667 0.9542167783
0.035410319 -0.30033198 1.4960001 0.5264899135 -0.1937933862 0.8277997971
0.33547229 -0.14193058 1.3380001 0.167301476 0.7157538533 0.6780166626
0.44624713 -0.35534495 1.245 0.5943698883 -0.3118174374 0.7412788272
0.27406779 0.018385204 1.138 0.05782624334 0.8218405843 0.5667752028
-0.15668488 -0.021366119 1.3540001 0.1486300528 -0.4197749794 0.895375967
0.36620471 -0.062490731 1.2122 0.7193402052 0.6214784384 0.3103453219
0.26513156 -0.0251667 1.2038946 0.07924415171 0.8106044531 0.5802075267
0.27515885 -0.054236438 1.2427778 0.101158075 0.807689786 0.5808650851
0.32792452 -0.37793264 1.3490001 0.5959045887 -0.3337016106 0.7304388881
0.17491229 -0.0057593398 1.1748824 -0.01774829812 0.8148985505 0.5793318152
-0.04459298 -0.015559605 1.18292 0.1912960559 0.4872466922 0.8520542383
0.29827356 -0.28842685 1.4039999 0.5071085691 -0.3587622344 0.7836648226
0.34330496 -0.45505354 1.3150002 0.6193493605 -0.2006262541 0.759049058
0.19529398 -0.095116235 1.2946668 -0.03178604692 0.7806941867 0.624104321
0.14255214 -0.22076659 1.439 -0.07806633413 0.6697779894 0.7384464145
0.40194348 -0.42488563 1.273909 0.760510385 -0.1267531365 0.6368340254
0.2861684 -0.11265305 1.317 0.1144621968 0.785646975 0.6079944372
0.27940068 -0.31878754 1.404 0.3614329398 -0.3596850634 0.8602283597
0.40714327 -0.14362781 1.3540001 0.491022408 0.2645635903 0.8300018907
0.23613347 -0.47441155 1.3589998 0.3764391541 -0.3011139631 0.8761414886
0.12498502 -0.037358813 1.2121538 -0.09251390398 0.7870758772 0.6098792553
-0.077763841 -0.068043359 1.2320001 0.03420685977 0.7002906799 0.7130377889
0.12529798 -0.10408919 1.3047273 -0.03466973826 0.8114542961 0.5833866
0.045966826 -0.16716203 1.37 -0.1266558766 0.6887575984 0.7138425708
0.30519781 -0.43561623 1.3446368 0.5074680448 -0.2320146412 0.8298466206
-0.0042876517 -0.091946304 1.268 -0.2417308092 0.7436811924 0.6233013272
0.48326251 -0.34080416 1.25 0.1229500547 -0.3257331252 0.9374333024
0.21405819 -0.31369081 1.4343848 0.371961534 -0.4208730161 0.8273515105
0.10516682 -0.015943479 1.184652 -0.13442716 0.7635937929 0.6315487623
0.18562891 -0.14398433 1.3573335 -0.002577209845 0.7688415051 0.6394342184
0.14517432 -0.0045883935 1.1744547 -0.03792421892 0.8123970032 0.5818701386
0.13496108 0.017410891 1.1460001 0.02340224385 0.7358288169 0.6767630577
-0.19802497 0.25517312 1.516 0.8627994061 -0.223113656 0.4536491036
-0.06386096 -0.17733879 1.3540001 -0.5377132297 0.4068240821 0.738484025
0.41891342 -0.29922387 1.2880001 0.6716815829 -0.1501824707 0.7254578471
0.23629701 -0.39639536 1.3870001 0.4067188799 -0.3488357365 0.844330132
0.0047865999 -0.17291592 1.365 -0.1584616154 0.7326093316 0.6619467735
0.045233592 -0.027453912 1.193 0.001335680718 0.7682409286 0.6401594281
0.1513714 -0.34652793 1.427 0.2235036939 -0.5969865918 0.7704888582
0.36412349 -0.090750776 1.2780001 -0.01066469867 0.7735823393 0.6336060762
-0.040935948 -0.20716071 1.4150001 0.3935726285 0.8227590919 0.4100830257
0.33546165 -0.26542798 1.3853338 0.6620845795 -0.3070928752 0.6836212277
-0.0021215333 -0.039248366 1.21 -0.1160689816 0.7463849783 0.6553147435
0.34509632 -0.054092087 1.2340001 0.02221638896 0.7704278231 0.637139976
-0.19044882 0.17766702 1.4580001 0.2399436831 -0.3640827239 0.8999282122
-0.054180697 -0.15287016 1.3279999 -0.05054496229 0.7628750205 0.6445672512
0.2868892 0.14313552 1.1871333 0.5318507552 -0.3906128109 0.7513697147
-0.1696236 0.21494289 1.4770001 0.2885091901 -0.5320281386 0.7960580587
0.13421969 0.042595889 1.123 0.1660856903 0.5324957967 0.829978168
0.18452451 -0.17238489 1.38475 -0.01433266606 0.738948226 0.6736097336
0.41715482 -0.34769127 1.2780001 0.6917176247 -0.2481366247 0.6781998277
-0.03446459 -0.057841975 1.2243334 -0.09150943905 0.719393611 0.6885483861
0.070299901 -0.32849225 1.4580001 0.3115460575 -0.3739098012 0.8735734224
0.075048976 -0.10685672 1.3050001 -0.06255102158 0.7827169299 0.6192265749
0.095422536 -0.048247349 1.223 -0.0527712293 0.8217696548 0.5673710108
0.38163194 -0.35586777 1.312 0.578638792 -0.04944195971 0.8140839338
0.28800988 0.10519141 1.165 0.4570228457 -0.3411662579 0.8214229941
0.075839669 -0.47524068 1.3953753 0.5577292442 -0.1813661307 0.8099656701
0.23488057 0.024811983 1.1323999 0.0893099606 0.7717787623 0.6295881867
0.034368839 -0.23803604 1.452 -0.1552111953 0.8418132663 0.5169718862
0.14923935 -0.31888485 1.455 0.02570814826 -0.2817684412 0.9591379762
-0.14039466 -0.1084349 1.302 0.6730291247 0.4529227614 0.5847159624
0.23511681 0.063658021 1.0942727 0.09776967764 0.6207610369 0.7778796554
0.31175992 -0.15350229 1.3573335 0.2032901645 0.7167073488 0.6670859456
-0.16345663 0.054717153 1.3870001 0.2072781622 -0.5623131394 0.800524652
-0.02496396 -0.17379896 1.3560002 -0.1751071811 0.7532923818 0.6339463592
0.44823107 -0.2664744 1.2771667 0.5278270245 -0.3308158815 0.7822784185
0.25519744 0.046483271 1.1047499 0.04070280865 0.7212921977 0.6914339066
0.10501055 0.012915734 1.153 -0.03727355972 0.7087131143 0.7045114636
0.32442802 0.0018022513 1.1422001 0.2867339551 0.7048718333 0.6487983465
0.41983128 -0.18567187 1.3490001 0.3290675581 -0.2647572756 0.9064315557
-0.11178552 -0.13211016 1.2880001 0.1506780088 0.5354254246 0.8310329318
0.29147524 0.2341911 1.2230002 0.5389884114 -0.4019826055 0.7402036786
0.12394097 -0.17515296 1.3848182 -0.19404459 0.7260213494 0.659727037
0.38317347 -0.24593483 1.3380002 0.7003787756 -0.1624647677 0.6950358152
-0.0012729199 -0.24312772 1.452 -0.2025798112 0.7576542497 0.6204203367
0.36084849 -0.35324386 1.3342501 0.7019003034 -0.1867465228 0.6873584986
0.20185776 -0.20062692 1.404 0.04041644558 0.6177600622 0.7853273153
0.3434847 -0.42438874 1.3231252 0.6401566267 -0.1998865455 0.7417849302
0.1042006 -0.20343927 1.4150001 -0.07941060513 0.7255939841 0.6835256815
0.025047148 -0.015774691 1.1826842 0.04810893163 0.6820867062 0.7296870947
0.24412829 -0.10261034 1.3053334 -0.0811329931 0.758276999 0.646864295
0.054963954 -0.42513472 1.4231176 0.5937011242 -0.2117462307 0.7763262987
-0.038161006 -0.21679938 1.4350001 0.4461997151 0.7894111276 0.4215873182
0.15512355 -0.078789368 1.273 -0.05396443233 0.8265467286 0.5602752566
0.36095819 -0.24612649 1.3740001 0.7036345005 -0.3331339061 0.6276307106
0.38150254 -0.044821337 1.189 0.2557197809 0.7115866542 0.6544095278
-0.18274993 0.25193384 1.4890001 0.690103054 -0.3207200468 0.6487653255
0.28559169 -0.022533841 1.1955001 0.1417205036 0.8127563 0.5651039481
0.026781991 -0.25767916 1.483 0.2786670625 0.6318836808 0.7232342362
0.14667773 -0.10119626 1.2970001 -0.06688034534 0.7673493028 0.637732029
-0.1825916 0.09666355 1.4246 0.4043415189 -0.2800403237 0.8706809878
0.23476924 -0.037905511 1.2245386 -0.0234174747 0.8091147542 0.5871838927
0.12439129 -0.45420316 1.3920001 0.09730250388 -0.2905046046 0.951913476
0.2555396 -0.30569053 1.4150002 0.2541599572 -0.4527269304 0.8546584249
0.22370614 -0.43490201 1.381 0.3111448288 -0.3176445663 0.895706892
0.34817868 -0.00099764671 1.138 0.02426574193 0.6883512735 0.7249714732
-0.073394537 -0.21699251 1.3649999 -0.03056429699 0.7205305099 0.6927493215
0.043463964 -0.13233225 1.3280001 -0.1196043193 0.7869355083 0.6053323746
0.28373769 0.27524629 1.2565714 0.4069537818 -0.4116235077 0.8154475689
0.24557374 -0.49511001 1.3486474 0.2293285877 -0.3051048517 0.9242939949
0.33629328 -0.11171582 1.307 0.1312016249 0.7376586795 0.6623034477
0.085447267 -0.35435799 1.4333752 0.2689094543 -0.393907994 0.8789335489
0.26390421 0.38390723 1.3238001 0.410880357 -0.3759209216 0.8305785656
0.073850393 -0.1969344 1.4040002 -0.05083234981 0.7457505465 0.664283216
0.31295371 0.13319011 1.1636668 0.4635667503 -0.3638916612 0.8078915477
0.37617937 -0.46555799 1.2868891 0.5943745375 -0.2348921895 0.7691193819
0.42281482 -0.45444515 1.2441114 0.755556047 -0.137386784 0.6405153871
0.30488032 -0.35520101 1.3734739 0.5801879764 -0.2823488116 0.76397717
0.29441738 -0.012038094 1.177 0.09069297463 0.7992985845 0.5940509439
0.41821823 -0.23832709 1.307 0.7116049528 -0.1778481305 0.6796973348
0.30358711 0.065318719 1.1429051 0.5645684004 -0.2319111526 0.7921361923
0.44236177 -0.20473321 1.3120002 0.6491372585 -0.336856842 0.6820178032
0.29316345 -0.48389634 1.3430001 0.4538857937 -0.3095008433 0.8355817795
0.065016232 -0.072731771 1.2570001 -0.03797027469 0.7902421951 0.6116171479
0.2587499 -0.38722014 1.376 0.3171626031 -0.3244752884 0.8911361694
0.20501377 -0.17572609 1.3920001 0.007938341238 0.7031672597 0.7109801173
0.12537314 -0.075004801 1.2656 -0.06415913999 0.7997134924 0.5969438553
-0.034870297 -0.078459911 1.243 -0.08625666797 0.7264175415 0.6818191409
0.0045667756 -0.11767913 1.3032501 -0.1907779574 0.7377471328 0.647559166
0.41535166 -0.27519444 1.3039565 0.7031447291 -0.2881432176 0.6500469446
0.022770541 -0.20370401 1.404 -0.08320099115 0.7834716439 0.6158326268
0.3747074 -0.41542038 1.3028823 0.5642114282 -0.2364635319 0.7910439372
0.034209725 -0.038452789 1.21 0.009405082092 0.8073964715 0.5899343491
0.31750676 -0.49613518 1.3170002 0.5706852674 -0.2537589371 0.7809767723
0.45420125 -0.30436566 1.2646154 0.4848077893 -0.3003421426 0.8214353323
0.15442309 -0.43683171 1.398 0.03996138275 -0.5000143647 0.8650946021
0.38609257 -0.28690016 1.3269092 0.6494868398 -0.3305117488 0.6847838163
0.05438314 -0.27062085 1.4770001 0.5112074018 0.2469578236 0.8232125044
0.31499925 -0.093036242 1.2863334 0.05672735348 0.7525466084 0.6560911536
0.42826527 -0.31566709 1.278 0.6747536659 -0.1912568063 0.7128311992
0.20467114 -0.4541539 1.3814616 0.2497280687 -0.3124870658 0.9165084362
0.19521342 -0.046537239 1.2344615 0.004709134344 0.8039713502 0.5946493745
0.2349062 -0.28567016 1.4355003 0.4149142504 -0.5458669066 0.7279254794
0.044887673 -0.29824403 1.4770001 0.5808558464 -0.3274157345 0.7452552319
0.36310875 -0.32477278 1.3358947 0.6918287277 -0.3142022491 0.6501153708
0.16559881 -0.17620064 1.3946667 0.04146386683 0.7452312112 0.6655157208
0.045574516 -0.051407855 1.2252858 -0.05259668082 0.8094280958 0.5848587155
0.15467437 -0.47371376 1.3820003 0.1699061096 -0.3281641006 0.9292148352
0.13571443 -0.13887978 1.3540001 -0.09671581537 0.7314730287 0.6749765277
