# .PCD v0.7 - Point Cloud Data file format
VERSION 0.7
FIELDS x y z normal_x normal_y normal_z
SIZE 4 4 4 4 4 4
TYPE F F F F F F
COUNT 1 1 1 1 1 1
WIDTH 512
HEIGHT 1
VIEWPOINT 0 0 0 1 0 0 0
POINTS 512
DATA ascii
0.014154661 -0.012057673 1.794 -0.2803675234 0.9047892094 0.3205472231
0.4848668 -0.4958865 4.1900001 -0.1729265004 0.9458079934 0.274852097
-0.32318139 -0.19780931 3.1780002 -0.1957941055 0.895621717 0.3994076252
0.33567214 0.19347771 2.6590002 -0.7642599344 0.5100685358 0.3946350217
0.40823123 -0.12217139 3.3990002 -0.4328653514 0.8882685304 0.1536445916
-0.47531992 0.41702595 1.705 -0.1637793928 0.9809044003 0.1048947051
-0.14624904 0.25390458 2.3170002 -0.237804547 0.9005245566 0.3640117645
-0.2546984 -0.49734485 1.8330001 0.04504369199 0.8978886604 0.4379121661
0.095947661 -0.38709918 3.7740002 -0.1322117895 0.9078547359 0.3978942335
-0.33597374 -0.0140968 2.6800001 -0.1874590665 0.902849853 0.3869382441
0.20585361 0.38802493 2.0780001 -0.1350847632 0.9535163045 0.2693673372
0.084406048 -0.35401964 2.0780001 -0.6457214355 -0.2600679994 0.7179195285
0.49297246 -0.29446006 3.7740002 -0.5720490217 0.6957798004 0.4343390763
-0.14689645 0.45411992 1.9150001 0.9592533708 -0.2821508646 -0.01496218983
-0.0090287896 -0.24979652 3.4330001 -0.3857983649 0.6521713734 0.6525581479
-0.49427167 0.2656931 2.016 -0.2970381975 0.9256657958 0.2343313396
-0.29561463 -0.14862393 1.863 0.7817414999 -0.1824592799 0.5963127017
0.26926729 0.33188757 2.381 -0.850459218 0.420137763 0.3165492415
0.17358789 -0.49596539 4.0410004 -0.1589510143 0.891094625 0.4250705242
0.24386938 -0.042934749 1.9590001 -0.4198212624 0.8218432069 0.3851284385
-0.48273912 -0.14659093 2.8830001 -0.325714767 0.8713960052 0.3668499887
-0.14650153 0.28560397 1.6880001 0.9890324473 -0.09987799823 0.1088081226
-0.27058491 -0.30098772 3.4680002 -0.1635415852 0.8632606268 0.4775303006
-0.051558521 -0.12978524 2.0280001 0.1204890609 0.9339029789 0.3366119862
-0.11275862 0.10833671 2.5220001 -0.2064014971 0.8224965334 0.5299979448
0.40854156 0.067672528 2.8590002 -0.7050126791 0.6092076898 0.3630745411
-0.096242219 -0.33938041 1.9260001 -0.5611680746 -0.1843043566 0.8069214821
0.21496743 -0.23339321 3.5030003 -0.2062536031 0.8944311738 0.3968026638
0.3281565 -0.42288208 3.8590002 -0.239273712 0.8978896737 0.3695162237
-0.13139217 0.066418022 1.6470001 0.1227361113 -0.1462344527 0.9816064835
0.20288345 0.070773296 1.794 -0.7286174893 0.2163730413 0.6498456001
0.49845862 -0.25393176 3.5760002 -0.5257773995 0.7123778462 0.4648396671
-0.28349647 -0.31261232 1.748 0.3910760581 -0.05143940076 0.9189197421
-0.0095048202 -0.38336107 3.6140001 -0.4131224155 0.8638038635 0.2883969545
0.0025905499 -0.49652207 1.9700001 -0.6970794201 0.1541715115 0.700222373
0.33984861 -0.34632191 3.6920002 -0.2767528296 0.8203958869 0.5003583431
-0.16036688 -0.05760752 1.7760001 -0.2012131363 0.8781070113 0.4340983033
-0.193831 -0.211189 3.3000002 -0.206209287 0.8884022236 0.4101453722
-0.15498765 0.32320595 2.1560001 -0.1922316551 0.9080696702 0.3720973134
0.42863566 -0.059611581 3.2380002 -0.4129798114 0.8947003484 0.1701732725
0.034989521 0.10059487 1.6630001 -0.4753774405 0.07451273501 0.8766208887
0.076375201 -0.072980747 1.9360002 -0.09774517268 0.8706566095 0.4820819199
-0.42905119 0.20980036 2.1560001 -0.4085447192 -0.442227155 0.7984524965
0.47470975 -0.4286558 4.0410004 -0.455847919 0.8183679581 0.3499665856
0.020665662 -0.21980751 2.1430001 -0.8434724212 0.01420251094 -0.5369846225
-0.14941469 -0.17963338 1.9150001 -0.684420526 -0.5959142447 0.4200651646
-0.137087 0.42512372 1.7570001 0.6606875062 -0.371486187 0.6522959471
-0.17752938 0.33220845 2.0050001 0.9949478507 -0.0998583138 0.01034947578
0.15478572 -0.31490889 3.6530001 -0.1619463414 0.8813348413 0.4438719153
0.16081661 -0.43454701 3.9030001 -0.07604280114 0.9105635881 0.406314522
-0.10441275 -0.35316077 3.5030003 -0.09209634364 0.7808285356 0.6179199815
-0.11390267 -0.48367363 1.8830003 -0.4931266308 0.01847294718 0.8697614074
0.3152923 -0.46408191 4.0410004 -0.121797137 0.9594857097 0.2540721297
0.26657066 0.14479464 2.5410001 -0.8091858029 0.4739825428 0.3472159803
-0.46761662 0.35834539 1.8330001 -0.005409447011 0.895365417 0.4452993572
-0.0073824101 -0.26611829 2.0050001 -0.6840478778 -0.1787185073 0.7072045207
-0.17896605 -0.37414396 1.8130001 -0.8441931009 -0.1806874573 0.5046682358
-0.064755857 -0.074718297 1.8940001 -0.1634811908 0.923958838 0.3457946479
0.085084885 -0.13215311 2.0650001 -0.213986069 0.9448137879 0.2480662763
0.096178226 -0.27612457 3.5390003 -0.5203641653 0.7962536216 0.3085470796
-0.21447352 -0.23620853 1.8230002 -0.8679192066 -0.105950512 0.485273838
0.12440864 -0.0080784829 1.8430001 -0.1456319541 0.8666138649 0.4772543609
-0.073584773 -0.01051211 1.7129999 -0.2973686159 0.8921986222 0.3399316967
-0.25307089 -0.42839104 1.7390001 -0.06692764908 0.01218729652 0.9976834059
0.10366759 0.047260225 1.7390001 -0.3159115016 0.7484967709 0.5830544829
-0.0052100299 -0.38206887 1.9810001 -0.7669600248 -0.2315352261 0.5984678268
0.0092128897 -0.34394789 3.5030003 -0.4387893975 0.7165235877 0.542271018
-0.11948615 0.17554606 1.6826668 0.8291348815 -0.1277881265 0.5442476869
0.4364143 -0.40258375 3.8590002 -0.504539609 0.764522016 0.4011806548
0.36416119 -0.21368136 3.4330001 -0.4315771163 0.889685154 0.1490015686
0.069747597 -0.45425361 2.0400002 -0.6863645315 -0.2549303472 0.6811124682
0.25726455 -0.29355913 3.6530001 0.002118541859 0.8376537561 0.546197474
0.2564171 0.015632344 1.863 -0.2434355319 0.632996738 0.7348838449
-0.16255766 -0.087025821 1.8730001 -0.2985731363 0.8809159398 0.3672072887
0.1555005 -0.096095823 1.9930001 -0.1138879433 0.8839926124 0.4534165561
-0.25271407 -0.065165266 1.8130001 0.6075969338 0.6269914508 0.4875527918
0.39371625 -0.37386501 3.7740002 -0.4935461581 0.7737630606 0.3971182108
-0.29270849 -0.19462 1.7760001 -0.5440181494 -0.3323367238 0.7704521418
-0.094456442 -0.24558677 1.9589999 -0.4524104595 -0.1965534687 0.8698801994
-0.15352097 -0.27567747 1.8830003 -0.8103533983 -0.1483621299 0.5668474436
-0.44719994 0.30723661 1.9470001 -0.1889666617 0.9458172321 0.2640479803
-0.10811141 -0.22498861 3.3330002 -0.1808054298 0.8611668348 0.4750801027
0.2660552 0.13649787 2.6390002 -0.7689264417 0.5016896725 0.3963074088
-0.042387273 0.045260984 1.6390001 -0.1267348528 0.6075091958 0.7841370106
0.16396441 -0.047566473 1.9150001 -0.09915002435 0.8649228215 0.4920139611
0.49730933 -0.33492261 3.8590002 -0.521481514 0.7363800406 0.4310469329
0.22794473 0.3409085 2.3010001 -0.8563423753 0.4097999334 0.314231962
-0.075912319 -0.042700678 1.8040001 -0.2667867243 0.9224789143 0.2790295184
-0.17165485 -0.46887201 1.8130001 -0.7383365035 0.3318663538 0.5871319175
0.32783389 0.23287511 2.5790002 -0.8091858029 0.4739825428 0.3472159803
0.015317646 0.025529411 1.7130001 -0.4670844972 0.7615686059 0.4492720366
-0.16503777 -0.019328747 1.6960001 -0.08929014951 0.9043287635 0.4173927605
-0.0062970966 -0.093311526 1.9590001 -0.2817052603 0.8587208986 0.4280661345
0.060116541 -0.26414841 2.0780001 -0.7532397509 -0.244943127 0.6104365587
-0.065849945 -0.42380345 1.9260004 -0.4004912078 -0.1487588733 0.9041446447
-0.11571123 -0.1191653 1.9700001 -0.1716575623 0.8403289914 0.5141798258
0.01477797 -0.047617901 1.8730001 -0.1555405706 0.8995059729 0.4082843363
-0.15515685 0.34440991 1.748 0.9173976183 0.003007418243 0.3979605436
-0.13628572 -0.40557316 1.8730003 -0.7473035455 -0.171544522 0.6419578195
0.093862943 -0.34632191 3.6920002 -0.3664659858 0.8437802196 0.3920939565
-0.14440805 0.29076755 2.2260001 -0.1985544115 0.8967908621 0.3954013586
0.098108642 -0.42626512 3.8590002 -0.09492336214 0.9184918404 0.383877933
-0.053020798 -0.20678112 2.016 -0.2832263112 -0.6996705532 0.6559298635
0.035557602 -0.32535204 2.0280001 -0.6129075289 -0.0436059162 0.7889505029
-0.22175634 -0.30511156 1.794 -0.6043564081 -0.1568530053 0.781121254
0.47286084 -0.11176711 3.2690001 -0.1207816005 0.8674108982 0.4827112257
-0.25592354 -0.19967662 3.2080002 -0.1976383626 0.8944701552 0.401076287
-0.21345955 -0.18226163 1.8730001 -0.7363063097 -0.5629064441 0.3754855394
0.033579841 -0.11664575 2.016 -0.0382972993 0.811868906 0.5825823545
-0.25328216 -0.28903964 3.3990002 -0.04386395216 0.8849425316 0.4636299014
0.095048204 -0.3073225 3.6140001 -0.4693362117 0.7804643512 0.413036257
-0.044902865 -0.3160471 1.9700001 -0.2994963527 -0.3055486977 0.9038484097
-0.058251869 -0.49471879 1.9260001 -0.5661143661 -0.0123716332 0.82423383
0.14433527 -0.23646417 3.5030003 -0.2242622226 0.9021713138 0.3685016036
-0.22526936 -0.36466685 1.7570001 -0.531068027 -0.3111154139 0.7881458998
-0.14938313 0.37255791 2.0530002 -0.8702247739 0.4715835452 0.1425405443
0.29209131 0.29209131 2.4320002 -0.7900101542 0.4899851978 0.3685083687
-0.21396892 -0.051595341 1.7310001 0.5031298399 0.6158807278 0.6062600613
0.41491407 -0.10811141 3.3330002 -0.430409193 0.8876157999 0.1639698297
0.19435436 -0.01143261 1.863 -0.410353601 0.7397016287 0.5333398581
0.14722741 -0.35661748 3.7320001 -0.1579702646 0.8876950145 0.4324846864
-0.29260853 -0.37621099 1.766 0.3639492393 -0.02588395029 0.9310590625
0.34863544 -0.15196928 3.3990002 -0.4268606305 0.8915709853 0.151298359
0.085102707 0.013805161 1.794 -0.2296798527 0.8423684239 0.4875065088
-0.11809401 -0.18756108 1.9810001 -0.5418208838 -0.5202550888 0.6601248384
-0.2655029 -0.25402734 1.785 -0.003317922354 -0.2057020664 0.9786090255
-0.22575919 -0.48110065 1.7760001 -0.1158854365 0.7416604161 0.6606892943
0.42018458 -0.3143113 3.7740002 -0.5558227301 0.7344520688 0.3894114196
0.046224881 -0.39468935 2.0280001 -0.7154118419 -0.1591073275 0.6803460717
0.083704129 0.10014602 1.705 -0.5028297901 -0.2751154006 0.8194350004
-0.1584233 -0.33644539 1.863 -0.8056759834 -0.298081249 0.5118923783
0.14597814 0.035097349 1.785 -0.2678456306 0.7641902566 0.5867469311
0.49710768 -0.46082246 4.1390004 -0.2416554689 0.9184248447 0.3132066727
0.094330788 -0.10487709 2.0050001 -0.0195127558 0.8593321443 0.5110455751
0.0071991868 -0.22857417 2.0530002 -0.7926803827 -0.4463588893 0.4152367413
-0.16370785 0.4307265 1.8130001 0.842659235 -0.324888438 0.429386735
0.027325699 -0.1512022 2.0780001 -0.1859718859 0.8896617889 0.4170328677
-0.11631386 0.011426298 1.6710001 -0.06540991366 0.5901346207 0.8046506643
0.19958018 -0.4656871 3.9940002 -0.1541188806 0.8894523978 0.4302578568
0.083528623 -0.042589694 1.8830001 -0.1297847033 0.8456943631 0.5176455975
-0.15816031 0.14479464 2.5410001 -0.2239723206 0.825191617 0.5185510516
-0.20271619 -0.42442733 1.7760003 -0.894754827 0.04624778032 0.4441564977
0.33416253 -0.38048211 3.7740002 -0.3316048086 0.8645365834 0.3776437044
0.019219164 -0.44378793 1.9930001 -0.6696787477 -0.4026538432 0.6240193844
-0.025284819 -0.0068958602 1.748 -0.3206994534 0.8485018611 0.4209470451
-0.19497593 -0.084702656 1.8230001 -0.3466227651 0.8686560988 0.3539622128
-0.29574174 -0.33053491 1.8040001 0.9068360329 -0.02971401624 0.4204348922
-0.12638026 0.34197015 1.6960001 0.8080200553 0.08074647933 0.5835954547
-0.11471447 -0.068397827 1.8430001 -0.2612858117 0.9252745509 0.274948597
-0.1310792 0.11536934 1.6799999 0.8801726699 -0.1880273372 0.4358231425
0.23535345 -0.023368426 1.9040002 -0.08531790972 0.7636474967 0.6399713755
0.14864409 0.084282734 1.748 -0.6480039954 0.2313147932 0.7256612778
-0.11583835 -0.094013743 1.9150001 -0.2784459889 0.8783912659 0.3884541392
-0.11493101 -0.034223899 1.748 -0.2069059461 0.9030433297 0.3764341772
-0.19226789 -0.2924411 1.8430001 -0.7596379519 -0.1791287065 0.6251904368
-0.015849506 -0.44646841 1.9470003 -0.6245126724 -0.1880239993 0.7580441236
0.14355767 -0.4796927 3.9940002 -0.08962475508 0.9033532739 0.4194284379
0.45831433 -0.32449991 3.8160002 -0.538262248 0.7126020789 0.4499689937
0.13381439 -0.39809784 3.8160002 -0.1043887958 0.9095332623 0.4023086429
0.037114561 -0.49662817 2.016 -0.6169855595 0.4096519947 0.6719479561
-0.033929631 -0.050086599 1.8430001 -0.1579708904 0.9129123688 0.3763458133
-0.066567928 -0.096153677 1.9470001 -0.1121240929 0.9035782814 0.413490653
-0.049499229 -0.37380454 1.9470001 -0.5211193562 -0.2445775419 0.8176897168
-0.17569365 -0.22495355 1.8730003 -0.5442252159 -0.3132856488 0.7782486677
0.058385123 -0.016604943 1.8330001 -0.1753941029 0.8752449751 0.4507584274
-0.11650375 -0.28534973 1.9260004 -0.5276619196 -0.1224094108 0.8405883908
-0.26689327 -0.12305857 1.8230001 0.6427457929 -0.1669498384 0.7476667166
0.19406506 -0.066978209 1.9590001 -0.1697032005 0.8634163737 0.4750926495
-0.25271407 -0.19867459 1.8130001 -0.3692165017 -0.7403098941 0.5618010759
0.081977099 -0.41717234 2.0780001 -0.8297555447 -0.09440539032 0.5500848889
0.13142899 -0.08022289 1.9470001 -0.1346877515 0.870343864 0.4736673236
-0.036035907 0.016834803 1.6848001 -0.3019099534 0.8341196179 0.4616219699
0.21436445 0.035031077 1.8329999 -0.502796948 0.6206856966 0.6016182899
0.046209101 0.020023944 1.7570001 -0.2773347795 0.8673821688 0.4131992459
0.36464423 -0.3947525 3.8160002 -0.2382927835 0.8992251754 0.3668932617
-0.16123654 -0.11371419 1.9360001 -0.2403045595 0.8897787333 0.388004601
-0.13934179 -0.23503433 1.9150001 -0.8590965867 -0.1263179034 0.49598068
0.004108618 0.055797685 1.6630001 -0.4513219893 0.468454212 0.7595124245
0.49349228 -0.44330668 4.0890002 -0.455847919 0.8183679581 0.3499665856
0.064272813 0.049325649 1.705 -0.3551478684 0.71997118 0.5962478518
-0.15432402 -0.49546131 1.853 -0.5820472836 0.4806863368 0.6558670998
-0.22264528 -0.02958224 1.7760001 0.5444476604 0.2442333698 0.8024504781
0.36316091 -0.36643264 3.7320001 -0.530849576 0.7586904168 0.3776077032
-0.053836975 -0.26571152 1.9810001 -0.5112380385 -0.2183031142 0.8312517405
0.14882644 -0.45340148 3.9480002 -0.08962475508 0.9033532739 0.4194284379
0.027578181 -0.06810122 1.9260001 -0.1317949444 0.9135346413 0.3848175406
0.16780715 0.011187144 1.8230001 -0.2441490889 0.8285015225 0.5039607882
0.044902865 -0.091532767 1.9700001 0.009983301163 0.8937354088 0.4484833777
0.0304028 -0.27720201 2.0400002 -0.6624019742 -0.4801345766 0.5750603676
-0.15828259 -0.425033 1.8330001 -0.7925758362 -0.06692905724 0.6060891747
-0.19863163 -0.10849626 1.904 -0.2141417563 0.9295985103 0.299983114
-0.0017884 -0.1412836 2.0400002 -0.2505602241 0.8517580032 0.4601389468
-0.12453049 -0.36296487 1.8940001 -0.7185018063 -0.09343681484 0.6892203689
0.15223755 -0.41611597 3.8590002 -0.08341640979 0.9175986052 0.3886573017
0.10607053 -0.44481188 3.9030001 -0.07092045993 0.9143053293 0.3987681866
0.016695241 -0.17993759 2.1160002 -0.9591761231 -0.07141438127 -0.2736441195
0.41482463 -0.38471639 3.8160002 -0.5214776993 0.7152889967 0.4652124345
-0.01502256 -0.071774453 1.9039999 -0.2305872887 0.8756422997 0.4243583679
0.37551928 -0.41611597 3.8590002 -0.3526065052 0.845436275 0.4011310339
-0.088202745 0.054671124 1.6630001 0.2692275941 -0.05291109905 0.9616219997
-0.14187974 -0.3188121 1.904 -0.6957471967 -0.3180142045 0.6440518498
0.37619957 -0.11737427 3.4330001 -0.4764649272 0.8770340681 0.06158231571
0.1304103 -0.041269083 1.8830001 -0.1614559442 0.7758280039 0.6099367738
-0.10555442 -0.43384054 1.8940001 -0.6471961141 -0.1717081666 0.7427337766
-0.0069887871 -0.33720896 1.9930001 -0.8166720867 0.01332285255 0.5769481659
-0.13202336 0.30805454 1.7310001 0.8982407451 -0.1287081987 0.4202353954
0.36579794 -0.12684928 3.3650002 -0.430409193 0.8876157999 0.1639698297
0.1488843 -0.37386501 3.7740002 -0.1676624864 0.8934103251 0.4167821109
0.065171406 -0.31499511 2.0650001 -0.6588710546 -0.04532224312 0.7508893609
0.49402973 -0.2780962 3.7320001 -0.4939588904 0.8185102344 0.2933352888
0.16475022 -0.29464942 3.6140001 -0.1599003077 0.8828610182 0.4415747523
-0.284502 -0.16688664 1.8130001 -0.1431658715 -0.5321134329 0.8344811797
-0.0869627 -0.38579208 1.9150002 -0.5808302164 -0.2697118521 0.7680441141
0.1456494 -0.33661196 3.6920002 -0.1774020195 0.8865247965 0.4273198843
-0.081576027 -0.292815 1.9590001 -0.6112541556 -0.218740806 0.760605514
-0.13720711 0.38417989 1.7390001 0.7835845351 0.3588255048 -0.5071879029
-0.1179555 -0.05190042 1.794 -0.2871202826 0.8816901445 0.374412179
-0.024513353 -0.03083938 1.8040001 -0.2822339833 0.8840824366 0.3724811971
0.035028968 -0.23782827 2.1030002 -0.3760350347 -0.8578060865 0.3503803313
-0.21438444 -0.073547952 1.785 0.008136665449 0.7925370932 0.6097694039
-0.026207952 -0.11298538 1.9930001 -0.0069686356 0.8722801805 0.488956809
-0.064384684 -0.024952915 1.7570002 -0.3059188426 0.8898031712 0.3386206925
0.32913485 0.1823265 2.7010002 -0.7642599344 0.5100685358 0.3946350217
-0.2956751 -0.28466594 1.794 0.4960081577 -0.2815250754 0.8214131594
0.099276364 -0.32665128 3.6530001 -0.4257659316 0.7984234691 0.4257268012
-0.15342368 -0.071917348 1.8230001 -0.2872965634 0.923627317 0.253718853
0.22498071 -0.20977932 3.4680002 -0.1533037126 0.9064169526 0.3935813308
0.01124851 -0.030531669 1.8330001 -0.2987445891 0.8467071652 0.4402711391
-0.016626483 0.085185073 1.6390001 -0.5562824607 -0.07130803913 0.8279281259
0.016348083 -0.3658435 2.016 -0.4336428642 -0.221936807 0.8733257651
-0.20503215 -0.49620968 1.8130001 -0.2903399467 0.7519537807 0.5918346047
0.057657491 -0.4665015 1.9930001 -0.5941328406 -0.004677059595 0.8043532968
-0.20445621 -0.34443006 1.794 -0.8248801231 -0.1044570282 0.5555731654
-0.13645491 -0.45647418 1.853 -0.7647859454 -0.2179756463 0.6062912345
0.25488997 -0.2180384 3.5030003 -0.148989141 0.8835200667 0.4440658987
-0.11509319 -0.016441884 1.7050002 -0.1593718827 0.9004756808 0.4046531618
-0.075129457 -0.12521577 1.9930001 -0.3546845913 0.8407294154 0.4091123343
0.066170797 -0.3594684 2.0400002 -0.7358832359 -0.2265345305 0.6380892992
-0.21532862 -0.19443852 1.8330001 -0.6129435897 -0.5460911989 0.5710381269
-0.24554345 -0.3251206 1.766 -0.4971618056 -0.09194537252 0.8627724051
-0.1946165 -0.016243581 1.7479999 0.5391433239 -0.2377521992 0.8079593778
-0.078451149 -0.46569934 1.9039999 -0.6120995283 -0.1462811232 0.7771331668
0.26904988 0.16052556 2.5790002 -0.8091858029 0.4739825428 0.3472159803
0.10748371 -0.25488997 3.5030003 -0.3104087412 0.7874054909 0.5325776935
-0.15385646 -0.042655092 1.7376667 -0.1185256168 0.828438282 0.5473954082
0.16417512 -0.228021 3.4680002 -0.2242622226 0.9021713138 0.3685016036
-0.075442865 0.012451734 1.6710001 -0.2919191718 0.7468570471 0.5974844694
0.29447848 0.33154568 2.3490002 -0.8563423753 0.4097999334 0.314231962
-0.075476117 -0.057472639 1.8430002 -0.2520387173 0.8878530264 0.3849591017
-0.12630838 -0.20823814 1.9470001 -0.7185040712 -0.4635622203 0.5185189843
0.2110575 -0.047276877 1.9260001 -0.3449888825 0.7866029143 0.5120922923
-0.28417677 -0.18666513 3.1780002 -0.1957941055 0.895621717 0.3994076252
-0.08561264 -0.21390679 1.9930001 -0.5765861869 -0.5573763847 0.597394228
0.10660485 -0.056240357 1.9150001 -0.06515306979 0.8800413609 0.4704065323
-0.22690324 -0.2660245 1.7850001 -0.4263560176 -0.1654723287 0.8892915249
-0.15378253 -0.37525102 1.853 -0.8498945832 -0.2712292969 0.4517896771
0.095418595 -0.085056387 1.9700001 -0.03588339314 0.8853829503 0.4634753168
-0.13927165 0.45380652 1.7850001 0.8497984409 -0.3071786165 0.4283501804
0.20838134 0.3753337 2.1160002 -0.1420357376 0.9604605436 0.2394606769
-0.01826272 -0.22681119 2.016 -0.6637974977 -0.3665744364 0.6519172192
0.097183757 -0.29468626 3.5760002 -0.4986075163 0.7866571546 0.3640893996
-0.18479694 -0.33584833 1.8329999 -0.7969600558 -0.1789848208 0.5769047141
0.084054798 -0.39881319 2.0400002 -0.7525234818 -0.2043502182 0.6260585785
-0.029016789 -0.40794194 1.9470001 -0.5171468258 -0.3833566308 0.7652429938
-0.26306427 -0.3560307 1.748 -0.02894930728 -0.1510152519 0.9881074429
-0.23474854 -0.29795006 3.4330001 -0.1610809565 0.8639653325 0.4770920873
-0.00176736 -0.30575326 2.016 -0.6750710607 -0.240942508 0.6972988844
0.425271 -0.089682996 3.3000002 -0.430409193 0.8876157999 0.1639698297
0.021281959 -0.33139053 3.4680002 -0.3894785345 0.6779366732 0.6234647632
0.072893083 -0.133341 2.0280001 -0.1872914284 0.8452170491 0.5005297661
-0.19006221 -0.25504074 1.853 -0.7926912904 -0.3200893998 0.5188287497
-0.20343052 -0.38495311 1.785 -0.8495137691 -0.1674696058 0.5002802014
0.15679008 -0.02123199 1.863 -0.09197977185 0.8315942883 0.5477140546
-0.25545189 -0.28796396 1.7659999 -0.3126567602 -0.590415597 0.7440801263
-0.054309499 -0.13939439 2.0650001 0.07185041904 0.9423561096 0.3268065751
0.012322427 0.0030806067 1.7570001 -0.4005954266 0.8252487183 0.3981053829
-0.10399809 -0.077585876 1.883 -0.1967802048 0.9278574586 0.3167934418
-0.18305266 -0.19306771 1.9039999 -0.554405272 -0.6506575942 0.5189214349
0.0031025233 -0.35368764 3.5390003 -0.4895280302 0.7309110761 0.4755325913
0.024460753 -0.40185523 1.9930001 -0.6673214436 -0.1712175012 0.7248218656
0.11077823 0.10167317 1.7310001 -0.5041117072 -0.2507960498 0.8264216781
0.18463968 0.038060308 1.794 -0.4819107354 0.6565517187 0.5802602172
0.09701544 -0.40478855 3.8160002 -0.09865383804 0.9135258198 0.3946365416
0.49511325 -0.31780919 3.8160002 -0.5396143198 0.7191334963 0.4377937913
-0.21913511 -0.44286746 1.748 -0.3603533208 0.2949378192 0.8849616647
0.048754938 0.00157274 1.794 -0.2866548896 0.8426100016 0.4558918476
0.035394538 0.061931238 1.6820002 -0.4897164702 0.5798686743 0.651099205
0.00304028 -0.25234324 3.4680002 -0.3645129502 0.6297430992 0.6859692931
-0.2952964 -0.2053013 3.2080002 -0.1957941055 0.895621717 0.3994076252
0.19426759 -0.031547725 1.8940001 -0.3518120944 0.7555510402 0.5526037812
-0.17871027 -0.41593623 1.8040003 -0.7711390257 -0.1730134487 0.6127078533
0.054415047 -0.056418061 1.904 -0.09342484921 0.9079602361 0.4085094929
-0.045588419 -0.45419571 1.9260004 -0.3846794963 0.01583156176 0.9229144454
-0.02389618 -0.48645791 1.9470001 -0.565920949 0.1226371005 0.8152874708
-0.23591101 -0.22490181 1.794 -0.5648547411 -0.2042611688 0.799510181
-0.17481522 -0.20920511 3.2690001 -0.209387973 0.8856139779 0.4145414233
-0.26510751 -0.39536262 1.7479998 0.251560092 -0.1749358326 0.9519007206
0.17504679 0.085187957 1.7760001 -0.4953460395 0.04727925733 0.867408216
-0.28466594 -0.22490181 1.794 -0.04800524563 -0.1571359932 0.9864095449
-0.20366982 -0.45530826 1.794 -0.6211140156 0.1755429506 0.7638075948
-0.02797794 -0.35473263 1.97 -0.4977030456 -0.1915540546 0.8459306955
0.12715173 0.011125777 1.8130001 -0.188707754 0.8058989048 0.5611740351
-0.2738733 -0.29494047 3.4330001 -0.04740775749 0.8848471045 0.4634631276
-0.20821096 -0.27814442 1.8130001 -0.8837127686 -0.2016838789 0.4223450422
0.053079978 -0.035114445 1.863 -0.2139205337 0.8814599514 0.4210301042
0.094291635 -0.0042617689 1.8230001 -0.2443452328 0.8290406466 0.5029781461
-0.073275305 -0.33374611 1.959 -0.5508830547 -0.3023630083 0.7778846025
-0.026207952 -0.29527622 1.9930001 -0.6571255922 -0.4095173478 0.6328361034
0.053020798 -0.43477055 2.016 -0.5548020005 -0.1864783764 0.8108147383
-0.26820564 -0.15672258 1.8430001 0.7019248605 -0.269743681 0.6591963768
-0.15189478 -0.098481223 1.904 -0.287357837 0.8947738409 0.3417678773
-0.11426298 0.086429693 1.6710001 -0.02894314751 -0.1087943017 0.9936428666
0.044994917 -0.13498475 2.0530002 0.02604244091 0.945596993 0.3242964149
0.27311236 0.31545535 2.4150002 -0.7900101542 0.4899851978 0.3685083687
0.22823754 -0.0016419967 1.8730001 -0.1795625538 0.8502076268 0.4948780239
-0.22832958 -0.40608954 1.748 -0.3593939245 -0.009339153767 0.933139205
0.07558883 -0.28207538 2.1030002 -0.8339858651 -0.3772829473 0.4026476443
-0.051833499 -0.23354197 1.9930001 -0.4793528914 -0.5195428729 0.7073161006
-0.22773826 -0.095090717 1.8230001 0.2124585658 0.9351943731 0.2833246291
0.096249446 -0.024773063 1.8529999 -0.2732592523 0.8184784651 0.5053932667
-0.064066797 0.066914216 1.6240001 0.1064120084 0.3842170835 0.9170898199
0.137087 0.052370314 1.7570001 -0.4333311915 0.675701201 0.5963656306
0.025706496 -0.25453049 2.0650001 -0.6122464538 -0.4342062175 0.6607717276
0.12548256 -0.11311105 2.016 -0.01177162863 0.8451740742 0.5343615413
0.11404732 0.027636036 1.7760001 -0.260127604 0.7944374681 0.5488193631
0.093858123 0.066826977 1.7130001 -0.5411737561 0.4727051258 0.6954716444
0.37221512 -0.33661196 3.6920002 -0.3430566192 0.7809616327 0.5219301581
-0.18568325 -0.035727669 1.7220001 0.2058590949 -0.1535845697 0.9664542675
-0.03545766 -0.086955689 1.9260001 -0.1143672988 0.9158264399 0.3849442005
0.24586029 0.046600971 1.8330001 -0.3367798626 0.5915918946 0.7325287461
-0.0017270333 -0.42657724 1.9700001 -0.7477629185 -0.1224054098 0.652585268
-0.014716953 0.011112802 1.7130001 -0.3749414384 0.8599101305 0.3463719487
-0.28848001 -0.34318283 1.7660002 0.7070354223 -0.1996081322 0.6784228086
0.024313472 -0.47411275 1.9810001 -0.594114244 0.1655613482 0.7871579528
-0.19352418 -0.056509055 1.766 -0.1599381864 0.9087659717 0.38544029
-0.19493559 -0.098280028 1.853 -0.391546905 0.8777190447 0.2762250602
0.035245508 -0.20776299 2.1160002 -0.9155473113 -0.05902355164 -0.3978559077
-0.12369153 0.032246429 1.647 -0.1247156337 0.2069954723 0.9703601599
0.39824775 -0.1238993 3.3650002 -0.430409193 0.8876157999 0.1639698297
0.061658889 0.083362818 1.6880001 -0.6166529655 0.2110769302 0.7584099174
-0.16543117 -0.30417988 1.8730001 -0.7544049621 -0.07710745186 0.6518647075
-0.14575854 -0.002197365 1.6710001 -0.2606571615 0.8000971675 0.5402799249
0.43560514 -0.065913938 3.2690001 -0.4129798114 0.8947003484 0.1701732725
0.015630091 -0.10246392 1.9810001 -0.1969638467 0.8323605061 0.5180552602
0.12504071 -0.092043862 1.9810001 -0.06671718508 0.9002241492 0.430285126
-0.11710864 -0.24779509 1.9360001 -0.7316747904 -0.2007505149 0.651422441
-0.024629951 -0.057469886 1.8730001 -0.1995848566 0.9160708785 0.3478217721
0.064646281 -0.1030846 1.9930001 -0.06159834564 0.8716048002 0.4863236845
-0.15021946 -0.17993321 1.8830001 -0.5781072378 -0.4522014558 0.6791949868
-0.094974555 -0.038924001 1.7760001 -0.2026266158 0.9339498878 0.2944147587
-0.085869499 -0.12193469 1.9590001 -0.1886060983 0.7447761893 0.64010638
0.066981718 -0.38921809 2.0650001 -0.7273222804 -0.03996737301 0.6851313114
0.075474866 0.032346372 1.7570001 -0.2907894254 0.8266242146 0.4818027616
0.18323416 -0.23441686 3.5030003 -0.2062536031 0.8944311738 0.3968026638
-0.045478541 -0.10304633 1.9700001 -0.168986842 0.8865219355 0.4307230115
-0.24442956 -0.053517867 1.7850001 0.5279523134 0.5700612068 0.6295208931
0.1019388 -0.1233996 2.0400002 -0.1540315002 0.8996399641 0.4085612297
-0.085619651 -0.085619651 1.9150001 -0.1738593131 0.9182696342 0.3557440639
-0.0155696 -0.01712656 1.7760001 -0.3504723608 0.878582418 0.3244412243
0.0043736896 0.094763279 1.6630001 -0.3111482263 0.0396974571 0.9495319128
-0.082624078 -0.49657905 1.904 -0.7279886603 -0.06410911679 0.6825852394
-0.051640049 -0.029732149 1.7850001 -0.2166107893 0.9301604629 0.2964477539
-0.18463966 -0.072031491 1.794 -0.1297252774 0.8852346539 0.4466888607
0.16556638 -0.069981672 1.9470001 -0.1103200912 0.8753517866 0.4707321227
-0.24018212 -0.29490715 3.4680002 -0.1351948082 0.8547630906 0.5011012554
0.33698717 -0.38279125 3.7320001 -0.3353018761 0.858123064 0.3888411224
0.1954993 0.012925573 1.8430001 -0.4764923751 0.6300527453 0.6131790876
-0.0039321422 0.033925831 1.6826668 -0.4737401307 0.7349100113 0.485260278
-0.1960256 -0.31576014 1.8130001 -0.8465050459 -0.2525938451 0.468642205
-0.10411907 -0.10070533 1.9470001 -0.2347179651 0.8416473866 0.486350894
0.37843332 -0.11621181 3.3990002 -0.4328653514 0.8882685304 0.1536445916
-0.076375209 -0.36490372 1.936 -0.576549232 -0.1584019959 0.8015608788
0.042269357 0.036230877 1.7220001 -0.3428516388 0.8196533322 0.4589347839
-0.11678194 -0.39573026 1.8940001 -0.6845119596 -0.2109503746 0.6978132725
-0.19656007 -0.21605362 1.853 -0.8296407461 -0.3277757168 0.4519505799
-0.24461454 -0.45981342 1.766 0.03839736432 0.6872367859 0.7254179716
-0.18265438 -0.49868393 1.8330001 -0.5419293046 0.627037704 0.5595858693
-0.14132831 -0.079598702 1.853 -0.2188396901 0.9396968484 0.2628288269
-0.045791805 -0.0035224466 1.7220001 -0.2920947075 0.8953965306 0.3360740542
-0.11461978 0.1131689 1.6550001 0.8371267319 -0.1497465968 0.5261129141
-0.27879491 -0.42050281 1.7570001 0.260838598 -0.08492478728 0.9616397619
0.00412384 -0.12430432 2.016 -0.3482581377 0.7461326718 0.5674524903
-0.12481979 0.1461754 1.6800002 0.8209540248 -0.1277122945 0.5565285683
-0.15682252 -0.24596374 1.883 -0.738402009 -0.06226465851 0.6714801192
-0.12840414 -0.43578592 1.8730001 -0.6841181517 -0.2203867584 0.6952784061
-0.13371183 -0.087490462 1.883 -0.2359814197 0.9062454104 0.350759238
-0.096242219 -0.30729973 1.9260002 -0.5691636205 -0.1688450724 0.8047012687
-0.10465822 -0.21380672 1.97 -0.5839229226 -0.3834550083 0.7155391574
-0.0017270333 -0.46457195 1.9700001 -0.7427194118 0.02683592029 0.6690648198
0.00177788 -0.24534744 2.0280001 -0.7891975641 -0.2539252937 0.559186101
0.3639394 -0.38048211 3.7740002 -0.3316048086 0.8645365834 0.3776437044
-0.06661614 -0.39545381 1.936 -0.5070123076 -0.3937219679 0.7667604089
0.0092751337 -0.22445823 2.1160002 -0.9605138898 -0.09255072474 -0.2623880506
-0.15557064 0.39893857 1.7570001 0.7886430621 -0.1101588756 0.6049026251
-0.16551378 -0.39369786 1.8329999 -0.7030252218 -0.1637980193 0.6920446157
-0.025096511 -0.13537976 2.016 0.1337711811 0.8127112985 0.5671028495
-0.053896591 -0.06042951 1.863 -0.2048766017 0.9092319608 0.3623849452
-0.11717596 -0.33617148 1.904 -0.7379601002 -0.3057718575 0.6015965939
-0.13334978 0.35375428 1.7220001 0.8903670907 0.114935644 0.4404954314
-0.20347345 -0.21493675 3.2690001 -0.209387973 0.8856139779 0.4145414233
-0.46869493 -0.13785145 2.8590002 -0.325714767 0.8713960052 0.3668499887
0.22418033 -0.20575455 3.5030003 -0.2062536031 0.8944311738 0.3968026638
0.13338834 -0.059096098 1.9260001 -0.1339711994 0.8513116837 0.5072672963
-0.28467119 -0.19452532 1.8040001 -0.3764693439 -0.5693243146 0.7308492661
-0.15857147 -0.20864667 1.904 -0.6317356229 -0.5648056269 0.53094697
0.22092614 0.058807675 1.8130001 -0.5088185072 0.4752732515 0.7177876234
-0.094085619 -0.019727631 1.7310001 -0.2104375213 0.8989383578 0.384221077
-0.13556445 -0.26357421 1.9150001 -0.7338569164 -0.1879275292 0.6527919173
-0.15715775 -0.45411843 1.8329999 -0.7925365567 -0.07144362479 0.6056250334
-0.024784245 0.032073732 1.6630001 -0.3566521108 0.7438579798 0.5652208328
-0.095759183 -0.0051784702 1.6869999 -0.1205594391 0.8665595055 0.4842933714
-0.072674789 0.036578041 1.6470002 0.2378493994 0.4383274615 0.8667737246
0.16503775 0.054493602 1.7760004 -0.3660186231 0.4386689365 0.8207313418
0.066886164 -0.42170471 2.0400002 -0.7087392807 -0.2657435834 0.6535051465
0.33788136 -0.40478855 3.8160002 -0.2887096405 0.8964944482 0.3360720575
-0.28492367 -0.31606287 1.7760001 0.8527883887 -0.006262794137 0.5222190619
-0.067354299 -0.24351169 1.9700001 -0.5137137175 -0.2865254581 0.8087035418
-0.10576545 -0.36430317 1.9150001 -0.656938374 -0.1975510716 0.7276026011
-0.12764704 0.28683043 1.7130001 0.9732616544 -0.1654719859 0.1593133211
-0.13159643 -0.047993992 1.766 -0.343431294 0.8765676618 0.3371707499
0.0088368002 -0.33403102 2.016 -0.4891301692 -0.01124819927 0.8721382618
-0.094013736 -0.4129889 1.9150001 -0.6067368984 -0.1357928067 0.7832181454
-0.17559984 -0.17728829 1.9260001 -0.469920963 -0.5540590286 0.6871629357
-0.14423051 -0.18690228 1.9470001 -0.7668319345 -0.4757726192 0.4308238328
-0.055935722 -0.046346735 1.8230001 -0.1844875515 0.9188887477 0.3487230837
-0.10343633 -0.27275783 1.9470001 -0.6564873457 -0.3996152282 0.6397906542
-0.15725295 0.42660704 1.7760001 0.7384928465 -0.3660530746 0.5662450194
-0.0033944533 -0.078072429 1.9360001 -0.2635419965 0.8980998397 0.3520827889
0.05974045 -0.34214985 2.0650001 -0.6506336927 -0.3158760369 0.6905781031
-0.13618799 -0.33593032 1.8830001 -0.6534264684 -0.3827919662 0.653072834
-0.029702343 -0.25509071 1.9930001 -0.6667714715 -0.1574817151 0.7284334302
0.033907127 -0.015364167 1.8130001 -0.2170609087 0.8815106153 0.4193132222
0.11488492 0.074394614 1.7318889 -0.4816398323 0.3326272368 0.8107910752
0.0057781101 -0.2751269 2.0280001 -0.635828197 -0.3552399278 0.68522048
-0.16872765 -0.35834539 1.8330001 -0.7690725923 -0.2623598278 0.5828332901
-0.094291635 -0.057001159 1.8230001 -0.3044731021 0.8941648602 0.3282762766
-0.17230576 -0.27519926 1.863 -0.7199016809 -0.1778081357 0.6709141731
-0.12559476 -0.11371419 1.9360001 -0.2848404944 0.8691912889 0.4041934907
0.12489607 -0.31704387 3.6530001 -0.3019859195 0.8439025283 0.4434332252
-0.17006545 -0.44026288 1.8130001 -0.8302174211 -0.1111850515 0.5462388396
0.024883015 0.017770911 1.7376667 -0.4188145101 0.8047072291 0.4207620025
-0.13493215 0.094307415 1.6550001 0.1242835224 -0.1572277397 0.9797106981
0.047068235 -0.28421971 2.0650003 -0.6487563848 -0.3533617854 0.6739811897
0.10411907 -0.073395409 1.9470001 0.08465643972 0.8680549264 0.4891971946
-0.29262695 -0.25194085 1.7850001 0.3892671168 -0.09249117225 0.916469574
-0.0032489267 -0.04386051 1.853 -0.3185530603 0.8796771765 0.3531175256
-0.24587168 -0.47863722 1.794 0.02586213127 0.8413355947 0.5398939848
0.15579931 -0.0030005793 1.8430002 -0.1690717041 0.8170301914 0.5512498617
0.12517309 -0.41611597 3.8590002 -0.09492336214 0.9184918404 0.383877933
-0.22448802 -0.057283152 1.7660002 0.4058406353 0.6388418674 0.6535858512
-0.13435619 -0.024657125 1.7220001 -0.1128103212 0.9030198455 0.4145226181
0.17212765 -0.08232192 1.9700001 -0.1285541058 0.8637959361 0.4871657193
-0.14394122 -0.20472579 1.9260004 -0.7382128835 -0.3883551657 0.5515632033
0.22471742 0.015703145 1.853 -0.2710866928 0.6400284171 0.7189406157
-0.26132995 -0.2159493 1.7850001 -0.05686810985 -0.3608372808 0.9308933616
-0.14031488 -0.38132632 1.8830001 -0.6607013941 -0.1657698452 0.7321161032
0.25256678 -0.0033015267 1.8830001 -0.1418588459 0.7883500457 0.5986486673
0.06383536 0.013493653 1.7760001 -0.2865576744 0.8383571506 0.4637261629
-0.055607319 0.0032710186 1.6960001 -0.2876972556 0.8598781228 0.4217107296
-0.18488549 -0.10069656 1.8830001 -0.2582216561 0.911729455 0.3194855452
-0.1585101 0.34570298 1.7220001 0.8182598948 0.1545462012 0.5536842942
-0.2368201 -0.49430236 1.8130001 0.04114322364 0.8871823549 0.4595810175
-0.0085869497 -0.3967171 1.9590001 -0.5565643907 -0.3255526125 0.7643635273
0.47533655 -0.47533655 4.1390004 -0.1824807525 0.9436787367 0.2759912908
0.11975617 -0.33984861 3.6920002 -0.1774020195 0.8865247965 0.4273198843
-0.041490879 0.081551038 1.6320001 -0.2516990602 0.1825094819 0.9504408836
0.074893758 0.043196745 1.7332858 -0.343711257 0.818690002 0.4600100219
0.17002863 -0.031364504 1.8830001 -0.1011969149 0.8026787639 0.5877635479
-0.10011095 0.024665019 1.6550001 0.1802319586 0.2408066243 0.9536920786
-0.21607028 -0.032180678 1.748 0.9478037357 -0.1987435669 0.2493373305
-0.0125188 -0.2181848 2.0400002 -0.726341486 -0.4109135866 0.550979197
-0.25234324 -0.31922939 3.4680002 -0.1351948082 0.8547630906 0.5011012554
0.012751993 -0.23135759 2.0780001 -0.6176937819 -0.7472382188 0.2451314181
0.044002529 -0.35424259 2.0280001 -0.5690739751 -0.3012458384 0.7651181221
0.13284656 0.092086822 1.7220001 -0.4868060946 0.09513382614 0.8683140874
0.022597399 0.073623776 1.6630001 -0.434843272 0.1798190027 0.8823698163
0.03584427 -0.08022289 1.9470001 -0.03211556748 0.9097768664 0.4138533771
0.15182464 0.017396573 1.8040001 -0.1836549938 0.7782486677 0.6004996896
0.38279125 -0.35007402 3.7320001 -0.5179307461 0.7475985289 0.4157453179
0.025276054 0.043117974 1.6960001 -0.441794157 0.7450572252 0.4997075796
-0.084927961 -0.07022889 1.863 -0.1943837404 0.9258896112 0.3239497542
0.18726067 -0.058271449 1.9360002 -0.1698212624 0.8473871946 0.5030861497
0.073475771 -0.28661624 2.0780001 -0.7118169665 -0.4294745326 0.5557591319
-0.054266151 0.024136288 1.6630001 -0.1899384856 0.7579128146 0.6240925789
-0.15908606 -0.48047206 1.8330001 -0.6252261996 0.434599787 0.6482400894
0.0049812198 -0.058114234 1.8940001 -0.202954188 0.8784588575 0.4325733185
-0.13338046 -0.4850693 1.863 -0.7626615167 0.2419318855 0.5998469591
0.23591451 -0.03564176 1.9360002 -0.4314677417 0.7862095833 0.4423912764
0.019797763 -0.13858435 2.0530002 -0.2331196666 0.8965732455 0.3765788376
-0.044902865 -0.28668755 1.9700001 -0.4158702791 -0.3475835621 0.8403794169
-0.14187974 -0.28542864 1.9039999 -0.8239596486 -0.02935068123 0.5658878088
-0.038189352 -0.071397483 1.8940001 -0.1628981531 0.8942623138 0.4168442488
-0.21829526 -0.34215072 1.766 -0.7097945213 -0.3352959752 0.6194903851
-0.20486034 -0.40818039 1.7570001 -0.7424424291 -0.08723621815 0.6642056108
0.26976699 0.32742712 2.3490002 -0.8563423753 0.4097999334 0.314231962
-0.0026489943 -0.022781352 1.8130001 -0.3968521059 0.8260150552 0.4002593458
0.033929631 -0.027466843 1.8430001 -0.1716370434 0.8655558825 0.4704824984
-0.0150575 0.05527959 1.647 -0.5546932817 0.3999110758 0.7296482325
-0.24425337 -0.18640387 1.8330001 -0.4117575586 -0.6404001117 0.6483389735
0.21419248 -0.014943659 1.8940002 -0.4295127392 0.6669840217 0.6088112593
0.11001378 -0.031197937 1.8730001 -0.1380791664 0.8157385588 0.5616980791
-0.11751717 -0.31393871 1.9150001 -0.5165028572 -0.3504432142 0.7812901735
-0.067152664 -0.44656521 1.9150001 -0.4960815012 -0.1785857528 0.849711895
-0.1461377 -0.35631326 1.8730003 -0.7154144049 -0.1211229712 0.688121736
-0.21192189 -0.093308888 1.804 -0.1254108846 0.8949092031 0.428263545
-0.2356445 -0.080656841 1.8040003 0.4990952015 0.6905413866 0.5235041976
-0.14620171 -0.4337317 1.853 -0.8135805726 -0.1203985736 0.5688504577
0.064508639 -0.45686257 2.016 -0.6592230201 -0.2704578638 0.7016249299
-0.24798883 -0.37429371 1.7570001 0.06322467327 -0.1611295044 0.9849060774
-0.20316185 -0.26468435 1.8330001 -0.7839886546 -0.2809051275 0.5535829067
0.14507079 -0.082897604 1.9700001 -0.123029992 0.8682182431 0.4806877673
-0.018235106 -0.31520683 1.9810001 -0.6461587548 -0.2613364458 0.7170649171
