# .PCD v0.7 - Point Cloud Data file format
VERSION 0.7
FIELDS x y z normal_x normal_y normal_z
SIZE 4 4 4 4 4 4
TYPE F F F F F F
COUNT 1 1 1 1 1 1
WIDTH 512
HEIGHT 1
VIEWPOINT 0 0 0 1 0 0 0
POINTS 512
DATA ascii
-0.09448012 -0.14763184 1.6840001 -0.3585116565 0.8486906886 0.3888361156
0.46573618 -0.49741891 3.6140001 -0.2088024616 0.8671827316 0.4521014094
-0.33170816 -0.29258779 2.7890003 -0.4005873501 0.7857618928 0.4712833464
0.49525356 0.11718053 2.5220001 -0.7257131338 0.2959722281 -0.6210803986
0.27064627 0.38687477 1.8940001 -0.9208965898 0.2078416198 -0.3297747076
-0.13498738 0.067493692 2.3330002 -0.1889181584 0.8758867383 0.443995893
0.12698868 -0.2953867 3.1490002 -0.2009893358 0.8537991643 0.4802397788
0.27128538 -0.49221238 1.853 0.5923107862 -0.1187582389 -0.7969092727
-0.18081075 0.3829771 1.6240001 0.405936867 -0.1755282134 0.8968863487
-0.40186927 0.13910858 1.9590001 -0.9448456764 -0.05301329121 -0.3231968284
0.33373648 -0.0061857598 1.6800001 -0.283718437 0.6671269536 0.6888000369
-0.25831684 -0.46553805 3.2380002 -0.3622508943 0.7723673582 0.5217499733
0.4939245 -0.27534872 3.2380002 -0.2042184621 0.8705283403 0.4477445781
-0.13937509 -0.4942787 1.6390001 -0.2536359131 0.1059416533 -0.9614807367
0.1127218 0.19350575 2.1430001 -0.09379474074 0.8581557274 0.504748702
0.18573061 -0.17728829 1.9260001 0.8956461549 0.4418102205 0.05120247602
0.067467391 0.070113167 1.5090001 -0.3587955832 -0.2826985419 0.8895770311
-0.27604479 -0.096503466 2.5600002 -0.1632499844 0.8742425442 0.4572192729
-0.12556672 -0.28514108 2.9840002 -0.3551846445 0.7707503438 0.5289497375
0.28221506 -0.41201434 3.3650005 -0.1923545897 0.8741470575 0.4459446073
-0.1545651 0.26619545 1.9590001 -0.2522639632 0.8888542652 0.3824931383
-0.39202866 -0.0040624733 2.3170002 -0.2232653946 0.8652999997 0.448785603
0.044598226 -0.35443851 1.7850001 0.5709150434 0.4436222017 -0.6908367276
-0.14194636 0.1584838 1.572 -0.3684462905 -0.3170277178 0.873922646
0.12164013 -0.084096879 1.7130001 -0.1737225801 0.8913829327 0.4186370373
0.49357384 -0.38221878 3.4330001 -0.2271390855 0.8615843654 0.4539605677
-0.34489295 -0.40194291 2.9580002 -0.3765574992 0.7795191407 0.5005540252
-0.094892509 -0.045452714 1.516 0.08163433522 0.2429621667 0.9665946364
-0.17494994 -0.31520724 1.6960001 -0.4386505187 0.2193687558 -0.8714717627
0.025792411 -0.38688615 3.2690001 -0.209909007 0.8500189781 0.4831210375
-0.1039376 -0.4020744 3.1200001 -0.2930269539 0.8092408776 0.5091801882
-0.20833018 0.17145759 2.1030002 -0.2057214826 0.8829610944 0.421969682
0.033121783 -0.16641675 1.8430001 -0.2716540694 0.9138764143 0.301718384
0.072814174 0.1035431 2.286 0.7090049386 0.2751224041 0.6493224502
-0.16671044 0.36015746 1.794 -0.9940074086 -0.09810419381 0.04821645841
0.19980898 -0.33301499 1.853 0.5958347321 0.1441308111 -0.7900679111
0.22497991 0.074991412 1.5773849 -0.4650549591 0.02026795596 0.8850497603
-0.34654984 0.082329519 2.184 -0.2022313625 0.884139359 0.4211888611
0.12230727 -0.49697006 1.766 0.1201608405 0.08081288636 -0.989459753
-0.36742854 -0.48595384 3.1200001 -0.3765574992 0.7795191407 0.5005540252
0.26253009 -0.10912396 1.8040001 -0.04509911314 0.8943151236 0.4451590478
0.026667323 -0.049124017 1.6010001 -0.3265396059 0.83226192 0.4480089545
-0.010463017 -0.46485686 1.705 0.7904554009 0.1517193764 -0.5934320092
0.24412361 -0.35483083 3.2380002 -0.1885546893 0.8655232191 0.464022249
-0.053567488 -0.25359407 1.766 0.3520601988 0.7114613652 -0.6081745625
-0.26123789 -0.30609691 3.0100002 -0.3620921969 0.7870616913 0.4994227886
0.3705442 -0.2813907 3.1780002 -0.1985398382 0.8787090182 0.4341110587
0.14488432 -0.01471009 1.6090001 -0.1873401999 0.7999483347 0.5700757504
0.2434328 -0.29266641 3.1200001 -0.2067843229 0.8729383349 0.4418358207
-0.18235719 -0.1946165 1.748 -0.8820888996 -0.06951210648 -0.4659262598
0.10502028 -0.26012716 1.8430001 0.2680681944 0.6452109218 -0.7154315114
-0.055508196 -0.35634279 1.6960001 0.5152975917 0.4247862101 -0.744328618
0.14543286 -0.1390402 1.8230001 -0.1746442467 0.8416469097 0.5110086203
0.14424644 -0.40599164 3.2690001 -0.2105472684 0.8832260966 0.4190244973
-0.14737205 0.27088386 1.6010001 -0.43330127 -0.3466993868 0.8318951726
0.0060700402 -0.11988329 1.7310001 -0.3651459217 0.8584116697 0.3602746427
0.22510596 -0.044518631 1.6845715 -0.1168822572 0.8194730282 0.5610726476
-0.38380906 0.19762082 1.863 -0.4968304634 0.8487558961 0.1810328662
0.39233899 -0.3466489 3.3990002 -0.2271390855 0.8615843654 0.4539605677
0.28375947 -0.38224068 1.904 0.9036206603 0.2940018177 -0.3115006387
-0.10321259 0.065680742 1.529 0.434188664 -0.2178107947 0.8740930557
-0.016832875 0.015538038 1.4770001 -0.2330458611 0.2428776324 0.9416475296
0.19136231 -0.42542529 1.8040003 0.6201290488 0.06341712177 -0.7819324136
-0.12436919 -0.10201069 1.5940001 -0.1342738271 0.8858765364 0.4440645278
-0.02404872 0.078158341 2.286 -0.3072320521 0.9516262412 -0.003992098849
-0.13493216 -0.39503595 1.655 -0.03129756823 0.2645265162 -0.9638704062
0.42686391 -0.38387042 3.5030003 -0.2236993462 0.86522156 0.4487206936
0.40408108 -0.26652157 3.2690001 -0.2042184621 0.8705283403 0.4477445781
0.30175567 0.048167571 1.6160001 -0.5729651451 0.2910875976 0.7661455274
-0.041490879 -0.098719679 1.6320001 -0.3591690958 0.8314083815 0.4239784181
0.22083409 -0.25736302 1.8940001 0.3652003407 0.6773295999 -0.6386339068
0.29429859 -0.06421987 1.7358 -0.2892085016 0.8032069206 0.5207850933
0.14473854 0.041933596 1.5430001 -0.3900056481 0.5300962925 0.7529233098
0.023386836 -0.24726471 1.813 0.3012892604 0.6177735925 -0.7263473868
-0.061411668 -0.16772096 1.7660002 -0.3154630959 0.8604963422 0.4000363052
0.12556233 -0.36238241 1.8130001 0.1945703179 0.2864961624 -0.9381163716
0.055734958 -0.4427833 1.766 0.4711194336 0.1636381894 -0.8667577505
0.19561853 -0.090877898 1.7570001 -0.2375934571 0.8318041563 0.5016484261
-0.23912749 -0.28541023 2.9330001 -0.3490866721 0.7903001904 0.5035514832
0.074734077 -0.12299984 1.7760001 -0.1376047283 0.8590416312 0.4930642843
0.075202107 -0.0044277143 1.5526251 -0.4104302526 0.7407773137 0.5317856669
0.052736759 -0.08057005 1.6710001 -0.2533318698 0.8649382591 0.4332490563
-0.097156584 -0.28848031 1.705 0.4256891608 0.5983005762 -0.6788409948
-0.32569045 0.18299101 1.9150001 -0.5371580124 0.8305510283 0.1471268386
0.23316354 -0.14285371 1.8730001 -0.2640992999 0.8467745185 0.4617623389
-0.073988259 -0.44465849 1.6630001 0.3655376434 0.01119606383 -0.9307292104
0.23491158 0.0079320809 1.6240003 -0.2216424644 0.7449942231 0.6291726232
0.093675338 -0.35483083 3.2380002 -0.2121485025 0.8547280431 0.4737435281
-0.01548544 -0.04241664 1.536 -0.4186102152 0.7809196115 0.4636055231
-0.1832961 -0.2695531 1.7570001 -0.6585562229 0.3756605089 -0.6520605087
0.0042672628 -0.39509386 1.7374001 0.6275504231 0.2382839918 -0.7412160635
-0.01386273 -0.31576219 1.7570001 0.7086908817 0.3033747673 -0.6369623542
0.25151011 -0.41738829 1.8430001 0.6702739596 0.1778804511 -0.7204799652
0.20556198 -0.49483219 1.8130001 0.5111232996 0.03608068451 -0.8587497473
0.12611376 -0.42660704 1.7760001 0.2111954689 0.2277892083 -0.9505306482
0.26068383 -0.31713766 1.8940001 0.7615386844 0.2646125853 -0.5916409492
0.4652698 -0.2563163 3.1780002 -0.2042184621 0.8705283403 0.4477445781
-0.064771645 -0.078552842 1.572 -0.2768760026 0.8454260826 0.4567213356
0.11461978 -0.053682681 1.6550001 -0.2795293927 0.8262343407 0.4890808761
-0.15809923 -0.14620464 1.6960001 0.4134441316 0.7922215462 0.4488306046
0.17219311 -0.24529396 1.853 0.3435539007 0.4623125494 -0.8174581528
-0.15867783 0.29679605 1.8040003 -0.9958018661 -0.08420772105 0.03588401899
-0.0053473162 -0.15507217 1.794 -0.4771186709 0.7208779454 0.5026856065
0.095843337 -0.1640708 1.853 -0.02493271418 0.8459214568 0.5327243209
0.035047673 -0.4952184 1.7381113 0.4201664925 0.3434994519 -0.8399215937
0.26803645 0.33951283 1.853 -0.9150910378 0.2266629636 -0.3335150778
0.066073492 -0.30312064 1.813 0.3002171218 0.3903646171 -0.8703362346
0.14543284 -0.30524915 1.8230002 0.3670310378 0.3726046979 -0.8523226976
-0.11383954 -0.34226027 1.6810001 0.2909913361 0.5336669683 -0.7940551639
-0.17349847 0.32442805 1.6089998 0.5278658271 -0.2743757665 0.8037883043
0.2749593 -0.013704228 1.6630001 -0.3030876815 0.7831788063 0.5429261923
-0.036365535 -0.1233 1.6864001 -0.3296138048 0.8419111371 0.4272474945
0.20616306 -0.12465673 1.8230001 -0.144283548 0.8598338962 0.4897631407
0.024586994 -0.00199354 1.516 -0.4239163995 0.6763318181 0.6023870707
0.18584923 0.021782828 1.5860001 -0.2954940498 0.75992167 0.578966558
0.13469282 -0.10682533 1.7660002 -0.1611911356 0.9052475095 0.3931213319
0.083693027 -0.033383176 1.6090001 -0.3247715831 0.8085869551 0.4906226099
0.17483144 -0.034821197 1.6550001 -0.3592297435 0.7991313934 0.4820196927
-0.14257844 0.2173283 1.5790001 -0.5924575925 -0.3244650066 0.7373713255
-0.12106065 -0.25897786 1.748 0.1268425435 0.8498113155 -0.5115972161
-0.11081856 0.0093461433 1.5230001 -0.5086148381 -0.2119339556 0.8345028162
-0.043947302 -0.49513957 1.6710002 0.5461574793 0.1917512268 -0.8154406548
-0.13427991 -0.13139217 1.6470001 0.05965613201 0.8741369247 0.4820018113
-0.11517296 0.10831743 1.5640001 -0.2880967855 -0.4715996385 0.8334230781
0.17488185 -0.067262247 1.705 -0.3702876568 0.7372586131 0.5650989413
0.06491366 -0.10114453 1.7220001 -0.251439333 0.8922236562 0.3751202524
-0.034197014 -0.41482463 1.6960001 0.5014150143 0.2882758379 -0.8157695532
0.24542993 -0.36391333 1.8630002 0.5427170992 0.3365454078 -0.7695422769
0.054793421 -0.17434269 1.8940001 -0.02346265875 0.7879952788 0.615234077
0.17569365 -0.16255766 1.8730001 -0.06971396506 0.9474471211 0.3122241199
-0.11229574 -0.17147863 1.7310001 -0.2931665778 0.8847743273 0.3622536659
-0.064263172 -0.0052459734 1.4960001 0.7485817671 0.1000417396 0.655451715
-0.15441544 -0.44542122 1.655 -0.1591748446 -0.07342999429 -0.9845158458
0.20994501 -0.22018623 1.9470001 0.9722542763 0.2339245528 0.0009595101001
0.056856215 -0.23554718 1.853 0.1727433652 0.6462376714 -0.7433280349
0.18595941 -0.36556125 1.8130001 0.4789042771 0.484718442 -0.7319144011
0.010057997 -0.081900828 1.6390001 -0.3263187408 0.8398391604 0.4338044226
0.16618708 -0.47414953 1.7850001 0.4330658913 0.1850986183 -0.8821521401
0.17530124 0.082535423 1.556125 -0.3852836788 -0.134149611 0.9129952788
0.23521405 -0.068287946 1.7310001 -0.03036581911 0.8776581287 0.4783242941
0.024801776 0.044382125 1.4890002 -0.1688746512 -0.008489479311 0.9856009483
0.085632801 -0.39391088 1.7760001 0.3623049259 0.3020544052 -0.8817586303
-0.054263916 -0.29543298 1.7332859 0.5492817163 0.3719097376 -0.7483132482
-0.083499871 -0.39552566 1.6710001 0.5494371653 0.2388560921 -0.8006663322
-0.1002179 0.03067895 2.3330002 -0.1889181584 0.8758867383 0.443995893
0.016041949 -0.2934733 1.794 0.6094566584 0.2086221576 -0.7648786902
-0.091405652 -0.49475121 1.6550001 0.291944176 0.07067283988 -0.9538207054
-0.084774546 -0.12213282 1.6390001 -0.2743161321 0.8521853089 0.4455680251
0.33225229 0.044977382 1.6550001 -0.6114393473 0.2882822454 0.7369092703
0.44202936 -0.47651392 3.5760002 -0.2088024616 0.8671827316 0.4521014094
-0.018075114 -0.070910059 1.5860001 -0.3689669669 0.8533958793 0.3682104051
0.26518464 0.080401726 1.6090001 -0.5641798973 -0.32533741 0.7588521838
-0.16846465 -0.36329767 1.6710001 -0.391253233 0.2460547537 -0.8867795467
0.24212176 -0.46426645 1.8230001 0.5885668397 -0.1013513133 -0.8020704389
0.44842991 -0.40027636 3.4330001 -0.2271390855 0.8615843654 0.4539605677
0.4671292 -0.30091146 3.2690001 -0.2042184621 0.8705283403 0.4477445781
0.11493713 0.07484673 1.5244999 -0.3236334622 -0.30417943 0.895955503
-0.14558539 -0.27831626 1.7050002 0.03013900667 0.8182345629 -0.5740938783
-0.063404039 -0.14945237 1.7220001 -0.354349494 0.8592317104 0.3689949214
-0.022931846 -0.24276127 1.8040001 0.5356004834 0.6780982018 -0.5033040047
0.10187218 0.026808467 1.529 -0.328507036 0.6483675241 0.6868061423
0.013900426 -0.10260227 1.6864001 -0.2852707505 0.8731940985 0.3951616287
0.20350046 -0.2877751 1.8630002 0.6185620427 0.3807777464 -0.6873058081
-0.025379123 -0.35294414 1.732143 0.5879330635 0.4820514917 -0.6495853066
0.095363796 -0.14145631 1.8130001 -0.1065027043 0.8691499829 0.4829446375
-0.17003827 -0.29560497 2.9840002 -0.3490866721 0.7903001904 0.5035514832
0.30777311 -0.040144321 1.6960001 -0.2316996902 0.7546512485 0.6138540506
0.11524598 0.0033477396 1.5730001 -0.3531087935 0.7818502188 0.513833046
0.25341627 0.39636904 1.853 -0.9175658822 0.2302189022 -0.3241482079
0.078957863 -0.48458448 1.7660002 0.36876598 0.2007897198 -0.9075765014
0.25013578 0.037729979 1.5940001 -0.314443022 0.568472445 0.7602398396
0.046654448 -0.1439171 1.8040001 -0.1937564015 0.8628049493 0.4669326842
0.18762596 -0.22747572 1.8940001 0.7112529874 0.4970410466 -0.4970607758
0.083819844 -0.34476843 1.8040003 0.2960046828 0.3014567494 -0.9063691497
0.015651254 -0.44478577 1.7350004 0.4195480645 0.1109696403 -0.900924623
0.1053052 0.17806152 2.184 -0.09446912259 0.856544733 0.5073526502
0.21479297 -0.39262655 1.8330001 0.4684661329 0.3062658012 -0.8286982179
0.035410464 -0.023156419 1.5535001 -0.3865806758 0.7790310383 0.4936254025
0.26647249 -0.090877898 1.7570001 -0.03140391037 0.8680317998 0.4955144823
-0.11446958 -0.45835724 1.6390001 -0.1252268106 0.24633044 -0.9610616565
0.26396698 -0.048129875 1.7050002 -0.1943253279 0.7848435044 0.5884372592
-0.16251418 -0.23569131 1.7390001 -0.6920665503 -0.06467479467 -0.7189304829
0.17457414 -0.1179555 1.794 -0.09841821343 0.8761786819 0.4718313217
0.0061927736 -0.36072904 1.766 0.5596355796 0.3033674955 -0.7712173462
0.055402994 -0.057789575 1.6343335 -0.3701300919 0.8062241673 0.4615260363
0.029415673 -0.12850004 1.766 -0.2499029636 0.8863293529 0.3898317516
-0.055208962 -0.057902079 1.5359999 -0.1453731954 0.8309690952 0.5369888544
-0.024518613 -0.14404684 1.748 -0.4595295787 0.8210582733 0.3386677802
0.035608448 -0.39478928 1.7659999 0.3846415877 0.2178022563 -0.8970022202
0.15541898 -0.3935076 1.8040001 0.1381841898 0.3359504044 -0.9316879511
0.21455908 -0.022813145 1.6470001 -0.1706285775 0.8044043183 0.5690515041
-0.3665536 -0.01441503 2.3490002 -0.2261773348 0.8642267585 0.4493950605
0.28078142 -0.42199314 1.8730001 0.4585103989 0.1008923352 -0.8829433322
0.30465657 0.011550959 1.6470002 -0.3660203815 0.6452407837 0.6705918312
0.057679761 0.023656676 1.516 -0.3867610991 0.6148998737 0.6872510314
-0.014965869 -0.27506235 1.7659999 0.5742377639 0.4247052968 -0.6999117136
0.22377354 -0.1032801 1.785 -0.1824635565 0.8308803439 0.5256851315
0.18270902 -0.0061693955 1.6240002 -0.2872136235 0.7677375078 0.5727891326
-0.014829255 -0.018127276 1.5037502 -0.4775006771 0.6018649936 0.6401184797
0.095146887 -0.074054785 1.6845714 -0.2227001041 0.8622479439 0.4548991024
-0.083276905 -0.098715879 1.601 -0.2453525364 0.8699482083 0.427775979
0.10388061 -0.2956602 1.8230002 0.4140925109 0.2806553841 -0.8658868074
0.15443923 -0.08797612 1.7344286 -0.1095820963 0.8842301965 0.4540140033
-0.1263189 0.18947835 1.6010001 -0.7267344594 -0.3015075326 0.6172116399
0.063393809 -0.2658278 1.8230001 0.5005121827 0.4728961289 -0.7251598239
0.095009625 -0.10573652 1.748 -0.0932110846 0.8956280351 0.4349277616
-0.085512012 -0.26565731 1.7346927 0.1561923027 0.7589528561 -0.6321349144
-0.16389108 -0.16540858 1.7310001 0.642873466 0.3750088215 0.6678937674
0.27453431 -0.38824674 1.853 0.1878521591 0.3420613706 -0.9207092524
0.27305272 -0.45401075 1.8430001 0.57748276 0.1340135932 -0.8053284883
0.13882455 -0.16168977 1.863 -0.1303941458 0.8673214912 0.4803653359
0.27477539 0.01755905 1.6240001 -0.3479716182 0.6507693529 0.6748444438
0.19881046 0.050730947 1.5640001 -0.3929235637 0.3393639326 0.8546596766
-0.10473712 -0.078552842 1.572 -0.1854623854 0.8117688298 0.5537464023
-0.073241115 -0.32435352 1.705 0.6015508175 0.383743614 -0.7006264925
0.24932663 -0.37542287 3.2690001 -0.1885546893 0.8655232191 0.464022249
0.16712072 -0.33424145 1.8330001 0.4278765023 0.3194382787 -0.8455063105
0.24586029 -0.12614399 1.8330001 -0.1623822302 0.8713838458 0.4629494548
-0.10485929 -0.42537263 1.655 0.190293014 0.1984330565 -0.9614639282
0.092891596 -0.4427833 1.766 0.2992101014 0.1216009706 -0.9464071393
-0.12578413 -0.30484155 1.6879998 0.1453153193 0.3935060501 -0.907764554
-0.042711198 -0.4550952 1.6799999 0.5807134509 0.186340183 -0.7924955487
0.13320599 -0.23879611 1.853 0.01865587011 0.5167248845 -0.8559482098
0.23028544 -0.31521338 1.863 0.5281697512 0.2526104748 -0.8106939793
0.15495998 -0.27599037 1.8430003 0.3109954 0.3137224913 -0.8971399069
0.01721335 -0.33018336 1.7850001 0.4621646106 0.4764772654 -0.7479126453
-0.13493215 -0.35691732 1.6550001 0.07388843596 0.256334573 -0.9637598991
0.23494755 -0.29140136 1.8940001 0.4504006207 0.2576627135 -0.8548387289
-0.048525251 0.02754136 1.4960001 0.3937598169 -9.140875045e-05 0.9192133546
0.199809 -0.14457723 1.853 -0.2153218836 0.7795538902 0.588160038
0.15806037 -0.43486258 1.794 0.3506840169 0.2572615743 -0.9004650116
0.13995983 0.085606501 1.5500001 -0.3495284021 -0.5179724097 0.7807269096
-0.01312107 -0.10059487 1.6630001 -0.3687658608 0.8494644761 0.3773882091
0.05422534 -0.031979047 1.5860001 -0.3734003901 0.8003076911 0.4691266119
-0.1368389 0.051832918 2.365 -0.1889181584 0.8758867383 0.443995893
-0.07810048 0.0040396801 1.536 -0.117636323 -0.3537118733 0.9279276133
0.065884121 -0.1569435 1.8330001 -0.1527766287 0.8865010142 0.4367782474
0.11588973 -0.028758874 1.6240002 -0.2889894247 0.7895534635 0.5413783193
-0.12638028 -0.16206411 1.6960001 -0.0657889992 0.9107176065 0.4077563584
0.47528657 -0.27279761 3.2080002 -0.2042184621 0.8705283403 0.4477445781
0.15400243 0.0087597994 1.5778333 -0.3635393083 0.7919129729 0.4906251132
0.14587121 -0.065000452 1.6850001 -0.2530376315 0.821615994 0.5108024478
0.24017423 -0.31195045 3.1490002 -0.208604604 0.8705376983 0.4456997216
-0.15528047 -0.32960474 1.6710001 -0.2191823572 0.5026902556 -0.8362186551
0.20503217 -0.45615679 1.813 0.4363897741 0.1715782285 -0.8832467794
0.12675285 -0.38964763 1.7850001 0.2302229404 0.4803701937 -0.8463107347
-0.162605 -0.41603443 1.6710001 -0.2674991488 0.1078532264 -0.9575029612
-0.027031144 -0.3859446 1.7130002 0.6587316394 0.1631853431 -0.7344679236
-0.16604505 0.36241138 1.6470001 0.405936867 -0.1755282134 0.8968863487
0.0041133203 -0.043418378 1.5640001 -0.4419030845 0.8207814693 0.3619937301
-0.088247016 -0.25235552 1.766 0.04491536319 0.8682083488 -0.4941627979
0.0041297576 -0.49444461 1.7130002 0.6747108102 0.2414028794 -0.697488308
0.20090921 -0.17102188 1.8940001 0.2246890664 0.9070939422 0.3559430242
-0.044857994 -0.032831725 1.5089999 -0.08460575342 0.7046695948 0.7044732571
0.22534104 -0.42511144 1.8230001 0.4170499444 0.2148841023 -0.8831161857
-0.01358658 -0.42118397 1.7220001 0.789753139 0.1733771861 -0.5884134173
0.11986225 -0.33081982 1.8230001 0.1165113449 0.1232978776 -0.9855063558
0.01703188 -0.37753999 3.2380002 -0.1858514845 0.8546249866 0.4848457277
0.21659803 0.032140352 1.5940002 -0.3661275804 0.6773726344 0.6380571127
0.11521504 -0.46553099 1.7760004 0.1917942464 0.07667628676 -0.9784353375
0.244789 -0.49600577 1.8330001 0.6894457936 -0.06692234427 -0.7212391496
-0.13121158 0.087925285 1.5430001 -0.0003181997745 -0.3793834448 0.9252395034
-0.0090638567 0.047908958 1.4770001 -0.2066227943 -0.03448296338 0.9778128266
-0.24289453 -0.30685961 2.9580002 -0.3490866721 0.7903001904 0.5035514832
0.20630683 -0.36550424 1.853 0.4594906569 0.3890819252 -0.7984256744
0.12424646 -0.12110098 1.794 -0.1948370337 0.8309969902 0.5210399032
0.033038057 -0.10662283 1.7130001 -0.2834156454 0.8964655995 0.3406244814
-0.051931102 -0.08842323 1.6010001 -0.3719147742 0.8331852555 0.4092452526
-0.11588973 -0.11702869 1.6240002 -0.1285856515 0.8657624125 0.4836539924
-0.056232907 -0.38919091 1.6880001 0.4382523596 0.213464722 -0.8731366992
0.14505501 -0.033033386 1.6382222 -0.1772915423 0.7861782908 0.5920231342
0.020662157 -0.17006545 1.8130001 -0.3261553645 0.7629348636 0.5581694245
0.038310334 -0.46432123 1.748 0.562040627 0.1220552102 -0.8180543184
-0.094012417 -0.063576743 1.5430001 -0.04371762648 0.8493192196 0.5260662436
0.1953976 -0.2561515 1.8730001 0.6345499158 0.5647185445 -0.5276735425
0.24545789 -0.01299483 1.6470002 -0.1832472235 0.7503018975 0.6351909041
0.20573701 -0.061570931 1.7129999 -0.1339403838 0.8410597444 0.5240978003
-0.040972769 -0.32474715 1.7310001 0.5623329282 0.2871362567 -0.775457561
-0.064456038 -0.12598225 1.6710001 -0.3595247865 0.8562250137 0.3709725738
0.063695967 -0.1682227 1.863 -0.08504028618 0.9402455688 0.3297066391
0.1858051 -0.30536667 1.8430002 0.3839741051 0.2493603379 -0.8890350461
0.096360572 -0.23681836 1.863 0.1340808421 0.6007296443 -0.7881283164
-0.25549337 -0.32350871 2.9840002 -0.3620921969 0.7870616913 0.4994227886
-0.085496478 -0.36557743 1.6815001 0.5182282329 0.3248317838 -0.7911534905
-0.11654407 0.14122398 1.5640001 -0.2203295976 -0.2530883551 0.942019701
-0.16540858 -0.27163428 1.7310001 -0.5149015784 0.6829195023 -0.5181672573
0.1853741 -0.045733947 1.6826668 -0.2767167687 0.8209139109 0.499527961
0.20985208 -0.23503433 1.9150001 0.6933153868 0.5531464219 -0.4618904591
0.084466398 -0.0577548 1.6470001 -0.1941805929 0.8442639709 0.4995119572
0.16641676 -0.15025979 1.8430001 -0.07539888471 0.8444445729 0.5303096771
0.16565669 -0.10424501 1.7659999 -0.09616684169 0.8709055185 0.4819497168
-0.14952251 0.3116217 1.5940001 0.3859036863 -0.1518740803 0.9099519849
0.027466843 -0.24073881 1.8430001 0.3664873838 0.7965353727 -0.4808517694
-0.015583627 -0.077918135 1.6160001 -0.4061179757 0.8313574791 0.37935853
0.094268672 -0.015850484 1.5860001 -0.3076484203 0.820237577 0.4822476208
0.23566641 -0.084716685 1.7570001 -0.08953868598 0.860170126 0.5020858049
-0.091605529 -0.15768164 1.7130001 -0.3544001281 0.8630725741 0.359869808
0.26482961 -0.34548119 1.8830003 0.4996752739 0.5154710412 -0.6961423755
0.036374655 -0.31392908 1.804 0.27459234 0.4294063449 -0.8603541255
-0.12751292 -0.097348571 1.5640001 -0.2029061913 0.8178191781 0.5385172963
-0.097033478 -0.31562304 1.688 0.3676500916 0.2439290732 -0.8974029422
0.16773205 0.032449525 1.5640001 -0.4797089696 0.6252357364 0.6155969501
0.11569896 -0.15265834 1.8330001 -0.04900640249 0.8486716747 0.5266447663
-0.032861851 -0.16430925 1.7850002 -0.420597285 0.797935307 0.4317373931
-0.0055045905 -0.26815218 1.794 0.5725751519 0.527068913 -0.6279777884
-0.15021507 0.18880244 1.572 -0.6065249443 -0.2709430456 0.7474739552
0.054860394 -0.1130921 1.7479999 -0.255594641 0.8834379911 0.3926941454
0.074799821 -0.36648789 1.7850001 0.3399502337 0.6030886173 -0.7216079235
-0.019237572 -0.4986971 1.6880001 0.6858904958 0.1079947501 -0.7196466923
0.19136231 -0.39379516 1.8040001 0.4909751713 0.2032194883 -0.8471394181
0.20382544 0.0091686184 1.6090001 -0.2097292393 0.7320507169 0.6481630802
-0.025529411 -0.13215223 1.7130001 -0.369254142 0.8614933491 0.3485406041
0.0050904523 -0.022235248 1.5278002 -0.440341264 0.692987144 0.5708488226
0.036202926 -0.27425921 1.813 0.342384994 0.2635978758 -0.9018251896
0.18496527 -0.4973093 1.7850001 0.6241403818 0.08797825128 -0.7763431072
0.26354045 0.36698627 1.8730001 -0.9207699299 0.2116629928 -0.327691257
0.15417148 -0.35443547 1.813 0.1618724912 0.2902222276 -0.9431692958
-0.065313771 -0.47614902 1.6630001 0.279340148 0.2636178732 -0.9232955575
-0.13916644 -0.14795591 1.6710001 0.2725210786 0.818202436 0.5062381029
-0.11610574 -0.29554188 3.0100002 -0.3551846445 0.7707503438 0.5289497375
0.099634923 -0.37323558 1.8040001 0.2654740512 0.3977513909 -0.8782467246
0.025175363 -0.41572186 1.748 0.6093527675 0.3550339043 -0.7089712024
-0.15803143 0.34453702 1.6240001 0.3570431769 -0.4126106203 0.8380171061
-0.17360631 -0.21436603 1.7220001 -0.8432225585 -0.1355153918 -0.5202031732
0.14479727 -0.45618927 1.7760001 0.2069101483 0.2339147329 -0.9499853253
0.013613005 0.017342595 1.4890002 -0.2928723097 0.4442151785 0.8466987014
0.08281292 0.045242835 1.5089999 -0.4081673324 0.2125921398 0.8878085613
0.28078142 -0.36780727 1.8730001 0.9814414382 0.169815883 -0.08908037841
0.06631247 -0.087128043 1.6960001 -0.2585964501 0.866582036 0.4268061221
0.0040081199 0.086174577 2.286 -0.03159924224 0.9701752067 0.2403363138
-0.096259497 -0.016328041 1.516 -0.2573964 0.03914198652 0.9655128121
0.26544538 -0.067804374 1.7342001 -0.07738441974 0.8449926972 0.5291492939
0.31712043 -0.04617608 1.7363335 -0.3187205791 0.8134694099 0.4865024686
0.075253069 -0.42193615 1.7760001 0.1840900481 0.2437273115 -0.9522120953
0.05508272 0.044590771 1.4960002 -0.3813239336 0.1021304652 0.9187825918
-0.15231733 0.24314876 1.5940001 -0.2629918754 -0.2435007691 0.9335644841
0.33225229 0.015959717 1.6550001 -0.5698370337 0.5012817383 0.6511546373
0.1876654 -0.075369664 1.7310001 -0.3407172561 0.7997229099 0.494322747
-0.060384799 -0.42563921 1.6800001 0.5884543061 0.283503592 -0.7571969628
0.25305158 0.065348484 1.5860001 -0.5549911857 0.02315252647 0.8315339684
0.13581452 0.017062124 1.557 -0.2691403031 0.7682147622 0.5808696747
-0.043898646 -0.28264567 1.7570001 0.5072354078 0.4279142022 -0.7480652928
0.19586135 -0.20430367 1.9260002 0.9912426472 0.1313787997 -0.01332838461
0.095709912 -0.093294516 1.7220001 -0.1623504907 0.8729726672 0.4599577188
-0.17260049 0.29597577 1.6044285 0.4646578729 -0.1276625842 0.8762392998
0.0151751 -0.47498068 1.7310003 0.5201844573 0.2028609663 -0.8296117187
0.30567786 -0.003906427 1.6710001 -0.346909672 0.745698154 0.5688478947
-0.14433177 -0.47090062 1.6630001 -0.3978596628 0.1318710893 -0.9079194069
-0.034826107 -0.063893571 1.5640001 -0.3322348893 0.8590209484 0.3894907236
0.12501091 -0.095282704 1.7390002 -0.1961494684 0.8489224911 0.490770787
0.16024064 0.064634874 1.536 -0.4344505668 -0.1583230942 0.8866716027
-0.10496856 -0.37467948 1.6630001 0.255217284 0.2592175901 -0.9314882755
0.22468579 -0.3446115 1.863 0.4495150149 0.2422914058 -0.8597854972
0.20338053 0.077803291 1.557 -0.4251286983 -0.1788360626 0.8872898221
-0.092566356 -0.4663139 1.6550001 0.5672363043 0.04096155241 -0.8225358129
0.24463998 -0.02783329 1.6710001 -0.1860824376 0.8003861308 0.5698730946
0.24073881 -0.3877672 1.8430001 0.5023711324 0.3691653907 -0.7818824649
-0.0037367917 -0.11509318 1.705 -0.4265632927 0.8297057748 0.3600446284
0.024784245 -0.08310011 1.6630001 -0.3597317934 0.8128061891 0.458191216
0.036123928 -0.17240965 1.8730001 -0.1593457758 0.9448207021 0.2862215638
-0.10508541 -0.13327399 1.655 -0.2531532645 0.8317480087 0.4940735102
-0.13493216 -0.42510885 1.655 -0.0322733894 0.01135247573 -0.9994146228
-0.17338714 -0.28250146 1.705 -0.4411489069 0.7319939733 -0.5192036629
0.28758875 0.072609037 1.6240001 -0.3759518266 -0.2391420454 0.8952493072
-0.11473112 -0.27475083 1.7220001 0.211306259 0.7611532211 -0.6131846905
0.18401057 -0.45452186 1.794 0.574934721 0.1667102873 -0.8010354042
0.27449337 0.045042545 1.6056666 -0.4704675972 0.2249028236 0.8532754183
0.055748112 -0.3340933 1.804 0.3247728646 0.2843551338 -0.9020336866
0.12465707 0.045728758 1.523923 -0.3175619841 0.3947784007 0.8621510267
0.13087143 -0.2924411 1.8430001 0.08096538484 0.3747657239 -0.9235774279
0.14433177 -0.048110589 1.6630001 -0.181639418 0.8166683912 0.5477772355
-0.033920862 -0.005220769 1.4882501 -0.07356290519 0.4702821374 0.8794448376
-0.064528279 -0.13768014 1.6960001 -0.3656674922 0.8520841599 0.374486208
0.16772343 0.0035088584 1.6010001 -0.3727679253 0.7446882129 0.55360955
0.27475348 -0.033240572 1.6849999 -0.1720469743 0.7662987113 0.6190202832
-0.044977382 -0.11268526 1.6550001 -0.4014647007 0.8331844211 0.3803022504
-0.0046445797 -0.14088559 1.766 -0.4173850119 0.8281400204 0.3741307855
0.2564171 -0.30868047 1.863 0.6603015661 0.2358412147 -0.7130082846
-0.11550962 -0.4847278 1.647 -0.05123817921 -0.2408138961 -0.9692178965
0.10431632 -0.11988592 1.7760001 -0.1725396514 0.8791252375 0.4442621768
-0.11234446 0.036049407 1.523 -0.3107031584 -0.3540044427 0.8821249604
0.045975409 -0.0059633371 1.5360001 -0.3423628807 0.7366317511 0.5832335353
-0.0047944901 -0.23812634 1.8230001 0.2160422802 0.7522851825 -0.6224088073
-0.018585334 -0.43638361 1.6960001 0.6552481055 0.2015633583 -0.7280262113
0.075937748 -0.25366437 1.8430002 0.1503186524 0.4916175008 -0.8577392101
-0.16443343 -0.39512387 1.6550001 -0.1630088836 0.07466133684 -0.9837955832
0.19873595 -0.11110435 1.7850001 -0.2108950913 0.8462420106 0.4892828763
-0.065490507 -0.10535429 1.6240001 -0.3240416646 0.8487582803 0.4178592861
0.024772497 -0.066344723 1.6240002 -0.3193794787 0.830804348 0.4558079839
0.081953429 -0.28121275 1.8330001 -0.1094660535 0.4952799678 -0.8618091345
0.0056281998 -0.064024284 1.605 -0.4455209076 0.8074132204 0.3867751658
0.002179744 -0.30609834 1.7760003 0.6660086513 0.2197451591 -0.7128425837
0.31467158 0.034484562 1.6390001 -0.5665405989 0.3149540424 0.7614694238
0.18356435 -0.27453431 1.853 0.4212605953 0.3053670228 -0.8539850712
-0.082274288 -0.30116919 1.7220001 0.4968233109 0.3606252372 -0.7893769741
0.097836003 0.0122295 1.5500001 -0.3348887265 0.7552902102 0.5633704662
-0.15488712 -0.29546937 1.6880001 -0.1239816695 0.4499212205 -0.8844203949
0.18604884 -0.19287631 1.9470001 0.957280755 0.1284306198 -0.2590736151
0.15413903 -0.49511328 1.7760004 0.2222702205 0.1068146601 -0.9691163898
0.052417401 -0.37532625 1.7659999 0.3780329823 0.2575972378 -0.8892326355
-0.034067705 0.034501363 1.4758334 0.2328736633 -0.09662045538 0.9676953554
-0.18914697 0.37540621 1.6470001 0.405936867 -0.1755282134 0.8968863487
-0.10368512 0.09021952 1.536 0.1812848449 -0.2571938634 0.9492034316
0.12694746 -0.26835731 1.8330001 0.318046093 0.4624772966 -0.8276239634
0.12646531 -0.0055896267 1.594 -0.3043589592 0.7957149148 0.5236443281
-0.090696424 -0.34048331 1.6960001 0.4512373507 0.2586933374 -0.8540858626
-0.070113167 -0.030426471 1.5090001 0.4903064668 0.3405602574 0.8022582531
0.060379539 -0.40407845 1.7660002 0.3285893798 0.1286011636 -0.9356766343
0.12365383 0.1883343 2.1700001 -0.09446912259 0.856544733 0.5073526502
0.22458184 -0.13517995 1.8430001 -0.1514232755 0.8888215423 0.43251279
0.17340071 -0.13664296 1.8230001 -0.1461194158 0.8460113406 0.5127513409
0.13727774 -0.4131813 1.7939999 0.3168198168 0.3725677729 -0.8722490668
0.093774401 -0.31628993 1.813 0.2027668059 0.227036953 -0.9525438547
-0.034223899 -0.30392861 1.748 0.5510492325 0.425128907 -0.718059957
-0.18170144 0.34623423 1.6320001 0.4612261057 -0.2429696321 0.8533675671
0.01721335 -0.13927165 1.7850001 -0.2042015642 0.8852664232 0.4178577065
0.055166878 -0.48271018 1.748 0.4222145379 0.4366483688 -0.7944011092
0.25366437 -0.47501481 1.8430002 0.5694897175 -0.1861180216 -0.8006507158
0.20567337 -0.037208714 1.6710002 -0.1260942221 0.8552007675 0.5027244687
0.15995397 -0.30375099 1.8430001 0.3872165084 0.2685993016 -0.8819964528
-0.04225095 -0.24255174 1.7850001 0.3559762537 0.78511554 -0.5068278313
0.071167797 -0.14075409 1.8040001 -0.175622955 0.8693870902 0.4618687332
0.17555439 0.054430041 1.5523334 -0.479297787 0.2711543143 0.8347148895
0.19283159 -0.34548998 1.8330001 0.6010663509 0.2331641614 -0.7644303441
0.2294149 0.051444553 1.5860001 -0.3117404878 0.4548290074 0.8342352509
-0.0015981633 -0.16780715 1.8230001 -0.3996639848 0.7210584879 0.5659888387
0.025658805 -0.036691133 1.5734 -0.3609547317 0.8387927413 0.4076007903
-0.17713489 -0.24336793 1.7570001 -0.7298858166 0.08203287423 -0.6786289811
0.1012024 -0.48577151 1.7760001 0.2112509757 0.06363725662 -0.9753580689
0.27156591 -0.0014368567 1.6390001 -0.2744205296 0.7285616398 0.627607584
-0.025156826 -0.47502008 1.688 0.6477449536 0.1135955229 -0.7533408999
0.23467052 -0.053809803 1.705 -0.07338199019 0.847448945 0.5257807374
0.10431632 -0.4157083 1.7760001 0.2271052301 0.2064597607 -0.9517340064
0.015623077 -0.38441572 1.7570001 0.6698774695 0.3503938019 -0.6545901895
0.29584083 -0.052560549 1.7129999 -0.2198389024 0.8200176954 0.5284333229
-0.0054447264 -0.36479667 1.7390002 0.7094258666 0.4010312557 -0.579559207
0.14716953 -0.079591691 1.7130001 -0.1307824403 0.9086670876 0.3965099454
0.32561505 -0.0223024 1.6960001 -0.2938954234 0.6590516567 0.6922979355
0.0037598982 -0.3364003 1.7659999 0.5808355212 0.312206775 -0.7517692447
0.23485374 -0.11307772 1.8040001 -0.1434230953 0.8526357412 0.502436161
-0.045735702 -0.15092781 1.7390001 -0.3206412792 0.8721202612 0.3695881665
-0.0045288601 -0.44533789 1.7220001 0.7443187237 0.1646348089 -0.6472132802
0.065196142 -0.46497408 1.7659999 0.3537134826 0.2216912508 -0.9087022543
-0.074935891 -0.41725001 1.6630001 0.4377736151 0.29535833 -0.84918648
0.067527883 -0.01791556 1.572 -0.3719338179 0.8174234033 0.4398684204
-0.016175626 -0.092351951 1.6350001 -0.4018503428 0.8090796471 0.428843081
0.078549333 0.013016746 1.5359999 -0.4103226066 0.7103610635 0.5718588233
0.17860155 -0.17192486 1.904 -0.1550974846 0.8596291542 0.486808449
-0.10591449 -0.39692023 1.655 0.2381575257 0.1888885647 -0.9526815414
0.041988127 -0.43612486 1.7479999 0.6649996638 0.2609517872 -0.6997711658
0.035118878 0.024335487 1.4960002 -0.3991453052 0.5256708264 0.7512344122
0.046065331 -0.25335929 1.8330001 0.3467975855 0.7586398721 -0.5515405536
-0.12816516 0.18053372 1.572 -0.6862862706 -0.3283445239 0.648999989
-0.0045902263 0.0041530621 1.4960002 -0.3759029508 0.5443889499 0.749891758
0.26335856 0.36030036 1.8430001 -0.8149856925 -0.3964886963 0.4226050675
0.14583239 -0.33361661 1.8230001 0.3156273961 0.3191559017 -0.8935988545
0.054769751 -0.13301225 1.7850002 -0.2237378955 0.853253603 0.471062243
0.22410494 -0.47522962 1.813 0.4662620723 0.009069053456 -0.8846001625
0.25916985 -0.36812022 1.8830001 0.6221988797 0.3325954378 -0.7086951733
-0.052836701 -0.34268373 1.7220001 0.5628952384 0.3962513506 -0.7253507972
0.26478752 -0.43373173 1.853 0.5081548095 0.241299063 -0.8267728686
-0.065127566 -0.26280889 1.748 0.3729760349 0.6727024317 -0.6390307546
0.19817227 -0.41392434 1.8230001 0.5272322297 0.07368201017 -0.8465206027
0.095689915 0.065122306 1.5159999 -0.2820962965 -0.1202030107 0.9518260956
0.14553104 -0.11423405 1.7850002 -0.08347938955 0.8947025537 0.4387921393
0.19110194 -0.02155285 1.6390001 -0.2371148914 0.7379440665 0.6318346858
0.09443979 -0.46600622 1.7659999 0.257522285 0.1067008153 -0.9603630304
0.20854644 -0.27347645 1.883 0.525424242 0.4197610021 -0.7400878668
0.10537358 -0.39318502 1.794 0.1741251051 0.627564311 -0.7588435411
-0.094918452 -0.11191877 1.6160001 -0.1974570602 0.8695154786 0.4527179599
0.25378448 -0.093417607 1.7760001 -0.009465585463 0.8611751795 0.5082201362
0.19765238 -0.37280774 1.8330001 0.6552097201 0.4797150493 -0.5835869312
-0.033538636 -0.36391923 1.7130002 0.5637407303 0.4041295946 -0.7203302383
0.29727855 -0.072394259 1.7570001 -0.2696977258 0.8389596939 0.4726624489
0.17469512 -0.093477212 1.748 -0.2039385587 0.8638545871 0.4606130123
0.22561035 -0.29523101 1.8730001 0.5532578826 0.4062635899 -0.7272245884
-0.13549806 -0.32502735 1.6837335 0.1392283738 0.3884894848 -0.9108739495
-0.13240209 0.12148233 1.557 -0.5692523122 -0.2576444745 0.7807503939
0.10447258 -0.023572471 1.605 -0.320327431 0.8186434507 0.4766688943
-0.18081075 0.30894434 1.6240001 0.5401102304 -0.2228020877 0.8115664721
0.12556234 -0.30993235 1.8130001 0.05409335345 0.4569693804 -0.8878360987
0.23507376 0.025330989 1.6056665 -0.2382319719 0.6876254678 0.6858693361
0.24325009 -0.33614019 1.8730001 0.6171277165 0.2880685627 -0.7322362065
0.073977955 -0.072513044 1.6710001 -0.2520752251 0.8533169627 0.4564079344
-0.12477595 -0.44542119 1.6550001 -0.2306902856 0.2486140132 -0.9407300949
0.494973 -0.26154825 3.2080002 -0.2042184621 0.8705283403 0.4477445781
0.10469279 -0.0444621 1.6358889 -0.2782753706 0.7678752542 0.577001214
-0.015716244 -0.11380088 1.6858181 -0.4242363274 0.7921984196 0.4386858344
0.10596094 -0.34951296 1.8040003 0.1702444702 0.2659762204 -0.9488274455
0.15530396 -0.12430642 1.8040001 -0.06376349181 0.8347479105 0.5469279289
0.25228801 -0.44672656 1.8330001 0.6948004365 0.2285104841 -0.6819350123
0.20090921 -0.24574019 1.8940001 0.6367284656 0.492682755 -0.5931615233
0.093774401 -0.27814442 1.8130001 -0.06419184059 0.3715749383 -0.9261811376
0.25008845 -0.042914588 1.6880001 -0.1724809855 0.7924870253 0.5849911571
0.13483046 -0.26153859 1.853 0.05020531267 0.5068651438 -0.8605620861
0.21433119 -0.074238107 1.7370002 -0.1542797685 0.8300113082 0.5359840989
0.035342596 -0.11439514 1.734 -0.2583052814 0.8862377405 0.384526968
0.20515139 -0.18702018 1.9150002 0.8971399665 0.3123644292 0.3123592734
-0.09770187 -0.44567454 1.6470002 0.3215641081 0.2155457288 -0.922028482
0.17142867 -0.41677609 1.794 0.3203805089 0.2662570775 -0.9091003537
-0.17136237 -0.33591762 1.6880001 -0.458896488 0.3506322205 -0.8163768053
-0.11279807 -0.14795591 1.6710001 -0.1661675274 0.8651452661 0.4731934667
0.23936068 -0.27237594 1.8830001 0.3952976167 0.2889060378 -0.8719363809
0.20509762 -0.43523312 1.8230001 0.2555427253 0.09992495924 -0.9616199732
0.063671634 -0.042565893 1.605 -0.3522027135 0.8011694551 0.4838189483
0.23429039 -0.40719604 1.8329999 0.5531463623 0.3583616316 -0.7520678639
0.12556234 -0.13668811 1.8130001 -0.1278185248 0.7983037233 0.5885350704
0.036757756 -0.15715273 1.8230001 -0.3009198308 0.8228996992 0.4819577932
0.16596352 -0.018599359 1.6320001 -0.3239418268 0.7415438294 0.5875154734
0.034477547 -0.094067492 1.6853334 -0.3232913613 0.8315210342 0.4517249763
-0.035227682 -0.045042545 1.526 -0.3173362613 0.7695897222 0.5541023016
0.19768833 -0.47603348 1.8040003 0.6711578369 0.04339098558 -0.7400434613
