# .PCD v0.7 - Point Cloud Data file format
VERSION 0.7
FIELDS x y z normal_x normal_y normal_z
SIZE 4 4 4 4 4 4
TYPE F F F F F F
COUNT 1 1 1 1 1 1
WIDTH 512
HEIGHT 1
VIEWPOINT 0 0 0 1 0 0 0
POINTS 512
DATA ascii
0.0050782789 0.099459961 0.98899996 -0.04157353938 0.76505059 0.642626822
0.14334552 -0.4559184 2.2710001 -0.04917560518 0.727255702 0.6846027374
-0.33082157 -0.035064038 1.7390001 0.9155602455 -0.4014980197 0.02342701517
0.17846566 -0.49799401 1.2190001 0.7368658781 -0.1693558097 0.6544824243
0.49752498 -0.11658176 1.8730001 0.08579850197 0.7336502671 0.6740888953
-0.44337243 -0.44149372 2.1430001 -0.1255498528 0.7415956855 0.6589939594
0.27716368 0.34676403 1.3962858 0.1023297533 0.9766595364 0.1888511479
0.41526824 -0.2096899 0.93800002 0.7537112236 -0.06443525106 0.6540393829
-0.18038118 -0.21287221 1.2780001 0.1844820827 0.4650434554 0.8658527136
-0.081266999 0.47459927 1.2360001 0.4872371554 -0.4172519147 0.7671380639
0.17243902 -0.1017227 1.2410001 0.06389591843 0.7032565475 0.7080590129
-0.2971141 0.10256023 1.4545715 0.8554816842 0.320625782 -0.4066326916
0.34214985 -0.30956414 2.0650001 0.03759339079 0.7609285712 0.6477456689
-0.12604713 -0.4169251 2.2120001 -0.04646477476 0.7224843502 0.6898241639
-0.19412798 -0.0082921702 1.1127501 0.2693935335 0.6409066319 0.7187947035
0.36224303 -0.41439766 1.071875 0.7794488072 -0.0235324353 0.6260237694
0.23046252 0.089363016 1.0730001 -0.1897629052 0.1471209079 0.9707447886
0.10801761 -0.30268669 1.3540001 0.7772583961 -0.1706369668 0.6056008935
0.01586416 0.32582545 1.3920001 -0.8989580274 -0.4148144722 0.1407248229
-0.015765095 0.29760644 1.101 0.7172381282 -0.2471963763 0.6515085697
0.32195583 -0.20902362 1.13 0.8710126877 0.0962966755 0.4817300737
-0.035535682 -0.08804363 1.21 -0.1414353549 0.7228120565 0.6764160991
0.12131751 -0.32475767 2.1290002 -0.0550041534 0.717569828 0.6943112016
0.35068944 -0.05579808 1.035 0.7398630381 -0.07779283822 0.6682447195
0.22469835 -0.3246454 1.2246 0.5718198419 -0.1928131729 0.7973989844
0.085504532 0.0046798121 1.1243126 -0.1317517459 0.7416837215 0.6576828957
-0.27428973 -0.36446714 2.1430001 -0.1080249399 0.7162482142 0.6894339323
0.32295349 0.23257966 1.516 0.6759076118 -0.4459629059 0.5867418647
-0.026078379 -0.2132839 1.3280001 -0.287592113 0.6281758547 0.7229701281
-0.25919437 -0.11333196 1.197 -0.22976695 0.6265852451 0.7447134256
-0.052556165 0.010511233 1.09 -0.1387263536 0.735023737 0.6636980772
0.22490056 -0.015604313 1.1555998 -0.04870887101 0.7310984731 0.6805310249
0.31974488 -0.36186695 2.184 -0.02753377333 0.7524753213 0.6580446959
-0.26681873 -0.014359798 1.4040002 0.5836753249 -0.250213176 0.7724742889
0.37200198 -0.28514481 1.034143 0.8880848289 0.1634029299 0.4296566844
0.094254136 -0.17567691 1.3123848 -0.0139097115 0.6567593813 0.7539719343
0.27175528 -0.43460488 1.161 0.6755537391 -0.191704154 0.7119527459
0.13036208 0.078742199 0.99800003 0.09056646377 0.8379548788 0.5381721854
0.12916127 -0.40722418 1.2867501 0.6729755998 -0.1553041935 0.7231766582
0.20706539 -0.21490365 1.27675 0.733785212 -0.1183059365 0.6690014601
-0.38622338 -0.11284716 1.8130001 0.9181548953 -0.3949172199 0.03212522343
0.034463521 -0.38484263 2.184 -0.04914509878 0.7242476344 0.6877863407
-0.11321498 0.082138658 1.0168571 0.08069934696 0.6929651499 0.7164404988
0.020727906 0.21178514 1.028 0.6277112961 -0.3300987184 0.7049916983
0.31424698 -0.32549867 1.132 0.7275499105 -0.01237046532 0.6859431863
-0.14536434 -0.12523599 1.2122102 -0.2094781399 0.6686169505 0.7134916186
0.27907017 -0.1189096 1.1863333 0.8856543899 0.07098072022 0.4588878155
-0.044067401 0.39045772 1.169 0.5492497087 -0.3561387062 0.7559695244
0.20221017 -0.26597017 2.0780001 -0.02488645539 0.7536712885 0.6567802429
0.35680339 -0.17464699 1.0249997 0.8882207274 0.1383791119 0.4380812347
0.24459393 -0.42533809 2.2410002 -0.02552581951 0.7514851689 0.6592559814
0.074321456 -0.071149677 1.2053335 -0.06197334453 0.7385906577 0.6712995768
0.31188527 0.011313091 1.1060001 0.5015977621 -0.08888501674 0.8605226278
-0.10878732 -0.05137179 1.149 -0.1502922773 0.7731794119 0.6161216497
0.2678121 -0.23625697 1.2060002 0.8047493696 -0.05024439842 0.5914845467
-0.08448261 -0.17007683 1.268 -0.1754599959 0.683602035 0.7084504962
0.014298386 -0.1451465 1.2751055 -0.1546092331 0.6522433758 0.7420744896
0.054995116 0.05587684 1.0532799 -0.06407890469 0.8286501765 0.5560869575
0.31827593 -0.12407988 1.0956364 0.9165941477 0.1391750425 0.3748139143
-0.055168632 -0.37476623 2.1700001 -0.04646477476 0.7224843502 0.6898241639
0.00100729 -0.031225991 1.149 -0.1665530205 0.7555115223 0.6336106062
0.15442397 0.042899679 1.0814999 -0.02872589976 0.7919707298 0.6098829508
0.16552307 -0.2937257 1.2844286 0.6313226223 -0.3064504564 0.7124042511
0.057620794 -0.2334075 1.3734286 -0.1637335122 0.5491207838 0.819547236
0.20605157 -0.41577569 1.2173043 0.5649266839 -0.1718702614 0.807043016
0.41167417 -0.29117051 0.95900005 0.8048236966 0.2256290764 0.5489538312
0.14617686 -0.032330882 1.177 0.008716301993 0.7509800792 0.6602673531
-0.19502127 -0.07454183 1.1646799 0.07050286233 0.6110185981 0.7884704471
-0.1027278 -0.24083962 1.302 -0.2298152894 0.3548035324 0.906255722
0.39574224 -0.36000931 1.0190001 0.7824024558 0.2366287559 0.5760670304
-0.13483664 0.025615178 1.0685 0.1317870915 0.6364549994 0.7599718571
0.095393233 -0.12125189 1.2589999 -0.06699506193 0.6906637549 0.7200661302
-0.064965792 0.12159859 0.97207701 0.1881192029 0.620221138 0.7615358829
0.2456032 -0.15856773 1.2410001 0.787070334 0.006506969687 0.6168289185
0.095621534 -0.41956389 2.2260001 -0.04970333353 0.7291762233 0.6825185418
-0.048786499 -0.42346683 2.2260001 -0.04646477476 0.7224843502 0.6898241639
-0.22455151 -0.16602013 1.2410001 -0.1227409467 0.5827287436 0.8033441305
-0.034449242 0.058888704 1.0380001 -0.08335608989 0.7953246832 0.6004251838
0.2702246 -0.36133483 1.1810001 0.6796914935 -0.1249684691 0.7227740884
0.061475664 0.14459886 0.98766667 0.6047886014 0.08071163297 0.792285502
0.35659999 -0.34482789 1.0746999 0.8551232815 0.03462687507 0.5172669888
0.32442689 -0.45400599 1.1137143 0.5853245258 -0.1101818681 0.8032777309
0.24435328 0.027131332 1.1054285 -0.4351645708 0.628387928 0.6447948813
0.17500649 -0.36531138 1.257609 0.6486611366 -0.1690659076 0.742061615
0.014425549 0.018272363 1.097 -0.1101486608 0.7540013194 0.6475718021
0.3425605 -0.26505691 1.0915 0.8714678884 0.0971128121 0.4807418883
-0.27627361 0.041630268 1.439 0.5450929999 -0.4277314544 0.7210543752
0.37359053 -0.11490133 1.0027142 0.6767172813 -0.09059394896 0.7306479216
0.12646803 -0.34517327 1.3069999 0.6285685301 -0.08382909 0.7732232809
0.22666013 -0.48461929 1.177 0.5251300931 -0.2153104991 0.8233345747
0.27874333 -0.2946631 1.177 0.7432591915 -0.1431430429 0.6535104513
0.19432813 0.064991884 1.0249997 -0.1306855977 0.7593474984 0.6374265552
0.38203222 -0.23519664 0.99431837 0.8720938563 0.1438041776 0.4677314162
0.034847498 -0.19515125 1.325 -0.1572947204 0.7223436236 0.673407793
0.2041689 -0.061629418 1.203143 0.04477666318 0.7324242592 0.6793745756
0.46838984 -0.15445113 1.9150001 0.04009223729 0.7652788162 0.6424491405
0.31006822 -0.39526272 1.13 0.7164264321 -0.1152548268 0.6880766153
0.16557395 -0.44512385 1.253696 0.6321698427 -0.2096322179 0.7459327579
0.21938145 -0.26631379 1.245 0.611449182 -0.2895617485 0.7363992333
0.28789929 -0.18521966 1.1755456 0.86347121 0.05136031657 0.5017763972
0.025651269 -0.097474821 1.2320002 -0.08114541322 0.7155280709 0.6938551664
-0.096392132 -0.091894828 1.1969999 -0.1448416412 0.7146058679 0.6843678355
0.31679812 -0.06463819 1.084318 0.8844097853 0.01048985962 0.4665932953
0.39843035 -0.16549051 0.98100001 0.709002912 -0.1238890961 0.6942379475
-0.0056346101 0.24621603 1.0709375 0.6421917677 -0.3223375976 0.6954769492
0.1746299 0.007892279 1.1254001 0.003258233191 0.7676229477 0.6408934593
0.34486553 -0.20504989 1.0744686 0.9161606431 0.1545127332 0.3698317409
-0.027504541 0.34562933 1.1339999 0.5238051414 -0.4382880032 0.7304326296
0.03707774 -0.42736974 2.2260001 -0.04914509878 0.7242476344 0.6877863407
0.072605535 0.091199636 1.01 -0.1445854306 0.7900972962 0.5956856012
-0.14442691 -0.16553926 1.2538 -0.2470276505 0.6718621254 0.6982683539
-0.05506913 -0.031648103 1.1370001 -0.1045001298 0.7704130411 0.6289224625
-0.10512779 -0.013430673 1.1065787 -0.07616644353 0.7169829011 0.6929171681
-0.040545832 -0.1282125 1.25 -0.1673333496 0.6662042737 0.7267540693
0.29724318 -0.088478453 1.1339999 0.9108124971 0.1790438145 0.3719729781
0.054351203 -0.036547441 1.1655717 -0.1224601045 0.7486687899 0.6515355706
-0.058052868 0.43487048 1.204 0.4872371554 -0.4172519147 0.7671380639
-0.20475602 -0.12228974 1.2060002 0.06404311955 0.6947767138 0.7163684964
0.31067845 -0.26504019 1.1427779 0.8437913656 -0.01572328247 0.5364410281
0.3382293 -0.11518549 1.0452353 0.8704513907 0.0619167164 0.488344878
0.12544312 -0.078267924 1.223 -0.03904891014 0.7078755498 0.7052569985
-0.084331974 0.042555418 1.0500001 -0.01222336572 0.6945285797 0.7193613052
-0.033068042 -0.16938935 1.2830001 -0.2294540703 0.6764843464 0.6997997761
0.30125996 -0.14573753 1.1428462 0.9164717197 0.08921951801 0.3900249302
0.11026976 0.058378108 1.057 -0.01759578846 0.8160219193 0.5777531266
0.14366525 -0.13383049 1.2756667 0.06436184049 0.6632363796 0.7456373572
0.081801765 -0.36715677 2.1700001 -0.04967120662 0.7235955596 0.6884346008
0.015441687 -0.062806875 1.1886364 -0.09133975953 0.7537306547 0.6508049965
-0.13025513 -0.19821434 1.2920001 -0.5031826496 0.2241847962 0.8345947862
-0.14534777 -0.083916031 1.1748825 -0.1629297435 0.6989229321 0.6963911653
-0.15468033 -0.038068622 1.13 0.01213648915 0.6841216683 0.7292668819
-0.095591418 -0.13300373 1.2352729 -0.1812263131 0.6320345402 0.7534516454
0.020606926 0.16216755 1.0220001 0.6669585109 -0.263133496 0.6970847249
0.23192216 -0.3732934 1.21 0.595701158 -0.232830599 0.7687197328
0.10251302 -0.25169536 1.3650001 0.5160567164 -0.2825039327 0.8086265922
-0.065064058 0.085801534 1.0044444 0.105083026 0.7269443274 0.6786085367
0.17555776 -0.2459947 1.2958462 0.5708959699 -0.3102501333 0.7601464391
0.24438637 -0.21538173 1.2424736 0.7730973363 -0.09337420017 0.627376914
0.20454212 0.044710703 1.0851998 -0.1170622855 0.7193036675 0.6847617626
0.35961321 -0.23441295 1.0364001 0.9228394032 0.1395895183 0.3590016067
-0.24041794 -0.06810122 1.177 0.2787277102 0.4795196652 0.8320887685
-0.055226821 -0.063210838 1.1747501 -0.1362415552 0.7561677694 0.6400379539
0.39246768 -0.31462729 1.003647 0.8740950227 0.2212888002 0.4324223697
0.10008816 -0.040241629 1.177 -0.1315023452 0.7072247267 0.6946512461
0.015084414 0.072430879 1.0256667 -0.04944741726 0.8268572688 0.560233891
0.012985187 -0.23127607 1.3460001 -0.1541745216 0.6262224317 0.7642484307
0.065793455 -0.14654398 1.2844286 -0.06636837125 0.6890227199 0.7216944695
-0.072935738 -0.20768143 1.3136668 -0.3746839464 0.4716065824 0.7982475758
0.067845233 0.031533699 1.09 -0.08078264445 0.7986305356 0.5963752866
0.15313788 0.070608489 1.046 0.1057556197 0.8949100971 0.4335338771
0.12503162 -0.0061730724 1.1428951 -0.01987917349 0.7830867171 0.621594727
0.11444271 0.029812803 1.097 -0.01189410128 0.8160226941 0.5778974891
0.34216693 -0.38463613 1.101 0.7744197845 -0.05439022183 0.6303298473
0.19929351 -0.45832223 1.2060001 0.7174783945 -0.177458182 0.6735972762
0.035122294 -0.0076759337 1.1329089 -0.1189865172 0.7314944863 0.671385169
-0.050061174 -0.25030586 1.3280001 -0.5944827199 -0.04021251574 0.8031022549
0.12815727 -0.28979707 1.317 0.7752926946 -0.2751605809 0.568513751
0.24846268 -0.28800297 1.2190001 0.6881183386 -0.1774618924 0.7035626769
0.23711699 -0.43530568 1.1880474 0.535687387 -0.2781616449 0.7972860932
-0.024065228 0.127869 0.95749998 0.008630373515 0.657130897 0.7537270188
0.19466835 -0.31455776 1.2545911 0.5781511068 -0.1302032471 0.8054740429
0.33955142 -0.16276018 1.067 0.9309408069 0.2122980356 0.2971173525
-0.1546931 -0.0028842331 1.096 0.1078521237 0.6841437221 0.7213288546
0.0048629162 0.044241309 1.0643158 -0.109057501 0.7972034812 0.5937786102
0.089067876 -0.32708755 1.2970001 -0.3741110861 0.1123474836 0.9205536246
0.26459113 -0.18518957 1.2136843 0.8359863758 -0.02983926982 0.5479382873
0.27401972 0.32644084 1.3590001 -0.5441306829 -0.6445572972 0.5370919108
0.42143404 -0.254017 0.94075006 0.7141662836 0.02459675446 0.6995437741
-0.20385246 -0.040903512 1.138 0.2532770932 0.5677688718 0.7832555175
0.33201608 -0.025125965 1.0857999 0.5784893036 -0.3037106693 0.7570402622
0.28614271 -0.46562058 1.1362611 0.6943915486 -0.2660858333 0.6685945392
0.28305122 0.040914658 1.1149999 0.3075524867 0.4741437435 0.8249843717
0.34135401 -0.3058461 1.1016153 0.8546653986 0.04756219313 0.5169959664
0.18856749 -0.031769522 1.169 0.06482384354 0.7289971709 0.6814403534
-0.18535443 -0.15330094 1.2338183 -0.01287417579 0.6835250258 0.7298135161
0.083852455 0.11208356 0.97399992 0.1739394516 0.6777411103 0.7144312859
-0.015214356 -0.0041335812 1.1158888 -0.2381890118 0.7063313127 0.6666049361
0.29602224 -0.2247256 1.1652 0.8379898667 -0.02436850779 0.5451413989
0.32673681 -0.17483252 1.1047142 0.8949050307 0.1656970084 0.4143542945
0.15605451 -0.33470654 1.2774117 0.6428729892 -0.1828428507 0.7438298464
0.25829491 -0.32545462 1.1969999 0.6776263714 -0.1524689943 0.7194273472
0.164584 -0.067957446 1.2112 0.04996631667 0.7045407295 0.7079023123
0.045226004 -0.12309767 1.2581999 -0.09543296695 0.6952950358 0.7123603821
0.0050305766 -0.17758223 1.3035001 -0.09496011585 0.6623079181 0.7431896329
0.37347814 -0.37474003 1.0528636 0.8230523467 0.1355856061 0.5515446067
0.28283805 -0.39547575 1.1610001 0.6932931542 -0.174616456 0.6991807222
0.37277097 -0.32529062 1.0436844 0.8813149333 0.1073571444 0.4601722062
0.16518332 -0.40544415 1.2583685 0.7462309003 -0.09483627975 0.6588972211
0.38711995 -0.27482533 0.9942106 0.9148371816 0.1659348607 0.368155539
0.37680373 -0.1949921 0.99707687 0.8167883158 0.04605729133 0.5750961304
0.3002066 -0.35580042 1.153 0.7610849142 -0.02952875011 0.6479797959
-0.25350749 -0.14505905 1.2256666 -0.006949983537 0.5338876843 0.8455268145
0.045048743 0.10538228 0.98651409 -0.05758347362 0.3979214728 0.9156105518
0.064801857 -0.09591461 1.2335387 -0.07075770199 0.7405874133 0.6682242155
0.21716787 0.0088841403 1.126 0.01543033496 0.7670648694 0.6413840055
-0.19613487 -0.17840517 1.2640001 -0.01574485004 0.6441639662 0.7647253275
0.10487475 -0.14547436 1.2863334 -0.1064188555 0.6950592399 0.7110328078
-0.12541944 0.051839326 1.0430769 0.1117245927 0.6666849256 0.7369184494
0.11770243 -0.38147858 1.312 0.6712520719 -0.06569333375 0.738312304
-0.17511593 -0.10215095 1.189 -0.04468339682 0.6702982187 0.7407453656
-0.034259591 0.10184533 0.98261547 0.0144099351 0.7151098847 0.6988635063
0.47200346 -0.14209101 1.863 0.04009223729 0.7652788162 0.6424491405
-0.094904162 0.017469749 1.0755882 -0.05118069053 0.7268977165 0.6848359108
0.20360556 -0.35442084 1.2325716 0.5867124796 -0.2642740011 0.7654591799
0.25540286 -0.39557245 1.1862121 0.5900725722 -0.1260914207 0.7974429727
-0.014051213 -0.10755384 1.2330002 -0.2283346951 0.6959220171 0.6808493137
0.10432038 0.078627355 1.0266362 -0.08728201687 0.8351075053 0.5431181192
0.27440846 -0.15449311 1.1952223 0.8778470755 0.03315453604 0.477792114
0.13457184 -0.43362036 1.312 0.8517724276 0.02038486116 0.5235152841
-0.28877398 0.068022318 1.4640001 0.8554816842 0.320625782 -0.4066326916
0.13490053 -0.1066681 1.2524999 0.02279723436 0.7153545022 0.698389709
-0.063257635 -0.1082885 1.223 -0.1547618955 0.6707035899 0.7254001498
-0.044924386 0.035271503 1.0637929 -0.1221098006 0.7324663997 0.6697627306
-0.1512101 -0.20198137 1.2590001 -0.1837987453 0.1708271652 0.9680062532
0.025190033 0.13514906 0.99356019 -0.4785231948 -0.2885778248 0.8292999268
0.33653942 -0.34460294 1.1050397 0.8175798655 0.003064103192 0.575807035
-0.024314251 0.081217907 1.0106667 -0.09356293082 0.7983550429 0.594874084
0.35825947 -0.29091042 1.067 0.9035484791 0.06694271415 0.4232243299
0.22695738 -0.18509479 1.2567502 0.7221662402 -0.09614168108 0.6850056648
0.32716486 -0.2442864 1.1166111 0.8532794714 0.001755841775 0.5214509368
-0.25970724 0.020924279 1.404 0.5836753249 -0.250213176 0.7724742889
0.14315066 -0.37419888 1.2839091 0.7673051357 0.01909264177 0.6409978867
0.19294389 -0.27350721 1.2734165 0.6163288355 -0.3217813373 0.7187458277
0.16810583 0.083863184 1.0100001 -0.2212798595 0.5125786662 0.8296374679
0.40143618 -0.23360887 0.96200007 0.8101925254 -0.004504209384 0.5861465931
0.33948126 -0.42507288 1.097 0.7321974039 -0.03547441959 0.6801680326
0.26157716 -0.47226384 1.161 0.6722406149 -0.238733843 0.7007843256
-0.033351321 0.30742654 1.13 0.6637097001 -0.2617682517 0.7006902695
0.10322604 -0.35720101 1.3330001 0.5195915103 0.01332723256 0.8543108702
0.37120083 -0.15357009 1.001 0.7402627468 -0.02816120535 0.6717276573
0.12537034 -0.15987594 1.312 -0.1622968316 0.7102890611 0.6849446893
-0.016010331 -0.055315152 1.1756668 -0.1645874083 0.7505671978 0.6399686337
0.30090484 -0.43414509 1.13 0.6676204205 -0.1599345952 0.7271202803
0.054948151 -0.17170721 1.30575 -0.1334044337 0.6793838739 0.7215544581
0.062400255 -0.20603858 1.3430001 -0.2060122937 0.7826148868 0.5874290466
0.14525315 0.020471919 1.1120001 0.02349341288 0.8052572608 0.5924599767
0.33174819 -0.08456327 1.0600001 0.8840427995 0.06619557738 0.4626948535
0.19827637 0.084635809 1.0847501 -0.2046043724 0.02155915275 0.9786072969
0.29273126 -0.26342389 1.1730002 0.7832539082 -0.06255291402 0.6185470223
-0.21509719 -0.095003337 1.1837271 0.1193181276 0.5992752314 0.791601181
0.12499651 -0.05494082 1.1952857 -0.03873486817 0.7283972502 0.6840592623
0.29465094 -0.11476456 1.1555712 0.9227351546 0.1257976592 0.3643278182
0.035642415 0.038002841 1.077 -0.0413556397 0.7836358547 0.6198424101
0.088950105 -0.019205136 1.153 -0.1425250024 0.7386531234 0.6588460803
0.35472649 -0.094856918 1.0239999 0.7534735203 -0.08096706867 0.6524737477
-0.085334331 0.065415725 1.0254614 0.05894069746 0.7030080557 0.7087352872
0.24609597 -0.25530896 1.225857 0.7519549727 -0.157397911 0.6401481032
0.28790897 -0.32538474 1.1674615 0.7277289033 -0.09523808956 0.6792203784
0.18494366 0.060921904 1.0636668 -0.1199270189 0.7763503194 0.6187872887
0.28427967 0.0080260085 1.1242858 0.4329822063 0.05614294484 0.8996523619
-0.095376156 -0.067674115 1.1744547 -0.1093587354 0.7445745468 0.6585206389
0.35463127 -0.13506569 1.0246786 0.8433633447 0.03017571196 0.5364957452
-0.16947719 0.021776401 1.08 0.1908208579 0.5787950754 0.7928326726
0.25914925 -0.13785671 1.2190001 0.8328040242 0.02858471312 0.5528294444
-0.002305049 0.21514393 1.0510001 0.6317364573 -0.3211491108 0.705529809
0.18135007 -0.46472174 1.2328002 0.7141982317 -0.08907270432 0.694252789
-0.014580489 0.024900457 1.0836521 -0.2164256275 0.7302145362 0.6480329633
0.40253708 -0.19482958 0.9640801 0.7444203496 -0.07410616428 0.6635861397
0.18654339 -0.3952713 1.2360001 0.7025015354 -0.1699336916 0.6910963058
0.055641592 0.011712706 1.1135001 -0.06164715067 0.7461390495 0.6629300117
-0.12677652 -0.14194636 1.2360001 -0.2443126738 0.6832515597 0.6880978346
-0.16518179 -0.066182919 1.1551175 0.004893756006 0.7187994719 0.6952002645
0.30603048 -0.1851074 1.1450002 0.8816140294 0.1320300251 0.4531278014
-0.1290725 -0.10178889 1.197 -0.2667489946 0.6601905227 0.7021349072
0.30223763 -0.29398823 1.1542307 0.8149724603 -0.06657332927 0.5756629705
-0.095630847 -0.19449751 1.295077 -0.1877968907 0.5281248093 0.828140378
0.35661882 -0.25519612 1.0643499 0.9157816172 0.1760491282 0.3610411882
-0.04487342 -0.19491081 1.3046468 -0.1679228544 0.6923410296 0.7017591
0.13900273 -0.31581193 1.2970001 0.6904251575 -0.1763565987 0.7015777826
0.15612996 -0.01108019 1.149 0.05787327141 0.7625569701 0.6443272233
0.037564728 0.17122659 0.99650002 0.6854018569 -0.2388256043 0.6878856421
0.32262239 -0.29501104 1.1249287 0.7630622983 -0.02162099257 0.6459632516
0.0042687822 -0.20296118 1.3280001 -0.1510468125 0.7438297868 0.6510776281
-0.075475842 -0.048032269 1.1547778 -0.1213591993 0.7720922232 0.6238153577
-0.0031717801 -0.081409022 1.2060001 -0.1635461152 0.7302639484 0.6633002758
0.14457697 -0.43418521 1.2744999 0.7685830593 -0.1664363295 0.6177207828
0.19551028 -0.0070211068 1.1436669 -0.03420533985 0.737605691 0.6743647456
0.21953136 -0.43708494 2.256 -0.02552581951 0.7514851689 0.6592559814
0.23438917 0.05414122 1.0852271 -0.3500310183 0.4403262734 0.8267956376
-0.11539551 -0.17700489 1.2744285 -0.09433389455 0.7057725787 0.7021297216
0.10077108 -0.10077108 1.2360001 -0.0850514099 0.7174717784 0.691375792
0.21223925 -0.24366951 1.2653333 0.7065009475 -0.2585187852 0.6588053107
0.11341874 0.10133652 0.98460007 0.06071606278 0.7507033944 0.657843411
0.31184024 -0.094909251 1.1047001 0.8851118088 0.1526432931 0.4396328926
0.10546476 -0.3181327 1.322 0.02883348614 -0.2223365456 0.9745435119
-0.091190577 0.10109574 0.99700004 0.1215873882 0.6584741473 0.7427168489
-0.075283095 -0.01564784 1.1152499 -0.1452449858 0.7548334002 0.6396329999
-0.054864909 -0.1556029 1.2657778 -0.1183499768 0.6179010272 0.777297616
0.32273161 -0.36425573 1.1245883 0.7179934382 -0.0803071335 0.6914016008
-0.015282323 -0.1442149 1.2661538 -0.2500561178 0.6428708434 0.7240089774
0.33305627 -0.04551788 1.0626 0.8425801396 -0.2818909585 0.4589076042
0.36257303 -0.20500517 1.0245714 0.9077528119 0.1386135221 0.3959433436
0.21779557 -0.29581186 1.2360001 0.6538208723 -0.2055543214 0.7281934619
-0.0048295148 0.27535316 1.0807619 0.5933637023 -0.2712838948 0.7578420043
0.045050822 -0.077269264 1.2124616 -0.07716163993 0.734621048 0.6740756631
0.15466242 -0.267663 1.302 0.480383575 -0.2400230169 0.8435760736
0.23199967 -0.40446696 1.204 0.5293954015 -0.1946516335 0.8257428408
0.26908848 -0.26549062 1.1969999 0.7719605565 -0.110556148 0.6259826422
-0.12519808 -0.032368582 1.1245002 -0.08928339183 0.7436408997 0.6625909209
0.10908714 -0.27682328 1.3380001 0.7220502496 0.03596148267 0.6909053326
0.28133723 -0.21231025 1.1930001 0.8203658462 -0.05467014387 0.5692196488
0.47764364 -0.13449293 1.8940001 0.04009223729 0.7652788162 0.6424491405
-0.23481691 -0.12538084 1.2119999 0.04210716113 0.6291899681 0.7761101723
-0.13780674 -0.224076 1.2780001 -0.5958414078 0.05840191618 0.8009757996
0.2041921 -0.49200484 1.1960001 0.7267460823 -0.1363845915 0.6732305884
0.19489445 0.02453495 1.1055999 -0.07722204924 0.7762078643 0.6257300377
0.34326014 -0.23471251 1.0820714 0.90406394 0.1070505157 0.4137735665
-0.045645751 -0.0079985317 1.1126001 -0.1326380968 0.7203571796 0.6808029413
-0.065718494 -0.23543191 1.3050554 -0.4214945138 -0.234210521 0.8760638237
0.044863671 0.075365998 1.0254836 -0.04631314427 0.8262239099 0.5614349246
0.074941859 0.06790901 1.0346252 -0.1129674464 0.8391865492 0.5319814682
-0.28235301 0.01705146 1.423 0.5992490649 -0.3102988303 0.737980485
0.18182921 -0.42459187 1.2337779 0.7336260676 -0.1220935434 0.6684952974
-0.17594674 -0.13291684 1.2142857 -0.04478762671 0.6624726057 0.7477460504
0.17824298 -0.051075477 1.189 0.07990379632 0.7233077884 0.6858872175
0.39910623 -0.26280338 0.96657145 0.8663575053 0.09994088113 0.4893224537
-0.06522727 -0.082560882 1.1948183 -0.1474174559 0.7370926738 0.659516871
0.024851967 -0.042786375 1.169 -0.1031388566 0.7451018691 0.6589275599
-0.061499044 0.40964615 1.189 0.5264946818 -0.3745087683 0.7632473707
0.015355912 -0.11737359 1.25125 -0.0864681229 0.6957212687 0.7130884528
-0.1048958 -0.15411739 1.2536668 -0.1313870698 0.6666861176 0.7336668372
-0.13592337 -0.062951975 1.1561112 -0.1942918003 0.7608765364 0.6191264391
0.37456304 -0.25488627 1.0148891 0.8873894215 0.1691379547 0.4288733304
-0.038073342 0.36658224 1.153 0.5161826015 -0.43139112 0.7399035096
0.33239579 -0.21513514 1.1032856 0.9061754346 0.1051670089 0.4096169174
0.29101738 -0.14499453 1.1730001 0.8735557199 0.02649752609 0.4860024154
0.35071051 -0.18870249 1.0500001 0.9343283772 0.1902248561 0.3014050424
0.06484703 -0.010974113 1.138 -0.08020276576 0.7337896824 0.6746259928
-0.035278484 -0.043847557 1.1548462 -0.1259867102 0.7951693535 0.5931551456
-0.12292883 -0.00095293665 1.087 -0.04791115969 0.7062562108 0.7063332796
0.31074217 -0.23587592 1.1425 0.8378560543 4.673863077e-05 0.5458912849
0.33138776 -0.13510397 1.0712856 0.9141895771 0.170018971 0.3679008186
0.0047678398 0.12201726 0.97060013 -0.2242623717 0.4987687767 0.8372192383
-0.065490507 -0.18292177 1.2880001 -0.1086816788 0.6877699494 0.717746973
0.30678335 -0.016348956 1.097 0.5229371786 -0.2718188167 0.8078683019
0.3143014 -0.14497533 1.1150868 0.8847649693 0.1764310747 0.4313502014
-0.32287195 -0.025529411 1.7130001 0.9155602455 -0.4014980197 0.02342701517
0.30554155 -0.11503632 1.1242858 0.9042665362 0.1478682458 0.4005458355
-0.22213243 -0.052405674 1.1570001 0.225743562 0.621551156 0.7501426339
-0.36959389 -0.099082619 1.794 0.9181548953 -0.3949172199 0.03212522343
0.35784045 -0.38522136 1.0769999 0.8170692921 -0.003644789336 0.5765280128
-0.11701789 -0.12129253 1.2190001 -0.2428307533 0.6290073991 0.7385004759
0.085028067 0.048585214 1.0658 -0.08492501825 0.806550622 0.5850331783
-0.015928596 -0.23245868 1.3460001 -0.3533046544 0.4936932325 0.7946337461
0.2414002 -0.34383991 1.21 0.6981906891 -0.1909578294 0.6899745464
0.2144388 -0.040207438 1.1760001 -0.02832959406 0.7123519182 0.7012504339
-0.025006359 -0.024289085 1.1327275 -0.2300545722 0.7300105691 0.6435522437
0.20838805 -0.38792238 1.2190001 0.5828732848 -0.2948133051 0.7571947575
0.17706874 -0.33600491 1.2589999 0.5698396564 -0.2918170691 0.7681962848
0.065363266 -0.052886549 1.1861429 -0.08780045062 0.7382356524 0.6688042879
0.11518611 0.010829464 1.123 -0.0488531515 0.7583754659 0.6499846578
0.41116303 -0.31549019 0.98325002 0.8284945488 0.2810810804 0.4843451381
0.035326567 -0.21503176 1.3462002 -0.2231288105 0.7243492603 0.6523278952
-0.21501768 -0.14466079 1.2263331 -0.04778577015 0.5891201496 0.8066312671
0.19128954 -0.080149248 1.2190001 0.06438390911 0.6992374063 0.711984396
-0.053122785 -0.22142117 1.327 -0.3293404579 0.04516003653 0.943130672
0.0079250671 -0.0089157 1.13 -0.1351103336 0.7257452607 0.6745657921
0.025190432 0.058845665 1.0470001 -0.05639746413 0.8098214865 0.5839592814
-0.15335666 -0.14687401 1.2328891 -0.1779571325 0.672755301 0.718144536
-0.075086795 -0.14571808 1.2510002 -0.1975241452 0.6466450691 0.7367729545
0.024912329 0.087072983 1.005421 -0.05303613842 0.7870569825 0.6145961881
-0.018072264 0.32284191 1.1142501 0.6389933228 -0.2909680307 0.7120569944
-0.15104178 0.043551922 1.057 0.194739908 0.6187350154 0.7610803843
0.13143863 0.080676123 1.034 0.0758639127 0.9240717292 0.374614656
-0.094415814 -0.034792934 1.1336797 -0.132119 0.770893991 0.6231107712
-0.067546293 0.4556694 1.223 0.4872371554 -0.4172519147 0.7671380639
-0.017166594 -0.19225097 1.3053334 -0.2269344479 0.6920663714 0.6852334738
-0.0027387068 0.06120361 1.0419999 -0.1082983539 0.8107907772 0.5752301812
0.055168629 -0.36715677 2.1700001 -0.04950708523 0.7271890044 0.6846497059
0.40235364 -0.33917049 1.001 0.8243314028 0.2298416495 0.5173494816
-0.03439777 -0.071922608 1.189 -0.1384516507 0.7392017245 0.6590993404
0.095110439 -0.080149248 1.2190001 -0.1189966947 0.7198702693 0.6838322282
0.088379398 -0.23608194 1.381 0.2137551755 0.05392093211 0.9753980041
0.25497147 0.051830575 1.1016666 -0.4372102618 0.5535039902 0.7088586092
0.23732242 -0.4591673 1.177 0.5276371837 -0.2085320204 0.8234764338
0.13503331 0.05407045 1.0643809 -0.008418046869 0.8003442287 0.5994816422
0.38839313 -0.21177286 0.97800004 0.8370856643 -0.008822128177 0.5470006466
-0.10682829 -0.21620101 1.2861251 -0.2794659138 0.03331293166 0.9595775604
0.23361173 -0.24516779 1.25 0.6275365949 -0.2430331558 0.7396841645
0.095386304 -0.057653405 1.1956668 -0.1347653419 0.7325587869 0.66723001
0.32474944 -0.41507402 1.1158 0.6609373093 -0.07754211873 0.7464241982
-0.17107712 -0.18211435 1.2590001 0.08855385333 0.4523488581 0.8874337673
0.15883973 -0.4743433 1.2410001 0.6045437455 -0.1964560151 0.7719662786
0.36114284 -0.31986937 1.0700001 0.8796093464 0.04139387608 0.4738923311
-0.055283915 0.066964842 1.025375 -0.02442293987 0.7677858472 0.6402409077
0.024831245 -0.16615152 1.2919999 -0.1462945193 0.5929610133 0.7918302417
0.24888915 -0.18543722 1.2337779 0.7926334143 -0.07403399795 0.6051869988
0.01181922 0.23631059 1.0518183 0.612891376 -0.3417143822 0.7124572992
0.32507899 -0.10505886 1.0735261 0.9161726832 0.07643961161 0.3934268057
0.35282195 -0.21512721 1.0515001 0.9384090304 0.1317445934 0.3194243312
0.0649582 -0.18722656 1.3232001 -0.06734345108 0.7000694871 0.7108920813
-0.24534473 -0.093681805 1.1889999 0.01802356914 0.4264121056 0.9043494463
-0.17671715 -0.028058155 1.123 0.1856702417 0.6291151643 0.7548117042
0.12541465 -0.025363276 1.1646665 -0.04246291146 0.7545867562 0.6548249722
0.015897634 0.1876175 1.0230911 0.6817115545 -0.2328102887 0.6935911775
0.31006822 -0.16543576 1.13 0.8682816029 0.1448860615 0.4744418263
0.26623386 0.025955629 1.1260002 -0.007273284718 0.3940937519 0.9190414548
0.11590423 -0.12738304 1.2729999 -0.1329248846 0.6890988946 0.7123718858
0.30970442 -0.039070401 1.087 0.6465170979 -0.155079335 0.7469712496
0.28842101 -0.41586027 1.1476668 0.7001896501 -0.1799140126 0.6909163594
0.17510998 0.034231119 1.0939 -0.02117910981 0.7719567418 0.6353221536
0.38496703 -0.33475569 1.0240999 0.8467162848 0.1432896703 0.5123862028
0.34348506 -0.15492177 1.0437695 0.9011083841 0.1062296107 0.4203795493
0.33231795 -0.27541783 1.1131539 0.8377835751 0.05391012132 0.5433345437
0.12985186 -0.15017651 1.2880001 -0.06761312485 0.7276012897 0.6826601028
-0.085513569 -0.0028842331 1.0960001 -0.05085423961 0.7279726863 0.6837174892
0.19255108 -0.22766332 1.2919999 0.6522970796 -0.2083872706 0.72875458
0.21681021 -0.46558595 1.189 0.5453922749 -0.1742118746 0.819876492
-0.18460606 -0.053879172 1.1460001 0.1373075098 0.663934648 0.7350764871
-0.2110049 -0.018822033 1.13 0.2963436246 0.5565276742 0.7761812806
0.15443662 -0.052488856 1.1947778 0.0343776904 0.7045207024 0.7088503242
0.15796889 -0.3832722 1.2660002 0.7333543301 -0.05187778175 0.6778643727
0.26449397 -0.41475555 1.1739602 0.6822255254 -0.2041134834 0.7020726204
0.28256196 -0.23529775 1.1849999 0.8056522012 -0.05334402621 0.589982152
0.37382865 -0.40066427 1.0555 0.7989310026 0.0664280504 0.5977429152
0.094526879 0.03758752 1.0854999 -0.07786151022 0.7898595333 0.6083251834
0.25910503 -0.21536167 1.2147692 0.8023501635 -0.1088009179 0.5868531466
0.38075557 -0.30560994 1.0229002 0.8755232692 0.161794439 0.4552819133
-0.13470177 -0.014369613 1.1035768 0.03202852979 0.7019143105 0.7115409374
0.21432044 -0.4347381 1.204769 0.5675622821 -0.2674908042 0.7786666155
0.14496033 0.002834639 1.1325715 0.02727437951 0.7671900988 0.6408396959
0.20528798 -0.28524774 1.2563003 0.6372666359 -0.2926435173 0.7129172683
0.26112005 -0.30200571 1.202 0.7378596067 -0.1788276732 0.6508331895
-0.064894594 0.025231928 1.0728333 -0.1126350313 0.7260955572 0.6783056855
0.39098808 -0.38188827 1.0380001 0.7495949864 0.2186066657 0.6247547269
0.37962106 -0.35484743 1.0361819 0.8138489723 0.1387348473 0.5642716289
-0.0045127515 -0.16251877 1.2873751 -0.2266269922 0.6470565796 0.7279821038
0.073984042 -0.13104686 1.268 -0.06280266494 0.7118749619 0.6994925737
0.33577016 -0.18499382 1.084 0.925285995 0.1234711185 0.3586094081
0.20915097 0.10198899 1.07225 -0.848357439 0.3210045397 0.4210056663
0.17119391 -0.31404147 1.273 0.6270903945 -0.1826366186 0.7572327852
0.15430817 -0.087928586 1.2335387 0.03415085003 0.6734904647 0.7384065986
0.21807171 -0.41846192 2.2410002 -0.02552581951 0.7514851689 0.6592559814
0.036051746 -0.027628437 1.153 -0.08569845557 0.7319757938 0.6759195328
0.35096598 -0.36543602 1.09 0.8175353408 0.03259651735 0.574955225
0.14470758 -0.45793065 1.273 0.7323133349 -0.2306927741 0.6407012343
-0.064003676 0.051223628 1.0413333 -0.05755035579 0.7240734696 0.6873176694
0.18624958 -0.29520041 1.2664999 0.5563819408 -0.3293448687 0.7628703117
-0.02558131 0.0086553302 1.097 -0.2111936957 0.7315678596 0.6482326984
0.39549387 -0.29474682 0.98460025 0.8806894422 0.2384854257 0.4092808664
0.29748985 -0.16516209 1.1557999 0.8998558521 0.09953999519 0.4246778488
0.055303607 0.12531917 0.97545165 0.4342635572 0.1127749085 0.8936984539
-0.013939627 -0.12640719 1.2507143 -0.2069858164 0.6742463112 0.7089067101
0.24457291 -0.31500715 1.2129999 0.6902477741 -0.1832462698 0.6999849081
0.38304806 -0.13524844 0.99228579 0.6920173168 -0.08939671516 0.7163241506
0.36342114 -0.26573202 1.0442141 0.9273565412 0.1718877703 0.3323618472
0.2489111 -0.36603177 1.1955001 0.6723915339 -0.1560252011 0.7235646248
0.22588527 -0.21486962 1.2569203 0.6864284277 -0.1093465984 0.7189292908
0.15679184 0.067196503 1.0220001 0.1714939773 0.9546121359 0.2435270697
-0.11566848 -0.084480643 1.186 -0.1918918043 0.6872031689 0.700663507
-0.17275944 -0.07918141 1.1730001 -0.05938272923 0.660646975 0.7483443618
0.084525898 0.022368699 1.1034999 -0.1014375985 0.7828692198 0.6138617396
-0.095110439 -0.1132776 1.219 -0.1742632836 0.6671812534 0.7242247462
0.093922123 -0.34167907 1.3145001 -0.4963325262 0.08403442055 0.8640556931
0.16520813 -0.026317075 1.1650003 0.05136219785 0.7785201669 0.6255143881
0.045149643 -0.10643712 1.2410001 -0.1287912726 0.7137322426 0.6884759665
-0.10562664 0.030975556 1.0600001 0.01030983031 0.7080506682 0.7060863972
-0.26398751 -0.12642688 1.2155455 -0.1905717254 0.6432698965 0.7415431142
0.084709235 -0.16117495 1.2970001 -0.01816708967 0.6736083627 0.7388651371
0.044274881 -0.059614211 1.1930001 -0.1011473984 0.7360070348 0.6693750024
0.096725553 0.091190577 0.99700004 0.1757326424 0.9178107381 0.3560077548
0.32598045 -0.15498504 1.0929048 0.903490603 0.2317121774 0.3605748415
0.024554439 0.0045473082 1.1164347 -0.1439733356 0.7459849119 0.6502139568
0.22494711 0.035621401 1.095 -0.1347450018 0.7001721263 0.7011439204
-0.22482751 -0.11097087 1.197 0.1467194706 0.65793854 0.7386408448
-0.035445385 -0.10526435 1.2251999 -0.1411558092 0.6836818457 0.7159987092
0.074881941 -0.10812222 1.25 -0.05031911284 0.7106897831 0.7017036676
0.024129121 0.10839733 0.9780001 -0.2110667378 0.4846256971 0.8488749862
-0.042810701 0.11910699 0.96700007 0.08950042725 0.6540362239 0.7511499524
0.28533372 -0.44467163 1.1450002 0.7090001702 -0.2178509235 0.6707158685
-0.16531269 -0.16413729 1.245 -0.1099856123 0.706366837 0.69924891
0.14233677 -0.3530103 1.2920001 0.7299333811 -0.146053046 0.6677318215
0.19191724 -0.44173127 1.223 0.7091320753 -0.1429347098 0.690435648
-0.015924737 0.047587305 1.0561001 -0.1448910385 0.7786946297 0.6104434729
0.12436843 0.042492282 1.0805714 -0.01124504209 0.7929219007 0.6092194915
0.066760793 0.099707685 0.98900002 0.1097792387 0.838953197 0.5330159664
0.30348262 -0.20592412 1.1552221 0.8565979004 0.04179450497 0.5142890811
0.25463584 -0.44521731 1.1733638 0.5752837062 -0.2078274488 0.7911108732
0.03093669 -0.18218273 1.307 -0.1835097373 0.699871242 0.690293014
0.26053569 -0.16511315 1.223 0.8239878416 0.008717698045 0.5665404201
0.044672564 0.025685802 1.0934999 -0.1002498865 0.8023397923 0.5883883834
-0.10454109 0.057267964 1.0369334 0.04197975993 0.6673294306 0.7435785532
-0.18306403 0.0026084592 1.0965716 0.2022176236 0.6183044314 0.759478569
0.33270079 -0.32488415 1.1149 0.7879680395 -0.01363288239 0.6155651808
0.15513493 -0.11856741 1.2640001 0.0324630253 0.6946530938 0.7186120152
-0.16496521 -0.11723025 1.2027273 -0.06315307319 0.6667225957 0.7426255345
0.044815201 -0.14228825 1.2780001 -0.06015107408 0.7092390656 0.7023971677
0.22658385 -0.35417128 1.223 0.5438933969 -0.2377361655 0.8047741652
0.26930937 -0.33947426 1.177 0.6906813979 -0.1019798666 0.7159324884
-0.074604325 -0.12434288 1.2333335 -0.1702196598 0.6469576359 0.743283987
0.19147801 -0.37098867 1.2410001 0.6364629269 -0.194162026 0.7464690208
0.2043471 -0.33476979 1.2427145 0.6418216825 -0.2861080766 0.7114822865
0.042414594 0.1234411 1.001 0.1362969428 -0.05266321078 0.9892672896
0.37106696 -0.22571301 1.011 0.8889520764 0.1177320033 0.4426097274
0.32517916 -0.38493252 1.1172665 0.6955820918 -0.08184985816 0.7137690187
0.29751548 -0.3769888 1.1475002 0.7600975037 -0.1570240706 0.630551517
-0.055461347 0.09757641 0.98850012 0.1268303096 0.6994016767 0.7033856511
0.34972775 -0.40452161 1.087 0.7739391923 -0.05123653635 0.6311837435
0.3682892 -0.30389372 1.0456874 0.9030262828 0.1205177531 0.4123336077
0.27638286 -0.18530437 1.1942002 0.8469917178 0.04078999907 0.5300388932
0.40916839 -0.27065507 0.94800013 0.7721743584 0.1400811225 0.619777441
-0.15573281 -0.017791074 1.1120001 0.09323797375 0.6592161655 0.7461506128
-0.089257382 -0.22342771 1.2970001 -0.3670532703 -0.01332443114 0.9301044941
-0.014857037 0.1132492 0.97473091 -0.07354611903 0.6904965639 0.719587028
0.36788714 -0.1749526 1.0042856 0.8068531156 0.07019651681 0.5865666866
-0.040472195 0.32772607 1.126 0.6450777054 -0.292780906 0.7058002949
0.34071913 -0.44689223 1.1010001 0.6964659691 0.003997164778 0.7175786495
-0.14571515 0.012008873 1.0816667 0.1159447059 0.6241058707 0.7726892829
0.12417417 -0.32389742 1.3123336 0.513817966 -0.08888024092 0.85328269
-0.13895166 -0.18119298 1.268 -0.5039927959 0.3968787193 0.76712358
0.28848997 -0.0058280798 1.108 0.4770360887 -0.183539629 0.8595055342
0.24556698 -0.41528711 1.1889999 0.5843034387 -0.2149299979 0.7825564146
