# .PCD v0.7 - Point Cloud Data file format
VERSION 0.7
FIELDS x y z normal_x normal_y normal_z
SIZE 4 4 4 4 4 4
TYPE F F F F F F
COUNT 1 1 1 1 1 1
WIDTH 512
HEIGHT 1
VIEWPOINT 0 0 0 1 0 0 0
POINTS 512
DATA ascii
0.37540624 -0.23535083 1.647 0.7005758286 -0.009897274897 0.7135093212
-0.47349116 -0.39501196 2.9840002 -0.108474724 0.8348560333 0.5396746397
-0.49926078 -0.49622577 1.7310001 -0.2853778899 0.646531105 0.7075005174
-0.25293526 0.33484864 1.8940001 0.6356489062 -0.1088809967 0.7642613053
0.4885155 0.18799065 2.2260001 0.009402245283 -0.9085276127 -0.4177190661
-0.33706021 -0.0035037445 2.398 -0.2019710094 0.8121734262 0.5473408699
0.088557363 0.2053504 1.4640001 0.2241756618 -0.4306971729 0.8742111921
-0.10596094 -0.15024313 1.8040001 0.1868602335 0.7615196705 0.6206215024
0.35761425 0.40211734 1.8130001 -0.1644075215 -0.6561734676 0.736482501
-0.05813089 -0.29065445 2.8830001 -0.108474724 0.8348560333 0.5396746397
0.17102188 -0.49978241 1.8940001 0.6987358928 0.3846483827 0.6031697392
0.017346311 0.48520109 1.6960001 -0.4064781964 0.1051712781 -0.9075871706
0.36241138 0.10540251 1.6470001 0.4589687586 0.5449689627 -0.7016811967
0.20530832 -0.12852634 1.9039999 0.3774084151 0.2159883529 0.9005064964
-0.28428546 -0.18090893 2.6800001 -0.108474724 0.8348560333 0.5396746397
-0.065754384 0.24986665 2.1430001 0.05230283365 -0.9985473156 -0.01294984575
-0.1517738 0.073077179 1.6030002 0.6345840693 -0.259630233 0.7279390097
0.27755442 -0.055387799 1.404 0.03727289289 0.6856362224 0.7269895077
0.4991512 -0.4991512 1.5860001 0.8207799792 -0.4409576952 0.3631480336
0.27629319 0.31394193 2.0780001 0.3333127201 -0.9419454336 0.04051486775
0.051173665 0.27237594 1.8830001 0.2063150406 -0.9549629092 0.2132603973
0.10481777 0.011806947 1.684 -0.1705737263 0.8539130688 0.4916676879
-0.0046945498 -0.37086949 1.7850002 -0.48371315 0.6599273086 0.5749065876
0.30402535 -0.4552907 1.7050002 0.3125559688 0.1691125333 0.9347243905
0.46383029 -0.086386733 1.516 -0.4113128185 0.6888157129 0.5969544649
-0.16104805 -0.30033284 1.6550001 0.3607564867 0.4149957597 0.8352444172
0.02576085 -0.21810853 1.9590001 -0.1282364726 0.8916609287 0.4341615438
0.35187295 -0.077848002 1.7760001 0.6213151217 -0.4557410777 0.6373912692
0.22152679 -0.31564695 1.8330001 0.7083588243 -0.04528270662 0.7043985128
-0.21189384 -0.3139168 2.9840002 -0.108474724 0.8348560333 0.5396746397
0.23257966 0.099676996 1.516 0.1349672973 0.7626574039 0.632564187
0.23229825 0.27778322 1.853 -0.1881246716 -0.0315516293 -0.9816382527
-0.21208321 -0.073640004 1.6800001 0.07120794803 0.5520022511 0.8307965398
-0.36400867 -0.061044931 2.5790002 -0.1017117798 0.8373920918 0.5370560288
0.015626583 0.07269758 1.5500001 -0.207176432 0.8312340975 0.5158757567
0.056264646 -0.095681682 1.8130001 -0.09987461567 0.7614590526 0.6404725909
-0.11610369 0.23826016 1.883 0.01373290736 -0.1686897129 0.9855735302
-0.055012587 -0.028249707 1.6960001 -0.1596801579 0.7053674459 0.6906222105
0.49524739 -0.34797266 1.647 -0.05640190467 0.7729887962 0.6319075823
0.46144664 -0.02783329 1.6710001 0.4785037339 0.5801028609 0.6591774225
0.071397483 0.43004534 1.8940001 0.9767338037 0.1813640594 0.1144473031
0.071652599 0.34454226 1.7390001 -0.08915673196 -0.8024023175 -0.5900861025
0.25586832 0.014539517 1.705 -0.004060168285 0.7520898581 0.6590480804
0.15803757 0.31433848 1.9810001 0.4481699467 -0.8540177941 0.2641916871
0.494241 0.41870916 1.8730001 -0.2270249724 -0.6205300093 0.7506012321
0.39197081 0.37439364 2.0050001 0.3438014686 -0.9078066349 -0.2401826531
0.48408568 -0.47194561 1.7310001 -0.6742951274 -0.2767989933 0.6846228242
0.088001549 -0.34038335 1.8940001 0.7629590631 -0.006134659983 0.6464176774
0.32353276 -0.22338235 1.785 0.5961962342 0.06222544983 0.8004236817
-0.056246936 0.27947694 2.0050001 -0.05508740619 -0.9596115947 0.2758821547
0.49544993 -0.16514999 1.6240004 0.3864753544 0.1572127044 0.9088019133
-0.35226306 -0.3574056 2.9330001 -0.108474724 0.8348560333 0.5396746397
0.18631621 -0.43231592 1.7760001 0.8817456961 0.04105979577 0.4699346721
0.18401058 -0.052686788 1.794 -0.1718628705 0.808986783 0.5621419549
0.28573826 -0.32614845 1.7130001 0.5955860615 -0.2535074949 0.7622408867
-0.18374847 0.25626457 2.1030002 -0.09169349074 -0.9930132031 -0.07427719235
0.27139232 0.34990835 1.9470001 0.5030775666 -0.8362283707 0.2182546854
-0.046091627 -0.28695753 1.6960001 -0.289217025 0.7991790175 0.5269406438
0.13701336 -0.22780535 1.8830001 0.3881819844 -0.4143695831 0.8231722713
-0.29384026 0.057154283 2.3010001 -0.3480682969 0.8366779685 0.4228693247
0.13208736 0.079252422 1.5860001 -0.2310688496 0.8190427423 0.5251439214
0.25766107 0.061416812 1.3956001 0.5194035769 0.07979547977 0.850795269
0.37577876 -0.37577882 1.655 0.3355591297 0.1108242273 0.9354774356
0.40434146 -0.12543756 1.6833334 0.7838133574 0.2114255875 0.5838971138
0.38535547 -0.04636427 1.4450001 -0.4847535491 0.2656935751 0.8333192468
-0.052915603 0.15213235 1.5090001 0.6322715282 -0.07134153694 0.7714552283
0.38249317 -0.49148035 1.7760001 -0.1615564823 0.981521666 0.1025411785
-0.01143261 -0.17802207 1.863 -0.4401681423 0.7581335306 0.4811294973
0.05865952 0.4077552 1.6320001 -0.8636652231 -0.3412438929 -0.3709918559
0.46411327 -0.26389661 1.5860003 0.06792161614 -0.329465121 0.941721499
0.26622394 -0.13748282 1.8130001 0.6967421174 -0.3722904623 0.6131477952
-0.30321708 -0.24014793 2.7670002 -0.108474724 0.8348560333 0.5396746397
0.37891462 0.01358658 1.7220001 0.1802081615 -0.8236519694 -0.5377010703
0.23422663 0.065640122 1.6160001 0.1568609327 0.9192923903 0.3609656096
0.18775131 0.18257196 1.4770001 -0.3228014708 0.2682209015 0.9076655507
-0.063506417 0.023248129 1.6018889 -0.1811133325 0.8035710454 0.5669845939
-0.12492105 -0.09548346 1.7220001 -0.2122926265 0.7024354935 0.6793498397
-0.14354189 -0.20865367 1.6880001 0.380407095 -0.8226483464 0.422540158
0.29476339 0.14182012 1.5860001 0.8147941828 0.1175633892 -0.5677052736
-0.034723766 -0.094882131 1.7659999 -0.3381125927 0.5363410115 0.7733163834
0.034922212 -0.034922209 1.731889 -0.2659779489 0.6636762619 0.6991348863
0.095058717 0.11618026 1.506 -0.1133482829 0.864541471 0.4896122813
0.014508833 0.022730505 1.6550001 0.01742301695 0.8655004501 0.5006050467
0.31417075 0.31840912 1.8130001 0.3151613772 -0.5198594928 -0.7939895391
0.21613207 -0.21452513 1.8330001 0.7369888425 -0.1887419671 0.6490176916
-0.2123199 0.25641713 1.863 0.1521451026 -0.09156549722 0.984107554
0.10399809 -0.1353626 1.8830003 -0.2727837861 0.6782278419 0.6823459268
-0.13427991 -0.02165805 1.647 -0.1462778598 0.760278821 0.6329129934
0.14372425 -0.40830749 1.863 0.4900664985 0.4921369255 0.7194693089
0.06383536 0.4904424 1.7760001 0.361182034 -0.9091973305 -0.2071418613
-0.14191364 -0.26428229 2.9080002 -0.108474724 0.8348560333 0.5396746397
0.40842846 -0.49573743 1.6880001 0.6392498612 -0.5250934362 0.5618153214
-0.021459924 0.21955152 1.8830001 0.103237845 0.2257332355 0.9687035084
0.27384877 -0.0344267 1.785 -0.1244741231 0.8419857025 0.524944067
-0.090630673 0.079809099 1.5430001 0.4956229329 0.3049258292 0.8132516146
0.082238346 0.28941572 1.8040001 0.3754760921 -0.4609604478 -0.8040728569
0.23489334 -0.49457255 1.7368183 0.5060932636 0.1297668964 0.8526605964
0.37834653 -0.10186253 1.5090001 -0.07260456681 0.8328182101 0.5487644076
0.17451365 0.00151751 1.7310001 0.05562675372 0.8051313758 0.5904821157
0.37388256 -0.19272816 1.7220001 0.7229211926 -0.5481156111 0.4206593037
0.016605821 0.40608779 1.7220001 -0.8005806208 -0.3549533784 -0.4827823043
0.45134306 -0.40546888 1.6880001 -0.1484066397 0.1347347796 0.9797050357
0.40608841 0.034291912 1.6470002 0.2961502671 0.2173158675 -0.930090785
0.10480182 -0.18809709 1.9470001 -0.006887106225 0.586484611 0.8099310994
0.019935399 0.18739276 1.516 0.5653494596 -0.5278767347 0.633818686
0.22680967 -0.365437 1.7570001 0.7217584848 -0.2584743202 0.6420714259
-0.087273918 -0.26182175 1.6320001 -0.08793731779 0.810792625 0.5786902308
-0.20216635 0.015660774 1.6240001 0.6301068664 0.1178844422 0.7675080299
0.14457725 -0.30377463 1.853 0.286218226 -0.2289291918 0.9304141998
0.10743024 -0.048265759 1.7760001 -0.1730524451 0.6896386743 0.7031723261
0.3265956 -0.2563439 1.705 0.8043439984 -0.3078791797 0.5081743598
0.4043327 -0.30467322 1.6240004 0.4930677414 0.16704382 0.853803575
0.079357617 -0.26508823 1.9260001 0.8631796837 -0.2626621425 0.4311953187
0.20296673 -0.49223429 1.8230001 0.9407017827 0.2420361936 0.237694338
0.49620211 -0.45993 1.6550001 0.9301223755 -0.3445010185 0.1272454411
0.17582233 0.038780052 1.6630001 0.05697857216 0.9098917842 0.4109140635
0.27384877 -0.28636754 1.7850002 0.7536435723 -0.6421211958 0.1403628141
0.23554718 -0.079598702 1.853 0.03048215993 0.7125245929 0.7009847164
-0.098638147 -0.32929966 1.7310001 0.1704990268 0.7689455748 0.6161596775
0.3116217 0.068472929 1.5940001 0.196339339 -0.6045982242 -0.7719532847
0.42440087 -0.1872059 1.6160001 -0.1813863665 -0.6812856197 0.7091888785
0.064885609 0.057832822 1.6090001 -0.119951576 0.8794392943 0.460649699
0.13176826 -0.088381149 1.8330001 -0.1820337623 0.8027337193 0.5678752065
0.46343383 0.03273771 1.7130001 0.3405636549 -0.9358264804 0.09080293775
0.32808462 -0.14786913 1.7570001 0.5482806563 -0.2083197981 0.8099328279
0.0069081336 0.27805236 1.9700001 0.2930487096 -0.9217192531 0.2540788949
0.19195493 0.30545872 1.904 -0.6473643184 0.534871757 -0.5429840684
0.024918372 0.1167229 1.4960002 0.04162817821 0.6596444845 0.7504240274
0.16288993 0.11081856 1.5230001 0.08416368067 0.8956484199 0.4367269278
0.31557021 -0.38660121 1.688 0.3746930063 -0.1805220991 0.909404695
0.039036214 0.38527045 1.9360002 0.7475562096 -0.1564247161 0.6455160975
0.053133015 -0.18098432 1.8940001 -0.3101867735 0.7701734304 0.5573303103
0.34645122 -0.3156881 1.6710001 0.7183539867 -0.01462735236 0.6955239773
-0.49855772 -0.46339986 1.6710001 -0.2828423381 0.6361827254 0.7178243399
0.34193683 -0.02328602 1.3980001 -0.06329792738 0.6151995659 0.7858262062
0.25038916 -0.42338526 1.7310001 0.7145761251 -0.006923193578 0.6995234489
0.33786559 0.036096752 1.6470002 0.2398132086 -0.6789259911 -0.6939374208
-0.034793146 -0.15024313 1.8040001 -0.2684623897 0.6556721926 0.7057067156
0.36434868 -0.43481869 1.6845715 -0.0826940462 0.649248898 0.7560671568
0.18754882 -0.37668699 1.8130001 0.8906292915 -0.4431030154 0.1021722555
0.12183475 0.26803645 1.853 0.3586674631 -0.8667726517 -0.3465007842
0.23769617 -0.0076676183 1.381 0.4572843015 0.1707432121 0.8727759123
0.0015324133 -0.31720957 1.748 -0.494618535 0.6329073906 0.5956347585
0.33332533 0.39900517 1.8730001 0.5520125628 -0.7035539746 0.4475421011
0.40441686 0.099617384 1.6960001 0.667468071 0.4628953636 -0.5832788944
0.32459459 -0.066191837 1.452 -0.07564660907 0.7538127899 0.6527203918
-0.25090989 0.29870224 1.9470001 0.6982852221 -0.2304932177 0.6776950359
-0.16087885 -0.24487755 1.6240001 0.5276638269 0.1402244717 0.8377994895
0.49359837 -0.23177664 1.6320001 -0.2148181349 -0.3544858694 0.9100510478
0.43413201 -0.36296451 1.6343335 -0.1962429434 0.6751459837 0.7111024261
0.18901241 -0.18736163 1.8830001 0.8042474985 -0.3632245362 0.4703763127
0.033745531 -0.38405627 1.8330001 -0.328069061 0.7289731503 0.6008068323
0.30285195 -0.074314594 1.8230001 0.4856973886 -0.07757852972 0.8706777096
0.15364985 -0.15533832 1.9260002 0.1344905049 0.5833072662 0.8010399342
0.128344 0.15786313 1.4640001 0.002624191577 0.6586052775 0.7524840236
-0.37408417 -0.38454807 2.9840002 -0.108474724 0.8348560333 0.5396746397
0.26893854 -0.19659251 1.794 0.7046136856 0.05925176293 0.707112968
0.44686243 -0.12500653 1.6390001 0.5676056743 -0.03332706541 0.8226257563
0.29445073 0.012553282 1.386 -0.2485785633 -0.1768763512 0.9523252845
-0.0035088584 0.04140453 1.6010001 -0.3432560265 0.8568288684 0.3847331405
-0.034554694 0.095689915 1.5160002 0.2665407062 0.4964972436 0.8261032104
0.030698236 -0.1405656 1.8430001 -0.3497557044 0.4902697504 0.7983148098
0.1910879 -0.26784971 1.863 0.4297636449 -0.04018125683 0.9020469189
0.19586875 0.08501149 1.575 0.1863542795 0.9437178373 0.2732558846
0.074904591 0.087158643 1.5535001 -0.2726558149 0.8913232684 0.3622176945
0.37178996 -0.11229574 1.7310001 0.8081397414 -0.2075576186 0.5512077808
-0.12498315 0.01544599 1.6018889 -0.0195323769 0.6179869771 0.7859456539
-0.044124208 -0.35273367 1.7358001 -0.6337330937 0.4718419611 0.6129825115
0.49511394 -0.07363233 1.655 0.5126801133 0.0990767628 0.8528439999
0.22526477 -0.022986198 1.748 0.004524864256 0.8152011633 0.5791602135
-0.10473011 -0.29650268 1.6826668 -0.08617841452 0.8073649406 0.583725214
0.063468471 0.15303314 1.4700001 0.245270595 0.3588321209 0.9006008506
0.22742486 -0.15432401 1.853 0.7630173564 -0.3935862482 0.5127322674
0.27778322 0.33951283 1.853 -0.5916418433 0.5622833967 -0.5777519345
0.41597924 -0.44451204 1.7129999 0.3142792881 -0.09907036275 0.9441470504
0.11486875 0.044508804 1.6378335 -0.1775538623 0.7777344584 0.6029956341
0.18479694 -0.43869188 1.8330001 0.8794229627 0.3323065639 0.3408630788
0.038924001 0.31450593 1.7760001 -0.1732726246 -0.6627917886 -0.7284803391
-0.06309545 0.25736302 1.8940001 -0.01944364049 -0.302421242 0.952976048
-0.10802637 -0.051793467 1.6880001 -0.4954666495 0.5555859804 0.6677102447
0.33335865 -0.49268225 1.7363334 -0.4008543491 0.699244082 0.5919235945
0.026368381 0.43507826 1.6710001 -0.5273317099 -0.1634832025 -0.8337832093
0.49968421 -0.41816473 1.7220001 -0.5306040645 0.3444017172 0.7744977474
0.17475559 -0.35441089 1.863 0.09906418622 -0.2270758897 0.9688254595
0.41495702 -0.2442895 1.6045554 0.5724770427 0.02374070697 0.8195769787
-0.11464064 0.25488067 2.1160002 0.0005954408552 -0.9993078709 -0.03719508275
0.46556699 -0.32133925 1.6076669 -0.04394455254 0.6625678539 0.7477116585
-0.14088559 -0.12850004 1.766 -0.08461037278 0.9009388089 0.4256175756
0.17802207 -0.10289349 1.863 -0.07497074455 0.817481935 0.5710539818
-0.073750988 -0.076179005 1.7310002 -0.4392475486 0.5365633965 0.7205284834
0.39113095 -0.18018393 1.6710001 0.6658105254 -0.74550879 0.03021521494
0.42082191 -0.07380569 1.4770001 -0.3619264364 0.5876728296 0.7236365676
-0.074599952 -0.0062567703 1.6470002 -0.2409319878 0.8411143422 0.4842297435
0.060783684 -0.25355479 1.9810001 0.8049622774 -0.04458605126 0.5916483402
-0.0151751 -0.05614787 1.7310003 -0.2833564281 0.6690070629 0.6871234775
-0.15269956 0.26478752 1.853 -0.3721142709 -0.2155546397 0.9028106928
0.36079305 0.34807786 1.8130001 0.2072309852 -0.5332990885 -0.8201508522
-0.0033576332 -0.20649445 1.9150001 -0.4039998949 0.7997710705 0.4440161288
0.24292082 -0.26369694 1.8230001 0.4476113319 0.1049350798 0.8880499601
0.46413156 -0.49467143 1.6807275 -0.2645663917 -0.6735416651 0.6901783943
0.10342417 -0.37416804 1.853 0.7161991596 0.1179437712 0.6878575683
0.0043491428 -0.10556556 1.804 -0.4367359281 0.5710524321 0.6950977445
-0.19586925 -0.027566783 1.6550001 0.3649306893 0.4752520323 0.8006004691
-0.035427086 0.057229787 1.5543751 -0.08629614115 0.7431819439 0.6635010242
0.096148193 -0.017106177 1.7340001 -0.09004528075 0.8197482824 0.5656010509
0.22597785 0.025662312 1.4210001 0.5420203805 -0.0950223729 0.8349758387
0.0033383467 0.26206023 1.904 0.3564117253 -0.7694706321 0.5299864411
0.26780853 -0.37643364 1.7130002 0.581490159 -0.2285769284 0.7807828188
0.0077015166 0.44514766 1.7570001 -0.9783147573 -0.1676087826 -0.1216863841
0.049065281 0.0014868267 1.6960001 -0.2292055339 0.7740166187 0.5902228951
0.1030548 -0.28511041 1.8830003 0.590007484 -0.1832987815 0.786315918
0.40916839 -0.01331832 1.6880001 0.7754504681 -0.2269092947 0.5892272592
-0.20649445 0.3223328 1.9150001 0.02609802783 0.4270653427 0.9038440585
0.24201085 0.043736897 1.6630001 -0.1072080508 0.8547266126 0.5078866482
-0.0044604801 -0.014372658 1.6960001 -0.2654338777 0.6568744779 0.7057341933
-0.17368607 -0.10433122 1.7050002 -0.5027303696 0.5969049931 0.6252731681
0.060959894 0.39698276 1.6960001 0.02165352926 -0.7124103308 -0.7014290094
0.3980093 -0.09914311 1.6390001 0.6051549911 0.7427603602 0.2865213752
-0.1605352 -0.0559664 1.6800001 -0.2252755463 0.6534852386 0.7226395607
0.026319286 -0.07276509 1.7660002 -0.1052295715 0.8090184927 0.5782869458
-0.077453502 0.12908916 1.5500001 0.6863680482 -0.2601332963 0.6791388392
0.22233406 0.14622115 1.4866002 -0.2618220747 0.5296610594 0.8067889214
-0.076303817 -0.12451898 1.7659999 -0.2172143757 0.6819854379 0.6983650923
0.067262247 0.48727763 1.705 0.2478073686 -0.1692541838 -0.9539101124
0.059096098 -0.31405354 1.9260001 0.8877479434 -0.08268393576 0.452843219
0.23942205 -0.32548881 1.7850001 0.6830330491 -0.6981232762 0.2146851867
0.13184102 0.21016242 1.4890001 -0.04263480008 -0.7554334998 0.6538367271
-0.14199808 -0.32136407 1.705 -0.1268384159 0.8352323174 0.5350691676
0.17566998 0.06658458 1.6159999 -0.0701585263 0.7809606194 0.6206273437
0.45195016 -0.17555688 1.6550001 0.131964013 -0.3301211298 0.9346686602
0.15598968 -0.45483306 1.8730001 0.5517100692 0.0906182453 0.8290985227
0.30290702 -0.25591305 1.748 0.764636457 -0.6340283155 0.1154952645
0.30553696 -0.11462525 1.785 0.3496682942 -0.4230758846 0.8359060287
0.20396176 -0.47798672 1.7760001 0.928403616 0.3233540058 0.1830544025
0.064974152 0.027433529 1.647 -0.1074517593 0.7915081382 0.6016386151
-0.24075897 0.28060871 1.8940001 0.7328563929 0.09799093008 0.6732898951
0.026566507 0.41178086 1.8940001 0.9975720644 -0.0410307534 0.05627156794
0.17609777 0.13595785 1.4770001 -0.0652897507 0.5790482759 0.8126748204
0.37849995 0.41748708 1.853 0.2379735857 -0.8590319157 0.4532468915
0.23406298 -0.052189719 1.8040001 -0.1167710274 0.8865186572 0.4477155507
0.27746326 -0.010671663 1.7390001 -0.1208297759 0.8598424792 0.4960554838
-0.12181459 0.10105073 1.5790001 0.7288964391 -0.2331053615 0.6437172294
0.37482497 -0.45980552 1.7310001 -0.07079917938 0.783105433 0.6178457737
0.15636753 -0.026319286 1.7660002 -0.1627575904 0.7508708239 0.640080452
-0.17766351 0.2474006 1.8940001 0.009794345126 0.08701900393 0.9961584806
0.20378993 0.31950116 1.9700001 0.4291790128 -0.8676580787 0.2509479225
0.28534898 -0.24468167 1.804 0.6679743528 -0.03771253303 0.7432281375
0.18618822 0.27928233 1.863 -0.5978707671 0.3155210018 -0.7368833423
0.28531817 -0.49515536 1.7220001 0.0968741104 0.5027832985 0.8589670658
0.12039001 0.10145225 1.5430001 -0.1815991253 0.9173196554 0.3543252349
0.4933728 -0.38494202 1.6866666 0.2475634068 0.5646628737 0.7873170972
0.3545844 -0.21515828 1.6836923 0.8217797875 -0.5223418474 0.2276774496
0.36818686 -0.28155464 1.6470001 0.5588750839 0.03201763704 0.8286335468
-0.03046855 0.010156184 1.6550001 -0.3092904687 0.8297051787 0.4646812975
0.20518208 0.023789227 1.6960001 0.141705066 0.8386849761 0.5258585215
0.075129896 0.26497424 1.8430001 -0.1860146821 -0.9208170176 -0.3427748382
0.40524793 -0.40672424 1.6840001 -0.4038547575 0.7437697053 0.5326424241
-0.11558831 0.055445839 1.5734003 0.3288320899 0.4304437339 0.8405876756
0.4339307 -0.0014368567 1.6390001 0.2072010487 0.8315737247 0.5153182149
0.42591712 -0.11081856 1.5230001 -0.1356340051 0.8438674212 0.519125402
0.06279739 -0.20196997 1.9360001 -0.33444947 0.8273153901 0.45132339
0.085631929 -0.11309876 1.8430001 -0.1515787244 0.7806304693 0.6063331962
0.10509392 -0.22462568 1.9150002 0.6643058658 -0.561213851 0.4936970472
-0.049814831 -0.18158309 1.8330001 -0.3357979655 0.7376309037 0.5857818723
-0.0039344798 0.1547562 1.4960002 0.482607156 -0.2045834512 0.8516078591
0.47642168 -0.49547365 1.6355001 0.7953045368 -0.4822235405 0.367356956
0.19443853 -0.072311848 1.8330001 -0.2934230566 0.8283673525 0.4771901071
0.27168775 0.30684733 1.8230001 -0.456268996 0.3471441269 -0.819334805
0.32136407 -0.30043805 1.705 0.6615376472 -0.3147536218 0.6806600094
0.034721259 0.36230877 1.7220001 -0.1234333292 -0.6933172941 -0.7099826336
0.31875598 0.10625201 1.6160001 0.7800015211 0.2751259208 -0.562052846
0.34348768 -0.19561853 1.7570001 0.593024075 0.07560384274 0.8016274571
-0.21674354 0.31362137 1.8730001 -0.3964353502 -0.009462445974 0.9180138707
0.37703681 0.0309288 1.6800001 0.3564988375 -0.8125866652 -0.4610981345
0.052889202 0.19664109 1.4876668 0.441018641 -0.4546301365 0.7738307118
-0.36033279 -0.080328964 2.618 -0.1017117798 0.8373920918 0.5370560288
0.45887801 -0.44542557 1.705 -0.5465009212 0.1045393273 0.8309081197
0.36985689 -0.078610696 1.47 -0.2463784069 0.7459482551 0.618755877
0.4550828 -0.22428423 1.6017272 -0.3507345319 -0.629386425 0.6934392452
0.13515571 -0.0030034599 1.7130001 -0.3505104184 0.7784214616 0.5207710862
0.082518883 0.32229072 1.7760001 0.4413920343 -0.7016928792 -0.5592854023
0.21607028 -0.44593227 1.748 0.6198559999 -0.008016081527 0.7846746445
0.29262695 -0.15648499 1.7850001 0.5415315032 0.08555056155 0.8363161683
0.14611578 -0.12785131 1.8940001 -0.2557401061 0.6196957827 0.7420068383
0.37482867 0.064396597 1.6470001 0.0228531491 -0.0002746561076 -0.9997388124
0.49825788 -0.28491929 1.6010002 -0.817749083 0.1010915115 0.5666276813
0.31946874 0.36079305 1.8130001 0.09005063027 -0.04744845629 -0.9948062897
-0.074039757 0.039762095 1.5640001 0.07654206455 0.7158505321 0.6940456033
-0.16103081 -0.0023611553 1.6160001 0.1668118536 0.6356881261 0.7537071109
0.065024123 -0.054960862 1.7659999 -0.3338568807 0.7482440472 0.5732978582
0.26612911 -0.30597186 1.748 0.7798156738 -0.3795319796 0.4978383482
0.42118397 0.01811544 1.7220001 0.708006382 0.04167010635 0.704975605
-0.31292528 0.036814742 2.3330002 -0.2303353846 0.8198919296 0.5241401196
0.28549087 -0.41403648 1.705 0.406781733 0.1387854666 0.9029214978
0.43742159 0.036819998 1.6799999 0.2641032338 -0.9454996586 -0.190472886
0.23359662 0.084735483 1.5562223 0.07995259762 0.9204483628 0.3825995624
0.11922579 -0.33644539 1.863 0.7169783115 -0.08944999427 0.6913325787
0.13508381 0.12721485 1.4960002 -0.0339047052 0.7827036977 0.6214703321
0.14538553 -0.19507851 1.9150002 0.5129466057 -0.6526492834 0.5576151609
0.38455069 -0.33545911 1.6470002 0.5374346375 0.1108988449 0.8359817266
0.18455499 -0.31194693 1.863 0.2674568594 -0.1165467873 0.9564955235
0.20084783 -0.39235392 1.7760001 0.7790616751 -0.2273360342 0.5842784047
-0.015906239 0.27747551 2.016 0.09039204568 -0.9958905578 0.005593934562
0.31668007 -0.34479651 1.6880001 0.4938579202 -0.2041374594 0.8452409506
0.18226163 -0.22823754 1.8730001 0.53834337 -0.07330328226 0.8395314217
-0.059486218 -0.28292224 1.6550001 -0.132729575 0.6292680502 0.7657705545
-0.13299763 -0.2316577 1.6550001 0.3759540319 -0.7171158195 0.5868589878
0.024599969 -0.34284261 1.7760003 -0.3455632031 0.5979798436 0.7231916785
-0.12272895 -0.27722305 1.6470001 -0.3948094249 0.6203354597 0.6777237058
0.47535759 -0.12553954 1.6090001 0.4955800474 0.4155878723 0.7626841664
-0.09737137 0.26693186 1.9150001 0.1203028262 -0.6641523838 0.7378542423
0.082034081 -0.21501565 1.9700001 0.6537255645 -0.3749266565 0.657322526
-0.15711445 0.036150225 1.5860001 0.3251564503 0.2060700208 0.9229346514
-0.01952249 -0.31386158 1.7130001 -0.2968901694 0.6304494143 0.7172096968
0.3859446 -0.15467821 1.7130002 0.6423755884 0.07109536231 0.7630852461
0.25091165 -0.1741998 1.8230001 0.5570078492 -0.1102728918 0.8231537938
0.43469778 -0.28502041 1.6047331 0.5039848089 0.2298691273 0.8325620294
0.15210342 0.19044882 1.4580001 -0.02179288864 -0.3531915843 0.9352971315
0.34268373 -0.22191414 1.7220001 0.7252080441 -0.6821560264 0.09346903116
-0.36310044 -0.046779811 2.5410001 -0.1272292584 0.8298909664 0.5432252288
0.26342869 -0.46118891 1.7220001 0.6281704307 0.02848996595 0.7775539756
0.27157116 -0.10284352 1.8330001 0.7280125618 -0.4497223496 0.5174432397
0.045514781 0.09504208 1.527 -0.0932982415 0.8101565242 0.5787415504
0.064858861 -0.1486007 1.8730001 -0.4271984696 0.6498194337 0.6286780834
0.095321722 -0.074618362 1.8040001 -0.106018886 0.7500647902 0.6528114676
0.23521605 -0.11452926 1.8730001 0.6216243505 -0.1485442668 0.7691019177
0.34382516 0.075812377 1.6240003 0.4626980424 0.2208242714 -0.8585727811
0.11583835 -0.16284521 1.9150001 -0.3070516288 0.8292878866 0.4669057131
0.16429433 0.018585334 1.6960001 -0.1731022298 0.8315600157 0.5277723074
0.35011348 -0.25489435 1.6710001 0.8311001062 -0.04013630375 0.5546725988
0.0074735829 0.44393086 1.705 -0.9210731983 -0.1708145291 -0.3499237001
0.32555899 -0.42470643 1.6879998 0.3519069552 0.2489548773 0.9023208618
-0.061570931 -0.3258754 1.7129999 -0.3531635404 0.1564759314 0.9223831892
0.41930529 -0.14799011 1.6550001 0.7089131474 -0.02293018065 0.7049229741
0.24826376 -0.22410493 1.8130001 0.3951427639 0.05414508283 0.9170226455
0.14535747 -0.26621649 1.863 0.4724508226 -0.3033383489 0.8275119662
0.14547846 -0.05740501 1.794 -0.1237374395 0.7702512741 0.6256212592
0.34647533 -0.46485686 1.7050002 -0.2478408962 0.7187553644 0.6495888233
0.028474133 0.041287493 1.6240001 -0.2610331774 0.8086274862 0.52724123
0.35199919 -0.39765599 1.6800001 0.6441793442 0.2236635238 0.7314421535
0.21721959 0.31194693 1.863 -0.4913883209 0.3670651317 -0.7898105383
0.30039597 -0.033377331 1.8130001 -0.1345945448 0.6038187146 0.7856763005
-0.0064277202 -0.15426528 1.8330001 -0.5011512637 0.6582248211 0.5617717505
0.18518881 -0.47596774 1.853 0.6399222016 0.2242426127 0.7349931002
0.034064636 0.059091717 1.5860001 -0.2962140441 0.8663522601 0.4021081328
0.28833741 -0.28833741 1.7220001 0.6958439946 -0.4064077139 0.592143476
0.2545954 -0.3460668 1.7390002 0.5728728771 -0.2415390462 0.7832468152
0.33732644 -0.10782123 1.7570001 0.7130109072 -0.2221700549 0.6650232673
0.38579598 -0.49613458 1.7360002 0.9042129517 -0.0693211779 0.4214185178
0.0026703267 0.10013725 1.5230001 -0.1198743135 0.7157754898 0.6879648566
0.045412209 0.49147731 1.6710001 0.03629506007 -0.2147855908 -0.9759865999
-0.014358923 0.11878745 1.4890001 0.2036347091 0.2608661056 0.9436534047
0.27399108 -0.021481546 1.3870001 0.05048784241 0.656453073 0.7526754737
0.10438119 0.06700144 1.6090001 -0.1038529202 0.8302415609 0.5476436019
0.2054705 0.056396626 1.6390001 -0.01006993931 0.8152510524 0.5790202022
0.33053491 -0.056934237 1.8040001 0.6168172956 -0.2594686449 0.7431100011
0.13477172 0.03076311 1.6710001 -0.3383252323 0.7155734897 0.611138761
0.25377366 -0.30145559 1.8130001 0.6730082631 -0.4910550714 0.5531046987
-0.071167797 -0.16447669 1.8040001 -0.196860373 0.6799573898 0.7063313127
0.46584138 -0.36476257 1.6710001 -0.1931924671 0.8130706549 0.5491746068
0.26449603 -0.063127451 1.8230001 0.1446666121 0.7434633374 0.6529424787
-0.073889852 0.22823755 1.8730001 -0.08449247479 0.1450173855 0.9858148694
0.21350341 -0.34476846 1.8040001 0.7590129375 -0.646651268 0.07577259839
0.39115888 -0.19371948 1.6320002 0.7815766931 -0.3297542632 0.529528141
0.19533229 0.11746061 1.5055 -0.06666271389 0.8253612518 0.5606557727
0.14508955 -0.37710363 1.8430001 0.2461317778 -0.05945679173 0.9674109817
0.46576291 -0.20489037 1.6372501 -0.4120655656 -0.5317445397 0.7398984432
0.023808952 -0.17323065 1.8730001 -0.2296773046 0.7943305969 0.5623941422
0.33121783 0.33121783 1.8430001 0.3539024293 -0.6567212343 -0.6659356356
0.1782652 -0.39584568 1.8430001 0.8457428217 -0.2850213945 0.4510896802
-0.17708665 0.043350816 1.6159999 0.6881250739 0.09596277773 0.7192183733
0.028486406 0.16185458 1.4770001 0.4647453427 -0.2086994946 0.8604977131
0.42925808 -0.33150625 1.6160001 0.1179922894 0.3451241553 0.9311106801
0.43441948 -0.46431613 1.6851765 0.3509283662 -0.2826710939 0.8927184939
0.34718367 -0.35597312 1.6710001 0.6875289679 0.02381390333 0.7257663608
0.22296613 -0.40608954 1.748 0.5197353363 -0.1219139546 0.8455839157
-0.10634948 -0.11431804 1.7479999 -0.2677836716 0.7445749044 0.6114736795
0.20519347 -0.35329902 1.8430001 0.7317544222 -0.5855127573 0.3488700986
-0.1584233 0.23028544 1.863 -0.0973611474 0.58557266 0.8047518134
0.31508279 -0.040935948 1.4150001 -0.05162016675 0.6696931124 0.7408417463
0.35826299 -0.16464852 1.7390001 0.6964159012 0.175143674 0.6959379315
0.49758548 -0.31677473 1.6240001 -0.380389452 0.6174569726 0.6885133982
0.15551682 0.098221838 1.556125 0.2018059492 0.9169468284 0.3442133665
0.095817909 0.13854752 1.4770001 -0.04336281121 0.6884431839 0.7239928246
0.13555808 -0.11269287 1.863 -0.3015037775 0.8084813952 0.5054238439
0.1952512 0.098298877 1.536 0.09191926569 0.8596291542 0.502581954
0.42424792 -0.38488472 1.6630001 -0.3416683972 0.7550086379 0.5596647859
0.012588642 0.24684684 1.8730001 0.428697437 -0.6377370954 0.6399295926
0.22644299 0.00150962 1.7220001 0.02944270894 0.7879813313 0.6149947643
0.20955577 -0.18518881 1.853 0.6285054684 -0.2669917643 0.7305451632
0.12050572 -0.38297707 1.8830001 0.7370489836 0.2027417719 0.6447128057
0.20396176 -0.02958224 1.7760001 0.01512039639 0.8171713948 0.5761963725
-0.21846533 -0.038783733 1.6799999 0.3567836881 0.4500229061 0.8186481595
0.34414339 0.41523406 1.8430001 0.4587262869 -0.8302258849 0.3166941404
0.25309139 0.3141712 1.853 -0.3777351677 0.05273557454 -0.9244107008
0.25549802 0.02258854 1.3852001 0.3683960736 -0.6087396145 0.7026524544
-0.15524451 -0.26551166 1.655 0.6006680727 0.276388675 0.750204742
0.2467124 0.1174821 1.4890001 0.2727410495 0.6668319702 0.6935037374
0.30516416 -0.19461997 1.7760004 0.1363667548 0.09727472812 0.9858710766
0.033211637 -0.36216506 1.8040003 -0.3464974761 0.7164914608 0.6054580808
0.3886719 -0.26480946 1.6240001 0.7287400961 0.08271971345 0.6797759533
0.10388061 0.26689327 1.8230001 0.4912649989 -0.587867558 -0.6427055597
0.11456806 -0.25404221 1.8940002 0.4919305742 -0.2856306732 0.8224472404
0.30171534 0.10149872 1.5860001 0.7220628262 0.1300308257 -0.6794977784
-0.024761448 0.25421757 1.8830003 -0.1075952202 -0.4506440759 0.8861958981
-0.094210103 0.007791813 1.6160001 -0.0796739608 0.8174945712 0.5703986883
0.038507584 0.34348765 1.7570001 -0.1647357196 -0.7261342406 -0.6675261855
0.2071708 -0.15599713 1.8830001 0.7318056822 -0.4721936285 0.4914200604
0.29446813 -0.063566923 1.4330002 -0.1519062072 0.7538507581 0.6392444968
0.49725935 -0.47600895 1.6160001 0.8385722041 -0.3893758357 0.38102898
0.049543064 0.27648225 1.8230001 -0.5667032599 -0.6837396026 -0.4597254992
0.051548 0.456568 1.6800001 0.0740532726 0.2640829682 -0.9616528749
0.094486035 0.16599575 1.4564999 0.2578465641 0.1662124246 0.9517818093
-0.10434376 -0.02645041 1.6630001 -0.2850818932 0.7360616326 0.6139556766
-0.14323097 -0.082766682 1.6960001 -0.170751363 0.6808829308 0.7122095227
0.19452532 -0.45389241 1.8040001 0.9190582633 0.3589194417 0.1628151983
0.48916596 -0.47727135 1.6960001 -0.1542301327 -0.9437713623 0.2924186587
-0.16007495 -0.12043734 1.7390001 -0.3647427559 0.7067117691 0.6062352657
-0.17897764 0.27421343 1.8730001 0.1588712484 0.873167634 0.4608016908
0.17860155 -0.16190982 1.904 0.5831446052 -0.1953227818 0.7885375023
-0.033369441 0.036150225 1.5860001 -0.1565039456 0.8725044727 0.4628633261
0.31006384 -0.020670922 1.3870001 -0.1113742441 0.573658824 0.8114870787
-0.036513168 -0.12257991 1.785 -0.4453993738 0.5810873508 0.6811438203
0.20842487 -0.24720159 1.8430001 0.6726737022 -0.02445271797 0.7395350933
0.31606287 0.054100852 1.6240001 0.1728367507 -0.79926157 -0.575594008
0.34207094 0.37667125 1.794 -0.3910378218 0.04304511845 -0.9193674922
0.06491366 -0.01811544 1.7220001 -0.2315737605 0.7651773095 0.600730598
0.46098641 0.0132552 1.6800001 0.6760043502 -0.6733934879 0.2992646098
0.24739885 -0.032177679 1.4040002 0.07576870918 0.7403683662 0.66791749
0.428242 -0.034669537 1.6710001 0.5714815855 0.5167986155 0.6374386549
0.078904383 -0.17963338 1.9150001 -0.3929893672 0.761656642 0.5152072906
0.46498397 -0.15451775 1.6320001 0.4665605426 0.1772077382 0.8665556312
-0.064294621 0.10447773 1.5278748 0.5714558363 0.05702544376 0.8186491132
0.12456331 -0.026926693 1.748 -0.1115993708 0.7857066393 0.6084493399
-0.027050426 0.021355599 1.6240001 -0.3291766644 0.876057148 0.3523728549
-0.0052936645 -0.083764449 1.7760003 -0.499450475 0.6740725636 0.5442199707
0.24494484 -0.38491112 1.7354445 0.5518035293 -0.216004476 0.8055152893
0.25151011 -0.13410282 1.8430001 0.7926721573 -0.4560014307 0.4046399891
-0.0042671748 -0.2244534 1.9470001 -0.2954934835 0.8361182213 0.4621579349
0.065368243 0.12621795 1.4890002 0.03234213591 0.6795686483 0.7328986526
-0.034060255 -0.36072904 1.766 -0.5612831712 0.4558610022 0.6907618642
0.16461082 -0.081506327 1.8230001 -0.3130687773 0.7715990543 0.5537353754
0.49972105 -0.20074263 1.6240001 0.4792948961 0.06543660909 0.8752111197
-0.14361641 0.25586832 1.8830003 -0.222074911 0.2173539996 0.9504945874
0.17960182 -0.40847495 1.8130001 0.9700764418 -0.0853092894 0.2273191065
0.13809955 0.062643096 1.6240001 -0.1709025055 0.8148597479 0.5538915992
0.3674362 -0.20493728 1.655 0.696051836 -0.2846933901 0.659136951
0.085127838 -0.30212036 1.904 0.9073912501 -0.004662095103 0.4202610552
0.16438025 -0.21087165 1.8940001 0.3640531003 -0.6327063441 0.6834822893
0.21463993 -0.28396749 1.8330001 0.628893733 0.01861463673 0.7772684097
0.39012107 -0.10612488 1.705 0.837890029 -0.02358462662 0.5453292727
-0.1634808 -0.23270242 1.6800002 0.6428699493 -0.5670349598 0.5149655938
0.064272813 0.36620557 1.705 0.04810135067 -0.6032435894 -0.7961051464
0.29502097 0.34232655 1.8230002 -0.4699623585 -0.2979817688 -0.8308683634
0.092745192 0.078902632 1.5790001 -0.2148053646 0.8587095141 0.4652704895
0.0250376 -0.19306771 1.9039999 -0.2409286201 0.8472047448 0.473494947
-0.01481216 0.073724158 1.5360001 -0.1320023239 0.7419793606 0.6572990417
0.042482391 0.40724498 1.6710001 -0.5377596021 -0.5381051302 -0.6490435004
-0.16811223 -0.030173989 1.6390001 -0.1673672497 0.6831234097 0.7108660936
0.46596438 -0.34604716 1.6340001 -0.1840796173 0.7801100016 0.5979490876
0.48395944 -0.24831438 1.6063334 -0.6488417387 -0.5444023609 0.5316300392
-0.24678604 0.30386582 1.9150001 0.9205310345 0.2685660422 0.2837162018
0.3644079 -0.086121626 1.7479999 0.7468737364 -0.2993333042 0.5937837958
0.166152 0.086899579 1.5860001 0.1077034101 0.9385367632 0.3279462159
0.28993121 -0.36129889 1.6960001 0.5527983308 -0.01296085771 0.833214283
0.45044798 -0.11227382 1.5430001 -0.2962702811 0.7374274731 0.6069799066
-0.0054186764 -0.3429248 1.766 -0.4734645486 0.5519824028 0.6864013076
0.34452808 -0.28422749 1.6814548 0.7467046976 -0.06838094443 0.661631465
0.096241929 0.025632272 1.6550001 -0.1792361289 0.8456398845 0.5027599931
0.41930529 -0.11607067 1.6550001 0.581528306 0.558273077 0.5917398334
0.084012717 -0.23506588 1.9360001 0.7753760219 -0.4018877447 0.4871121347
-0.04834203 -0.01025437 1.6710001 -0.3322890401 0.7935052514 0.5098366737
-0.095380977 0.032535203 1.5860001 0.1796700209 0.7422275543 0.6456136107
0.23510094 -0.034253124 1.7760001 -0.1568412036 0.8451388478 0.5110197067
-0.0452886 -0.055101134 1.7220001 -0.1950826794 0.7157170773 0.6705906391
0.1946165 -0.016090341 1.748 0.01672324166 0.7822015285 0.6228010058
0.22802451 0.076471634 1.5860001 0.1526921093 0.9418644309 0.2992933691
0.025410183 -0.0179366 1.705 -0.2891085148 0.7515636683 0.5929319859
0.4089711 -0.47504726 1.7130002 0.7192441821 -0.288418144 0.6320623159
0.40842849 0.028116453 1.6880001 -0.3263643384 -0.8790652156 -0.3474632204
0.17148915 -0.4295395 1.863 0.6096426845 0.242369175 0.7547138333
0.085198849 -0.0014947165 1.705 -0.1005957276 0.857228756 0.5050142407
0.16428031 0.16235517 1.464 -0.1694483459 0.4807188511 0.8603467941
0.11935992 0.19636631 1.4640001 -0.05154297501 -0.6338351369 0.7717488408
0.084412478 0.050075199 1.6320001 -0.1029964164 0.7735916376 0.6252580881
0.35849968 -0.062072381 1.4450001 -0.2456939369 0.7203027606 0.6486898065
0.40765089 -0.21440461 1.6090001 0.604234755 -0.1661327183 0.7792947292
-0.026157541 -0.035125844 1.705 -0.1956942379 0.7727621198 0.6037735343
-0.13477172 -0.29737672 1.6710001 -0.07647232711 0.7614716291 0.643671453
-0.054939646 0.07621529 1.5360001 0.1245545819 0.5436347127 0.8300285935
0.32640404 -0.23599166 1.748 0.7146961093 -0.6954696178 0.07437387109
-0.36045203 -0.37341791 2.9580002 -0.108474724 0.8348560333 0.5396746397
0.2736941 -0.2736941 1.8130001 0.6329949498 -0.2166860998 0.7432123423
-0.10369353 -0.13420995 1.7760003 0.05806028098 0.8328689933 0.55041641
0.0055242423 0.056603666 1.574917 -0.2942961752 0.8408570886 0.4542566836
0.37270841 0.37692574 1.8040003 -0.5751105547 -0.1290852726 0.8078272343
0.3871316 -0.43795198 1.705 -0.3265934587 0.6500427723 0.6861349344
0.49432418 -0.4430767 1.705 -0.5918459892 0.1311969459 0.7953022718
0.054769747 -0.07667765 1.7850001 -0.2619402111 0.7902302146 0.554006815
0.42133212 0.01312107 1.6630001 0.9258474708 0.3714455366 -0.06953176111
0.31612077 -0.087399408 1.7939999 0.4631349146 -0.4686401486 0.7522515655
0.29515514 -0.26535046 1.7760001 0.7793779969 -0.5813683867 0.2336252034
0.48459503 -0.044977378 1.6550001 0.6140390635 0.167194128 0.7713637948
-0.073209345 -0.046929061 1.7130002 -0.2034814209 0.6726300716 0.7114520669
0.38722456 0.097172357 1.6710001 0.7121361494 0.3850559592 -0.5870212913
-0.075291634 -0.30412266 1.6840001 -0.1252018511 0.8057767749 0.57883358
-0.094763279 -0.27554247 1.6630001 -0.1045320109 0.4410969913 0.891350925
-0.0040285029 0.0047609578 1.6710002 -0.1834127605 0.7299380302 0.6584452987
0.11060114 -0.31529579 1.8830001 0.6148712039 0.03804666176 0.7877092361
-0.10261822 -0.077088803 1.7130002 -0.4174359143 0.6499416828 0.6350772381
-0.15644057 0.25537533 2.1160002 -0.04408249259 -0.9978973866 -0.04751385748
0.055626124 -0.11656097 1.8430002 -0.2176303864 0.6833358407 0.6969140172
