# .PCD v0.7 - Point Cloud Data file format
VERSION 0.7
FIELDS x y z normal_x normal_y normal_z
SIZE 4 4 4 4 4 4
TYPE F F F F F F
COUNT 1 1 1 1 1 1
WIDTH 512
HEIGHT 1
VIEWPOINT 0 0 0 1 0 0 0
POINTS 512
DATA ascii
0.22231521 -0.31336582 1.7310001 0.6156995893 -0.3305138648 0.7153143287
-0.4996509 -0.3322286 2.9840002 -0.1038615555 0.7862154245 0.6091617942
-0.35468093 0.35118651 1.9930001 0.4074683487 0.8971722126 0.170445174
0.40544081 0.19975376 2.256 0.01340904552 0.9228889346 0.3848326802
0.031328559 0.23104812 1.4890001 0.2682057321 -0.6537432075 0.7075913548
-0.28330538 -0.056862354 1.7220001 0.300927192 0.6997157335 0.6479511857
0.28590554 0.43048277 1.853 -0.0569037199 0.8649334311 -0.4986503422
-0.46388027 -0.074593812 2.6590002 -0.04462290928 0.7954115272 0.6044247746
0.37617037 0.065269291 1.705 -0.7405540943 -0.4560536742 0.4935531318
-0.047458351 -0.20565285 2.0050001 0.6956255436 0.7137889862 -0.08130415529
-0.044785392 0.49565855 1.7220001 -0.4548586011 0.8501751423 -0.2651525736
0.49510539 -0.48099983 1.6090001 0.3740878403 -0.1953207403 0.906591475
0.044668797 0.0025671723 1.7570001 -0.1435496956 0.8410884738 0.5215013623
0.22482751 -0.032476768 1.4247501 -0.09745431691 0.7784662247 0.6200749874
0.035557598 0.36446542 2.0280001 0.4384361506 0.06102604419 -0.8966881037
-0.14557926 -0.32333922 1.748 -0.3181928396 0.7369251251 0.596401453
-0.21189384 -0.25898135 2.9840002 -0.1003335863 0.786986649 0.6087570786
-0.26398712 0.17920294 2.1980002 0.222372666 0.9725947976 0.06789490581
0.07803911 -0.48981997 1.8940001 0.8501434326 0.1493300796 0.5049324036
0.45292339 -0.21570267 1.6366668 0.2920838594 0.3361139894 0.8953850865
-0.1939923 0.12220616 1.5546666 0.4659112096 0.076037094 0.8815583587
-0.13710672 0.25697249 1.8730001 0.2518865764 0.6137909889 -0.7482070327
0.22770365 0.26503211 2.1290002 0.1051168963 0.9656511545 0.2376305163
0.24513352 -0.094890408 1.8040003 0.6546704769 -0.4161826074 0.6310297847
0.17281263 0.094557852 1.5940002 0.1809713542 0.908316493 0.3771080971
0.044897605 0.29570493 1.766 -0.7607121468 -0.6331073642 -0.1431507617
-0.48464325 -0.18640125 2.835 -0.04462290928 0.7954115272 0.6044247746
0.32544619 -0.49501166 1.7331336 0.6901220083 -0.02836794965 0.7231368423
-0.11027327 -0.11986225 1.8230001 -0.4198967814 0.7118179798 0.56302917
-0.16594569 0.3228398 2.0650001 0.1976312995 0.9792169333 -0.04556431249
0.10289846 -0.23480551 1.8730001 0.6911543012 0.03476699069 0.721870482
0.38336107 -0.067021161 1.529 -0.3239914477 0.6474925876 0.6897702217
-0.015371474 0.087105013 1.5940002 -0.3579464555 0.8574532866 0.3696596026
-0.21379095 -0.20804761 1.6366668 0.3043024838 -0.1976267248 0.9318495989
0.0082538165 0.45065838 1.8830001 -0.9926509857 0.1180945858 -0.02641276084
-0.036123928 -0.36288127 1.8730001 -0.1587052643 0.8814831972 0.4447471499
-0.12406743 0.0051212921 1.6960001 -0.2429810613 0.7575537562 0.6058650613
0.14787877 -0.46193057 1.7390001 0.1893796176 0.09269295633 0.9775189757
0.17802207 0.30704725 1.863 -0.05308926478 0.3578241765 -0.9322786331
0.40805766 -0.35723728 1.705 0.1989029199 0.780682385 0.5924294591
0.10399809 -0.074284352 1.8830003 -0.07235016674 0.7702258825 0.6336541176
0.30632138 -0.18571658 1.688 0.5451784134 -0.651787281 0.5272132754
0.44835714 -0.07095214 1.7220001 -0.2497453541 0.615729928 0.747331202
0.19448002 0.034018464 1.7376667 -0.1371453404 0.7890142202 0.5988720655
-0.34792444 -0.3243807 2.9840002 -0.1003335863 0.786986649 0.6087570786
-0.28406543 0.29501209 1.8730001 0.213083744 0.2014409006 0.9560422897
0.09269347 -0.36597937 1.8230001 0.8472936749 -0.3870466053 0.3637146354
0.49519566 -0.34565443 1.601 0.7505700588 -0.2500926256 0.6116357446
-0.2650871 0.04530751 1.6370001 0.6551935673 0.2452138513 0.7145568728
0.18966508 0.092923157 1.452 0.6262590289 -0.447417587 0.6384489536
-0.082969241 0.17372277 1.5159999 0.5191873312 -0.277725935 0.8082777262
-0.018158397 0.30208969 1.8830001 -0.6463506222 0.08743759245 -0.7580142021
-0.0050075199 -0.13631582 1.9039999 -0.534771204 0.6716909409 0.5126900673
0.1563009 0.34907201 1.9810001 -0.143144086 0.9827970862 -0.1167030632
0.21456854 -0.21456857 1.813 0.424305737 -0.04165584967 0.9045603275
0.27421695 0.11244346 1.6550001 -0.5188339949 -0.02573913336 0.8544874191
0.076404132 0.12734021 1.5289999 0.09650223702 0.884560287 0.456333667
0.29596266 -0.39215052 1.6880001 -0.008906137198 0.3847869337 0.9229624867
0.084266424 0.065022185 1.6630001 -0.1282539666 0.896535635 0.4239985943
0.0030034599 0.38894805 1.7130001 -0.05837712809 -0.7409413457 -0.6690276861
0.26703268 -0.07343398 1.5230001 0.1094308272 0.8940016627 0.4344949722
0.35557437 -0.2738556 1.6355001 0.6427811384 0.2814028561 0.7124919891
-0.0067152665 -0.26441365 1.9150001 0.6247470975 -0.3541217446 0.6959086657
-0.054186765 -0.041801218 1.7660002 -0.08836355805 0.7937569618 0.6017821431
0.38551331 -0.11695347 1.647 0.4729140699 0.2367133796 0.8487161398
-0.17377567 -0.077540115 1.7479999 -0.4056233466 0.6893714666 0.600197196
-0.11877956 0.057293672 1.5940001 -0.1350260973 0.8325005174 0.5373181701
0.24671504 -0.4950116 1.8040001 -0.2347293943 0.8175121546 0.5259048939
0.41203228 -0.46382281 1.681143 0.8420876265 -0.3583531082 0.4030774832
0.17757672 0.17223607 1.5230001 -0.7765738964 -0.08150719851 0.6247316003
0.1741998 -0.022374287 1.8230001 -0.2282292396 0.8888818026 0.397241205
-0.025072666 0.030977892 1.6826668 -0.1663679779 0.8602432609 0.4819785058
0.23135759 0.35341239 2.0780001 -0.09021794796 0.94634372 0.3103132546
0.072603777 0.31574202 1.9260001 -0.08956536651 0.9743677378 -0.2063627839
0.24779509 0.3886649 1.9360001 -0.7472117543 0.5867276192 -0.3121301532
0.3212063 -0.096614808 1.7310001 0.8146488667 0.3025230765 0.4947999716
-0.24730416 0.3280215 1.9590001 0.7035967112 0.7098954916 0.03162427619
-0.46757454 -0.27043501 2.8830001 -0.1038615555 0.7862154245 0.6091617942
0.013658905 -0.063473731 1.8330001 -0.06209253892 0.847841084 0.5266023278
-0.06133686 -0.30668429 1.794 -0.5049415231 0.4917857051 0.7093524337
-0.30413321 0.30956414 2.0650001 0.3208605945 0.9466401339 -0.03034692258
0.15591472 -0.14460485 1.8430001 0.366859585 -0.3792902827 0.8494427204
0.16247994 -0.29352936 1.8230001 0.7150040865 -0.6608744264 0.2280661464
0.083164103 -0.15105318 1.9360001 0.484188199 -0.2320542186 0.8436306119
0.16410848 -0.37621099 1.766 0.3921155632 -0.07504506409 0.9168498516
0.34194735 -0.0015403033 1.7570001 0.6575757861 -0.03961718082 0.7523460388
0.11515958 0.20570041 1.464 -0.3657834828 -0.4296416342 0.8255970478
0.25228801 0.3487038 1.8330001 -0.02128533646 0.8028700948 0.5957738757
0.31059775 -0.02939814 1.4580001 -0.3773313761 0.5274549127 0.7611914277
-0.16430065 -0.26459831 1.6824001 -0.2274079472 0.7075858712 0.6690350175
0.23445529 -0.43780163 1.7310001 0.2581680417 0.5518413782 0.7929819226
-0.086341143 -0.16770107 1.8940001 -0.2340295017 0.8310570717 0.504553616
-0.2055757 -0.015137402 1.6710002 -0.2092656493 0.7256156802 0.6555072069
0.37421536 -0.42447847 1.7479999 -0.07398875803 2.871973265e-05 0.9972590804
-0.009303187 0.12891559 1.516 -0.1850168556 0.7172352672 0.6718201637
0.3846533 -0.024857802 1.6858182 0.5219478607 0.4183386862 0.7433459163
0.04457061 -0.32520041 1.8830003 0.428442359 -0.003195996396 0.9035634398
0.12465674 -0.49543065 1.8230001 0.8125901818 0.4724042118 0.3413670361
0.27506232 -0.16462456 1.7659999 0.7829949856 0.1400391459 0.6060593128
0.28425041 -0.28425038 1.6800002 0.5156196952 0.0190534275 0.8566057086
0.43497482 -0.29569003 1.6550001 -0.2285534143 0.1070047617 0.9676328301
0.047872137 -0.41269082 1.8830001 0.5983086824 0.3134652972 0.7374050617
0.2958785 0.043117974 1.6960001 -0.4278590977 0.7264121175 0.5378308296
0.24380462 -0.23400328 1.7345557 0.8167749643 -0.4353241026 0.3786443472
-0.32128868 0.36445922 1.8940001 0.7943926454 0.002243627096 0.6074004769
0.44673339 -0.39879689 1.6470001 0.7602362037 -0.1731303036 0.6261523962
0.093774401 -0.034648851 1.8130001 -0.05327184498 0.8175560236 0.5733796954
0.38636455 -0.19391866 1.6799999 -0.1051367819 -0.237486735 0.9656843543
0.17334767 0.072757192 1.6710001 0.1009507999 0.8874485493 0.4497155249
-0.1997073 0.28929561 2.1290002 0.2382421643 0.9675034285 0.08472179621
0.015543299 -0.17344348 1.9700001 0.5008128285 -0.3018240333 0.8112267256
-0.014233559 0.33053491 1.8040003 0.1490786672 -0.7867541313 -0.5989937782
-0.075751007 0.097845055 1.5430001 -0.0195047427 0.8050915599 0.5928297639
0.00146491 0.4541221 1.6710001 0.4451425076 -0.06818111986 -0.8928602934
-0.19563693 0.048909232 1.5940001 0.1592124254 0.6360349059 0.7550569177
0.11463206 0.026144654 1.7342001 -0.06964553893 0.7841186523 0.6166906953
0.18226163 -0.080457836 1.8730001 0.4805340767 -0.2467343956 0.8415516019
0.074387796 0.10526574 1.601 0.01507952251 0.8291450739 0.5588300824
0.19447272 0.032001842 1.4040002 0.4048181772 -0.7275099754 0.5539417863
0.23879611 -0.037362657 1.853 0.5099460483 0.4164709449 0.7526665926
0.046167459 -0.20901269 1.9150001 0.5469123721 -0.5484960675 0.6324862838
-0.0050916797 -0.33265644 1.9360001 0.8227427602 0.2662273645 0.5022124648
-0.044431657 -0.10259673 1.8430001 -0.3766452074 0.5614279509 0.7368426323
-0.13182876 0.30760041 2.0050001 0.267750442 0.9388201833 -0.2166248262
0.10665176 -0.4164868 1.7760001 0.7113825679 -0.1218991652 0.6921527386
0.35426888 -0.33852363 1.6630001 0.1258257776 0.6249116063 0.770489037
-0.29374292 0.0036995334 1.6880001 0.586530745 0.5323832631 0.6103685498
-0.098125301 -0.27927971 1.7220001 -0.01993759722 0.7694310546 0.6384186149
0.11001378 -0.3054114 1.8730001 0.6153053045 0.05015076324 0.7866920233
0.25719735 0.04741627 1.6390001 -0.5826614499 0.3905573189 0.7127205729
-0.21721959 0.28581524 1.863 0.05954586342 0.9162067175 0.3962568641
0.058267649 0.1696236 1.4770001 0.1626302302 0.6425544024 0.7487825155
0.42711198 -0.49758548 1.6240001 0.5567808151 -0.1608316004 0.814940691
0.34966287 0.024665017 1.6550001 -0.6060435772 -0.4780783057 0.6357297897
0.30495024 -0.43214056 1.748 -0.3168896437 0.5317749977 0.7853637934
-0.22343603 -0.28002048 1.6550001 -0.503456831 0.4678934813 0.7263655663
0.40201917 0.032346372 1.7570001 -0.4082058072 0.6975508928 0.58888942
-0.023757491 0.19345385 1.4890001 0.3048543334 -0.4393037856 0.8450301886
0.040611584 0.31027249 1.853 0.203011483 -0.8806868196 -0.4279918671
-0.17364946 -0.12557164 1.8040001 -0.3099403381 0.7652434707 0.5642157197
0.49364382 -0.26562876 1.6630001 -0.2353394181 -0.3592643142 0.9030750394
0.49887419 -0.4164272 1.5940001 0.4930628836 -0.05251613632 0.8684071898
-0.064503759 0.054945186 1.6351112 -0.2217529863 0.8661385775 0.4479169548
-0.4559482 -0.088325046 2.723 -0.04462290928 0.7954115272 0.6044247746
-0.076378703 0.27064627 1.8940001 -0.01304853987 0.02476019785 -0.9996082783
0.35592666 -0.20928487 1.6240001 0.349624604 -0.4335977733 0.8305152655
0.23604466 -0.37502292 1.7130001 0.4232847393 0.07113239914 0.9031999707
0.14203314 0.12039001 1.5430001 -0.06137020886 0.8967764974 0.4382073283
0.23672068 0.10592341 1.5940001 -0.8104472756 0.005898441188 0.5857819319
-0.11646342 -0.042907573 1.748 -0.1601833254 0.6973584294 0.6985932589
0.18527824 -0.49978414 1.7760001 0.07046034187 0.6600052118 0.747949481
-0.13391696 0.14473854 1.5430001 0.5460596681 0.01170701999 0.837664485
0.044830978 -0.09630359 1.8940001 -0.4146012962 0.7251674533 0.5497617126
-0.046085492 -0.17922135 1.9470001 -0.1270186752 0.9210330248 0.3681907654
0.15426528 -0.21211477 1.8330001 0.1327503026 0.1003596112 0.9860554338
0.35245419 -0.1455854 1.7050002 0.7851642966 -0.1059489623 0.6101572514
0.19669594 -0.26831612 1.7760001 0.7764829397 -0.5209442973 0.354529649
0.024426563 0.067532264 1.6390001 -0.1185168698 0.8067458868 0.5788909793
-0.1554365 0.025345601 1.6366668 -0.3393245041 0.7870619893 0.5151624084
0.3258675 -0.091566078 1.536 -0.1438505948 0.8506625891 0.5056482553
-0.039721765 -0.25732797 1.9700001 0.8872797489 -0.1724185944 0.4277926385
0.4302417 -0.41514549 1.7220001 0.955262363 0.1946084648 0.2227135748
-0.24712883 -0.22049218 1.6880001 0.8116530776 -0.01202731859 0.5840159655
-0.12652053 -0.34318694 1.8040001 -0.223986432 0.8519258499 0.4733417928
0.39417648 -0.10775548 1.5860001 -0.2036435455 0.8635103106 0.4613884389
-0.015620207 -0.004290008 1.7346364 -0.4114220142 0.7347524166 0.5393244028
0.095326103 -0.44431654 1.8430001 0.7734417915 0.4954819381 0.3953294754
0.11324237 -0.17432062 1.8830001 0.7330229878 -0.2326814085 0.6391687393
0.22720978 -0.15446049 1.804 0.6529229283 0.05632501096 0.7553272247
-0.22075431 -0.05706574 1.7130001 -0.03918306157 0.6709300876 0.7404846549
0.022576796 0.40117231 1.9810001 0.6523857117 0.04689516872 -0.7564348578
0.31323999 0.38515735 1.8230001 -0.04575612023 0.1903886646 -0.9806419015
0.034197014 0.032710183 1.6960001 -0.2175075263 0.8471111059 0.4848641753
0.12578414 0.15511389 1.4960002 -0.2612494528 0.7188954949 0.6441568136
0.3907654 -0.48271018 1.748 -0.6458235383 -0.3517792821 0.677615881
-0.040546712 0.43099651 1.7130001 -0.8015989661 -0.4648914933 -0.3759189248
0.43091235 -0.15524451 1.6550001 0.3271063864 0.0670317784 0.9426071048
0.13545552 -0.01089872 1.7760001 -0.09140950441 0.8207922578 0.5638655424
0.047872137 -0.25916985 1.8830001 0.09935718775 -0.3142805398 0.9441164732
-0.027913943 0.40557316 1.8730001 -0.9873754978 0.1559684277 -0.02763012424
0.0046945498 -0.029732147 1.7850002 -0.356113553 0.7274432182 0.5865232348
-0.072461754 -0.0075480998 1.7220001 -0.1158160195 0.7595734596 0.640027225
0.0816238 0.33170524 1.9810001 0.2305721045 0.8350532055 -0.4995224774
0.13407607 -0.33538678 1.7939999 0.7269079685 -0.4026195109 0.5563293695
-0.49537629 -0.21988641 2.8830001 -0.04462290928 0.7954115272 0.6044247746
0.35574257 -0.38115275 1.705 -0.2957415581 0.824100554 0.483109951
0.24678604 -0.064435005 1.47 -0.1324359179 0.8165294528 0.5619078279
-0.096985631 -0.072870284 1.794 -0.4535277188 0.621468246 0.6388190389
0.16484314 0.037869368 1.4519999 0.7178168297 0.1645750552 0.6765013337
0.012835861 0.35478321 1.7570001 0.005026082043 -0.7905435562 -0.6123852134
0.40088302 -0.23995507 1.6390001 -0.7129511237 -0.4887591004 0.5028073788
0.20812505 0.00156485 1.7850001 -0.3131818175 0.8384803534 0.445946008
0.31774345 -0.23649397 1.6550001 0.6337844729 -0.09826052189 0.7672432065
0.29115152 -0.079404958 1.7760001 0.722910881 -0.2198946625 0.6550161839
-0.21754922 0.099651575 1.6010001 0.6480359435 0.00963083189 0.7615488768
0.12389667 -0.11516682 1.9150002 0.7379356623 -0.0762116164 0.6705540419
0.02467992 0.11105964 1.5640001 -0.2306088358 0.9045723081 0.358564496
0.30484155 -0.33591759 1.6879998 0.1305233687 0.1583726853 0.9787143469
0.011459495 0.49674416 1.705 0.2638040185 0.719953239 -0.6419305205
-0.16669202 -0.035290655 1.7130001 -0.6696758866 0.5185777545 0.531611979
0.34069809 -0.066573188 1.4890001 -0.2588793933 0.701641798 0.6638375521
0.12670989 0.089693516 1.6240001 0.002348716138 0.8904739022 0.4550282359
-0.35315639 -0.26944524 2.9840002 -0.1003335863 0.786986649 0.6087570786
-0.067122862 -0.35319409 1.8230001 -0.3378279209 0.8497136235 0.4047951102
0.18229757 0.12459186 1.4960001 -0.1459489167 -0.5979854465 0.7881067991
0.27276421 -0.0062467507 1.4244287 -0.4428220093 0.4497568905 0.7756464481
0.18268681 -0.3251206 1.7659999 0.7648775578 -0.1696989089 0.6214213967
0.45517999 -0.34544587 1.6470002 0.7799048424 -0.0932194069 0.6189172864
-0.14945063 0.093235254 1.5640001 0.06764412671 0.4984565079 0.8642715812
0.20362099 -0.11317378 1.8330001 0.626975596 -0.446598053 0.6383194923
0.2880376 -0.4748728 1.7760001 0.54971838 0.343873322 0.7612889409
0.19226789 -0.25366437 1.8430001 0.7005624771 -0.001254243078 0.7135899663
0.18542202 -0.4244785 1.748 0.3696155846 -0.06132517755 0.9271588326
0.28101024 -0.23194495 1.6960001 0.7802401781 -0.2319066525 0.580899775
0.19726315 0.30622756 2.1430001 0.111254476 0.954367578 0.2771370709
-0.27364713 0.35423031 1.9150001 0.694109261 -0.3649849594 0.6204823256
0.45558617 -0.44562027 1.6240004 0.5703445077 -0.05859772861 0.8193127513
0.28209031 0.4122858 1.904 -0.5841807723 0.8105559945 0.04161497205
0.12670814 0.30377463 1.853 0.129889667 0.2586303651 -0.9572037458
0.074828133 -0.36663437 1.8730001 0.6626802087 -0.3538719118 0.6600224376
-0.0045259381 -0.21667926 1.936 0.5391137004 -0.3898509443 0.746573925
0.33156234 0.090696424 1.6960001 -0.5865573287 0.1335809529 0.7988157868
-0.25448495 -0.0020312367 1.6550001 0.07652997971 0.6861249804 0.7234470844
0.0080784829 0.48309329 1.8430001 -0.9925057888 -0.02691125311 0.119197309
0.32246354 -0.14514144 1.748 0.4511654973 -0.1533012241 0.8791748285
-0.24759404 0.27652636 1.9039999 -0.1084539145 0.92415452 0.3663005829
-0.083213203 0.031665202 1.6800001 -0.1492970884 0.8098443747 0.5673292875
-0.017676231 -0.33745527 1.8330001 -0.1971458048 0.8281983137 0.5246151686
-0.065348484 0.07276392 1.5860001 -0.2056176662 0.8998649716 0.3846614063
0.018158397 -0.37142175 1.8830001 0.3502559662 -0.06867162138 0.9341332912
0.2325858 -0.48211494 1.7570001 -0.2220931053 0.6809365749 0.6978538632
-0.0041049914 -0.096056812 1.8730001 -0.3874050081 0.6663452387 0.6371039152
0.48501408 -0.30474335 1.6320001 0.4099193513 -0.3827441335 0.8279330134
-0.28254879 0.35441089 1.863 0.1379579455 -0.07158183306 0.9878479838
0.14504138 -0.052679021 1.8529999 -0.1177162081 0.798394382 0.59051615
0.20252052 0.35114443 1.863 -0.2124589235 0.4132323265 -0.8854943514
0.34095758 -0.16975334 1.6550001 0.05923875421 -0.6542444229 0.7539595366
0.064328745 -0.06595321 1.853 -0.3119956255 0.7782844901 0.5449146628
-0.21522117 0.022687132 1.6320001 0.179968372 0.5983119607 0.7807907462
-0.093958504 -0.31422189 1.7570001 -0.208384186 0.8520515561 0.480191797
-0.143797 -0.15025979 1.8430001 -0.2019867003 0.7730015516 0.6013900638
0.01181922 0.42718038 1.9260001 0.8397272229 0.07462961972 -0.5378555655
0.13530122 0.049065281 1.6960001 -0.04958226532 0.8432236314 0.5352714658
0.25417635 -0.20454825 1.785 0.8091376424 -0.2759367526 0.5188016891
0.11736375 -0.46319562 1.7850001 0.8073237538 0.447298795 0.3849054277
0.03564176 -0.14086981 1.9360002 -0.2038840353 0.6936626434 0.6908425689
-0.31738138 0.34114257 1.9360001 0.8521158099 0.4077978432 0.3280237019
0.38211444 -0.49808693 1.6960001 0.588814199 -0.5611387491 0.5817397237
0.40383738 -0.33094254 1.6630001 -0.05437145382 0.7458584309 0.6638817191
-0.03496673 -0.066754662 1.813 -0.08503482491 0.8349045515 0.5437862277
-0.062175829 0.12832034 1.5090001 0.04116344824 0.5245652199 0.8503745794
0.35174146 -0.45741487 1.7220001 0.1730661392 -0.523101449 0.8345136046
0.23531139 0.00490232 1.3980001 -0.2555231154 0.3957622945 0.8820884824
-0.13703616 -0.095008746 1.785 -0.3693006933 0.6758563519 0.6378363371
0.32525298 0.033891056 1.7310001 -0.1456828266 0.9185830951 0.3673984408
0.24564011 -0.27524567 1.7130002 0.6315844655 -0.09764502198 0.7691336274
0.25907165 -0.049271297 1.8130001 0.6636600494 -0.500015378 0.5563631654
-0.053775389 -0.13669622 1.8730001 -0.3666486442 0.6483293772 0.6672613621
0.18485422 -0.17473252 1.8230001 0.6604498029 0.06922062486 0.7476727366
0.086077645 -0.0055605718 1.7760001 -0.04550481215 0.7505382299 0.6592584252
-0.26495564 -0.035127629 1.6855385 0.2231338173 0.6388921738 0.736225605
0.13239376 -0.26397529 1.853 0.4140580297 -0.03613508865 0.9095329642
0.26478752 0.38824674 1.853 -0.8143761158 0.4035724401 -0.4170381725
-0.12518799 0.28876698 1.904 -0.04460579529 0.4475675821 -0.8931369185
0.034172758 0.14299339 1.5056666 -0.08188455552 0.8335441947 0.5463505983
0.32636055 -0.29595304 1.6630001 0.7475636005 -0.003046130994 0.664183259
0.046092499 -0.03814552 1.8130001 -0.234239921 0.6256167293 0.7441339493
-0.023100168 0.1019125 1.5500001 -0.2345187962 0.8726471663 0.4283548295
0.33591762 -0.094708055 1.6880001 0.7927249074 0.4334946275 0.4285669923
0.25559655 -0.33481655 1.705 0.4451763034 -0.01609203964 0.8952983022
0.38211444 0.019328747 1.6960001 0.9650034308 0.2557136416 0.0581282638
-0.16068511 -0.29884428 1.7130001 -0.4101607502 0.6089131832 0.6789645553
0.40404797 -0.28445658 1.6240004 -0.4042521715 0.2831431925 0.8697184324
0.030048626 0.31471983 1.8040001 -0.5240256786 -0.7879065871 -0.3234196603
-0.10632739 0.038795128 1.6390001 -0.2775376737 0.8925597072 0.3554011583
0.102833 0.11471593 1.5640001 0.1370616406 0.9529211521 0.2704724967
0.20581065 -0.35521397 1.7390002 0.5294390917 -0.1584124714 0.8334264755
0.085572526 0.042973105 1.705 -0.1079844162 0.8098223209 0.5766516924
0.27181312 -0.42198613 1.7130001 -0.1621455103 0.5989900231 0.7841682434
-0.0229862 0.38157091 1.748 -0.1022963971 -0.7594326138 -0.6424931884
-0.21545732 -0.092251278 1.7479999 -0.2597724497 0.6750987768 0.6904780269
0.27552024 -0.19737361 1.7363335 0.6464123726 -0.7477250695 0.1518494189
0.42470643 -0.042914588 1.6880001 -0.3740423918 0.2987793088 0.8779653907
0.014243203 0.1696236 1.4770001 0.2023912668 0.3757143617 0.9043652415
0.3017846 0.071436934 1.6630001 -0.6230055094 0.3822552264 0.6824551821
0.45194796 -0.25221613 1.6630001 0.1984761059 -0.1014432162 0.9748417735
0.47459224 -0.3853406 1.6159998 0.7921512723 -0.1279926449 0.5967531204
0.0080784829 0.28274691 1.8430001 -0.3135447502 -0.7584982514 -0.5712881088
0.2432224 0.13305695 1.6320001 -0.8306465745 -0.239474684 0.5026710033
0.18764235 -0.013267098 1.4121429 0.2635007501 0.5784752369 0.7719674706
-0.15677956 0.28182992 2.1290002 -0.1968044639 0.978633225 -0.05953956395
0.2568984 -0.12611376 1.7760001 0.5247371793 -0.1432312429 0.8391279578
0.39222208 -0.054649938 1.6550001 -0.415152818 -0.417095989 0.8085042238
-0.025774002 0.48676038 1.6800001 -0.2385008633 0.634570837 -0.7351443172
-0.20072159 -0.28398389 1.6960001 -0.2328327298 0.7171278596 0.6568992138
0.072079241 0.22228031 1.4770001 0.1613624543 -0.5886180997 0.7921432257
0.15310828 -0.11348997 1.8830003 0.6446508169 -0.3580084741 0.6754667163
0.22575919 -0.23613894 1.7760001 0.6350025535 -0.7637360692 0.1160989702
0.0044511291 -0.30545875 1.9040002 0.5530068874 0.0997961387 0.8271784186
0.11736375 -0.37399915 1.7850002 0.7737506032 -0.3475091755 0.5296672583
0.15433593 0.017732214 1.748 -0.2053798884 0.7792211771 0.5921430588
0.36308202 -0.10237275 1.557 -0.128945902 0.8368349075 0.5320528746
0.077669159 -0.1097499 1.9260001 0.004719334189 0.577272594 0.8165378571
-0.16369922 -0.0056888154 1.6822859 -0.4791935384 0.7151376009 0.5088730454
0.02576448 0.095811151 1.6072855 -0.1210235655 0.8387997746 0.530818522
0.39250121 -0.39401081 1.7220001 0.0797078535 0.4975550175 0.8637624979
0.37731895 -0.15339699 1.6710002 0.5112017989 0.2549557686 0.8207741976
0.22215828 -0.075129896 1.8430001 0.6921074986 -0.5246087313 0.495754838
0.31694657 0.42424619 1.8830001 -0.1727288961 0.9838936925 0.0460203439
0.1439662 -0.49762231 1.7850001 0.5253413916 0.7474600077 0.4065955281
-0.02289152 0.070105277 1.6320001 -0.3338507414 0.8180418015 0.4683495462
0.21495296 0.33161891 1.8230001 -0.8433894515 0.5324498415 -0.07205158472
-0.10615995 -0.1469907 1.863 -0.3526715636 0.7533772588 0.5550184846
0.076349773 -0.40449134 1.853 0.9123010039 0.0135558024 0.4092958868
0.21575205 -0.015296705 1.8230001 0.05267199501 0.8440769315 0.5336289406
0.086622119 -0.41403782 1.8130001 0.8980833888 0.1291589141 0.4204333425
0.1457127 -0.41403356 1.7570002 0.3593658209 0.04361691326 0.932176888
0.26167729 0.086276621 1.6240002 -0.6884263754 0.277828455 0.6699854732
0.28962612 -0.11799583 1.748 0.7109084129 -0.2002025694 0.6741870642
0.33844417 -0.39790058 1.7390001 -0.1538205445 0.7798855305 0.6067271233
0.11552231 -0.33364135 1.8430001 0.7764584422 -0.5555173159 0.2975109518
0.19493558 -0.042236049 1.8529999 -0.01319823693 0.5876281261 0.8090234995
-0.19877101 -0.24665016 1.6550001 -0.305423528 0.6348179579 0.7097342014
0.13509873 -0.033377331 1.8130001 -0.2474165559 0.8187916279 0.5180398822
0.084680736 -0.20423004 1.8940002 0.4101591408 -0.3488437831 0.8426609635
0.37475264 -0.31301281 1.6378335 0.2028441876 0.6047224998 0.7701719999
-0.23344713 0.055716988 1.6090001 0.5297700763 0.2572354674 0.8081915379
-0.0084861331 -0.16632821 1.9360001 -0.4849902093 0.7614657879 0.4300631881
0.42466962 -0.42319328 1.682 0.9444365501 -0.3010077178 0.1320376396
-0.24988419 0.31521338 1.863 0.3065029085 0.7728490829 0.5556620359
0.19645539 -0.46370825 1.7479999 0.2793816924 0.3756654561 0.883640945
-0.033939272 0.15403205 1.4890002 0.225053072 0.3971527219 0.8897307515
-0.24229752 -0.2437484 1.6550001 0.7598224282 0.294950068 0.5793740749
0.20923333 -0.40427622 1.7220001 0.53115803 0.03847794235 0.846398592
-0.11580417 0.10907136 1.536 0.1912567616 0.4964713752 0.8467213511
0.41640353 -0.20457456 1.655 0.5046898723 -0.04310123995 0.862224102
0.17547974 0.048129875 1.7050002 -0.07522659749 0.8172391057 0.5713678002
-0.023314949 -0.20638049 1.9700001 0.6799237728 -0.2201422751 0.699457705
0.17025568 0.081551038 1.6320001 0.158892259 0.9509842992 0.2652961612
0.13486816 0.10497469 1.5860001 0.1034254059 0.9216050506 0.3740952909
0.36079916 -0.0045288601 1.7220001 0.9040344357 -0.03683714196 0.4258693755
0.28342107 -0.055904157 1.483 -0.03645464405 0.9075528979 0.4183525145
-0.077510923 -0.093492553 1.8230001 -0.5348393321 0.4718512595 0.7009302974
-0.048406027 -0.16190982 1.904 -0.2511405051 0.8444061279 0.473187834
-0.15379363 -0.23794486 1.6550001 -0.2069814652 0.7354800105 0.645157218
0.20056468 0.067270137 1.4210001 0.5605172515 -0.2762035131 0.7807253003
0.43210551 -0.3847515 1.688 0.9584962726 0.09834039211 0.2676080167
0.3468444 0.055229999 1.6800001 -0.4846548438 -0.6460304856 0.5897069573
0.41331473 -0.42255655 1.7570001 0.1754158437 0.1723573506 0.9692895412
0.064382397 0.082981758 1.6320001 -0.08544271439 0.8208149672 0.5647674799
0.09909226 -0.49708578 1.853 0.8049411178 0.1910890937 0.5617426038
0.083776243 -0.27526477 1.8830003 0.3798291683 0.01295007672 0.9249659777
-0.047844961 0.20865719 1.516 0.4785694778 -0.5496731997 0.6847120523
-0.307042 0.32520038 1.8830001 0.6680193543 -0.002007640433 0.744141221
-0.018669493 -0.29531741 1.9360001 0.8280437589 0.2127479613 0.518730998
-0.15850484 0.058396518 1.5860001 -0.1000780761 0.6950391531 0.7119725347
0.083935581 0.14688724 1.4960002 0.02550734021 0.8016200066 0.5972895026
-0.12638026 -0.27208927 1.6960001 -0.1999489069 0.7752067447 0.5992286205
-0.16342556 0.28393129 1.8830003 0.01013397612 0.6412519217 -0.7672634721
-0.10466114 0.082723439 1.5640001 0.05774086341 0.7949972749 0.6038587093
0.22296613 -0.27353576 1.748 0.638877213 -0.2573554814 0.7249855399
0.06525293 0.022762651 1.7310001 -0.1898639947 0.858284831 0.4767587185
0.12508753 0.066188507 1.6630001 -0.1423363239 0.8627029061 0.4852669537
-0.19306304 -0.10587328 1.7760001 -0.3549213111 0.7464566827 0.5628794432
0.32431945 -0.46397364 1.7570001 0.4752817154 -0.2903600037 0.8305410147
-0.020126512 0.33750615 1.766 0.3300753236 -0.718042016 -0.6127527356
0.12508367 -0.1949356 1.8530002 0.6443777084 -0.2133488953 0.7343429923
0.0015017299 0.022525949 1.7130001 -0.2074121088 0.8623540998 0.4618718624
-0.0064429156 0.42176318 1.6960001 -0.2608185112 -0.6980330348 -0.666876018
0.26678458 -0.03775014 1.4450001 0.01604307629 0.8036231399 0.5949222445
0.26663992 -0.44899711 1.748 -0.4059557319 0.6899551749 0.5993011594
0.40515918 -0.49511394 1.655 0.8131092787 -0.3970730603 0.4256598651
-0.18547389 0.084729224 1.5725386 0.4786382318 0.4505370259 0.7536059022
0.072247855 -0.4449811 1.8730001 0.797573328 0.4651238024 0.3841050565
0.31249133 -0.17058706 1.7220001 0.6088491678 -0.7554166913 0.2421741337
0.14408804 -0.075227641 1.8830003 -0.02473916486 0.6638735533 0.7474355102
0.36975697 -0.24508794 1.6160001 0.2012015581 -0.0553072691 0.9779872298
0.09514901 0.17461884 1.4700001 0.0250576362 0.4939386845 0.8691356182
0.024973478 -0.18596755 1.936 0.4540527463 -0.6048321128 0.654227972
0.3808836 -0.11514841 1.684 0.6405763626 0.1271977127 0.7572863698
0.0014578967 0.048110589 1.6630001 -0.2002253681 0.7490115166 0.6315786242
0.065813124 0.11791517 1.5640001 -0.004797310568 0.961382091 0.2751753032
0.42341492 -0.45517999 1.6470002 0.827761054 -0.3371831775 0.4484630525
0.10515792 -0.14521807 1.904 0.802275002 -0.4197850823 0.424423486
0.13464373 -0.1444957 1.8730001 0.648370862 -0.4975026846 0.5762866735
0.401761 -0.092612386 1.5535001 -0.2353385091 0.7975676656 0.5554292202
0.025705267 -0.23735645 1.904 0.4443649054 -0.6299093962 0.6369882226
0.4580487 -0.48670426 1.6076669 0.616378963 -0.2220054269 0.7555068135
0.17369835 -0.01095395 1.7850001 -0.1399232298 0.8334546685 0.5345790386
0.15011601 0.18144457 1.4890001 -0.4307559431 0.4910843968 0.7571561337
-0.042048439 0.01051211 1.7130001 -0.1317220777 0.8132794499 0.5667678714
0.2780804 0.37237206 1.8230001 -0.2736768126 0.168068096 -0.947023809
0.15416709 0.14433229 1.5159999 -0.1330081075 0.6505733728 0.7477052808
0.10502028 -0.051702291 1.8430001 -0.08299641311 0.8736917973 0.4793477058
-0.1297528 0.018952657 1.6630001 -0.4238942564 0.7956859469 0.4326633215
0.16407079 -0.18356435 1.853 0.2155501395 -0.07408177853 0.9736785889
0.32555893 -0.36551389 1.6879998 0.03387064487 0.4266004562 0.9038057327
-0.18625923 0.00721935 1.647 -0.2460032701 0.7974434495 0.5509685278
-0.11355989 0.17370623 1.5359999 0.4925541282 -0.3098013103 0.8132733703
0.27421331 -0.36469731 1.6960001 0.5116388798 0.1350772232 0.8485162258
0.17463726 -0.29513067 1.7850001 0.7252879739 -0.4805080593 0.4930206537
0.31677034 0.40449136 1.853 0.5551893115 0.5867741108 -0.5894582272
-0.10344579 0.2446575 1.8730001 0.1845883727 -0.3822946548 -0.9054158926
-0.089827649 0.28254879 1.863 -0.05528490618 -0.1976567954 -0.9787110686
-0.13392486 -0.017468462 1.7220001 -0.207928285 0.7171167731 0.6652137637
0.092112586 -0.33444464 1.8830001 0.2634352744 -0.1170953363 0.9575440288
-0.095130384 0.13485149 1.523 0.3509292603 0.2503026724 0.9023287892
-0.075937741 -0.12279295 1.8430001 -0.2932005525 0.6721631289 0.6798751354
-0.01285544 0.31013748 1.8330001 -0.2958884537 -0.9182599187 -0.2631516755
-0.043398507 0.28876698 1.904 -0.3829976618 0.7857854962 -0.4856479466
0.21034038 -0.25145957 1.8040001 0.7226686478 -0.6618921757 0.1991199553
-0.08275032 -0.029115854 1.748 -0.2725720108 0.7805815339 0.562491715
0.11081856 0.13218117 1.5230001 -0.08701797575 0.8447161317 0.528093338
0.18484844 -0.38532329 1.7390002 0.5260726213 0.05921112746 0.8483758569
0.034297831 -0.083294727 1.8630002 -0.1586786211 0.8382232785 0.5217306018
0.1961489 -0.29728818 1.748 0.6124524474 -0.307045728 0.7284400463
-0.23411734 0.31049603 1.8940001 0.3058768213 0.7689980865 0.5613210797
0.053987324 -0.016430926 1.7850001 0.01577784121 0.8322814107 0.5541287661
-0.042914588 0.45726231 1.6880001 -0.8397685289 -0.178475216 -0.5127722621
-0.18935299 -0.2334879 1.6240001 0.1353216618 0.4236132205 0.8956784606
0.30796248 -0.40910703 1.7220001 -0.47578758 0.7395806909 0.4760740995
0.036083601 0.19588241 1.4699999 0.3693080246 -0.1479301602 0.917457521
0.37344596 -0.35570782 1.6864001 -0.2976850569 0.7583240867 0.5799380541
-0.073729418 -0.17278574 1.9260001 -0.1801532209 0.9215768576 0.3438616991
0.0083458666 -0.34551889 1.904 0.8458279967 0.09332837164 0.5252283812
0.056141291 -0.17433351 1.9260004 0.3802186549 -0.4925573766 0.7828288674
-0.25304151 -0.071332179 1.7130001 0.1496750563 0.5624248981 0.8131885529
0.04174336 0.12792321 1.536 -0.139858678 0.8817506433 0.4505056441
0.1625603 -0.4458797 1.766 0.1596827209 0.1017244384 0.981913209
0.46793631 -0.27539751 1.6390001 0.2112425417 -0.2126433253 0.9540227652
0.13652638 -0.30617452 1.8430001 0.5507836938 -0.4478245974 0.7043368816
0.33225229 -0.20312366 1.6550001 0.6488890052 -0.04732206836 0.7594100833
0.045830753 0.053364575 1.6710002 -0.2557644248 0.7461926937 0.6146389842
0.17576693 -0.11598668 1.853 0.6346484423 -0.3647071719 0.681329608
0.15672258 0.28920969 1.8430001 0.1490021348 0.06943808496 -0.9863958359
0.17062125 0.10783263 1.557 0.1996410191 0.8783634901 0.4343052804
-0.19533536 -0.042914588 1.6880001 -0.2413495034 0.6430004239 0.7268431187
0.30192399 -0.25332159 1.6800001 0.3961999714 0.01016834099 0.9181079268
0.48508945 -0.44521728 1.6054442 0.5164375305 0.02030189149 0.856084168
0.010782124 0.0015403033 1.7570001 -0.1938393712 0.7926237583 0.5780777931
-0.023222899 -0.028177118 1.766 -0.3722197711 0.6697843671 0.6425273418
0.36079916 -0.49817461 1.7220001 0.2385973781 -0.5222881436 0.8187102079
-0.062909603 -0.058191381 1.794 -0.2313813418 0.8114170432 0.5367168784
-0.01454127 -0.085631929 1.8430002 -0.4315263629 0.6991715431 0.5700387359
-0.12410628 -0.29484442 1.7360911 -0.1361070275 0.7064741254 0.6945279837
-0.12299984 -0.32540464 1.7760001 -0.2552313805 0.8049351573 0.5356643796
0.18887784 0.15626583 1.5500001 -0.9428188205 0.1356841177 0.3044379056
0.070605859 -0.30705339 1.8730001 0.05192478374 -0.256693095 0.9650971293
0.38402998 0.051390022 1.7342001 -0.4186713994 0.7061748505 0.5709915161
-0.055400074 0.037905313 1.6630001 -0.05370727926 0.8414726257 0.5376237631
0.01485687 -0.26247138 1.8830001 0.3938845098 -0.1680626273 0.9036647081
0.34194735 -0.43590584 1.7570001 0.3335657716 -0.2210324556 0.9164488912
0.028062977 -0.29548663 1.8830001 0.443398416 -0.00125317229 0.8963237405
0.42016616 -0.26567209 1.6470001 -0.6717965007 -0.2959213555 0.6790581942
0.1860825 -0.22272047 1.8329999 0.4659450352 0.1768488735 0.8669600487
-0.026040945 0.4026911 1.7220001 -0.5328268409 -0.521479547 -0.6664493084
-0.14436843 -0.065672934 1.7570001 -0.4060283303 0.591693759 0.6964477897
0.42327598 -0.23569329 1.6630001 -0.1209979057 -0.03862696514 0.9919009209
0.2751101 0.047756068 1.6710001 -0.5979933739 0.5879836082 0.544682622
-0.28155464 0.018770309 1.6470001 0.5478230715 0.1769073606 0.8176757693
0.32918483 -0.036721811 1.4960001 -0.6222488284 0.3933364749 0.6768255234
-0.16334142 0.14150189 1.557 0.365308255 -0.2725374997 0.8900973201
-0.043708406 -0.32662103 1.8130001 -0.5486872196 0.483792305 0.6818264723
0.35426888 -0.10496856 1.6630001 0.6802676916 0.3859799504 0.6231014132
0.14707837 -0.34834349 1.766 0.3257798553 -0.4474599659 0.8328547478
0.24498451 0.33807862 1.863 -0.04867725819 0.8681704998 0.4938730299
0.27820492 -0.31520024 1.6880001 0.5808351636 0.0127280578 0.81392169
0.18698511 -0.1390402 1.8230001 0.7147480249 -0.2326606363 0.6595485806
0.064340755 -0.23370226 1.8940001 0.3714125752 -0.182963267 0.9102621078
0.01721335 0.33957246 1.7850001 -0.3588696718 -0.7989031076 -0.4826658964
-0.024629951 -0.12314975 1.8730001 -0.338458389 0.522869885 0.7823381424
0.15265834 -0.24907415 1.8330001 0.07659889013 -0.1727686524 0.9819794297
-0.23417521 -0.027983198 1.6799999 -0.02692075819 0.6420205832 0.7662146091
0.43566424 -0.35392228 1.6710002 0.7847936749 0.1903630793 0.5897971988
-0.18668967 -0.063907243 1.7220001 -0.3812956214 0.6355756521 0.6713101268
0.075382456 -0.086673222 1.8940001 -0.1750862002 0.8395802379 0.514246881
0.38601956 -0.45302495 1.7370002 -0.408847332 -0.05840672553 0.9107318521
0.40558684 -0.17485043 1.6630001 0.5092499256 0.2483931035 0.8239935637
0.13428897 -0.22688337 1.853 0.345023483 0.0275807213 0.9381887317
0.31488723 -0.075492568 1.5054001 -0.03354246914 0.8599379063 0.5092952847
0.36011714 0.0229862 1.748 0.7020703554 0.04177422076 0.7108812332
-0.022063946 -0.24609786 1.9360002 0.7629603744 -0.3968212306 0.5103179216
0.3542794 -0.082445532 1.5250001 -0.1567009091 0.8440885544 0.5127956271
0.3408927 -0.11713494 1.7130001 0.8271864057 0.3026843667 0.473439306
0.23564447 -0.18503627 1.804 0.6057764888 0.2310698032 0.761341989
0.24478202 -0.40546706 1.7129999 0.2993709147 0.1267585903 0.945679307
0.092334919 -0.17291811 1.9150001 0.6550287604 -0.5427874327 0.525660634
0.28500581 0.40326989 1.8230001 -0.3066223264 0.2622793317 -0.9149821401
0.18595941 -0.27496561 1.8130001 0.6724997759 -0.7311775684 0.114557527
0.47551802 -0.35450295 1.6240004 0.7753435969 -0.1941133291 0.6009678245
0.46555209 -0.41572234 1.6240004 0.7391892672 -0.1415464878 0.6584556103
0.28250146 -0.20178674 1.705 0.8239085674 -0.4236419201 0.3764334321
0.095388345 0.086846106 1.6240003 -0.07779444009 0.8311052918 0.5506469011
0.3578904 0.0073639997 1.6800001 -0.3367464542 0.3227933049 0.8845373392
0.33503994 -0.16318925 1.6857144 0.3373228014 -0.9011653066 0.2722397149
0.0250376 -0.1185113 1.9039999 -0.3431321383 0.744448781 0.5727620721
0.15102512 -0.3160629 1.7760001 0.2835265696 -0.4022381306 0.8705269694
-0.16503513 0.038085029 1.6090001 -0.2232696712 0.8174833059 0.530915916
0.053239089 -0.15284771 1.9590001 0.5013569593 -0.3969546258 0.7688096166
-0.047988731 0.08912193 1.5640001 -0.2071492523 0.8649834394 0.4570479989
0.16789307 -0.48211494 1.7570001 -0.03704130277 0.4956051409 0.8677577376
0.21280469 0.3232682 1.853 -0.1241900325 0.6347571611 -0.7626664639
0.44038033 -0.18625923 1.647 0.4234374166 0.1021126956 0.9001520872
0.22706158 -0.34449691 1.7130001 0.5340967178 0.02873737551 0.8449348211
0.0052214265 0.20494099 1.4890002 0.3165044188 -0.4125722051 0.8541716337
0.10648958 -0.45509723 1.8130001 0.8756387234 0.4437886178 0.190547809
0.1048055 0.1048055 1.5940002 0.1083998829 0.9123510122 0.3947975338
-0.050569639 0.47964537 1.748 -0.9657652378 0.1285632104 0.2253198475
-0.084377415 0.0044604801 1.6960001 -0.07217887044 0.7063764334 0.7041466832
0.22704789 -0.045922432 1.455 -0.1628608108 0.801744163 0.5750501156
0.20590971 0.029415673 1.766 -0.1050330848 0.8133262992 0.5722485185
0.14492352 0.03547607 1.7220001 -0.05637396872 0.8212733269 0.5677430034
