# .PCD v0.7 - Point Cloud Data file format
VERSION 0.7
FIELDS x y z normal_x normal_y normal_z
SIZE 4 4 4 4 4 4
TYPE F F F F F F
COUNT 1 1 1 1 1 1
WIDTH 512
HEIGHT 1
VIEWPOINT 0 0 0 1 0 0 0
POINTS 512
DATA ascii
-0.2271438241 -0.02378262393 1.068677664 0.7721042633 0.6149529815 -0.1434289217
-0.2327223569 -0.01915034465 1.066361427 0.8438835144 0.454461962 -0.2824966311
-0.2306908667 -0.0281134434 1.070845246 0.8181653619 0.4457534254 -0.3464331925
-0.2599021196 -0.04364334047 1.013065696 0.1878908724 0.3352368474 0.9225817919
-0.2488522828 -0.0380981341 1.010793209 0.1500946134 0.2916693091 0.9439727664
-0.2452109456 -0.03416178003 1.008184075 0.1295288503 0.2880864739 0.9481079578
-0.0796521157 -0.03671053424 1.109879971 0.6181269884 -0.07428535074 0.7825603485
-0.0701296404 -0.03450455517 1.105621934 0.6181269884 -0.07428535074 0.7825603485
-0.07527011633 -0.03205857426 1.107585669 0.6181269884 -0.07428535074 0.7825603485
-0.1301033646 -0.1118146181 1.104444981 -0.06917972118 -0.1702144891 0.9829756618
-0.1545993686 -0.1178018004 1.105372548 -0.06958501786 -0.1697238684 0.9830154777
-0.1407015175 -0.1102156565 1.110566378 -0.09034364671 -0.144595027 0.9850527644
-0.1486398727 -0.114366211 1.10695076 -0.07729665935 -0.1603887379 0.9837722778
-0.1305366755 -0.1122624502 1.113495111 -0.07666150481 -0.161157608 0.9837099314
-0.07404154539 -0.03841134533 1.109551549 0.6181269884 -0.07428535074 0.7825603485
-0.08397595584 -0.04318540171 1.118600607 0.6181269884 -0.07428535074 0.7825603485
-0.07763643563 -0.04227143899 1.112366557 0.6181269884 -0.07428535074 0.7825603485
-0.0725126341 -0.04575623944 1.106367469 0.628900528 -0.07829317451 0.7730691433
-0.2624871433 -0.02855936438 1.013212085 0.2452331632 0.157822147 0.9512367249
-0.2619010806 -0.03564269841 1.013137937 0.2217887789 0.2409556359 0.9370186329
-0.2578676045 -0.02602083236 1.011051655 0.2419103086 0.1219434217 0.9608851671
-0.2460685968 -0.03399163857 1.033540249 0.4079264402 0.4015078545 0.4599099159
-0.2435432225 -0.03261267394 1.039611697 0.4735130966 0.4363165498 0.3176564276
-0.2514562607 -0.0380592905 1.021224976 0.2648680508 0.3374181986 0.7585234046
-0.2481276989 -0.03247822449 1.027095675 0.361792177 0.3492904902 0.5873205662
-0.2532967329 -0.03601894155 1.015075207 0.2255469859 0.2845320702 0.8753819466
-0.2357590348 -0.02515315637 1.055798411 0.6729926467 0.5023714304 -0.08700175583
-0.2414952368 -0.02893345989 1.036005378 0.4524995387 0.3861147761 0.3654708862
-0.2482987493 -0.03222949803 1.014724016 0.221935451 0.249647513 0.8528254628
-0.2389705777 -0.02874987572 1.041981936 0.5109634995 0.4355117381 0.227780059
-0.242920652 -0.02523346059 1.040951252 0.533675909 0.3732551038 0.2572627962
-0.2520149648 -0.02546161413 1.020344734 0.335783273 0.1968222409 0.7326301336
-0.2460265309 -0.02534542419 1.03390193 0.4657987654 0.3133731782 0.4199158549
-0.2391854525 -0.02542266436 1.049315929 0.6125166416 0.4488191009 0.06456937641
-0.2536424994 -0.02901037224 1.015432596 0.2701450586 0.2036827803 0.8493049145
-0.2505109608 -0.03043027222 1.0220052 0.3253773749 0.2808540165 0.6991159916
-0.2488457561 -0.02660387754 1.027099371 0.3942191601 0.2716926634 0.5779794455
-0.07282271981 -0.04346824065 1.099779606 0.6181269884 -0.07428535074 0.7825603485
-0.07166977972 -0.05239119381 1.101791978 0.6374022365 -0.08145586401 0.7655793428
-0.07604144514 -0.03208596259 1.101962686 0.6181269884 -0.07428535074 0.7825603485
-0.07194273919 -0.02679119073 1.098142862 0.6181269884 -0.07428535074 0.7825603485
-0.07083781064 -0.03335530311 1.096487522 0.6181269884 -0.07428535074 0.7825603485
-0.06926464289 -0.02981500514 1.101612926 0.6181269884 -0.07428535074 0.7825603485
-0.07284274697 -0.03768002242 1.099945784 0.6181269884 -0.07428535074 0.7825603485
-0.08048719168 -0.04178876057 1.105734348 0.6181269884 -0.07428535074 0.7825603485
-0.07741685957 -0.03744051605 1.104223847 0.6181269884 -0.07428535074 0.7825603485
-0.08279078454 -0.04494717717 1.110552192 0.6181269884 -0.07428535074 0.7825603485
-0.226357162 -0.03216646984 1.073601484 0.7844148278 0.5220063925 -0.3129823208
-0.224560529 -0.03710263595 1.076994419 0.8108242154 0.4904344678 -0.2976149023
-0.1357562542 -0.1075143293 1.110833406 -0.09121810645 -0.1435364634 0.9851385951
-0.2554880679 -0.05337458104 1.017637014 0.1327819228 0.3555940688 0.9242615104
-0.2108593881 0.02411063761 0.9850682616 0.2249626815 -0.1570734084 0.9444447756
-0.1371576488 0.01665772498 1.001041532 -0.3518272936 0.1384081393 0.9232953787
-0.1412621886 0.01235828362 1.00143981 -0.387537688 0.2134513557 0.896425426
-0.0732299909 -0.05858112499 1.104023695 0.6047888994 -0.09424625337 0.788277328
-0.07828258723 -0.05581617728 1.109817863 0.5912333727 -0.08865725994 0.8003516197
-0.07687348127 -0.04863282666 1.110084772 0.6318789124 -0.08369509876 0.7694057226
-0.07828392833 -0.0666166991 1.107721925 0.544564724 -0.1149655581 0.8294686079
-0.08556433767 -0.06524296105 1.115018368 0.4992551804 -0.1202072129 0.8556080461
-0.0781191811 -0.07289402187 1.107333541 0.5378884673 -0.1562714577 0.8281097412
-0.08398195356 -0.07569278032 1.111643791 0.4798637331 -0.1629293263 0.8608051538
-0.08774265647 -0.07371968031 1.115256548 0.457344532 -0.1553704888 0.8750247955
-0.0837835446 -0.06906180084 1.106188297 0.5453159809 -0.1387211531 0.8253542781
-0.08420658112 -0.08151511103 1.107146144 0.4271135926 -0.1198158488 0.8945811987
-0.06831248105 -0.04702787474 1.100877404 0.6400700808 -0.0824483186 0.7632290721
-0.06839728355 -0.02876121178 1.093399644 0.6181269884 -0.07428535074 0.7825603485
-0.06819269061 -0.04018829018 1.102875352 0.6181269884 -0.07428535074 0.7825603485
-0.09609599411 -0.1002294943 1.106980562 0.1144782454 -0.05841285363 0.9904916883
-0.091737248 -0.08409672976 1.107028961 0.3322358131 -0.1147911027 0.9215636253
-0.09017714858 -0.07613858581 1.107538819 0.44863832 -0.1473400146 0.88061589
-0.2070392668 0.002870423254 0.9779314399 0.2632021904 -0.08926290274 0.9545295238
-0.2098860145 0.008095267229 0.9772173762 0.302136004 -0.1055686995 0.941726625
-0.2068972588 -0.01004383247 0.9757924676 0.3124546111 -0.07623753697 0.9460112453
-0.2102719098 -0.001646375749 0.9777510166 0.3737021387 -0.07639688253 0.9243498445
-0.08935237676 -0.06672023982 1.107101679 0.5168932676 -0.131784752 0.8441240788
-0.08653312176 -0.05687664822 1.108511448 0.5553509593 -0.09505045414 0.8224855661
-0.0854197219 -0.05002267659 1.112641215 0.5821390152 -0.08570601046 0.8051919937
-0.0898097977 -0.0614913106 1.111607075 0.5082574487 -0.1091520712 0.8516536355
-0.07854238153 -0.0519477129 1.103324175 0.6103747487 -0.07812608033 0.7881679535
-0.09042233229 -0.05957541242 1.117124557 0.5056607723 -0.1099062338 0.8520315289
-0.08083705604 -0.06073966622 1.111177325 0.5504661202 -0.0989896208 0.8265169859
-0.09159657359 -0.06373481452 1.121143103 0.463465631 -0.1236746013 0.8762096167
-0.08497568965 -0.05662439018 1.116303444 0.5443025827 -0.09917549789 0.828530252
-0.08952987194 -0.05504672229 1.121220112 0.522225976 -0.1045950875 0.8403257132
-0.08139557391 -0.05985062197 1.104578495 0.5936428308 -0.09623179585 0.7984258533
-0.1382905096 -0.1065163463 1.103766441 -0.06966657937 -0.1468737423 0.9856544137
-0.1304621696 -0.1021873206 1.108353496 -0.07048141211 -0.107809864 0.9901376963
-0.1235315502 -0.1013882458 1.109673619 -0.07024799287 -0.1190003082 0.988853395
-0.2180145979 -0.03545623273 1.070594907 0.8765002489 0.4208897352 -0.04816658422
-0.2242397666 -0.02854020894 1.069111705 0.7993070483 0.5545619726 -0.1262315214
-0.219143182 -0.03485275432 1.077478766 0.932436645 0.3284210861 -0.02694061026
-0.2305342555 -0.07933632284 1.019000053 -0.03919069842 0.513644278 0.8554611802
-0.2187679112 -0.0688212961 1.052295208 0.1907326281 0.4209012985 0.3470535874
-0.2205566317 -0.08334458619 1.044711232 -0.4839689136 0.5692021251 0.557205081
-0.235650897 -0.06932219118 1.034187436 0.1634247005 0.4505002797 0.71041435
-0.2202900499 -0.0617810376 1.053436875 0.5172247887 0.3524891734 0.2957620621
-0.2254016846 -0.07963816077 1.041022182 -0.3130541444 0.5390716195 0.6158088446
-0.2293457538 -0.06778161228 1.041479945 0.2364626229 0.4258677959 0.5586570501
-0.2275871634 -0.07450979203 1.040711403 -0.07548415661 0.4908050001 0.6012404561
-0.2217777222 -0.07251558453 1.047655702 0.01849535666 0.4623432457 0.4545960426
-0.2254117429 -0.06888290495 1.045222521 0.1862775087 0.4311897457 0.4884365201
-0.2285291553 -0.06249674037 1.035971045 0.2724358439 0.3262610137 0.6650918126
-0.223699525 -0.05962156504 1.044634938 0.4670005739 0.3033675551 0.4754439294
-0.2323536277 -0.06488448381 1.029761195 0.1304468066 0.3492361605 0.8012573719
-0.2373024821 -0.06890060008 1.027160764 0.0475971438 0.4194298387 0.8604580164
-0.2322153449 -0.04977730289 1.048957229 0.4198815525 0.3862376809 0.2512784898
-0.2328542173 -0.0596826002 1.035217404 0.2037596405 0.3616240025 0.6348462105
-0.2179492414 -0.05168166012 1.060670853 0.7844276428 0.2875891924 0.08538641781
-0.2203755528 -0.04751538113 1.063761353 0.7992694974 0.3155323565 -0.03106298856
-0.2292745858 -0.04477553442 1.058507323 0.6029064655 0.3815778494 0.01398919895
-0.2282502353 -0.04896920547 1.053982019 0.5479493141 0.3627056479 0.1548185199
-0.2263255417 -0.03947580233 1.068459749 0.7921234965 0.3777298927 -0.2346558869
-0.222689271 -0.05060474947 1.05736649 0.6721869707 0.3216566741 0.123782672
-0.2309402823 -0.05394462124 1.044716835 0.3725275695 0.3658055961 0.386940062
-0.2308068424 -0.0405831039 1.062524319 0.6435043216 0.4037615061 -0.1183346286
-0.2181614339 -0.05611323565 1.054597259 0.6898137927 0.2760965824 0.255766362
-0.2257239074 -0.05443739891 1.049269199 0.5098937154 0.330326438 0.3186185658
-0.225116834 -0.04373863712 1.064026952 0.7409865856 0.3574533463 -0.09429312497
-0.2324462086 -0.03908001631 1.056969404 0.574819684 0.4542438388 -0.009805378504
-0.2342734039 -0.05269632116 1.037910223 0.2578294873 0.4219564199 0.5151887536
-0.2319718897 -0.03516049311 1.062124729 0.6621277332 0.4655495584 -0.1535511315
-0.2310570478 -0.03424175456 1.068480134 0.7438721657 0.4369061887 -0.3019965589
-0.2326965928 -0.04466385767 1.052348733 0.4828692973 0.4215761423 0.1342485845
-0.2120266855 -0.04431345314 1.069912791 0.9373271465 0.2795964479 -0.01113839075
-0.2213759422 -0.03483151272 1.059220076 0.6515472531 0.5128898025 0.01548441872
-0.2253672183 -0.02927882969 1.063389421 0.6965154409 0.5846681595 -0.1014142409
-0.2186795324 -0.03755410016 1.049896002 0.4685098529 0.4946814775 0.2107164264
-0.2127614319 -0.0457165353 1.043265462 0.3913170099 0.3903374076 0.3920575678
-0.2182347327 -0.03911597654 1.055397153 0.6034528017 0.4589189291 0.1171604693
-0.2184820771 -0.03978457302 1.062061906 0.7565274835 0.4335537851 -0.004536972381
-0.2105499804 -0.04708241671 1.030133605 0.1125305966 0.4009287953 0.6501651406
-0.2137844861 -0.04539134726 1.051280618 0.5658020973 0.376408875 0.2379912585
-0.2175957859 -0.04193998501 1.066971064 0.883427918 0.3904601038 -0.08282537013
-0.2108321041 -0.04567795247 1.024026752 -0.03446940705 0.4357941449 0.7562718391
-0.2104024291 -0.05100523308 1.05349648 0.6625608206 0.2888333499 0.234340474
-0.215693742 -0.04177784175 1.047219157 0.4452443421 0.4389277101 0.2902651727
-0.2140619606 -0.04222108796 1.03395772 0.1557435542 0.4633646309 0.5445285439
-0.2156184018 -0.04082338139 1.040439606 0.2871965468 0.4687571228 0.4121879637
-0.2143012881 -0.04631055146 1.062183619 0.8147366643 0.3374758363 0.03771074861
-0.2095011473 -0.04953638837 1.03533113 0.2483481318 0.3527797461 0.5684518218
-0.2285447866 -0.0277536884 1.058340073 0.6313974857 0.5540494919 -0.1130546257
-0.152272135 -0.1236445904 1.097418189 -0.06917972118 -0.1702144891 0.9829756618
-0.1433760971 -0.1140450537 1.101481318 -0.06917972118 -0.1702144891 0.9829756618
-0.1367825419 -0.1162194759 1.104083776 -0.06917972118 -0.1702144891 0.9829756618
-0.1410710514 -0.1204524264 1.10342598 -0.06917972118 -0.1702144891 0.9829756618
-0.1219198182 -0.1178776473 1.113201857 -0.06917972118 -0.1702144891 0.9829756618
-0.1277473867 -0.1175695062 1.108592749 -0.06917972118 -0.1702144891 0.9829756618
-0.1355512142 -0.1149410531 1.109988928 -0.06917972118 -0.1702144891 0.9829756618
-0.1468676925 -0.1197678223 1.103034973 -0.06917972118 -0.1702144891 0.9829756618
-0.1422070116 -0.1150120124 1.107488751 -0.06917972118 -0.1702144891 0.9829756618
-0.2279496193 -0.02428379841 1.006835699 0.1973370463 0.3472042382 0.9059494138
-0.2339370251 -0.02734175697 1.004217148 0.1832977235 0.3326464593 0.9157755375
-0.2118185163 0.02739488333 0.9755804539 0.1887509227 -0.1795174778 0.9649335742
-0.2148447931 0.02704335563 0.9817480445 0.2630761862 -0.1361594349 0.94385463
-0.2101603001 -0.06488343328 1.021683931 -0.2573364973 0.4469636679 0.8513116837
-0.2232731432 -0.02968728915 1.003792644 0.1711362749 0.3813333213 0.8770593405
-0.2185359597 -0.02339625359 0.9992242455 0.3646178544 0.3770909309 0.8038071394
-0.2152739167 -0.0147635201 0.9868232608 0.5063511133 0.1929331422 0.8124318719
-0.2088387012 -0.01480776165 0.9795666337 0.3185204268 0.01600666903 0.9265263677
-0.2139752209 -0.02647857554 0.9952893853 0.1678907424 0.2720817029 0.9033042789
-0.1316173226 0.03076676652 0.9955652952 -0.2762729228 -0.05471614003 0.9506940246
-0.1423737258 0.04209855571 0.9948534369 -0.2007383406 -0.337639302 0.9154798985
-0.153874591 0.04274607822 0.9949403405 -0.1249093711 -0.4212376475 0.8844346404
-0.1470350623 0.03648133203 0.990704298 -0.1977803558 -0.1813506186 0.9482234716
-0.1134648547 -0.09088679403 1.113065243 0.1030954421 -0.1633801162 0.9769727588
-0.119527705 -0.09547549486 1.113571882 -0.02569925599 -0.08747120202 0.9906923175
-0.1101041883 -0.0960810557 1.109807253 0.07241770625 -0.126288265 0.9841640592
-0.1152217612 -0.09815546125 1.109097123 0.03346038237 -0.1468532979 0.9825422168
-0.1046879664 -0.09892958403 1.10791111 0.06489966065 -0.07851056755 0.9917531013
-0.2044184208 -0.01057834085 0.9915332198 0.3107133508 0.2150229365 0.8033617139
-0.1963675916 -0.008178664371 0.9913793802 0.1426661313 0.1632253081 0.841144383
-0.1857489645 -0.005302270874 0.9917652607 -0.06794416904 0.1034046561 0.8827012181
-0.1757887304 -0.002395899501 0.9916098714 -0.2746590376 0.0409460254 0.9279574156
-0.2186522633 0.0122446334 0.9831085801 0.4277621508 -0.01929302327 0.9014674425
-0.2180184126 0.02279484831 0.9801838994 0.3311745524 -0.07830009609 0.9307810664
-0.2140191495 0.01320364047 0.9788193703 0.3424398005 -0.08560185134 0.9295904636
-0.2142782956 0.001664316864 0.980938971 0.435067147 -0.01034286711 0.8950400949
-0.2461299151 -0.04755799472 1.030359149 0.2711791694 0.390712589 0.6539604068
-0.234060511 -0.02614076249 1.061227918 0.7193009853 0.5497806668 -0.200442493
-0.2495899349 -0.04287315533 1.026302338 0.2723771036 0.382312417 0.6913383603
-0.2417844087 -0.03708901629 1.042694211 0.4655574858 0.457461834 0.2934575975
-0.244943738 -0.04357722774 1.034223437 0.3376908302 0.4127925634 0.5340205431
-0.239835009 -0.03273794428 1.048074841 0.5486192703 0.4862188399 0.1383571774
-0.2530875802 -0.04435295984 1.019449472 0.1991344392 0.3524600267 0.8483040929
-0.2510530353 -0.050823614 1.020189762 0.1539184749 0.3446289003 0.8975773454
-0.2483898848 -0.05039204285 1.025099874 0.2013595253 0.3649699688 0.7913905978
-0.2527123988 -0.06046539173 1.020665407 0.09811748564 0.3479667008 0.9319041967
-0.2417805195 -0.0602241829 1.018497705 0.07152892649 0.3379144073 0.9376058578
-0.234950304 -0.0591183342 1.018105149 0.04832813144 0.3388609886 0.939027667
-0.2279684544 -0.05805255473 1.01765883 -0.01510576345 0.3583083749 0.9309567213
-0.2319667339 -0.06745813042 1.019000053 -0.009645964019 0.3876909912 0.9143221974
-0.2327634245 -0.07407167554 1.019000053 -0.01479118038 0.4686473608 0.8766674995
-0.09447176009 -0.07138117403 1.109595895 0.4255697131 -0.1377075464 0.8875216246
-0.09759783 -0.07105436176 1.11858511 0.3560117185 -0.1237995178 0.9202005863
-0.2063081861 -0.06394780427 1.028267264 -0.2931216955 0.4667487741 0.8283385038
-0.2132313102 -0.07747577131 1.030099154 -0.3076138496 0.5351504087 0.7854639888
-0.2199323028 -0.07821302116 1.024163246 -0.1960047781 0.5261469483 0.813973546
-0.2101449519 -0.07239853591 1.027190328 -0.3450034261 0.5223132372 0.7747212052
-0.2153489739 -0.07335650176 1.024350762 -0.2636745274 0.495844245 0.8136047721
-0.2220037878 -0.0449760668 1.080539107 0.8916920424 0.3829607666 -0.2212578356
-0.2149659842 -0.04562770203 1.077611685 0.9506841302 0.2902479172 -0.08603420854
-0.215686664 -0.04891883209 1.071694016 0.9371291399 0.2966525853 -0.1001332179
-0.223030448 -0.04148190096 1.073548675 0.8742821813 0.3641673923 -0.2521992624
-0.214251101 -0.04030844942 1.073845267 0.9674083591 0.2490928918 0.02009650134
-0.2087009549 -0.04861418158 1.070259452 0.9777545929 0.2075897455 0.02481617592
-0.2161926627 -0.07458222657 1.051341653 -0.07581651956 0.4767818749 0.3893602192
-0.2116226107 -0.05596940592 1.064317822 0.7910690308 0.2819542587 0.05491914973
-0.209386155 -0.06760720909 1.044091821 -0.1130540296 0.4767099619 0.5453109145
-0.2123073488 -0.07136312872 1.04691422 -0.1244609058 0.483048737 0.4863883853
-0.2097619474 -0.07136294991 1.039002061 -0.3633421361 0.5312666297 0.670288682
-0.213133499 -0.06890639663 1.053575754 0.1398670971 0.4270540774 0.3271865249
-0.2072075009 -0.06129897386 1.047830343 0.1621006578 0.4143909812 0.4472010732
-0.2112223506 -0.06263445318 1.058085442 0.4373685122 0.3602634072 0.2112194598
-0.2153723836 -0.07793281227 1.045495391 -0.3363042772 0.532869339 0.5310466886
-0.2088943124 -0.05062840506 1.044675708 0.4633002579 0.3166508973 0.398083359
-0.2081096172 -0.05419887975 1.057106018 0.6515522599 0.3024288714 0.19652915
-0.2073782086 -0.05814761296 1.052774191 0.3966163993 0.3628019691 0.323179245
-0.2064581811 -0.06167672202 1.034769535 -0.1915335208 0.475741148 0.7091137171
-0.2076835185 -0.05446286872 1.036802649 0.1242848411 0.3899884224 0.5912241936
-0.2066093087 -0.06148902327 1.041149616 -0.02201314829 0.4471047223 0.5839436054
-0.207370162 -0.05502884462 1.025117397 -0.1943286657 0.4448170066 0.822900176
-0.2078312486 -0.05481765419 1.04773891 0.3901074231 0.3481481969 0.3840429187
-0.2007927001 0.03357001022 0.9866234064 -0.002191934036 -0.2750690579 0.9588085413
-0.1958940923 0.03546211869 0.9900385141 -0.05663256347 -0.2833504975 0.9507747889
-0.2049748003 0.02701302245 0.9878758788 0.1340020597 -0.1876945496 0.9413750768
-0.1923559457 0.01947300695 0.9771159887 -0.06994284689 -0.1917837262 0.9721815586
-0.2012845278 0.0219660271 0.9766905308 0.03539800271 -0.195242092 0.9745976925
-0.1767558753 0.0365736559 0.9898756742 -0.1483940184 -0.3627404273 0.9191511273
-0.1778919697 0.04081453383 0.9948885441 -0.1468100995 -0.4151660204 0.8963736296
-0.170839861 0.04475753382 0.9985888004 -0.1448878348 -0.4477147162 0.8802671432
-0.2288582176 -0.04163901508 1.01077795 0.01391983312 0.3800211251 0.9230091572
-0.2280218601 -0.04684212059 1.013426661 -0.001785367727 0.3912784457 0.9193030596
-0.2307674438 -0.05299531668 1.015912294 0.03045542352 0.3788163066 0.9238096476
-0.2079246193 -0.05960820615 1.020405173 -0.20715563 0.4268867075 0.8801230192
-0.2076268345 -0.05248999596 1.018058658 -0.1513130218 0.4233154058 0.8929962516
-0.2185011804 -0.0336128138 1.008808613 0.07387028635 0.4520789087 0.8865491152
-0.2142708302 -0.04019746929 1.011690259 -0.01867887005 0.4398505688 0.8898711205
-0.1437137872 0.009112139232 0.9976145625 -0.3884160221 0.2242356241 0.8936448097
-0.1487802416 0.008277970366 0.9948225617 -0.3856207132 0.2019166052 0.9001426697
-0.1358555406 0.0383336246 0.9904398918 -0.2600487471 -0.1852503419 0.9446610212
-0.1358745247 0.02275840938 1.001801372 -0.3323298097 0.04563319683 0.9364456534
-0.1454514414 0.0385282822 1.007667661 -0.2565920055 -0.2287130952 0.9056221843
-0.13888219 0.0292129498 1.003933311 -0.2997455001 -0.06648419797 0.9284586906
-0.1517831981 0.05023349449 1.009521723 -0.1671095639 -0.5076408982 0.8451057673
-0.1489408761 0.04542217031 1.000865698 -0.1626541018 -0.4368442297 0.8821229339
-0.1543225497 0.04608980194 1.00064671 -0.1270753592 -0.5022294521 0.8538224101
-0.1296450645 0.03738835081 0.9954112768 -0.2302655131 -0.1588341296 0.9578150511
-0.1367341876 0.04118568078 0.9964936376 -0.2226068676 -0.2729103565 0.9302982688
-0.1431681812 0.0444736816 1.006399035 -0.215444684 -0.3191514611 0.9167475104
-0.1375492364 0.04082009569 1.002806902 -0.2200989872 -0.244039923 0.9359696507
-0.1333857328 0.03734298795 1.000392079 -0.2214545608 -0.184959054 0.9513254166
-0.1431709528 0.0445725657 1.000532985 -0.2029728591 -0.3726971745 0.9039664865
-0.1324931085 0.02949169464 1.001538754 -0.243555218 -0.08939634264 0.9600449204
-0.136809513 0.03447502851 1.0039258 -0.233643651 -0.1711024195 0.944069922
-0.1003893763 -0.09989819676 1.111819029 0.1413005292 -0.1005510911 0.9795898795
-0.1244033054 -0.1075168326 1.106102943 -0.0657652244 -0.1675350964 0.9832288027
-0.116323702 -0.109125793 1.106592298 -0.01340352651 -0.1264461279 0.9871103764
-0.1023271903 -0.1040307358 1.107851982 0.07602728903 -0.05600941926 0.9938026667
-0.1234411672 -0.1137412861 1.106082797 -0.06024018303 -0.1623449326 0.9838455915
-0.1103093773 -0.1102060154 1.11253655 -0.01414483134 -0.1022552699 0.9930616021
-0.09493442625 -0.07918968052 1.108375072 0.3749382198 -0.1410736889 0.9018003345
-0.100549385 -0.08723670989 1.110593915 0.2458327264 -0.1220718697 0.9506571293
-0.09731775522 -0.09216743708 1.107694268 0.1861903518 -0.08045379072 0.9643178582
-0.1054140329 -0.08664409816 1.113410234 0.227496624 -0.1479748487 0.9599719644
-0.197853744 -0.007898961194 0.9751905203 0.09623607993 -0.04043442383 0.9645467401
-0.2438478917 -0.05551092699 1.029325962 0.1769111753 0.3649279475 0.7497629523
-0.2473345697 -0.05774160475 1.023404002 0.1230130792 0.3442559838 0.8989700675
-0.2332627326 -0.03302689269 1.056231141 0.6068079472 0.5228926539 -0.03726829961
-0.240271166 -0.04856795818 1.038300872 0.3118549883 0.4133354127 0.4930182993
-0.2367040068 -0.03829443827 1.049654007 0.5047023296 0.4799462557 0.1565306336
-0.2395820171 -0.05437869206 1.033148646 0.2081972659 0.3904218674 0.647626102
-0.2428902388 -0.06078916043 1.025557041 0.08569806069 0.3429549634 0.8718679547
-0.2376742363 -0.04525790736 1.042637587 0.3768862486 0.442691803 0.3655057549
-0.2413107455 -0.07250352204 1.024833202 0.01746030524 0.4825303257 0.8735364079
-0.2491691262 -0.06500030309 1.019803882 0.08442436159 0.379555434 0.916556716
-0.2433923036 -0.06800857186 1.019000053 0.05481633171 0.4060985446 0.904537499
-0.2406283319 -0.06578488648 1.023972273 0.02403493039 0.3667921424 0.9273123741
-0.100941211 -0.08092414588 1.113928318 0.2694387138 -0.1265509427 0.9541580677
-0.09606605023 -0.08512073755 1.113311052 0.3135453761 -0.1299083233 0.9398896694
-0.1017180979 -0.09295562655 1.112441421 0.1497197449 -0.08273437619 0.9797773361
-0.2255472988 -0.07735016197 1.019000053 -0.09693975747 0.497038573 0.8568441272
-0.2157431096 -0.06818357855 1.020856261 -0.2139470726 0.4311141372 0.8714254498
-0.2209305465 -0.07346715778 1.020241261 -0.1534637064 0.4654887915 0.863563776
-0.2239248604 -0.06866145879 1.019000053 -0.11488197 0.4034608603 0.8991191983
-0.2210334837 -0.05609675124 1.017396569 -0.07690295577 0.3955982924 0.9108670354
-0.2162484974 -0.06166543067 1.018682241 -0.2411912084 0.4022833109 0.8793116212
-0.2241655886 -0.06256073713 1.018918753 -0.08759521693 0.3331332505 0.9380574226
-0.2227086723 -0.0821961239 1.030082464 -0.1953143775 0.5270597935 0.8221693635
-0.2366402149 -0.07592148334 1.026708484 -0.03191654384 0.502358675 0.8594629765
-0.2318434864 -0.07973080873 1.025668859 -0.06779602915 0.5151305795 0.8482666612
-0.2109785825 -0.07615930587 1.035372853 -0.3973420262 0.5553827286 0.71696347
-0.2080495209 -0.0720525533 1.033134103 -0.3512559831 0.5421555638 0.7598324418
-0.215524435 -0.08099445701 1.035558224 -0.3860503137 0.5570449233 0.7156727314
-0.2292926162 0.01292784419 0.9907972217 0.5593273044 0.111135684 0.8163926005
-0.2240280062 0.01740001515 0.9874465466 0.4760833085 0.01874114573 0.8703715205
-0.2167765647 0.01622683741 0.9866554737 0.3903446496 -0.04872282594 0.9144917727
-0.2206209451 0.002373134252 0.985258162 0.517025888 0.08380262554 0.8495842218
-0.2243095338 0.01041394006 0.9874722362 0.5142261386 0.07267841697 0.850540638
-0.2576977611 -0.01779573224 1.010298967 0.2944933176 0.07948178053 0.9511243105
-0.2545190156 -0.01176257525 1.011728764 0.3320892155 0.08338620514 0.9347866178
-0.2598614991 -0.009949417785 1.012698531 0.341199398 0.07004696131 0.9351123571
-0.2563601434 -0.0001524784602 1.014551044 0.4107527435 0.05376600847 0.9092763066
-0.2111596912 0.0007944661193 0.9859963059 0.3333361447 0.05937031284 0.9004086256
-0.2086755186 0.005384637043 0.9840182662 0.2478695065 -0.01319140848 0.950689733
-0.219729051 -0.01131296437 0.9923081398 0.5893198252 0.2494313419 0.7581217289
-0.218236044 -0.002721670084 0.9903185964 0.4771648347 0.1115318164 0.8371118307
-0.2316537201 -0.007300883532 1.00011456 0.495835036 0.2182381153 0.835472405
-0.2317567319 -0.01322504599 1.00240314 0.4187570214 0.2439795136 0.868011713
-0.2448160052 -0.01034695283 1.004569411 0.381952554 0.08941566199 0.9193136692
-0.1971764714 0.02952788025 0.9890087247 -0.02739552408 -0.2286374718 0.9612802863
-0.2113306224 0.0172733143 0.9861519337 0.2760627866 -0.0846876353 0.9413197637
-0.2007939517 0.0236418806 0.9867395163 0.03130408376 -0.1762874275 0.9720905423
-0.2066080123 0.02018366382 0.9864465594 0.1667432189 -0.1260591745 0.9547883272
-0.1960417181 0.02008962445 0.9832760096 -0.06279756129 -0.1887862086 0.9746198058
-0.2012072504 0.01630337723 0.9831603169 0.03236217797 -0.1211178824 0.9870963097
-0.2111348957 0.01065899152 0.9857895374 0.2614197433 -0.03267547116 0.9345285892
-0.2197787017 0.007945761085 0.9902097583 0.4615661204 0.047602918 0.8514763713
-0.1979004592 0.01372280717 0.9775785208 0.01176431682 -0.1491209716 0.9829262495
-0.2062048614 0.01461941935 0.9769660234 0.1488302797 -0.1492694765 0.9751220345
-0.2080063671 0.02131703496 0.9762207866 0.1477708519 -0.1765325069 0.9709584713
-0.1886695772 0.02375752106 0.979872942 -0.1176273674 -0.2428717613 0.9569844604
-0.1611871421 0.04598270729 0.9987366796 -0.1274328977 -0.4949036241 0.8593915701
-0.1684961915 0.03375545517 0.9935782552 -0.172911346 -0.2920731902 0.9213042259
-0.1726632118 0.03861041367 0.9936299324 -0.1354820281 -0.402430594 0.9037485719
-0.1632065177 0.03336090967 0.9962320924 -0.1967386454 -0.2499314696 0.9196248055
-0.1614371091 0.02765793726 0.9944934249 -0.2275842726 -0.1412395835 0.9422076941
-0.236090675 -0.0459587425 1.01316452 0.05584672838 0.3889277577 0.9192269444
-0.2474297881 -0.0561013855 1.017166734 0.103344731 0.3557649255 0.9284891486
-0.240853548 -0.05106252804 1.01547575 0.09152759612 0.3725827634 0.9231364727
-0.2460344434 -0.0430578813 1.012760401 0.1240266487 0.3492915332 0.9275162816
-0.2553865612 -0.04800029099 1.014764428 0.1528058201 0.3570800424 0.920820415
-0.2489243597 -0.04724577442 1.014469981 0.1261917055 0.3698548377 0.9200356603
-0.2301503271 -0.03332046047 1.019731522 0.2016396821 0.4190456271 0.7055541873
-0.2281951457 -0.02812975086 1.036286116 0.4186291397 0.4885820448 0.3298183978
-0.233033061 -0.03324817866 1.028124213 0.2984465063 0.433480978 0.5270620584
-0.2272839248 -0.02964019403 1.027317166 0.307783246 0.4614976048 0.5272829533
-0.2225471735 -0.0284318123 1.019161582 0.2203059196 0.4578705728 0.6947404742
-0.2253436595 -0.03127061576 1.01495254 0.1573004425 0.4278344512 0.7973922491
-0.2307017446 -0.03577714786 1.010847688 0.08688984066 0.3844044507 0.9056492448
-0.2343258709 -0.03528251871 1.023113132 0.2303742617 0.4086651206 0.6429693699
-0.23489815 -0.03136776388 1.037983775 0.42708233 0.4573022723 0.3112185299
-0.2420801371 -0.0355967693 1.018357515 0.2164710611 0.3401866853 0.7623605728
-0.243423447 -0.03691381961 1.012825131 0.1523496956 0.3117892146 0.8884717226
-0.2401947677 -0.03348315507 1.027060509 0.3189286888 0.3833146691 0.5643317103
-0.2365441322 -0.03773511946 1.014383912 0.1250605285 0.3638424873 0.8428197503
-0.2336784452 -0.02858495712 1.048622727 0.5599020123 0.5026713014 0.07082729042
-0.2251177281 -0.03626414388 1.008656025 0.01672909409 0.3865245879 0.9214038253
-0.2351255417 -0.03538702428 1.007320881 0.08177176118 0.3548142314 0.9311851859
-0.2207502276 -0.04073202237 1.010280728 0.01451577153 0.4288964868 0.9007436037
-0.2226424366 -0.04525030777 1.012837529 -0.03200395405 0.3984930217 0.916398406
-0.2150544822 -0.04679556191 1.013823986 -0.05601166189 0.4083521664 0.9105103016
-0.2156850398 -0.05322517827 1.016563773 -0.1056911796 0.4215013683 0.8995022178
-0.2204291373 -0.05087022111 1.015339732 -0.03151918575 0.3914259076 0.9194096923
-0.2228670269 -0.0338591598 1.045980215 0.4014160037 0.5041390061 0.1806390882
-0.2241214812 -0.03060064837 1.03961122 0.3930290341 0.4977691174 0.2861516476
-0.2179831117 -0.0359355472 1.023744345 0.1346447915 0.4508240819 0.6625491381
-0.215012446 -0.04092266038 1.026727915 0.07747975737 0.4458138049 0.6423296928
-0.2233673334 -0.02994574979 1.031853318 0.3243049383 0.4823542237 0.4426451027
-0.2264545113 -0.02875904739 1.046466589 0.4964846373 0.5169814825 0.1274388433
-0.2213508487 -0.03110102005 1.023993254 0.2225684524 0.4625350833 0.6165475249
-0.2204783559 -0.03593992442 1.039826989 0.3010035157 0.4859060347 0.326708734
-0.2270341665 -0.02938470244 1.052971482 0.5527580976 0.5297299623 -0.003133556806
-0.2144453675 -0.04020019621 1.019874692 0.01931151003 0.4325291216 0.7793577909
-0.2171655148 -0.03515264392 1.015010476 0.05808166787 0.4335756004 0.8383421302
-0.2186898589 -0.03645263985 1.030586243 0.1963219494 0.4645585716 0.5240231156
-0.106907919 -0.101202853 1.113653064 0.05691573769 -0.07248140126 0.9951549172
-0.1120604873 -0.102692008 1.107119203 0.0132930791 -0.1079251021 0.9890036583
-0.113234818 -0.1045718715 1.114176154 -0.02596812882 -0.1011276022 0.9941902757
-0.1192958057 -0.1049052998 1.113763809 -0.04845242947 -0.1199806333 0.9911627173
-0.1304982305 -0.105640538 1.113938332 -0.08950696886 -0.121203512 0.9880483747
-0.1232255846 -0.1119364798 1.114418268 -0.07069979608 -0.1470970958 0.9860213399
-0.1246152073 -0.1061663032 1.113884926 -0.0676009655 -0.1258689314 0.9891175628
-0.1165516675 -0.1150148436 1.114899516 -0.05241282657 -0.1453129798 0.9871394634
-0.2024215311 0.010000268 0.9820722938 0.08622085303 -0.09887178242 0.9868350625
-0.1770180762 -0.0002725652885 0.9810469151 -0.2626732886 0.07040060312 0.9545212388
-0.1676761657 0.005183810834 0.9865109324 -0.3502044678 0.09979718179 0.9285343885
-0.1721563935 0.002412307309 0.9837768078 -0.3064053059 0.08897674084 0.9411785007
-0.1825150549 -0.003235009499 0.9789375067 -0.2254783958 0.03572254628 0.9680770636
-0.1872246265 -0.0008940486587 0.9760682583 -0.1758467108 -0.03000337817 0.9798480272
-0.1769325286 0.006256238092 0.9835681915 -0.2975531816 -0.03159704804 0.9491829276
-0.1817804128 0.006807334255 0.9798833132 -0.2304706126 -0.06750340015 0.9623349309
-0.1842833161 0.01299346145 0.9777516127 -0.1811469495 -0.141241625 0.9671794176
-0.2175715566 -0.01716201566 0.993334651 0.5220710039 0.3117891252 0.7633331418
-0.2168084979 -0.0316590555 1.003651738 0.1204125807 0.4129236042 0.8785527349
-0.2093848288 -0.01336199604 0.9855140448 0.4036174119 0.12359979 0.8534469008
-0.2095347643 -0.02328940667 0.9929893017 0.1465056688 0.2058191448 0.9227010012
-0.21055457 -0.01762801036 0.9894005656 0.3226181865 0.1802393347 0.8673501015
-0.2012352645 -0.01174648199 0.9777559042 0.2214592397 -0.07167555392 0.9696436524
-0.2046441883 -0.0167685356 0.9843716621 0.1839684099 0.04693539813 0.9513521194
-0.1920597404 -0.007846815512 0.9833052754 0.02530487441 0.01254389249 0.9343759418
-0.1841623932 -0.005262266845 0.9837784767 -0.152810201 -0.005808736663 0.9550249577
-0.1987246722 -0.009654479101 0.9852375388 0.1726390719 0.08095628768 0.8874716163
-0.09092086554 -0.08914938569 1.111778617 0.3106068671 -0.1310151368 0.9406268597
-0.08975559473 -0.08034455776 1.114940166 0.3679786026 -0.1208176166 0.9203895926
-0.09287831932 -0.07545049489 1.117563367 0.3856217563 -0.1258436292 0.9117212892
-0.2208946496 -0.08375801891 1.038071632 -0.3772674203 0.5520852208 0.7119550705
-0.2308792323 -0.07845341414 1.031865358 -0.1651093513 0.5178981423 0.8093091249
-0.2640462518 -0.01519632153 1.012422562 0.2947381139 0.08266174793 0.9518767595
-0.2530072331 -0.01342662051 1.006635189 0.3198557794 0.0758690834 0.9441735744
-0.2477057427 -0.004486191086 1.005007148 0.4015549421 0.08807726204 0.9078090787
-0.2395749539 -0.02483066171 1.004770517 0.1923678666 0.2667392194 0.9418988228
-0.2494725585 -0.008732250892 1.009507895 0.3443976343 0.1139365733 0.9274171591
-0.2391079664 -0.01159175951 1.005510926 0.3608094752 0.1769666672 0.9136002064
-0.2280667275 -0.02974556386 1.009080887 0.1211527064 0.3718057871 0.913829267
-0.2382595986 -0.02932987735 1.007573009 0.1433642954 0.2790369093 0.9422066808
-0.2217885256 -0.02885950357 1.00955832 0.1176063344 0.4253544509 0.8960759044
-0.2179175913 -0.004036033526 0.9842446446 0.5327389836 0.09131123126 0.8388572335
-0.2251757085 0.004677033983 0.9929420948 0.5976071954 0.1019206792 0.7948653698
-0.2286618501 -0.01276226901 0.9974488616 0.5297932625 0.2179933637 0.802967608
-0.237653017 -0.01170372218 1.000184298 0.4405504465 0.1099265292 0.8791511059
-0.2364737839 -0.01774490997 1.002295494 0.3580752313 0.2084711492 0.8875389099
-0.2205739915 -0.02436398342 1.004991055 0.2629909515 0.3938664198 0.846591413
-0.2226228118 -0.0140922647 0.9966842532 0.5546309948 0.3066028953 0.7627393007
-0.2244203538 -0.01887888461 1.002612472 0.3757886589 0.3537050784 0.8343418837
-0.2281493098 0.0007369458326 0.9956921935 0.5583886504 0.17208682 0.8068439364
-0.2414488345 -0.002660489874 1.002538085 0.4419125319 0.1145199686 0.8863732219
-0.2342348695 -0.00236485363 1.000103712 0.5106394887 0.1775128096 0.8384797573
-0.2229199409 -0.005829730537 0.9907757044 0.6055986881 0.1477755159 0.7787786126
-0.2273443043 -0.005067494232 0.9960048199 0.5607367754 0.2009167522 0.8000999689
-0.2363940924 0.006168646738 0.9989836812 0.5312600136 0.1174895987 0.8363141418
-0.2442444563 0.003740999149 1.006507397 0.4787159562 0.07663904876 0.8723112345
-0.2392913103 0.003396737855 1.00247407 0.5025717616 0.1088070199 0.856102705
-0.2326310873 0.008256993257 0.9947476983 0.562502861 0.1393311024 0.8142373562
-0.1872059703 0.03115477599 0.985322237 -0.1524920613 -0.2692500651 0.9469634295
-0.2021906376 0.0277679041 0.9782287478 0.04160302505 -0.2330282032 0.9637321234
-0.1969261616 0.03096214682 0.9832986593 -0.04864242673 -0.2594353259 0.9565176368
-0.1837470531 0.03966530412 0.9915569425 -0.1402125061 -0.365985781 0.9187975526
-0.1810981184 0.02929742634 0.9853804111 -0.1596654356 -0.3001182377 0.9398848414
-0.1684767157 0.0009231788572 0.9904010892 -0.3662076294 0.08870852739 0.9256697893
-0.1608623862 0.006557491608 0.9875119328 -0.3601382971 0.1568408459 0.9193167686
-0.1547767222 0.00686278753 0.9932474494 -0.3743522465 0.1764085591 0.9096874595
-0.1822051555 0.01896822639 0.9787721634 -0.1813342422 -0.1706461608 0.9652143717
-0.1739529371 0.02055756561 0.9832125902 -0.2159558684 -0.1294296086 0.9638205767
-0.180400908 0.02625051513 0.9920000434 -0.2087362111 -0.2607847452 0.9189483523
-0.1748458296 0.01220006123 0.9920000434 -0.2792458236 -0.09383203834 0.9320979714
-0.1805273145 0.03262169287 0.9920000434 -0.1849625856 -0.2996650338 0.9159400463
-0.1679183692 0.01389023662 0.9920000434 -0.2967935503 0.00299274805 0.9398956895
-0.1621708721 0.01700537652 0.9920000434 -0.3050774336 0.07339566946 0.9455983639
-0.1715195477 0.0228488557 0.9920000434 -0.2516333759 -0.1043687239 0.9314382672
-0.1779609323 0.02100012824 0.9920000434 -0.2363321781 -0.1927930713 0.9243117571
-0.1561501175 0.01391382515 0.9937891364 -0.339471817 0.1334055066 0.9288551807
-0.1606178135 0.003922312055 0.993176043 -0.3728968203 0.132876724 0.9163609743
-0.1667567939 0.02778425999 0.9923417568 -0.2160584331 -0.161989972 0.9332279563
-0.1512053162 0.04270887375 1.006434679 -0.2133559883 -0.325858444 0.910153985
-0.1569854021 0.03128455579 0.9983295798 -0.2332618833 -0.172018975 0.9393669963
-0.1574586332 0.03784109652 1.001179457 -0.2042603344 -0.2865676284 0.9116842151
-0.1600362062 0.04750043899 1.004484296 -0.1528143436 -0.4683514535 0.8654850125
-0.150628373 0.03168498725 1.000674844 -0.3094402552 -0.1254339367 0.9148512483
-0.1504845917 0.02357725054 0.997253418 -0.3576350212 0.0111819366 0.9173383713
-0.1468588412 0.02483747713 1.00126636 -0.3414223492 -0.0004946067929 0.9081131816
-0.145934239 0.03148896992 1.005068183 -0.2993914485 -0.1098410413 0.9035468102
-0.1428257674 0.01999896765 1.002991199 -0.3607470691 0.09137681872 0.9000339508
-0.1553155631 0.02011105418 0.9944230914 -0.3059923053 0.02551643178 0.9442727566
-0.1490377486 0.01818790659 0.9972087145 -0.3625314534 0.09663179517 0.9197102785
-0.1808556765 0.0005683416966 0.9877582788 -0.2375100404 -0.01495309174 0.9594029188
-0.1856803894 0.003574287985 0.9860341549 -0.166913569 -0.05743333697 0.9676504731
-0.1909784526 0.007164469454 0.983879447 -0.09744665772 -0.09523872286 0.9783082604
-0.1943666786 0.01278367825 0.9824208021 -0.06666003168 -0.1130415127 0.9882240891
-0.1768702418 0.01201261673 0.9831508994 -0.2747235298 -0.05183856934 0.9546032548
-0.1985208243 0.004569619428 0.9778400064 0.05020020902 -0.1302730888 0.9850771427
-0.1938983798 0.008371865377 0.9778602719 -0.04541717842 -0.1468149424 0.987778306
-0.192045927 0.002720219316 0.9772819281 -0.1068375334 -0.09800837189 0.9840638041
-0.2026809752 -0.003918860108 0.9759681225 0.264883101 -0.08705076575 0.9458000064
-0.1960512996 -0.001749810297 0.9762512445 0.04187285155 -0.08133137971 0.9715678692
-0.1987414211 -0.001608326333 0.9830316305 0.04677982628 0.03689755127 0.9472101331
-0.2120491564 -0.009117838927 0.9887205958 0.4185245633 0.2012384832 0.8151589632
-0.2071102709 -0.005518811755 0.9863770008 0.2764277458 0.1295582205 0.8706971407
-0.1930439174 -0.001412279322 0.9814594984 -0.09701748192 0.006276215892 0.9794675708
-0.2024507672 0.002991643967 0.9827029109 0.1163461581 -0.005394775886 0.9642271399
-0.2142135501 -0.009859857149 0.981618166 0.4958663881 0.07476011664 0.8620043397
-0.226279065 -0.01866869815 0.9956092238 0.3693836331 0.2436515093 0.8716029525
-0.2305063754 -0.02179481275 1.000056267 0.2900539041 0.2949810028 0.8908312917
-0.2184190601 -0.00971556548 0.9872840047 0.5846595764 0.1399064809 0.796807766
-0.2597383261 -0.004228663631 1.012600541 0.3781965971 0.05791538581 0.9231892228
-0.2552603185 -0.005768943578 1.009160995 0.3752439618 0.05888074636 0.9243651628
-0.2511224449 0.0009121823241 1.012199402 0.4246575534 0.06976535171 0.9020671248
-0.2542844117 -0.0313247852 1.008818269 0.2233507633 0.2154040784 0.9449946284
-0.2473862022 -0.02292852476 1.005759358 0.2439681888 0.1396885067 0.9560162425
-0.2469009012 -0.01640004851 1.004982114 0.340247035 0.07652839273 0.9362360835
-0.2524119914 -0.02472668327 1.008541942 0.2242802233 0.1325886548 0.9638983011
-0.2471699119 -0.0286013931 1.007741809 0.1826879978 0.207461834 0.9583899975
-0.2619173825 -0.02203849144 1.012151837 0.2753425837 0.1003528461 0.9556353092
-0.1670047194 0.03942413628 0.9917692542 -0.146977663 -0.4121042788 0.8946626782
-0.1668123454 0.04419089854 0.9945056438 -0.1341013312 -0.485633105 0.8632330894
-0.160566017 0.03642859682 0.9902803898 -0.1453876495 -0.3252160251 0.9246939421
-0.1746843308 0.02559464611 0.9851094484 -0.1749061793 -0.2522139251 0.9515070319
-0.1705534309 0.03193540499 0.9877669215 -0.1602627933 -0.3177439868 0.934163332
-0.1650597453 0.02168479562 0.9872213006 -0.2412988096 -0.09390510619 0.9612671733
-0.1656419188 0.0112551637 0.9870413542 -0.3179040849 0.06620846689 0.9429090023
-0.1718073338 0.009106529877 0.9854530692 -0.3203821778 0.03264173865 0.9434515834
-0.1857235879 0.009861733764 0.9856165648 -0.1823365539 -0.06681929529 0.9711677432
-0.1830064654 0.02270324901 0.9873514175 -0.2050286382 -0.2044991255 0.9429572821
-0.1761131287 0.005843259394 0.9899977446 -0.2948422432 -0.04382670671 0.9444218874
-0.1885225028 0.02212849446 0.9851199985 -0.1668410152 -0.1878368556 0.9617100358
-0.1843662262 0.01527727861 0.9830445051 -0.2190538496 -0.1091721132 0.9689235091
-0.1923323572 0.02756138891 0.9865584373 -0.1199750081 -0.2560767531 0.9557927847
-0.1884841025 0.009034881368 0.977815032 -0.1804465801 -0.1102714166 0.9752792716
-0.1896717101 0.03566543758 0.9912011027 -0.1290109009 -0.3019843102 0.9410436153
-0.1561083347 0.01934876852 0.9887518883 -0.2902286947 0.07201202214 0.9438217282
-0.1598637551 0.02500073612 0.98807019 -0.2275919765 -0.0783090964 0.9644785523
-0.1492204517 0.03103134222 0.9888516068 -0.2438131571 -0.01595866494 0.9601718783
-0.1542076468 0.03598129004 0.9907758832 -0.1374870986 -0.3243258297 0.9249033332
-0.1546474248 0.02860730514 0.9887475371 -0.2075013518 -0.06454896182 0.9727117419
-0.1366496831 0.02859883383 0.9927343726 -0.313524276 -0.01360478066 0.9399702549
-0.1436159015 0.03098169342 0.9893769026 -0.2946029902 0.02003490925 0.9483893514
-0.139547199 0.02310169116 0.9948138595 -0.3315952122 0.0770060569 0.9358599782
-0.1501282752 0.01273960434 0.9915072918 -0.36006248 0.1760445386 0.9141196609
-0.1507101059 0.02045930922 0.9894886613 -0.3254118562 0.1338575333 0.9339302182
-0.1550500244 0.01184997614 0.9880079031 -0.346280843 0.1636485159 0.922721982
-0.1450781971 0.01458942145 0.9945884943 -0.3655258119 0.1709765643 0.9123380184
-0.1477945596 0.0257081259 0.9904335737 -0.3112738729 0.1101343259 0.9425865412
-0.1405788511 0.01751161367 0.9964076877 -0.355119288 0.1327775121 0.9238570929
