# .PCD v0.7 - Point Cloud Data file format
VERSION 0.7
FIELDS x y z normal_x normal_y normal_z
SIZE 4 4 4 4 4 4
TYPE F F F F F F
COUNT 1 1 1 1 1 1
WIDTH 512
HEIGHT 1
VIEWPOINT 0 0 0 1 0 0 0
POINTS 512
DATA ascii
-0.009057638235 -0.1854776293 1.210281253 0.3307316899 -0.1727247834 0.9277837276
-0.008296318352 -0.1794217974 1.212305188 0.3307316899 -0.1727247834 0.9277837276
-0.03921731189 -0.08146893233 1.099698663 -0.4994775057 0.05023675039 0.8647882938
-0.1759543121 -0.1230634004 1.087000012 0.2595303953 -0.05580479279 0.9611237645
-0.1765074879 -0.1294763684 1.087000012 0.252371788 0.02056735381 0.9668673277
-0.007575605065 -0.1746926308 1.210536718 0.3307316899 -0.1727247834 0.9277837276
-0.007466854993 -0.1676532179 1.20741868 0.3229067028 -0.1717666984 0.9305540323
-0.0204874333 -0.1691776365 1.217123389 0.2911234498 -0.1678751856 0.941806376
-0.04285407066 -0.07951492816 1.096442223 -0.5037596226 0.04238688573 0.8626899719
-0.1807115525 -0.1269754469 1.091759562 0.2637060583 -0.04476319626 0.9567636847
-0.1787177026 -0.1342195123 1.090680242 0.1835045516 0.0262414813 0.9726845026
-0.09012342989 -0.2426681072 1.191584587 -0.2922012806 -0.3430549204 0.8927103281
-0.1454830319 -0.117016077 1.085462451 -0.01094562002 -0.02737637609 0.996525526
-0.1510860771 -0.1185757667 1.085427642 0.02429286391 -0.01676581986 0.9922374487
-0.1468780637 -0.1240548342 1.084271789 -0.04877295345 0.09949173033 0.9919413328
-0.1429623961 -0.1193679869 1.098140001 -0.02846578322 0.06009285152 0.9426340461
-0.1455487907 -0.1154248118 1.096512437 0.02048716135 -0.002176874084 0.9504778981
-0.138200596 -0.132703498 1.099408269 -0.168899253 0.2340089977 0.9333435893
-0.1489139795 -0.1055277064 1.09575069 0.1236471608 -0.1296969503 0.9566426277
-0.1534716338 -0.1102327481 1.08956778 0.1134204865 -0.1257409751 0.9803445339
-0.1462919414 -0.1021645442 1.099494457 0.1349648088 -0.1383754462 0.9424504042
-0.1492259949 -0.1160405353 1.092428684 0.03856939822 -0.03001137823 0.966904819
-0.1487653106 -0.111383602 1.09424305 0.07422399521 -0.07120196521 0.9609640837
-0.1465028524 -0.1204837859 1.094059348 -0.01538613066 0.03839528561 0.9588934183
-0.1420078874 -0.1257345378 1.097343683 -0.08719683439 0.1309854537 0.9439029694
-0.1478591859 -0.1119422168 1.085641742 0.04975724593 -0.09714968503 0.9924823046
-0.1497451365 -0.1067668125 1.085499644 0.1061763689 -0.1771249026 0.9748451114
-0.1280463189 -0.1342576146 1.096741676 -0.03231081739 0.250589937 0.926764667
-0.1275282353 -0.1227357313 1.090334654 0.04744613543 0.2174878865 0.9481297135
-0.1313701123 -0.128019318 1.09107399 -0.07136166841 0.2742014825 0.9439248443
-0.1331101954 -0.1354910135 1.099561095 -0.159065783 0.28324458 0.927154541
-0.1255155355 -0.1265398711 1.094587803 0.07032293826 0.1988119036 0.9368963838
-0.1726500243 -0.1146173179 1.087000012 0.2616603374 -0.174082458 0.9433389306
-0.1806053519 -0.1220986173 1.090027332 0.2946591973 -0.08260892332 0.9478052855
-0.1799125671 -0.1144089699 1.093567729 0.3058996499 -0.184230566 0.9317318797
-0.1784451306 -0.1174964309 1.089082122 0.2999697328 -0.1452929229 0.9335830808
-0.1503389031 -0.09167780727 1.100838304 0.2385793328 -0.2650673389 0.9334743023
-0.154466033 -0.09006750584 1.09803319 0.2745518088 -0.2827872932 0.9184961915
-0.02255575359 -0.206735462 1.205931664 0.2107838988 -0.1868354976 0.9575149417
-0.02182859182 -0.2055534124 1.210581541 0.2133312672 -0.1782851666 0.9557226896
-0.01673111878 -0.1979011148 1.210755587 0.2933257222 -0.1744964272 0.9366856217
-0.02462480776 -0.2097144723 1.21067214 0.1676036865 -0.1805333495 0.9666051865
-0.01478719618 -0.1948488206 1.214099407 0.2854550779 -0.176148057 0.9385631084
-0.02808944695 -0.2061322927 1.214250207 0.16890423 -0.1848312318 0.9663108587
-0.02087009139 -0.1938875169 1.217490077 0.2618735135 -0.1820301414 0.9441916347
-0.02920708433 -0.201655522 1.217206717 0.1854469478 -0.1872547865 0.9623851776
-0.02046368644 -0.1988448054 1.214608192 0.2396951765 -0.1801092029 0.9494592547
-0.02434255742 -0.2017227262 1.214875937 0.2077110261 -0.1827699095 0.957074821
-0.02659414522 -0.1972391307 1.218371034 0.219020918 -0.186236158 0.9543972611
-0.04318890721 -0.101731874 1.106710911 -0.5309244394 0.1204049587 0.8372597098
-0.05029443279 -0.1026584879 1.102033138 -0.5294772387 0.1477924585 0.8341831565
-0.14301534 -0.0904154405 1.096955657 0.2269228101 -0.1928700656 0.9465418458
-0.1341433823 -0.08737977594 1.088613749 0.2204096168 -0.08782754838 0.960134387
-0.1466742456 -0.09236104786 1.092524409 0.235634312 -0.2342465222 0.9415642619
-0.1256159842 -0.08270993829 1.078257203 0.2166668624 -0.01010109298 0.973451674
-0.1468002349 -0.08772721887 1.092214227 0.2646846771 -0.2102249414 0.9317749739
-0.1406221539 -0.08669175953 1.089146852 0.2464377284 -0.1559414566 0.9450279474
-0.130010277 -0.08384407312 1.081541538 0.2254184037 -0.05281495675 0.9650857449
-0.1679489464 -0.1203106418 1.086943388 0.2009111494 -0.06727252156 0.9730594754
-0.1429771781 -0.1321072578 1.096600413 -0.1181279421 0.2004498094 0.9448401928
-0.1465681344 -0.1257573813 1.093040824 -0.05451288074 0.09349607676 0.9613746405
-0.1500972509 -0.1212504134 1.090203047 0.00229074806 0.01420389861 0.9743378758
-0.1528081894 -0.1281129569 1.091956139 0.01188256778 0.1070700288 0.964722693
-0.156177476 -0.1240617409 1.089342594 0.06528394669 0.03511685878 0.9766218066
-0.1606744677 -0.1616280675 1.087000012 -0.1488720924 0.381831497 0.9102448821
-0.1544554234 -0.1507691592 1.087000012 -0.1800193042 0.3272571564 0.9244890213
-0.1610751152 -0.1563723534 1.087000012 -0.1366673112 0.3250020742 0.932138145
-0.1480572671 -0.1433324367 1.087126017 -0.2179924846 0.307834655 0.9252281189
-0.1501748115 -0.1479292661 1.087630033 -0.2070607543 0.3310434818 0.9184951186
-0.04298934713 -0.08591994643 1.106601596 -0.4780701995 0.01635880023 0.8741866946
-0.04549397528 -0.07505062968 1.102135301 -0.4545501471 0.01569894515 0.8901877999
-0.04400471598 -0.07981077582 1.104115129 -0.4666139781 0.02130503394 0.8825363517
-0.04678874463 -0.09847468883 1.104220271 -0.5166443586 0.09366032481 0.8502195477
-0.05011499301 -0.08988201618 1.102268219 -0.4823408723 0.03595529869 0.8689122796
-0.04584754258 -0.09356001019 1.105167508 -0.4988089204 0.05486699566 0.860609293
-0.04965968058 -0.07887773216 1.103190184 -0.4413692057 -0.04754269868 0.8923509717
-0.04061070457 -0.09187439084 1.109058499 -0.4957760274 0.03155938536 0.8636512756
-0.04749462381 -0.08425102383 1.104472518 -0.4628737271 -0.01163086668 0.8806527257
-0.08140143007 -0.1100021228 1.078886986 -0.2986128628 0.06505183131 0.9418010712
-0.0772786662 -0.110522829 1.082041383 -0.3377793431 0.08644168824 0.9228508472
-0.07139330357 -0.1106229499 1.08648181 -0.4069028497 0.1042945683 0.8917719722
-0.09169577807 -0.1106181964 1.080507636 -0.1502650231 0.06539238989 0.9498226643
-0.08485241979 -0.1068533137 1.085000038 -0.3105789125 0.009343080223 0.8911337256
-0.1003169566 -0.1119152978 1.082692266 -0.009098901413 0.08233775944 0.9572734833
-0.1042912006 -0.1117121577 1.08552289 0.04184322059 0.07767346501 0.9452520013
-0.09589202702 -0.1093317121 1.085936666 -0.1153906658 0.04377246648 0.9164462686
-0.1100398749 -0.1117902696 1.08858192 0.122752957 0.07643297315 0.9365536571
-0.08488091081 -0.101162836 1.076191783 -0.2739163637 -0.1033520401 0.9533531666
-0.08494061232 -0.1067537963 1.075603247 -0.2548457384 -0.04717781022 0.9615370035
-0.08997427672 -0.1044054106 1.074219704 -0.1288960725 -0.0722026825 0.9800239801
-0.09310605377 -0.1100659147 1.073552847 -0.01679979265 0.02788526565 0.9897559881
-0.08856355399 -0.1111743301 1.075568199 -0.1558433026 0.07197080553 0.9760908484
-0.09740369022 -0.1115206406 1.077415466 -0.004808784928 0.07272931188 0.9770849347
-0.1136364937 -0.1122535542 1.08289361 0.2254789174 0.08263608068 0.9682810307
-0.1086579859 -0.1120262071 1.08115828 0.1560962945 0.07937240601 0.971262455
-0.08704402298 -0.1041959152 1.081169844 -0.279848516 -0.03572335094 0.9226765037
-0.1063324362 -0.1053818017 1.083454609 0.07193436474 0.03859329224 0.9458224773
-0.1184943169 -0.1119909883 1.088783979 0.2734554708 0.09634595364 0.9537110329
-0.112418212 -0.1082049087 1.085800171 0.1744507104 0.06659283489 0.9503237009
-0.1000998616 -0.1050972193 1.082781792 -0.04207679629 0.01476299018 0.9382306337
-0.09304506332 -0.1038976982 1.081438065 -0.1680919379 -0.01384181809 0.9306409955
-0.08065821975 -0.2426419407 1.191516757 -0.2922012806 -0.3430549204 0.8927103281
-0.09445718676 -0.2414624244 1.193182468 -0.2922012806 -0.3430549204 0.8927103281
-0.08569848537 -0.2409056872 1.194290161 -0.2922012806 -0.3430549204 0.8927103281
-0.01622932032 -0.1660445184 1.213310361 0.2896668613 -0.1676968336 0.9423220754
-0.01327483635 -0.1660973281 1.20911777 0.2896668613 -0.1676968336 0.9423220754
-0.1528224051 -0.128791526 1.085646272 -0.01056381874 0.1157160997 0.9921908379
-0.1329338551 -0.09405629337 1.080966711 0.1782939881 -0.05197097734 0.9782448411
-0.1356777847 -0.1010481566 1.08308351 0.1959259957 -0.05904842913 0.975378871
-0.1302929372 -0.0899990201 1.079655886 0.1828977466 -0.03671902791 0.9785088897
-0.1404557675 -0.1017983034 1.083663583 0.134388268 -0.107459031 0.9810532331
-0.1416201442 -0.09651103616 1.084557295 0.1936475337 -0.1470381916 0.9648121595
-0.1764351279 -0.108923696 1.091163039 0.3155859113 -0.2554456592 0.9108616114
-0.1699484438 -0.1081052199 1.087000012 0.2846904397 -0.2703203559 0.9163346887
-0.1589910388 -0.1613914967 1.100980282 -0.2309413254 0.3532378078 0.8959664106
-0.1694054753 -0.150363341 1.097001553 -0.07006483525 0.1810646951 0.9615948796
-0.1673031598 -0.1550851762 1.097380638 -0.1590514034 0.2465239018 0.9407379031
-0.1534319073 -0.1602585465 1.101704955 -0.2615676224 0.4265836179 0.8636091948
-0.1627003998 -0.1563974172 1.099646926 -0.1533933878 0.2813433409 0.9218890071
-0.1632015705 -0.151562497 1.098069906 -0.1328914165 0.2754841745 0.9228740335
-0.1725502461 -0.1525835097 1.092714906 -0.1410516053 0.2014725357 0.9683315754
-0.1681775451 -0.1536630839 1.089359879 -0.117609337 0.2413118035 0.9618644118
-0.167683512 -0.1593964994 1.089254141 -0.129479602 0.30349648 0.9382632375
-0.1328548342 -0.1475360245 1.099964261 -0.2226800025 0.350332737 0.9088692665
-0.1328328401 -0.1430974454 1.096662045 -0.1933743656 0.3396343887 0.9179592729
-0.1350315213 -0.1524152607 1.0952214 -0.2410410941 0.3271206021 0.9128934145
-0.1573064923 -0.1714784354 1.091297388 -0.1937859207 0.3989681005 0.8896417618
-0.1789675653 -0.1089074016 1.097261071 0.3192715645 -0.2462619245 0.9140193462
-0.175947085 -0.1391650736 1.095726371 0.06405001879 0.04281579331 0.9837456346
-0.1806646287 -0.1156847477 1.099892497 0.2759438157 -0.1736170053 0.9340352416
-0.1800825298 -0.1217771992 1.09743607 0.2432563454 -0.1131690294 0.946562171
-0.1782724857 -0.1287423223 1.097204328 0.1634771824 -0.05256927758 0.9615928531
-0.06893207133 -0.2347819358 1.202815175 -0.2855286896 -0.3495289981 0.8922699094
-0.01822267845 -0.2021367699 1.205518603 0.2954868674 -0.1706596762 0.9383958578
-0.009748966433 -0.1901147664 1.213040829 0.3307316899 -0.1727247834 0.9277837276
-0.0110570984 -0.1876502782 1.206355333 0.3307316899 -0.1727247834 0.9277837276
-0.01221677754 -0.1924141943 1.209286928 0.3307316899 -0.1727247834 0.9277837276
-0.03922886774 -0.1003627405 1.108972549 -0.5289570093 0.09414253384 0.8428241611
-0.03792802244 -0.08783765137 1.105756283 -0.5050000548 0.06109909713 0.8606629968
-0.03671002761 -0.09543261677 1.10944581 -0.5183727741 0.06717316806 0.8523904085
-0.04042074084 -0.07686986774 1.101159811 -0.4815789163 0.04830178246 0.8748773932
-0.1008996218 -0.1046120077 1.073157668 0.1193486229 0.009834057651 0.9883779883
-0.1662549078 -0.112056911 1.087000012 0.2504495382 -0.2123539001 0.9415411949
-0.1606864482 -0.1150393113 1.08904624 0.131030634 -0.1094185188 0.9791901112
-0.1759785265 -0.1133389622 1.097297907 0.2654600143 -0.1712473333 0.9408447146
-0.171569705 -0.1169682667 1.093568087 0.2261491865 -0.1096685678 0.9571883678
-0.1661805809 -0.1170606613 1.090878248 0.1788639426 -0.09494353086 0.9698479176
-0.1621974558 -0.1212035716 1.087136745 0.1431962252 -0.02726753987 0.9860691428
-0.1609681398 -0.0947355926 1.094243765 0.2595606148 -0.336230427 0.9045276642
-0.1350629479 -0.08800870925 1.081411242 0.2151492685 -0.1160338521 0.9578485489
-0.1401306689 -0.0906194225 1.08323133 0.2159835249 -0.1715757251 0.9491602778
-0.1424858123 -0.09189798683 1.088288784 0.2208177447 -0.1977388859 0.9493322372
-0.1517004371 -0.09408384562 1.090720654 0.2378982157 -0.2845410705 0.9277918935
-0.1487010717 -0.1005336866 1.085936785 0.1559326798 -0.2277185023 0.955598712
-0.1672756672 -0.1032135934 1.087000012 0.2885091007 -0.3093325496 0.9050704837
-0.1595379412 -0.1008146331 1.087000012 0.2530088723 -0.3032725751 0.9176471233
-0.05752503872 -0.1052699462 1.096304774 -0.5362969637 0.1305834502 0.8320422173
-0.09313842654 -0.09049224108 1.075623155 -0.1094987243 -0.1393102407 0.9788069725
-0.03986431658 -0.2235798389 1.209665537 0.07570143044 -0.3063210249 0.9437353015
-0.05345470831 -0.2220790684 1.206012487 -0.133358717 -0.3019477129 0.940680027
-0.08685290068 -0.2327452749 1.197073698 -0.2950149179 -0.3327652514 0.8954464793
-0.07781000435 -0.2275699675 1.201506853 -0.2978618145 -0.3223540485 0.8982149363
-0.08215480298 -0.2295438796 1.198183775 -0.2954544127 -0.3311580718 0.8958738446
-0.08146435022 -0.2317307144 1.202391744 -0.2989987135 -0.3181963563 0.8993205428
-0.07759479433 -0.2352456003 1.200707078 -0.293033421 -0.3400116861 0.8935195804
-0.088640064 -0.2380577922 1.196954489 -0.2944020331 -0.3350066543 0.8948504925
-0.07635752112 -0.2307465076 1.205002308 -0.2996041775 -0.315982163 0.8999093175
-0.1393788606 -0.1732330471 1.103585005 -0.350461781 0.3962877095 0.8478504419
-0.1346269101 -0.1693148613 1.101203203 -0.3776323795 0.3959806263 0.8369060755
-0.1388003975 -0.1682346165 1.10505569 -0.3210466504 0.3786942065 0.8657036424
-0.1349914223 -0.1610920131 1.102460027 -0.2954341471 0.3767966926 0.8747634292
-0.02072900161 -0.1968467385 1.206834555 0.3186919689 -0.1709010899 0.9320750237
-0.01512504835 -0.1921264827 1.204828024 0.3040220439 -0.1686789989 0.9373037815
-0.01277950499 -0.1829249859 1.205540776 0.3202645481 -0.1711392999 0.9315145016
-0.01560308039 -0.1967827976 1.204533219 0.2973033786 -0.1676612943 0.9396984577
-0.008701039478 -0.1770196706 1.20600009 0.3307316899 -0.1727247834 0.9277837276
-0.0106859412 -0.1726970971 1.20600009 0.3218272328 -0.1716345251 0.9309362173
-0.1579768807 -0.128968358 1.086173296 0.04857282341 0.1016173586 0.9924933314
-0.1641478986 -0.1275724024 1.086853981 0.1407901943 0.05053359643 0.9869729877
-0.1750957072 -0.1477602422 1.092206955 -0.06150613353 0.1544999182 0.9697841406
-0.1700781137 -0.1480977684 1.0879246 -0.01809579134 0.1942804158 0.9626941681
-0.1399688125 -0.1161341369 1.085402012 0.04372204468 0.04338462651 0.993154943
-0.1407172084 -0.1211216748 1.084714055 -0.01186715905 0.1204674169 0.9888725877
-0.1412779391 -0.1092268005 1.100159287 0.07659986615 -0.03237458318 0.9356806874
-0.1317352951 -0.1260014474 1.097670794 -0.02857843228 0.19234097 0.9350563288
-0.1314281672 -0.1204740033 1.096791267 0.0484310165 0.131790325 0.9383835196
-0.1390589029 -0.1225499287 1.10082221 -0.07270850986 0.1251454949 0.9303371906
-0.1328802854 -0.1064353138 1.095656395 0.216631338 -0.030725291 0.9448153973
-0.1270640194 -0.1098179668 1.093238115 0.2431779653 0.02980701439 0.9482092261
-0.122401759 -0.1171182394 1.091904283 0.2036543638 0.129594028 0.9483981729
-0.131824702 -0.1114428639 1.095796466 0.1632317007 0.029345477 0.94300735
-0.1380906105 -0.1169129834 1.09960258 0.01386476588 0.06595667452 0.9343227744
-0.1284525245 -0.1170367002 1.094873071 0.1304891109 0.105024226 0.9429709911
-0.1380643994 -0.1053011492 1.098059654 0.1680480242 -0.06366615742 0.9407526851
-0.1375064403 -0.1119058877 1.08510685 0.1195690036 0.01774493046 0.9857173562
-0.1429021955 -0.1108222008 1.085259795 0.07506807894 -0.07348878682 0.9890216589
-0.1444371343 -0.1050844267 1.084796429 0.09772527963 -0.1371773034 0.9842218757
-0.1567557752 -0.1723472327 1.098902702 -0.23388955 0.4090602994 0.8790148497
-0.1478772312 -0.1726756841 1.101994395 -0.2992592156 0.4305776358 0.8492921591
-0.1539805979 -0.1734063923 1.104670644 -0.2727978826 0.4063800275 0.8717939258
-0.1474760473 -0.1762163341 1.110218167 -0.3063225746 0.3805594146 0.8719053268
-0.1662368029 -0.1645436138 1.088324785 -0.1328565478 0.3617089391 0.9184246659
-0.1368128955 -0.143721059 1.101000071 -0.2331952304 0.3387327492 0.9098516703
-0.1449426413 -0.1681746095 1.107633948 -0.2821893096 0.3818201125 0.8789806962
-0.1393071413 -0.1622708887 1.105512619 -0.2641322613 0.3695212007 0.8900437951
-0.1467172205 -0.1606853604 1.103097677 -0.2685590982 0.4202557504 0.8655905128
-0.1394191235 -0.1577208638 1.102956414 -0.2548470497 0.3870218694 0.8848779202
-0.1504925191 -0.1693214923 1.106830359 -0.2838125229 0.3965523541 0.8722973466
-0.1421868354 -0.1260503829 1.085051656 -0.09560779482 0.1716727912 0.9780187011
-0.1388458908 -0.1485979408 1.092617989 -0.235748291 0.3237138689 0.9157297611
-0.1351959705 -0.1335633099 1.090636969 -0.1498313099 0.3028011322 0.9399619699
-0.140300408 -0.1394304186 1.090529084 -0.1887825578 0.3036549687 0.9335157871
-0.1346107423 -0.1409422159 1.092342138 -0.1842962801 0.3112583756 0.9297673702
-0.1377434731 -0.129393518 1.087824941 -0.1268413216 0.2533603311 0.95693326
-0.1425688565 -0.1318995953 1.086490512 -0.1574341059 0.2418177277 0.9563040137
-0.1495033503 -0.1376336515 1.086742878 -0.1432941407 0.2355464399 0.9532190561
-0.1366132796 -0.166081354 1.097120166 -0.319152385 0.3961335421 0.8600590825
-0.1472587436 -0.1679445058 1.09329915 -0.2469621748 0.3946640491 0.8792663813
-0.1517444253 -0.1705308408 1.092857718 -0.2301493287 0.3970641196 0.8808527589
-0.1442277133 -0.1717950851 1.0972296 -0.30060938 0.4024260938 0.8579711318
-0.1392317861 -0.170506835 1.098754287 -0.3313621283 0.4024219811 0.8504522443
-0.1329313219 -0.1559232473 1.100504875 -0.2684127986 0.374387145 0.8853081465
-0.1632054597 -0.1701859683 1.087508082 -0.138013348 0.393807888 0.9077361226
-0.1771592796 -0.1041742563 1.099961877 0.3067803979 -0.272156477 0.9095907807
-0.1761381626 -0.1053776518 1.094851136 0.3207881153 -0.2825767994 0.9027974606
-0.1718894988 -0.0955368802 1.101000071 0.2907192111 -0.3294738233 0.8967967629
-0.1659635901 -0.09405960143 1.097433567 0.2827818394 -0.3455264866 0.8947831392
-0.1720777005 -0.1021665782 1.090836883 0.3041444123 -0.3288189769 0.8937636018
-0.170180127 -0.09786424786 1.095829844 0.2895164788 -0.3489417434 0.8911893964
-0.1717249304 -0.1037701517 1.101000071 0.2900280952 -0.2448149025 0.9233685732
-0.1572749168 -0.09286287427 1.101000071 0.2545391321 -0.2871225178 0.9215993881
-0.1626496166 -0.09285630286 1.101000071 0.2681296468 -0.3128222823 0.9094575644
-0.1598581374 -0.09841521829 1.101000071 0.2605373859 -0.2428247929 0.9332631826
-0.1673227102 -0.0993713364 1.101000071 0.2793196738 -0.2686749101 0.9194406271
-0.1595811397 -0.1025248021 1.09791553 0.2250556648 -0.2087912709 0.9458910823
-0.1684480309 -0.1110335961 1.095279336 0.2172710747 -0.1721710116 0.9518916011
-0.1551578343 -0.1023640409 1.096102715 0.1936792135 -0.1947376281 0.9548068643
-0.1670348644 -0.1055752262 1.09884131 0.2539302111 -0.2104747295 0.9389725327
-0.1577430964 -0.1065820977 1.094003677 0.1764107347 -0.1703114361 0.9616222978
-0.1729840338 -0.1083832607 1.099294305 0.2737529278 -0.2088634968 0.9345392585
-0.1514486372 -0.09686014056 1.098694801 0.2137243003 -0.2254463583 0.9466263056
-0.1596429646 -0.110703975 1.091678262 0.1548958272 -0.1442717165 0.9696113467
-0.04919777438 -0.06851953268 1.100833297 -0.41851601 -0.08200036734 0.9045000076
-0.09206560999 -0.07353330404 1.077914715 -0.1819411665 -0.2135146558 0.9579675794
-0.09526636451 -0.07764241099 1.076999903 -0.1518348604 -0.1995354295 0.9673517346
-0.125612095 -0.08678363264 1.082910061 0.2166208625 0.0457111001 0.9714651704
-0.132671997 -0.09220596403 1.090114832 0.2629700303 -0.07432124764 0.9512627721
-0.1283394247 -0.09013400227 1.086155295 0.2482032329 -0.008606645279 0.9604014158
-0.107616663 -0.08371083438 1.07679379 0.09075657278 -0.0759530738 0.9922229052
-0.07930101454 -0.2393746227 1.196292758 -0.2922012806 -0.3430549204 0.8927103281
-0.07732880861 -0.2335130572 1.193137884 -0.2922012806 -0.3430549204 0.8927103281
-0.07155275345 -0.2408865094 1.195479512 -0.2922012806 -0.3430549204 0.8927103281
-0.06676089019 -0.2382320017 1.195154905 -0.2922012806 -0.3430549204 0.8927103281
-0.06257950515 -0.2378735244 1.200423956 -0.2659812868 -0.3429929018 0.900198698
-0.06076835096 -0.2347043008 1.204822183 -0.2498892844 -0.3505226672 0.9020587206
-0.05227829143 -0.2273901701 1.206730962 -0.1230120659 -0.323454082 0.9304480553
-0.05545566231 -0.231281653 1.205894828 -0.1907748878 -0.3337239921 0.9206224084
-0.04785559326 -0.2297745645 1.207940221 -0.06797721982 -0.3314034939 0.9257650971
-0.05169332027 -0.2329563498 1.208512664 -0.116724737 -0.3796207309 0.9077062607
-0.04432161525 -0.2280057669 1.211441875 0.03605889902 -0.3854649663 0.9187147617
-0.05416988581 -0.1090039238 1.095264077 -0.5457609892 0.1987403333 0.8135483265
-0.05123433098 -0.1046684757 1.096976519 -0.5427138209 0.1679291576 0.8216822743
-0.04821490124 -0.09487071633 1.096402407 -0.5383853316 0.1170445904 0.8340007663
-0.05253826082 -0.09665969759 1.094446063 -0.5139342546 0.1118739545 0.8487147689
-0.04310709611 -0.08472884446 1.095897317 -0.5112193823 0.05537577718 0.8574223518
-0.0391052179 -0.08755527437 1.100384474 -0.5081163049 0.05359237641 0.8595013618
-0.04105784744 -0.09705872834 1.104020238 -0.5312217474 0.0928574875 0.8419397473
-0.04386622459 -0.09274159372 1.099529982 -0.5294449925 0.08902371675 0.8432986736
-0.1153509393 -0.09540528059 1.076999903 0.2308295369 0.0391141735 0.9717330337
-0.1116035655 -0.1006349027 1.076999903 0.2401145846 0.04943902791 0.9692030549
-0.1206678972 -0.09632938355 1.078394055 0.2264333665 0.02436628006 0.9727680683
-0.1302059591 -0.09900244325 1.081676245 0.2296601683 -0.01892038807 0.972446382
-0.1254456043 -0.09499505162 1.07960546 0.2254673243 0.002330271294 0.9733826518
-0.121900402 -0.09035113454 1.07779479 0.220741719 0.01793697849 0.9745613933
-0.1272190362 -0.1050516963 1.081762791 0.2353018224 -0.004454571288 0.9705489278
-0.1214622259 -0.1019224301 1.079536438 0.2318898886 0.0214712061 0.971183002
-0.1104642227 -0.1085801795 1.076741934 0.2256986946 0.06591988355 0.9716380835
-0.1007832661 -0.1117990687 1.073443294 0.1060070768 0.05106409267 0.9919502735
-0.1047353595 -0.1117733642 1.077957511 0.141305998 0.0692403689 0.9826928377
-0.1634300649 -0.09979940206 1.090618968 0.2755526006 -0.3437397778 0.897054255
-0.1560878456 -0.09468431771 1.092232347 0.2202758193 -0.3243112564 0.9196243286
-0.1557159722 -0.1073586121 1.086392164 0.1472493857 -0.2527230978 0.9510606527
-0.1554844081 -0.1143809557 1.086306095 0.092987746 -0.1111111119 0.9869371653
-0.1598162651 -0.1106379181 1.086641788 0.1828654408 -0.2020872384 0.9511927962
-0.1546480805 -0.1023060679 1.086620927 0.1840233058 -0.3000037372 0.9352802634
-0.1638800055 -0.1075055525 1.086954355 0.2646700442 -0.2806261778 0.9196448326
-0.0774134621 -0.1044553742 1.07848227 -0.4182855487 -0.03537839279 0.9066362977
-0.07789990306 -0.09431065619 1.07924521 -0.3699221909 -0.1054929718 0.9189912677
-0.1204345971 -0.1067757159 1.087941408 0.2883942425 0.07165565342 0.9538372755
-0.04824793339 -0.2182720602 1.205993414 -0.07891090214 -0.2714104652 0.9504787922
-0.04278291017 -0.2198019326 1.207514882 0.004433297087 -0.277402699 0.9499964714
-0.04099580273 -0.2157509327 1.205632567 -0.01746525057 -0.2364671528 0.959214747
-0.03176039457 -0.2182112485 1.209842086 0.1286370903 -0.241239503 0.9596931934
-0.03384613618 -0.21056135 1.215041995 0.14498429 -0.2265292257 0.9612149596
-0.03453305736 -0.2029443383 1.219147801 0.1609633714 -0.20185408 0.9653339386
-0.0356916599 -0.2208424658 1.211069822 0.1238015071 -0.2829942405 0.9496833682
-0.03541890532 -0.2162958831 1.21313405 0.1332445741 -0.2625626028 0.953612566
-0.02874808945 -0.2141314298 1.210413814 0.1368316114 -0.1982011348 0.9695712924
-0.03703003749 -0.2120508254 1.20747304 0.04740671813 -0.2036279291 0.9673966765
-0.04485316202 -0.2122475505 1.208136559 -0.01851212792 -0.2215379775 0.9624951482
-0.03232626244 -0.2093858868 1.208715677 0.1110563055 -0.1763084084 0.9743304849
-0.02735754848 -0.205379948 1.208546758 0.1848426163 -0.1833171099 0.9637892842
-0.02540809102 -0.2122621983 1.206073999 0.1404010504 -0.1820150763 0.9731113315
-0.04141136631 -0.2085187882 1.216566563 0.1000333726 -0.2363191694 0.9608613849
-0.03685048968 -0.1989702433 1.222229004 0.1657537222 -0.2041132152 0.963681519
-0.04368446395 -0.2205080092 1.212568045 0.05392933264 -0.3253293931 0.9405608177
-0.04200645536 -0.2155101448 1.214802027 0.08086177707 -0.2967520356 0.9460154772
-0.04939875007 -0.2116356045 1.211529136 -0.014252441 -0.2026945502 0.9756768942
-0.04345982894 -0.2077976614 1.212218046 0.06219134852 -0.1732948124 0.9796261191
-0.0471787639 -0.232009396 1.21251905 0.001019619289 -0.4456143975 0.8947054744
-0.05076505244 -0.2205955833 1.211442232 -0.0340687111 -0.3065755367 0.9452263713
-0.0943089202 -0.238045156 1.18900001 -0.2922012806 -0.3430549204 0.8927103281
-0.09246302396 -0.2336986661 1.190860868 -0.2922012806 -0.3430549204 0.8927103281
-0.08797352016 -0.2314753979 1.191928744 -0.2922012806 -0.3430549204 0.8927103281
-0.08226960897 -0.2310739011 1.19319725 -0.2922012806 -0.3430549204 0.8927103281
-0.08550736308 -0.2431013286 1.18900001 -0.2922012806 -0.3430549204 0.8927103281
-0.07486347109 -0.2420347482 1.18900001 -0.2922012806 -0.3430549204 0.8927103281
-0.1604687423 -0.1366999149 1.086957455 0.02332735434 0.1697887033 0.9781084657
-0.1545632184 -0.1370920986 1.094584227 -0.007105228025 0.1849624813 0.9593259096
-0.1659060568 -0.1367897391 1.090730548 0.1227925941 0.1126323938 0.9795415998
-0.1453945339 -0.1362684816 1.097324133 -0.1071950942 0.2342709005 0.943731904
-0.1490211338 -0.131750077 1.094539523 -0.04533733055 0.1732315421 0.9532870054
-0.1595332623 -0.1316467971 1.09103024 0.07423371077 0.1077158898 0.9718984365
-0.1733688563 -0.1376982033 1.091615796 0.1692301631 0.0760237053 0.9802212119
-0.1661807895 -0.1470123827 1.095641375 -0.04380775988 0.2061988711 0.9482365847
-0.1542108953 -0.1557325274 1.09996736 -0.2249344885 0.4083856344 0.8691959977
-0.1569444686 -0.1518779397 1.097902298 -0.1479693353 0.3467353284 0.891915977
-0.1690855622 -0.1429487318 1.093465686 0.03735951334 0.1409561038 0.9722984433
-0.1751400381 -0.1307447553 1.093404889 0.2221187651 0.00630061049 0.9654470682
-0.1747088283 -0.1254471242 1.095001101 0.227413699 -0.0439196676 0.9566762447
-0.1691253185 -0.1324968338 1.087000012 0.1670337468 0.07959742099 0.9796661139
-0.1750866175 -0.1201411113 1.095616102 0.2450379729 -0.09409955144 0.9506484866
-0.1680056602 -0.1243180633 1.089586258 0.1872716844 -0.009364113212 0.9757746458
-0.1319290251 -0.1080312878 1.083460331 0.2091618925 -0.0001834738068 0.9744266868
-0.1195331141 -0.1099534109 1.079656482 0.2302399129 0.0303194318 0.9710600376
-0.1311030984 -0.1153366864 1.084019423 0.1037073359 0.1042731181 0.9857106209
-0.13523224 -0.1183396056 1.085398316 0.03022622317 0.1402965188 0.9837800264
-0.1301385164 -0.1210643202 1.083628654 -0.007220195141 0.1722215265 0.9729064107
-0.1222462505 -0.118287608 1.081532717 0.07876998931 0.1428491771 0.968898952
-0.1173535064 -0.116057694 1.079869151 0.139250353 0.1158252135 0.9684910178
-0.1215563864 -0.1175984591 1.086512446 0.1333309561 0.1549640447 0.9582576156
-0.1552623063 -0.1753025949 1.10981369 -0.2481375933 0.4141276181 0.8743004203
-0.1547833234 -0.1659420729 1.103272319 -0.2563992441 0.4133033454 0.8728531599
-0.1594598889 -0.1736424565 1.103672266 -0.1611426771 0.4228071272 0.8895395398
-0.1600226164 -0.1680655926 1.101053238 -0.1767758429 0.3985885978 0.8943631649
-0.1671874076 -0.1640398055 1.095466852 -0.1357083023 0.3219232559 0.9293276072
-0.1621202976 -0.1718480736 1.098881006 -0.126420185 0.4137219191 0.9003821015
-0.1651684791 -0.1682403088 1.093632936 -0.1308568567 0.3674609363 0.9161713719
-0.1606064737 -0.1421310902 1.087000012 -0.02401014045 0.2178854346 0.9714381695
-0.166413933 -0.1425290108 1.087000012 0.04639497772 0.1759715527 0.9754101634
-0.1740694493 -0.1347812414 1.087000012 0.1863775253 0.07492153347 0.9709029198
-0.1726054847 -0.1411138624 1.087000012 0.09665775299 0.1336333901 0.9657195807
-0.1655545682 -0.1491567492 1.087000012 -0.03922016919 0.227987051 0.9662870765
-0.1435540766 -0.1515793353 1.09324646 -0.2692586184 0.337375015 0.9016569853
-0.1397121698 -0.1557877809 1.093780279 -0.2833947539 0.3655800819 0.8853365779
-0.1426565647 -0.15376845 1.101000071 -0.2516808212 0.40530774 0.8769536018
-0.149829179 -0.1631957591 1.092019677 -0.2266169637 0.3841125369 0.8902674317
-0.1489800513 -0.1571113914 1.093018413 -0.2438163161 0.3473365903 0.9027155042
-0.1587341875 -0.1662266254 1.088853002 -0.1653061658 0.4005196989 0.8981276155
-0.1452827305 -0.1608010978 1.093738198 -0.2595790029 0.370588094 0.8881838322
-0.155777961 -0.1628060192 1.090194583 -0.1903896034 0.3804032803 0.9010165334
-0.1415545493 -0.1455542147 1.101000071 -0.2410666645 0.3612861037 0.8972421885
-0.150067091 -0.1516039371 1.100064754 -0.2212636173 0.3859695494 0.8811198473
-0.1529036462 -0.1442210227 1.097097993 -0.1058402061 0.2802046835 0.9220306277
-0.1373094767 -0.138394922 1.100662947 -0.2155046016 0.3057285547 0.9236651659
-0.1499265283 -0.1399541944 1.096912265 -0.09110271186 0.2472939491 0.9377397299
-0.1620422602 -0.142537728 1.093608975 0.01607254148 0.2041912824 0.9459533691
-0.1485161334 -0.146708712 1.099234223 -0.1833648682 0.3368159831 0.9023473859
-0.1599797159 -0.1477388144 1.095720291 -0.06596378237 0.2790927589 0.9170223475
-0.1441674083 -0.1470059305 1.090711355 -0.2485997677 0.3396932781 0.9068021774
-0.1542738527 -0.1577954441 1.089294434 -0.1919281781 0.3709622324 0.9056385159
-0.154925555 -0.1456617415 1.087000012 -0.1570305228 0.2799440026 0.9447998405
-0.1593901068 -0.1473084986 1.087000012 -0.1102055088 0.2682949901 0.9563708305
-0.154143855 -0.1366489381 1.086753011 -0.05807159469 0.186822921 0.9751585722
-0.06910545379 -0.07466904819 1.087863088 -0.3909758329 -0.1855933666 0.9010907412
-0.05916411802 -0.09191150963 1.089918256 -0.4772505164 0.009341553785 0.8765885234
-0.05486878753 -0.08570560813 1.091344595 -0.4411261082 -0.01446567848 0.8970273137
-0.09829101712 -0.08367771655 1.076999903 -0.07152592391 -0.1335073411 0.9872968793
-0.09579849243 -0.07535633445 1.081345439 -0.1341528744 -0.1872420162 0.9653531909
-0.0933951512 -0.08110716939 1.081300259 -0.1531463563 -0.1681187749 0.960322082
-0.06264789402 -0.2254599631 1.210412621 -0.2093098611 -0.3460794985 0.9075652957
-0.05772284791 -0.2283862233 1.210957289 -0.1620911807 -0.3629226685 0.9082999229
-0.069090873 -0.2277300954 1.20916307 -0.2929429114 -0.3100331128 0.9036026597
-0.06260650605 -0.2311212271 1.208511114 -0.2478402257 -0.327262044 0.9092250466
-0.1054644063 -0.09817112982 1.075034738 0.1647677124 -0.0219782088 0.9840430021
-0.1068792939 -0.1036408246 1.074605465 0.2044892609 0.04192483798 0.9775061011
-0.0909730792 -0.09905089438 1.074867964 -0.121401377 -0.09412747622 0.979344964
-0.09435848147 -0.1027880833 1.073313475 -0.01751476154 -0.05219221488 0.9956642985
-0.1098865941 -0.09462057799 1.076642394 0.2151005268 -0.001187354326 0.9743347168
-0.110772714 -0.08723897487 1.07652092 0.1443570703 -0.04576957226 0.9882829189
-0.1027221009 -0.09307345003 1.081674933 -0.00104246405 -0.09018202871 0.9602499604
-0.1170165539 -0.1048451588 1.0841012 0.2698484361 0.0767217204 0.9598021507
-0.1113482043 -0.09667945653 1.082867146 0.1618504524 -0.005308142398 0.9614601135
-0.1035971344 -0.09175119549 1.075915456 0.09345189482 -0.07785339653 0.9911684394
-0.09924142063 -0.09463902563 1.074908495 0.04000635445 -0.08811110258 0.9922808409
-0.09806302935 -0.0889730081 1.075957537 -0.02498972975 -0.1148534492 0.9907895327
-0.104378812 -0.08543951809 1.080532074 0.04131279513 -0.07668498904 0.9807263017
-0.1078341007 -0.08884315193 1.081490874 0.1012347117 -0.04966336489 0.9727916718
-0.07142795622 -0.103341125 1.085324764 -0.497823596 -0.01528464071 0.8659392595
-0.06689429283 -0.09542349726 1.085436344 -0.4843927622 -0.03354715183 0.8736780286
-0.05896992981 -0.1103227735 1.094348788 -0.5383686423 0.1549776644 0.8270936012
-0.06314070523 -0.1096210778 1.089883566 -0.5057413578 0.1224657819 0.8461291194
-0.0670735389 -0.105126664 1.088405013 -0.5214691162 0.03070138022 0.8517003059
-0.08187110722 -0.1025326625 1.080136895 -0.3729567826 -0.06377088279 0.9172645211
-0.1027157456 -0.1006512493 1.082407951 0.004392333329 -0.01193765644 0.9429047108
-0.08773577213 -0.0963877514 1.080622196 -0.2732230425 -0.1021044701 0.9252795577
-0.0769938454 -0.1013367325 1.082488298 -0.4514092803 -0.05771398172 0.8867211938
-0.08162406832 -0.09736427665 1.080185294 -0.3826020062 -0.1108267605 0.9158405066
-0.09782633185 -0.09731940925 1.081651926 -0.0877404362 -0.06130349636 0.9411548376
-0.0932546109 -0.08659569174 1.080198169 -0.1794472486 -0.1865770519 0.9573370814
-0.111867927 -0.1022237167 1.083381057 0.1733465344 0.0321889855 0.9566022158
-0.09295809269 -0.0963749215 1.081126332 -0.1777046472 -0.08586383611 0.9340426326
-0.09771899879 -0.09171800315 1.081095695 -0.09382113069 -0.1198302209 0.9539676905
-0.08895864338 -0.09068546444 1.080214858 -0.2552213967 -0.157095328 0.9396190047
-0.0874915868 -0.07713554054 1.077673078 -0.2401952296 -0.2045357227 0.9466112852
-0.08660563827 -0.0819805786 1.077943563 -0.2536402345 -0.1890445054 0.9458715916
-0.08580321074 -0.0873478204 1.077974081 -0.2639420629 -0.169914335 0.9468002915
-0.1148441508 -0.1071669832 1.078122377 0.2334987819 0.05060520768 0.9702361226
-0.1228043735 -0.1025986299 1.087381363 0.2952226698 0.0436886102 0.9521068931
-0.1317269206 -0.09998053312 1.092864752 0.2694243491 -0.06024316698 0.94749403
-0.1356874555 -0.1009896323 1.096302509 0.253711313 -0.1020260528 0.9452550411
-0.1274564415 -0.1008702591 1.090072393 0.282485038 -0.01122762635 0.9497338533
-0.1371769011 -0.09539458156 1.094833136 0.2595290542 -0.129710108 0.9449396729
-0.1417016685 -0.09484057128 1.097971559 0.2449277192 -0.1808654368 0.9425322413
-0.1271088272 -0.09531010687 1.087240934 0.294603914 -0.01852327213 0.9504126906
-0.07572440058 -0.07623285055 1.087211013 -0.3885928392 -0.1918388009 0.9009927511
-0.08212526143 -0.09171781689 1.080751538 -0.3647537827 -0.1487963498 0.9186023474
-0.07814438641 -0.08669339865 1.083547592 -0.3937843442 -0.1536731422 0.9049812555
-0.08063079417 -0.07599854469 1.085248947 -0.3349161148 -0.2022744268 0.9182357192
-0.08570092916 -0.07199525088 1.079510093 -0.2508073747 -0.2217641324 0.9397965074
-0.08493356407 -0.07527786493 1.083411098 -0.2803124189 -0.2122591287 0.9359101057
-0.07720268518 -0.07983087003 1.081823587 -0.3490820527 -0.1808770895 0.9165717959
-0.0775417611 -0.07059969753 1.084377766 -0.3274718523 -0.2215779275 0.9158008695
-0.08253051341 -0.07857810706 1.079235435 -0.2945486009 -0.1904151887 0.9318552017
-0.05396836624 -0.0756187737 1.093124986 -0.4208069146 -0.08085928112 0.9005060792
-0.05306169391 -0.07010392845 1.094301462 -0.4117420018 -0.1139849201 0.9016866088
-0.04906028137 -0.07369048893 1.095142961 -0.4244336188 -0.06257683039 0.9026044011
-0.05914048851 -0.07051503658 1.092110276 -0.4035192132 -0.1506185383 0.8993916512
-0.06435951591 -0.06908955425 1.090505958 -0.3931033313 -0.1946552396 0.8976947069
-0.0479725711 -0.09000892937 1.095237017 -0.5202051401 0.08068379015 0.8484508991
-0.04763758183 -0.08363824338 1.094344258 -0.4911409318 0.03438265994 0.8692590594
-0.05185478553 -0.09685281664 1.100615859 -0.5058867931 0.08482890576 0.8541505933
-0.05410189927 -0.09203260392 1.099188089 -0.4808422625 0.02732669935 0.8644236326
-0.05339275673 -0.08675367385 1.100019097 -0.4647331238 0.001352814026 0.8757629991
-0.05358237401 -0.07607724518 1.100473285 -0.4263551831 -0.07013117522 0.8986509442
-0.05737869814 -0.08244749904 1.097249269 -0.4352953434 -0.07310929894 0.8848851323
-0.05906669423 -0.07368534058 1.09744978 -0.4081965983 -0.1213531345 0.9029789567
-0.06363669783 -0.0731510222 1.094951272 -0.4041212797 -0.1445697546 0.9013214707
-0.06917877495 -0.07093320042 1.091547728 -0.4021881819 -0.1771026999 0.8973958492
-0.05413883924 -0.0703118369 1.100377083 -0.4175694883 -0.08821201324 0.9039869308
-0.06282550842 -0.08570174128 1.087339282 -0.4272488952 -0.07441097498 0.9000216126
-0.06736669689 -0.08921918273 1.085221529 -0.4467998147 -0.08091046661 0.88869977
-0.07341900468 -0.08422006667 1.082692862 -0.3874548674 -0.1531859189 0.9088870883
-0.05837063119 -0.0799395889 1.090883851 -0.4224072397 -0.07909327745 0.8983537555
-0.06313346326 -0.07558047026 1.089657187 -0.4068118036 -0.1424130946 0.898388803
-0.0671685189 -0.0839362666 1.085857987 -0.4139480591 -0.1175005063 0.9022402763
-0.1164480448 -0.08745788038 1.076999903 0.2107957453 0.003137999214 0.9764254093
-0.1166207343 -0.09276010096 1.082679868 0.253698349 0.02241867594 0.9666470289
-0.120008491 -0.08797731251 1.081800699 0.2356489599 0.02393445559 0.970205307
-0.1099843755 -0.08065284044 1.080299973 0.09756927937 -0.07758285105 0.9809188843
-0.1147319824 -0.07924231142 1.078303218 0.1131899431 -0.0462105535 0.9849560857
-0.1187032908 -0.08285983652 1.080468178 0.1530832797 0.007276127115 0.9787300825
-0.1046609655 -0.07684263587 1.080031037 0.001979491441 -0.1402663887 0.9863604903
-0.06403076649 -0.2210430801 1.20444572 -0.1935942769 -0.3239298165 0.9239702225
-0.06870246679 -0.223971054 1.204737782 -0.2483345717 -0.3194924891 0.9116575122
-0.0739492029 -0.2300915569 1.196781039 -0.2912930846 -0.3426496089 0.8930674195
-0.05865045637 -0.2213389575 1.203183174 -0.1854633689 -0.2954213917 0.9346759319
-0.06006664038 -0.2275397629 1.200702906 -0.2194567472 -0.3105914891 0.9213109016
-0.063009426 -0.2310441881 1.198833823 -0.2479867339 -0.3233234584 0.9100939631
-0.06662833691 -0.2266932875 1.199567914 -0.24419716 -0.3216322958 0.9115838408
-0.05754145607 -0.2172906101 1.207542896 -0.1272607744 -0.2878651023 0.9464820027
-0.05776205659 -0.2219490856 1.210242748 -0.1312879473 -0.3172382712 0.9318292141
-0.05395496637 -0.2165366113 1.211108923 -0.07571984828 -0.2516514063 0.960097909
-0.06712856889 -0.08730434626 1.08973825 -0.4495124221 -0.08091185242 0.881918788
-0.07348739356 -0.09497339278 1.083736181 -0.4459381998 -0.09080668539 0.8891229033
-0.06490185112 -0.09324008226 1.089505434 -0.4760067165 -0.03004806302 0.8741768599
-0.07335335016 -0.08892668039 1.085456371 -0.4287824035 -0.1229534969 0.8925337791
-0.06194287911 -0.0981483832 1.090318203 -0.5016857982 0.02506806515 0.8633067012
-0.06329458952 -0.07940641046 1.09269011 -0.4062095881 -0.1571958065 0.8926053643
-0.05820991844 -0.09607870877 1.094470739 -0.495239228 0.03061774187 0.8628983498
-0.06067202613 -0.08717875183 1.093778133 -0.4478963315 -0.06791067868 0.8784105778
-0.06782703847 -0.08170250058 1.090387225 -0.4228889942 -0.1316233873 0.8894466162
-0.0551446192 -0.1004855484 1.097582817 -0.5195611715 0.09097011387 0.8489339948
-0.06098356098 -0.1028425395 1.092795134 -0.5265333652 0.07046717405 0.8466287851
-0.02308759093 -0.1836594939 1.216676831 0.2675119638 -0.1758181453 0.9454421997
-0.01928750612 -0.187357381 1.216493368 0.280349642 -0.1774882674 0.9408543706
-0.01281131618 -0.186563015 1.21466732 0.3153711259 -0.1735839695 0.9320273399
-0.02363486215 -0.1899953783 1.218167901 0.2529420853 -0.1821113229 0.9470788836
-0.02925856784 -0.1918962598 1.22001183 0.2202875614 -0.1866537482 0.9549161196
-0.01825592294 -0.1707600206 1.211704493 0.2896668613 -0.1676968336 0.9423220754
-0.01411070302 -0.1811392009 1.214918852 0.3147258461 -0.1707650423 0.9334503412
-0.01812102832 -0.1760959178 1.215579152 0.300677985 -0.1690450311 0.9384237528
-0.01345196832 -0.1737600416 1.214434505 0.3134218752 -0.1706053764 0.9339119792
-0.02960748225 -0.1951116174 1.209605098 0.2543847263 -0.1735820621 0.949516058
-0.03087271564 -0.2017025203 1.210155368 0.189393878 -0.1699863672 0.9644103646
-0.02322817221 -0.2019176036 1.207107782 0.2459308058 -0.195946455 0.9488986135
-0.02489913628 -0.1946354359 1.208383441 0.3140253425 -0.1705877632 0.9337059259
-0.02564050443 -0.1892551929 1.208834648 0.3070834279 -0.169829309 0.9361560345
-0.02127344348 -0.1869183034 1.207868934 0.3188089132 -0.1712649614 0.9320048094
-0.01865177229 -0.1819645166 1.207344055 0.3197059333 -0.1713747978 0.9316872358
-0.01586585306 -0.1761039943 1.206704617 0.3151799142 -0.1708206385 0.9332895875
-0.02642101981 -0.18211779 1.212648392 0.2896668613 -0.1676968336 0.9423220754
-0.02929581515 -0.1848258525 1.218027353 0.2428919673 -0.1787565649 0.9515631199
-0.03242530301 -0.1917952895 1.214683533 0.2496142089 -0.1771671176 0.9502350688
-0.0298653692 -0.187313959 1.2130059 0.2739140093 -0.1714215279 0.9454342723
-0.03456625715 -0.1946557015 1.219297528 0.2076101601 -0.1870988011 0.9585335255
-0.02315772325 -0.1735661775 1.215866327 0.288585484 -0.1679525226 0.9425356984
-0.02398158051 -0.1807290614 1.208614588 0.2896668613 -0.1676968336 0.9423220754
-0.02114420757 -0.176154241 1.211047053 0.2896668613 -0.1676968336 0.9423220754
-0.03958638385 -0.2011659294 1.217419028 0.1366325766 -0.1790894121 0.97172755
-0.03601869568 -0.2042239457 1.21186316 0.1333964169 -0.1563428193 0.9774019122
-0.03721038625 -0.1991803199 1.211614728 0.1759018898 -0.1649333388 0.9646497369
