# .PCD v0.7 - Point Cloud Data file format
VERSION 0.7
FIELDS x y z normal_x normal_y normal_z
SIZE 4 4 4 4 4 4
TYPE F F F F F F
COUNT 1 1 1 1 1 1
WIDTH 512
HEIGHT 1
VIEWPOINT 0 0 0 1 0 0 0
POINTS 512
DATA ascii
-0.0317292437 -0.1241548136 1.079760075 0.1541695744 0.1724159718 0.972454071
-0.02200592123 -0.1159550026 1.079816341 0.2528747618 0.1460386515 0.951033771
-0.01826689206 -0.1065460145 1.076794267 0.3470062017 0.1245074496 0.9279821515
-0.1240079999 -0.04800651595 0.9721735716 -0.3885447383 0.02393842302 0.9180266857
-0.1245838627 -0.03145763278 0.9699252248 -0.356343329 -0.1438954771 0.9095954299
-0.1143724471 -0.0138829127 0.9840863347 -0.4042317271 -0.2818880677 0.8613717556
-0.1188445613 -0.005612260662 0.9813905358 -0.3491860628 -0.3571981788 0.8642838001
-0.1229724959 -0.009499520063 0.9834521413 -0.2950484455 -0.3652662039 0.8726100922
-0.1208948866 -0.01375718135 0.9859873652 -0.3011008799 -0.3370722532 0.8684257865
-0.1312849075 -0.007340946235 0.9840711951 -0.1477072537 -0.4464061856 0.872893095
-0.1162206307 -0.01926236227 0.9887439013 -0.3484357297 -0.2823115885 0.8635189533
-0.1213005781 -0.01573288441 0.9733788967 -0.3421649039 -0.2986628115 0.8867146373
-0.117463097 -0.01006755605 0.9788836837 -0.3583302498 -0.3446876705 0.8638000488
-0.1117976382 -0.01977773011 0.9839913845 -0.4413130283 -0.2311556935 0.8594100475
-0.04513533413 -0.1522050947 1.087223291 0.04876580462 0.1260544956 0.9907798767
-0.1689505279 -0.09823524207 1.064143658 0.7268255949 0.611517489 -0.1965513825
-0.1746739596 -0.09848034382 1.062686086 0.4284820259 0.7896232605 -0.2540197074
-0.1769205928 -0.09344146401 1.0596205 0.6225271821 0.7355802059 -0.1916899681
-0.2195744514 -0.08365412802 0.9989612103 0.07484040409 0.229078114 0.9692105055
-0.2142996639 -0.08102983981 1.002491832 0.0565550141 0.229954496 0.9709777236
-0.2114193588 -0.07621652633 1.001239896 0.06666453928 0.2175927907 0.9736416936
-0.1582286358 -0.1212021038 1.041193485 0.4653355777 0.4815032184 0.1589192152
-0.1580354422 -0.1189424023 1.045960069 0.5644053221 0.5118355751 0.02335881628
-0.1617784202 -0.1330694407 1.023700476 0.1022203416 0.3600941002 0.6816677451
-0.1614550054 -0.1366322935 1.014317513 -0.09291633219 0.3028837442 0.9422673583
-0.1596536785 -0.1250413805 1.036356926 0.3650118113 0.4463595748 0.3073947132
-0.1598055363 -0.1279781163 1.029867172 0.2301084995 0.4054564834 0.4909742475
-0.1585336924 -0.1314018965 1.017992616 -0.01699186675 0.3361166716 0.8131148219
-0.1594981998 -0.1167752445 1.052793622 0.724116087 0.5160043836 -0.1529183835
-0.1574203223 -0.122519888 1.030794501 0.234491393 0.4181241393 0.4347625375
-0.03308546543 -0.1183822751 1.078457832 0.1769162863 0.1696288586 0.9690948725
-0.1210253015 -0.0451984331 0.9760810733 -0.4301477969 -0.006982766092 0.89894557
-0.133354947 -0.01990605704 0.9850607514 -0.1156057119 -0.3798949122 0.854067564
-0.1233101934 -0.0237082988 0.9831451774 -0.3246044219 -0.2605641186 0.8523055315
-0.125400424 -0.02852999605 0.9840995073 -0.2649032176 -0.2484082282 0.8578037024
-0.1174890399 -0.03493010998 0.982927978 -0.4196781814 -0.1319809556 0.8595292568
-0.1193888783 -0.02855540626 0.982730329 -0.3964824378 -0.1918194443 0.8546920419
-0.1301451474 -0.02748537064 0.978405714 -0.2884770036 -0.1825518459 0.8791945577
-0.1686697155 -0.04105955735 0.9669892192 0.1562904418 -0.1584780812 0.9737319946
-0.1661279798 -0.05591864511 0.9653755426 0.1522770971 -0.1040325612 0.9817584157
-0.1738631874 -0.03746544942 0.9696871042 0.2414999455 -0.1665592939 0.954359293
-0.1712849289 -0.03398531675 0.9764124751 0.2644773126 -0.216467008 0.9051586986
-0.1758916378 -0.0451049991 0.9736137986 0.312145561 -0.09132831544 0.9432975054
-0.1668914109 -0.02934509143 0.9746092558 0.1749583781 -0.2868132889 0.9347612262
-0.1758743227 -0.03978595138 0.9775810838 0.35094437 -0.1351511776 0.8847833276
-0.1807023734 -0.04207919911 0.9777193069 0.4170942605 -0.09773620218 0.8729467392
-0.1794706136 -0.03515598178 0.9747153521 0.3434630632 -0.1922863275 0.9070475101
-0.1420488507 -0.06077297777 0.9650124907 -0.06171551719 -0.1206958815 0.9885014892
-0.1461116672 -0.05203684047 0.9665695429 -0.02331034094 -0.05899138749 0.9963094592
-0.148545295 -0.05707421899 0.9660217166 -0.007390276529 -0.109033145 0.9919942617
-0.1527834386 -0.04564435035 0.9668576717 0.04334654659 -0.1012289226 0.9910442233
-0.153240785 -0.05256255344 0.9666641951 0.03306220099 -0.09967933595 0.9921538234
-0.1603116542 -0.05244647712 0.9659212232 0.09657587111 -0.124247998 0.9869097471
-0.1985995173 -0.1433529258 1.019529581 0.1091018543 0.3182509243 0.9393351674
-0.1926377565 -0.1485828757 1.017745614 0.07858926803 0.2968723476 0.9501950145
-0.2068067491 -0.1358501762 1.021270394 0.1512676328 0.3494917452 0.924099803
-0.1948162764 -0.1353021115 1.015213966 0.1164242849 0.3246231079 0.9374839664
-0.2007362396 -0.1364677399 1.01855576 0.1316146404 0.3351268172 0.9315725565
-0.1902381778 -0.1421280056 1.015664816 0.08730164915 0.3011803031 0.9480696321
-0.1667339951 -0.1420951486 1.015127063 -0.07065156102 0.2933374047 0.9531931281
-0.03340893984 -0.08844626695 1.082579017 0.5532479882 0.07418280095 0.8273906708
-0.02440082654 -0.08638229221 1.071835756 0.6036108136 0.135342598 0.7805227637
-0.04135182127 -0.1425347179 1.090000033 0.06598973274 0.1245489195 0.9899172783
-0.04877191782 -0.1457815021 1.090000033 0.05839660764 0.1252126545 0.9902974963
-0.03965399042 -0.1192896292 1.079620957 0.1631364971 0.1621173173 0.972302556
-0.03992119804 -0.1250031292 1.082497835 0.1330022961 0.1566010565 0.9772647619
-0.03858685121 -0.1343367696 1.085091829 0.09257113189 0.141018644 0.9850328565
-0.03365211561 -0.1294796318 1.082930446 0.1245879531 0.1685292721 0.9772685766
-0.03607486933 -0.1251027286 1.087179065 0.1457313895 0.1409580261 0.9756556749
-0.03189628571 -0.1205983758 1.086209536 0.1951867193 0.1319234818 0.9665480852
-0.02933251485 -0.1261755675 1.085130453 0.1728805304 0.1211694628 0.9717303514
-0.0398973152 -0.147686094 1.087800026 0.054437574 0.125558719 0.990495801
-0.03229076788 -0.1387141794 1.086722374 0.09532527626 0.1424139589 0.9846177697
-0.02964502946 -0.1339676976 1.082453489 0.1150354668 0.1655685008 0.9789515138
-0.02654784545 -0.08059279621 1.079788327 0.6629170179 0.1514642537 0.7302113771
-0.02426345646 -0.07640973479 1.074783444 0.6929657459 0.1789173335 0.6980915666
-0.02339475229 -0.08093573153 1.070612431 0.653567791 0.151935339 0.7397874594
-0.02661396377 -0.06668079644 1.0698452 0.6880657077 0.1594889313 0.7079045773
-0.1744505167 -0.1112310439 1.066654086 0.0542643331 0.9105065465 -0.4068344235
-0.1794234216 -0.1032275781 1.063382506 -0.2033113241 0.9092742801 -0.1975361258
-0.1711789817 -0.1097278297 1.061053872 0.269133389 0.7175601721 -0.2453674227
-0.1655630469 -0.1073582247 1.068459153 0.5108662844 0.6534039974 -0.2914357781
-0.1607046723 -0.1089871451 1.058497667 0.743760407 0.6080750823 -0.2537612617
-0.165739134 -0.1038097143 1.063973308 0.765296638 0.5883997083 -0.2295554429
-0.129872635 -0.01406757627 0.9760842919 -0.1680312157 -0.4151212573 0.8835260272
-0.1242401451 -0.01097402442 0.9770231843 -0.2770453691 -0.3831187487 0.8745108247
-0.2125861049 -0.07330089808 0.9954062104 0.121543847 0.2512215972 0.9584607482
-0.2153839469 -0.08326174319 0.9944025278 0.1091530398 0.2052564025 0.970490098
-0.208592549 -0.07821848989 0.9917057157 0.1874360442 0.2775172889 0.9286985993
-0.2225726694 -0.09366428852 1.001795053 0.04308536276 0.2483740151 0.9666188359
-0.1984164715 -0.07931300998 0.9998220205 0.0522136502 0.2379010618 0.9685925245
-0.1903873235 -0.08784769475 1.000803471 0.01714974642 0.2310468107 0.971890986
-0.1803067774 -0.09507305175 1.007749081 0.004687260371 0.331394881 0.8224840164
-0.1818247288 -0.09038127214 1.054431319 0.5012665391 0.7985090017 -0.1314925253
-0.1821029335 -0.09138594568 1.04561317 0.3932244182 0.7171860933 0.05092580244
-0.1825613528 -0.0940868631 1.014042854 0.10162808 0.3787086308 0.7027865648
-0.2131956518 -0.09329658747 1.003861427 0.03899123147 0.2779167295 0.9581490755
-0.2063575834 -0.09244396538 1.001833797 0.04937179387 0.2896313071 0.953327477
-0.2069831938 -0.08201013505 1.001627326 0.05893281475 0.2457944453 0.9657997489
-0.2147566676 -0.08817525953 1.004126072 0.04193694144 0.2536156476 0.9653340578
-0.2172719389 -0.09754449874 1.005209684 0.02906395681 0.2861474454 0.9567431211
-0.2095187604 -0.09946256131 1.00301826 0.03794922307 0.3111658394 0.9479745626
-0.200137943 -0.1030889601 1.001578808 0.02979779989 0.323705703 0.9440116882
-0.1970420778 -0.08469459414 1.001065612 0.03622128069 0.2344241291 0.9699730873
-0.1903058141 -0.09383757412 1.001137376 0.01079692878 0.2529646456 0.9656729102
-0.2015452534 -0.08857698739 1.001259208 0.04520809278 0.2652882934 0.9604907632
-0.1982301176 -0.09539260715 1.001350522 0.03083992749 0.2844371498 0.9555109739
-0.2043158859 -0.09899443388 1.001572371 0.04430334643 0.3190283179 0.9447300434
-0.05898583308 -0.1492369622 1.089150429 0.04552897811 0.1263374388 0.9909419417
-0.05918748677 -0.1622060388 1.085977554 0.04552897811 0.1263374388 0.9909419417
-0.06523178518 -0.1590716988 1.086788297 0.04552897811 0.1263374388 0.9909419417
-0.07089974731 -0.1632602811 1.086473227 0.04552897811 0.1263374388 0.9909419417
-0.0636010319 -0.1541969031 1.089029074 0.04552897811 0.1263374388 0.9909419417
-0.02485539764 -0.101555191 1.085505366 0.4295862913 0.1039936319 0.8795033097
-0.02157679386 -0.1045812219 1.082027435 0.396605134 0.1081882864 0.9041204453
-0.02219718881 -0.09242495894 1.079755902 0.5270099044 0.1143040955 0.8387185931
-0.02623252943 -0.09355293959 1.084406257 0.5140797496 0.110741131 0.8393329978
-0.03912570328 -0.1034242287 1.089248896 0.3556807041 0.1364475489 0.8866744637
-0.04349238798 -0.1178748086 1.089307189 0.1668660939 0.1588677913 0.9638047814
-0.03613120317 -0.09210384637 1.089991689 0.5077188015 0.1236287579 0.8208949566
-0.03375599161 -0.08444672823 1.089655399 0.6081125736 0.1097007766 0.7811980844
-0.03990834206 -0.1083203033 1.085441113 0.2973742187 0.1182342842 0.9268800616
-0.03462922946 -0.09443121403 1.080798268 0.481020987 0.06625566632 0.8717579842
-0.03655070066 -0.0973521769 1.085160613 0.4410309494 0.09962463379 0.8692083955
-0.04207194597 -0.1125282049 1.089202523 0.2407843322 0.1495873034 0.9337442517
-0.02934020199 -0.09899815172 1.082966685 0.4259604216 0.1018693447 0.8872241378
-0.02587180957 -0.1141082793 1.084029913 0.2679535747 0.1121176407 0.9537540078
-0.03042236157 -0.1090857089 1.082226634 0.2833151519 0.0983594656 0.9523105025
-0.03509300202 -0.1115733385 1.08403039 0.2430232614 0.1150117293 0.958958745
-0.1371018738 -0.01436594687 0.9867878556 -0.02562756464 -0.4627069533 0.8521321416
-0.1080029458 -0.02678149939 0.9905530214 -0.4725346267 -0.1797192395 0.8559014797
-0.1266106218 -0.01698235981 0.9881659746 -0.1820600182 -0.3738690615 0.8578945398
-0.1135248169 -0.02355791628 0.9905527234 -0.3740622997 -0.2451350093 0.8574765921
-0.1281437874 -0.01221193559 0.9863461256 -0.1752810776 -0.4048078656 0.8668823838
-0.1220453233 -0.02056041919 0.989493072 -0.2439995855 -0.3238672614 0.8548793197
-0.1415851414 -0.01068906952 0.9862065911 0.04406207055 -0.5143076181 0.854588449
-0.121022366 -0.03570098802 0.9725179076 -0.4230519831 -0.07929620892 0.8890720606
-0.1177120209 -0.04006286711 0.9750465751 -0.4872337878 -0.0151139535 0.8695940971
-0.161839962 -0.04600209743 0.9659763575 0.1135423183 -0.1278059781 0.9849405885
-0.1629976034 -0.03901650757 0.9665846825 0.1071897 -0.147702083 0.9831085801
-0.1435493827 -0.02194012329 0.9816581607 0.04757261276 -0.3753911257 0.8978180289
-0.1462068111 -0.02600022033 0.9789742827 0.05578649044 -0.3063674271 0.9228669405
-0.1448879689 -0.04171668738 0.9724098444 0.009302048013 -0.09129858762 0.9880514145
-0.1449491382 -0.03607715666 0.9749011397 0.02320266329 -0.17032215 0.9635329843
-0.1517316103 -0.03105132096 0.9749040008 0.08097060025 -0.2105321139 0.9601052403
-0.1522672921 -0.02338626795 0.9770179987 0.07263950258 -0.3902528286 0.9107249379
-0.1538075507 -0.0368062146 0.9720978141 0.07819249481 -0.1319311112 0.9873900414
-0.1538112313 -0.0430656448 0.9722030759 0.04344355315 -0.1203341112 0.9912270308
-0.1336749345 -0.04525136948 0.9677069187 -0.1735798866 -0.03544861823 0.9773440957
-0.1286424547 -0.04339410737 0.969325006 -0.298322171 -0.04603341594 0.9434198737
-0.1284710914 -0.03750988469 0.9686530828 -0.2969132662 -0.1053897962 0.937966764
-0.1347955912 -0.03453330696 0.9664818048 -0.1462692171 -0.127134949 0.9740723372
-0.1302635521 -0.02804828249 0.9669068456 -0.2446750998 -0.2008415908 0.942106545
-0.01864322461 -0.0694020763 1.06592381 0.6966121197 0.18968153 0.6919193864
-0.01833596639 -0.07601945102 1.066140652 0.6944217682 0.1874858886 0.6945914626
-0.01760583185 -0.08960518241 1.071171522 0.5752289891 0.1387357414 0.7985339165
-0.01800488494 -0.08246872574 1.067914605 0.6706247926 0.1718235314 0.7209575772
-0.01813013107 -0.09387516975 1.075217009 0.5200923085 0.1235857159 0.8422828317
-0.02503712848 -0.08708775043 1.080849171 0.6000877023 0.1283488572 0.785849452
-0.03676731884 -0.1016513631 1.080837846 0.3757179976 0.1017370373 0.904209435
-0.03959132358 -0.110814698 1.080016017 0.2410774529 0.1470670253 0.9467571974
-0.0417704843 -0.1157561615 1.084229589 0.181597665 0.1639141738 0.961150229
-0.04529932141 -0.1381562501 1.090000033 0.05842142925 0.1251877099 0.990298152
-0.04122319445 -0.1273310781 1.089080334 0.1104350463 0.1538152844 0.9815289378
-0.03325357288 -0.07293581218 1.08434999 0.6775533557 0.1513607949 0.7182170749
-0.03123137541 -0.08484697342 1.077157855 0.6281748414 0.1048564389 0.7706434131
-0.03176821768 -0.07582812011 1.077151179 0.6766629219 0.1508092284 0.7185993195
-0.03285876662 -0.08178155869 1.08188498 0.6098258495 0.09993346035 0.7812860608
-0.02600888163 -0.05835354701 1.067234635 0.6880657077 0.1594889313 0.7079045773
-0.01954510808 -0.0597734265 1.06366539 0.6901099086 0.1667106897 0.7040810585
-0.02747426182 -0.05305604637 1.068118334 0.6880657077 0.1594889313 0.7079045773
-0.02334248461 -0.05504719168 1.063531399 0.6880657077 0.1594889313 0.7079045773
-0.1598754078 -0.1058868766 1.069580078 0.8103164434 0.4802822769 -0.222861886
-0.1644883454 -0.1117767543 1.063814163 0.8279904723 0.4776730239 -0.2490266263
-0.1591085792 -0.1093406379 1.063784599 0.8180758953 0.5151362419 -0.2423479259
-0.1598260254 -0.01975218579 0.9763273001 0.1283583343 -0.4490188062 0.8818563819
-0.148409605 -0.01334215235 0.9831887484 0.08654350787 -0.5029456615 0.8589253426
-0.1529709399 -0.01583562978 0.9802658558 0.1033490226 -0.4892222285 0.864788115
-0.1568600833 -0.03084985726 0.9693886042 0.09755702317 -0.2450943738 0.9514483213
-0.1569003463 -0.02361763828 0.9721252918 0.09920676053 -0.3696250021 0.9110835195
-0.1519585252 -0.02635350637 0.9696234465 0.06159290299 -0.2951167524 0.9404314756
-0.1498033106 -0.0166419968 0.9760895371 0.06930150092 -0.4756971002 0.8763415217
-0.1423933655 -0.01221527066 0.9810466766 0.02593997121 -0.4854063094 0.8714720607
-0.1425910145 -0.01580297388 0.9757252932 0.005115803797 -0.4542962909 0.8860097528
-0.1355974227 -0.01560615189 0.9759730101 -0.0748103112 -0.4402356446 0.8900085688
-0.1365571916 -0.008305010386 0.982342422 -0.06745919585 -0.4744022489 0.8758432269
-0.1298134178 -0.03241975978 0.9748528004 -0.2937530279 -0.1042822674 0.9177920818
-0.1380883455 -0.01888731867 0.9825369716 -0.06318030506 -0.3769445121 0.8722372055
-0.1369059235 -0.02811642177 0.9761785269 -0.08570278436 -0.2290245742 0.9399574995
-0.132945627 -0.03800123185 0.9729569554 -0.2484430373 -0.04808098823 0.9433922768
-0.1385095865 -0.04111157358 0.9723268151 -0.1350563616 -0.04953437299 0.9667345285
-0.1378575116 -0.03423657268 0.9734722972 -0.0864482373 -0.1460350752 0.9677706957
-0.1988400668 -0.07435485721 0.9965232015 0.09752447158 0.2845810652 0.9508861899
-0.2052492648 -0.07399056852 1.000621319 0.06987001002 0.2210445851 0.9724257588
-0.1948965043 -0.08220487833 0.9910612702 0.187067464 0.3132173419 0.9065899849
-0.1969310343 -0.08765146136 0.9928239584 0.1048734486 0.2566185296 0.9393821359
-0.0537785776 -0.1479504257 1.08690536 0.04552897811 0.1263374388 0.9909419417
-0.05191005766 -0.153413713 1.087428331 0.04552897811 0.1263374388 0.9909419417
-0.05669325218 -0.156246841 1.087134719 0.04552897811 0.1263374388 0.9909419417
-0.03479430079 -0.1095174998 1.076999903 0.2659952641 0.1152282432 0.9524300694
-0.02607882395 -0.1207921356 1.079370141 0.188943103 0.1728247553 0.9631393552
-0.02187004499 -0.1108763441 1.076723933 0.291926533 0.1444527954 0.9391692877
-0.03032266535 -0.1134754866 1.077996492 0.2589316368 0.1103797778 0.9554529786
-0.02874878235 -0.09340184182 1.073375463 0.5130939484 0.1010129675 0.8419235349
-0.03216445819 -0.09676758945 1.075995445 0.4657862782 0.08257208019 0.8771094084
-0.02327741869 -0.09314861149 1.069634199 0.5197508931 0.1267910153 0.8168798089
-0.02500258014 -0.1021233574 1.073940039 0.3935169578 0.1070580035 0.8981767893
-0.01821185462 -0.09912031144 1.072567582 0.4312327504 0.1333733201 0.8795063496
-0.02775997296 -0.1069470868 1.076263428 0.3269450963 0.09058178961 0.9395997524
-0.1204147637 -0.02284805104 0.973045826 -0.401443243 -0.2079924196 0.882855773
-0.1266527921 -0.02422679774 0.9683569074 -0.312889576 -0.2296246439 0.917381525
-0.1202097684 -0.03010705113 0.9735074043 -0.4474128485 -0.1305490285 0.8717335463
-0.1126146764 -0.02733119018 0.9842057228 -0.4954611957 -0.160942927 0.8526405692
-0.1096928492 -0.03223628551 0.9870505333 -0.4943333566 -0.1249187663 0.8581053019
-0.1087476164 -0.03903075308 0.9861047864 -0.5269592404 -0.07116511464 0.8459022641
-0.1117959693 -0.03276588023 0.9821582437 -0.5288177133 -0.08627825975 0.8433430195
-0.1118081436 -0.03959053755 0.9813068509 -0.5056685209 -0.04669849947 0.8592510819
-0.1158573478 -0.035136953 0.9771049023 -0.5314032435 -0.05894560739 0.8446941376
-0.1138498411 -0.02188196592 0.9792200923 -0.4647663534 -0.1962238103 0.8587923646
-0.1155115142 -0.02793705463 0.977380991 -0.4981220365 -0.1301709712 0.8506202698
-0.2035767287 -0.1374707222 1.012968302 0.1821978986 0.3660665751 0.9062995911
-0.1997067332 -0.1426058412 1.014357924 0.1441676468 0.3426196277 0.921371758
-0.1957336217 -0.1200338304 1.01872468 0.03640256077 0.4805222154 0.7494279146
-0.1872159541 -0.1016660035 1.050894737 -0.3072167933 0.8112232089 0.1528298408
-0.1909236908 -0.1077615619 1.039282441 -0.1774371564 0.69513309 0.3656829894
-0.1978146881 -0.1247250661 1.010608554 0.1224777848 0.3967390656 0.9002095461
-0.1964223832 -0.1100906655 1.028802514 0.0760030672 0.613663137 0.5108736157
-0.1896716058 -0.10288129 1.04526937 -0.1365419626 0.7689874768 0.2198557258
-0.1982789636 -0.1116943881 1.023794055 0.2039897442 0.5721694231 0.5787492394
-0.1849289238 -0.09806740284 1.057155728 -0.3319080174 0.8772985339 0.02345705219
-0.1908123046 -0.1104111001 1.033923864 0.01271118689 0.6473721862 0.4228282571
-0.1935602427 -0.1165633127 1.025362611 -0.03554283455 0.5468870401 0.6270697117
-0.20518139 -0.1317166239 1.016732931 0.1612006873 0.3613160551 0.9180796146
-0.2039418668 -0.1224479601 1.011233926 0.1772522628 0.4085746706 0.894598186
-0.2030211091 -0.1275993586 1.013470054 0.158293739 0.3805327117 0.9103018641
-0.16356574 -0.0348242484 0.9737680554 0.1374601871 -0.2281433791 0.954028964
-0.168207407 -0.03965551406 0.9734846354 0.2027311623 -0.1661485434 0.9536237121
-0.1605104357 -0.04085400701 0.9729978442 0.1056262329 -0.1621352881 0.9721641541
-0.1605638862 -0.03018329106 0.9735963345 0.1224214435 -0.2442574203 0.9569007754
-0.1794918627 -0.03975502774 0.9719225168 0.3410547674 -0.1393990517 0.9210948348
-0.1765572876 -0.05115930364 0.969932735 0.3194795251 -0.08081392199 0.9363598228
-0.1714334935 -0.04970607162 0.9670397639 0.2242046297 -0.1189225242 0.9659019709
-0.1849910319 -0.03806019202 0.9747552872 0.4200423956 -0.1420405209 0.893756032
-0.1881311387 -0.04240803048 0.9773737192 0.5073524714 -0.05926385894 0.8526805043
-0.1923184991 -0.04507660493 0.9800022244 0.5566737056 -0.003075608285 0.8303921819
-0.1810624599 -0.05465688556 0.972369194 0.4207871258 -0.000644187443 0.8925440311
-0.1843158156 -0.04578496516 0.9747473001 0.455165863 -0.05190522969 0.8866562843
-0.1856237799 -0.05203763768 0.9750757217 0.5021936893 0.02506925911 0.8584032655
-0.1676259786 -0.06718200445 0.9653210044 0.2360764593 -0.03106819093 0.9672397375
-0.172734648 -0.06409025937 0.9668493271 0.3225482106 0.05039006472 0.9441620708
-0.1590654999 -0.05893481523 0.9658529758 0.08546842635 -0.1292153448 0.9866709709
-0.1635596454 -0.06361136585 0.9645140171 0.1470838934 -0.1182874441 0.9807959795
-0.1772035956 -0.06504052877 0.9701139331 0.4348724186 0.1008977294 0.8906327486
-0.1513819546 -0.06202489883 0.967031002 0.007631251123 -0.1305893958 0.990844965
-0.1465106308 -0.03179061413 0.9663872123 0.0172052253 -0.1701151878 0.9837611914
-0.148848772 -0.03750954568 0.9666956663 0.02555143833 -0.1156045124 0.990428865
-0.1460758895 -0.04375903681 0.9668470621 -0.01121643651 -0.06144589186 0.9958299398
-0.1432196349 -0.03695631027 0.9663872123 -0.02676096 -0.1057301611 0.9922978282
-0.1404067576 -0.04201609641 0.9665698409 -0.06914325804 -0.06431857497 0.9935602546
-0.1402135193 -0.05477364361 0.9653577805 -0.06740177423 -0.0788661018 0.9930255413
-0.1412969232 -0.04858401418 0.9667564631 -0.06442755461 -0.03411231562 0.9961398244
-0.1346102208 -0.05670926347 0.9666973948 -0.1754178256 -0.06117837876 0.9704657793
-0.1294431388 -0.05169695243 0.969854176 -0.2938252985 0.01725132763 0.9509105682
-0.1347900778 -0.05054333061 0.9676268697 -0.1547456831 -0.02451704815 0.9836146235
-0.1605538279 -0.1187313423 1.021493316 0.03736363724 0.3356193006 0.6686546206
-0.1576919556 -0.1232495904 1.022722125 0.05142118037 0.3642910421 0.6503430009
-0.1599915028 -0.1178226471 1.027761579 0.1710656434 0.3792900741 0.4990816116
-0.1616426557 -0.1191671267 1.013797045 -0.1250406355 0.2790872753 0.8747002482
-0.201915279 -0.1180758551 1.008419752 0.1385043114 0.4066999555 0.8990485072
-0.2046881318 -0.1122119203 1.004758596 0.1195272654 0.4002918005 0.9056634903
-0.1921674758 -0.1059908122 1.028951406 0.1866071671 0.6289904714 0.4312039614
-0.1943139434 -0.1104352251 1.017863631 0.1184369922 0.5081756711 0.663918376
-0.1971589923 -0.1146562323 1.009386182 0.08270272613 0.4160814881 0.8496817946
-0.1931454539 -0.1051571742 1.034545898 0.2490544617 0.6904218197 0.327204138
-0.2001251578 -0.1151429415 1.015124917 0.1734771281 0.4795472324 0.7557810545
-0.1875415146 -0.1005623564 1.038498282 0.2083779871 0.7314133644 0.2147802263
-0.1922974586 -0.1110744029 1.023444772 0.1504527628 0.5573715568 0.5647537708
-0.0460980162 -0.1233342066 1.089557052 0.1144144535 0.160888508 0.9800265431
-0.04914947972 -0.1281617433 1.088301897 0.08857745677 0.1433895379 0.9854504466
-0.0457158722 -0.1221538857 1.082127094 0.1327175349 0.1520705819 0.9778105021
-0.04668742418 -0.1280615777 1.082972407 0.103906028 0.1399136782 0.9820553064
-0.05488879234 -0.1381264627 1.088398457 0.06642446667 0.1371497065 0.9880724549
-0.05128742382 -0.1332550794 1.087149978 0.06734496355 0.1376260072 0.9879460335
-0.02207012475 -0.07146539539 1.070919991 0.6948276162 0.1833771765 0.6952571869
-0.02783579193 -0.07121253014 1.077620029 0.6913362741 0.1710431874 0.701787293
-0.03291871026 -0.06756386161 1.081804752 0.6882323027 0.1600774229 0.7075929642
-0.02160491422 -0.06362356246 1.067631602 0.6943681836 0.1817541569 0.6961164474
-0.0270987656 -0.06129687652 1.072120786 0.6902889013 0.1673429608 0.7037463188
-0.03023088537 -0.05706555769 1.074076891 0.6880657077 0.1594889313 0.7079045773
-0.03100982122 -0.06330259889 1.076322198 0.6880657077 0.1594889313 0.7079045773
-0.1724045128 -0.02776890807 0.9724298716 0.2486999333 -0.2331822067 0.9380377531
-0.1662112623 -0.02368765511 0.9739978909 0.1801751554 -0.3559450209 0.90787673
-0.1336534172 -0.02177353762 0.9705069661 -0.1374139637 -0.3326709867 0.9218698144
-0.1281428784 -0.01865347847 0.9726827145 -0.2151535004 -0.35076195 0.9041728377
-0.1428591311 -0.02319787256 0.9699721932 -0.004437507596 -0.3197944164 0.9365577698
-0.1408009678 -0.02776425891 0.9662333131 -0.04419147968 -0.2196111977 0.9718738198
-0.1931726933 -0.0757805109 0.9921664596 0.1767073125 0.3352929652 0.9109120369
-0.1929256618 -0.08041072637 0.9963317513 0.05584187061 0.2799569666 0.9566089511
-0.1884682775 -0.08384630084 0.9933488965 0.07995095849 0.2385715842 0.9488841295
-0.1910944432 -0.08963329345 0.9947761297 0.01124595106 0.2034697682 0.9716005325
-0.1677716374 -0.07246127725 0.9675995111 0.2114545852 -0.00544242328 0.9734870195
-0.177910924 -0.08043502271 0.9822666645 0.09477006644 0.09100663662 0.9791803956
-0.1803878099 -0.08614575118 0.9868975878 0.04456196725 0.1234644204 0.9786647558
-0.1719181687 -0.07913926989 0.9758373499 0.1341963261 0.05758618563 0.9729012251
-0.1796367913 -0.09103432298 0.9910560846 -0.006782586221 0.1740484089 0.9720515609
-0.1747211367 -0.08526951075 0.9834034443 0.06084007397 0.122642383 0.9702653885
-0.1735574305 -0.08979979903 0.9926452041 -0.0620305948 0.1922705919 0.9665195942
-0.1815235168 -0.08409938216 0.991784215 -0.009280831553 0.1394735724 0.9837786555
-0.1778792739 -0.09467507154 0.9967170954 -0.07178730518 0.2451767474 0.9633581638
-0.1738733202 -0.07716947049 0.9855448604 -0.0001973836625 0.06322153658 0.9867026806
-0.1759562492 -0.08154398948 0.9886608124 -0.01465182379 0.1094439477 0.9819960594
-0.1576384455 -0.06491295993 0.9736995101 0.007280368358 -0.07352352887 0.9890570045
-0.1633898616 -0.07347026467 0.9802971482 -0.01567031443 0.01806268841 0.9815968275
-0.169495225 -0.08207400888 0.9870272875 -0.03772076964 0.110370703 0.9744323492
-0.1659582853 -0.07782394439 0.9835466743 -0.02848273702 0.06440983713 0.9774287343
-0.1846770197 -0.08803442121 0.9949705005 -0.01821914688 0.1819432974 0.9808780551
-0.1645878106 -0.07368461043 0.9739356637 0.09398605675 0.01389045827 0.975050509
-0.1599446535 -0.0695085451 0.9753587842 0.01823699847 -0.02661883645 0.9824377298
-0.1696905643 -0.08274260908 0.9810500145 0.05991278589 0.110597752 0.9665915966
-0.1609196812 -0.06756468862 0.9695817232 0.1082019955 -0.05105609447 0.9811013937
-0.172212258 -0.0693661198 0.9691538215 0.305287689 0.04364015907 0.937792182
-0.1769977808 -0.07549459487 0.9778593779 0.1969557703 0.08644937724 0.9546649456
-0.1733282357 -0.07398847491 0.9736042619 0.2076559067 0.04986419901 0.9610583782
-0.1714576334 -0.0677960217 0.9793726802 0.1330704242 0.1097820848 0.9375448227
-0.1655440032 -0.0681508854 0.9778851271 0.04065011814 0.001032162923 0.9769147038
-0.1787997782 -0.07417845726 0.985213995 0.120269537 0.1721251011 0.9386048913
-0.1822154671 -0.0725183934 0.9800290465 0.2961788177 0.1569707692 0.9125906229
-0.1850541681 -0.08020986617 0.9882674217 0.139937669 0.178025797 0.9470850825
-0.1805855185 -0.06719554216 0.9746109247 0.4057203233 0.1517094225 0.886372447
-0.2070167512 -0.08465135843 0.9922183156 0.1581491828 0.2710261941 0.9342626333
-0.2142321169 -0.09105046093 0.9940057993 0.07458717376 0.2073570639 0.9733787179
-0.1991537511 -0.07759156078 0.9902861118 0.2496083826 0.3402955532 0.8916338086
-0.2078150213 -0.0911436528 0.9930378199 0.08869940788 0.2272446603 0.9587576389
-0.2023432255 -0.08953155577 0.9930409193 0.09808880836 0.228190735 0.9524669647
-0.2215947807 -0.08395994455 0.993875742 0.09733959287 0.2081474513 0.9731919169
-0.1654305309 -0.04542348161 0.9726037979 0.1703147292 -0.1099141911 0.9707946181
-0.1958863288 -0.06523969769 0.9917442799 0.2989603579 0.2916642427 0.8956331015
-0.1910128742 -0.06212091446 0.9864708781 0.4113275409 0.2258570343 0.8561609387
-0.1878467351 -0.06742415577 0.980189383 0.4443975389 0.2543874383 0.8422362804
-0.1956423074 -0.07185769826 0.988586843 0.3150475323 0.3683999777 0.8678461909
-0.2097215503 -0.07248290628 0.9907356501 0.2313256115 0.2548001111 0.9266973734
-0.2045950592 -0.06342836469 0.9901788831 0.33393538 0.2452613264 0.8946558833
-0.2067017257 -0.0682856366 0.9947502613 0.1760008335 0.2820576131 0.9361385107
-0.2191160619 -0.07658207417 0.9924629331 0.1389070004 0.2110987604 0.9628966451
-0.1789313555 -0.05015227199 0.9766681194 0.3988636136 -0.02478664182 0.8937615156
-0.1667286456 -0.05096242577 0.9712990522 0.16841425 -0.09898173064 0.9738305211
-0.182758823 -0.05710998178 0.9788420796 0.4273256958 0.08447377384 0.8779321313
-0.1650255919 -0.06298406422 0.9747523665 0.1225695238 0.01854377799 0.9518339038
-0.181589976 -0.06685585529 0.9818290472 0.279715389 0.2286483794 0.8915080428
-0.1765202582 -0.05883372575 0.9759228826 0.3133301437 0.05447525904 0.9212964177
-0.1715399772 -0.06234068051 0.9763504863 0.2102581412 0.06636562943 0.931697011
-0.1867946535 -0.06998427957 0.9850984812 0.3062430322 0.3253877461 0.8693862557
-0.1726461947 -0.05596968159 0.9731963873 0.2999833524 -0.02613584884 0.9386494756
-0.1625668705 -0.05597678199 0.9708880186 0.1355852336 -0.09592872113 0.9757672548
-0.1926817 -0.05410114303 0.9815121293 0.5436086059 0.1148759127 0.8286076784
-0.1878564954 -0.06038732454 0.9770081043 0.5357025862 0.1347535849 0.8328033686
-0.1963104457 -0.05730962753 0.9842629433 0.5103644729 0.1835386157 0.8384689093
-0.1871110797 -0.05305874348 0.9815074205 0.5483120084 0.05975839123 0.8300601244
-0.2004929185 -0.05909564719 0.987396121 0.4404569268 0.2226351202 0.861964345
-0.2004229426 -0.06660132855 0.9944033623 0.2199976295 0.3116229773 0.9177848101
-0.1572313458 -0.04805082828 0.9715446234 0.05598063022 -0.1234218776 0.9896286726
-0.1562538296 -0.05562811717 0.9703469872 0.03634899482 -0.1272177249 0.9898074269
-0.1495548338 -0.04974375293 0.9708380103 -0.01431660168 -0.09260310233 0.9943110943
-0.1845558435 -0.1397688985 1.012109518 0.0744927004 0.2940984666 0.9525089264
-0.1843844056 -0.150136888 1.016679168 0.04642767087 0.275426507 0.9596530199
-0.1639652848 -0.1294127554 1.00950861 -0.1400153637 0.2912295163 0.9458757043
-0.176505506 -0.09755399078 1.031446218 0.2300479561 0.5621072054 0.3560159802
-0.1792736202 -0.09447847307 1.025816798 0.1864702255 0.5128244758 0.4552872479
-0.1724003404 -0.1038551033 1.008305669 -0.05999581516 0.3371412456 0.8431652188
-0.1763817519 -0.09822675586 1.022011399 0.1228944585 0.4726250172 0.5467193723
-0.1771345735 -0.09761189669 1.01647079 0.06588234007 0.4212704897 0.654492557
-0.1801766753 -0.09266271442 1.03868258 0.3378496468 0.6359081864 0.1914846003
-0.1756695807 -0.09971473366 1.010851502 -0.007904046215 0.3659637868 0.7751811743
-0.1599991024 -0.1160320938 1.033567905 0.3035550714 0.4205554724 0.3333869874
-0.1643329859 -0.1153404713 1.009802222 -0.1425893009 0.2767445743 0.9178152084
-0.1633073241 -0.1137512624 1.020892024 0.09841429442 0.3576376736 0.613784492
-0.1672146469 -0.1097977757 1.009847999 -0.04656697065 0.3169976771 0.8258776069
-0.1606269181 -0.1112208515 1.051063418 0.6663335562 0.569663465 -0.1403577924
-0.1714758724 -0.1045908555 1.014931798 0.01006335579 0.3975563645 0.7132639885
-0.1604504883 -0.1123521551 1.042525172 0.5376758575 0.5033153892 0.04984814674
-0.1720613092 -0.1006942466 1.044535756 0.4563989937 0.6273527741 0.05367093533
-0.1633780599 -0.109026663 1.046474338 0.5697368383 0.5606719851 -0.02616824396
-0.167572096 -0.1039185524 1.055199146 0.662497282 0.6660820842 -0.2036649138
-0.1767822802 -0.09619733691 1.043184638 0.390242666 0.6613550782 0.1037227288
-0.1628433764 -0.1111818925 1.031951547 0.3531661332 0.4456224144 0.2963662446
-0.1660889983 -0.1084325314 1.027971387 0.2610975206 0.4458784461 0.3990157247
-0.1672708392 -0.1053664535 1.044933915 0.5086782575 0.5854794979 0.02463581786
-0.1699378937 -0.1053777933 1.021417618 0.1239182279 0.4322875142 0.5617551804
-0.1732798517 -0.1006260142 1.03444612 0.2906031907 0.5623220205 0.2844319344
-0.1672559828 -0.1085462868 1.016711712 0.07793372869 0.3714985251 0.6557285786
-0.1698229164 -0.1044138148 1.03102231 0.2716673911 0.5039850473 0.3464764059
-0.1721712798 -0.09986912459 1.050927401 0.5529232025 0.6768128872 -0.08880705386
-0.1785538048 -0.09367012233 1.050165415 0.4797383845 0.7308494449 -0.04494986683
-0.1659378856 -0.1075659841 1.037024498 0.4007736146 0.5130580664 0.1959207505
-0.1719719619 -0.1082636937 1.054531932 0.2248406112 0.6395453811 -0.05137949809
-0.1678169817 -0.1191326678 1.037779689 0.4074131846 0.4098156393 0.2507086098
-0.1751793623 -0.119799085 1.024953127 -0.0560936369 0.4243682325 0.6254339814
-0.1671865582 -0.1146486327 1.048322797 0.4782058299 0.4957764745 0.01644146256
-0.1783420295 -0.1085183769 1.044120908 -0.173931092 0.6584779024 0.2581368983
-0.1802519113 -0.1010551676 1.057084799 -0.240518719 0.812676549 0.00660309149
-0.1756279171 -0.1043830439 1.057147861 0.02426691726 0.7297357321 -0.057645116
-0.1661518365 -0.1127864346 1.053898573 0.5557740331 0.5285697579 -0.1169930249
-0.1802903861 -0.10421554 1.050282717 -0.2651213706 0.7505648732 0.1527373791
-0.1743066907 -0.1155314893 1.035409689 0.02827601135 0.5051547885 0.3897223175
-0.1732352227 -0.1132913977 1.04184866 0.1107888818 0.5452540517 0.2373114228
-0.180679813 -0.1033544913 1.042521 0.1195857003 0.7300025821 0.1848753095
-0.1785802543 -0.1148962826 1.029468417 -0.2032878399 0.5308030248 0.5645624995
-0.1793721914 -0.1112531051 1.034386516 -0.1541397572 0.5984930992 0.4448463321
-0.179810971 -0.105383873 1.03694284 0.1307575852 0.6670452952 0.289241612
-0.1753888577 -0.1143343896 1.007957697 -0.0897174105 0.3324201405 0.8919680715
-0.1783826351 -0.1052810103 1.02717185 0.06759766489 0.5699349642 0.4683556259
-0.1758096814 -0.1190657467 1.011478543 -0.08375370502 0.343801856 0.8636367917
-0.1768464744 -0.1198236868 1.01866436 -0.03974509612 0.4117880166 0.7371739745
-0.1769082695 -0.1139933765 1.018290281 -0.02131807432 0.437374264 0.6990897655
-0.1814943701 -0.09725459665 1.047331929 0.2273887545 0.8117359877 0.03524765
-0.1786600351 -0.1292733699 1.01016438 -0.05418566987 0.2956022024 0.948656559
-0.1910721362 -0.1292234808 1.013107896 0.03167187423 0.3300696611 0.932736516
-0.1729859114 -0.1374736279 1.013079643 -0.0433380641 0.2937130928 0.9520750046
-0.1785461158 -0.1372843087 1.011858106 0.02838115022 0.2983060479 0.9509670734
-0.1703556627 -0.122659713 1.026605487 0.2209109515 0.3534920812 0.5268719196
-0.1665940732 -0.1396318823 1.020246983 0.03838223219 0.3113367856 0.8176907301
-0.1729655713 -0.1250472814 1.017750859 0.03799119219 0.3198688924 0.7543383837
-0.1656649858 -0.1260780245 1.035298467 0.381164968 0.379699558 0.3517005742
-0.1667783409 -0.1317962259 1.02711904 0.2004136592 0.3444941044 0.5911679268
-0.1653923392 -0.1186417565 1.042955041 0.5573542118 0.4151147604 0.1101281941
-0.1701046228 -0.1270073652 1.023169756 0.138460964 0.3364073634 0.6437156796
-0.173201248 -0.1286142617 1.013812184 -0.05177741498 0.3019556105 0.8764492869
-0.1702376753 -0.1331929862 1.017038465 -0.003401123919 0.307775259 0.839089334
-0.2095728517 -0.1115806848 1.007153273 0.1301869452 0.3868248165 0.9075801969
-0.2082406133 -0.1162923574 1.01002574 0.1557054222 0.3931914568 0.9014386535
-0.2136405259 -0.1147768795 1.012037635 0.1091332659 0.3419736326 0.9274553061
-0.2102620006 -0.1204722524 1.013700843 0.1400442868 0.3657190502 0.9155150652
-0.2106793374 -0.1053416654 1.004309416 0.05731196329 0.3415788412 0.9346965551
-0.2130846828 -0.1266143918 1.012150049 0.2152649611 0.3908797503 0.8895364404
-0.2109970897 -0.129987672 1.018737674 0.1545663923 0.3531324565 0.919780612
-0.2131591141 -0.1240529343 1.017439842 0.1173311248 0.3309762776 0.9331882
-0.2207328826 -0.104865633 1.009266376 0.05260511488 0.2935702503 0.950791657
-0.2223905623 -0.100094445 1.006965876 0.03765249625 0.289267391 0.9531567097
-0.2146578133 -0.1195923388 1.008971214 0.1821325421 0.3912629187 0.8934804797
-0.1918445826 -0.1228953451 1.008921862 0.06483372301 0.3663348258 0.9212030172
-0.1845054924 -0.1252081841 1.009668469 -0.01891846769 0.3319265544 0.9338485003
-0.2009043694 -0.09824433178 0.9960243702 0.01014481112 0.2287255079 0.9717130661
-0.1955194324 -0.09680636227 0.9960238338 -0.02405753173 0.2251702845 0.9719733
-0.1750134975 -0.09982985258 0.999889493 -0.1025552079 0.2806788385 0.9541501403
-0.1625141203 -0.1232767105 1.008956552 -0.1645903289 0.2833471596 0.9445821643
-0.1940400749 -0.1029683724 1.001238704 -0.0001029076739 0.3203130662 0.9445542097
-0.2127983123 -0.1127318665 1.001309037 0.1614931375 0.3629406691 0.9093666077
-0.2111376822 -0.1181154996 1.004089117 0.1928230226 0.3997394741 0.8900793195
-0.2011162043 -0.1060685664 0.996835649 0.0291435048 0.2864132524 0.9558225274
-0.1948260069 -0.1082234904 0.9974851012 -0.002460594755 0.3014399409 0.9523058534
-0.1956708729 -0.1134592742 0.9998065829 0.04174543172 0.3375033438 0.9318151474
-0.2009986788 -0.1168094277 1.00249815 0.1112111881 0.3730736971 0.9101760983
-0.1895900965 -0.1115965173 0.9979456663 -0.02145221829 0.3149850368 0.9472720027
-0.2076570839 -0.1089808047 0.9984412193 0.09946061671 0.3067458868 0.9397541285
-0.2069887966 -0.1024167538 0.9965857863 0.05260971561 0.2745805979 0.9599214792
-0.2108312249 -0.0958257392 0.9942672849 0.04544856399 0.1964515448 0.9787492752
-0.1714503318 -0.1046263427 1.001841903 -0.1191674992 0.2867409289 0.9503563046
-0.1667537838 -0.1202075407 1.005747795 -0.1557437479 0.2735488713 0.9489347339
-0.1680810452 -0.1148807704 1.004648328 -0.1413415968 0.282158792 0.948684752
-0.1742693335 -0.1097892001 1.000041604 -0.1152937785 0.2949512899 0.9476104975
-0.1798152924 -0.1080638692 0.9981741309 -0.0820664987 0.3069166541 0.9472522736
-0.1733535677 -0.1202505603 1.004236817 -0.1189208999 0.2857163548 0.9489490986
-0.1831176579 -0.1144718006 0.9997813702 -0.06035819277 0.3087240458 0.9478234649
-0.2082015127 -0.1297764182 1.010402918 0.2243496329 0.4058390856 0.8840161562
-0.1993714571 -0.1314137131 1.007989407 0.1761144102 0.3665784299 0.910684526
-0.2060006708 -0.1260754764 1.006664515 0.2002219111 0.4129756093 0.8854349852
-0.1976775229 -0.1368808895 1.0102005 0.1520006955 0.3420930207 0.9232639074
-0.1930631548 -0.1414978355 1.010435581 0.1053867415 0.3106988966 0.9429660439
-0.1892333329 -0.1057749316 0.9979024529 -0.03790087998 0.3409643471 0.9391932487
-0.1858733147 -0.1010166183 0.9975236058 -0.04881128669 0.2849630713 0.9539248347
-0.2170937657 -0.1043355912 1.00323081 0.08257836848 0.3314459324 0.9373826385
-0.2138282359 -0.1043268368 0.9976869822 0.09921138734 0.2965053916 0.9480438232
-0.2200624645 -0.09424252063 0.995141089 0.04355503246 0.2211890221 0.973837316
-0.2160903364 -0.09933880717 0.9952903986 0.07313045859 0.2418894917 0.9668443799
-0.2197144628 -0.09826847911 1.000053406 0.05188906938 0.2689731419 0.9591282606
-0.1955099553 -0.1204729825 1.004206061 0.09963365644 0.3711896837 0.9163038135
-0.193813175 -0.1288945824 1.007000089 0.1370458305 0.3561736047 0.9235746264
-0.1830824018 -0.1473432332 1.010149837 0.008841771632 0.2852999568 0.9569693208
-0.1908275485 -0.1472283155 1.012897849 0.07337678969 0.2949893475 0.9523915052
-0.1693759263 -0.1327966899 1.007618189 -0.1140066534 0.2785202265 0.9516998529
-0.1696073711 -0.1266990751 1.006964445 -0.1342729628 0.2744356692 0.9511234164
-0.1750642955 -0.1382168829 1.006976366 -0.06989023834 0.2789741755 0.956340909
-0.1664331108 -0.1365237683 1.011023521 -0.1060471907 0.3041847646 0.9461650252
-0.1762762517 -0.1452456117 1.00786972 -0.03825428337 0.2812303305 0.9587631226
-0.1725367755 -0.1447734088 1.012270689 -0.04410294443 0.2852376103 0.9569668174
-0.1775709987 -0.1476596147 1.014561176 -0.006489083637 0.2800638378 0.9584728479
-0.1835550517 -0.09633401036 1.001198888 -0.009245135821 0.243554607 0.969199419
-0.1832432151 -0.09479642659 1.020193577 0.09897023439 0.4771939516 0.5777626634
-0.1854690611 -0.09771040827 1.029113531 0.1512726694 0.6027287841 0.4000623822
-0.1917209327 -0.1083846092 1.013171673 0.06481099129 0.4451088607 0.7461832166
-0.1850513369 -0.09669002146 1.035237074 0.1858443618 0.6762150526 0.2726435661
-0.1864133179 -0.1006804332 1.004346013 0.01093188114 0.3006418645 0.9133457541
-0.1864125878 -0.100047417 1.014751077 0.0701623112 0.4301355481 0.6988132596
-0.1847022027 -0.09575343877 1.04173398 0.2225884497 0.7547954917 0.1377182007
-0.1863267124 -0.09948861599 1.021757841 0.1099887788 0.5167779922 0.5541117191
-0.1914940178 -0.1131805331 1.008471251 0.02003449202 0.3952756226 0.8549447656
-0.1821584105 -0.1121940613 1.010870457 -0.02286230586 0.392724663 0.8144797087
-0.1841337383 -0.09451849014 1.051635504 0.2776485085 0.8748371005 -0.06737571955
-0.188408792 -0.1063972265 1.024165988 0.1110831425 0.5683090687 0.520078063
-0.1825960129 -0.1074684486 1.021770358 0.05690845475 0.5213366151 0.5787968636
-0.184220627 -0.1037830561 1.030254006 0.1272263229 0.6256400943 0.3938046694
-0.177353397 -0.1083394662 1.019829154 0.009597628377 0.4815329313 0.6270201206
-0.1864539683 -0.1142529175 1.006062627 -0.02927790023 0.3506816626 0.9130055904
-0.1861239523 -0.1387066543 1.007000089 0.06820166111 0.3100887537 0.9438684583
-0.1912982613 -0.1356624663 1.007352829 0.1228665486 0.3247308135 0.936278224
-0.1890928596 -0.1264991611 1.003968239 0.07423523813 0.3249890208 0.9394003749
-0.1894614995 -0.1206900924 1.001804948 0.03770506382 0.3265833557 0.9402507544
-0.1803391427 -0.1402936578 1.006988883 0.003746904433 0.2935983539 0.9523756504
-0.1789598018 -0.1338187158 1.006948233 -0.02991785482 0.2935307026 0.9506146312
-0.1859914809 -0.131583482 1.006718278 0.07765962183 0.3189359903 0.9400876164
-0.1755696684 -0.1247870773 1.006864309 -0.1009415612 0.2883197963 0.950255096
-0.1823827773 -0.1206867844 1.003072143 -0.04053614661 0.3066037893 0.9471474886
