# .PCD v0.7 - Point Cloud Data file format
VERSION 0.7
FIELDS x y z normal_x normal_y normal_z
SIZE 4 4 4 4 4 4
TYPE F F F F F F
COUNT 1 1 1 1 1 1
WIDTH 512
HEIGHT 1
VIEWPOINT 0 0 0 1 0 0 0
POINTS 512
DATA ascii
0.04238988459 -0.008427927271 0.8682607412 0.3227567375 0.2171325684 0.9101730585
0.03419924155 -0.003902272088 0.8591849208 0.4002610147 0.2086934596 0.8833546638
0.0745793432 -0.04541802034 0.88326478 -0.09962119907 0.4597093463 0.8699256182
0.08040268719 -0.04119136557 0.8818241358 -0.2329686433 0.3994541466 0.848856926
0.08589991182 -0.03735256195 0.8813335299 -0.3512525856 0.3501033187 0.8339486718
0.08346247673 -0.04145754874 0.8875536919 -0.2538761795 0.4333239496 0.8616315722
-0.04937332124 -0.01794707589 0.9607959986 -0.1597928852 -0.06326282024 0.9851213098
-0.05613225326 -0.02248997986 0.9614422917 -0.1597928852 -0.06326282024 0.9851213098
-0.01962205023 0.07964985818 0.8709839582 0.345736593 0.3904374242 0.8526591063
-0.01406427938 0.08108495921 0.8674078584 0.3219289482 0.3869121373 0.8631922603
-0.07092131674 0.02373523265 0.9102985263 -0.244393155 0.6372384429 0.7223007679
0.03617034107 -0.05506358668 0.9021859169 0.6557591558 0.3011459112 0.6878865361
0.0359791182 -0.04010823742 0.9194753766 0.5060031414 -0.4577180445 0.4950064123
0.03916440904 -0.04863867164 0.9083217382 0.6393728852 0.03405930474 0.5768979192
0.005185427144 0.06584502012 0.8681804538 0.2134772539 0.2043029964 0.936586678
0.01104827132 0.05633778125 0.8697218299 0.1843678802 0.04469861463 0.9714799523
-0.004328546114 0.07232190669 0.8691490293 0.2797217667 0.2987558544 0.8976149559
0.04861569777 0.06904043257 0.8448834419 0.382029891 -0.1560485363 0.9072695971
0.08978375047 -0.03240834549 0.8853276372 -0.4284109175 0.3342573941 0.8131104708
0.09237413108 -0.02582681179 0.8892138004 -0.4510225356 0.4258728325 0.7367590666
0.09764693677 -0.01716206968 0.8881951571 -0.5918997526 0.4213151932 0.6621388793
0.02865360305 -0.05563471094 0.9055672288 0.7805347443 0.03450739756 0.5504512191
0.03139198944 -0.04900314659 0.899638474 0.6942887902 0.1712474972 0.6106953025
-0.03065810911 0.07434894145 0.8746455312 0.3527779281 0.3781956434 0.8555040359
0.01869281754 0.0802673921 0.8554187417 0.1452704966 0.2727440596 0.9509586096
0.0185384769 0.05763902515 0.8705522418 0.1902236044 0.05334161595 0.9745285511
0.01751493663 0.06266779453 0.8663477898 0.1419417411 0.1655024588 0.9714815021
0.02344664931 0.06540624052 0.8675758839 0.164778769 0.1927524954 0.9660229087
0.01775514521 0.07088968158 0.8656642437 0.1885545701 0.2318147868 0.950977385
0.01067759376 0.07826471329 0.8633377552 0.2234307677 0.2827623188 0.9305946827
0.02199791931 0.07555183023 0.8623937964 0.1848236471 0.2453407943 0.9491879344
0.02839972638 0.07015110552 0.8671195507 0.1971219331 0.2022465616 0.9577300549
-0.00050072663 0.06246121973 0.8710000515 0.2369203418 0.1332858354 0.9328200817
0.02419710532 0.04765799269 0.8562960625 0.4351739883 -0.4388676584 0.7838780284
0.06352627277 -0.05283680558 0.8900934458 0.1228355989 0.5597649217 0.8159566522
0.05981574953 -0.03456416726 0.8823694587 0.1483016461 0.3490668833 0.896155417
0.05573125184 -0.02829716541 0.8839658499 0.2420031428 0.3128870428 0.8823230863
0.06387621909 -0.02951072529 0.8851937652 0.0956550166 0.3302897513 0.9015280604
0.05153084174 -0.02637896501 0.8781118989 0.2969076037 0.2920224965 0.9039672017
0.05032862723 -0.02102253214 0.8660791516 0.2336794287 0.2469608933 0.9274633527
0.03919727355 -0.01062409673 0.855458498 0.3261870444 0.214758575 0.9008771181
0.04341440648 -0.01988445036 0.8711659312 0.3740169108 0.2572974265 0.8800468445
0.04250998423 -0.01057190076 0.8495875597 0.2385956198 0.1959181428 0.9294774532
0.0383516252 -0.01422918215 0.8658843637 0.409907043 0.2451861501 0.8715333939
0.03719234094 -0.005738563836 0.8467904925 0.2951974571 0.1910900921 0.9137440324
0.04420536757 -0.0176350195 0.8642042875 0.3148876429 0.2368438989 0.9006040096
0.04432519153 -0.01483909041 0.8570474982 0.2639871538 0.2162340432 0.9187856913
0.04683886096 -0.01111351792 0.8434313536 0.1345536262 0.1756479889 0.96310848
0.003594016191 0.08148556203 0.8598176241 0.2310337126 0.3202720881 0.9168476462
0.005553629715 0.07201205939 0.865002811 0.2111692131 0.2827583253 0.9255886674
-0.003126608208 0.08161132783 0.863153398 0.2914989591 0.365141362 0.8830540776
0.07871908695 0.06359674037 0.8568940759 -0.314655602 -0.05770969018 0.9082044959
0.0851322934 0.05720118433 0.861674428 -0.4514098763 -0.1827515364 0.8457375765
0.08306952566 0.06070537865 0.8519999981 -0.4677887857 -0.1837164164 0.8475520611
0.03813360259 0.02405545674 0.8381845355 0.3046747148 -0.02330377139 0.949852705
0.03193038329 0.02119272016 0.8417432308 0.4161981344 0.04923116043 0.896376729
0.05925076455 0.02102555707 0.8358851671 -0.028297415 -0.02071773075 0.989916265
0.02114641294 0.008941680193 0.8527014256 0.5421230197 0.1169247404 0.8291417956
0.04078200832 0.05661572888 0.8587887883 0.3601810038 -0.3201523721 0.8683699369
0.03834502771 0.06168369576 0.8637984991 0.3757410645 -0.1191665679 0.8963290453
0.06143834442 0.07216400653 0.8416923285 0.07208630443 0.0001420878834 0.9676741958
0.1009756997 0.02984311059 0.8553320765 -0.602437973 -0.1444657743 0.778234899
0.09647722542 0.02402862906 0.8523501158 -0.613004446 -0.002876393264 0.7860332131
0.06741963327 -0.04049914703 0.880777657 -0.006262451876 0.396702677 0.9150120616
0.06641115993 -0.04729769379 0.8893389106 0.07234530151 0.4889099002 0.8455891013
0.06054827198 -0.04747904837 0.8856931925 0.1842380613 0.4888499379 0.8440080285
0.07395809144 -0.04646558315 0.8907320499 -0.04655300826 0.4775021076 0.8580359817
0.0925886482 -0.01923604123 0.8929355741 -0.4381026626 0.4536593258 0.742269218
0.09548639506 -0.01263140235 0.8935194016 -0.5095899105 0.4603103697 0.7033262849
0.08603742719 -0.03560733795 0.8908616304 -0.2792688906 0.4353654087 0.826695919
0.07452133298 -0.03425862268 0.878935039 -0.1164714471 0.3563388288 0.9268644452
0.03629070893 -0.004708665889 0.8694769144 0.3761203289 0.1577944309 0.8885120749
0.0273264423 0.0001180340187 0.8668723106 0.4546712041 0.1010050774 0.8581852317
0.04358396307 -0.01540715061 0.877218008 0.3354882002 0.233304888 0.9022297263
0.01272575185 0.01088959351 0.8593669534 0.600319922 0.01800298691 0.7991437316
0.0602651611 -0.04099537805 0.8809974194 0.1551612169 0.4034312963 0.8925842047
0.04962570593 -0.04004013911 0.8830950856 0.3814109266 0.3896685839 0.8321360946
0.05206025392 -0.03569116071 0.8794475198 0.3247184753 0.3595362902 0.8688825369
0.05389554054 -0.04903053865 0.897145927 0.3474397063 0.327175647 0.6861047149
0.04730989411 -0.04403862357 0.9002692103 0.4860606492 0.1345672607 0.6000374556
0.05311086774 -0.04779276252 0.887888968 0.3318116367 0.4645320177 0.8168987036
0.02721563168 -0.0353874974 0.9220562577 0.3699917793 -0.7316794991 0.4813789427
0.02595946193 0.004515259527 0.850479424 0.4957862198 0.1652975082 0.8517894745
0.0462875776 -0.001955828862 0.8560681939 0.285990715 0.1798754036 0.9365592003
0.0500337854 -0.009995553643 0.8707880974 0.2546742558 0.2165704817 0.9380148649
0.04089030996 0.003673796309 0.8463285565 0.3526352942 0.1639760137 0.9160286188
0.03875398636 -0.00102686137 0.8548790812 0.3865773678 0.1964911819 0.8941421509
0.03457507119 0.004434125964 0.8449208736 0.4391134679 0.1787148118 0.8800738454
0.03029342555 -0.0001711904333 0.8488342166 0.4367953837 0.201334253 0.8755066395
0.04067611322 -0.003887666157 0.8418669105 0.2843558192 0.1864480227 0.9250473976
0.04126593471 0.005569777917 0.8389382958 0.2672583461 0.1468856037 0.9347214699
0.04012902454 0.01361865643 0.8381702304 0.2680152655 0.1174100488 0.949077785
0.04556176811 -0.002523644594 0.8369560242 0.1803764552 0.1630767584 0.9474412203
-0.0652968362 0.01801219955 0.9156002998 -0.3656195402 0.6241667867 0.6904622912
-0.07072158903 0.03026088327 0.9080168009 0.08503026515 0.497220993 0.8247480989
-0.06256683171 0.001943350886 0.9382988811 -0.2752775848 0.3224384785 0.8197947741
-0.06037502736 -0.01333344914 0.9497057199 -0.2044077963 0.08574416488 0.9212511778
-0.06326196343 -0.004265767522 0.9417123795 -0.2520220578 0.2447685152 0.8530871272
-0.06597507 0.006930722389 0.9325433373 -0.3076680899 0.4306178093 0.7734249234
-0.0573233217 -0.01728284732 0.9546637535 -0.1770397425 -0.005660964642 0.9604309201
-0.06081287563 -0.01004134957 0.9441723824 -0.2312638462 0.1754392534 0.8828043342
-0.05591824651 -0.02422031388 0.9546418786 -0.1642442942 -0.04839581251 0.9787487388
-0.06265451014 -0.02141142078 0.9526162744 -0.1807383895 0.00669193035 0.9551360011
-0.04526410624 0.06199797243 0.8916347027 0.347722888 0.349055469 0.8697180152
-0.05182180181 0.0601247102 0.8909057379 0.3142879009 0.3756921887 0.8714767098
-0.0240605101 0.0745210126 0.8752948046 0.3716880083 0.3484040201 0.8594546914
-0.04141497985 0.0568860732 0.8878886104 0.2989836037 0.3877749145 0.8642612696
-0.04684836417 0.06145363301 0.8848098516 0.3270040751 0.3662431538 0.8705164194
-0.03662139177 0.06155103073 0.8820470572 0.3151539862 0.3815145195 0.8644715548
-0.03171310946 0.06791124493 0.8766849637 0.3552519083 0.3514822721 0.864836216
-0.03746883199 0.06915313751 0.8804668784 0.3669361472 0.3407074511 0.8654177189
-0.04248580709 0.06616704911 0.8847857118 0.3688712716 0.3273327947 0.8685721755
0.007427294739 0.03907977045 0.8636537194 0.619771421 -0.1613960117 0.7510499954
0.003341776785 0.05756528676 0.8620017171 0.4368563294 0.05982134864 0.8588403463
0.004791954067 0.04791297019 0.8609329462 0.5583090186 -0.02805375308 0.7770037651
0.0146314688 0.05038306117 0.8667045832 0.3151004016 -0.1897130907 0.8915299773
0.01906817034 0.04918330535 0.861374259 0.4346784353 -0.3804577887 0.7988526225
0.0258290302 0.07896803319 0.8557685018 0.1852932423 0.2732451856 0.9401045442
0.0289008338 0.07448186725 0.8607016802 0.2100063264 0.2454886138 0.9421110749
0.03436516598 0.0748860538 0.8573560715 0.2752845287 0.2731006145 0.9176238179
0.04797860235 0.07268695533 0.8559497595 0.348736316 0.09449219704 0.9240633845
0.06184765324 0.07252345234 0.8537192941 0.1864592433 0.08419495076 0.9735330343
0.0548469387 0.07047697902 0.8561843038 0.2546719611 0.06775598228 0.949229598
0.04049545527 0.07177700847 0.8581293225 0.3923230767 0.1413378567 0.9063156247
0.05661255866 0.07474437356 0.846128583 0.2650954425 0.006031000987 0.9611464143
0.04292767495 0.07478173822 0.8513497114 0.3192768097 0.1808201671 0.916913569
0.08025098592 0.04525287077 0.8471990228 -0.4568927586 -0.2743408382 0.8434742093
0.05116999522 0.06213839352 0.8451413512 0.3634161353 -0.127987355 0.9176190495
0.04698581249 0.05529169366 0.8449973464 0.3570664823 -0.2362989038 0.8895130157
0.04534235597 0.04826139659 0.8435331583 0.2624623775 -0.3248138428 0.8934936523
0.03828696907 0.04573400691 0.84608078 0.2876813114 -0.436770916 0.8428700566
0.0328653641 0.04390642047 0.8519495726 0.3945533335 -0.378798157 0.8128382564
0.03088899888 0.05346981063 0.8577922583 0.334166944 -0.4048994482 0.8473441005
0.03942601755 0.05190609396 0.8548039794 0.2879911661 -0.4125908017 0.8608628511
0.02748688497 0.05578665808 0.8639808893 0.2762544453 -0.2443526089 0.9144575
0.03094293177 0.06480946392 0.8698349595 0.2218614519 0.1066807136 0.9550769329
0.06178288162 0.06684799492 0.8569413424 0.1361656338 -0.03733214736 0.9280236363
0.06697850674 0.06222496182 0.8594477177 -0.02869781479 -0.1183403805 0.8874474764
0.04866049066 0.06497913599 0.8589137197 0.3721619844 -0.1125051677 0.896014154
0.06954715401 0.06818712503 0.8556312919 -0.0003610311251 0.01196649671 0.9492802024
0.05336811021 0.06047348306 0.8613789082 0.2185638398 -0.192449078 0.8561031222
0.07651941478 0.05660225451 0.8622930646 -0.2932631373 -0.2078865916 0.8414002061
0.08720122278 0.05623708665 0.8553134203 -0.5288836956 -0.2318926752 0.8144134879
0.09211504459 0.05300683901 0.8644297719 -0.5467082262 -0.2674359381 0.7930895686
0.09965190291 -0.01007342897 0.8849228024 -0.641605556 0.478197515 0.5931441188
0.0965468511 -0.01380449068 0.8773183823 -0.5875516534 0.452198416 0.6383519173
0.09667306393 -0.006096266676 0.8720287681 -0.5948741436 0.5615432262 0.5561802983
0.09440724552 -0.00982316304 0.8672662973 -0.5550615788 0.5277403593 0.5997623205
0.1000255048 0.01023238525 0.8733786941 -0.6174376607 0.1977945119 0.7148092389
0.09564387798 -0.006055138074 0.8888192773 -0.5965960622 0.4907975495 0.6302142739
0.1005718485 0.01453263406 0.8677322268 -0.6269574761 0.1226493716 0.7293434143
0.1010888964 0.01817972027 0.8540694714 -0.5970620513 0.05001147836 0.8002204299
0.101332821 -0.0003158761538 0.885098815 -0.6036242843 0.4048541784 0.6549082398
0.04901068285 -0.02111611888 0.9400624037 0.9111930132 -0.4062895179 -0.06800391525
0.04501409829 -0.01182495244 0.9446191192 0.9075112343 -0.4114761651 -0.08365314454
0.05178300664 -0.01408231538 0.9453417659 0.9200378656 -0.3794760406 -0.09687255323
0.03378608078 -0.05311521515 0.9338555336 0.5537701249 -0.003676196793 0.6368364096
0.03415530547 -0.04227949679 0.927810967 0.5118651986 -0.4101310372 0.5147628784
0.03598805144 -0.06081515551 0.9172766209 0.6517463923 0.2627330422 0.6888797283
0.03288295493 -0.04974864423 0.9405991435 0.5125827789 -0.1206980869 0.6132424474
0.03329649195 -0.04212039337 0.9350427389 0.4873330295 -0.4082362056 0.5251407027
0.03209774941 -0.05699721351 0.9492016435 0.5257205367 0.15609698 0.7024828792
0.03557673097 -0.05362837762 0.918825984 0.6057931781 -0.0008774242015 0.6171553731
0.03286641091 -0.05585078523 0.9423820376 0.541477859 0.1064558774 0.6792931557
0.03570471704 -0.04688364267 0.9159261584 0.5768909454 -0.2529503107 0.5426043272
0.03495220467 -0.05792807043 0.925273478 0.609192729 0.1647557467 0.6723264456
0.03477638215 -0.05092580989 0.9248777628 0.5706441402 -0.09413317591 0.5992760062
0.02933946066 0.01010155585 0.8460544348 0.4484913349 0.1654213518 0.8759082556
0.01416743267 0.0219435934 0.8564422727 0.6384205222 -0.05387524143 0.7641003728
0.008997449651 0.02497392707 0.8600656986 0.6838606596 -0.1257517934 0.7179706097
0.009265035391 0.01850402914 0.8600897789 0.6604229808 -0.06088922173 0.7458919287
0.01679440029 0.013822156 0.8536360264 0.593524754 0.04551002011 0.799616456
0.01814009063 0.02639762871 0.8524071574 0.6293642521 -0.07918503135 0.7725688815
0.02306854911 0.02139566094 0.8472790718 0.5549463034 0.007265661377 0.8296152353
0.06014443189 0.06192822009 0.8424764872 0.09526443481 -0.05765594169 0.9827046394
0.0548667796 0.06829505414 0.8418810964 0.2488186359 -0.06798040122 0.9628116488
0.07021601498 0.06618280709 0.8444474936 -0.1317358762 0.05505676568 0.9686814547
0.07242640108 0.05777959898 0.8456811309 -0.2180050313 -0.03537919372 0.9688746333
0.09552362561 -0.02270862274 0.8846622705 -0.5717944503 0.3434651494 0.7271437645
0.05350552872 -0.02293213271 0.8598157167 0.148642391 0.2552844286 0.9449660778
0.05887373909 -0.02278688736 0.8644454479 0.07905684412 0.2451051772 0.9601143003
0.05649754032 -0.03151044622 0.8747731447 0.2065378875 0.3230114877 0.9163597226
0.06138935685 -0.0258652512 0.871112287 0.08157754689 0.267005831 0.9537507296
0.05337190256 -0.02780765854 0.8680426478 0.2128112316 0.298355639 0.9229340553
0.05059430748 -0.01550641935 0.8480657339 0.1112691313 0.1988335848 0.9679855704
0.05350230262 -0.01204286423 0.8428338766 0.03128986806 0.1594897509 0.9850396514
0.05631809682 -0.01697354019 0.8536331058 0.04709932953 0.1995931566 0.9771502614
0.03989772499 -0.03852922842 0.8884657621 0.5430010557 0.3487417698 0.7588171959
0.04401091486 -0.03494436666 0.8844926953 0.5060353875 0.3457752764 0.7877221107
0.002568741562 -0.06073251367 0.975635469 0.263148874 0.6086056232 0.7455196977
0.04415561259 -0.05550036579 0.89823246 0.5255445242 0.4103822112 0.7394590974
0.04243904725 -0.0437974371 0.9054477811 0.6174510121 0.01245061588 0.5251937509
0.04402348772 -0.0502115339 0.9028818011 0.5617503524 0.2066729069 0.6301345229
0.05196440592 -0.05523051694 0.8955096602 0.3597171009 0.4919857681 0.7732318044
0.02370122075 -0.03924607858 0.9326673746 0.2956065536 -0.5432033539 0.5370829105
0.02541930042 -0.03319077566 0.9356760383 0.6195104122 -0.5633740425 0.1618913114
0.02219218574 -0.04126056656 0.9423283935 0.4317806661 -0.2795031369 0.4529114962
0.02184715867 -0.04031850398 0.949760437 0.6414999962 -0.1147840321 0.2580347359
0.01877441071 -0.05107416585 0.950393796 0.275500983 0.07713591307 0.7134076357
0.01723267883 -0.05311959237 0.9564872384 0.2803836763 0.247311905 0.7633533478
0.01847949438 -0.05800392479 0.9509927034 0.2888287008 0.245913282 0.6864050031
0.01666210964 -0.06028716266 0.958186686 0.2943419814 0.4438510835 0.7459958196
0.05036327243 0.002259390196 0.8363702297 0.1113584414 0.1275928468 0.9817473888
0.04719282687 0.01096961647 0.8372289538 0.1535915136 0.1244125888 0.9780063033
-0.06686289608 0.02454552054 0.9159909487 -0.1613235176 0.5715368986 0.7506799698
-0.06193237752 0.02531535365 0.9119092226 -0.2110654563 0.6399025917 0.7312937379
-0.04923067987 0.04422974214 0.894946754 0.2199309915 0.4533219934 0.863152504
-0.05634202063 0.05174893886 0.8936111927 0.2637754977 0.4172473848 0.867233634
-0.06039179116 0.04523560777 0.8978002071 0.216274932 0.4564478099 0.8628280759
0.007013870403 0.04365073517 0.8698875308 0.461329788 -0.1628199816 0.8669489622
0.007573398296 0.03181440383 0.8632148504 0.6489982605 -0.1605926901 0.7349095941
-0.005364109296 0.06484658271 0.8670851588 0.3724150062 0.1768069267 0.875079751
-0.004041754641 0.07196181267 0.8604809642 0.3403366804 0.2853236198 0.8919879794
-0.01150277536 0.0730086267 0.8661829233 0.3485633135 0.3263022304 0.8668004274
0.0005057448288 0.06683929265 0.8604415059 0.3541310132 0.1892295927 0.8996959925
-0.005065339617 0.05428814143 0.8720306754 0.4083472192 0.01059411652 0.8789864182
-0.01876991242 0.07058258355 0.8726963401 0.3704899549 0.2952710688 0.8641130328
-0.02411191352 0.06687612832 0.8742527366 0.3753015101 0.274202615 0.8674552441
-0.01041038986 0.06764028221 0.8714470267 0.3802465498 0.2129204571 0.866854012
-0.01265156735 0.06066039205 0.8728359938 0.3929915726 0.1325224042 0.8732024431
0.002213561907 0.05424658582 0.8710000515 0.3650652468 -0.01783392392 0.8973122835
0.01223752461 0.07471299917 0.8552595973 0.1552198827 0.2714413702 0.9489347339
0.009227627888 0.05216943473 0.8581129313 0.5065426826 -0.07165213674 0.8038874865
0.01305399928 0.04589944705 0.8578736186 0.5624328852 -0.191284731 0.7709847689
0.005685292184 0.06240609288 0.8573659062 0.4118172824 0.08565023541 0.8561050296
0.004569388926 0.07120615989 0.8568730354 0.2819714546 0.2401002645 0.9108506441
0.01237903256 0.05950183421 0.8556649089 0.3777347207 -0.0002947864123 0.8507637382
0.01658032648 0.05198734626 0.8541408181 0.4355739355 -0.1671319753 0.8135102391
0.01155213453 0.06807281077 0.8549818397 0.2238447219 0.1363924146 0.9184685349
0.02475663275 0.04494739696 0.8486632109 0.3953492939 -0.3970579505 0.7982152104
0.03304335475 0.07670416683 0.8495902419 0.1833224446 0.1329680234 0.9626544714
0.04159726575 0.07570253313 0.8449612856 0.215812251 0.04838639498 0.9653683305
0.0323930569 0.06031637266 0.8515636921 0.286421597 -0.2223736346 0.8665331006
0.02876130864 0.0699808225 0.85270679 0.2196468413 0.04189008847 0.9323955774
0.03936240077 0.06327742338 0.8489273787 0.3492638469 -0.1851210743 0.8797919154
0.02226983197 0.05595659092 0.8507957458 0.2979288697 -0.1618692577 0.8567063808
0.01894798875 0.062400233 0.8537775278 0.2026989758 -0.008184055798 0.9162762761
0.0283938814 0.05116948485 0.8503459692 0.336820811 -0.3471954167 0.8234485388
0.06830537319 0.01430516224 0.8376168013 -0.2115161121 0.1350721717 0.9641777873
0.05479685217 0.04239776358 0.8460364342 0.07326231897 -0.3573489189 0.9293112755
0.05010103434 0.02900366299 0.8425446153 0.129440859 -0.1656132638 0.9335201979
0.06523400545 0.02739227749 0.8366930485 -0.1400772929 -0.1698844433 0.972984314
0.07536388189 0.04807402194 0.8544979095 -0.3001128137 -0.2634424269 0.8871272206
0.08060526103 0.04984086379 0.8582499623 -0.4055999219 -0.2503079474 0.8551501036
0.0187282525 0.04144806787 0.8578243852 0.5324183702 -0.3075585961 0.7703983784
0.01498878002 0.0317771025 0.8565454483 0.632062912 -0.1670027822 0.7512446046
0.02090873942 0.03366015106 0.8503668308 0.5834437609 -0.2133855224 0.7801600695
0.0717875585 0.0716400817 0.8503016233 -0.1498358995 0.09161511809 0.9831949472
0.07655542344 0.06553246826 0.8459417224 -0.3042173386 -0.01675343327 0.9328558445
0.09874532372 0.03651683405 0.8572167158 -0.5851301551 -0.2058304101 0.7812245488
0.08152032644 0.008688495494 0.862649262 -0.3408792615 0.4156469107 0.6615606546
0.09015187621 0.02007336915 0.8566707969 -0.5247534513 0.1103831977 0.7347975373
0.08375923336 0.02472511865 0.8567706347 -0.4272234738 0.002587530529 0.7364314795
0.07758541405 0.001852130634 0.865919292 -0.2521924376 0.5968204737 0.6211432219
0.09107192606 0.03503419831 0.8556794524 -0.5774689913 -0.1513678879 0.7900757194
0.08732233196 0.03947343677 0.8511940241 -0.5205118656 -0.2805935144 0.8040632606
0.09018521011 0.04670774937 0.8603751659 -0.5537320375 -0.2446494997 0.7953358889
0.0867132619 0.05006103218 0.851087749 -0.5267400742 -0.2498888969 0.8097138405
0.08225535601 0.04411528632 0.8551656604 -0.4331479371 -0.2746317983 0.8368079662
0.07105109096 0.04449494928 0.849865675 -0.2115607709 -0.2872644067 0.9101381898
0.08949548006 -0.001717239153 0.8770723343 -0.6015100479 0.4562193751 0.6158738136
0.09677357227 0.01645997353 0.8613718152 -0.6317639947 0.1108633801 0.7194675207
0.09014292061 -0.006479117088 0.8826718926 -0.5981765389 0.5298106074 0.5954447389
0.09377277642 0.004722260404 0.8720700145 -0.6156486273 0.323076427 0.6539692879
0.09002808481 0.01439941674 0.8601350784 -0.5243596435 0.2301239967 0.7073954344
0.08993902802 0.008668025956 0.8662804961 -0.5562036633 0.3078927398 0.675008297
0.08459368348 0.003480657935 0.8672963977 -0.4231896102 0.4830126464 0.6413606405
0.08180506527 -0.002155401511 0.8710072041 -0.3714753091 0.6132204533 0.607288301
0.09055447578 0.02173110284 0.8490719199 -0.569656074 0.07896707952 0.8168445826
0.05919609964 -0.01212479733 0.847413063 -0.05353135243 0.2282559723 0.9502085447
0.06375420839 -0.007284785155 0.8468421102 -0.2279699892 0.469373852 0.825607121
0.06124163792 -0.01805515401 0.8583965302 -0.003518311307 0.217642054 0.968357563
0.05928041041 -0.004011468496 0.8371611834 -0.1351707876 0.206073001 0.9554538727
0.0927009806 -0.006244433112 0.8614412546 -0.5561276674 0.5772086382 0.5685725212
0.09246591479 -0.02684673294 0.8754371405 -0.5167665482 0.2974881232 0.7868463397
0.09245432168 -0.01734817959 0.868884027 -0.5338815451 0.4269188941 0.6868275404
0.0857122317 -0.007083609235 0.8592941761 -0.4582477212 0.594892323 0.625572145
0.08826933801 -0.02169103548 0.8722670674 -0.4679344594 0.3530041575 0.7783851624
0.0859914422 -0.02769717947 0.877633214 -0.4078160822 0.2620945275 0.869197607
0.09170489758 -0.01314817555 0.8846300244 -0.5557111502 0.4206878841 0.6894590259
0.0839048028 -0.01583153941 0.8685824275 -0.4184377789 0.4184038341 0.7633296847
0.07488659024 -0.006111104973 0.8699149489 -0.2000444382 0.7761525512 0.5887898207
0.07626860589 -0.008824422956 0.8774723411 -0.3209734857 0.6025134921 0.6436345577
0.06632996351 -0.02105119638 0.8685961962 -0.04367839918 0.3314706385 0.9090866446
0.06644327193 -0.009842510335 0.8529415131 -0.2167384028 0.489857465 0.8055949807
0.0714655444 -0.009873653762 0.8567202687 -0.2436291873 0.5570431948 0.7286878228
0.06851245463 -0.01536147762 0.8622298837 -0.1431070417 0.440481782 0.8238927722
0.06766912341 -0.003947376274 0.8618409634 -0.1409408599 0.6018313169 0.7103492618
0.05972412229 -0.01217792649 0.875480175 0.06432487071 0.4658635855 0.8095994592
0.05128098652 -0.004788260907 0.8611928225 0.2039970756 0.2552529275 0.909879446
0.05265682191 -0.0002656134893 0.8533321619 0.1461990476 0.3460414112 0.8465618491
0.06530050188 -0.009302188642 0.871116817 -0.07537870109 0.6814450622 0.6797434092
0.05953975767 -0.006800827105 0.8658886552 0.0354635641 0.51269418 0.7690047622
0.04925535992 0.002450661268 0.8479213715 0.2009599507 0.2520323694 0.8937118649
0.0611945875 -0.003698999295 0.8587290049 -0.06844029576 0.495472163 0.7843616605
0.05460202694 0.002479421673 0.8444632292 -0.02411775105 0.2029204667 0.9517760277
0.07929103076 -0.02174237184 0.8704298139 -0.2930165529 0.3983921707 0.8286316991
0.07720784098 -0.006174034905 0.8546013832 -0.357876569 0.6712739468 0.6235565543
0.05848130211 -0.01788522676 0.8798701167 0.1387776434 0.24452205 0.947517097
0.06821408868 -0.02475974336 0.8809223175 -0.008607103489 0.2786834538 0.9396818876
0.07161311805 -0.03096690774 0.8851561546 -0.04159371555 0.3370453119 0.9174505472
0.08000125736 -0.01723693311 0.8787213564 -0.3169557452 0.3679242432 0.8068922162
0.0716792196 -0.01871666685 0.8784737587 -0.1266200542 0.2981222868 0.8864073753
0.0639237538 -0.01345903706 0.8802732825 -0.01822369732 0.3197180629 0.8524160981
0.06850381941 -0.02837137692 0.8754500151 -0.03047555499 0.2931477129 0.951610148
0.07512421906 -0.01271534432 0.8621628284 -0.2536485791 0.5153252482 0.7483721972
0.07481979579 -0.01767737232 0.8679558039 -0.2009137124 0.403506577 0.8355579376
0.08593022078 -0.01250039879 0.8807356358 -0.5008177757 0.4537063241 0.6857581139
0.07673858106 -0.02325177193 0.8770824075 -0.1875399351 0.2675644159 0.9258182645
0.08592198044 -0.01922268607 0.8805909157 -0.4576024115 0.3335873187 0.783185482
0.07888419181 -0.02942371741 0.8808295131 -0.1988418996 0.2848651409 0.9264413118
0.08544744551 0.01119543426 0.8474566936 -0.5072569251 0.2546456754 0.8185707927
0.03036879748 -0.04271122813 0.8987266421 0.7423835397 0.06685584784 0.5941722393
0.02602815814 -0.0461894609 0.9044932723 0.8279268742 -0.1801428944 0.4891572595
0.04014499113 -0.04580248147 0.8926294446 0.5429843068 0.3933278918 0.7397382855
-0.04879887775 -0.04138131812 0.9610178471 -0.167264834 -0.05203184113 0.9836499095
-0.04363602027 -0.04231927544 0.9572014213 -0.1609807611 -0.06147734821 0.9848874211
-0.05382755026 -0.03701999784 0.9595104456 -0.1597928852 -0.06326282024 0.9851213098
-0.05848401785 -0.03197034076 0.9568731189 -0.1597928852 -0.06326282024 0.9851213098
-0.05368464813 -0.02867218107 0.9624416232 -0.1597928852 -0.06326282024 0.9851213098
0.007833140902 -0.04172314331 0.9556060433 0.3224873841 0.05789173394 0.5721817613
0.02302432805 -0.03370963037 0.9459145665 0.7919127941 -0.3076019883 0.02439953014
0.01598220691 -0.03618786857 0.9495205879 0.5915333033 -0.1780896634 0.2442955375
0.01519857161 -0.06251868606 0.9685302377 0.26499632 0.5191173553 0.807097137
0.02332083322 -0.06814913452 0.9622479677 0.3530369103 0.5499072671 0.7518333197
0.03144725412 -0.01695362106 0.9484495521 0.891379416 -0.4490691125 -0.0575495325
0.03853228316 -0.008255019784 0.9492760897 0.8966023922 -0.4372809231 -0.06638537347
0.003803860862 -0.03011822701 0.9537974596 0.2905085981 -0.1444037706 0.5160700679
0.01918128692 -0.02705935203 0.9475540519 0.6856119037 -0.3279270232 0.1023977175
0.01124445349 -0.03211801872 0.9489206076 0.5138667822 -0.2402125895 0.2704856098
0.009632639587 -0.03347375989 0.9559527636 0.3858779073 -0.04683398828 0.4833919704
0.01485488284 -0.04055770114 0.959399879 0.4529574811 0.1403158158 0.4985899031
-0.003621319076 -0.04041953385 0.9599232078 0.06201931089 0.1566542834 0.8075890541
-0.006759932265 -0.03474287316 0.9571272731 0.03045022301 0.005545108579 0.7777997851
0.01478121523 -0.02718348615 0.9525773525 0.5338212252 -0.2236614823 0.3051734269
0.009376757778 -0.04457927123 0.9616281986 0.3120082021 0.2557457089 0.6493356228
0.002563636517 -0.04292976856 0.9610053897 0.1777012348 0.2182565629 0.7400131226
0.01285743061 -0.04985097423 0.9638976455 0.346298039 0.3867877424 0.6768323779
0.02586491592 -0.02611939982 0.9513810277 0.7686486244 -0.2730266452 0.1121179461
0.02254541032 -0.03273193166 0.954713583 0.6541250348 -0.09358694404 0.2687388659
0.02205149457 -0.04473225772 0.9585933089 0.5045866966 0.1871441454 0.5219969153
0.01967770606 -0.05623593181 0.9631587267 0.341360122 0.4772016704 0.7726317644
0.03890307248 -0.01666624658 0.9464553595 0.9078248143 -0.4086456299 -0.0811303854
0.02400115505 -0.03943513706 0.9181076288 0.5703774095 -0.5922881961 0.4280402362
0.0276278872 -0.05014044046 0.9566939473 0.5481858253 0.2416697592 0.5914792418
0.0261834804 -0.05780590326 0.9598397017 0.4381580055 0.4395739138 0.7562251091
0.03303029761 -0.02988377586 0.9485206008 0.789203763 -0.2270604521 0.1438851207
0.03117089532 -0.03798427433 0.9515991211 0.6953260899 -0.04157714173 0.3211200833
0.03674752265 -0.03508634865 0.9477626681 0.7496491671 -0.1192535385 0.2281223536
0.03891652077 -0.0252980832 0.9440860748 0.8627579212 -0.3432035148 0.01442881208
0.03511671349 -0.05079069734 0.9535087347 0.6358685493 0.1369329244 0.5280740857
0.03115091473 -0.06203925237 0.9589216709 0.5247548819 0.3562692404 0.7692185044
0.0360866338 -0.04391686991 0.9506639838 0.6739801168 0.04529354349 0.4020147026
0.04011361673 -0.03195736557 0.9414777756 0.8405129313 -0.2659568787 0.08678337187
0.0498916246 0.01581202261 0.8417981267 0.09884816408 0.04364027828 0.9542822242
0.05218880251 0.00808515586 0.8418313861 0.01612309925 0.1264028996 0.97108078
0.06178699806 0.003296779701 0.8369805217 -0.1421451718 0.1758858114 0.9693167806
0.05535930023 0.0118411351 0.8362447023 0.01622748189 0.1428538561 0.9887569547
0.06224873662 0.01099534426 0.835824132 -0.09634633362 0.1169823483 0.9858219624
0.05412407592 -0.007229999173 0.8329777718 -0.0008731088019 0.1611565948 0.9859501123
-0.05265465006 0.0377599299 0.9004981518 0.06044786796 0.5388179421 0.8139724135
-0.06067312509 0.0300244242 0.9048864245 -0.06737060845 0.6057429314 0.7734056711
0.06653945148 0.0004255679087 0.8425765634 -0.3072735369 0.3783229291 0.8546423316
0.07632364333 -0.001542518148 0.8477494121 -0.4254232943 0.6442684531 0.6351545453
0.07899037004 0.005820625462 0.845849216 -0.4537733793 0.3337841034 0.821688652
0.06674166769 0.007705030497 0.8397753835 -0.24018839 0.2055004984 0.9432577491
0.07379940152 0.009427689016 0.8415849209 -0.3623010516 0.2404133379 0.8933706284
0.0791157037 0.01309802756 0.8424411416 -0.4313183725 0.2106426954 0.8751775622
0.07178197056 0.003659527516 0.8633729815 -0.1559572369 0.5405366421 0.6575244069
0.0643793419 0.0335056521 0.8453356624 -0.1139487922 -0.2727822959 0.8951355815
0.06496398151 0.02765837684 0.8488383293 -0.1069938391 -0.1120775864 0.8497237563
0.05584019423 0.02483537048 0.8431307673 -0.009181610309 -0.1612251401 0.9438019395
0.0647200644 0.01506051887 0.8550462723 -0.07846951485 0.2107737064 0.7727157474
0.05746509135 0.01109004952 0.8452274203 -0.05863151327 0.09294061363 0.9269132614
0.06641978025 0.006794173736 0.8572823405 -0.111400038 0.381516397 0.7476795316
0.06248389184 0.00219630124 0.8519383669 -0.1081535071 0.355627358 0.834280014
0.06025757641 0.02104408294 0.8490657806 -0.04035489634 0.00715539977 0.8574015498
0.06260888278 0.008854257874 0.8521536589 -0.08822996914 0.2550967932 0.8236774802
0.05624125525 0.03201033548 0.8437222242 0.0111123817 -0.2629671097 0.926890552
0.06409388036 0.0450489223 0.8471802473 -0.07681505382 -0.2956731319 0.9511560202
0.06700000912 0.0209640637 0.8364971876 -0.1725826859 -0.01380384434 0.9747373462
0.07416434586 0.01863551699 0.8382579684 -0.3163955808 0.07538096607 0.9377586246
0.05099388212 0.04154013097 0.8405060768 0.143222183 -0.2255316973 0.9553687572
0.0453370586 0.03697141632 0.840277791 0.1439748555 -0.3459950089 0.9238607287
0.06313690543 0.054643251 0.843564868 0.007479106076 -0.06572001427 0.9933860898
0.0557612665 0.051118467 0.8433132172 0.1697472483 -0.1245799884 0.9711384773
0.06128738821 0.03830685094 0.8395558596 -0.04100104794 -0.20974347 0.9679731727
0.0649926886 0.04386612773 0.8409438729 -0.08369692415 -0.1501599699 0.977835834
0.05753247067 0.02960980497 0.8371821046 -0.0002890408505 -0.2194079161 0.9682406783
0.0453421399 0.02819102071 0.8371596932 0.1390844882 -0.1869044453 0.9654765725
0.05274859071 0.02395213954 0.8358998299 0.07630950212 -0.07905038446 0.9901245236
0.02665360272 0.03329068795 0.8453148007 0.4980074167 -0.2054252326 0.8363093138
0.03680863604 0.03846557438 0.8438943624 0.2657548487 -0.4054124653 0.8702564836
0.03365832567 0.02935894765 0.843082428 0.3347103894 -0.2127282768 0.886739552
0.03995110095 0.03329683095 0.8399003148 0.2039181292 -0.329325527 0.9180600643
0.05861665681 0.0492303893 0.8514072299 0.05910379812 -0.303575635 0.9193664789
0.06865323335 0.0492810905 0.8534895778 -0.1580502093 -0.2791653574 0.9032490253
0.05388448015 0.05315450579 0.8556249142 0.171621263 -0.2919506431 0.8883157372
0.04749061167 0.05785946921 0.8604245186 0.3194531202 -0.2645969093 0.8555327058
0.06340043992 0.05615365505 0.8615009785 -0.0263379477 -0.2535493076 0.8436971903
0.04808962718 0.05121941119 0.8526552916 0.2684387565 -0.3493967652 0.8905907869
0.1012421995 0.002799816197 0.8789640665 -0.5994157195 0.3425753713 0.6854220033
0.1000873968 0.005596778356 0.8681865335 -0.6212359071 0.2825944722 0.6789653301
0.09693398327 0.0002778347116 0.8663771749 -0.5935570598 0.5134882927 0.5687274337
0.0988580361 -0.004175093956 0.8780815005 -0.6354863048 0.4856074154 0.5723260641
0.09984753281 0.009310477413 0.8623781204 -0.6057345867 0.2397073507 0.7046373487
0.09746588022 0.010846911 0.855581522 -0.607329905 0.2925425172 0.680896461
0.09088288993 0.008449564688 0.8526647091 -0.6009068489 0.3765551448 0.6788745522
0.09258770943 0.002049355768 0.8565926552 -0.6055389047 0.5629420877 0.5525722504
0.08726644516 7.08200896e-05 0.8533471823 -0.5079054832 0.6283880472 0.5756007433
0.07884983718 0.05197367817 0.8447706699 -0.4343752563 -0.2256366014 0.8669246435
0.07254512608 0.02822004445 0.8380280733 -0.2897594869 -0.1812098473 0.9358053207
0.07068045437 0.04854302481 0.8431732059 -0.2005606443 -0.1150053665 0.9621484876
0.07031533867 0.037988998 0.8399628401 -0.2156649083 -0.182274729 0.9472209215
0.080719769 0.03761315346 0.8462445736 -0.4507545829 -0.2634997666 0.8501662612
0.02950407751 -0.03918356821 0.9076550603 0.8775604367 -0.2183538824 0.4175877273
0.05003420264 -0.0421949029 0.890532732 0.4276950657 0.2689382136 0.7397563457
0.04201094061 -0.03613897786 0.8966954947 0.6186490059 0.0611240454 0.6193403602
0.03863366321 -0.03710816428 0.9063411355 0.7195808291 -0.169642061 0.4614714682
0.03904975951 -0.02955270186 0.8902492523 0.6637077332 0.1616338789 0.7074511647
0.03349374235 -0.03484285623 0.9120475054 0.8491959572 -0.3264580369 0.3599928916
0.03693861887 -0.03125223517 0.8965379 0.7303822041 0.02787816897 0.6079547405
0.05147333443 -0.03345920146 0.8865926862 0.3789171875 0.2696858943 0.8028854132
0.06627045572 -0.03837202489 0.8899986148 0.1276415139 0.3495920897 0.8302681446
0.05813440681 -0.03596352786 0.889498651 0.2849878669 0.3073664308 0.8016370535
0.04682578146 -0.02865606546 0.8836835623 0.4225553572 0.2741335928 0.8368635774
0.04926784337 -0.01945066825 0.8826328516 0.3480130732 0.2235783488 0.8820859194
0.04229130968 -0.02275841124 0.8786130548 0.4550165534 0.2624098659 0.844558239
0.01767905243 0.002560480498 0.864587307 0.5815883875 0.05572823808 0.8040204644
0.03650641069 -0.01135390066 0.8744884133 0.4172432721 0.1840055138 0.8672503233
0.04142347351 -0.02472534031 0.8852911592 0.5397359729 0.2084294707 0.7909148932
0.03533766791 -0.02071004175 0.8824977279 0.6010543704 0.1665150672 0.7658763528
0.02892879955 -0.01299225725 0.8745096326 0.611037612 0.1367931962 0.7709744573
0.02042461373 0.003151909215 0.8564442992 0.5295423269 0.1160521954 0.831892848
0.02654716931 -0.007026582491 0.8663783669 0.5678069592 0.1421738416 0.8002160788
0.03299717978 -0.01763577759 0.876601994 0.6065120101 0.1705731601 0.7678037286
0.03169650212 -0.01245723944 0.8680768013 0.5557688475 0.1883887649 0.7999693751
0.02351396531 -0.001790573704 0.8610454798 0.5461171865 0.1307312101 0.8175404668
0.02784731798 -0.002876013517 0.8550637364 0.4867540896 0.196616441 0.8467195034
-0.04545928538 -0.03495370224 0.9560406804 -0.1597928852 -0.06326282024 0.9851213098
-0.05145823956 -0.02914962918 0.9556220174 -0.1597928852 -0.06326282024 0.9851213098
-0.04258161783 -0.04244017974 0.9637175798 -0.1928700507 -0.01354500186 0.9786076546
-0.0389158614 -0.02877987921 0.9634335637 -0.1606960744 -0.06190524995 0.9849434495
-0.03673556075 -0.04717469215 0.9648607969 -0.220693022 0.02827531472 0.9731286168
-0.03404450789 -0.03945732117 0.9647633433 -0.2053127438 0.002857781481 0.9762007594
0.01340209413 -0.05673834309 0.9655768275 0.2717301846 0.5057449937 0.8180074692
0.02731517144 -0.02741895989 0.9407726526 0.776586473 -0.5200915933 0.02967692167
0.02838054299 -0.02252375335 0.9449364543 0.8416243196 -0.4830312133 -0.02117572539
0.03467378393 -0.0440344587 0.9438340664 0.6037088633 -0.1712844968 0.4515316784
0.03599108011 -0.03434738889 0.934242785 0.6080218554 -0.5063140988 0.3128258288
-0.04908287525 0.05295835063 0.8949369788 0.2597234249 0.4183373749 0.8700350523
-0.06428816915 0.04091722518 0.901129365 0.2135831118 0.4586372972 0.8625741005
0.07903276384 0.02654835209 0.8411229849 -0.3991013467 -0.1441471875 0.898651123
0.07659122348 0.01884101331 0.8549348712 -0.2928729951 0.115008533 0.7533787489
0.07258646935 0.03357149661 0.8460016251 -0.2656417489 -0.2859219015 0.8717016578
0.07186434418 0.01128950063 0.858884871 -0.1808170974 0.3297099471 0.7139993906
0.07911708206 0.02695587277 0.8504530787 -0.3658244312 -0.11225719 0.8037103415
0.06995780021 0.02258364111 0.8521436453 -0.1815728843 0.02073531598 0.8010666966
0.08494647592 0.02338708565 0.8454490304 -0.4971559942 -0.03827754036 0.8619759679
0.08415158838 0.03234927729 0.8502864242 -0.4678232372 -0.236706987 0.8056256175
0.08022660017 0.0145648513 0.8600876331 -0.3384850323 0.2570633888 0.6916980743
0.02277557738 -0.04321466014 0.9120637178 0.8621828556 -0.347068578 0.3598991036
0.02225339413 -0.05281162634 0.9061641097 0.8572192788 -0.1608378589 0.4442654252
0.03044414707 -0.06200908497 0.9208700657 0.5983673334 0.3284742832 0.6665942073
0.0200121142 -0.05319312215 0.9224489331 0.7370368838 -0.01170099899 0.4685081542
0.01816188544 -0.05651312694 0.9328528047 0.6271342039 0.140096128 0.5239194036
0.02193372138 -0.06179389358 0.9366213083 0.5193474293 0.3540156186 0.6343494058
0.03291432559 -0.0592440106 0.9104366899 0.699174881 0.1982405037 0.623529911
0.0169129651 -0.06481147557 0.9524324536 0.3861271441 0.5056740642 0.673627317
0.02501267008 -0.05336530879 0.9132886529 0.7822075486 -0.02472148463 0.4883027077
0.02602605335 -0.06012074277 0.9253641367 0.6062743664 0.264561832 0.6169153452
0.02726531774 -0.06351881474 0.9525428414 0.4610804021 0.4456636608 0.7538685799
0.02164722793 -0.06581205875 0.946285069 0.4035818875 0.5310812593 0.7103454471
0.01653314568 -0.06734986603 0.9587552547 0.3114668131 0.6180710793 0.7204775214
0.02988980524 -0.0630018115 0.9371484518 0.528046608 0.3964488506 0.7240356803
0.0306227766 -0.06252340227 0.9438874125 0.5225810409 0.3883155584 0.7459334731
0.01765762828 -0.0602170974 0.9447539449 0.45026806 0.3018353581 0.6154049635
0.01962772198 -0.04793573171 0.9178701043 0.7584092021 -0.2405789644 0.4116948545
0.02026806958 -0.04968833923 0.9291009307 0.5278762579 -0.170367837 0.5124756694
0.02116885595 -0.04969986901 0.9363692403 0.3448441029 -0.1769052595 0.5829102397
0.02216648124 -0.04430394247 0.925617218 0.453494966 -0.4162505865 0.5036844015
-0.02826633677 -0.0494277142 0.9671396017 -0.1794101149 0.1121850088 0.9679079652
-0.02658519894 -0.03340658173 0.9652719498 -0.2041523755 0.01564292051 0.9713497758
-0.02480886877 -0.0399454236 0.9668461084 -0.1665567458 0.08475119621 0.9690124393
-0.008980195038 -0.05532171577 0.9754348397 0.2059983462 0.5452867746 0.8003031015
0.006030639634 -0.05583938211 0.9696483016 0.2323792428 0.5320102572 0.8071280718
-0.00148499792 -0.05556179583 0.9732500315 0.1986590177 0.5108300447 0.814222455
-0.04138544947 -0.01819170266 0.9639439583 -0.1597928852 -0.06326282024 0.9851213098
-0.04628088698 -0.03321643919 0.9627839923 -0.1597928852 -0.06326282024 0.9851213098
-0.04688189551 -0.02473599277 0.9635989666 -0.1597928852 -0.06326282024 0.9851213098
-0.03752122447 -0.03328663111 0.9575515985 -0.1801736951 -0.05480665714 0.9820263386
-0.04371901602 -0.02887555026 0.9563914537 -0.1648445874 -0.06116682664 0.984354198
-0.03121904843 -0.02633573115 0.9640217423 -0.1955323219 -0.04780189693 0.9788056016
-0.02386309952 -0.03443623707 0.9587904811 -0.1795272231 0.03894227371 0.9798011184
0.03596697003 -0.02192042023 0.938249886 0.5860947371 -0.6716099381 0.277032733
0.03207097948 -0.02695633098 0.9358919263 0.591234684 -0.6622731686 0.2698034644
-0.02996866405 -0.03752101213 0.958678484 -0.2212802321 -0.02989589795 0.9741368294
0.002708204789 -0.05125817657 0.9665357471 0.1434155405 0.4409694076 0.8447114825
-0.008399173617 -0.04599139839 0.9670238495 -0.01029641274 0.2881763279 0.9169232845
-0.01765605249 -0.03690030426 0.9613568187 -0.2112021893 0.08710478991 0.9727653265
-0.02119590715 -0.05209007487 0.9707180858 -0.01313321106 0.3038805127 0.9150796533
-0.01471858006 -0.05182696506 0.9730985761 0.07909578085 0.4017777443 0.8999599814
0.008021158166 -0.06325374544 0.9683823586 0.2478906214 0.5994111896 0.7553851008
-0.01070503984 -0.05395841226 0.9676337838 0.03221650794 0.3772087097 0.8969901204
-0.004785071593 -0.05691123754 0.9654743075 0.09170252085 0.4286945164 0.8589814305
-0.03068840876 -0.04513162002 0.9612067342 -0.2444168627 0.04839805886 0.9681937099
-0.02263613604 -0.04131972045 0.9596040845 -0.2234624326 0.06707786024 0.9711949825
-0.01037320029 -0.0419318676 0.9603979588 -0.09084541351 0.1960887462 0.9379540682
0.009586540982 -0.06034983695 0.9602336884 0.2124724686 0.5181583166 0.778023839
-0.005465036724 -0.04727849364 0.9592527747 -0.0223926194 0.2706605196 0.8948286772
-0.01724681817 -0.04650658369 0.9646546245 -0.1177256554 0.202930674 0.965539217
0.0004194541834 -0.05816407502 0.9619876146 0.1174901724 0.4373677969 0.8337040544
