# .PCD v0.7 - Point Cloud Data file format
VERSION 0.7
FIELDS x y z normal_x normal_y normal_z
SIZE 4 4 4 4 4 4
TYPE F F F F F F
COUNT 1 1 1 1 1 1
WIDTH 512
HEIGHT 1
VIEWPOINT 0 0 0 1 0 0 0
POINTS 512
DATA ascii
-0.09048850089 -0.1351265162 1.111486077 0.2417110056 -0.2225714475 0.9444774985
-0.2165129781 -0.06219469756 1.028185368 0.1145589501 0.3782019317 0.9185939431
-0.09349753708 -0.1401984245 1.104127288 0.2430840135 -0.2267633528 0.9429174662
-0.08337658644 -0.1361618936 1.102936864 0.2503207624 -0.2488575727 0.9346951246
-0.1011687145 -0.1331399381 1.110305071 0.2417110056 -0.2225714475 0.9444774985
-0.1749467254 -0.06198906153 1.085883141 -0.7475659251 -0.3772120476 0.273244679
-0.1704429537 -0.06746470928 1.085962415 -0.7410770655 -0.0770412609 0.2426355034
-0.1726286262 -0.07003851235 1.092452884 -0.2584143579 -0.6137964725 0.4946491122
-0.1789429933 -0.06423851848 1.090534449 -0.2527769208 -0.1894414723 0.3964143395
-0.1881680489 -0.05280765891 1.085326433 -0.4697487652 0.3463295698 0.1889087856
-0.1824133843 -0.06020975858 1.088922143 -0.3088779747 -0.01011789124 0.3311029375
-0.2273163348 -0.04341492802 1.018783808 0.09276353568 0.202373758 0.9735608697
-0.2113460451 -0.04888083786 1.018923163 0.03979563341 0.2723314464 0.9594855905
-0.2223789841 -0.0604130365 1.027467608 0.108321391 0.3599789441 0.9258900881
-0.2197144479 -0.05105182901 1.021683335 0.07807827741 0.2805912793 0.9525370002
-0.2224638313 -0.04638313502 1.019544959 0.0794486925 0.2356569171 0.9654219747
-0.1651950479 -0.06491857022 1.091799259 -0.4766994417 -0.5786520243 0.406963855
-0.1717480719 -0.06406633556 1.091967344 -0.4100832939 -0.6602178812 0.4370391667
-0.1777626425 -0.05654333904 1.08861351 -0.594953537 -0.6432051659 0.3479017317
-0.1986463964 -0.09400283545 1.042606235 0.008357209153 0.4593741894 0.8845934868
-0.2031570524 -0.08975010365 1.038893223 0.052606754 0.4174705744 0.9065296054
-0.1657582521 -0.08823136985 1.068320394 -0.599810183 0.08330826461 0.549230516
-0.1662588567 -0.0966720283 1.058936238 -0.4593424797 0.3043990135 0.7030726671
-0.1679785848 -0.1002619192 1.055069923 -0.3521915972 0.3948051929 0.773417294
-0.07265201956 -0.1317736208 1.103747368 0.2601393461 -0.2788342834 0.9235392809
-0.07917574793 -0.133290261 1.105418801 0.2496407479 -0.2467814237 0.93546772
-0.1335014701 0.03049467318 1.000419617 -0.06081476063 -0.2391532958 0.968249321
-0.128204897 0.02609654143 0.9950090647 -0.08505086601 -0.1968424171 0.9755139947
-0.126177907 0.03088168241 0.9972342849 -0.08591239899 -0.1762684435 0.9797760844
-0.1631776243 -0.0372999087 1.004423261 0.0820422098 0.1373426765 0.9713102579
-0.1748884171 -0.05251889303 1.02168715 -0.002736764494 0.2752548754 0.9528617859
-0.165305078 -0.04100913554 1.008161902 0.05390719697 0.1619472057 0.9709393382
-0.1807775646 -0.0379716754 1.016210318 0.2539473176 0.3551730812 0.8735232949
-0.1687353104 -0.03333268687 1.005480051 0.1926740855 0.2081178129 0.9272419214
-0.1782017052 -0.04306703433 1.01779747 0.1587644666 0.3208206892 0.9042253494
-0.1751038134 -0.03762064502 1.012324691 0.2003426701 0.2850143611 0.9046228528
-0.1705156118 -0.03721013665 1.009101868 0.1587016433 0.2283393592 0.9293724895
-0.1599895358 -0.03191306815 0.9923549294 0.153098911 0.01988534443 0.9849182367
-0.04417891055 -0.1029855981 1.104001999 0.01394929364 0.1498199403 0.9877223372
-0.04808512703 -0.1196155325 1.102347255 0.1629069746 -0.07274538279 0.9808984399
-0.03902213275 -0.10698241 1.102489948 0.05789187551 0.1300556213 0.9845781922
-0.04574804381 -0.1083869264 1.102422237 0.05274729431 0.04291975871 0.9933790565
-0.1166618541 0.03040711023 0.9956902266 -0.1551719904 -0.100792788 0.9825647473
-0.1223933324 0.02484487928 0.9935817122 -0.1274145097 -0.1365270019 0.9813422561
-0.0396111384 -0.1119783744 1.105013132 0.02537419088 0.06839869916 0.9969952703
-0.05213649571 -0.09979037195 1.104938149 -0.003214838682 0.1342127025 0.9895066619
-0.03581961244 -0.08590484411 1.100434661 0.1980766505 0.2056542933 0.9580968618
-0.04140679538 -0.08631262183 1.100379109 0.1630629897 0.2038725317 0.9645938873
-0.03518595546 -0.08124738932 1.097264409 0.2263992131 0.1923007518 0.9542269707
-0.01960469224 -0.02888365835 1.080575228 0.3143905103 0.1891590506 0.9302566648
-0.02353989147 -0.03500456735 1.086673975 0.3143905103 0.1891590506 0.9302566648
-0.02319595031 -0.08681833744 1.09577775 0.2184342593 0.1995681524 0.9544349313
-0.01824319363 -0.07915224135 1.090433598 0.2698139846 0.1821677834 0.9436086416
-0.02889058739 -0.08377073705 1.098753452 0.2166725993 0.1972892433 0.955458045
-0.03066211008 -0.07645886391 1.095187068 0.252500385 0.1815545708 0.9503614306
-0.0984044522 0.01090230606 1.006337285 -0.4104951918 0.08467891812 0.9038609862
-0.1026016921 0.01775363274 1.002804279 -0.3267931938 0.03901503608 0.9416398406
-0.1663520187 -0.05707608908 1.087089896 -0.8860424757 -0.3606681824 0.2144810706
-0.1718778461 -0.05570573732 1.086859107 -0.8097632527 -0.4627629519 0.2486832589
-0.1906120777 -0.08471959084 1.035345316 0.002554665552 0.4012477696 0.9146595597
-0.1340102255 0.01726687141 0.9910871983 -0.06327916682 -0.2323317081 0.9696842432
-0.1360470504 0.02200028114 0.9944939613 -0.04480132088 -0.2592695951 0.963234663
-0.1398075968 0.02498526126 0.9995417595 -0.01109141298 -0.272844404 0.9609258771
-0.1874697804 -0.02853004634 1.014496326 0.5572063923 0.2675662339 0.757355988
-0.1834872663 -0.02669130452 1.010751486 0.5588753819 0.1899562627 0.7661111951
-0.1755832434 -0.02835134976 1.006713867 0.4115065038 0.1626162529 0.8359574676
-0.1820208877 -0.03297571838 1.013823509 0.3619217277 0.3274927735 0.8381319046
-0.1741597056 -0.02334181219 0.9884720445 0.3786053061 0.0227829162 0.9249284863
-0.1657818109 -0.02780325338 0.9888182282 0.2005714476 0.01134269033 0.977406919
-0.03351306543 -0.1033756658 1.101788521 0.06928472221 0.1997026056 0.9767203331
-0.02688194625 -0.09167070687 1.097942472 0.1716764271 0.2116851956 0.9611337185
-0.02833274193 -0.09737605602 1.100883245 0.1514670402 0.2099315375 0.9650551081
-0.126561597 0.02611403912 1.000488639 -0.1040966958 -0.1578772217 0.9683477283
-0.1187388673 0.02634866349 0.9994661212 -0.1718025804 -0.0913169682 0.9675978422
-0.109656252 0.01681481488 1.003607392 -0.2989300787 0.01158138271 0.9392370582
-0.1138315871 0.022645941 1.000893712 -0.2327575386 -0.040164873 0.9564232826
-0.1006188169 0.007522369735 1.010354519 -0.4184941053 0.104101032 0.9000532031
-0.1068408489 0.02991482988 0.9959656 -0.2848221362 0.0533134006 0.95701015
-0.1237405464 0.01868446358 0.9912444353 -0.1403972656 -0.1378078014 0.9784083366
-0.1069665775 0.02314187773 0.9996520281 -0.2640452683 -0.009732243605 0.9606557488
-0.1113461033 0.02467233315 0.9956554174 -0.2474182397 -0.03220777959 0.966211915
-0.1743942946 0.01051543839 0.9941951632 0.2761239707 -0.1033123955 0.9549110532
-0.164127171 -0.02024556324 0.9937971234 0.2451202571 0.02159755491 0.958073616
-0.152913034 0.02076629736 0.9974181652 0.003043270437 -0.3227990866 0.9464462399
-0.1503745615 0.01602754556 0.9956031442 -0.01144193765 -0.3087879121 0.9505966306
-0.1451675892 0.02158113569 0.9971732497 0.001095426152 -0.3107310534 0.950022161
-0.1556005031 0.01429565065 0.9915375113 0.04897571728 -0.2624756992 0.9567200541
-0.150094822 0.01383147109 0.9901566505 0.02572343685 -0.2374486029 0.9634637833
-0.1454262733 0.008881276473 0.9881905317 -0.01351650711 -0.1764767319 0.9794635773
-0.1599560678 0.01152423397 0.9882653356 0.1054511666 -0.1724580824 0.9737556577
-0.2178129852 -0.06670695543 1.032717109 0.09874365479 0.359501183 0.9267356992
-0.05945608765 -0.1206311584 1.100172281 0.2014764398 -0.173491329 0.950696826
-0.06391051412 -0.1261256337 1.098088384 0.2454037666 -0.2583001554 0.9271380901
-0.05378903449 -0.1122132018 1.104771614 0.1695473343 -0.07621493191 0.9783585072
-0.04761198536 -0.1136576608 1.105108857 0.1088833436 -0.009995137341 0.9932102561
-0.01833152398 -0.05109478533 1.090252638 0.3143905103 0.1891590506 0.9302566648
-0.02601258457 -0.07278534025 1.092863917 0.2663520873 0.1790642887 0.9468781352
-0.01544354577 -0.07209463418 1.086474061 0.308460921 0.1714459658 0.9356448054
-0.02460948005 -0.06669530272 1.090625286 0.3021509051 0.1712459326 0.9375912547
-0.01986071281 -0.07064136863 1.090861917 0.2954000533 0.1722230017 0.9394162893
-0.02934319898 -0.06173115969 1.090591311 0.3004521132 0.1848028153 0.9356607795
-0.02583810128 -0.05684326962 1.090484858 0.3122820258 0.1849474907 0.9317660928
-0.02088686638 -0.06447099149 1.086914182 0.3116676211 0.1829426587 0.9323574305
-0.2021489441 -0.06953880191 1.048931003 -0.07758492976 0.5180031061 0.7020187378
-0.2019620538 -0.0740898326 1.053873897 -0.08463445306 0.5522686839 0.6610594392
-0.1997100413 -0.06331247091 1.05460608 -0.1552991122 0.5878471732 0.5830332041
-0.199330464 -0.06790858507 1.060478687 -0.1686050445 0.6307183504 0.5292733908
-0.205728665 -0.07095424831 1.03367722 0.03816127405 0.3710778058 0.9255689979
-0.1961626112 -0.06199998409 1.069803119 -0.270020932 0.7339658737 0.360928148
-0.1963979155 -0.05754588172 1.06472373 -0.261422962 0.6981605291 0.4044181705
-0.1980211139 -0.06045939028 1.059843659 -0.2094332278 0.6446014047 0.4913994074
-0.2008332014 -0.06234838814 1.04855752 -0.1186767071 0.5336511731 0.6620907187
-0.2037298679 -0.07102497667 1.042966485 -0.02665504999 0.4580675364 0.7952929139
-0.2054848969 -0.07831308991 1.041399956 0.02865657397 0.4239531457 0.8631342053
-0.2094182521 -0.08122749627 1.038583159 0.07716295868 0.4000584781 0.9131608009
-0.2127826065 -0.07674711943 1.035878897 0.08347980678 0.4002509117 0.9125710726
-0.2139661014 -0.07170467079 1.033201456 0.09224805981 0.3994948864 0.9120451212
-0.1945013106 -0.06018148735 1.039345145 -0.06559048593 0.4239872396 0.8094781637
-0.1906525493 -0.05421745405 1.064862609 -0.2816384435 0.6897531152 0.4016544223
-0.1900051236 -0.05758331716 1.041961908 -0.09909363091 0.4429151118 0.7699118257
-0.1919175535 -0.0575696528 1.047812104 -0.1408928037 0.5095186234 0.6748764515
-0.1929395646 -0.05372135341 1.074844599 -0.3556601405 0.8014157414 0.2400342673
-0.1933937967 -0.0569104515 1.056365132 -0.2056554705 0.6042151451 0.5366584659
-0.1942651123 -0.05519901216 1.069643736 -0.3101288676 0.7483466864 0.3228580058
-0.1891837567 -0.05830713734 1.034980774 -0.04517276213 0.3664017916 0.8825152516
-0.1975679249 -0.06265510619 1.033193946 -0.007592979819 0.36426422 0.9066110253
-0.2001255006 -0.06272678077 1.040457845 -0.0589867048 0.4473341405 0.7885093689
-0.1861314774 -0.05504001305 1.046113968 -0.1432321817 0.4795666337 0.7053390741
-0.2063922286 -0.0600509122 1.026001215 0.02886922844 0.3653245866 0.92934376
-0.1948132068 -0.0902512148 1.03964901 0.01172894984 0.4425734282 0.8946507573
-0.1939162165 -0.09779473394 1.042019606 -0.02324681543 0.4806408882 0.8749119043
-0.1863768399 -0.08866586536 1.037288547 -0.05010029674 0.4420203865 0.8931328654
-0.1982648671 -0.07068669796 1.028780699 0.03728017583 0.357106179 0.9326448441
-0.1717249453 -0.08361026645 1.067901611 -0.5487892628 0.03970234096 0.5203402042
-0.1704956144 -0.09307530522 1.062872052 -0.3840501904 0.2060519308 0.6545173526
-0.1736204326 -0.08762720972 1.06285274 -0.4379116297 0.1518945247 0.6031068563
-0.1754749119 -0.09960566461 1.052376151 -0.1716352403 0.4210993052 0.8093448281
-0.17730169 -0.09108494967 1.056035757 -0.3077355325 0.2837371826 0.6962469816
-0.1674934775 -0.07945257425 1.075863481 -0.7020126581 -0.1154741049 0.410428673
-0.1729617119 -0.09633950889 1.057653189 -0.2782611251 0.3131508529 0.7316641808
-0.1832985133 -0.08741363883 1.042496085 -0.1342826635 0.3881317675 0.8306549788
-0.1819645017 -0.09087768942 1.049603462 -0.2172665149 0.3678424656 0.7565863729
-0.1803508401 -0.08476251364 1.048443317 -0.2454837561 0.2801249027 0.7496865392
-0.1846765876 -0.09384069592 1.044627428 -0.1186202541 0.470428139 0.8268808722
-0.1785647869 -0.08580391109 1.054553986 -0.3314040899 0.2309125066 0.6793786287
-0.1753204763 -0.0815936178 1.059876084 -0.4447464049 0.104113631 0.6006323695
-0.1722172648 -0.07741783559 1.064826131 -0.5521190763 -0.01808178425 0.5265031457
-0.2227053344 -0.03480632976 1.024383903 0.1283965111 0.1637346894 0.9778901339
-0.2181106508 -0.03826137632 1.025751114 0.1251689047 0.1768175662 0.9733961225
-0.2209432721 -0.02920263447 1.026003957 0.1495820284 0.1387781501 0.9789047837
-0.222194165 -0.03775991872 1.019003749 0.113555111 0.201458469 0.9717606306
-0.2156941742 -0.03469607607 1.019010782 0.1408017129 0.2235510349 0.9625806212
-0.2141082138 -0.02693831176 1.024936676 0.1424999237 0.2032203823 0.9686928391
-0.1968286783 -0.04428523034 1.022064328 -0.001553818816 0.2456547171 0.9676082134
-0.1877797097 -0.04482999817 1.022995472 -0.05172423646 0.2425275147 0.9675158262
-0.1834033728 -0.05239265785 1.027205825 -0.0433771871 0.2844649255 0.9569420815
-0.07423830032 -0.1261213869 1.102316141 0.2455832958 -0.2343937755 0.9400778413
-0.06816580147 -0.1205277145 1.102653623 0.2511684299 -0.2384987026 0.9369814992
-0.06315480173 -0.1121320501 1.1049999 0.1777241677 -0.1153052375 0.9578532577
-0.06850634515 -0.1144306064 1.1049999 0.1982569993 -0.1551105231 0.9527427554
-0.0585102886 -0.1082219332 1.104992628 0.1252382845 -0.03880027682 0.9673066139
-0.1635165662 -0.07612420619 1.081458688 -0.8429399133 -0.2282761782 0.3235029578
-0.15955019 -0.07640212774 1.07691288 -0.8381890059 -0.1739666164 0.3137924075
-0.1612858027 -0.08077529818 1.073387384 -0.7579521537 -0.0746088028 0.3988689184
-0.1594078839 -0.08127437532 1.068276048 -0.7192335129 0.02741173282 0.4266282022
-0.1605211943 -0.08873756975 1.056928158 -0.5407453179 0.2974734902 0.6218593717
-0.157197088 -0.08183404803 1.062183022 -0.6693960428 0.1291021407 0.5043516755
-0.1617507041 -0.09231190383 1.053096294 -0.4664648473 0.4017734528 0.6961146593
-0.1576696485 -0.08889191598 1.049366355 -0.4854502082 0.4131502807 0.7115365863
-0.1588112563 -0.08114486188 1.052295446 -0.5217894316 0.2474948019 0.6291372776
-0.1596170068 -0.07349665463 1.062815905 -0.6412973404 -0.01264125295 0.4661321044
-0.1606021523 -0.07454505563 1.057250261 -0.547899425 0.07852204889 0.5509855747
-0.1586946398 -0.08607754111 1.043993354 -0.4163804352 0.4356875718 0.757262826
-0.1619127691 -0.07885158062 1.044686198 -0.3565832973 0.3143813908 0.7434325814
-0.1568742096 -0.07506711036 1.070355892 -0.797935009 -0.08979812264 0.3525529206
-0.1665113121 -0.06898782402 1.047230363 -0.368086189 0.145847559 0.6884708405
-0.1676202565 -0.06888057292 1.040063143 -0.2553829849 0.2453549802 0.7910941243
-0.1600405425 -0.07027959824 1.067179799 -0.716697216 -0.1138564572 0.3932471573
-0.1638594121 -0.06941412389 1.058792353 -0.5587989092 -0.01027236506 0.5204783082
-0.173904106 -0.06728581339 1.031866193 -0.0747487098 0.3335648477 0.9226575494
-0.1644889861 -0.07361092418 1.042882204 -0.2887862325 0.2619681656 0.7639292479
-0.1657921523 -0.07419404387 1.036956072 -0.1838122755 0.3507351875 0.8540713787
-0.1625458747 -0.07074763626 1.052582383 -0.4770686626 0.09572908282 0.607013464
-0.1824131459 -0.05711653084 1.031000018 -0.03136394545 0.314183861 0.9487165809
-0.1785872281 -0.06259129196 1.031000018 -0.03881745785 0.3273025155 0.9435682297
-0.1753433794 -0.059216097 1.027104855 -0.05462180823 0.3171329498 0.9453597069
-0.1774093509 -0.06169628352 1.037844539 -0.1419932842 0.2479685843 0.853576839
-0.1708051115 -0.06157351658 1.057581782 -0.4614483714 0.03333287314 0.5869734287
-0.1723733842 -0.06299114227 1.050390601 -0.3454107344 0.1141513884 0.6832079291
-0.1698331386 -0.06016402319 1.062996268 -0.5487281084 -0.02816984244 0.5147402287
-0.1654648483 -0.05793952197 1.079916835 -0.8220490813 -0.2162161171 0.2875730097
-0.1755374372 -0.05597306415 1.066785097 -0.5363382101 -0.1765606552 0.4972959459
-0.1771699786 -0.05649479851 1.050452828 -0.3307581842 0.08198358119 0.6925979853
-0.1686362177 -0.05744863302 1.072853088 -0.699685514 -0.1512056887 0.386708647
-0.1747974455 -0.05530111119 1.081637502 -0.7130051255 -0.4260437191 0.3241862357
-0.176130563 -0.05627065897 1.059002995 -0.4409352839 -0.04980511591 0.5892380476
-0.174703598 -0.05586522445 1.072413087 -0.6109280586 -0.2604210079 0.4283570945
-0.1792742759 -0.05632711574 1.043774247 -0.2268418074 0.1599969417 0.7811409235
-0.1799777299 -0.05412695557 1.078221083 -0.6031486988 -0.4652923346 0.3942709565
-0.1830931157 -0.05302097276 1.083006859 -0.6137378216 -0.6103696227 0.3587519526
-0.1811329424 -0.05622330308 1.037117481 -0.1265642196 0.2423599213 0.8679516912
-0.1852701753 -0.05369437858 1.063073397 -0.3450430334 0.01779859141 0.5414069295
-0.1847816259 -0.05428190902 1.054919481 -0.2637419999 0.1030056328 0.6434423327
-0.1872784197 -0.05242381617 1.077654123 -0.4603341222 0.1426746994 0.3120429516
-0.1873188615 -0.05285647139 1.070365906 -0.3750120103 0.3354226649 0.3835186958
-0.1797970086 -0.05955256149 1.065185428 -0.4263076484 -0.2739848197 0.5575838685
-0.1763010472 -0.06107899919 1.079587579 -0.6564278603 -0.4480218589 0.3772793412
-0.1662279218 -0.07041796297 1.080134034 -0.7994727492 -0.2851050198 0.3328555822
-0.178065747 -0.06211722642 1.057325959 -0.3498969376 -0.11695005 0.6422211528
-0.1732112467 -0.06460493058 1.074273825 -0.6307006478 -0.3091213107 0.4272452891
-0.1797796786 -0.0586691536 1.072641611 -0.5212230682 -0.3946560323 0.4710150361
-0.1715906709 -0.06877806783 1.052226067 -0.3726266325 0.07621191442 0.6769070029
-0.1680542231 -0.06939994544 1.07443881 -0.7024755478 -0.2238516808 0.4058343768
-0.1681593806 -0.07008785754 1.067923427 -0.618319869 -0.119940944 0.4818206728
-0.1729650497 -0.06573371589 1.066823125 -0.5394152999 -0.1840447932 0.5127543211
-0.1712647378 -0.06570740044 1.080199361 -0.7322462201 -0.3720604777 0.3511404693
-0.1743483841 -0.06510926038 1.06129384 -0.4505113363 -0.1179302931 0.5821325183
-0.1729931682 -0.07058365643 1.044883013 -0.2733294666 0.1840561032 0.7641763091
-0.1694880277 -0.07075867057 1.059994459 -0.5052067041 -0.008553094231 0.5774512887
-0.1748241633 -0.07185399532 1.036083937 -0.1479553282 0.306453228 0.8704069257
-0.1345641911 0.01172833424 0.9882387519 -0.07200391591 -0.2051858902 0.9757688046
-0.1308780611 0.01249551121 0.9979403019 -0.1521881819 -0.1395733654 0.9681750536
-0.1273006648 0.006218797993 0.9969907403 -0.2202765793 -0.08160917461 0.9679167271
-0.1339077055 0.01927856728 0.9991443753 -0.08475645632 -0.1939727217 0.9691578746
-0.138911292 0.01666746475 0.9973684549 -0.06534837931 -0.2338266075 0.963588357
-0.1821240038 -0.04691416025 1.022525549 0.1120623052 0.3443721831 0.9072838426
-0.1754737347 -0.0407794416 1.004636407 0.3007949591 0.252096951 0.8806544542
-0.177676782 -0.03464535251 0.9983106256 0.4669029713 0.285399586 0.8049408793
-0.1766568124 -0.0472340472 1.013614416 0.1699918807 0.28202793 0.9009213448
-0.1781589985 -0.0431335941 1.009405375 0.2814006805 0.3048371673 0.8498085737
-0.1705301553 -0.03935125843 0.9990794659 0.2109288573 0.1086304039 0.9448812604
-0.1675996184 -0.03541690111 0.9918836355 0.2296447605 0.02168800496 0.9640693069
-0.1725527942 -0.03203492239 0.9916394353 0.4298640788 0.1627714932 0.8757276535
-0.1712388843 -0.02517584898 1.001332521 0.3675900102 0.08473131061 0.876565814
-0.1776676625 -0.01696849056 0.9987854362 0.4738104045 0.03486022726 0.8644271493
-0.1812312752 -0.02358794585 1.006777287 0.5413861275 0.1306098402 0.7922405601
-0.1618651003 -0.02753845416 0.9969598651 0.20523265 0.05133786425 0.9505543113
-0.1712211072 -0.0211436823 0.9979255795 0.3641392589 0.04007124901 0.9003637433
-0.04672894999 -0.0971955955 1.103030682 0.02777690999 0.1846032143 0.9817631841
-0.03987398744 -0.09868066013 1.101596713 0.06695076078 0.1736015975 0.9793457985
-0.03656804934 -0.09257269651 1.101096034 0.1264043301 0.2173178047 0.9665156007
-0.04311468452 -0.09253104776 1.101580977 0.09289525449 0.2062336355 0.9728215337
-0.1086166278 0.01585895941 0.9966000915 -0.3523719907 0.08195260912 0.9302328825
-0.1493114084 -0.0247250367 0.987772882 -0.01621608809 0.05521107092 0.9962658882
-0.1541890949 -0.02965035476 0.9901247025 0.05856877938 0.04969282448 0.9937983155
-0.1712702215 -0.003268799279 0.9885687232 0.2750018835 -0.03779551759 0.9552359581
-0.1656562239 -0.003410996404 0.9882207513 0.1819901764 -0.04813285917 0.9805846214
-0.1764381975 0.006698322482 0.988912642 0.3094560802 -0.06574104726 0.947229147
-0.1617776901 0.01361165754 0.9944094419 0.09714724123 -0.251365304 0.9492917061
-0.1578870267 0.01775122806 0.9962309599 0.04687667266 -0.289074719 0.9477095008
-0.1679285169 0.01462839451 0.9954335093 0.1796244085 -0.1731725335 0.9550572634
-0.05382539704 -0.1240545511 1.102040887 0.2056764364 -0.1523839384 0.9610337615
-0.06637297571 -0.1303918511 1.100786567 0.2640565336 -0.2933399677 0.9175601602
-0.07196828723 -0.1228748336 1.108581185 0.2449009717 -0.2096521109 0.9465293884
-0.07730442286 -0.1262797117 1.110753298 0.2436646968 -0.2149141133 0.9456644058
-0.05998663977 -0.1170722321 1.104964733 0.2398837805 -0.179549545 0.9534896612
-0.06728067249 -0.1278344095 1.106893659 0.250002414 -0.221560806 0.9416338205
-0.08503863215 -0.132251814 1.113140345 0.2421215177 -0.2209922075 0.9447187781
-0.02682209387 -0.04098610207 1.09034276 0.3143905103 0.1891590506 0.9302566648
-0.1795344949 -0.08520846814 1.035387754 -0.08982299268 0.4449059069 0.8895440698
-0.2165822685 -0.04497489706 1.025813341 0.108626388 0.2137176245 0.9672724009
-0.2180901915 -0.05501065776 1.028208733 0.1003610566 0.2871069908 0.951289773
-0.2078893483 -0.04342259467 1.022910714 0.08784651756 0.1769797802 0.9791092277
-0.2124987245 -0.03883557394 1.023331523 0.1049913317 0.1598365754 0.9805352092
-0.204143241 -0.04885589704 1.02334094 0.06358613074 0.2198809087 0.9690081477
-0.2108867913 -0.05467383936 1.022198081 0.05279621854 0.3238013983 0.9428690672
-0.1995329857 -0.0614002198 1.023848772 0.02044895478 0.3221835792 0.9460911155
-0.1958398819 -0.06434185803 1.026528478 0.001162854256 0.3415128291 0.939612627
-0.2038690895 -0.05577802658 1.022382379 0.01147545129 0.3113517761 0.9500719309
-0.2013940811 -0.08216258883 1.035154462 0.04989502206 0.3850486279 0.9211566448
-0.2007074058 -0.07580607384 1.032360911 0.05186007172 0.3816787302 0.9218526483
-0.1637979299 -0.09846869856 1.049963951 -0.364353627 0.4708318114 0.7979730964
-0.1775244027 -0.101571098 1.046625137 -0.09596022964 0.493604362 0.8641837239
-0.1840097159 -0.1027567387 1.04712975 -0.07225333154 0.4975224435 0.8638705611
-0.1906978041 -0.1015651375 1.044556379 -0.0498540774 0.5033000112 0.8624554873
-0.1784255207 -0.09333775192 1.039493442 -0.1208503023 0.4740405381 0.8716843128
-0.2163619101 -0.04074954242 1.018681288 0.118884325 0.1889163554 0.9735744596
-0.2233247161 -0.04174212366 1.025007725 0.1162054837 0.1967232376 0.9723923802
-0.2240289599 -0.05273469537 1.026559234 0.09982957691 0.2475584298 0.9632905126
-0.08463958651 -0.1266821176 1.105720997 0.2419524044 -0.2233084738 0.944203198
-0.07795795053 -0.1343455464 1.098880291 0.2621853948 -0.2850809693 0.9212145805
-0.1026844829 -0.1360507905 1.105043054 0.2417110056 -0.2225714475 0.9444774985
-0.09487693012 -0.1327660829 1.105382085 0.2417110056 -0.2225714475 0.9444774985
-0.09082505107 -0.1289580762 1.106111526 0.2417110056 -0.2225714475 0.9444774985
-0.07730062306 -0.1202912182 1.106390715 0.2417110056 -0.2225714475 0.9444774985
-0.08381538093 -0.1240096688 1.110907674 0.2417110056 -0.2225714475 0.9444774985
-0.08805131167 -0.1269394308 1.113571882 0.2417110056 -0.2225714475 0.9444774985
-0.09510337561 -0.1294178963 1.112740159 0.2417110056 -0.2225714475 0.9444774985
-0.1605788618 -0.05880619213 1.089954972 -0.8364900947 -0.3544628322 0.2394659072
-0.1615644246 -0.06598197669 1.087781072 -0.6576721072 -0.4612004161 0.3287766874
-0.1641279161 -0.07125002891 1.08754003 -0.678499341 -0.4610047638 0.3441387713
-0.158365503 -0.06963352114 1.08257699 -0.9299708605 -0.2939484417 0.218401581
-0.1586010009 -0.07001764327 1.074807286 -0.8359566331 -0.2137799412 0.2871350944
-0.1643692553 -0.06111245975 1.075803757 -0.7673760056 -0.1737355292 0.3350976408
-0.1589002162 -0.06482154876 1.079936743 -0.8715957999 -0.2386102974 0.2572453618
-0.1679288 -0.06570751965 1.055121183 -0.4465519488 0.0501880385 0.6046597362
-0.1642352492 -0.06352432817 1.069947004 -0.6861541271 -0.1151573882 0.4056735337
-0.1738352925 -0.06474281102 1.04285109 -0.2242297083 0.1990862787 0.7837101221
-0.1292845905 -0.01035778131 0.9939460754 -0.2459684461 0.02812164091 0.9647210836
-0.1109606475 -0.005372927058 1.002566457 -0.4138599932 0.09547036886 0.9019029737
-0.1217205822 -0.005091386847 0.9970482588 -0.320156306 0.01863369904 0.9433855414
-0.1863899231 -0.0802777335 1.033355951 -0.01962574944 0.3877330422 0.9201660156
-0.1921354085 -0.0735167712 1.029348493 0.02122506313 0.347512424 0.9368987083
-0.193239361 -0.07908860594 1.032612681 0.008808501996 0.3744610548 0.9264780283
-0.1775617152 -0.07530217618 1.031965256 -0.07761558145 0.3778540492 0.9207826257
-0.1759906411 -0.07461763173 1.040868282 -0.2060918212 0.2552895546 0.8128929734
-0.172174111 -0.07414917648 1.049901605 -0.36374107 0.1428671926 0.6979260445
-0.1798960119 -0.07481259853 1.045215487 -0.2101460546 0.1832614392 0.7714685798
-0.1813982427 -0.08134547621 1.042931437 -0.1775803119 0.288544476 0.807133019
-0.1769860238 -0.07955759764 1.053446889 -0.35797894 0.1422453225 0.6723418832
-0.1747566611 -0.07501885295 1.057964683 -0.4314221442 0.03428395092 0.6105123758
-0.187247172 -0.07047431171 1.053576112 -0.187776655 0.5917376876 0.5986343026
-0.1863364726 -0.07079484314 1.041755557 -0.06687286496 0.4479701221 0.7806302309
-0.1856482029 -0.07581252605 1.037759542 -0.04321144149 0.4170716405 0.8518491387
-0.1869986504 -0.06839735061 1.048112631 -0.1240940541 0.5172643065 0.6783593893
-0.1908097863 -0.05914005265 1.072469473 -0.3320159912 0.778660655 0.2880656123
-0.1889456064 -0.06814286113 1.059083104 -0.2268117517 0.6474996209 0.5110113621
-0.1920538694 -0.06442005932 1.064787149 -0.2517715991 0.6967598796 0.4193357825
-0.187680319 -0.07466044277 1.049398065 -0.1499804556 0.5523661375 0.6724315882
-0.1910278052 -0.08114442229 1.040095091 -0.03700161725 0.4479153454 0.8340363503
-0.1914932877 -0.07787578553 1.044940114 -0.07687459886 0.4959857464 0.7530452013
-0.1951467246 -0.07568841428 1.049114943 -0.08532584459 0.5269154906 0.6962500811
-0.2027005553 -0.08341109753 1.041556835 0.03844593465 0.4226535857 0.8737817407
-0.1972634196 -0.08139757067 1.041585922 -0.001083465293 0.4428498149 0.8348804116
-0.1977601647 -0.06591171026 1.065501213 -0.2165296078 0.6834455729 0.4455634654
-0.197104305 -0.07225237042 1.055455804 -0.1292626411 0.5840222239 0.6059324145
-0.1920869648 -0.05362536758 1.081078053 -0.4001627266 0.86210531 0.1496068239
-0.2029927969 -0.07862120122 1.049031734 -0.02790313214 0.4973510206 0.7530677319
-0.1261657923 -0.00115416781 0.9957119823 -0.2617263794 -0.03199858218 0.9635865688
-0.1402537823 0.009547673166 0.9949322343 -0.08241983503 -0.2024868578 0.9683917761
-0.1401845813 0.003639179049 0.994025588 -0.1053834409 -0.1606389284 0.9748999476
-0.1322712749 0.003698533168 0.9946286082 -0.1654800177 -0.08639853448 0.9798697233
-0.139454633 0.00523461448 0.9877922535 -0.0802564919 -0.1427455842 0.9861148
-0.1780820191 -0.02908186242 0.9930896163 0.5285625458 0.2432578504 0.7938923836
-0.1182061881 0.0181720946 0.9938736558 -0.1976746619 -0.07673806697 0.9745739102
-0.1604784429 -0.0008411192684 0.9880850911 0.1188101172 -0.09430579096 0.9849372506
-0.1656104624 0.005133418366 0.9885613322 0.1887696534 -0.131469667 0.9728910327
-0.1655442119 0.01099034119 0.9884751439 0.15604119 -0.1659952402 0.97169137
-0.1595478952 0.005197834689 0.9888297319 0.05595130473 -0.1542945653 0.9812520742
-0.1716794074 0.009363573045 0.9876434803 0.2272927314 -0.1110849306 0.9665144682
-0.1718356311 0.003392719897 0.9885900617 0.2500546575 -0.06277728826 0.9628736973
-0.1555767953 -0.01283664815 0.9920000434 0.1165370792 -0.00188500795 0.9658141732
-0.1422573626 -0.006263902877 0.9886188507 -0.1120424941 -0.06608597934 0.9904356599
-0.1353673786 -0.008808664046 0.9935980439 -0.1598874331 -0.0318310298 0.9854120612
-0.1546758413 -0.01635285839 0.9870910645 0.02947594039 0.02747333795 0.9989822507
-0.1666110307 -0.01480419654 0.9925383925 0.2907223701 0.01451759413 0.950289011
-0.157624051 -0.02393585443 0.993917942 0.1370781213 0.02842890657 0.9801355004
-0.1587373465 -0.01811240055 0.9929421544 0.1614714563 0.01505198609 0.9687398076
-0.1515256464 -0.01936518215 0.9930071235 0.04511756077 0.01112740021 0.9827234745
-0.1516366303 -0.005780553911 0.9876817465 -0.009004587308 -0.06582339108 0.9961502552
-0.147880733 -0.01065263059 0.9878752828 -0.03994870186 -0.03238169476 0.9969132543
-0.140203014 -0.02222210355 0.9862518907 -0.1113587916 0.08237172663 0.9896629453
-0.1470396668 -0.01683535241 0.9872546792 -0.04191457108 0.0274253618 0.9968009591
-0.1557210833 0.001025319449 0.9919999838 0.06325833499 -0.1140520871 0.9768452048
-0.14706783 -0.005821644329 0.9919999838 -0.0539935641 -0.07389231771 0.9876353741
-0.143451333 -0.01158165745 0.9920000434 -0.08978212625 -0.03249252588 0.9903377891
-0.1484613419 0.001406686264 0.9923174381 -0.04731919616 -0.1266123056 0.9860107899
-0.1389811784 -0.003018906107 0.9936042428 -0.1260694712 -0.08534128964 0.9847263694
-0.1531879455 0.00458602095 0.9886546135 -0.01587257907 -0.1574839056 0.9857457876
-0.1465982497 0.01104320027 0.9935269356 -0.04558046907 -0.2368067205 0.9691647291
-0.1756166369 -0.01575388759 0.990760088 0.4327286184 0.02491028793 0.8937889934
-0.1843533665 -0.01380470954 0.9967112541 0.5843955874 0.06770551205 0.7909662127
-0.1708277464 -0.01099913567 0.9927373528 0.3630926013 0.005779937841 0.930585146
-0.1782507598 -0.009718372487 0.9995351434 0.4960006177 0.0353727974 0.8561759591
-0.1783426255 -0.004120825324 0.9917812347 0.4305723906 -0.01115757227 0.8900787234
-0.1754823774 -0.008589327335 0.9896233678 0.3826154768 -0.006555553526 0.9185755849
-0.1694064438 0.006909569725 0.9927647114 0.2609767914 -0.1444165409 0.9499067664
-0.1584347934 0.008621162735 0.9938684702 0.08691059798 -0.2138892263 0.9495372772
-0.1652449667 0.002883520909 0.9946944714 0.2323729843 -0.1262561083 0.9278388023
-0.1705478281 0.0004686737957 0.9950256944 0.3335577846 -0.08670026809 0.9152068496
-0.01608748548 -0.04409049824 1.088141203 0.3143905103 0.1891590506 0.9302566648
-0.0209254995 -0.04146756232 1.089867949 0.3143905103 0.1891590506 0.9302566648
-0.01966354623 -0.04200315475 1.084230423 0.3143905103 0.1891590506 0.9302566648
-0.0239000842 -0.05060950667 1.088661075 0.3143905103 0.1891590506 0.9302566648
-0.1888232082 -0.05566429347 1.028068066 -0.02976721525 0.3111870885 0.9497482777
-0.2048912346 -0.06477679312 1.029832959 0.02357363515 0.3662079573 0.9301065803
-0.1976146847 -0.05053674802 1.023783088 0.01316158101 0.2481465042 0.9646479487
-0.1923727542 -0.05359251425 1.022963047 0.000227547338 0.30659464 0.9399098754
-0.1868453473 -0.05339059606 1.022424459 0.01810756698 0.3054881394 0.9340569973
-0.1831410527 -0.04090382904 1.007430196 0.3344132304 0.3209217787 0.8225380778
-0.1805917472 -0.05396366119 1.022764683 0.01858841628 0.3031865954 0.9344174266
-0.1837286353 -0.04488134384 1.012174368 0.2350407541 0.3158586323 0.8576224446
-0.189656347 -0.04925339669 1.017675161 0.1134796441 0.3116033077 0.9000988007
-0.1869953126 -0.03772388771 1.003613353 0.4011548758 0.3234248459 0.8024947047
-0.195709601 -0.05011443421 1.018594503 0.07380069047 0.3076322973 0.9200564623
-0.1938649118 -0.04462781549 1.01183629 0.2116926312 0.312757194 0.8738362789
-0.1623926312 -0.09477072954 1.045712709 -0.2952539921 0.4899988472 0.8031747341
-0.1701198965 -0.09745132923 1.0439713 -0.1276621372 0.4921357036 0.8608704805
-0.1677025557 -0.09283026308 1.041682124 -0.1287974119 0.4859040976 0.8642129302
-0.1723816693 -0.08613619953 1.036202431 -0.1294948757 0.468624413 0.873847723
-0.1653074324 -0.08631622046 1.038800955 -0.1632501036 0.4725513756 0.8605370522
-0.2026173472 -0.04153328016 1.022000194 0.0802385062 0.1813320965 0.9795410037
-0.1941175163 -0.03744781762 1.006822348 0.3519635797 0.2389605343 0.8556473851
-0.2053798437 -0.0405022949 1.013480544 0.221450448 0.201247409 0.9230751395
-0.2043186426 -0.03489154577 1.015769362 0.2188823372 0.2417656481 0.9279008508
-0.2099072933 -0.03966033086 1.017586946 0.1581171006 0.1990304887 0.957231462
-0.1977544278 -0.03438028693 1.009461522 0.3282800019 0.2633089423 0.8701060414
-0.1998998672 -0.04588120058 1.013524413 0.1565962732 0.2962253094 0.9051517844
-0.1979212016 -0.0401022397 1.01064539 0.2682191133 0.2140470296 0.8950892687
-0.203381747 -0.04853752255 1.016834736 0.07917922735 0.287242651 0.9368439913
-0.2090655863 -0.03149076551 1.023438454 0.1311671585 0.1900217235 0.9701371789
-0.2006639093 -0.02162604406 1.01951313 0.3891101778 0.2645752132 0.8593064547
-0.1580575854 -0.06154455617 1.086058974 -0.9370216131 -0.2868923247 0.1990414113
-0.1316904128 -0.01533651073 0.9930669665 -0.2174936533 0.0567384176 0.9688240886
-0.1248568594 -0.01388238743 0.993974328 -0.3197682202 0.07832238078 0.9355195165
-0.1384268999 -0.02188451402 0.9921007156 -0.1208380982 0.05251150578 0.9866423011
-0.1511962116 -0.02682488598 0.9942313433 0.0348932445 0.0328159593 0.9938214421
-0.144528687 -0.02233684622 0.9931409955 -0.05295303836 0.02820433304 0.9911753535
-0.1056273282 -0.003906133818 1.005776286 -0.443895638 0.1219513491 0.8874058723
-0.1321189255 0.006213171408 0.9873971343 -0.1296135336 -0.1298994273 0.9825114012
-0.1196311191 0.0129192872 0.99271065 -0.201571092 -0.06655427814 0.9747778773
-0.182722643 -0.06427212805 1.027384281 -0.02292868309 0.3297748268 0.9434474111
-0.1903513074 -0.06764166057 1.027956247 0.004525575787 0.334767282 0.9418136477
-0.1944259256 -0.05836030468 1.025528193 -0.02442866564 0.3212433159 0.9463753104
-0.1887479126 -0.06229298189 1.027530432 -0.02284321748 0.3323141336 0.9427732229
-0.1627097577 -0.02068783902 0.9881443977 0.1402920634 0.02890945412 0.9888631105
-0.1555652171 -0.02322619781 0.9881085753 0.06075467169 0.0566216521 0.9963892102
-0.16882433 -0.02093788795 0.9882085919 0.2587997019 0.02149529755 0.9587940574
-0.166400075 -0.009740112349 0.9882058501 0.2225654423 -0.0210512504 0.9688152671
-0.1610250026 -0.01316697709 0.9873965979 0.1153106391 -0.00133892661 0.9907252789
-0.1596482843 -0.006929325406 0.9876078963 0.09835392982 -0.04246519879 0.9916668534
-0.1824834645 -0.01396346465 1.003287792 0.5827376842 0.1000149399 0.7871491313
-0.1866745204 -0.0172961615 1.005675673 0.6781225204 0.1636058241 0.7114955187
-0.176061362 0.003440145636 0.994820118 0.3910594881 -0.07983305305 0.9132022262
-0.1798591763 0.007599621546 0.997241199 0.3967722356 -0.04068366066 0.8993601203
-0.1859871149 0.004554423504 0.9987228513 0.4938166738 -0.005216966383 0.8543431759
-0.1848766953 -0.002937595593 0.9981358051 0.5721279979 0.01607156359 0.8145406246
-0.0158672072 -0.06148424372 1.088277936 0.3131683171 0.1855080873 0.9313672781
-0.02057847194 -0.05618586019 1.086981297 0.3143905103 0.1891590506 0.9302566648
-0.2008992434 -0.02876608074 1.022798657 0.1932319999 0.2754960954 0.9378765821
-0.202264443 -0.03482446447 1.022114515 0.09134220332 0.201628983 0.9736521244
-0.1946003735 -0.02339713834 1.017456889 0.4953836203 0.2640024424 0.8246779442
-0.2054058462 -0.02527739294 1.024398088 0.1893683076 0.2616266012 0.9460023046
-0.194432348 -0.02815934271 1.020080805 0.3522347212 0.3374521136 0.8657438159
-0.1916118711 -0.04048855603 1.022449374 0.01745915227 0.2483899891 0.9615135193
-0.19689399 -0.03651255742 1.022095203 0.08950009197 0.2488877326 0.9620324969
-0.1910194457 -0.03368718177 1.020475388 0.2611992955 0.3630372584 0.8774433136
-0.1172493026 3.711858881e-05 1.001255989 -0.3343404233 0.026592765 0.9338980317
-0.122835964 0.003403413342 0.9984350801 -0.271563828 -0.03184470162 0.9572089314
-0.1164656207 0.01623199508 1.004992127 -0.2458467633 -0.04234820604 0.9343562722
-0.1213250384 0.0203182362 1.003139496 -0.1802578866 -0.09671800584 0.9495996237
-0.1070191339 0.011600798 1.006502032 -0.3529425561 0.05164177716 0.918525815
-0.119878158 0.007221139502 1.001805305 -0.2740131021 -0.02866776846 0.9438518882
-0.1076532826 0.003537573153 1.008132458 -0.3977356553 0.0786639452 0.9029893875
-0.1120539829 0.007197063416 1.006936073 -0.3385406733 0.02909166552 0.9142795205
-0.1325968057 0.02464324795 1.00151968 -0.0599315539 -0.2040183991 0.9664503336
-0.1221267134 0.01302158926 1.003015399 -0.2190776914 -0.0724164024 0.9438607097
-0.1282215118 0.01801321097 1.001322985 -0.1375764459 -0.140712887 0.9596093893
-0.09923959523 0.002508068923 1.012788177 -0.4531785548 0.1264984906 0.8823769093
-0.1561026722 -0.03283566609 0.9969912767 0.07856948674 0.06282988936 0.9905661345
-0.1672985405 -0.04556103051 1.012342095 0.01746484265 0.1898843497 0.9706622362
-0.1648799926 -0.04234540462 1.000059247 0.1158201918 0.09928267449 0.9627514482
-0.1658551693 -0.06031183898 1.01959765 -0.0723169148 0.2978226244 0.9378643036
-0.1577282399 -0.03709620982 1.000312805 0.05784499645 0.09775146097 0.9820655584
-0.160743773 -0.04683895037 1.008749008 -0.003276725765 0.184962973 0.9642087817
-0.1666836292 -0.05098225549 1.008292794 0.04733374342 0.1837467104 0.9484466314
-0.1714435518 -0.05041868985 1.012739182 0.04478082061 0.2012612522 0.9548247457
-0.1703752875 -0.06162916869 1.023802519 -0.07573501766 0.321236372 0.9383128881
-0.167374 -0.05630345643 1.014612556 -0.01012701076 0.2452851832 0.9417102337
-0.1711664498 -0.04507124424 1.006579876 0.1041405946 0.1397828758 0.9617039561
-0.1716410816 -0.07608875632 1.030545473 -0.1200888827 0.4147138 0.8997917175
-0.1677714586 -0.06822881848 1.026217341 -0.1178271621 0.3671925962 0.9216983318
-0.1696360707 -0.08098118752 1.033750892 -0.1269047856 0.4489854574 0.8831261396
-0.1827044487 -0.07059719414 1.027912378 -0.02445472591 0.3457758427 0.9354894161
-0.1759604812 -0.06634294242 1.026197433 -0.05297929421 0.339735508 0.9372546673
-0.1225721762 -0.01111607254 0.9890403152 -0.3545269072 0.04900590703 0.9297794104
-0.1272047311 0.00371223921 0.9876195192 -0.1959450543 -0.09107993543 0.9666034579
-0.1209258214 -0.00429770723 0.9915027022 -0.3560471237 0.03941036016 0.9181337357
-0.1219875216 0.001560666366 0.9915754199 -0.3085432947 -0.004778926726 0.9268664122
-0.1263408363 -0.01529894676 0.988702178 -0.307136029 0.06687323749 0.9432836771
-0.1359797269 -0.01126579288 0.9880618453 -0.178001225 0.002082431689 0.9775724411
-0.1352826208 -0.01948448084 0.9867483377 -0.1766110212 0.07667967677 0.9755845666
-0.1334190369 0.0001944862743 0.9880611897 -0.1592237651 -0.0862108916 0.9801639318
-0.1256058216 -0.006041549146 0.9884046316 -0.2835993469 -0.00670794677 0.9477129579
-0.1152613014 0.0077276472 0.9941890836 -0.3454358876 0.02800001577 0.9173718691
-0.1238337979 0.009680156596 0.9894943237 -0.2022061795 -0.07970210165 0.9635385871
-0.1099079847 0.004527586512 0.9973965287 -0.4546075165 0.1057881638 0.8808559775
-0.1150810048 0.002297244035 0.9950475097 -0.401494503 0.06640120596 0.8975306153
-0.09759743512 0.02419101074 0.9951720834 -0.3122852743 0.02863944508 0.9485524297
-0.1050646305 0.00184900302 1.000122547 -0.4412786365 0.1289088726 0.8859399557
-0.1029080078 0.008680818602 0.9985599518 -0.40358603 0.09808512032 0.9043477178
-0.1009219214 0.006074629258 1.004094958 -0.4421429336 0.09504274279 0.8902588487
-0.09926147759 0.01614991575 0.9977599382 -0.3564445376 0.06215827167 0.9272805452
-0.188112393 -0.06097473577 1.061916709 -0.24560754 0.6614349484 0.4522283077
-0.1796614081 -0.06781350821 1.034087181 -0.04150684923 0.3648546338 0.8964921236
-0.1821199954 -0.06108901277 1.050301313 -0.1779838353 0.5369237065 0.6339752674
-0.1856749803 -0.06130424514 1.056706905 -0.2134930044 0.6056621075 0.5341201425
-0.1816183627 -0.06497906893 1.042675972 -0.1091366336 0.4561944604 0.7584103942
-0.1794195473 -0.004192008171 0.9979325533 0.5107499957 0.012063534 0.8537427783
-0.1900645643 -0.02297944389 1.013359785 0.6405472159 0.2098039538 0.7342941761
-0.1871074438 -0.008312206715 1.003609538 0.6338481307 0.08168280125 0.7641745806
-0.1902880222 -0.01664600708 1.010552049 0.6121031642 0.1826384813 0.7601668835
-0.192186743 -0.010405913 1.010225177 0.5526676774 0.1887117177 0.8024190664
-0.1905317158 0.001503224252 1.001801729 0.6088298559 0.05750299245 0.7891055942
-0.2048432976 -0.0287018586 1.018941283 0.2028184235 0.2512754798 0.9394940734
-0.2006227821 -0.02465004474 1.014520168 0.3474121988 0.2136853486 0.8700671196
-0.2026818544 -0.01882470213 1.013626575 0.403383702 0.1378623545 0.8519085646
-0.1971494853 -0.01499950141 1.008116126 0.5314984322 0.1068190783 0.7940867543
-0.1932545304 -0.0123679135 1.005067825 0.6114179492 0.1003203094 0.7611404657
-0.2062588185 -0.02220891416 1.01898551 0.3128383756 0.1917220652 0.8934258223
-0.195817709 -0.01789696142 1.01431191 0.5300998092 0.2408470511 0.7974221706
-0.1917475611 -0.003959669732 1.00526917 0.595980525 0.1133593395 0.7867293954
-0.1865677685 -0.01857684739 0.9995233417 0.6575220227 0.1609950513 0.7308746576
-0.1900672913 -0.02930095792 1.004371524 0.4605963528 0.2879230082 0.8044170737
-0.1958183199 -0.0280347243 1.009997368 0.3876933455 0.2541844845 0.8453071117
-0.1997361183 -0.03056719527 1.014119864 0.2792634964 0.2697785497 0.899027288
-0.1895332634 -0.02374282293 1.003364563 0.5656074286 0.2265631706 0.75738132
-0.193513006 -0.02003719285 1.007016063 0.5641322732 0.1710657775 0.7641226053
-0.1849758625 -0.02885087207 0.9992567897 0.5523322225 0.2999398112 0.7562478781
-0.1830246449 -0.02326541021 0.9963524938 0.6198205352 0.2164900452 0.7505691051
-0.1135350689 -0.007350970991 0.996291995 -0.4364411831 0.1369329542 0.8876334429
-0.1097662598 -0.002745627891 0.9976070523 -0.4619604051 0.159866631 0.8719417453
