# .PCD v0.7 - Point Cloud Data file format
VERSION 0.7
FIELDS x y z normal_x normal_y normal_z
SIZE 4 4 4 4 4 4
TYPE F F F F F F
COUNT 1 1 1 1 1 1
WIDTH 512
HEIGHT 1
VIEWPOINT 0 0 0 1 0 0 0
POINTS 512
DATA ascii
0.03932779282 0.02978620678 0.9156824946 0.5018382072 0.3021681607 0.810464561
0.04270562157 0.02218867466 0.9157546163 0.5096729994 0.2942766547 0.808263123
0.1503676921 0.08379021287 0.8627117872 -0.1710640341 -0.6039894819 0.7763592601
0.1410341561 0.08774874359 0.8574884534 -0.004493097309 -0.5396351218 0.8354693055
0.1400170773 0.07781383395 0.8516275287 0.02445936389 -0.4563203156 0.8807896376
0.1390601248 0.08279494196 0.8542331457 0.04358525574 -0.4485626221 0.885969162
0.1740090996 0.07980746776 0.8704015613 -0.3009506464 -0.5935468078 0.746394217
0.1549134254 -0.03964914382 0.8919578195 0.1546512544 0.5746146441 0.803366065
0.1687488705 -0.03996303678 0.8916640282 0.03963696212 0.6227216721 0.7756845355
0.07927197963 -0.04758603498 0.966344893 0.006646416616 -0.09116502106 0.9592131376
0.06868644059 -0.04896438867 0.9636598229 0.005609394982 0.2417227477 0.9468980432
0.07277851552 -0.04776880145 0.959872365 0.007086059079 -0.2322919965 0.9644341469
0.0815057829 -0.04940029979 0.959000051 0.004489634652 -0.257452935 0.9662399292
0.086923711 -0.05191066116 0.959000051 0.00266052736 -0.2554441094 0.9667619467
0.09446381778 -0.04915562272 0.9626926184 0.005345772486 -0.2583931684 0.9659956098
0.0999340862 -0.04904782027 0.9590136409 -0.005657687783 -0.24630858 0.9691357613
0.08902442455 -0.04867134243 0.9629956484 0.00717362389 -0.2604006231 0.9654740095
0.04352541268 0.01485237293 0.9206117988 0.3612038791 0.4838275611 0.7707330585
0.03650313988 0.01996112801 0.9175002575 0.4743907452 0.3441029191 0.7984276414
0.03538748249 0.01405165996 0.9186654091 0.4811314344 0.3341357708 0.7933353782
0.03040887229 0.01142161898 0.9184833169 0.3163776398 0.5599513054 0.7578554153
0.0349865891 0.003395471023 0.9242764115 0.1368372738 0.5712432265 0.7755631208
0.03547192737 -0.00509216357 0.9298964143 -0.2231439054 0.4164001048 0.8553972244
0.04387025908 0.005791308824 0.9215721488 0.3024017811 0.581071198 0.7514697313
0.03472916409 0.00673569506 0.9193632007 0.2827339172 0.5906227827 0.7534461617
0.04004528373 0.008681069128 0.9181104898 0.3425952196 0.5452708006 0.7621373534
0.0975504145 0.03042803705 0.8685086966 0.805170536 0.08116289973 0.5793412924
0.09519673139 0.03410546482 0.873000741 0.8221201897 0.03040457889 0.5636170506
0.100017041 -0.06333105266 0.961464107 -0.0004870199482 -0.2511763275 0.9678525925
0.08171869814 -0.0605006516 0.9589999914 0.00717362389 -0.2604006231 0.9654740095
0.09352470189 -0.06396663189 0.9604197741 0.002614843892 -0.2544379234 0.9670017958
0.08722956479 -0.06394390762 0.9595943093 0.006434669252 -0.259589076 0.9656848907
0.09001100808 -0.05550202355 0.9660391212 0.007695220411 -0.2606479824 0.9654023647
0.1279863715 0.08750287443 0.8575702906 0.2481736392 -0.479814738 0.8045883775
0.1219293401 0.08442248404 0.8564683795 0.3589093983 -0.4208681881 0.8144240975
0.17331402 -0.035591878 0.8865634799 0.06270244718 0.6041722298 0.7913877964
0.1654059589 -0.03687908128 0.887031436 0.122037366 0.5858279467 0.8011830449
0.1598810256 -0.03448615223 0.883338511 0.1701947153 0.5693003535 0.8033511043
0.1593071818 -0.03060514852 0.8786812425 0.2014927566 0.5538814664 0.8076610565
0.0964101553 0.05950526893 0.8806634545 0.8034418821 -0.3043962717 0.5055506825
0.1197431907 0.02419437096 0.8528058529 0.4856678545 0.2840773463 0.8041229248
0.1145103499 0.03249454126 0.8517216444 0.5878092647 0.1513525397 0.7790828347
0.1124156937 0.03949648887 0.8506531715 0.6143748164 -0.00324266823 0.7757973671
0.1105935648 0.0451560542 0.8520985842 0.6353383064 -0.1312738657 0.7539522648
0.1028729156 0.03031623177 0.861182332 0.76334548 0.1175967082 0.6312037706
0.1077479273 0.02758518606 0.857643187 0.6987405419 0.1781342328 0.6923171282
0.105929099 0.03475030512 0.8589757681 0.7355818748 0.07941713929 0.6704208255
0.1061549038 0.04276952893 0.8569614887 0.7229571939 -0.05960113555 0.6826979518
0.09749304503 -0.05402380601 0.959000051 -0.005155720748 -0.2468598634 0.9689925313
0.08933202922 -0.05751562864 0.9589999914 -0.0002610639785 -0.2522354424 0.9675956964
0.1206504479 0.02679510415 0.8475381732 0.4347265661 0.2630909085 0.8571316004
0.1295743585 0.02631033771 0.8437012434 0.2553904653 0.3286476433 0.897624135
0.0433184132 -0.002766615711 0.9273383617 0.07994904369 0.542511344 0.7860465646
0.03674557433 -0.0109143164 0.9344457388 -0.3012744486 0.3846808374 0.8724989295
0.04247457534 -0.007488375995 0.9315688014 -0.182890147 0.4328715801 0.846308589
0.04047566652 0.001923815929 0.9257820249 0.1206587031 0.5666823983 0.7753914595
0.09530097991 0.03077499755 0.8783830404 0.8181056976 0.07402186841 0.5700533986
0.095255211 0.025979219 0.8746953607 0.7939324379 0.1052078828 0.5913302898
0.1040802896 0.02724136412 0.867039144 0.7504825592 0.1549939364 0.6246777177
0.1776542217 0.06925991923 0.8648636937 -0.438033998 -0.4385301471 0.7353362441
0.1813936085 0.05664761364 0.8555796146 -0.6084063649 -0.2367893308 0.7320818305
0.1802084148 0.06069400162 0.8595274687 -0.5667358637 -0.2953035831 0.7223566175
0.1778432429 0.06681783497 0.8576403856 -0.4014808834 -0.439755857 0.7848306298
0.1744808704 0.07203806192 0.8603597283 -0.3284719586 -0.552347362 0.7584152818
0.1822753251 0.05587608367 0.8612796664 -0.5696855783 -0.1904221028 0.7323848009
0.1923945546 0.03467179835 0.8755367994 -0.4502459764 0.302973181 0.8197711706
0.1769689173 0.07270922512 0.8697388172 -0.3507384062 -0.4820532799 0.7482067347
0.1838040054 0.05054203793 0.8574908376 -0.6566485167 -0.1036176533 0.7225968838
0.184753418 0.05104781687 0.8657875061 -0.5224759579 -0.07169304788 0.7577168345
0.1815185994 0.05949990451 0.8658977151 -0.4781766832 -0.2390541434 0.7478394508
0.1863976419 0.04915239662 0.8724267483 -0.4266869724 -0.0004485425889 0.7886380553
0.1862973571 0.04634326324 0.8638648987 -0.5766623616 0.01204640418 0.7551969886
0.1880312413 0.0438783206 0.875207305 -0.4056903422 0.1220415384 0.8061802387
0.1816675812 0.06104372069 0.8731861711 -0.3536156416 -0.2316246778 0.777042985
0.1843476146 0.05397961661 0.874042511 -0.3749113083 -0.08622621 0.7892062664
0.1718026102 0.07160194963 0.8655588031 -0.2959491909 -0.52285707 0.7432931066
0.167743966 0.06845653057 0.8598861098 -0.2787370384 -0.5323939323 0.7348385453
0.1747705489 0.05707731843 0.8655014038 -0.3376047909 -0.2353628427 0.7613254786
0.1789895743 0.05117821693 0.8691064119 -0.3713385463 -0.07257682085 0.7765718699
0.1835592091 0.04248059541 0.8724339604 -0.4118638039 0.1422233731 0.7947110534
0.176143229 0.06517368555 0.8691779375 -0.3312756717 -0.3493913412 0.7592318058
0.1798786819 0.03950188681 0.8667942286 -0.4097853005 0.2195663303 0.7749857903
0.1704119295 0.05697187036 0.8598108888 -0.3254194558 -0.2248445004 0.7390339971
0.1832627803 0.03523641825 0.8699291945 -0.4323972166 0.3194229603 0.7902087569
0.1758605242 0.0461044386 0.8635680079 -0.3770739734 0.05515793711 0.7587527633
0.1746135205 0.05204004049 0.863820672 -0.3521058857 -0.1117170975 0.7583703399
0.1616003513 0.07845710963 0.861877799 -0.2424212545 -0.634718895 0.7330577374
0.1050832644 0.06895112246 0.8801364899 0.7558358312 -0.3649552763 0.5434195995
0.1506285667 0.0738440007 0.85352844 -0.1338390857 -0.5907681584 0.7893851399
0.1446547955 0.08314595371 0.8563347459 -0.04697482288 -0.5373756886 0.838196516
0.1493041813 0.08101040125 0.8580094576 -0.1173977181 -0.5788220763 0.7987903953
0.1257101297 0.02958405763 0.8468750119 0.3777929246 0.2275704592 0.8767766953
0.1280342937 0.01779768802 0.8524002433 0.2948657274 0.4546928704 0.8047458529
0.1275711656 0.02288556844 0.8498979211 0.3152812421 0.3672596216 0.8313769698
0.1083675846 -0.06021364033 0.9589999318 -0.008244021796 -0.2434681207 0.9698738456
0.1096252128 -0.05075818673 0.9589999914 -0.008244021796 -0.2434681207 0.9698738456
0.1017675772 -0.05879146606 0.9589999914 -0.008244021796 -0.2434681207 0.9698738456
0.07060571015 -0.05515858904 0.9617500901 0.00717362389 -0.2604006231 0.9654740095
0.0759126991 -0.05312346667 0.9646171331 0.00717362389 -0.2604006231 0.9654740095
0.07921229303 -0.0551713109 0.9589999318 0.00717362389 -0.2604006231 0.9654740095
0.08413024247 -0.05107135326 0.9678828716 0.00717362389 -0.2604006231 0.9654740095
0.08457388729 -0.05886928365 0.9638659358 0.00717362389 -0.2604006231 0.9654740095
0.121833019 0.06493532658 0.8569100499 0.4928480387 -0.3742171228 0.7828055024
0.1357706189 0.03108481318 0.8397464156 0.1256168336 0.2584300339 0.9553169608
0.2112330794 -0.00316144363 0.903124392 -0.8005113602 0.3080119789 0.5032324195
0.2085560113 -0.008051310666 0.9048119783 -0.7796532512 0.3669197857 0.4905792773
0.1633641571 0.06690469384 0.8512108922 -0.2127787769 -0.5766373277 0.7848677039
0.1663366705 0.05184241012 0.8449136615 -0.3270146847 -0.1593596041 0.9150383472
0.1744749397 0.05500441045 0.8460356593 -0.3975971341 -0.2316215187 0.8608527184
0.09880229831 0.05359917507 0.8797087073 0.8004308343 -0.2021562904 0.5358595848
0.09711435437 0.04539962113 0.8779459596 0.8158250451 -0.09288395196 0.5425260663
0.09288767725 0.05238878354 0.8778247237 0.8360295296 -0.2547171712 0.4847846925
0.0902242139 0.0464703925 0.8808364272 0.844171524 -0.177604422 0.5020379424
0.0948484391 0.04745814577 0.8731988072 0.8335365653 -0.1403622627 0.5280477405
0.09663589299 0.05321616307 0.8706290126 0.8206172585 -0.2664854527 0.5032961965
0.09885915369 0.03871166706 0.8666990995 0.8276111484 0.01236693095 0.55909729
0.09610424191 0.04116079584 0.8714803457 0.8326354623 -0.04225685447 0.5472687483
0.09269373119 0.03682577983 0.877400279 0.8312677741 -0.01614908688 0.5537724495
0.08967939019 0.0398879759 0.8817340732 0.8388091326 -0.08095125854 0.5356330872
0.1393272132 0.01494388189 0.8666765094 0.05336853117 0.3609178364 0.7908483744
0.1520241499 0.0118388962 0.869892776 -0.1711411029 0.3603204191 0.8484256268
0.1190210655 0.01764525659 0.8609288931 0.4751671851 0.3318310976 0.7386717796
0.1292012036 0.0169637911 0.8626760244 0.2509388924 0.3629065454 0.7648483515
0.1401633322 0.01612045057 0.8601256013 0.01186301839 0.4579516947 0.8013563752
0.1355563253 0.01629772782 0.8555814624 0.1061210781 0.5144488215 0.7803175449
0.1472601593 0.01574128121 0.8652459383 -0.1466754526 0.425650537 0.812048316
0.1016557366 0.02201118879 0.8681352735 0.7565618753 0.1727190614 0.6203132868
0.1683065444 -0.03272708878 0.884493351 0.07491360605 0.5981211662 0.7906986475
0.1799752563 -0.02947759256 0.8924527764 -0.2459480315 0.5757145286 0.6669967175
0.1899712384 -0.02351322398 0.8978726268 -0.5219306946 0.5241580009 0.5580639243
0.1847779006 -0.02522409521 0.894344151 -0.3782883584 0.5379112363 0.6138313413
0.1750136018 -0.03059033304 0.8888137341 -0.1086171567 0.5839542747 0.7199649215
0.1147298366 0.02566900104 0.8519082069 0.5457804799 0.253813982 0.7942213416
0.1112437472 0.01814355887 0.8601430058 0.6374679804 0.2906576693 0.7098063827
0.1058534086 0.02146641351 0.8591973186 0.6710537672 0.2314641923 0.6936520934
0.1020138189 0.01889637485 0.8628816009 0.7398288846 0.199147746 0.640927434
0.1520155519 -0.03490722552 0.8920285106 0.174124077 0.555745542 0.8122301102
0.159598127 -0.03619280085 0.8908746839 0.1482397616 0.5723309517 0.8053067923
0.1497950256 -0.02208616398 0.8836935759 0.2276262045 0.5385790467 0.8110693097
0.1540373564 -0.03221306205 0.8859838843 0.1809602976 0.5581485629 0.8091537356
0.1595811397 -0.02847081609 0.8839481473 0.1712934673 0.5579148531 0.810521245
0.1708996892 0.04184529185 0.846231699 -0.4365399778 0.1645883322 0.8635630608
0.1717795581 0.05020007119 0.8460524082 -0.3947215974 -0.07685928792 0.8861013651
0.176284954 0.04423907772 0.8485780954 -0.4904783964 0.1266137064 0.8377493024
0.1807923317 0.05538124964 0.8483935595 -0.488607049 -0.2319277376 0.8047895432
0.1812467128 0.03924734145 0.8492542505 -0.5875282288 0.2573415935 0.7487327456
0.1816428006 0.04919243604 0.8522669077 -0.609085381 0.04411147162 0.7568287849
0.1898236126 0.03778518364 0.8697395921 -0.5104561448 0.2502622604 0.7951596379
0.1842700392 0.04424332455 0.8583302498 -0.6170232892 0.1645001769 0.7489806414
0.2090137899 0.0003388601472 0.8925411701 -0.7828762531 0.2346032709 0.56153512
0.2049886286 0.005080423784 0.8845965266 -0.7490003109 0.1549811661 0.6310482621
0.2129155546 0.004276726861 0.9015148282 -0.8081123233 0.2510029674 0.5293619633
0.2087284178 0.007236639969 0.899423182 -0.7922848463 0.2274520397 0.5532888174
0.2016495615 0.02372032218 0.8840019107 -0.680524826 0.06094956025 0.7224855423
0.202405706 0.009759195149 0.8806346655 -0.7206435204 0.1085962504 0.6761991978
0.20818986 0.006493305322 0.8916402459 -0.7680047154 0.185300082 0.5971740484
0.2037336677 0.01402026322 0.8849407434 -0.7189558148 0.1122781858 0.6713683009
0.2079298347 0.01184190065 0.8929926157 -0.7528358698 0.1673930883 0.6145458817
0.1594422162 0.01341081783 0.8712266684 -0.2978394628 0.3677662909 0.843986094
0.1550361961 -0.00721289264 0.8770039082 0.2299357951 0.3046353757 0.905390799
0.1594447643 8.994225209e-05 0.8735560179 0.1885862797 0.1918548197 0.9495531917
0.1609566957 0.07350664586 0.8573908806 -0.2320613712 -0.6360685229 0.7351534367
0.1549855769 0.07669778913 0.8584676981 -0.1982445419 -0.6291210055 0.7514708042
0.1458381861 0.0756797418 0.8577055931 -0.05979788676 -0.5510166287 0.8307902813
0.1664100438 0.07795783132 0.8660697937 -0.2548680305 -0.6157497764 0.743911922
0.1640921831 0.08389104158 0.8674632311 -0.2592890561 -0.6436406374 0.719727397
0.1555086523 0.08297290653 0.8644365072 -0.2112963498 -0.6222800612 0.7533335686
0.135474354 0.03672675043 0.8401293755 0.175166592 0.1518121362 0.9656813145
0.1352325678 0.06730236858 0.8513635993 0.1812535971 -0.4760710597 0.8583164811
0.1426435113 0.07206047326 0.8496038318 -0.01265841071 -0.5028135777 0.855971992
0.1361376792 0.07256167382 0.8502725363 0.1497376561 -0.4310695231 0.8829881549
0.1301467568 0.0827524215 0.853613317 0.2345790118 -0.3782609105 0.8870992661
0.1298983693 0.07438790798 0.8511211276 0.2862130404 -0.4066204429 0.8635433912
0.1295852959 0.03579677269 0.8435709476 0.306473732 0.1053691208 0.9269243479
0.1331482083 0.04168155044 0.8417773843 0.2309878469 -0.02910246514 0.9633514285
0.1331270933 0.02434087358 0.8479334712 0.1611650586 0.4492118359 0.7953462601
0.1421017349 0.03371961042 0.8516154289 0.005289158318 0.1024420559 0.9151672721
0.1407094747 0.03251350299 0.8453372717 0.05870214477 0.1504888684 0.9448871017
0.1468407959 0.02317797765 0.849206686 -0.08324885368 0.3359721899 0.9195173979
0.1528134495 0.02019205317 0.8628919125 -0.2604218125 0.3510702848 0.8508043289
0.1463704109 0.02865619585 0.8566406369 -0.1026828513 0.192646414 0.8871599436
0.1383191198 0.03765105084 0.8462607265 0.1045033038 0.03756610304 0.9439864159
0.1560610682 0.01756141149 0.8683991432 -0.3497359753 0.3888025284 0.8222587109
0.1498208046 0.02478063852 0.8609772921 -0.1911813468 0.2602490783 0.8633637428
0.148305729 0.03003635257 0.8468343019 -0.1192682162 0.2729722857 0.9360505939
0.1503512412 0.02742750011 0.8514121771 -0.1739456356 0.3030729294 0.9107590914
0.1573272943 0.02511834353 0.8607202768 -0.3026977777 0.3705268204 0.8445116282
0.1612519175 0.01994624548 0.8696630597 -0.4090646207 0.4291697741 0.7954800129
0.13201949 0.01912935451 0.8464796543 0.2399961948 0.3658524752 0.8961856961
0.1356526911 0.02547819912 0.8417158723 0.1556665897 0.3113128543 0.9349591136
0.1610551476 -0.0115397647 0.87100178 0.2154231519 0.2894957364 0.9286407828
0.1059664562 -0.06604453921 0.9589998722 -0.008244021796 -0.2434681207 0.9698738456
0.1137982756 -0.06153426319 0.9620000124 -0.008244021796 -0.2434681207 0.9698738456
0.09989708662 -0.05799700692 0.9646496773 -0.003137535648 -0.2490763515 0.9684165716
0.0946912691 -0.05014407635 0.9687040448 0.004675996024 -0.2576575875 0.9661867619
0.1207807288 -0.06282480061 0.9631111026 -0.008244021796 -0.2434681207 0.9698738456
0.1107100844 -0.05545170233 0.9622455835 -0.007770712487 -0.2439879328 0.9697387815
0.1039749235 -0.05223897099 0.9642920494 -0.00382684241 -0.2483193129 0.9686132669
0.1119007841 0.07372824103 0.8725354075 0.6709033251 -0.3949498534 0.6261162162
0.1385394335 0.07161171734 0.8551448584 0.09164762497 -0.5014179349 0.8417102695
0.1318396628 0.07039994001 0.8574663401 0.2575705051 -0.4565782845 0.8081496954
0.1410130858 0.07526431233 0.8597769141 0.06254643202 -0.5201388597 0.812687397
0.1020889655 0.04493809119 0.8614031076 0.7868157029 -0.05785346776 0.6128246784
0.1112382859 0.05185452104 0.8533518314 0.602617383 -0.2958430946 0.7340683937
0.1095257327 0.03685401753 0.8546395302 0.6781336069 0.05958282202 0.7200909853
0.1155709624 0.05883645266 0.8523606062 0.5421990752 -0.3302954137 0.7678366899
0.1175176427 0.06576039642 0.8535283804 0.5208852291 -0.3454753458 0.7781370282
0.1046261936 0.03871790692 0.8650853038 0.7456012368 -0.03518448398 0.62617594
0.1022409275 0.03449433669 0.8678708673 0.7811846137 0.03552398086 0.6021648049
0.1077323034 0.0451515913 0.8621559143 0.6978247762 -0.1502305567 0.6527233124
0.1083164439 0.05211753398 0.8626540899 0.6826758981 -0.2753807008 0.6418443322
0.1021114588 0.04756344482 0.8689025044 0.7701606154 -0.1817306578 0.5704653859
0.1424721628 0.03590893 0.8390000463 0.01006808411 0.1770730317 0.9806714058
0.1611814797 0.047299169 0.8426997066 -0.2935595214 -0.03884532303 0.9456592798
0.2027865648 -0.01320702583 0.9059668779 -0.7694355249 0.4102363288 0.4766662717
0.2056753486 -0.003206301713 0.9042628407 -0.7936644554 0.3226695061 0.5025293827
0.2008703798 -0.01888852566 0.9076343179 -0.7552253604 0.4567340612 0.4623109996
0.2070087194 0.002270972589 0.9019111991 -0.8078706264 0.2788154781 0.5156134367
0.1995668262 -0.0123636201 0.8998151422 -0.7747164369 0.4143953919 0.4731040895
0.2067136019 -0.01790051349 0.9052109718 -0.7636389136 0.4488771558 0.4583210945
0.1968941391 -0.001128936536 0.8779944777 -0.6962200999 0.2119370699 0.6710504889
0.1930989176 -0.0080951415 0.8734667301 -0.5331948996 0.2680715919 0.7886302471
0.1560033709 0.04668574035 0.8443565965 -0.2340836227 -0.1089361981 0.9193626642
0.1614478678 0.03247052431 0.860755384 -0.3639616072 0.2072648555 0.8284662366
0.1572631747 0.04155989736 0.8481711149 -0.2682511806 0.009988269769 0.9005631208
0.1584427357 0.03791248426 0.8517301679 -0.2976613939 0.09263706952 0.8815604448
0.1582529396 0.03174433857 0.8512311578 -0.308064729 0.2476407588 0.8928309679
0.1616681665 0.02463773824 0.8644521832 -0.3833600581 0.3920034766 0.8151883483
0.1564457417 0.02823986113 0.8548741937 -0.2769270241 0.3205168545 0.8768903017
0.1456684321 0.03221864253 0.8419288993 -0.06016273797 0.2386811525 0.9661205411
0.1708630323 0.06678071618 0.8529720306 -0.3141598403 -0.5359806418 0.7786308527
0.1759860963 0.06389345229 0.8508256078 -0.3799582124 -0.4599900246 0.7968026996
0.1688858122 0.06116367131 0.8470734954 -0.2972723246 -0.4327130616 0.8420891166
0.1773887724 0.06046180055 0.8470349312 -0.3997085989 -0.3958298266 0.8216242194
0.1477777958 -0.00118372601 0.8708821535 0.1824384034 0.2511149645 0.9161297679
0.1313829869 0.004309510812 0.8665653467 0.4394322634 0.2673704028 0.8279573321
0.1543372869 0.0004278626002 0.8718115687 0.0196131058 0.2569277883 0.9482996464
0.1475802213 -0.007849975489 0.8722399473 0.2915806174 0.2295435667 0.9205592275
0.1416561455 0.005258311518 0.8683508039 0.2092342973 0.271381259 0.8796252012
0.1369282007 0.009140563197 0.8666246533 0.2471480668 0.2834992409 0.8523232937
0.1479249895 0.006270802114 0.8693495393 0.06193555892 0.2752304077 0.9108000994
0.127383709 0.01262218039 0.857616663 0.4017022252 0.3561348915 0.8342882991
0.1230410784 0.01646007225 0.8553937674 0.4330897629 0.373759985 0.8120135665
0.1237827316 0.009723359719 0.8636102676 0.5139214396 0.2875964344 0.786585331
0.141815424 -0.003522372106 0.8693727851 0.3454437256 0.2512051761 0.8920166492
0.1296235323 0.008940959349 0.8609561324 0.4096323848 0.3237753808 0.8375970125
0.1448383182 -0.0007172806654 0.8653067946 0.2006863952 0.3778885603 0.8567113876
0.138095811 0.01030564774 0.856512785 0.1405424029 0.5269873738 0.783272624
0.1379148066 0.002662668237 0.8638886809 0.3335577548 0.3062758148 0.8829978108
0.1348803937 0.007647948805 0.8599075079 0.3058897853 0.3740700185 0.8496333957
0.1416236758 0.006535828579 0.8591986299 0.1230362132 0.5055201054 0.7961075902
0.1552536339 -0.008381369524 0.8709837198 0.2679469585 0.2312146574 0.9334995151
0.1427758634 0.01863151416 0.8502269983 -0.05826651305 0.5569562316 0.7940075397
0.1498674005 0.01810621656 0.8583164215 -0.20239757 0.4601206779 0.8272083998
0.1471987665 0.006925762631 0.8576774001 -0.04597489908 0.5367669463 0.7751868367
0.1538909525 -0.00367799052 0.8670467734 0.1898864508 0.294586271 0.8975175023
0.1470404267 0.003041411052 0.8612362146 0.02885837667 0.4696635306 0.8082062602
0.1446872503 0.01349824108 0.8518964052 -0.1607236713 0.6686593294 0.7107901573
0.172821939 0.002377600642 0.8769469261 -0.1010326073 0.1639609635 0.8574929833
0.1859512031 0.0007234591758 0.8828274012 -0.4275726378 0.2005149871 0.721062839
0.1973497421 -0.004192729015 0.8908110857 -0.7245364785 0.2846553624 0.5640696883
0.1877794266 -0.003861155827 0.887247622 -0.489895016 0.2711738348 0.6538348198
0.1803977042 -0.002392872237 0.8834962249 -0.3042199016 0.2425164133 0.7365026474
0.1675191224 0.004432193935 0.8734424114 0.03526188433 0.1290857792 0.9275501966
0.1655297279 0.01050025783 0.8724129796 -0.1519456059 0.243379131 0.903572917
0.1849662066 0.006050825119 0.8816590905 -0.5813034773 0.2781685591 0.7054482698
0.1801148355 0.006894349121 0.8793551922 -0.4631363451 0.2638773322 0.7570062876
0.1919044852 0.001526538981 0.8850030899 -0.613655746 0.2289380878 0.6578737497
0.2003446221 -0.006890485995 0.8958462477 -0.7911698222 0.3392257094 0.5023688078
0.2028753757 -0.001688278629 0.8962612152 -0.7962443233 0.287612617 0.5266491175
0.2022312582 0.003824702231 0.8914158344 -0.7760255337 0.217183128 0.5830903053
0.2004319131 0.009037053213 0.8867371082 -0.7411799431 0.1651185155 0.635686934
0.2034722716 0.01713961922 0.8903054595 -0.7262025476 0.1293886155 0.6532875896
0.1724873781 -0.003472779412 0.8781009912 -0.08315294981 0.2287368029 0.8330786824
0.1768718958 -0.006278499495 0.881213069 -0.1944363266 0.2702613175 0.7700493336
0.1930469722 -0.008450099267 0.8927941322 -0.6355594993 0.3445658088 0.556240499
0.1650595963 -0.002993287751 0.8727765083 0.1213517785 0.1996086985 0.9300774932
0.1660827994 -0.0101098083 0.8688665032 0.1359156966 0.2598662376 0.9524422288
0.1483660638 0.06731043011 0.8497510552 -0.02978344634 -0.5464400649 0.8313965201
0.1543175578 0.06799978763 0.851103425 -0.09130785614 -0.5941235423 0.7939380407
0.1581771523 0.0464713499 0.8514688015 -0.2688905299 -0.1201630831 0.8667984605
0.1605285406 0.03983296454 0.8600671887 -0.3144582808 0.02542816289 0.8048429489
0.1558840722 0.05883959308 0.8490701318 -0.1646089107 -0.4226451814 0.8266968727
0.1569196135 0.05281794444 0.8497103453 -0.2161306441 -0.2741680741 0.85224545
0.1614551842 0.0455253832 0.8616182804 -0.2885403037 -0.09847342223 0.7701443434
0.1590029001 0.05062437803 0.8564648628 -0.2372163534 -0.2254312783 0.793402195
0.1625584215 0.03502282128 0.8652551174 -0.3569351733 0.1399138123 0.7761944532
0.1585504264 0.06281299144 0.8537074327 -0.16566737 -0.4972419143 0.7750663757
0.1557237804 0.06426366419 0.8468819857 -0.1321482509 -0.5482916832 0.8247458339
0.1620043963 0.06303853542 0.8471881747 -0.2073089629 -0.5001254678 0.8384380341
0.1627486795 0.05650442839 0.8448036313 -0.2658150792 -0.3211476505 0.9033186436
0.1263563782 0.06408469379 0.8531025648 0.3643071949 -0.4191302061 0.8215832114
0.1220541373 0.04777740687 0.8502536416 0.4702753425 -0.1099614426 0.8325387836
0.1199118346 0.05255947262 0.8531963229 0.5143297315 -0.2011237293 0.7928056121
0.1492818743 -0.01556784939 0.8791071773 0.2701421678 0.3940757215 0.8668264151
0.1805355698 -0.02164168097 0.8904206157 -0.2819215953 0.5023753643 0.647130549
0.1565920562 -0.01867757551 0.8816229105 0.1939608157 0.4638209343 0.8178790808
0.1685559005 -0.01980493404 0.886222899 -0.04932838678 0.4797621667 0.7299877405
0.1915851384 -0.01809482276 0.8973160982 -0.5780293941 0.4739921987 0.5325741768
0.1628231555 -0.01918323897 0.8840656877 0.06598077714 0.471357882 0.7715099454
0.1603390127 -0.02379037254 0.8803175092 0.1918469667 0.5135325193 0.8249828219
0.1666928977 -0.02376537025 0.883120358 0.05293050408 0.5161386132 0.773766458
0.1728684753 -0.02446858957 0.8854248524 -0.07076464593 0.5255068541 0.7292805314
0.1770470589 -0.01543462742 0.890611589 -0.2881287336 0.4371453226 0.6427193284
0.1947778314 -0.01279223524 0.8966041803 -0.6902579069 0.4107072651 0.5037662387
0.1824852228 -0.01466588583 0.8924860358 -0.4112828076 0.429602623 0.5999903083
0.1698402613 -0.01287550759 0.883974731 -0.0966405347 0.3815096021 0.7437637448
0.1703352481 -0.009534647688 0.8795678616 -0.04849764332 0.3078021407 0.807107389
0.1814780831 -0.01114102826 0.887798965 -0.355909884 0.3623384237 0.6562752724
0.1637791842 -0.008670440875 0.8748381138 0.1309077591 0.2775205374 0.8941906095
0.1595930755 -0.01438755449 0.8805862069 0.1319228262 0.3980514109 0.8211094737
0.1871636957 -0.01161435619 0.8915144801 -0.5064941645 0.3824385703 0.5864226222
0.1229116917 0.06904746592 0.8607593179 0.4743815362 -0.4018936157 0.7634192705
0.1172055379 0.07254105061 0.8677244186 0.5716323256 -0.4053954184 0.6874518394
0.129203096 0.07281366736 0.8624715805 0.3249717951 -0.4539916217 0.7629088163
0.1338292062 0.07594011724 0.8641709089 0.213132605 -0.4949229062 0.7585828304
0.1245575026 0.07319799066 0.8651095033 0.417768985 -0.438773036 0.7282720804
0.1413001567 0.08144082874 0.8634657264 -0.0009555712459 -0.5578580499 0.7617425323
0.1286633015 0.07834600657 0.8671771884 0.2870745063 -0.4887032211 0.7071239948
0.117349267 0.08287995309 0.8628079891 0.5243495703 -0.4323089719 0.7038724422
0.1169652715 0.07806252688 0.8679959774 0.5443477631 -0.4246827066 0.6816650033
0.1227888763 0.08400385827 0.8621141911 0.3925704658 -0.4594966471 0.740580678
0.1329210252 0.08495537192 0.8612169623 0.1606417298 -0.5129390955 0.7812703848
0.1231799275 0.07815009356 0.8676992059 0.4069056213 -0.4582730234 0.6968268156
0.2116450816 -0.008318411186 0.9002429247 -0.8062463403 0.3379283249 0.4806303382
0.18101798 -0.03408628702 0.896957159 -0.2689428329 0.6079825759 0.6528548598
0.1916058511 -0.02809525654 0.9044219851 -0.5529252291 0.5421886444 0.5303401351
0.1749544144 -0.03737569228 0.8925409317 -0.1066524237 0.6449590325 0.7232553363
0.1964983344 -0.01988312602 0.9024451375 -0.6973421574 0.484757036 0.4828658998
0.1868381053 -0.03109366447 0.8966059685 -0.4626486897 0.5962536931 0.5763006806
0.1798094511 -0.03488150612 0.8885427117 -0.2981233597 0.6530791521 0.6526044607
0.1996430606 -0.02419857681 0.9095836282 -0.7400754094 0.500851512 0.4488106072
0.1966395676 -0.02513624355 0.9017637968 -0.683729887 0.5180290937 0.4884723723
0.1879377961 -0.0303775426 0.8905388713 -0.5252013206 0.6146216393 0.5620394945
0.1949090511 -0.02268163674 0.8841955066 -0.6037923098 0.4981772006 0.6046251059
0.2065590769 -0.01605132595 0.8989788294 -0.7575919628 0.423864156 0.484123677
0.1976587027 -0.02123067901 0.8895618916 -0.6539503932 0.4787644148 0.5625519156
0.1970741153 -0.02201792225 0.8963094354 -0.7015221715 0.4750191271 0.5142101049
0.203828007 -0.0174393896 0.8931123614 -0.703981936 0.4435997605 0.5297113657
0.1511094123 0.04167228192 0.8383413553 -0.1834484041 0.06145001203 0.9762716889
0.1486295164 0.03682043776 0.8390001059 -0.1330010593 0.1577674001 0.9721572995
0.1475326866 0.05848593637 0.8479975462 -0.06336971372 -0.3155629933 0.8833999038
0.1499632448 0.05095913261 0.8465397954 -0.1215021163 -0.15354985 0.9017499089
0.1431007683 0.06621871144 0.8509660363 0.02923786454 -0.4616724253 0.8555887341
0.1427342147 0.05627868697 0.8473489881 0.04487359524 -0.2781382799 0.8820197582
0.1504522413 0.04324772209 0.8449742198 -0.1356244981 0.008900215849 0.9180602431
0.1446303576 0.04049335793 0.842754066 -0.01428776421 0.03630957007 0.9487051368
0.1519254297 0.03814718127 0.843644917 -0.1708521396 0.1134578064 0.9345420599
0.1397541612 0.05137453228 0.8450000882 0.1081499532 -0.1984089911 0.9082425237
0.1445275992 0.04673770443 0.8446366787 -0.0002197949216 -0.08693031222 0.9156039357
0.1384774297 0.04421256483 0.8425337076 0.1210879833 -0.06298633665 0.951320231
0.154952541 0.05569333211 0.8420634866 -0.1940743029 -0.3294291198 0.9230889678
0.1494764984 0.05648885295 0.8417276144 -0.07118056715 -0.3718400002 0.9180058241
0.1569692492 -0.01947582699 0.8753221631 0.2251181602 0.4622092843 0.8529440165
0.1550568491 -0.02595024742 0.8795828819 0.2250530571 0.5404044986 0.8106679916
0.1995037198 0.01075716689 0.8756866455 -0.6897531152 0.08079181612 0.7151108384
0.1955192387 0.01643466204 0.8740427494 -0.5360815525 0.04928753525 0.8326923847
0.2016088814 0.003431963269 0.8794538975 -0.7331470251 0.1446404755 0.6512470245
0.2056405991 -0.0004714815295 0.8857950568 -0.7513332963 0.2203799188 0.5952244401
0.2109761238 -0.00432295911 0.8963396549 -0.8001080751 0.2953458428 0.5160164833
0.1987528801 -0.002553851111 0.883236587 -0.7561932206 0.2364090532 0.60416466
0.2041654289 -0.004485304467 0.888918817 -0.7748065591 0.2700726688 0.556209445
0.1996953487 0.01615560055 0.8777612448 -0.6922376156 0.06956043094 0.7172783017
0.1838402003 0.03709442168 0.8552927375 -0.5654750466 0.306199789 0.7606136203
0.1870464236 0.03789745271 0.8633447886 -0.5410103202 0.2860907614 0.7796418071
0.1873625666 -0.001291867811 0.8711556792 -0.3572205305 0.1466907859 0.9211173654
0.173588112 -0.007663125638 0.8683642149 -0.0521985963 0.2177243233 0.9716001153
0.1724797189 -0.02005771548 0.8728137016 -0.02337037399 0.4132647216 0.9019991159
0.1708088219 -0.01498383936 0.8701285124 0.007859783247 0.3235315681 0.9400427938
0.1662719697 -0.02226538211 0.8741552234 0.1016031727 0.461126864 0.8752996922
0.1599491686 0.007550653536 0.8712069988 -0.05056965351 0.2343648076 0.9309212565
0.1338538677 0.05008946732 0.843390584 0.2285945565 -0.1990494877 0.9343925714
0.134834379 0.08812915534 0.8551599383 0.1019332185 -0.4721960425 0.8688636422
0.1062059551 0.06215868518 0.8695702553 0.7297223806 -0.3595963717 0.5745483041
0.100905329 0.05829224363 0.8684640527 0.7711331248 -0.3345633149 0.532360971
0.1102319732 0.07438267022 0.8662546277 0.6611219645 -0.4041549861 0.6256565452
0.1045388877 0.06748917699 0.8739039302 0.7414281964 -0.3821377456 0.5495855212
0.09893789887 0.06022490561 0.8738482594 0.7949617505 -0.3198562562 0.5084013343
0.100713335 0.06600194424 0.8781772256 0.7788073421 -0.3469549417 0.5173520446
0.1042225137 0.05616842583 0.8622446656 0.6979286075 -0.3783772588 0.6076775193
0.1124101877 0.07241923362 0.8603280783 0.5799399614 -0.3909899592 0.6903597713
0.1139001474 0.07880387455 0.8615428805 0.5790485144 -0.4053314626 0.6962071657
0.1081756875 0.06133669242 0.860858798 0.6668249965 -0.3698726594 0.6363518238
0.107471168 0.05430481955 0.8573620915 0.6521010399 -0.3325486481 0.6794248223
0.116455324 0.07826573402 0.8565770388 0.4687006176 -0.3812021613 0.7883359194
0.1110738367 0.06388180703 0.8570256233 0.5783796906 -0.3518546224 0.723412931
0.1985843778 -0.009776047431 0.8848483562 -0.7249871492 0.3707565367 0.575314641
0.2089127749 -0.009635017253 0.8950501084 -0.7781149149 0.3764841855 0.4980199337
0.2039458603 -0.01058233529 0.8902754784 -0.746599555 0.3856972158 0.5339338183
0.1961793303 -0.01589761674 0.8830887675 -0.6579626799 0.4346494377 0.5986824632
0.1919304579 -0.01886413246 0.8791627884 -0.608933866 0.4620433748 0.6341684461
0.2015019208 -0.01549105998 0.8883275986 -0.6890327334 0.4349412322 0.5578232408
0.1886476576 -0.02801904827 0.8854809999 -0.537165463 0.5759704709 0.5953188539
0.1923255175 -0.02562782913 0.8921367526 -0.6183815002 0.534285903 0.5452623963
0.1846026629 -0.02931457758 0.8809409738 -0.3977540135 0.5834362507 0.6812139153
0.1671951413 -0.0283895731 0.8775509596 0.07614162564 0.5492331386 0.8233538866
0.1727344692 -0.02622924745 0.8767436147 -0.02400800027 0.520519197 0.8468543291
0.1784799844 -0.03274141625 0.8835994601 -0.1615380645 0.6204186082 0.717895031
0.1788980514 -0.02557389252 0.8773408532 -0.1199860126 0.4993134141 0.8528079987
0.179373011 -0.02046377026 0.8742343187 -0.1496042013 0.418190062 0.8935514688
0.1591151804 0.03057181649 0.845852077 -0.3416643143 0.4025836885 0.813141942
0.1656795293 0.02779506892 0.8695684075 -0.4317441583 0.3378404975 0.7549196482
0.1651958972 0.04207269102 0.8661060929 -0.3755966723 0.01458829828 0.7489073873
0.165218398 0.04790099338 0.8643621802 -0.3526988924 -0.1088931561 0.7434064746
0.1651389897 0.05564028025 0.862210691 -0.3222822845 -0.2770724297 0.7376157641
0.1649605483 0.0627707541 0.8602192998 -0.2928614914 -0.4341385365 0.7332093716
0.1602452993 0.05813880265 0.8569877148 -0.2138998955 -0.3817178905 0.7657180429
0.1796259284 0.02946737222 0.8703792691 -0.4488593638 0.4226369858 0.785186708
0.1773945987 0.02987221442 0.8644016385 -0.4425618351 0.4714972377 0.7618740797
0.1709416956 0.02439467981 0.8727330565 -0.4547146857 0.4306176901 0.7785507441
0.1743366718 0.02718704008 0.8686944246 -0.4487294555 0.4496738315 0.7709084153
0.1687940061 0.02484685183 0.8665989637 -0.444933027 0.502183497 0.7266157866
0.1708972901 0.03144657612 0.8644412756 -0.4236904979 0.3779556155 0.7340179086
0.1712013334 0.03812152892 0.8628814816 -0.3987971544 0.2284966558 0.736207664
0.1706479341 0.04554408416 0.8614513874 -0.3694490194 0.05065353215 0.7360528111
0.1548466831 0.02498963289 0.8458928466 -0.3590677381 0.5136024356 0.7767899036
0.1472968906 0.01720875688 0.8471180201 -0.2188711762 0.6529170871 0.7225254178
0.1567533612 0.005049253814 0.8581716418 -0.006021651439 0.3865370452 0.8536995649
0.159174636 -0.001717320061 0.8647691607 0.1424242407 0.270743072 0.9133121371
0.1546643674 0.001260483754 0.8623759151 0.09646210074 0.3697082102 0.8605132103
0.1506306976 0.01095663384 0.8530790806 -0.1170375943 0.5460914373 0.7700302601
0.1384784281 0.0194381997 0.8449422121 0.08430316299 0.4124740362 0.878018558
0.1433273256 0.02576680109 0.841604054 -0.07316446304 0.4031405747 0.8742923737
0.1504666656 0.02065921761 0.8443465829 -0.2677134573 0.5743536353 0.7535088062
0.1522794366 0.03015061654 0.8421584368 -0.2635813355 0.3438810408 0.8668820858
0.1710517853 0.03222961724 0.8503161073 -0.4852132201 0.4603513181 0.7277429104
0.1625195593 0.04209435731 0.8438580632 -0.3497908711 0.1260826141 0.9144006968
0.1590102464 0.03578402475 0.84346205 -0.3385337293 0.2471036762 0.8932008743
0.1654932499 0.03639842197 0.846416235 -0.4435112178 0.2946432233 0.8391714692
0.1491561085 0.06371298432 0.8457545638 -0.04618415609 -0.5213864446 0.8479692936
0.1351583153 0.06281614304 0.8471721411 0.2257778496 -0.4454629719 0.865216434
0.1396058798 0.06095305085 0.8441705108 0.1222858727 -0.4332956672 0.8805880547
0.1386231333 0.05473498628 0.8397248983 0.1470422745 -0.3284019828 0.9274932146
0.1439849138 0.05714930221 0.8414593935 0.04648213834 -0.3982608616 0.9123325944
0.1385442168 0.0487412028 0.8387452364 0.1409400851 -0.1554206461 0.9667727351
0.1513512433 0.04898633063 0.8384466171 -0.1619896442 -0.1396630257 0.9670438766
0.1462440491 0.04498121515 0.8382142782 -0.05451159924 -0.0455233641 0.9938461185
0.144863531 0.05129822716 0.8388677239 0.0008535243105 -0.255427897 0.9608941078
0.1858657748 0.03400471434 0.8592643142 -0.5354462266 0.2882823646 0.7857652307
0.1885818839 0.03162683547 0.8651410341 -0.5033996105 0.2625140548 0.8135579824
0.1923164129 0.01897628605 0.8697727919 -0.4783350825 0.08692252636 0.8671357632
0.191617623 0.02487724647 0.8703273535 -0.4756604433 0.1563544571 0.8588604331
0.1946986765 0.02976403944 0.8774735928 -0.4983819127 0.2455547005 0.8133710623
0.1772243679 0.02540999837 0.8741518259 -0.4912212789 0.3607716858 0.7749606967
0.1878010631 0.02949730121 0.8757098317 -0.5082643628 0.2981881797 0.7880425453
0.1797661483 0.02089537121 0.8763545156 -0.5601196289 0.2965129316 0.7389366031
0.1828427762 0.01201966777 0.8800566196 -0.6142890453 0.3304334283 0.6806404591
0.1916468889 0.01805670373 0.8805567026 -0.6534059644 0.1872357428 0.7025517225
0.1956073791 0.006232217886 0.8854504228 -0.7246081829 0.2339500785 0.6251129508
0.1858862042 0.01768727042 0.8790797591 -0.6146100163 0.2535651028 0.7097123861
0.1969393641 0.01899063587 0.8817226887 -0.6868568659 0.1217534095 0.6995424032
0.1964674592 0.02439563163 0.8798564672 -0.6636405587 0.08564509451 0.7327607274
0.1915566623 0.01006146707 0.8830989003 -0.6822531223 0.24933815 0.6546974182
0.1991706789 0.0003758064995 0.8883178234 -0.7710388303 0.2394291013 0.5841515064
0.1858450919 0.02398708463 0.8770455122 -0.5910978913 0.2058685869 0.7476015687
0.1731851697 0.01964968257 0.8749317527 -0.5188359022 0.3785824776 0.7421719432
0.1823302954 -0.009034845978 0.8709371686 -0.273819834 0.2405363917 0.9247435331
0.1765686274 -0.01379146427 0.8704476953 -0.1355219334 0.3004249334 0.9298501611
0.1826289445 -0.01554633956 0.8728808761 -0.2924784124 0.3404030502 0.8870198131
0.1885312647 -0.02465565503 0.8773773313 -0.4468106627 0.4996053576 0.7184200883
0.1909974217 -0.01453047525 0.8742899895 -0.5036760569 0.3587110341 0.7765793204
0.1933173239 -0.01118762139 0.8796724081 -0.6816109419 0.3809794188 0.6201339364
0.176165089 0.001139823464 0.8676761985 -0.09398598224 0.104198806 0.9847015738
0.1661618203 0.01459966879 0.8569689393 -0.2058160156 0.330291748 0.848252058
0.1573323607 0.01981408335 0.848785758 -0.2990012765 0.5471337438 0.7447465062
0.1629131585 0.02554698661 0.8495136499 -0.3972493708 0.5582664609 0.7058562636
0.1683404595 0.009221091866 0.8610023856 -0.1116018593 0.2096246928 0.9210674167
0.1633250713 0.0190466661 0.8529754281 -0.283996731 0.4454517961 0.7829750776
0.1692210138 0.02152706124 0.8560878038 -0.3264631629 0.4362515509 0.7660068274
0.1712845117 0.01507625077 0.860314846 -0.2132084519 0.2828068137 0.8583443761
0.1598162353 0.00983094424 0.853841424 -0.2022765428 0.4518715739 0.8241702318
0.1644655764 0.005958805326 0.8581596613 -0.1630580127 0.3591930866 0.8734622002
0.1560223997 0.01433367934 0.8501942754 -0.2286076993 0.5101022124 0.786403656
0.1705797762 0.000307052891 0.8638899326 -0.113845773 0.244562 0.9372615814
0.1617213935 0.002016745042 0.8612011075 -0.002438211581 0.3091045916 0.9008489847
0.164879173 -0.001240990008 0.8643839955 0.02959692851 0.2471834421 0.9357803464
0.1290901899 0.04700539634 0.8421905041 0.3418261409 -0.168582052 0.9156706929
0.1273553371 0.05211213604 0.8452777267 0.3648265898 -0.29343611 0.8697019815
0.1243836954 0.04463281482 0.84426862 0.4296554923 -0.1379794329 0.8895858526
0.1171171963 0.04296771437 0.8464513421 0.5190880299 -0.08921164274 0.8411894441
0.1162478477 0.0358510986 0.8477108479 0.5463960171 0.06690768152 0.832382679
0.1154048741 0.04856043309 0.8486146927 0.5470412374 -0.2204568982 0.8019250035
0.1219322234 0.03823488578 0.8471649885 0.4586295187 0.0551834479 0.8583293557
0.1289604902 0.0688303262 0.8500623703 0.3223669827 -0.405325979 0.8521411419
0.1327187568 0.05602307245 0.8422074318 0.2624559999 -0.3251764774 0.9019025564
0.1237493455 0.07636507601 0.8529727459 0.3817723989 -0.3820753098 0.8408148289
0.1206586286 0.05495759472 0.8480175734 0.4674504697 -0.3337083757 0.8160752058
0.1237804815 0.05990770087 0.8490052819 0.4206273854 -0.3676392734 0.826662004
0.1225651279 0.06966906041 0.8518487811 0.4106704295 -0.3838159144 0.825995028
0.1183941588 0.07336119562 0.8541417122 0.4696543515 -0.3635786474 0.8026658893
0.1113874018 0.06862644106 0.8693241477 0.7093421817 -0.3763928115 0.595620513
0.1115347967 0.06366248429 0.8648668528 0.6771741509 -0.3790597916 0.6260741353
0.1137584448 0.05939935148 0.8586092591 0.6252900362 -0.3761994243 0.6821928024
0.1174055934 0.06735027581 0.8625145555 0.6034193635 -0.3804749548 0.6903636456
0.1874071658 0.00694322167 0.8695173264 -0.3569130003 0.07841279358 0.9163190722
0.1928891391 0.005908912979 0.8726804256 -0.5640907288 0.08323530108 0.8068833351
0.1926623136 0.01197066531 0.8718369603 -0.4705812335 0.05609081686 0.8722103238
0.1667551398 0.0192500893 0.8728583455 -0.4445771873 0.4180516601 0.7807408571
0.1702335179 0.0145053491 0.8745741248 -0.4296651781 0.3527890444 0.8024958968
0.1751752198 0.01212790515 0.876943469 -0.4903062284 0.3359183073 0.7629799843
0.1938233525 0.0226575844 0.8746429086 -0.4635339975 0.1233404353 0.8742940426
0.1873323172 0.01632086746 0.8679857254 -0.3924847543 0.06395027786 0.9104654193
0.1828332096 0.02474452928 0.8593030572 -0.445146054 0.166548416 0.8549451828
0.1877962053 0.02385376208 0.8624821901 -0.500376761 0.1489185542 0.8351969719
0.179235816 0.02880462445 0.8564356565 -0.4846710265 0.3140407503 0.7870151401
0.1773449183 0.03357983008 0.8527292013 -0.5379846096 0.4127710164 0.7303918004
0.1808222085 0.02008442208 0.8631693125 -0.3824100494 0.1909961998 0.8703141809
0.1722117513 0.02692692168 0.8553262353 -0.441200912 0.480529964 0.72363621
0.1757339835 0.02370740473 0.8587431312 -0.4119200408 0.3569461405 0.7867356539
0.1804983318 0.0139716547 0.8642268181 -0.3265391886 0.1892804801 0.888612926
0.1808304787 0.00666978443 0.8669427037 -0.2091078013 0.09793125093 0.9578226209
0.1742251068 0.01026080083 0.8640300035 -0.1472285092 0.1683167517 0.9244776964
