# .PCD v0.7 - Point Cloud Data file format
VERSION 0.7
FIELDS x y z normal_x normal_y normal_z
SIZE 4 4 4 4 4 4
TYPE F F F F F F
COUNT 1 1 1 1 1 1
WIDTH 512
HEIGHT 1
VIEWPOINT 0 0 0 1 0 0 0
POINTS 512
DATA ascii
0.06296332181 0.09123470634 0.8457164764 0.03834114969 -0.07899787277 0.9929335117
0.06807090342 -0.03023076244 0.897718668 0.01101027057 0.5610997081 0.7368806005
0.07277645916 -0.02962381393 0.9088491201 -0.1119977981 0.6681187153 0.5311018825
-0.05615548417 -0.00428600749 0.9627866149 -0.1205859557 -0.02515014634 0.9923779964
-0.05457261577 -0.0110023804 0.9631006122 -0.1215183064 -0.02270875685 0.9923247695
-0.04735400528 -0.003855107818 0.9636294246 -0.1236295551 -0.02380446345 0.9919645786
0.0690349862 0.08719340712 0.8463243842 -0.199553594 -0.1642394513 0.9441842437
0.09897112101 -0.02191567048 0.9220502973 -0.6651241779 0.5797689557 0.466486603
0.07167745382 0.08883214742 0.8534454703 -0.1986270249 -0.08031038195 0.9521849155
0.04885942116 0.03335145488 0.8370394707 0.1028265283 0.1255907267 0.9822049737
0.07301075011 -0.02580281161 0.9019381404 -0.1262856275 0.6447587609 0.603305459
0.06082526967 -0.02803256176 0.8947241902 0.1607224494 0.539958179 0.7504120469
0.06781930476 -0.02813545801 0.8878419399 0.02031589858 0.4760896862 0.8765848279
-0.003705217969 -0.03191520646 0.9753001928 0.04847169295 0.4172900021 0.8415401578
-0.01450963598 -0.02270727418 0.9697749019 -0.174312517 0.1771603972 0.9481164217
-0.01274616737 -0.02987995185 0.9745134711 -0.1247894391 0.2032591105 0.9512323141
0.01726888493 -0.0389209725 0.9710683823 0.2244302928 0.7427713871 0.6300237179
0.0132259978 -0.03654970229 0.9590874314 -0.06907348335 0.6509581208 0.3256661594
0.01748955064 -0.02926936932 0.9423625469 -0.5070971251 0.5093994737 0.04274586588
0.0117888283 -0.04187282175 0.969987452 0.2228369266 0.7468886375 0.5274685025
0.01698950678 -0.0225976035 0.9306256771 -0.837628603 0.381560415 -0.1665787846
0.005633139517 -0.03967659548 0.9709911346 0.2108112574 0.7095766664 0.5219576955
-0.007713565137 -0.03188299388 0.968686223 -0.003722409951 0.3929320276 0.7745981216
0.003874182235 -0.0353718102 0.9648362398 0.01236985624 0.5852572322 0.489787668
-0.01057108864 -0.02758382075 0.9634968042 -0.1862262785 0.2588549256 0.7761474848
0.007435174659 -0.02659122273 0.9460644722 -0.4942130148 0.3960964084 0.205473274
0.01155041251 -0.03154064342 0.951320827 -0.2958628833 0.5578912497 0.1784353107
0.007330278866 -0.03290670738 0.9574298263 -0.1648352891 0.5542854071 0.3348225653
0.003496116726 -0.02793733031 0.9518933296 -0.3682246208 0.3945205212 0.352863282
-0.005261128303 -0.02752337418 0.9587706923 -0.2649914026 0.3051792979 0.6124975085
0.0004766345955 -0.0313812457 0.9606673717 -0.1464206278 0.454090178 0.5140213966
0.005225120578 -0.03562349081 0.9759300947 0.3144191206 0.7672578096 0.5516368151
0.001602725708 -0.02924085595 0.9695163965 0.06595548987 0.5097808838 0.7332722545
0.008829382248 -0.03326864168 0.9704387784 0.1526306421 0.6270920038 0.6814559698
-0.01375792362 -0.02308895811 0.9600406885 -0.3239163756 0.1413141936 0.8037904501
0.002131306799 -0.02223750018 0.9443128109 -0.6053070426 0.2577470541 0.2963865101
-0.008581090719 -0.01855633035 0.9542320967 -0.4430341721 0.1660485119 0.6301628947
0.009500287473 -0.02243506722 0.9371138811 -0.7319878936 0.3135832548 0.06222394481
0.02504599653 -0.03749712557 0.9680903554 0.1144805551 0.764333725 0.6335990429
0.03345832601 -0.001263522892 0.937073946 -0.6245068908 0.654864192 -0.2563455105
0.03100125305 -0.007378797978 0.9480934739 -0.6243069768 0.5516434908 0.1768047214
0.03306850791 -0.001909788931 0.9455699921 -0.7517402768 0.4958565831 0.1327982694
0.07659866661 0.04073984921 0.8389167786 -0.4100549519 0.04544712603 0.9048417807
0.1015420407 -0.007534628268 0.921150744 -0.7105388641 0.5110177994 0.4816609025
0.1009476557 -0.004148853011 0.9147797227 -0.6821142435 0.527782619 0.4991488457
0.06977921724 0.04083968326 0.8375584483 -0.2781325281 0.001718988176 0.9468354583
0.0655759573 0.03188339248 0.8377381563 -0.225423336 0.2016707063 0.9503847957
0.07233669609 0.03240543976 0.840431273 -0.3587540686 0.2198561728 0.9009352326
0.06294324994 0.03922659531 0.8365803957 -0.1350266784 0.03096521646 0.979650259
0.02668015286 0.08554437011 0.8668551445 0.516243875 -0.4766100645 0.708689034
0.03255363926 0.08800438046 0.8608651161 0.4796277583 -0.4581139982 0.7448290586
-0.04233523086 0.003373378655 0.9639377594 -0.1195498109 -0.02786329016 0.9924371243
0.0105499411 0.06717520207 0.8711152673 0.6353719234 -0.3320917189 0.6808312535
0.00371238729 0.06123754382 0.8721286058 0.6642230749 -0.2693255842 0.6919702291
0.01468269434 0.07231134176 0.8704977632 0.6003334522 -0.3855033815 0.6855950356
0.01674143039 0.07925900072 0.8696807623 0.5596234202 -0.4602030218 0.6842892766
0.05921604484 -0.0247413516 0.9055579305 -0.1318326592 0.608564496 0.3982123137
0.04014320672 -0.01777627319 0.9097965956 -0.4580825567 0.5307537913 -0.03034117259
0.0523535423 -0.02100763842 0.9104990959 -0.3561760187 0.6037265658 0.1307468116
0.0511036478 -0.02524038032 0.897728622 0.03098363616 0.5101688504 0.5353149176
0.05294429883 -0.0237124823 0.9034415483 -0.1292099208 0.5591810942 0.3736810982
0.04457913712 -0.02044504695 0.9058921933 -0.2908242345 0.5290650129 0.1661041081
0.06713524461 -0.02347008698 0.9153827429 -0.3590869009 0.7194087505 0.1920272112
0.09137371182 -0.02192300744 0.9233424664 -0.5074743629 0.769628644 0.2984601557
0.09970397502 -0.01413788181 0.9230670929 -0.6694777012 0.5691313148 0.440677166
0.09586409479 -0.01478176564 0.907164216 -0.6845380068 0.4905518293 0.5279474854
0.02512934804 0.0244949162 0.8477653265 0.4915376902 0.2299887687 0.8382675052
0.05371841416 -0.0277678594 0.888528645 0.3079944253 0.4530207217 0.8339646459
-0.004207568243 -0.03712393343 0.9797691107 0.05337738618 0.4013720155 0.8944069743
-0.01003252994 -0.03634772822 0.974640429 -0.06266151369 0.2800380588 0.940795064
-0.01471568923 -0.03500244021 0.9692029953 -0.1207731664 0.2393394262 0.9120877385
-0.002149787499 -0.03907350078 0.9718514681 0.1549886018 0.5782988667 0.6708317995
-0.03374103829 -0.02477611415 0.9634776711 -0.2600918412 0.06372815371 0.963437438
-0.02664060704 -0.0296722129 0.9641265869 -0.2606341541 0.08619627357 0.9614629745
0.02256220952 -0.02783188224 0.9622335434 -0.07513487339 0.7003311515 0.462649256
0.02622835897 -0.01456502173 0.95163697 -0.4387513101 0.6275907159 0.2165486366
0.02009356767 -0.03327174857 0.9669642448 0.08646377921 0.7277280688 0.5627608299
0.02177322842 -0.02030348778 0.9573669434 -0.2443091124 0.6518339515 0.3206251562
-0.002983542392 -0.01133493148 0.9546550512 -0.3910053074 0.2854313552 0.5277255177
0.0222437121 -0.002470578998 0.942206502 -0.6973959208 0.5199272633 -0.0003763302811
0.01039609872 -0.00876196567 0.9457637072 -0.4187982082 0.5017637014 0.09883863479
0.02685181051 -0.004441787489 0.9360710979 -0.5261237621 0.7178974748 -0.3478562534
-0.00431934977 -0.0195329003 0.9632785916 -0.2047376335 0.3087264299 0.7522794008
-0.003156505991 -0.02519959211 0.9672005773 -0.05059348419 0.3799436986 0.8025715351
-0.01351416297 -0.01405279431 0.961471796 -0.3363368809 0.1347685307 0.8423765898
0.006017431151 -0.007483726367 0.9517867565 -0.5602248907 0.3240910769 0.4251408279
0.01579783857 -0.005251240451 0.9477219582 -0.6431155801 0.429353267 0.2293200195
0.01533794217 -0.01602956839 0.9558392763 -0.3441424072 0.530023098 0.370906204
0.01217619516 -0.02076231316 0.9601320028 -0.2064567804 0.5356864333 0.4839575887
0.01292694826 -0.009872003458 0.9518598914 -0.5091554523 0.4376957715 0.3359825015
0.01353189722 -0.03073410131 0.9672035575 0.06628860533 0.6520165801 0.5843291283
0.002428384731 -0.02022484131 0.9621317983 -0.2002149224 0.4034381807 0.6448631287
-0.006971089635 -0.01451265067 0.9602030516 -0.3377873302 0.2245187014 0.7356000543
0.008362120949 -0.01499662176 0.9567889571 -0.3575988412 0.4289669096 0.4780140817
-0.0110583147 -0.01981060021 0.9651432633 -0.1824726909 0.2237240821 0.8715711236
0.02239384688 -0.009523427114 0.9492712617 -0.5392848849 0.5575181246 0.1689166576
0.02736874111 -0.04061658308 0.9609771371 -0.2459754944 0.7706144452 0.3931800425
0.02244649269 -0.03203879669 0.9461006522 -0.5170434117 0.5864385366 0.1118333414
0.01811077259 -0.03565941378 0.9543582201 -0.2157606632 0.6296889186 0.2723645866
0.0202574227 -0.04027629271 0.9625203609 -0.05521521717 0.726115942 0.4270702302
-0.06634695083 -0.003675244981 0.9614557624 -0.1197506562 -0.02733738162 0.9924256802
-0.06057409197 -0.009338798933 0.9595917463 -0.1202971265 -0.02590644732 0.9923945069
-0.04722605646 -0.01066737529 0.9583320618 -0.1195498109 -0.02786329016 0.9924371243
0.05593452975 -0.02021691948 0.8887391686 0.2523930967 0.3958456218 0.8589467406
0.0621968098 -0.02366270684 0.8871628642 0.1041485369 0.4545088708 0.8710492849
0.05560252815 -0.01205135789 0.8869121075 0.2404466867 0.3057376146 0.8885025382
0.0660790056 0.0555735901 0.8421289921 -0.2081460357 -0.3027433455 0.9236541986
0.06736408919 0.04634882137 0.8421322107 -0.2493155897 -0.1104331911 0.9145108461
0.06784710288 0.02775470912 0.84220016 -0.2959982157 0.2579804361 0.9037978053
0.07236601412 0.05050449073 0.8430987597 -0.345223695 -0.1849234551 0.8863657713
0.07196901739 0.04704505578 0.837451458 -0.3141479194 -0.1488589644 0.9320626259
0.06687398255 0.06749515235 0.8416550159 -0.2371798456 -0.1837554723 0.951954186
0.08169532567 -0.02241437323 0.8875818849 -0.3612322807 0.5333083272 0.7485417724
0.08209662139 -0.02713273093 0.9047830701 -0.362421751 0.6230156422 0.6024147272
0.07864601165 -0.02718195133 0.8990343809 -0.2721652091 0.5819782019 0.679911077
0.09572391212 -0.003915676381 0.8941063285 -0.5543941259 0.3472831845 0.7185989022
0.09891747683 -0.009328955784 0.9071641564 -0.6370661855 0.4246337414 0.5982933044
0.09821481258 -0.000862275192 0.9012129903 -0.6073402762 0.4706445336 0.6009001136
0.09380645305 -0.01086725388 0.8950360417 -0.6773880124 0.4220725 0.5926724076
0.0966257751 -0.00972692389 0.9008039832 -0.6266264915 0.3884241879 0.6363517046
0.08873405308 -0.01680398732 0.9081225991 -0.4338088036 0.5638349056 0.5505495667
0.08939227462 -0.01934382506 0.9162406921 -0.4711250961 0.6846761107 0.4033446312
0.09222208709 -0.01444786694 0.9136133194 -0.5396517515 0.563539803 0.500428021
0.08452650905 -0.02480182238 0.9166513681 -0.361215353 0.7926037908 0.3410575688
0.07404716313 -0.02287411131 0.8948912024 -0.1295658797 0.5366345048 0.7307224274
0.07238607854 -0.02112684213 0.8875501156 -0.0804155916 0.4345026314 0.8641918898
0.08129588515 -0.02099322341 0.9012659788 -0.2620850503 0.57644701 0.6210502386
0.08588553965 -0.01666922122 0.886009872 -0.5018342137 0.4720689058 0.7017886043
0.08795975149 -0.02495295927 0.9090909958 -0.5231850743 0.6535936594 0.5121203065
0.08917549998 -0.01764973067 0.8974500299 -0.5899894238 0.5278232694 0.5735652447
0.08439730108 -0.0233821664 0.8956494927 -0.4300015271 0.5835007429 0.6581910253
0.05593979359 0.0002333307348 0.8859688044 0.2382414639 0.1451210827 0.923864603
0.07411774993 -0.01393223926 0.8856853247 -0.08694182336 0.3167622983 0.9083299637
0.06691660732 -0.008673564531 0.8858855367 0.04872466996 0.2524423599 0.910695076
0.05899943411 0.01945068315 0.8417530656 -0.1355675906 0.3550911844 0.9203651547
0.0497565791 0.02520518005 0.8406518102 0.09369148314 0.2343248427 0.9575843215
0.05727819726 0.03320127353 0.8362458944 -0.05717520416 0.1466273516 0.9820716977
0.05904098228 0.04545900226 0.8360605836 -0.06875438243 -0.1301835626 0.9855456948
0.0309913978 0.07302320749 0.8528946042 0.4186311364 -0.4631187022 0.7796730995
-0.03344206512 -0.001526829437 0.9684996605 -0.1627174318 -0.005865673535 0.9863899946
0.01123581547 0.06628890336 0.85974437 0.5815281868 -0.3897129297 0.701749146
0.01302162185 0.03446732461 0.8552126884 0.6352746487 0.06597361714 0.7555004954
0.009556718171 0.036522232 0.8620564938 0.682102263 0.004873394966 0.727770865
0.02756918781 0.02949685231 0.844291687 0.4442801774 0.1687410474 0.8748881817
0.0331951417 0.03546384722 0.8415115476 0.3786852658 0.1079354882 0.9135755301
0.03352082521 0.003852676833 0.8720015883 0.5697236657 0.1619802266 0.7904279828
0.03737686574 0.005358860362 0.8666456342 0.4868947268 0.2196428627 0.8206880093
0.0299939476 0.007798586506 0.8679494262 0.5734480023 0.1606277823 0.7928406
0.02251810022 0.01869705506 0.855098784 0.5470486283 0.1822256595 0.8122794628
0.03124486096 0.01193184406 0.860083878 0.497261256 0.2145155072 0.8232572675
0.02927158587 0.01700895652 0.8529921174 0.4605185091 0.2414570302 0.8408254385
0.03699247167 0.0412709564 0.8384361863 0.3238241374 0.01553161442 0.941960752
0.04414613545 0.04340492189 0.8370463848 0.1574400067 -0.05573242158 0.9823944569
0.04279408604 0.03578695282 0.8382371664 0.1976632029 0.08443078399 0.9713536501
-0.04588062316 -0.01499167643 0.9656728506 -0.1462818235 -0.01047405228 0.9887042046
-0.0404792726 -0.0119062122 0.9663565755 -0.1711099595 0.002036689781 0.9849002957
-0.02256058529 -0.01746157184 0.9625803232 -0.2368937284 0.0652005747 0.9678570032
0.03622698039 -0.02973031998 0.9583472013 -0.4587960541 0.7308383584 0.3502959907
0.03892899305 -0.01862131618 0.9531641006 -0.6010458469 0.6394687891 0.2528162003
0.04304682463 -0.001693721395 0.9452877641 -0.817756176 0.500038445 0.1050190404
0.04073423147 -0.006656384096 0.9506602287 -0.6837853193 0.515630424 0.2593825459
0.02916670777 -0.03222197294 0.9640412927 -0.06355385482 0.7289702296 0.5600361824
0.03250820935 -0.04235697165 0.9641290903 -0.2626802921 0.8377373815 0.4604982138
0.03466480598 -0.02291289158 0.9583225846 -0.3615910411 0.6552126408 0.4150756299
0.03770750016 -0.01248123683 0.9539664388 -0.5205119848 0.5630438328 0.3386770189
0.0366862379 0.0001357772271 0.9517515302 -0.6680504084 0.5202620625 0.2624548972
0.0319445096 -0.01444859337 0.9579515457 -0.3608238995 0.6216631532 0.4112655222
0.03407488763 -0.006034555379 0.9546336532 -0.5293639302 0.5683802962 0.3282256722
0.03861127794 0.01108348835 0.947776556 -0.8748518825 0.4578044116 0.1572677344
0.0504832603 0.01228814758 0.9499453306 -0.3984387815 0.700047791 -0.2815689445
-0.05146658421 -0.01783119887 0.9585276842 -0.1210436895 -0.02395155653 0.9923518896
0.05985698104 0.01370845456 0.8751623631 0.05978466943 0.009478853084 0.9893608093
0.05522227287 0.01507571526 0.8701796532 0.1241874993 0.06676644832 0.9781135321
0.042800311 0.02234449238 0.8424776793 0.249924764 0.2596563101 0.9314235449
0.04571666196 0.01970836148 0.8517899513 0.2280980349 0.2075636387 0.9430773854
0.04771526158 0.01762233488 0.858743906 0.2139691412 0.1714609116 0.9503425956
0.04668420553 0.01458071172 0.8642311692 0.238037318 0.1756344438 0.9369692802
0.05725456774 0.01881447248 0.8549528122 0.01144882198 0.173499763 0.9704130292
0.05425586179 0.02118665911 0.8462420702 0.03126058355 0.2393682301 0.9593320489
0.05410631746 0.01737019792 0.8622321486 0.1181927919 0.1016072929 0.9709268808
0.05216006562 0.008601371199 0.8556616306 0.1247174218 0.3016047478 0.9368245006
0.06248000264 -0.003267193912 0.8724116087 0.100796923 0.1631390154 0.9780908823
0.05556703731 0.004725617357 0.8611200452 0.1162526533 0.2563785911 0.9504064322
0.05682995543 0.01188119501 0.8497686982 -0.0350439176 0.3333418965 0.9336516857
0.04906782508 0.01374762319 0.8481958508 0.1035742015 0.3603140712 0.920067966
0.06950816512 0.08010531962 0.8457651138 -0.2982065082 -0.1907117963 0.9316095114
0.08885717392 0.001744647627 0.8861967921 -0.2865104973 0.2295280248 0.8992713094
0.08938055485 -0.003487583715 0.8914086223 -0.3643727303 0.240124315 0.838739872
0.0936363712 0.01060989965 0.8882941008 -0.4266401231 0.4293213785 0.7292006016
0.09651504457 -0.002658079145 0.9090482593 -0.610860765 0.4690609872 0.5724555254
0.09769322723 0.006840703078 0.9016649723 -0.610806644 0.5524615049 0.5481032133
0.09283319861 0.001468252623 0.8961629272 -0.4401525259 0.3604767025 0.7386934757
0.09696671367 0.01077369135 0.8958054781 -0.5613597035 0.5450603962 0.5892202258
0.09048842639 -0.01069887914 0.8868656754 -0.657286644 0.4095827043 0.6268299818
0.06113134325 0.01092693117 0.8828124404 0.06342546642 -0.009707539342 0.9940103889
0.07842228562 -0.00555984024 0.8842478395 -0.1687204987 0.1847526133 0.9464011788
0.0724247843 -0.001564736478 0.8844826818 -0.08409930021 0.1488709003 0.9562518001
0.06503974646 0.003702822607 0.8846734166 0.02053840272 0.09788439423 0.9698268175
0.07363308966 -0.01161533594 0.8792250752 -0.1169645339 0.2499773949 0.9587772489
0.06889592856 -0.01624517329 0.8806342483 0.005859445781 0.3206657469 0.9398784637
0.05496721715 0.09010738879 0.8457208872 0.1657700688 -0.1954679638 0.957343936
0.05842671171 0.07734035701 0.8437002301 0.03438708186 -0.1944632679 0.9692040682
0.06304319203 0.08283562958 0.8432909846 -0.0608613193 -0.1382980496 0.9777765274
0.04811393097 0.08233103901 0.8471495509 0.2717610896 -0.3066279888 0.9098921418
0.06708526611 0.08065487444 0.8605793715 -0.1575171798 -0.2592985332 0.8235792518
0.06571429223 0.08577182144 0.8569332957 -0.0825888589 -0.1553066969 0.8981574774
0.07278181612 0.08270202577 0.8584002256 -0.2495728433 -0.1712771654 0.8702469468
0.04454321042 0.08382494003 0.8608231544 0.3127931058 -0.3561069667 0.8113183975
0.07403988391 0.0772081539 0.8623394966 -0.325840801 -0.284519136 0.7895986438
0.07256284356 0.07408155501 0.8561466336 -0.3459284604 -0.247531414 0.8226766586
0.06143691018 0.07655566931 0.8577007055 -0.09447779506 -0.3009658456 0.8125960231
0.05130078271 0.07717862725 0.8566461802 0.148741588 -0.3195491433 0.8312136531
0.04371412471 0.07645331323 0.8540522456 0.3411150575 -0.3114703596 0.8654592037
0.05298372731 0.0798432976 0.8621547818 0.1061851457 -0.3745512664 0.7783393264
0.08073703945 0.07464729249 0.8617101312 -0.4921372533 -0.271265775 0.7824022174
0.03676806018 0.07682324946 0.8581216931 0.4229845107 -0.4108650386 0.8029481173
0.03849086538 0.08986219764 0.8559642434 0.4448723197 -0.439145267 0.7802891731
0.03638856858 0.08260209113 0.8625043631 0.4566781521 -0.4368178844 0.7748365402
0.02505135536 0.07915154099 0.8652101755 0.5146717429 -0.4856203794 0.7050822973
0.05910253525 0.06746203452 0.8418064713 -0.04747608677 -0.2097918242 0.9663216472
0.06247018278 0.06164744124 0.8402684927 -0.1422856897 -0.2168257385 0.9616314769
0.05868534371 0.05336317793 0.8380923271 -0.06094462425 -0.2474692166 0.9636725187
0.05990673602 0.03330939263 0.842016995 -0.1121054813 0.1342642307 0.9368345737
0.05971732363 0.02613033541 0.8418543935 -0.1176216155 0.2456257939 0.9385663271
0.05405734479 0.0419412218 0.8413327932 0.0313068442 -0.0252355393 0.9607803822
0.0598792918 0.04805056751 0.8421801329 -0.08688604087 -0.1177713051 0.9385413527
0.06537143886 0.03745758533 0.8422179818 -0.2312134951 0.05211233348 0.9172343612
0.0225599315 0.07057732344 0.8592046499 0.4886620045 -0.4595152438 0.7387431264
0.02992922254 0.07524488866 0.8604463339 0.4555948079 -0.455273509 0.7634989023
0.0124798771 0.07534940541 0.8644253016 0.5536434054 -0.4736068845 0.6846703887
0.03090281971 0.08224256337 0.856372118 0.4648644328 -0.4626067281 0.7528643608
0.02335450798 0.07811544091 0.8591580987 0.4995567501 -0.4752923548 0.7214165926
0.01772006787 0.06761743873 0.8559628129 0.5109605789 -0.4609723389 0.7224974036
0.04262093827 0.07802903652 0.847997427 0.3170697689 -0.3489365876 0.8795976043
0.03651069477 0.07983824611 0.8524616957 0.4097772837 -0.4303064644 0.8028536439
0.04237532243 0.07004787773 0.8465142846 0.3348559737 -0.3570924401 0.8693477511
0.03758211061 0.06483065337 0.8458274007 0.3026557863 -0.4097422063 0.8581585288
0.03779791296 0.07271161675 0.8527058959 0.4045245647 -0.4175402224 0.8065661788
-0.0364295058 -0.01754538715 0.9651626945 -0.219597429 0.0348065868 0.9735155106
-0.03454958275 -0.008359126747 0.9678994417 -0.1921707541 0.0137130674 0.9797938466
0.02627991326 -0.02849786915 0.9159705043 0.1117490977 0.5253765583 0.02747622505
0.02909435704 -0.03221684694 0.9097216725 0.5764374137 0.3840973377 0.3650327325
-0.0517606847 -0.001944124117 0.9564059377 -0.1195498109 -0.02786329016 0.9924371243
-0.04819745943 0.003806466237 0.9604716301 -0.1195498109 -0.02786329016 0.9924371243
0.008832331747 0.04310860112 0.859713912 0.7088524699 -0.02984016389 0.704300046
0.02368703671 0.03195297718 0.8489111066 0.5106944442 0.1469076872 0.8430554867
0.03501071781 0.02216685936 0.8454738855 0.3754614294 0.2616097033 0.8869834542
0.0409748219 -0.00197161641 0.8707793951 0.4218935668 0.3076657355 0.8420706391
0.04348517209 -0.01238452364 0.8829602003 0.4556321502 0.309656471 0.8240725398
0.04086399078 -0.005619826727 0.8774546385 0.4818224907 0.261395961 0.8173047304
0.04995130748 -0.01803940348 0.8933964372 0.1660361737 0.3941977322 0.6746705174
0.04896549508 -0.003844567109 0.8879956603 0.3460154533 0.2012945861 0.8635184765
0.04398119822 -0.01143976022 0.8984563947 -0.04891776666 0.3658789098 0.4215271175
0.04727100208 -0.01029497758 0.8933927417 0.1481488496 0.3128077686 0.6451745033
0.04549247772 -0.01862122305 0.8997979164 -0.08511283994 0.4521989822 0.3886182606
0.03617456555 -0.008988566697 0.8963032365 0.2368636876 0.2259688675 0.4211885631
0.04430956021 -0.001787738292 0.8921567798 0.1992408633 0.2030464858 0.658827126
-0.04031553864 -0.00664987741 0.9584288001 -0.1503047347 -0.01359633449 0.9882838726
-0.02897391282 -0.005911447108 0.9636096954 -0.1786602736 0.01021979842 0.9832784534
-0.04269276559 -0.0001234040828 0.9588102698 -0.1362196505 -0.01712341234 0.9898542762
0.02457456104 -0.0106527647 0.9248567224 -0.480722636 0.7071430683 -0.4794819355
0.02501876839 -0.007088080514 0.9301754236 -0.4753731191 0.7257786989 -0.4227748513
0.03308698907 -0.006129778456 0.9303346872 -0.4440905154 0.7590592504 -0.4523044229
0.0310315676 -0.01211211644 0.918381989 -0.6877830625 0.5729262233 -0.4083351791
0.01232080907 -0.01064312644 0.9377748966 -0.3624129593 0.5854452848 -0.1138430089
0.00137189508 -0.01203449816 0.9481250048 -0.3407202363 0.4016008675 0.283608526
0.01967078634 -0.007446860895 0.9384407997 -0.4209670424 0.6651294827 -0.2302347273
-0.002766145393 -0.01746505871 0.9487966299 -0.5073915124 0.2316537946 0.436924994
0.004579224158 -0.01636981964 0.9425711036 -0.528626442 0.3493084311 0.1853490621
0.01811488159 -0.0144272279 0.931073606 -0.5709537268 0.5642056465 -0.2775856256
0.03463494405 -0.007524022367 0.9234753847 -0.3305844963 0.7167983651 -0.3812630773
0.04223478213 -0.00253824261 0.9100419879 -0.03839994967 0.4707211852 0.1776466817
0.03678603843 -0.008012280799 0.9161983132 -0.4840410948 0.5190320015 -0.1744850278
0.04347273707 -0.002037178725 0.9176825285 -0.1682303697 0.5328628421 0.04348707199
0.04118047282 -0.00380584714 0.9317629933 -0.429577142 0.7137956023 -0.3540630639
0.0421259366 -0.003508233931 0.9034240842 -0.08536344767 0.3524178267 0.3084764183
0.04082548246 -0.004271538462 0.9239380956 -0.3650643229 0.6144788861 -0.1942319721
0.04590458423 -0.0002290229459 0.8991858959 0.14637205 0.2956216037 0.5439917445
0.03640877828 -0.008234809153 0.9085307121 -0.3836160302 0.4336315393 -0.01495321002
0.05338482186 -0.005336101633 0.9365341663 -0.3685551286 0.8162919879 -0.3226103187
0.04605942965 -0.004521415569 0.9361009598 -0.4318915308 0.7879894972 -0.389970392
0.06664315611 -0.01198981795 0.9327699542 -0.3552975357 0.8488956094 -0.1297059059
0.05722793937 0.001213199575 0.9428883195 -0.1987672895 0.8562247157 -0.3828969002
0.0781480372 -0.02158242278 0.9262288213 -0.4503376186 0.8457378745 0.1179095581
0.07450162619 -0.01549811848 0.9309705496 -0.358779639 0.8587162495 -0.003918405622
0.05053598806 0.005517754238 0.9457640052 -0.2452914268 0.8106514812 -0.44206357
0.06338205189 -0.006473578047 0.9372495413 -0.3417153358 0.8218923211 -0.1785107851
0.04809399694 0.0001745117333 0.941245079 -0.6004564166 0.6561149359 -0.1910104603
0.03614511341 0.003266864456 0.9417042732 -0.8320097327 0.4794248641 0.01013996452
0.04077894613 -0.008995732293 0.9424849749 -0.5779855251 0.6938502789 -0.1463980377
0.03988897428 -0.01424184535 0.9475588202 -0.6604016423 0.6391932964 0.08928700536
0.02672398649 -0.01649639755 0.9264365435 -0.5370163321 0.7177667618 -0.4413255751
0.03420978785 -0.03713253513 0.9597954154 -0.3143500388 0.8351005912 0.3128726184
0.02912086807 -0.03036050871 0.9451159835 -0.4121459424 0.7795625329 -0.02234141901
0.03222603351 -0.01345708501 0.9325413704 -0.4890190959 0.7448428869 -0.4159601331
0.03460376337 -0.02195079066 0.944855392 -0.4087299407 0.7881747484 -0.1077863351
0.03276565298 -0.01802481711 0.9380384088 -0.4536601901 0.7632876635 -0.270947814
0.02423083782 -0.02548387088 0.9326794147 -0.4955343902 0.731513679 -0.2980838716
0.02922372147 -0.02591361292 0.9407207966 -0.4399235845 0.7657349706 -0.1459086537
0.03626956418 -0.02677338384 0.9523279071 -0.3598024249 0.814853549 0.07604112476
0.02899604104 -0.03704940528 0.9533917904 -0.4403886199 0.7336642742 0.235312894
0.08600179106 0.04349337891 0.8448963761 -0.5743207932 -0.01971294917 0.8098036647
0.06972901523 0.0603559278 0.8451766968 -0.3208043873 -0.2930013239 0.8958525658
0.06505440921 0.0741699636 0.8435246944 -0.2097062767 -0.1674463302 0.9628079534
0.07783035189 0.07714468241 0.8526634574 -0.4731152356 -0.2062452883 0.8518099785
0.076756455 0.08492544293 0.853372097 -0.3487450778 -0.1766424179 0.9050086737
0.08801343292 0.07663428783 0.8625456095 -0.5069625378 -0.2479483634 0.8081154227
0.06087785214 0.06845749915 0.8486094475 -0.116998978 -0.2784718573 0.9054198265
0.06775076687 0.07062520832 0.8518719673 -0.2597946823 -0.2606669366 0.8682568073
0.05369441956 0.07153803855 0.8503844142 0.08028654754 -0.2835130095 0.8946569562
0.07691719383 0.02282871865 0.8463143706 -0.4323093295 0.3842355907 0.8012527823
0.08614692092 -0.0048273094 0.8824068308 -0.2857291698 0.1328338385 0.9447398186
0.08279808611 -0.0124439802 0.8823954463 -0.3081103861 0.3033222258 0.8672907352
0.04389608651 0.08623753488 0.8502908945 0.341211617 -0.3628067374 0.8599228263
0.05655154958 0.05979437754 0.8429148793 -0.002503210213 -0.2867522836 0.952373445
0.04929179698 0.04937003553 0.8404687047 0.1122054085 -0.1509682238 0.9602873325
0.04422222078 0.06358659267 0.8449697495 0.2238313705 -0.3645389378 0.8990267515
0.03441886604 0.05060596019 0.8408459425 0.3175675869 -0.188220188 0.9222825766
0.02814532816 0.05125079677 0.8438984752 0.4168853462 -0.1689807773 0.8878565431
0.03072833084 0.06047329307 0.8452894092 0.3546145558 -0.369831264 0.8543729186
0.03221065924 0.06605602056 0.8491327167 0.3740034997 -0.4136223197 0.8247711658
-0.03355978802 -0.01190373208 0.9589999914 -0.1793104112 0.007001254708 0.98357898
-0.04198530316 -0.01426988281 0.9589999318 -0.146259129 -0.01013141684 0.9883247018
-0.04335194454 -0.02118682303 0.9598903656 -0.1647155881 0.00432104338 0.9842301011
-0.02931579575 -0.02021149732 0.961352706 -0.2347014099 0.04534129798 0.9697879553
-0.02853621542 -0.02370761149 0.9670903087 -0.2370810658 0.05982546136 0.9688969254
-0.03023430519 -0.0169242993 0.9679150581 -0.2155853063 0.0399154909 0.9740576744
-0.02177294716 -0.02767774835 0.9696987271 -0.2337357253 0.07170309126 0.969453156
-0.02422430925 -0.01349241938 0.9682956338 -0.2223778665 0.04540975392 0.9716345072
0.03921461105 -0.01204137038 0.8881207705 0.577152133 0.2342008352 0.7725702524
-0.05971186981 -0.002378517296 0.9569439888 -0.1195498109 -0.02786329016 0.9924371243
-0.05996232852 0.003039096016 0.9622182846 -0.1195498109 -0.02786329016 0.9924371243
0.01773582026 0.02556108497 0.8494583368 0.5523694754 0.1732378751 0.8121071458
0.01594973356 0.03806347772 0.8509987593 0.6186775565 0.04825675115 0.774803102
0.01568406634 0.04540221766 0.8509671688 0.6487239003 -0.02035984769 0.7601627111
0.02966302074 0.04257666692 0.8440297842 0.4113994539 -0.02503642812 0.9011468887
0.027136622 0.05864891782 0.8517749906 0.4585718811 -0.289863348 0.8014678359
0.02409889363 0.05232741311 0.8528007865 0.5070950389 -0.1894521564 0.7942353487
0.02601586655 0.04609680548 0.8483647108 0.4492909014 -0.1274606884 0.8500096202
0.02163717523 0.04182252288 0.851243794 0.5267002583 -0.04692639038 0.8210975528
0.005837115925 0.04572057351 0.8666818738 0.7013482451 -0.09161253273 0.6994498372
0.005026611499 0.05165230483 0.8689380288 0.6986862421 -0.1475945115 0.689917028
0.007675864268 0.06955803186 0.8648043275 0.5827494264 -0.4061744213 0.6964343786
0.006021519192 0.06320614368 0.8657785058 0.6265729666 -0.2995159328 0.7067246437
0.01735693775 0.05429141596 0.8512831926 0.6115837097 -0.1525298208 0.7691473365
0.01923896931 0.06164632738 0.8530063629 0.5389137864 -0.3390086889 0.7498483062
0.02444193326 0.06497688591 0.8499044776 0.4304007292 -0.4419572949 0.7851009369
0.01388906687 0.05793136358 0.8562332392 0.6129461527 -0.2604864538 0.7297774553
0.01365628 0.04765961692 0.8573064804 0.6530650258 -0.103789933 0.7320259809
0.009409663267 0.0501531437 0.8621228933 0.6618774533 -0.138475135 0.7137874961
0.01030290127 0.05694553629 0.861777246 0.620927453 -0.2649345994 0.7080757022
0.03300340846 -0.01322713401 0.9026246667 0.2978744209 0.2264394015 0.3062145412
0.06684091687 -0.03037745692 0.9077502489 0.04875801876 0.6579227448 0.5228670835
0.05222109333 -0.0331075564 0.9066112638 0.41345644 0.5390569568 0.5263195038
0.05653068423 -0.03265557438 0.8981668353 0.287925303 0.5342097878 0.7113460302
0.06020923704 -0.03172531724 0.904509306 0.2085952163 0.5916283727 0.5821587443
0.06061224639 -0.01404873282 0.9297971725 -0.3981451988 0.8078480959 -0.1260737926
0.04660682753 -0.02613295242 0.9133161306 0.2656879425 0.5716612935 0.2956306636
0.07156403363 -0.02082161792 0.9253348708 -0.3458182216 0.8217968941 0.07370354235
0.05062220991 -0.0197268445 0.9211872816 -0.02824832313 0.6703364849 0.0787082985
0.06414365023 -0.02913694642 0.9145570993 0.07327405363 0.6765270233 0.3595716655
0.04440616071 -0.03167121485 0.9068340063 0.4981942773 0.4962435067 0.480694145
0.06355904043 -0.02111706883 0.9229859114 -0.1992796957 0.7563871145 0.09892091155
0.05380285904 -0.01251413953 0.9297090769 -0.3364012837 0.7710047364 -0.1629194766
0.07491374016 -0.02848231606 0.917992413 -0.132938996 0.767236948 0.3172505498
0.05664275214 -0.03087171726 0.9107967615 0.2619392276 0.5998914838 0.4307911992
0.0577147156 -0.02602071688 0.916257143 0.07283592224 0.6592914462 0.2703574896
0.04380357638 -0.01397709921 0.9209752679 -0.6433291435 0.635263741 -0.2756681442
0.06752745062 -0.01675819233 0.9284906983 -0.4391304255 0.8316347599 -0.05749369413
0.04889844358 -0.01279405598 0.9253510237 -0.5642696023 0.704051733 -0.2535864413
0.05770109594 -0.01679846644 0.9235283732 -0.5472851992 0.7324749231 -0.1312715709
0.04080815986 -0.02273112163 0.9152508974 0.2162819803 0.5746805072 0.16990228
0.04148168117 -0.01152425259 0.9275868535 -0.1680561006 0.688298583 -0.17708157
0.0362230204 -0.02887399495 0.9091715217 0.3996479213 0.4998854399 0.3171598315
0.0334722437 -0.02366418019 0.9141139388 0.149550721 0.5582805276 0.0983902365
0.03556326032 -0.01822766289 0.917531848 -0.03342877328 0.6502960324 -0.112184383
0.07242766023 0.001961112022 0.8669645786 -0.1725292504 0.2761383057 0.8969307542
0.07022578269 0.008018166758 0.8573953509 -0.2102715075 0.4107863605 0.8167815208
0.07067985088 -0.002603897592 0.8730543852 -0.07300234586 0.1812061518 0.9570852518
0.0787204653 0.013354172 0.8562126756 -0.4089942276 0.5439567566 0.670788765
0.07455384731 0.01319880132 0.8517397642 -0.3655102253 0.518404007 0.7390290499
0.07934937626 0.002095617121 0.8713639975 -0.261582315 0.2163609415 0.8842881322
0.07678300887 -0.003124614945 0.8765923977 -0.1689291894 0.1274147779 0.9678243995
0.05955199525 0.007823972031 0.8557441235 -0.0201931037 0.2888769805 0.9446960688
0.06202529371 0.003205852117 0.8625885248 0.008664457127 0.2379173934 0.9576917291
0.06304980069 0.01148220431 0.8508459926 -0.1215779856 0.3447791338 0.9147594571
0.06802029163 0.01510755438 0.8466323614 -0.2622208893 0.4533820748 0.8310399055
0.0659083426 0.0003737579682 0.8671981096 -0.01460083481 0.231655702 0.9389964342
0.04843675718 -0.003999027424 0.868494153 0.2756715417 0.3155234456 0.9061616063
0.04787032306 -0.009789287113 0.8760197759 0.3289878368 0.3292033672 0.8799635172
0.04269053042 0.001838174649 0.8638381362 0.340860486 0.3288300931 0.8778710365
0.05556758121 -0.006267573684 0.8762356043 0.228742823 0.191840753 0.9509269595
0.05423176289 -0.001672097482 0.8713056445 0.2154445946 0.2011829913 0.9498687387
0.04404742643 0.007594748866 0.856112659 0.2631558776 0.3356986046 0.9003005624
0.05422358587 -0.01333030127 0.877533555 0.2339262664 0.3125756085 0.9203093648
0.04877918586 0.003129595658 0.8596588373 0.1959550679 0.351012826 0.9130180478
0.0396740362 0.01450695004 0.8494417071 0.296905458 0.3353342414 0.8903523088
0.06365579367 -0.01004180219 0.8769064546 0.09515787661 0.2437574416 0.9616408944
0.06015812978 -0.01648494042 0.8800830841 0.1650295705 0.320700556 0.9290420413
0.04848599806 -0.02404946834 0.8863195777 0.3682933748 0.4299105108 0.8209850192
0.04997522384 -0.01707669534 0.8821617961 0.3271527588 0.3515225649 0.8694281578
0.08129715174 0.01291173231 0.8869031072 -0.2757445574 0.2781377435 0.7918946743
0.07504686713 0.01305001415 0.885432303 -0.1816548854 0.1802809983 0.8501035571
0.08441948146 0.006455947179 0.8826155066 -0.2098248005 0.1924632043 0.9312949181
0.09589543194 0.02676211298 0.8628668785 -0.7620073557 0.4387432635 0.4660590887
0.09689556807 0.02422570996 0.87277776 -0.6941583753 0.4557311535 0.5150446296
0.09845513105 0.03416994214 0.8650996685 -0.7043656111 0.2263521105 0.5825158358
0.07153782994 0.006505025085 0.8818067312 -0.0782853961 0.02989754453 0.982930243
0.07865481824 0.00219379738 0.8820495605 -0.162675336 0.08739279956 0.9694295526
0.1008621901 0.05685740337 0.8622328639 -0.6085271835 -0.2252495587 0.7605951428
0.0979404524 0.06515105814 0.8633116484 -0.5994617939 -0.2548586726 0.7581940293
0.09097906947 0.04316128045 0.8497608304 -0.6522375345 -0.01689945348 0.7560706139
0.09627667814 0.03418733552 0.8575239778 -0.7085399032 0.1968957186 0.6287703514
0.09999345243 0.04182861373 0.8582581878 -0.6848329306 0.01379370503 0.6967414021
0.08050019294 0.03921401873 0.846462667 -0.4959467053 0.04700329527 0.8308409452
0.07820854336 0.04932491854 0.846231997 -0.4565549791 -0.184010312 0.8407355547
0.08233565092 0.03279180825 0.8470082283 -0.5261614919 0.1883790195 0.8210288286
0.0876936689 0.03405132145 0.8503068686 -0.6132000089 0.1385919303 0.7762052417
0.05615827814 0.09083883464 0.8528603911 0.1567131877 -0.2077837735 0.9125247002
0.04705230147 0.08813219517 0.855922699 0.3091885746 -0.335891813 0.8465685248
0.06534862518 0.09179526567 0.8517489433 -0.01948343962 -0.03711832687 0.9888273478
0.04928477108 0.09064118564 0.8506307602 0.286901921 -0.3285319805 0.8846709728
0.05071485043 0.04483923689 0.8360584378 0.05377342924 -0.1092783213 0.9893128276
0.04082670063 0.05148106068 0.8384343386 0.2111872286 -0.2252540588 0.9482911825
0.05036601424 0.06172470748 0.8404135108 0.1282259375 -0.2348062396 0.9620913267
0.05396253988 0.07190328091 0.8431428671 0.1288816035 -0.2301446497 0.9644116759
0.04339940473 0.05689779297 0.8406065106 0.2013167888 -0.2857915163 0.9341267347
0.03253653646 -0.01998263411 0.9000570178 0.7857604027 0.169898212 0.5716689229
0.03701201826 -0.03376577049 0.9029179811 0.6982630491 0.4217088819 0.5647807121
0.04316765815 -0.03436483443 0.89969033 0.603993535 0.4460158348 0.6506902575
0.03951516002 -0.02940801345 0.8968122602 0.6289739013 0.4026273489 0.6530396342
0.03822007403 -0.02136975154 0.8911672235 0.5698292255 0.3499377072 0.7323507071
0.04520412534 -0.02719629928 0.8904397488 0.470554024 0.4349792898 0.7639737725
0.04877747968 -0.03257037699 0.894487679 0.4480397999 0.4689260125 0.7555066347
0.03462551162 -0.01623689011 0.8949509263 0.7295766473 0.1949867308 0.6516419649
0.0210444387 0.01907417923 0.8646447062 0.6214613318 0.1117160469 0.7729061246
0.01816846989 0.02381260693 0.8571950793 0.5942081809 0.1353578568 0.7892622352
0.02542786859 0.01239610743 0.8666439652 0.6040271521 0.1344175935 0.7818365097
0.02695922181 0.009667482227 0.8741458058 0.6408228874 0.09963422269 0.7603325844
0.04226414859 0.0003068009974 0.885178864 0.5002298355 0.1183385402 0.844547987
0.0365435183 -0.003554960713 0.885340035 0.6325405836 0.1020400822 0.7636359334
0.03712242097 0.004265898373 0.881300807 0.5404149294 0.1111410931 0.8207136393
0.05234974995 0.010484959 0.8831390738 0.2184872329 0.04138769209 0.9601246715
0.02751861513 0.01968031563 0.8697214723 0.5293241143 0.09577798843 0.8244655132
0.03328617662 0.01487562899 0.8742681742 0.4881648719 0.1040246189 0.8490507007
0.04555009678 0.006506918464 0.8829458356 0.3791555166 0.1071037576 0.90612185
0.04095068946 0.01273189951 0.8780375123 0.3841424584 0.08180232346 0.8927260637
0.0210983064 0.02732060291 0.86196661 0.5563919544 0.08489611745 0.8046931624
0.03224600106 0.02393213846 0.8651155829 0.4216096401 0.08213488758 0.8703038096
0.03455422446 0.02087999135 0.8709995747 0.399612397 0.0559640415 0.8733206987
0.01950689778 0.03058599867 0.8553254604 0.5686383843 0.1155847758 0.8078335524
0.04563609138 0.01646644436 0.8764562011 0.2682538927 0.04183729738 0.9338450432
0.05072722211 0.01293964498 0.873908639 0.2009832859 0.1007979959 0.9577776194
0.04001415893 0.0166004952 0.8557235599 0.311324507 0.2468121797 0.9014161229
0.03126258776 0.02468796819 0.8566284776 0.4231859148 0.1574467272 0.8690279126
0.04158918932 0.01898891293 0.8674467206 0.3075754642 0.1055412889 0.917542398
0.03701763973 0.02136406489 0.8622004986 0.3581258655 0.1345698386 0.8956692815
0.09414673597 0.01719782315 0.8743292689 -0.4706511497 0.4823236167 0.6561377048
0.0945449993 0.02049661428 0.8671867251 -0.6267152429 0.43247509 0.5837075114
0.08726964146 0.01338353846 0.8835754991 -0.2108719349 0.5753863454 0.734189868
0.09976922721 0.03283134475 0.8759733438 -0.6051504612 0.2038454562 0.6652101278
0.09720090777 0.02684310824 0.8790678382 -0.5112855434 0.33981511 0.6683402658
0.101236634 0.04367800057 0.8658613563 -0.6361702085 -0.03665995598 0.7211289406
0.0923030749 0.01919059642 0.8807358146 -0.3208132982 0.5165065527 0.7035864592
0.09787427634 0.02218151093 0.8852590919 -0.5548704863 0.4408109784 0.6190892458
0.08120616525 0.01256862469 0.8779423833 -0.1496140957 0.6121265292 0.7566484809
0.08834560215 0.03256503865 0.8590142727 -0.5337402225 0.1687486172 0.7616791129
0.08021124452 0.01854357682 0.8719474077 -0.2779169083 0.4726648331 0.7662777901
0.08661720157 0.02969760448 0.8646469116 -0.4421329498 0.2399403006 0.7608450055
0.08090177178 0.009762356058 0.8623542786 -0.3800022006 0.4013539255 0.7453138828
0.09185158461 -0.00145199371 0.8813069463 -0.4935184419 0.2823729515 0.8048583865
0.08677577972 0.0005095514935 0.8770335913 -0.3853667378 0.2201629728 0.848572433
0.08719065785 0.005074174143 0.8716410995 -0.4507832825 0.3472284079 0.7542790771
0.09176823497 0.006997988559 0.8795003891 -0.3520494401 0.4733995795 0.7877904773
0.09085191786 0.02288633399 0.8570766449 -0.6785265803 0.4796960652 0.5348607302
0.09051505476 0.01171880309 0.8717799187 -0.4322164059 0.5085070729 0.7052141428
0.08868566155 0.01780413836 0.8607620001 -0.5594140887 0.5448052883 0.5870348215
0.08687417954 0.06957554817 0.8612938523 -0.5768757463 -0.2840790451 0.7656471133
0.08657664806 0.05149438605 0.8484390378 -0.5879735947 -0.2261961251 0.7637537122
0.09083161503 0.05387303978 0.8538134098 -0.5984756947 -0.272118032 0.7474710941
0.08114304394 0.05645342916 0.8491429687 -0.4787507653 -0.3021360338 0.8176569343
0.07839798182 0.06311172247 0.8473699689 -0.4954597354 -0.3039985895 0.8056697249
0.07566032559 0.05797932297 0.8430399299 -0.4208553135 -0.27059865 0.8542414904
0.07790844887 0.07064913213 0.8494799733 -0.4927961528 -0.2369061112 0.8297242522
0.02826127782 -0.0233731214 0.9066741467 0.8713147044 0.03632975742 0.4839290977
0.02980999462 -0.01618952118 0.9087722898 0.06991332024 0.2970043421 0.07631036639
0.02005701512 -0.01832341403 0.9207149148 -0.5815601945 0.522138536 -0.2851515412
0.02420671843 -0.01781680062 0.9148173332 -0.0400452204 0.3108692765 -0.02053077891
0.0615320988 0.02127525397 0.8481464982 -0.1305291653 0.2493736893 0.9421153665
0.06238878146 0.01606777497 0.8666824102 -0.04497088492 0.0901562646 0.9737002254
0.06446858495 0.01963963918 0.8556070328 -0.1600848585 0.1956859827 0.9417631626
0.06843579561 0.02376548946 0.8483449221 -0.2510525584 0.2619167268 0.9158501029
0.07284580916 0.028490467 0.8466923237 -0.3327655196 0.229098767 0.8980277777
0.07361299545 0.0183153376 0.8635895252 -0.1996333599 0.1926471293 0.9181287289
0.07548248768 0.02584869787 0.852627337 -0.326120466 0.2112483233 0.8919939399
0.09477236122 0.04033361375 0.8631789684 -0.5415890813 0.02913387492 0.7431189418
0.09448377043 0.03019542247 0.8718144894 -0.3960163295 0.2693369985 0.7401963472
0.08724585921 0.01773972809 0.8770048022 -0.2218897492 0.5466771126 0.7382960916
0.08920709789 0.02315574139 0.8740311861 -0.2958560884 0.4227792621 0.7389835715
0.09487169981 0.0468792282 0.8557807803 -0.6407803893 -0.1208815128 0.7526168227
0.1006997004 0.04965630919 0.8597071767 -0.6353369951 -0.1509076804 0.752387166
0.08357311785 0.02600659989 0.8497477174 -0.5280007124 0.3148995936 0.7669161558
0.07230185717 0.0162208546 0.8705192208 -0.1262395233 0.1393535137 0.9336841106
0.07738701254 0.02182311937 0.8591201901 -0.3163161576 0.2012515813 0.8789877295
0.08174818754 0.02178835124 0.8644416332 -0.3861018717 0.3635385931 0.7789154053
0.08298242092 0.02575795166 0.8597072363 -0.4471238256 0.2123464942 0.805388391
0.06771562248 0.01143005956 0.8762364388 0.01866911165 0.1427471638 0.9791676402
0.08240457624 0.0188996736 0.852529645 -0.5135684013 0.6039588451 0.5914586782
0.09425557405 0.06020097062 0.8571586609 -0.6011765003 -0.2912098467 0.7426043749
0.08788982779 0.06159571186 0.8563687801 -0.5773762465 -0.3045024872 0.7573782802
0.09366635978 0.06969293952 0.8641356826 -0.5930172801 -0.2904806435 0.7502755523
0.08258549869 0.07103057951 0.8550828695 -0.5411105752 -0.2387126088 0.8016109467
