# .PCD v0.7 - Point Cloud Data file format
VERSION 0.7
FIELDS x y z normal_x normal_y normal_z
SIZE 4 4 4 4 4 4
TYPE F F F F F F
COUNT 1 1 1 1 1 1
WIDTH 512
HEIGHT 1
VIEWPOINT 0 0 0 1 0 0 0
POINTS 512
DATA ascii
-0.07074400783 -0.1820066273 0.959386766 0.4924428761 -0.2665030062 0.8260070682
-0.05835431814 -0.2541730404 1.014528871 0.2110348046 0.7913981676 0.2019988745
-0.07262483239 -0.256534338 0.9939420223 0.2220029533 0.4301152229 0.7184358835
-0.06933894008 -0.2624454498 0.9963399172 0.2277753055 0.4496103525 0.6626897454
-0.06035274267 -0.2582500577 1.01028645 0.2173867971 0.7038375139 0.3109820485
-0.05391984805 -0.2544095516 1.020574093 0.2088738233 0.8940904737 0.05101451278
-0.06344216317 -0.260771513 1.005100131 0.2223455459 0.6057870984 0.4424580336
-0.07109598815 -0.2504614592 0.9982595444 0.2133462131 0.5262488723 0.606153965
-0.0733062923 -0.2644067705 0.9901430607 0.2325019985 0.3362942338 0.8190339804
-0.07750511169 -0.2552513182 0.9876602888 0.2230663896 0.3271912634 0.8745900989
-0.06806454808 -0.2574834228 0.9999025464 0.2206880748 0.5287559628 0.5700753927
-0.07019144297 -0.2682441175 0.9930570126 0.2357035577 0.3722012639 0.7489068508
-0.06511901319 -0.2649369538 1.001270175 0.2286324799 0.524969995 0.5411898494
-0.06385626644 -0.254329443 1.006865382 0.2142942399 0.6595469713 0.393730551
-0.07662147284 -0.2618438005 0.9864896536 0.2310500443 0.2830677927 0.9085576534
-0.06433065236 -0.1701580584 0.9615027905 0.4654710293 -0.3941139877 0.7898927331
-0.06789495051 -0.1747276783 0.9620162845 0.4647198319 -0.3622408807 0.806307137
-0.05952049419 -0.1638717949 0.9622400403 0.4735240638 -0.4317214191 0.7662013173
-0.06377924234 -0.1977668852 0.9474966526 0.5346392393 -0.1260694712 0.8335700035
-0.05927745998 -0.20394063 0.9443686008 0.4846530557 -0.05002610013 0.8687164783
-0.06133059412 -0.2053131461 0.9522730708 0.5636184216 0.05392728001 0.8183698654
0.09145408124 -0.1627614051 1.040707588 0.2120488584 0.249808237 0.9447915554
0.1025190204 -0.1599552333 1.040923715 0.2444928437 0.2389882654 0.939738214
0.1013645455 -0.1816509813 1.049023628 0.3205553591 0.2064598799 0.9227023125
0.106046468 -0.1645397991 1.041000009 0.2444928437 0.2389882654 0.939738214
0.1102981567 -0.1703934371 1.041295171 0.2575770617 0.2348259538 0.9369308352
0.09731014818 -0.2342564315 1.048202753 0.5062145591 -0.161150679 0.8386989832
0.090963386 -0.2538656592 1.051107287 0.6754651666 -0.2510309517 0.6827918887
0.09643626958 -0.1661754847 1.039239764 0.2120488584 0.249808237 0.9447915554
0.1027581692 -0.1721369922 1.040521502 0.2354698181 0.2419974208 0.9411435723
0.09823467582 -0.2089203149 1.047240973 0.3981465399 0.00961571373 0.9120467305
0.09823682904 -0.2030045241 1.047263861 0.3779382706 0.05119302496 0.9229333401
0.09822165221 -0.219055295 1.047102094 0.4330764711 -0.06175403297 0.8931678534
0.09847070277 -0.2050991207 1.053039312 0.3542945683 0.05115107074 0.9299350381
0.09825820476 -0.1958948523 1.052696347 0.3560247421 0.1267371476 0.9215208292
0.1041311249 -0.2080299705 1.045874834 0.3797111511 0.0115813585 0.9234293699
-0.08034352213 -0.257240057 0.9819366932 0.2977246344 0.2920704186 0.907382369
-0.04211519286 -0.2586171627 1.032479048 0.4237844944 0.8637956977 -0.2596093714
0.1077229828 -0.2295941412 1.043170333 0.4407157004 -0.1383508593 0.8787807226
-0.03329937533 -0.2563812733 1.034995794 0.3893809915 0.8936169744 -0.1620344669
0.09851065278 -0.1895723492 1.05211091 0.3574451804 0.1788291931 0.9157245159
0.1055070236 -0.1940888017 1.048243642 0.3663875461 0.1472906321 0.9171053767
0.1065410301 -0.1999585181 1.047653317 0.3734556735 0.0980502367 0.9202964902
-0.03705008328 -0.1675504148 0.9555069208 0.058512602 -0.2839743793 0.9138562083
-0.03194673359 -0.1700100154 0.9532330036 -0.09084886312 -0.2140451819 0.9505394697
-0.03782085329 -0.1610763967 0.9588218927 0.1005670279 -0.3298742771 0.8688220382
-0.04463168979 -0.1582246274 0.9616469145 0.2985257804 -0.4207060337 0.8226529956
-0.06474491954 -0.1878895015 0.9498032928 0.4305194914 -0.2203733027 0.8715879321
-0.05755169317 -0.1979227215 0.9446440935 0.4152945876 -0.1652620882 0.8814888597
-0.05169524997 -0.2032253593 0.9409624934 0.3421849608 -0.1105171293 0.9233387113
-0.05597048625 -0.1578701138 0.9618609548 0.4560883641 -0.4676532745 0.7563281059
-0.04364349321 -0.1665005088 0.956834197 0.2066283524 -0.3412362635 0.8881490231
-0.04031398147 -0.1724348366 0.9533057213 0.0995426178 -0.2728285491 0.9392299652
-0.04890289158 -0.1655900329 0.9577217102 0.2893899679 -0.3677805066 0.8604214191
-0.05652640015 -0.1792122722 0.9580709934 0.314399302 -0.3144338727 0.8595739007
-0.04679964483 -0.1752787083 0.9521315098 0.1542603225 -0.2654158473 0.947671771
-0.04175406694 -0.1790339798 0.9514284134 0.08294321597 -0.2508154809 0.9613499641
-0.06514427066 -0.1796362102 0.961804688 0.4314717352 -0.3106309474 0.8281134367
-0.04701401293 -0.1816589385 0.9547379017 0.1632736623 -0.2620126605 0.9225700498
-0.07121707499 -0.1890632361 0.9550688267 0.521844089 -0.1764435023 0.832750082
-0.06738832593 -0.1939740479 0.9500392675 0.5366367698 -0.1498993784 0.8300133944
-0.07248613983 -0.2025791705 0.955901444 0.6823244691 -0.02104579285 0.7182410359
-0.07146754116 -0.1920295954 0.9601070285 0.60093683 -0.1541452706 0.7569670677
-0.06776849926 -0.1965482831 0.9572511911 0.5811121464 -0.07231350988 0.7875954509
-0.06718994677 -0.203648597 0.9546039104 0.6238889694 0.02485686168 0.7707827687
-0.04871686175 -0.1473704427 0.9684013128 0.3360447884 -0.5304548144 0.7741532326
-0.0411326699 -0.2465038002 1.027000427 0.3326176405 0.9427537322 0.002388839843
-0.04976290464 -0.2475591749 1.027805448 0.2704198956 0.9622325897 -0.01747218147
-0.0368219018 -0.2503902614 1.032670379 0.3667194843 0.9169689417 -0.06364370137
-0.04229529947 -0.2528080344 1.031386375 0.3953049779 0.8984082937 -0.1300110817
-0.02039191686 -0.2504243553 1.032401085 0.3515913188 0.9347766042 0.02034078352
-0.02518412285 -0.2473436296 1.034682631 0.3337524533 0.9415578246 0.03861401603
-0.03164877743 -0.2467550188 1.031232834 0.3312602937 0.9429062605 0.03020250611
-0.05232676491 -0.1533625722 0.9655482173 0.4193788469 -0.4910672903 0.7612440586
0.09454681724 -0.1584546268 1.037464023 0.2120488584 0.249808237 0.9447915554
0.08530886471 -0.1567301899 1.040719032 0.2120488584 0.249808237 0.9447915554
0.08784494549 -0.1489467919 1.035063267 0.2120488584 0.249808237 0.9447915554
0.09974917769 -0.1560815722 1.037605524 0.2363275141 0.2417113781 0.9410099983
0.09359215945 -0.1499188095 1.035308003 0.2156896442 0.2485940456 0.9442244768
0.0939796865 -0.2433194667 1.051483393 0.5730444789 -0.1989379972 0.7695500851
0.08855640143 -0.263600409 1.056759238 0.7118684649 -0.2707340419 0.6480326653
0.09849420935 -0.1687735766 1.044908285 0.2724152803 0.2265688479 0.9331378341
0.09997808188 -0.1737472415 1.046724916 0.2987642586 0.2157789171 0.9275829196
0.1106616855 -0.1787581444 1.041703224 0.306932956 0.2163787782 0.9261050224
0.1068563089 -0.1811759621 1.04522264 0.3180016875 0.2107044011 0.9235451221
-0.007693958003 -0.2590724826 0.9920864105 -0.1143127233 0.361076802 0.7168561816
-0.006999511272 -0.2585499585 1.020027637 0.293320924 0.8036894798 0.126838997
-0.0001628134196 -0.2641656995 0.9887939692 -0.2510150969 0.1910936683 0.8796628118
-0.003971370403 -0.2610146999 1.006836891 0.06179372594 0.5427950621 0.4465012252
-0.00182073575 -0.2626667321 1.000272274 -0.06092572212 0.4029952884 0.6134724021
-0.00671206601 -0.259470433 0.9992321134 -0.01943202317 0.4618224502 0.5758200288
0.10023278 -0.2416184545 1.05053556 0.5317248106 -0.1841003746 0.8110390306
0.09305278212 -0.2577572167 1.058682442 0.648743093 -0.2414620221 0.7023714185
0.09500990063 -0.2474013418 1.056827664 0.5697448254 -0.2048423737 0.7665787935
0.09814362973 -0.2359157056 1.054226637 0.4806336164 -0.1656725705 0.839256227
0.1073111817 -0.2173903733 1.04494524 0.394266367 -0.0719178915 0.9154064655
-0.07692394406 -0.2663750947 0.9806482792 0.3159237802 0.2923858762 0.9024223089
-0.08105600625 -0.2473338246 0.9843492508 0.2232966572 0.31950441 0.9204539657
0.09980197996 -0.2429606766 1.043480039 0.6160529256 -0.1998113245 0.7552931905
0.1065641046 -0.2359642684 1.041940689 0.5040555596 -0.16137214 0.8350701928
0.1062952355 -0.2415402681 1.041047692 0.554928422 -0.1823107898 0.8027479649
-0.05976660177 -0.2654817998 1.00798583 0.2187109143 0.6378293037 0.3889727294
-0.0701341331 -0.280695647 0.9876022935 0.2357229739 0.2328920066 0.9261234403
-0.07180447131 -0.2741729915 0.9886155725 0.243282184 0.2744463682 0.8660672903
-0.06681671739 -0.2729822993 0.9954871535 0.2318071127 0.3963244557 0.7077653408
-0.06059939414 -0.2672368288 0.9767048359 0.1418227404 0.2305207253 0.9604880214
-0.03238685429 -0.1534556448 0.9655684829 -0.009117627516 -0.4178284407 0.8273140192
-0.0394759737 -0.1527994573 0.9669475555 0.145397827 -0.4478723705 0.8129385114
-0.02490139566 -0.1537947059 0.9644297361 -0.1691836715 -0.3930463493 0.8391466141
-0.02662006021 -0.1618102491 0.9574301243 -0.2030731589 -0.2399464846 0.9129855037
-0.01930809952 -0.1548045725 0.9629001021 -0.2953913212 -0.3596864045 0.8551438451
-0.03211480752 -0.1594729722 0.9601396322 -0.06734783947 -0.2991113663 0.8845456243
-0.04637007788 -0.15261361 0.9672018886 0.315726608 -0.4768576622 0.794711411
0.1017827317 -0.1981045455 1.04578042 0.3724800646 0.1076794341 0.9207853079
0.1033434719 -0.1882103384 1.049293518 0.3571243286 0.1866332144 0.9150987267
0.1083396226 -0.1910550594 1.043788433 0.3654090464 0.1660280973 0.9156340957
0.1136010736 -0.1898053139 1.043179631 0.3629443049 0.1721581966 0.9154747725
-0.07288744301 -0.2180839777 0.9607979059 0.6304416656 0.2686301768 0.7037673593
-0.07200819254 -0.2124560773 0.9592911005 0.6698612571 0.1509374231 0.6951693892
-0.07098499686 -0.2721575797 0.9774583578 0.2308842987 0.2566186786 0.9289550781
-0.06499224901 -0.2781609893 0.978299439 0.1516624689 0.2396440506 0.95516783
-0.06526761502 -0.2716573775 0.9778026938 0.2140582055 0.2379509509 0.9457110763
-0.07279205322 -0.2659986317 0.9771175981 0.2903588414 0.25215289 0.9205006361
-0.07068809122 -0.2769666314 0.9833920598 0.2115602493 0.2186620086 0.9507545829
-0.06720861793 -0.1769031584 0.9557518363 0.46808213 -0.3257856667 0.8130806088
-0.06366425008 -0.1719612926 0.9537946582 0.4411467612 -0.3906050324 0.8013082147
-0.0648374036 -0.2154979259 0.9499756098 0.5878360271 0.2147903442 0.7689107656
-0.06530290842 -0.2093991488 0.9496560693 0.5723534226 0.09084440023 0.7945894599
-0.06158377975 -0.2202859372 0.9469764233 0.5382467508 0.2660314441 0.796715498
-0.06510847062 -0.2207231373 0.9535069466 0.599271059 0.3074611127 0.7346976995
-0.07688129693 -0.2608795464 0.9764624834 0.3115693331 0.2682720721 0.9097964764
-0.06673007458 -0.2607061565 0.9756254554 0.205969438 0.2372964174 0.9476348758
-0.04805150256 -0.1965850294 0.9431543946 0.1967166364 -0.2428680509 0.9447012544
-0.04311565682 -0.2067465037 0.9380010962 0.2272626758 -0.1084970832 0.9662387967
-0.04345132038 -0.2003135085 0.9409205317 0.1637119204 -0.206563741 0.9597045779
-0.04640426859 -0.1708910018 0.9481499791 0.2779923975 -0.3029156327 0.9086693525
-0.05110339448 -0.1674280465 0.9504230618 0.3323450685 -0.3583604395 0.8618638515
-0.0584478341 -0.1670257449 0.9540141225 0.4164917767 -0.4222982526 0.8015540838
-0.04601957649 -0.1632785648 0.9523127675 0.3400006592 -0.360622555 0.8597867489
-0.04490072653 -0.1576731801 0.9559281468 0.3878185153 -0.4101846218 0.8226274848
-0.03796394914 -0.1595255584 0.9505282044 0.1698491424 -0.3237038553 0.9073906541
-0.05556033179 -0.1608174592 0.957008779 0.4238593876 -0.4515452385 0.7840905786
-0.05051626265 -0.1586652994 0.9568848014 0.4121136665 -0.4386211038 0.7976692915
-0.03123374097 -0.1498075724 0.9502808452 -0.0261648912 -0.4197845459 0.8788576126
-0.04154016823 -0.1476303041 0.9584102035 0.2713868022 -0.5044647455 0.8145264387
-0.0353037864 -0.1546610147 0.9514315128 0.1021699533 -0.3692016006 0.8877137303
-0.04039405286 -0.1541622728 0.9550469518 0.2837875783 -0.4201128781 0.8323353529
-0.04809549451 -0.148054868 0.9624843597 0.3740588427 -0.5107351542 0.7688442469
-0.05882746354 -0.1689420044 0.9602280259 0.4189257324 -0.3861669898 0.8043742776
-0.05306565389 -0.173127383 0.9558873177 0.2788668275 -0.3163136542 0.8834747076
-0.06490512192 -0.2124846727 0.9546899199 0.6064796448 0.178684622 0.7714244127
-0.04252813756 -0.1449424922 0.963541925 0.2378344238 -0.5605734587 0.7910712957
-0.03711951151 -0.1415114105 0.9609594941 0.1290231198 -0.646240294 0.7434225678
-0.03651093692 -0.1450000107 0.9564912319 0.1148006767 -0.5381765366 0.8090390563
-0.02817595005 -0.1430768371 0.9539849758 -0.1039827392 -0.5825451016 0.7847656012
0.0858540684 -0.2685087621 1.050339818 0.7118684649 -0.2707340419 0.6480326653
0.0969183743 -0.180886358 1.045025826 0.2331836224 0.225347966 0.9458693266
0.09395612776 -0.1745987386 1.044031143 0.2220820487 0.2381963432 0.9453032017
0.09608113021 -0.1840710193 1.050808191 0.3252322078 0.2023608238 0.9216977358
0.08997131139 -0.1696522385 1.045678377 0.2432058752 0.2363913506 0.9385572076
0.0986449495 -0.1918415725 1.046002269 0.3089250922 0.1467041969 0.9342890978
-0.03763267025 -0.2097670734 0.9383989573 0.1996708512 -0.1510295272 0.965816617
-0.05127682909 -0.2125071287 0.9480077028 0.4745645523 -0.001247477718 0.8654950857
-0.04634031281 -0.2173674256 0.9459556937 0.4345908463 0.03754140809 0.8775978088
-0.03670786694 -0.1908176541 0.9489877224 0.06462062895 -0.1986572146 0.9465040565
-0.04239764437 -0.1891856492 0.9507867694 0.1500402689 -0.160892576 0.9352011085
-0.04481069371 -0.2003299296 0.9489520192 0.2645242214 -0.07683585584 0.8923124671
-0.04134548083 -0.1951431483 0.9492128491 0.1716374457 -0.1353647113 0.9190886021
-0.050646808 -0.198265031 0.9508830905 0.3495562375 -0.04034706205 0.8819769621
-0.040796455 -0.2051329762 0.9469428658 0.2421058714 -0.1150777787 0.909701705
-0.0384381637 -0.2002172023 0.9473829269 0.1604714692 -0.1408631653 0.9180865884
-0.03767156973 -0.2156541049 0.9439705014 0.2873434126 -0.1483067423 0.9289798737
-0.04808271304 -0.2063636929 0.9484962821 0.3686334491 -0.03617912531 0.8771033883
-0.04170172289 -0.2113194615 0.9458765388 0.3121617734 -0.1049428135 0.9085444808
-0.05475095287 -0.2056594491 0.9503000379 0.467943877 0.03592655808 0.8463923931
-0.03263706714 -0.2050786763 0.9431036115 0.1422049552 -0.1967977583 0.9483362436
0.1007028446 -0.2180472016 1.052416801 0.375195384 -0.06623405963 0.9228147268
0.09888572246 -0.2126326561 1.053977013 0.3452925384 -0.007685760036 0.9383762479
0.1043280661 -0.2225586772 1.045528889 0.4055520296 -0.1018109247 0.9069592953
0.09854588658 -0.2282039672 1.046921611 0.4624285996 -0.1269766688 0.8772733212
0.1021845788 -0.2236070484 1.051118493 0.3926533759 -0.1180944592 0.9117338061
0.1137962416 -0.2228026539 1.042870879 0.4147433639 -0.1055055782 0.9034483433
0.1124383807 -0.2052452713 1.043429494 0.3792782426 0.0495044589 0.9235212207
0.1208439097 -0.210120514 1.041078091 0.4164587557 -0.007984830067 0.9087225795
0.1128011942 -0.2117358446 1.045423388 0.4012405872 -0.0217593126 0.91482687
0.1167040318 -0.2140599191 1.041698575 0.4338275194 -0.060762126 0.898630321
0.1140655503 -0.2000694126 1.043406367 0.3746896386 0.1009779125 0.9203652143
0.1045875475 -0.2130886912 1.049825907 0.3827123046 -0.0264768675 0.9224641323
0.1061622649 -0.2276758999 1.048341513 0.4157754183 -0.1362753958 0.8982273936
0.1128543988 -0.2346370965 1.043762565 0.4646016359 -0.1608924717 0.8705760241
0.1042097658 -0.2325867862 1.046594501 0.464130044 -0.1523791254 0.871303916
0.1111730933 -0.2455919832 1.039654613 0.5985352397 -0.195449695 0.7723190784
0.09923852235 -0.2547889948 1.053288579 0.6268141866 -0.2337753028 0.7300476432
0.1067589521 -0.2453837842 1.046433806 0.5562992096 -0.2032479048 0.7980977297
0.1015092656 -0.2502434552 1.050796866 0.5938280821 -0.2177684307 0.7610452175
0.1008109897 -0.2568533123 1.047725201 0.6490190029 -0.2413489223 0.7171086073
-0.01282572281 -0.2651368678 1.035064578 0.3744345009 0.909881115 -0.1574721485
-0.009371240623 -0.2630448341 1.028878212 0.3807342649 0.9132338762 -0.1314380318
-0.0234402027 -0.2538047433 0.999309361 -0.01184396911 0.4878328443 0.5821172595
-0.02430086583 -0.2546615899 0.9925429225 -0.05599510297 0.3778884113 0.7004480362
-0.0192229636 -0.2562741041 0.9890854955 -0.12770845 0.3235811591 0.7811564803
-0.035343986 -0.2480686158 1.020139813 0.2537221909 0.8213627934 0.1644368768
-0.0312525183 -0.2510098517 1.006671906 0.1141350493 0.6044980884 0.421259582
-0.02033620514 -0.2573554814 0.9805085063 -0.1834748387 0.184210673 0.9310680032
-0.02976302989 -0.2521591485 1.001257896 0.05940437689 0.5172658563 0.5239325166
-0.01537559181 -0.2571133971 0.9939292073 -0.07607357204 0.3992418349 0.6847031116
-0.01060705725 -0.25796628 1.010560274 0.1616311371 0.657417953 0.3297021091
-0.02844303474 -0.2504952848 1.018986225 0.2332111895 0.8007856607 0.1863917112
-0.008122204803 -0.257959187 1.026676893 0.3868301809 0.9089333415 -0.01046272274
-0.01766801067 -0.2542715073 1.026058793 0.3553968072 0.9051502347 0.01963873394
-0.01598304324 -0.2560994625 1.006747246 0.09680192918 0.6008829474 0.4188221097
-0.01479034685 -0.2557228804 1.020640254 0.2886394858 0.8182848096 0.1273043007
-0.03544500843 -0.2472763062 1.027013779 0.3255067468 0.9311769605 0.03182636574
-0.01289950218 -0.2584388256 0.9880028963 -0.1507058144 0.3046527207 0.8036693335
-0.01876350679 -0.2546669841 1.012479424 0.1680599898 0.6926132441 0.3044479489
-0.02833236568 -0.2509744763 1.01179266 0.1356378198 0.687767148 0.3360200822
-0.02297510207 -0.252759397 1.016836524 0.2171625048 0.7636396289 0.2212980241
-0.02508927137 -0.2515289187 1.023525953 0.303046912 0.8699861765 0.08578456938
-0.02945800126 -0.249651596 1.026371598 0.3312135637 0.9173786044 0.03439799324
-0.01328319777 -0.2574336231 1.002117991 0.04035077989 0.5265207887 0.5103693604
-0.02385047078 -0.2530104518 1.007057905 0.08205020428 0.610642612 0.426548928
-0.009309968911 -0.2588579059 0.9815806746 -0.2564585805 0.2041932642 0.9321517944
-0.01815714501 -0.2692258656 1.036562204 0.3616645932 0.8853356838 -0.2839545012
-0.01965663396 -0.2654331625 1.031931877 0.3974803984 0.8865911365 -0.2098906636
-0.02611421607 -0.2657793164 1.038089871 0.3516691327 0.8873642087 -0.2941609323
-0.02785094269 -0.2608872056 1.036524296 0.3406300247 0.900619328 -0.2435440719
-0.03550369665 -0.2720393836 0.9941653609 0.008679259568 0.3175857365 0.6686378717
-0.03579735011 -0.270205915 1.000817895 0.08138348907 0.4055539668 0.5069211125
-0.03825190291 -0.2656417191 1.015710235 0.2396889627 0.6056874394 0.1473593861
-0.03913491219 -0.2629991174 1.024853587 0.3384285867 0.7274491191 -0.07425311953
-0.03496604785 -0.2514660954 0.972122848 -0.119106859 0.1725095361 0.9773824811
-0.0286567919 -0.2526150346 0.9732910991 -0.1504118145 0.1665058881 0.9732205272
-0.02081134543 -0.2561640739 0.9746687412 -0.190943867 0.1575864702 0.9682148695
-0.02486313321 -0.255591929 1.036518812 0.34637779 0.9347453117 -0.06131862104
-0.01716641709 -0.2481678128 1.03785646 0.3534194529 0.9352840185 0.01703925803
-0.01966417395 -0.2590786517 1.038766146 0.3651716113 0.9272193313 -0.06407338381
-0.01393559761 -0.258594662 1.036224127 0.3832989335 0.9217886329 -0.02741674706
-0.01493974868 -0.2526369989 1.031831503 0.3673202991 0.9289677739 0.004983193241
-0.01016416308 -0.2555640638 1.032017946 0.3886169493 0.9208811522 -0.01638287865
-0.02860289626 -0.1827424616 0.9513325691 -0.1324179769 -0.2184031159 0.9615860581
-0.03261720389 -0.1771954894 0.9513159394 -0.06486808509 -0.203366071 0.9706933498
-0.03601931036 -0.1816140115 0.9511101246 -0.00408844417 -0.2292681932 0.9700343013
-0.01930965483 -0.1484499574 0.9690455198 -0.1837594807 -0.5064513683 0.799359858
-0.01394862123 -0.1467812955 0.970058322 -0.2579088807 -0.534879148 0.7940820456
-0.02628221922 -0.1475330442 0.9702211618 -0.04710996151 -0.5317382812 0.7907575369
-0.02975557558 -0.142673552 0.9646974206 -0.00740568107 -0.6370376945 0.7461778522
-0.02278659493 -0.1443054527 0.9669736028 -0.114808701 -0.594688952 0.7661854029
-0.04066747054 -0.1460874975 0.9702180624 0.1755391061 -0.5536689162 0.7849746943
-0.03435569629 -0.1458723247 0.9696757793 0.07351558656 -0.5580322742 0.783065021
-0.032360401 -0.1392008066 0.959390223 0.009461336769 -0.6991852522 0.7103946209
-0.06615301222 -0.232335642 0.967990458 0.3717321157 0.4379467964 0.7963172197
-0.07243298739 -0.2284865528 0.9663476944 0.4550700486 0.4270944595 0.7696361542
-0.07282761484 -0.2409416586 0.9767153859 0.1915351599 0.4190259576 0.8848654032
-0.05993336812 -0.2221380472 0.9550447464 0.5210472941 0.3414405286 0.7673863173
-0.06689913571 -0.2212311625 0.960267663 0.5661566257 0.3433881402 0.7401460409
-0.05609432608 -0.2359366268 0.9677667022 0.2825539708 0.3374024332 0.8419830203
-0.054428339 -0.2342100441 0.9628192782 0.3245540261 0.3557658494 0.8282650709
-0.0631050542 -0.2273503244 0.9608889818 0.4943059981 0.4121528268 0.7506166697
-0.0475445129 -0.2449441701 0.9735968113 0.06018792093 0.260279566 0.9396404624
-0.06127848104 -0.2308641821 0.9649117589 0.4078451991 0.3804325163 0.7864298224
-0.0507398881 -0.2386187315 0.966247797 0.2158119529 0.3174809813 0.8753119707
-0.06216678396 -0.2387019396 0.9719395041 0.2152096033 0.4216502607 0.8630421162
-0.05483888835 -0.241484344 0.9726496339 0.1460424811 0.3367193639 0.8979095817
-0.04849788547 -0.2236625701 0.9461989999 0.4693958163 0.2854176164 0.8317614198
-0.05314305797 -0.225541696 0.9480535388 0.4934114814 0.3255235553 0.7992805243
-0.05595480278 -0.2190177441 0.9507759809 0.514221549 0.2728512287 0.7951459289
-0.07223720104 -0.2356835604 0.9671907425 0.3921900094 0.4336180985 0.8017211556
-0.07494153082 -0.2410416305 0.9700430036 0.3826821446 0.3912689984 0.8262839317
-0.08038815111 -0.2498984188 0.9770516157 0.3409234285 0.3236750066 0.8779092431
-0.07757348567 -0.2448545098 0.9731287956 0.380841136 0.3572664559 0.8444097638
-0.07660769671 -0.2546991706 0.9737480879 0.2845403254 0.3246756494 0.8950024247
-0.0717907548 -0.2464893013 0.9700437784 0.2069647908 0.3840175569 0.8947086334
-0.06760504097 -0.2510991693 0.9719187021 0.1878665984 0.3100850284 0.9264422059
-0.04076529294 -0.2742371261 0.9976629615 0.1037668437 0.3651382625 0.5847979784
-0.04131956398 -0.2696323395 1.010541558 0.228076458 0.5372625589 0.2730852365
-0.04091729224 -0.2716786563 1.004534364 0.1682958901 0.4569606185 0.418466568
-0.04483497515 -0.2820737362 0.984877646 0.03809788078 0.1947307438 0.8947977424
-0.04238270968 -0.278028667 0.9908366203 0.0617627278 0.2740979791 0.7502471805
-0.04713792354 -0.2757264376 0.9951301813 0.1503993422 0.3734689057 0.6435314417
-0.04611920938 -0.2730792165 1.001563311 0.1977143735 0.4534097612 0.4881465733
-0.04618928954 -0.2593694925 1.019300342 0.3431730568 0.7618414164 0.05302125961
-0.0466366224 -0.2671601176 1.007801414 0.2514409125 0.5769529343 0.3339636922
-0.04400153831 -0.2674072981 1.015157342 0.2978802025 0.623406589 0.1597147435
-0.04446271807 -0.2585622072 1.025388479 0.3839773834 0.8141827583 -0.09225666523
-0.04635206237 -0.2534272075 1.026946783 0.4001775384 0.8977333307 -0.1337358207
-0.05284165591 -0.2146528363 0.9405177236 0.4428886473 0.07644845545 0.887871325
-0.05243310705 -0.2201806158 0.9427803755 0.4752768874 0.1581141502 0.8574733138
-0.05478144065 -0.2090237737 0.9415682554 0.451577276 0.01886735298 0.886826992
-0.06025050581 -0.2106800824 0.9458817244 0.5156199336 0.09129181504 0.8415114284
-0.03097822703 -0.1656261384 0.9478953481 -0.07850494981 -0.2086592764 0.9707402587
-0.05384011567 -0.1783799827 0.9488347769 0.3239737451 -0.3074719906 0.8903010488
-0.05958848074 -0.1812073737 0.9493238926 0.3781956434 -0.2987520695 0.870367527
-0.05817462504 -0.1733392775 0.9514040351 0.3790242672 -0.3730248809 0.8386232257
-0.06534152478 -0.1900699288 0.9589568377 0.5068811178 -0.1624881923 0.8212727308
-0.0525466688 -0.1904091388 0.9540755153 0.3154522777 -0.145828858 0.8846011758
-0.05558956787 -0.1862164736 0.9565654397 0.327616632 -0.2062992603 0.8753711581
-0.04741388559 -0.1917838007 0.9517170191 0.2487076819 -0.1221246943 0.9082496166
-0.05855984986 -0.2006396949 0.9530113935 0.4897147119 -0.01087513566 0.840105474
-0.05702224746 -0.1944986284 0.9544228315 0.4165551662 -0.09382610768 0.8564819098
0.08743453026 -0.2713793516 1.058922648 0.7118684649 -0.2707340419 0.6480326653
0.08552864939 -0.2768391669 1.048447132 0.7118684649 -0.2707340419 0.6480326653
-0.02999067493 -0.2623178363 0.9753499031 -0.1312574893 0.146232143 0.9792776704
-0.03467071056 -0.2573634088 0.9732692838 -0.1178725138 0.1571053416 0.9802376032
-0.04088154063 -0.2211939096 0.9436565042 0.3790643215 0.002756149508 0.9026839137
-0.04623674229 -0.216505155 0.9404559731 0.3733453751 -0.01015052851 0.9240666628
-0.0319548063 -0.1977754533 0.9433261156 0.003063915996 -0.2354532331 0.9686191082
-0.02042901888 -0.2627547681 0.9761465788 -0.2213827521 0.1528731585 0.962898016
-0.02453835681 -0.2671632171 0.9775936604 -0.2148021609 0.1335455477 0.9669977427
-0.02058623917 -0.2863745093 0.9771555662 -0.2286915928 0.1134157553 0.9655439854
-0.01789368875 -0.2954952419 0.9770693779 -0.2303459346 0.09658987075 0.9680870771
-0.02465347573 -0.2762594521 0.9773679972 -0.2229912728 0.1336034238 0.964030087
-0.00607267255 -0.2666031718 1.020351768 0.2413837016 0.7546001673 0.101944223
-0.01016176958 -0.2671407163 1.024557829 0.3168329597 0.8388785124 -0.008978507482
-0.002135169692 -0.2749989331 1.007820249 -0.01672897674 0.4662829936 0.4814120233
0.002170244232 -0.2758715153 0.9944427013 -0.2431007028 0.2106134444 0.8259698153
-0.0002851231256 -0.2712586522 1.003744125 -0.06360298395 0.408514291 0.5877319574
-0.002180232899 -0.2671331167 1.010047674 0.06495954096 0.5500160456 0.4170638025
-0.004008280113 -0.2693495452 1.015293241 0.1394402981 0.6402471662 0.2558259368
0.0008747882093 -0.2772341669 1.002074122 -0.1294577569 0.3392551839 0.6563879848
0.00185851194 -0.2695775628 0.9913386703 -0.2559626698 0.1882024407 0.8595794439
0.0002527392353 -0.2678464055 0.9981490374 -0.1339405328 0.3248904347 0.6930209398
-0.003598517738 -0.2629688382 1.014238358 0.1584721804 0.651025176 0.2970864177
0.09489057958 -0.2633239627 1.054066658 0.700953126 -0.2652510703 0.6606965661
0.1029386073 -0.2578884065 1.041446567 0.6750599742 -0.2522445023 0.6907377243
0.1077983901 -0.251401037 1.038000107 0.6401638985 -0.2240717858 0.7345671654
0.1029105857 -0.2480939478 1.040558934 0.6677257419 -0.2147332579 0.7113812566
-0.02241548151 -0.3005692363 0.9812968969 -0.1847045273 0.04036327079 0.9814563394
-0.02052304149 -0.2667787671 1.024353266 0.3312748373 0.7856325507 -0.03146640584
-0.01486720238 -0.2683030367 1.021498561 0.2967658341 0.7822477818 0.05182125047
-0.02629693784 -0.2635930181 1.030789018 0.413625747 0.8480870128 -0.2072817981
-0.02472657152 -0.27062428 1.015717864 0.2129748315 0.6079170108 0.1839769781
-0.01771369018 -0.2743199468 1.008276582 0.1179761216 0.5383504033 0.3878409863
-0.02248577587 -0.2731302381 1.010476947 0.1443053484 0.5377160907 0.3229382634
-0.01853535511 -0.2701932192 1.01712966 0.2359086573 0.6802236438 0.1581796557
-0.02801422961 -0.2668499053 1.02361834 0.3165495992 0.7144504786 -0.02534577996
-0.02370004728 -0.279309988 0.9970297217 -0.03643254563 0.3028718531 0.6675595641
-0.02021298558 -0.2767373025 1.002859235 0.04385249689 0.4279457629 0.5232316256
-0.02865642868 -0.2748306692 1.006323934 0.08470336348 0.4196435213 0.4194452465
-0.01613642089 -0.2798224688 0.9975229502 -0.09832095355 0.3174812496 0.6625524759
-0.02596079372 -0.2814746499 0.991653204 -0.1069644764 0.1993971318 0.800552249
-0.02925431915 -0.2757948935 1.000365496 0.02570830099 0.3470747769 0.5592118502
-0.029223416 -0.2773071229 0.9946770072 -0.03701932728 0.272238791 0.6978052855
-0.03331208602 -0.2659861743 1.021902084 0.3076275587 0.6705389023 -0.000798988156
-0.0317488499 -0.2697603106 1.013622999 0.1992146671 0.546159029 0.2145098299
-0.03373378143 -0.2636041343 1.029376984 0.3943512142 0.7727578878 -0.1863301396
-0.03211731464 -0.2764070332 0.9866124392 -0.09282574803 0.1960627884 0.8679779768
-0.04444020987 -0.2486212403 0.9785334468 -0.03907688707 0.2198759466 0.9734733701
-0.03930379823 -0.2507220209 0.9776556492 -0.07443536073 0.1914415807 0.9753444195
-0.04139766097 -0.2467352897 1.020891786 0.2885499299 0.8475767374 0.1336577982
-0.04547102377 -0.2487561554 0.9847094417 0.008342557587 0.2886428237 0.8925400972
-0.03033859096 -0.2539779246 0.9868373275 -0.05270018056 0.2881282866 0.7943934202
-0.03782201931 -0.2491173744 1.004598141 0.1367100626 0.5826752186 0.474709034
-0.03029611334 -0.2547419965 0.9806548953 -0.1052469388 0.1913210899 0.9152419567
-0.03858345374 -0.2475462705 1.015295029 0.2312210351 0.7517091036 0.2681836188
-0.04230543971 -0.2484772056 0.9964783788 0.09141112864 0.4656735361 0.6503719091
-0.04343264922 -0.2487964779 0.9904715419 0.04646076635 0.3742254972 0.7721511126
-0.03565230221 -0.2516920567 0.9898246527 0.0003418239357 0.3467284143 0.7557625175
-0.03552601486 -0.2523841858 0.9844869375 -0.04549347982 0.2629480362 0.8597646952
-0.04815715551 -0.2479991615 1.00043273 0.1149248257 0.5401611328 0.5517850518
-0.04563771561 -0.2471820116 1.011780977 0.2238180488 0.7156213522 0.2998841703
-0.04816475138 -0.2472532541 1.021615028 0.2653023601 0.8722239733 0.09176702052
-0.0502974689 -0.2480095923 1.007876158 0.1505471915 0.6587024331 0.3944618106
-0.05334468186 -0.2477959841 1.013698578 0.2004874349 0.7515823841 0.2727619112
-0.05492756516 -0.2476432323 1.01945734 0.2412872016 0.8428361416 0.1503551304
-0.05408783257 -0.2480960786 0.992072165 0.08743643016 0.4117538631 0.7419536114
-0.06197683513 -0.247512728 1.009130359 0.2275119573 0.683427453 0.3839222789
-0.05504180863 -0.247886464 1.003234982 0.1538233012 0.5877342224 0.5016750693
-0.05090939626 -0.2483031005 0.9870326519 0.04096187651 0.3311305344 0.8465210795
-0.0618946515 -0.2477247864 0.9954736233 0.1528095007 0.4685944021 0.679426074
-0.0622084327 -0.2476182431 1.001605749 0.1880150288 0.5651761293 0.5471342206
-0.06494724005 -0.2477224618 0.9874562621 0.1275789738 0.3438009918 0.8573151827
-0.07070532441 -0.2474959791 0.9868660569 0.1589566767 0.3369826972 0.8782793283
-0.07670133561 -0.2477134764 0.9915570617 0.2155294567 0.4187341034 0.7756581306
-0.05987563729 -0.2479948848 1.0154531 0.2447008044 0.7869568467 0.2352125496
-0.06853172183 -0.2449261844 0.9804213047 0.160046041 0.3465355039 0.9156895876
-0.05739748478 -0.2479153872 0.982096374 0.05663465708 0.2642905712 0.9554997087
-0.0578578487 -0.2438690215 0.9771024585 0.1054410189 0.3524189591 0.9168942571
-0.06520877779 -0.2420759946 0.9762231112 0.1716654003 0.4028196931 0.8923116326
-0.03131005168 -0.1898009777 0.945627749 -0.06309693307 -0.2580854893 0.9622901082
-0.02055336721 -0.1804030091 0.950992167 -0.2710472345 -0.1903841347 0.9324527383
-0.02518304251 -0.1888357401 0.9478920102 -0.1413982362 -0.2334273458 0.9528660178
-0.02608905546 -0.1779865175 0.9485722184 -0.181110844 -0.1745435447 0.9619997144
-0.007908185944 -0.1491637528 0.9700000882 -0.3532690704 -0.4414052665 0.8244828582
-0.008123158477 -0.1660898924 0.9589182138 -0.4559655786 -0.2206151634 0.8620396852
-0.01281167846 -0.1707427353 0.9553558826 -0.4085169435 -0.1774211079 0.8938207626
-0.01776201837 -0.1440859884 0.963868022 -0.2546373606 -0.545265615 0.7793463469
-0.02278042957 -0.1411233395 0.9609779119 -0.1578947753 -0.6467927098 0.7311089635
-0.05271212012 -0.2456308007 0.9782699943 0.05351336673 0.3060113788 0.9389377236
-0.06312655658 -0.2549527287 0.9727721214 0.1672014892 0.2657039762 0.9479432106
-0.05955697596 -0.2611456811 0.9740827084 0.132249102 0.2598803341 0.9529504776
-0.06028610468 -0.2501219213 0.9688711762 0.1480917186 0.3461614549 0.922953248
-0.0548287183 -0.2903834283 0.9804885983 0.09430893511 0.174704358 0.9798231721
-0.05645867437 -0.2848384082 0.9779999852 0.09993454069 0.1900042295 0.9754741788
-0.0595359467 -0.2874722779 0.9830079079 0.1382694989 0.1846324503 0.9704428315
-0.06489612162 -0.2851060331 0.9849520326 0.1859137267 0.203593418 0.9585846066
-0.054759942 -0.2695399523 1.002642393 0.1624689996 0.5436112285 0.4973917902
-0.05929332599 -0.2777782977 0.9920115471 0.164927274 0.3324939907 0.7760615945
-0.05245120451 -0.27260378 0.9984343052 0.1308399886 0.4673948288 0.5887579918
-0.06647803634 -0.2782509029 0.9918428659 0.2214807719 0.3164001703 0.8133182526
-0.04862859845 -0.2801176906 0.9882313609 0.06825657934 0.2794187665 0.8184807301
-0.05324018002 -0.2643606961 1.009410501 0.1717607826 0.6755708456 0.3262844384
-0.05959889665 -0.271989435 0.9997039437 0.1916402876 0.4788328409 0.5909708142
-0.0576653704 -0.2807858884 0.9879213572 0.1390795857 0.2573089898 0.8677121997
-0.05457704514 -0.2603838146 1.014766812 0.1992929727 0.775455296 0.2025914788
-0.05675015599 -0.2744050622 0.9778643847 0.1373116225 0.246918574 0.9587773085
-0.04129882157 -0.1666555405 0.9474307895 0.238346681 -0.285933435 0.9268160462
-0.04037301615 -0.1740142256 0.9474582672 0.07732898742 -0.2274515778 0.9672968984
-0.03505554795 -0.1697059721 0.9472276568 0.0139376875 -0.1892979443 0.9797590971
-0.02935514599 -0.17332232 0.9479492903 -0.1402589828 -0.1457929611 0.9787855744
-0.05879790708 -0.1892071813 0.9469678402 0.3497977257 -0.2473371625 0.9022191763
-0.04426700249 -0.1837525815 0.9467597604 0.09497836232 -0.2693597078 0.9580407143
-0.04881269485 -0.1874701679 0.9460056424 0.184318766 -0.2661307454 0.9417530298
-0.03647006303 -0.1934534758 0.9436903 -0.004384814762 -0.269931823 0.9616623521
-0.0430778116 -0.190403074 0.9448658824 0.08785075694 -0.2746538818 0.956111908
-0.03825644031 -0.1859252751 0.9464924932 0.034252882 -0.2810150981 0.9578583241
-0.01429291349 -0.2615253329 0.9786098599 -0.2527115345 0.1956560761 0.9471980333
-0.02962935902 -0.2695330381 0.9767351151 -0.1719642431 0.1411814392 0.9723085165
-0.03170152009 -0.2750469148 0.9758958817 -0.1292372048 0.1264625341 0.9829135537
-0.03137420118 -0.2812992036 0.9762313962 -0.1268848628 0.1135757044 0.9846569896
-0.02963775769 -0.2909718752 0.9777907729 -0.1261550188 0.1015532911 0.9867326021
-0.002071358263 -0.2727464736 0.986982286 -0.3131864667 0.1227354258 0.9416942
-0.005872371607 -0.2685638964 0.9850496054 -0.3021355867 0.1396285295 0.9427409172
-0.01288105361 -0.266476959 0.9812859893 -0.2886880934 0.1745201945 0.9410497546
-0.01110023633 -0.272061646 0.9828827381 -0.2980523705 0.1385577023 0.9440554976
-0.01452401839 -0.2757990062 0.9806400537 -0.282951206 0.1305265129 0.9496380687
-0.01798744313 -0.2797960043 0.9781575799 -0.2644717991 0.1265221536 0.9554195404
-0.01941011101 -0.2706714869 0.978133738 -0.2778445184 0.1447235346 0.9495966434
-0.01552499365 -0.2852030694 0.979159534 -0.2615487874 0.1141635478 0.9575898647
-0.007757408079 -0.2763511837 0.9847168326 -0.3027745485 0.1229371354 0.944709003
-0.03780457377 -0.2801202238 0.9815533161 -0.07819474488 0.1397980005 0.983140707
-0.02706876956 -0.2830466628 0.9841505289 -0.1761911511 0.1079562083 0.9770483375
-0.03969397768 -0.2889162898 0.982491076 -0.03199919686 0.1165315732 0.9843312502
-0.03430563584 -0.2853156924 0.9833171368 -0.09649641067 0.1159937158 0.9813027978
-0.05395345017 -0.2629955709 0.974470675 0.05726157874 0.2468208075 0.9656118155
-0.05018201843 -0.2561893165 0.9702766538 0.04072638601 0.2890421748 0.9490380883
-0.04067723453 -0.2644549012 0.9746848941 -0.06854496896 0.1777708977 0.9808146358
-0.04126034677 -0.2567649782 0.9727102518 -0.0778696686 0.1927661896 0.9773007035
-0.007551679388 -0.1541087329 0.9653812647 -0.4164493978 -0.3467931151 0.8382453322
-0.006857371423 -0.1601778418 0.9637719393 -0.427698344 -0.2896267474 0.851216495
-0.01840750314 -0.1593055576 0.9595625997 -0.3342360556 -0.2769854665 0.890042603
-0.0243792329 -0.1709575355 0.949672401 -0.2214877456 -0.1747192293 0.9480689168
-0.02074550465 -0.1664055884 0.950951159 -0.2693705261 -0.223070696 0.9192225337
-0.01733267307 -0.1734756827 0.9522070885 -0.3577998579 -0.1517551243 0.9172080755
-0.02880868129 -0.1606243104 0.9480367303 -0.1022849157 -0.2791830301 0.9481257796
-0.01674672402 -0.1631756276 0.9545099735 -0.4063977301 -0.2414784878 0.8725447059
-0.02527190186 -0.1530601978 0.9494993091 -0.1919638515 -0.3594705462 0.9004090428
-0.02029225416 -0.1569708586 0.9526621103 -0.3209148049 -0.3192082942 0.8753808141
-0.0550076142 -0.2385883182 0.9590160251 0.3055268824 0.3951327205 0.8432146311
-0.05860314891 -0.2454758286 0.9656789899 0.1737507731 0.3980104923 0.8932650089
-0.04571133479 -0.2384152561 0.9618752599 0.1849964708 0.299382776 0.8752125502
-0.04946146905 -0.2350241244 0.9591554999 0.2907712758 0.343906343 0.8412939906
-0.03990615904 -0.2479769289 0.9725656509 -0.06412798911 0.2039529234 0.9716511369
-0.05368988588 -0.2438813895 0.9629436135 0.2054971308 0.3682241738 0.883970201
-0.04082210362 -0.2445740253 0.9674015641 0.01509356033 0.2333459556 0.9346407652
-0.05421538278 -0.2297362685 0.9525377154 0.450866282 0.4136119485 0.7815589905
-0.0532210283 -0.2491326481 0.9668908715 0.1106029972 0.348546356 0.9229627848
-0.04782789573 -0.2441341579 0.9649289846 0.1198140383 0.3069569468 0.9066073298
-0.06544342637 -0.2407514602 0.966024816 0.2090670466 0.4503113925 0.864770174
-0.06850470603 -0.2291969061 0.96009022 0.4741185308 0.3867983818 0.7858555913
-0.06813789904 -0.2367711812 0.9621536136 0.2749444544 0.4095033705 0.8549382091
-0.06341066211 -0.2338560373 0.9584498405 0.3419621587 0.4136984348 0.8264594078
-0.06189894304 -0.2294277996 0.9539385438 0.4093908072 0.3694833517 0.8164160252
0.0889980197 -0.2690577209 1.045272231 0.7118684649 -0.2707340419 0.6480326653
0.09484560043 -0.2728251815 1.039269805 0.7118684649 -0.2707340419 0.6480326653
0.08947494626 -0.2758674622 1.039792538 0.7118684649 -0.2707340419 0.6480326653
0.09858770669 -0.2638337314 1.044685245 0.7118684649 -0.2707340419 0.6480326653
0.09475772828 -0.266913861 1.048393965 0.7118684649 -0.2707340419 0.6480326653
0.09077265114 -0.2698954046 1.053291321 0.7118684649 -0.2707340419 0.6480326653
0.09036915004 -0.2772854269 1.045005918 0.7118684649 -0.2707340419 0.6480326653
0.08946756274 -0.2673063576 1.061755061 0.7118684649 -0.2707340419 0.6480326653
0.09494523704 -0.2637141645 1.040461898 0.7118684649 -0.2707340419 0.6480326653
0.09646224976 -0.2550925612 1.041507721 0.7089440227 -0.251506418 0.6582312584
0.1007190049 -0.2621983588 1.037174821 0.6934601665 -0.2599321604 0.669822216
0.08971442282 -0.2634652257 1.047892332 0.7118684649 -0.2707340419 0.6480326653
0.09201723337 -0.2584086657 1.047500372 0.7118684649 -0.2707340419 0.6480326653
0.09425092489 -0.2510472238 1.046308398 0.7075405121 -0.2422785014 0.6631259322
-0.03949408606 -0.2958199084 0.9802101254 -0.01669787243 0.09247518331 0.9881445169
-0.03237857297 -0.297975868 0.980265975 -0.08641150594 0.06875097007 0.9863435626
-0.03445579112 -0.2909731567 0.9823588729 -0.07873883098 0.1065844744 0.9828169942
-0.01818956621 -0.297473073 0.9834997058 -0.2207067907 0.05736992136 0.9712867141
-0.02340835705 -0.2897129357 0.9840102196 -0.1960394233 0.07957437634 0.9766852856
-0.02330468036 -0.2915561199 0.9768483639 -0.1879479438 0.1021879911 0.9757788777
-0.008802027442 -0.2818200588 0.9836531281 -0.2902761996 0.1144799665 0.9492088556
-0.01243298221 -0.2942635417 0.9819765091 -0.2680545449 0.0944390744 0.9579336643
-0.002501752926 -0.2866994441 0.9879906178 -0.3175538778 0.1089135408 0.9416658878
-0.007558910176 -0.2897966802 0.9839626551 -0.2876597643 0.1053157151 0.9507586956
-0.002884091344 -0.279522568 0.9873529077 -0.3206394315 0.1212565824 0.9393799305
0.002688371576 -0.2839592397 0.991286397 -0.3256693184 0.1177757159 0.9380756021
-0.008629255928 -0.2763276696 1.011128783 0.08240930736 0.5603090525 0.3477564454
-0.009235248901 -0.2711625993 1.018503189 0.2092325091 0.7120530009 0.1540118009
-0.002796473447 -0.2851291001 0.9951600432 -0.2274975777 0.2091864794 0.8069521785
-0.008694403805 -0.2804848552 1.005585194 -0.008862101473 0.4488358796 0.4888298213
-0.005618209485 -0.2821196616 1.001206636 -0.1053655893 0.3451957107 0.6276982427
-0.008259299211 -0.2878216803 0.9948202372 -0.1916870922 0.2293841839 0.7686346173
-0.01035271678 -0.2888793647 0.9893588424 -0.2769929767 0.1279705316 0.8984804749
-0.01321249083 -0.2730966806 1.011986375 0.1186927557 0.5983710289 0.2961992025
-0.01415058039 -0.2829566002 0.9931463003 -0.1986028403 0.2211625874 0.7791612148
-0.03957429901 -0.2727163136 0.9760549068 -0.06796304882 0.1614863724 0.9832906127
-0.0530966185 -0.2799374759 0.977653861 0.1136055216 0.2009434253 0.9715994
-0.03496687487 -0.266149193 0.9759655595 -0.09982782602 0.1438998133 0.9845246673
-0.04782541841 -0.2655056119 0.9747958779 -0.009089122526 0.2133874744 0.9752138257
-0.05127315596 -0.2710455358 0.9765304923 0.06241873279 0.2335051894 0.9667550921
-0.0429341644 -0.2888550162 0.977571249 0.008308220655 0.112257503 0.9925785065
-0.0475733839 -0.2775667012 0.9775705934 0.05120616406 0.1779118925 0.9810816646
-0.04421856999 -0.282274425 0.977627635 0.006196428556 0.1333825141 0.9905497432
-0.05044894665 -0.2865493298 0.9779365063 0.07343084365 0.1561469138 0.9832739234
-0.03728483245 -0.2842780352 0.977109313 -0.05792126432 0.1042449623 0.9920549393
-0.01990018599 -0.1472934783 0.9593513012 -0.3023509085 -0.5108366609 0.7933020592
-0.01348286495 -0.1570198089 0.9571860433 -0.4089955986 -0.3170839846 0.8489512801
-0.02277212963 -0.1493742317 0.9532331824 -0.245923236 -0.4617553651 0.8327232003
-0.01789541729 -0.1520831734 0.9561960101 -0.3276259899 -0.4267879128 0.8182328939
-0.01201481558 -0.1533407718 0.9619565606 -0.4057935476 -0.3657182753 0.8305502534
