# .PCD v0.7 - Point Cloud Data file format
VERSION 0.7
FIELDS x y z normal_x normal_y normal_z
SIZE 4 4 4 4 4 4
TYPE F F F F F F
COUNT 1 1 1 1 1 1
WIDTH 512
HEIGHT 1
VIEWPOINT 0 0 0 1 0 0 0
POINTS 512
DATA ascii
0.0865149498 -0.2322942466 1.067467809 0.03426666185 0.01430161204 0.9971600771
0.08418148756 -0.2362450212 1.065161943 0.01225656644 0.01041863021 0.9977404475
0.08682448417 -0.2265764773 1.069552898 0.05353545025 0.01382045634 0.9976947904
0.0817784816 -0.2314055264 1.068143129 0.0127393268 0.02549756318 0.9970493317
0.07325834781 -0.2424046993 1.065025687 -0.07648998499 0.05336277559 0.9949098229
0.07592532039 -0.2384180725 1.066142321 -0.04467197508 0.04308344796 0.9957800508
0.08182792366 -0.2417945266 1.064366102 -0.03229428828 0.03253486007 0.9981686473
0.08707457781 -0.1880296767 1.064489603 0.1950612813 -0.02043669857 0.9805781245
0.08407758176 -0.1825287938 1.068769574 0.1950612813 -0.02043669857 0.9805781245
0.07867005467 -0.2091235518 1.063558221 0.1643041074 -0.01510309801 0.9853436351
0.06830224395 -0.2295143455 1.066811919 -0.0108642634 -0.001578130992 0.9997740388
0.07742960006 -0.2290394902 1.068207145 0.01752035692 0.01226473972 0.9985535741
0.06004449725 -0.2451326996 1.063572168 -0.09331648797 0.03981324658 0.994667232
0.06540468335 -0.2381918281 1.065801382 -0.05216257647 0.03468515351 0.9977735877
0.06386285275 -0.2504736483 1.065255046 -0.08835589141 0.03444282711 0.9952135086
0.07151789963 -0.2361466289 1.064472914 -0.02059637383 0.003470453667 0.9990009069
0.07438676804 -0.2470168322 1.064738393 -0.09530889243 0.05749168247 0.9937454462
0.06981994957 -0.250602603 1.065989137 -0.0864796564 0.03765711561 0.9952053428
0.0743810609 -0.2531795502 1.065820813 -0.1000785679 0.04571992904 0.9938969612
0.06846090406 -0.2451030761 1.064104319 -0.09443096817 0.04624963179 0.9943768978
0.0680892691 -0.2635770738 1.066372991 -0.1030619889 0.03483386338 0.9940565228
0.071948722 -0.2607493997 1.066717505 -0.1000767723 0.03539342433 0.9943420291
0.06577561051 -0.2558100224 1.065547109 -0.09983031452 0.0341215767 0.9944152832
0.07399950176 -0.2241822183 1.064866304 0.02063988149 0.02067936398 0.9989842772
0.0745633617 -0.2170564085 1.064767838 0.0894221887 -0.0008583603194 0.9952183962
0.08206918836 -0.2142398059 1.060936213 0.1184822023 -0.001658102497 0.9893662333
0.08530192077 -0.2095816284 1.059337735 0.1649587154 -0.01466349885 0.9849327207
0.06020510197 -0.2541465163 1.064068675 -0.1023897827 0.03519493714 0.9941096306
0.05720907077 -0.2491717935 1.063116312 -0.1025694534 0.04061260819 0.9938893914
0.07577227056 -0.1998551041 1.070156932 0.1950612813 -0.02043669857 0.9805781245
0.08521530032 -0.2157741338 1.069873571 0.1421970725 -0.01497984771 0.9888157248
0.08104461432 -0.2035223991 1.069030166 0.1871200502 -0.01961697266 0.9818155766
0.089628838 -0.202002883 1.067508578 0.1863576025 -0.01953827031 0.9819343686
0.08597186208 -0.2082021534 1.068833232 0.1676405966 -0.01760622859 0.9848509431
0.0902248621 -0.216263786 1.069153309 0.1370314062 -0.01444662828 0.9896206856
0.08106727898 -0.2116195858 1.070000052 0.1580201983 -0.01603734866 0.9862577319
0.08327709138 -0.220301196 1.069657087 0.08789996803 0.001530946814 0.9940257668
0.07387777418 -0.2121071219 1.069141507 0.1250623465 -0.01347120944 0.9877675176
0.07708469033 -0.2076912969 1.069947124 0.1651471704 -0.01380621269 0.9844396114
0.07052040845 -0.2218311727 1.067852497 0.04577443376 -0.009262941778 0.9951158166
0.0712941587 -0.216611594 1.068409681 0.08584026247 -0.01248524152 0.9911658764
0.08082664013 -0.2244703174 1.068971992 0.05145442113 0.002388069173 0.9971708655
0.07739824057 -0.2202421725 1.068892121 0.07407736778 -0.004021204077 0.9939492345
0.08302398026 -0.1888101399 1.069424868 0.1950612813 -0.02043669857 0.9805781245
0.08764762431 -0.1928353608 1.05794847 0.1950612813 -0.02043669857 0.9805781245
0.08437270671 -0.1998634189 1.059818029 0.1950612813 -0.02043669857 0.9805781245
0.0796372965 -0.2032602131 1.063343287 0.1950612813 -0.02043669857 0.9805781245
0.08351573348 -0.2051074952 1.061010242 0.1950612813 -0.02043669857 0.9805781245
0.08893010765 -0.2014172226 1.057002664 0.1950612813 -0.02043669857 0.9805781245
0.08305238932 -0.1953841299 1.060753584 0.1950612813 -0.02043669857 0.9805781245
0.09061784297 -0.2106574476 1.065632582 0.185132578 -0.01091893949 0.9825540185
0.08966727555 -0.1979997903 1.063235164 0.1950612813 -0.02043669857 0.9805781245
0.09049895406 -0.2151992321 1.064234495 0.1816373318 -0.007568365894 0.9832496047
0.0899226442 -0.2068750709 1.057457328 0.1945221424 -0.01991987042 0.9806854129
-0.05995871499 -0.1621628255 0.9473292828 0.5157042146 -0.05922583491 0.8446078897
-0.05984384939 -0.1454682648 0.9516819715 0.4324840605 -0.1915988326 0.8695518374
-0.05525716767 -0.1599045247 0.9473288059 0.3769176006 -0.102202639 0.902808547
-0.05680925399 -0.1544400901 0.9489533901 0.3929412663 -0.1370257586 0.8923738003
-0.06213060394 -0.1518254429 0.9513462186 0.5160747766 -0.1322090924 0.8394524455
-0.06145229191 -0.1579326987 0.9490357637 0.5324331522 -0.08581657708 0.8353495598
-0.05081991851 -0.1573002636 0.9474899173 0.2842186093 -0.1397976875 0.9400320649
-0.062550053 -0.1793634146 0.954297781 0.2911926806 0.06740083545 0.9278494716
-0.05718258396 -0.1724840999 0.948636055 0.4101638794 0.01891309395 0.8968163729
-0.05777325854 -0.1931708157 0.9718310237 -0.01985646971 0.1629693657 0.969209075
-0.05427400395 -0.1901286691 0.9692643881 -0.01887568831 0.1018683314 0.9678056836
-0.04260806367 -0.1713784784 0.9567241073 0.09320885688 -0.1540531814 0.9567664266
-0.06323330849 -0.1871947944 0.9708736539 0.1141588539 0.1932591796 0.9634756446
-0.04889880493 -0.1729249507 0.9595230222 0.1410293728 -0.06800502539 0.9563909769
-0.05521172285 -0.1827767044 0.9661726952 0.08410173655 0.06869652867 0.9621469378
-0.0495909825 -0.1810213923 0.9634990096 0.04609613493 -0.01045304164 0.9622064233
-0.04712214693 -0.1776728332 0.9598823786 0.08208541572 -0.05658306554 0.955683887
-0.05123277381 -0.1853628159 0.9654143453 0.01905400492 0.03807206079 0.962648809
-0.05871657655 -0.198629871 0.9746024013 -0.07767866552 0.207812652 0.9727649689
-0.05008913577 -0.1746555418 0.9535537362 0.2471534312 -0.01850489527 0.9307537079
-0.05473929271 -0.182448566 0.9587200284 0.1981220394 0.08537502587 0.9354639053
-0.04292665422 -0.1668718904 0.9506797194 0.2189718783 -0.1636130214 0.9382528067
-0.04765138403 -0.1708459556 0.951177597 0.2660805583 -0.07198851556 0.9292485714
-0.112373732 -0.1787184626 0.9758743644 0.2175195068 -0.1933666468 0.9541451335
-0.04816424847 -0.1274404675 0.9560335279 0.1140898168 -0.3115728796 0.9319642782
-0.03297484666 -0.1196731254 0.9632250667 -0.2073858678 -0.2696131468 0.9385964274
-0.04165288433 -0.1234765947 0.9598295093 -0.02122855932 -0.2919791341 0.9294186831
0.005713231396 -0.1144417301 0.9765842557 -0.3251331747 -0.2137783915 0.9211117625
0.001714456943 -0.1131424457 0.9797433615 -0.3203234375 -0.2130985409 0.9229466915
0.0316805467 -0.2878315747 1.058357358 -0.2053319812 0.08048768342 0.9751160145
0.04662005231 -0.2848279774 1.061873317 -0.1759657562 0.06316324323 0.9819236398
0.04043425992 -0.288053453 1.061998606 -0.2038694769 0.07962489128 0.9754550457
0.03611566871 -0.2910945714 1.060983896 -0.207892254 0.08199810237 0.9745224714
0.01710001007 -0.2896957994 1.062266111 -0.213217929 0.08513996005 0.9732878804
0.08208678663 -0.2204042971 1.062375069 0.07754329592 0.009561568499 0.9942824841
0.08870331943 -0.2227411419 1.066039085 0.1371306628 -0.001244837185 0.9884268641
0.08690171689 -0.2165407687 1.06083703 0.1269364953 -0.003380725393 0.9897256494
0.08093462139 -0.2268323004 1.063712001 0.04547807574 0.006792713422 0.9984154701
0.07830735296 -0.2331994176 1.063538194 0.01363424212 -0.01030717324 0.9995674491
0.05463735759 -0.2565531135 1.063058734 -0.1050039157 0.03398389369 0.9938630462
0.05084341764 -0.2645083964 1.064966202 -0.09889772534 0.02029156499 0.9948584437
0.05618817732 -0.2619048953 1.064580083 -0.09850646555 0.02561594732 0.994768858
0.06056935713 -0.2643733323 1.065426826 -0.1016163975 0.02962831222 0.994335115
0.06098907441 -0.2596127987 1.065266132 -0.09863552451 0.02885063738 0.9946801066
0.0527405031 -0.2695036232 1.06363225 -0.117345877 0.03178126365 0.9919859767
0.05656958371 -0.2723502815 1.066369057 -0.1140112951 0.03357924893 0.9927306175
0.05626691878 -0.2775818408 1.064628363 -0.1334133297 0.04098299518 0.9896815419
0.06295157969 -0.2702827156 1.066388845 -0.1021651179 0.02737127803 0.9942494035
0.0790521279 -0.1889868975 1.066355586 0.1950612813 -0.02043669857 0.9805781245
0.08503565192 -0.1827834994 1.060127735 0.1950612813 -0.02043669857 0.9805781245
0.08630084991 -0.1880421638 1.058088064 0.1950612813 -0.02043669857 0.9805781245
0.08243199438 -0.1878245175 1.062018037 0.1950612813 -0.02043669857 0.9805781245
0.07846487314 -0.1853586733 1.07056427 0.1950612813 -0.02043669857 0.9805781245
0.08383520693 -0.17942819 1.064348936 0.1950612813 -0.02043669857 0.9805781245
0.07804442197 -0.1948570311 1.06579113 0.1950612813 -0.02043669857 0.9805781245
0.07756847888 -0.1917741448 1.070662022 0.1950612813 -0.02043669857 0.9805781245
0.08425109088 -0.1944068223 1.068856359 0.1950612813 -0.02043669857 0.9805781245
-0.1055471525 -0.2200808972 0.9810000658 0.05865748972 0.18520239 0.9809353948
-0.07994373143 -0.2430873811 0.9775925279 -0.07554535568 0.1998284757 0.975222826
-0.08522190899 -0.2285089046 0.9762016535 0.04098721594 0.178825736 0.9829769135
-0.04700128362 -0.1665984094 0.9464637637 0.3124043345 -0.1127332598 0.9249180555
-0.03710240126 -0.1603005081 0.9471793771 0.03863442317 -0.2821357548 0.9556349516
-0.04097328335 -0.1569883525 0.9470222592 0.1045216396 -0.245472312 0.9596331716
-0.04404924065 -0.1624660641 0.9468066692 0.244862929 -0.1968949139 0.9445098042
-0.03321252018 -0.1574912667 0.9517675638 -0.03705297038 -0.2549104095 0.9540487528
-0.02791299112 -0.1565211564 0.9530460238 -0.2092849165 -0.2209423482 0.9364935756
-0.03241250664 -0.1619799286 0.9488217831 -0.07278936356 -0.270863533 0.953889668
-0.03499120846 -0.1553755999 0.9479821324 0.007192180492 -0.2631612718 0.9615632296
-0.05175852776 -0.1472206265 0.9499919415 0.2389936745 -0.2198473662 0.9403862953
-0.04672392458 -0.1480139941 0.948611021 0.1209783107 -0.2106690705 0.9657661915
-0.06192822382 -0.1372276098 0.9540727139 0.4539391398 -0.2470857352 0.8527590036
-0.05504448712 -0.1424528062 0.9517536163 0.3053153753 -0.2477989644 0.9129348993
-0.06262637675 -0.1947756559 0.971503675 0.01129550021 0.1877337098 0.9727240205
-0.05710588023 -0.1893976331 0.965360105 0.08957436681 0.1429815739 0.950943768
-0.05419770256 -0.1777637303 0.9537429214 0.2923492491 0.05751573667 0.9228206277
-0.06208378449 -0.187960878 0.9649137259 0.134371683 0.1391282976 0.9586910605
-0.06116511673 -0.183752954 0.9598773122 0.2054817379 0.1047174409 0.9466232657
-0.05844669417 -0.1764311343 0.9515910149 0.3272396326 0.0463559255 0.9250039458
-0.06713619828 -0.1868823618 0.961309433 0.1617255658 0.1229009107 0.958376646
-0.0707904771 -0.1924097389 0.9668621421 0.07256811112 0.1647068262 0.9755346179
-0.07036437094 -0.1586351991 0.9538280964 0.4791100025 0.03656513989 0.8626443148
-0.06744846702 -0.145796448 0.9569407701 0.4715055227 -0.121414274 0.8590141535
-0.07388456166 -0.1545536071 0.9569480419 0.4493187368 0.04632947966 0.8746111393
-0.06906275451 -0.1535575092 0.9549880624 0.4770157933 -0.02791680768 0.860770762
-0.07404641062 -0.1492903084 0.9588742852 0.4378470778 -0.000127171239 0.8771272898
-0.06540065259 -0.1610839814 0.9505901337 0.5145368576 -0.007760107052 0.8470509052
-0.0782096684 -0.1512906849 0.9601660371 0.4162023664 0.07451669872 0.888635695
-0.06541505456 -0.1502985507 0.9543853402 0.4929821491 -0.1072373837 0.8512709737
-0.08304611593 -0.1507917941 0.9626581669 0.3854398131 0.1351447701 0.9030982852
-0.05204731598 -0.1675943285 0.9462212324 0.4335881174 -0.02954818308 0.8969551325
-0.06012153998 -0.1675671041 0.9460074306 0.5513350964 -0.01358039863 0.8336439729
-0.06176400557 -0.1707610935 0.9648340344 0.5496751666 -0.006104588974 0.8020765185
-0.05652096123 -0.1703169644 0.9629068971 0.3853519857 -0.03448141739 0.8832514882
-0.05810053647 -0.1772096604 0.9653618336 0.224037841 0.0571664758 0.9387324452
-0.05130805075 -0.168857038 0.9600080848 0.2932242155 -0.08848404139 0.9166950583
-0.06442791224 -0.1764293909 0.9687716961 0.3816905022 0.1026857495 0.8980849981
-0.06196957827 -0.1833066344 0.9686581492 0.1498834342 0.1542342752 0.9608553052
-0.05334537849 -0.1753371507 0.9623461962 0.1693508625 -0.002937486628 0.9517087936
-0.05175903067 -0.2350605726 0.9892571568 -0.244507134 0.2798451483 0.9283869863
-0.05668758601 -0.241327256 0.9896612167 -0.2434577048 0.2803342342 0.9285152555
-0.05096093565 -0.236156866 0.9969992042 -0.2418889701 0.2791311741 0.9292715192
-0.04888997972 -0.2265991271 0.9855255485 -0.2340251207 0.2776717842 0.9317277074
-0.06786497682 -0.2399078012 0.979829967 -0.1818733811 0.2661914229 0.944478631
-0.06070279703 -0.2291450351 0.979372859 -0.2289502025 0.2700104117 0.9352041483
-0.05387251079 -0.2281539291 0.9834420085 -0.2369616479 0.2785281837 0.930704236
-0.05600237846 -0.2363142669 0.9861881137 -0.2432826459 0.2775906026 0.9293766022
-0.06031576917 -0.2341677845 0.9819547534 -0.2342089117 0.2713901103 0.9334650636
-0.06065932661 -0.238488391 0.9836727977 -0.231103003 0.2787835896 0.9318985939
-0.1057691798 -0.1650854796 0.9865171313 0.3545964658 -0.2338488847 0.9046859145
-0.1088992804 -0.1671357751 0.9814049602 0.3406057656 -0.224034965 0.9127361178
-0.105260022 -0.1637979001 0.9760984182 0.3579795957 -0.2325117886 0.9035432339
-0.1098046079 -0.1664156318 0.9752267599 0.3378803134 -0.2328663915 0.9118347764
-0.09531892836 -0.1581249684 0.9802587628 0.4018535614 -0.2342673987 0.8848750591
-0.1024659127 -0.1623496562 0.9834547043 0.3700574338 -0.2399544269 0.8968392015
-0.09778884798 -0.1594425589 0.9753377438 0.3911122084 -0.2294648886 0.8904287219
-0.09781291336 -0.1597034484 0.9857851863 0.3905772269 -0.2412065715 0.8880112171
-0.1000239477 -0.1613213718 0.9947445989 0.3792294264 -0.2571553886 0.8886819482
-0.1079419255 -0.1724609137 0.9822189808 0.2714041173 -0.2213862985 0.9359122515
-0.1032885537 -0.1732830405 0.9836368561 0.2762666345 -0.1747539937 0.9333729744
-0.09723497182 -0.187451154 0.9783231616 0.2045930326 0.02801913582 0.9619089961
-0.1003549695 -0.178435117 0.9823307395 0.2540716231 -0.09258036315 0.9420160651
-0.098779805 -0.1749392301 0.9862659574 0.2879682183 -0.1072530523 0.9277091026
-0.1015150249 -0.1683953702 0.9887721539 0.3213931918 -0.2002080828 0.9143852592
-0.09711378068 -0.1836606711 0.9812332392 0.232964009 -0.006172525231 0.950153172
-0.09740930051 -0.1659766138 0.9909662008 0.3472775221 -0.2422581613 0.8893328905
0.009908315726 -0.1277479827 0.9762374163 -0.3462048471 -0.2234876305 0.9108504057
0.002192617627 -0.1223052442 0.9767038226 -0.3363728225 -0.2193351835 0.9154757261
0.004641699139 -0.1276466101 0.974942565 -0.3459668159 -0.2233870924 0.9109624028
0.01460680086 -0.1257219911 0.9737944007 -0.3441982865 -0.2260716259 0.9112405777
0.007769739255 -0.123047255 0.9771308899 -0.337990433 -0.2205174565 0.9146342278
-0.007478001062 -0.1189467311 0.9670990705 -0.3259697258 -0.2478540838 0.9114357829
0.003334034234 -0.117907241 0.9715387821 -0.3454490602 -0.2002197355 0.9165731668
0.001135219587 -0.1246350408 0.96759516 -0.3419091403 -0.2249829024 0.9121953249
-0.0009472556412 -0.1203260347 0.9688441753 -0.337865591 -0.2237254083 0.9135122299
0.0142037347 -0.1317734271 0.9728412628 -0.3494838774 -0.2272705883 0.9089208841
0.01377549954 -0.1367404312 0.9724347591 -0.354085356 -0.2280706763 0.9069406986
0.009876840748 -0.1313229352 0.9707373381 -0.3486454189 -0.2271247953 0.909281671
0.008417596109 -0.1445943862 0.9701567292 -0.3670712113 -0.2125165761 0.9052047729
0.01928558014 -0.2934711576 1.059325218 -0.213217929 0.08513996005 0.9732878804
0.02635885775 -0.2888052762 1.05735302 -0.213217929 0.08513996005 0.9732878804
0.01093914919 -0.2934121788 1.059098125 -0.213217929 0.08513996005 0.9732878804
0.006042592227 -0.2939213812 1.056268096 -0.213217929 0.08513996005 0.9732878804
-0.09123498201 -0.2274559587 0.9767288566 0.0360089764 0.1687598228 0.9849399328
-0.07848853618 -0.2296855003 0.9821481705 -0.04353793338 0.1914742887 0.9781081676
-0.07509034127 -0.2367753386 0.9773920178 -0.1009959802 0.2210142165 0.9638214111
-0.07422223687 -0.2315739989 0.9770228863 -0.09636156261 0.2267479748 0.9595527053
-0.07506003231 -0.2436342239 0.9779942632 -0.1216008291 0.2175933123 0.9670635462
-0.06903319061 -0.2344736308 0.977786243 -0.1689176857 0.2435390204 0.9504086971
-0.08067480475 -0.2369081974 0.9768547416 -0.03250736743 0.2012703568 0.9752292633
-0.05827142671 -0.2429394871 0.9960036278 -0.2222794741 0.2808603942 0.9330947995
-0.06117744744 -0.2446714044 0.9879250526 -0.2234695852 0.2812379003 0.9327507019
-0.06175053492 -0.2462029904 0.9932453632 -0.2087257802 0.281566143 0.9359469414
-0.06625011563 -0.2491503358 0.9895226359 -0.1929427385 0.2823978662 0.9392661452
-0.06713428348 -0.2392766476 0.9893428683 -0.1721076816 0.2500144839 0.9501056075
-0.06924302876 -0.2433077246 0.9874039292 -0.1903999746 0.2823083401 0.9398447275
-0.06273910403 -0.2401540577 0.9926126599 -0.1984245032 0.2656001449 0.9412974119
-0.07229921222 -0.2392788976 0.985414505 -0.1483582407 0.2409304231 0.9570938945
-0.06488796324 -0.2452853024 0.9847136736 -0.2016891241 0.2935417295 0.9340485334
-0.06961759925 -0.248735711 0.9845782518 -0.1738063395 0.2804464698 0.9431205392
-0.07188337296 -0.2459694743 0.980877459 -0.1472161412 0.2546254992 0.9534927011
-0.05163884163 -0.2198677063 0.9827618599 -0.1927538216 0.274831742 0.9403093457
-0.05518254638 -0.2116602659 0.9799770713 -0.1510808766 0.269782424 0.9494823813
-0.02788977139 -0.1504670531 0.9517812133 -0.1689180285 -0.2505951226 0.937092185
-0.04695625603 -0.1547288001 0.9472208023 0.1941652149 -0.1941067725 0.9605468512
-0.0316776745 -0.1178233847 0.9580551386 -0.1732689738 -0.3260871172 0.9206519127
-0.09740071744 -0.1706549525 0.9725862741 0.3128556907 -0.2318181992 0.9085262418
-0.08837481588 -0.1558549702 0.9658991098 0.3538168669 0.08699069917 0.911239624
-0.09440763295 -0.1624257863 0.9694260359 0.3372200131 -0.0660302192 0.9104917049
-0.10257788 -0.1622408032 0.971624136 0.3442292809 -0.1089825705 0.9123935699
-0.09467157722 -0.1571460068 0.9706118107 0.3808344901 -0.09677550942 0.8987026215
-0.1038394645 -0.170731172 0.9742131233 0.3153581619 -0.2612590492 0.9113413692
-0.1105502993 -0.1716207713 0.9745908976 0.294193536 -0.2291911691 0.9267670512
-0.09747827053 -0.1839405745 0.9721043706 0.200229764 -0.1343962997 0.9680742025
-0.09736225009 -0.1791900992 0.9727320075 0.2488880157 -0.2267224044 0.934956193
-0.1021773368 -0.1786483973 0.9729093313 0.2410360426 -0.2426766902 0.9331852198
-0.1083733961 -0.1808583438 0.9728353024 0.2027914971 -0.1987248659 0.9532791376
-0.07100534439 -0.1710044593 0.9628893733 0.4894627035 0.06312667578 0.8677253723
-0.06861647964 -0.1683884263 0.9573130608 0.5031759739 0.04610404745 0.8584303856
-0.07728165388 -0.1641348749 0.9645571709 0.4401137829 0.1119119748 0.8866177797
-0.0787948817 -0.156025514 0.9588629007 0.4219611585 0.1255812794 0.8885768056
-0.07570048422 -0.1602460146 0.9588281512 0.4470995665 0.1012823731 0.8795976639
-0.06752943248 -0.1655943692 0.953260541 0.5078618526 0.03883187845 0.8535555601
-0.07383944094 -0.1671863943 0.9629660249 0.4664849341 0.08536753803 0.8759682775
-0.06405162811 -0.1659052223 0.949033916 0.5318188071 0.01283222996 0.8416807055
-0.03927794844 -0.1558750272 0.9534256458 0.1175580695 -0.2312580645 0.9217409492
-0.04985511675 -0.154600814 0.9577373862 0.3982667923 -0.1584125459 0.8344761133
-0.06474648416 -0.1743672043 0.9517256021 0.4246532619 0.03382010013 0.871504724
-0.07041193545 -0.18340832 0.959469378 0.2480856776 0.09663952887 0.9270954132
-0.06760123372 -0.1791523248 0.9555877447 0.3329960406 0.06719260663 0.8995509148
-0.07339714468 -0.1852820963 0.9640521407 0.1889006495 0.1080892757 0.9559496045
-0.07014649361 -0.1767791659 0.9701632261 0.3874262273 0.1045551077 0.9080528021
-0.06704321504 -0.1805820167 0.970754683 0.3161897659 0.1619215906 0.9184775352
-0.07128723711 -0.1752912104 0.9569935799 0.4123122394 -0.01202742849 0.8938099742
-0.07735834271 -0.1828057915 0.9672570825 0.2247002721 0.05304213241 0.9651026726
-0.07721056044 -0.1772179902 0.9673713446 0.3867020011 0.0348450169 0.9111391306
-0.07442506403 -0.1772700101 0.9600226879 0.3790972829 -0.01495790295 0.9093418717
-0.08294336498 -0.1831721514 0.9688005447 0.2714546323 -0.01374200173 0.9573441744
-0.05685948581 -0.2301822156 0.9868553877 -0.2245778292 0.2676214874 0.9362702966
-0.05594802275 -0.23667413 0.9955718517 -0.2263308764 0.2640245259 0.9366359711
-0.05674755946 -0.2336683273 0.9913816452 -0.2237451524 0.2639576793 0.9373135567
-0.068713516 -0.2305617034 0.9849662781 -0.1129349694 0.2197189331 0.9644247293
-0.06583603472 -0.2339587957 0.9894708991 -0.1336220205 0.2314947695 0.9578517675
-0.07390522957 -0.230898425 0.9829065204 -0.07129621506 0.2039181143 0.9746536016
-0.06852840632 -0.227313742 0.9807418585 -0.1561278701 0.2203920484 0.9608966708
-0.07369298488 -0.2208381444 0.9797223806 -0.07521364838 0.2160175592 0.9680728316
-0.05456017703 -0.2182727158 0.9793481231 -0.1494137496 0.2750666142 0.9486036301
-0.05904105306 -0.2244338244 0.9782487154 -0.1755587459 0.2605963349 0.9486406446
-0.06037793308 -0.2166898698 0.9771558046 -0.1309765428 0.2647097409 0.9552585483
-0.1071547195 -0.1945801675 0.9755992889 0.1888846755 0.03438759595 0.975179553
-0.1096056476 -0.1889351457 0.9773799777 0.2004379034 -0.04161937535 0.9649882317
-0.1122278199 -0.1952055544 0.9745373726 0.1484720111 0.03548799828 0.9830661416
-0.1118014455 -0.1835695356 0.978441596 0.2131374776 -0.1091192067 0.9577627182
-0.0976844281 -0.1896318346 0.9733669162 0.1941106468 -0.0196780432 0.97544837
-0.1017883644 -0.1932304054 0.9744133353 0.2027625442 0.03130234778 0.9762725234
-0.1073953733 -0.1907686293 0.9727089405 0.1630031765 -0.02310023084 0.9833071828
-0.1048866287 -0.1864547133 0.9722074866 0.1681348383 -0.100866273 0.9783876538
-0.1127630323 -0.1876412034 0.9723857641 0.1434567571 -0.09403558075 0.9821407795
-0.1026247069 -0.1844660342 0.9777696133 0.2200424373 -0.0545906052 0.9600381851
-0.1059047505 -0.1764668822 0.9799976349 0.2505854368 -0.1711135507 0.9463017583
-0.07296916842 -0.2106284797 0.9780415297 -0.00838600751 0.2204025835 0.9739494324
-0.07000915706 -0.2146479636 0.9775158167 -0.07344637811 0.238671422 0.965013504
-0.07918366045 -0.2155231386 0.9796033502 0.009843684733 0.2011632025 0.9775540233
-0.06788051873 -0.1978331655 0.9714670777 -0.01479947008 0.1999932975 0.977412641
-0.06363788247 -0.2010024041 0.9744758606 -0.04761073738 0.2217578441 0.9727460742
-0.05795720965 -0.2044833302 0.9758812785 -0.09560589492 0.2362194508 0.966283083
-0.06346461922 -0.2119568139 0.9766223431 -0.1153405681 0.2603211999 0.95825845
-0.06305673718 -0.206277281 0.9766126871 -0.06931436807 0.2530120015 0.9640466571
0.007047071587 -0.1219163835 0.9692126513 -0.3404861987 -0.2187253088 0.9143821001
0.01252828911 -0.1182108149 0.9709020257 -0.3367002308 -0.2151410133 0.9166708589
-0.01970644109 -0.1483194381 0.9553809762 -0.3289299607 -0.2247121483 0.9161826968
0.008657148108 -0.1371370256 0.9700056314 -0.3556794226 -0.222067669 0.9076839089
0.001803832594 -0.1360384375 0.9672141671 -0.3633589447 -0.1891408116 0.9121761322
0.004215872847 -0.129692778 0.9680284262 -0.3466210663 -0.2266067415 0.9101905823
-0.0001932870655 -0.1309010834 0.9654605985 -0.3493615985 -0.2177691162 0.9111410379
0.05091167986 -0.2818073034 1.062244892 -0.162857011 0.0554298088 0.984962523
0.03482095525 -0.2826249301 1.06009531 -0.201788336 0.07839713246 0.9759374857
0.01576380245 -0.2914581895 1.055815339 -0.213217929 0.08513996005 0.9732878804
-0.001148712239 -0.2912665904 1.053628683 -0.213217929 0.08513996005 0.9732878804
0.003316151211 -0.2926820219 1.052298188 -0.213217929 0.08513996005 0.9732878804
-0.08289048821 -0.2229713053 0.9810000062 0.02527157404 0.1797688603 0.9827142954
-0.06558998674 -0.2166761458 0.9766402245 -0.1252627969 0.2515924275 0.958789885
-0.06639606506 -0.2226495147 0.977594018 -0.1431559324 0.2291300893 0.9608775377
-0.07697717845 -0.2189150751 0.9758442044 0.004797895905 0.2148947269 0.9762598872
-0.07842681557 -0.2240271866 0.9767923355 0.006863803137 0.1895245016 0.9813908935
-0.0660783872 -0.2307296544 0.9777630568 -0.1939868778 0.2554688454 0.94279778
-0.07347191125 -0.2259258032 0.9778409004 -0.05836816505 0.1949647963 0.9731840491
-0.07551614195 -0.2364246994 0.9835321307 -0.1136784852 0.2105243951 0.9700441957
-0.0882756263 -0.2325495034 0.9812508225 -0.008185310289 0.1808807105 0.9824143648
-0.08301670104 -0.2336761206 0.9820541739 -0.04590834305 0.1899577379 0.9788918495
-0.09198729694 -0.2322059721 0.9763478041 0.0217672158 0.1596727222 0.9863323569
-0.08682498336 -0.2370848507 0.9769800901 -0.02210419811 0.1770284027 0.9814651608
-0.09764589369 -0.2268654704 0.9771511555 0.0473998934 0.1653732508 0.9849210382
-0.08674598485 -0.2391578853 0.9832506776 -0.05743376538 0.2100418508 0.9685382247
-0.08150947839 -0.2411088198 0.983645916 -0.1042999476 0.2384409606 0.9583855271
-0.07548506558 -0.2478316128 0.9856677055 -0.1377867758 0.2580682337 0.9514517188
-0.09464436024 -0.2337872088 0.9811760187 0.00439083809 0.1704623103 0.9829521775
-0.02553822659 -0.1277177036 0.9623329639 -0.2705895603 -0.2685719728 0.9239069223
-0.03462988138 -0.12550883 0.957968235 -0.182272315 -0.301762253 0.9349521399
-0.03342274576 -0.1330963522 0.9569224119 -0.197682023 -0.2698311806 0.9417644143
-0.0450450182 -0.1602410227 0.9548705816 0.3139512539 -0.2047893256 0.8848904967
-0.03769809008 -0.1628952771 0.9512445331 0.1522091329 -0.266713649 0.9483911991
-0.05449037999 -0.1627231389 0.960036993 0.4826246798 -0.1073975489 0.820040226
-0.04603314027 -0.1652738899 0.955819726 0.2998007536 -0.1802024543 0.8917003274
-0.0551129356 -0.1558172852 0.9597722888 0.5408346057 -0.1223031878 0.7956320047
-0.05925941467 -0.1646211445 0.9627007246 0.5634941459 -0.05627875775 0.7891331911
-0.04995090887 -0.1612726748 0.9575319886 0.403275311 -0.1549812108 0.850474
-0.02000721544 -0.141140148 0.9588066936 -0.3142592907 -0.2387086153 0.917455852
-0.01983290911 -0.1355716884 0.9611581564 -0.3076245189 -0.245698601 0.9180443883
-0.01530059613 -0.1498709023 0.9577368498 -0.3565289378 -0.1945724487 0.9136631489
-0.02161243558 -0.1539872587 0.9546478987 -0.3237628043 -0.2013709992 0.9240605831
-0.01168776676 -0.1473800987 0.9609248638 -0.3662989438 -0.193875894 0.9100242853
-0.01131614204 -0.1519539952 0.9594473243 -0.3619760275 -0.196282804 0.9111945033
-0.005813600961 -0.1503706723 0.9634791613 -0.3716233373 -0.1970475912 0.9071593285
-0.07250297815 -0.1818596274 0.9715169072 0.2213729918 0.1351902932 0.956829071
-0.08688097447 -0.1710872948 0.9786358476 0.3252835274 -0.08988053352 0.9275553226
-0.08064727485 -0.173455134 0.9746993184 0.3338198066 -0.01500466466 0.9306142926
-0.09317938983 -0.1655585021 0.9869292974 0.3523804545 -0.2140822858 0.8980526328
-0.08216639608 -0.1689424813 0.9735386968 0.3527056575 -0.01851871796 0.9327335954
-0.08655957878 -0.165339306 0.9777593613 0.3648733795 -0.08902687579 0.9200960994
-0.08882334828 -0.1666985452 0.9834034443 0.3595107198 -0.1548357457 0.9029434919
-0.09031143785 -0.1813101321 0.97576648 0.2486390322 0.007129391655 0.9571311474
-0.09258064628 -0.1726046354 0.982418716 0.304315716 -0.1208400801 0.9238501191
-0.09473605454 -0.1776094139 0.9826396108 0.2727074325 -0.08210957795 0.9300518036
-0.09023818374 -0.176248461 0.9780061245 0.2808503211 -0.05325366929 0.9429854155
-0.09292957187 -0.1853134334 0.9769884348 0.2234591544 0.02910753153 0.9587503672
-0.08675375581 -0.1745002121 0.9747353792 0.2915757298 -0.0392790176 0.9510279894
-0.07364336401 -0.1727011055 0.9671747684 0.471501559 0.0676953271 0.8765906096
-0.08914531767 -0.1846042424 0.9711055756 0.2257595956 -0.06020193174 0.9703354836
-0.09216204286 -0.1684473604 0.9705287814 0.3198826015 -0.1578938067 0.9074864984
-0.08255083114 -0.1590059549 0.9653695822 0.397718817 0.1267811656 0.9005365968
-0.08686116338 -0.1695557237 0.9695409536 0.3634689152 -0.09211888909 0.8986068368
-0.08827778697 -0.1647734046 0.968485415 0.3513539135 -0.04489243031 0.9045645595
-0.08181659132 -0.1727131307 0.969219327 0.4051665664 -0.05989770219 0.8884764314
-0.0815018788 -0.1678116918 0.9676996469 0.4072373509 0.01576166414 0.8919183612
-0.09229595214 -0.1737754196 0.9721291065 0.3193389475 -0.236926496 0.9034309983
-0.1062775105 -0.2020269185 0.9750853181 0.1251311302 0.1268458515 0.9823911786
-0.1011452973 -0.1989443302 0.9753305316 0.1647962928 0.1126877517 0.9756422639
-0.09654740244 -0.201555863 0.9757776856 0.1185351312 0.1727341413 0.9765884876
-0.08829800785 -0.1920427978 0.9721565247 0.1205345094 0.09287664294 0.9794915915
-0.09342217445 -0.1931630224 0.9739486575 0.1570184082 0.09261360019 0.9783475399
-0.0780159533 -0.1904357672 0.968013227 0.1120775193 0.1184847355 0.9801521301
-0.08143846691 -0.1891092509 0.9721326232 0.1406086683 0.1422139257 0.9730695486
-0.08405742794 -0.1805209965 0.9726398587 0.2308810204 0.04231582582 0.963639915
-0.07788964361 -0.1797384769 0.9724276662 0.2332383096 0.07755847275 0.9595726132
-0.06928567588 -0.1851500571 0.9718276262 0.1699871421 0.1886390448 0.9620321989
-0.07560909539 -0.199610725 0.9739812016 0.0285646487 0.2051173002 0.9755751491
-0.07217761129 -0.1922741085 0.9720749855 0.08257015049 0.1963557452 0.9751700759
-0.09007956088 -0.2172481865 0.9806047678 0.04901194945 0.1875825524 0.9808449149
-0.09161558002 -0.2125012279 0.9789140821 0.06965410709 0.1947341114 0.9778279662
-0.09705296159 -0.2212888598 0.9778234959 0.06206926331 0.1846762598 0.9803698659
-0.06736792624 -0.2087486386 0.9742970467 -0.07310335338 0.2391826212 0.9648935199
-0.06855964661 -0.2034221441 0.97332865 -0.02520213835 0.2255596817 0.9714340568
-0.07379162312 -0.1978408992 0.9689599872 0.01929496974 0.1906171739 0.9790312648
-0.02005979419 -0.1177205145 0.9625788331 -0.2899036407 -0.2966126204 0.9089679718
-0.01675932854 -0.1218631119 0.9636512399 -0.309430927 -0.2783325016 0.9088466763
-0.01424681488 -0.1172685623 0.9654296637 -0.3138279915 -0.2721701264 0.9093666673
-0.001053568441 -0.1417428404 0.9645349383 -0.3708994687 -0.1803017557 0.9108484387
0.00354563049 -0.1447369456 0.9666666985 -0.3827086091 -0.1586368084 0.9100800753
-0.006070120726 -0.1448785216 0.966157496 -0.3772394061 -0.1739659309 0.9094117284
-0.001616097172 -0.1472008526 0.9684966803 -0.3813500404 -0.1740680635 0.9076367021
0.03278630972 -0.2774346173 1.061889529 -0.213217929 0.08513996005 0.9732878804
0.02988085337 -0.2828952372 1.059420586 -0.213217929 0.08513996005 0.9732878804
0.006562337279 -0.2871615589 1.052708507 -0.213217929 0.08513996005 0.9732878804
0.02185841464 -0.2860023081 1.056671977 -0.213217929 0.08513996005 0.9732878804
0.01165139582 -0.2878882587 1.053605437 -0.213217929 0.08513996005 0.9732878804
0.02161701024 -0.2794489563 1.059524775 -0.213217929 0.08513996005 0.9732878804
0.0144504467 -0.2824317515 1.057836175 -0.213217929 0.08513996005 0.9732878804
0.01825237274 -0.2840004861 1.061029911 -0.213217929 0.08513996005 0.9732878804
0.009159821086 -0.2876149416 1.058671117 -0.213217929 0.08513996005 0.9732878804
0.05087835714 -0.2759577036 1.062642694 -0.1470566839 0.04660712555 0.9874495864
0.04082619026 -0.2663520277 1.062995195 -0.1682828069 0.05273779482 0.9826744795
0.04380685091 -0.272303313 1.062825441 -0.1736908108 0.05668668449 0.9822787046
0.04584981874 -0.2636781335 1.062976003 -0.129488185 0.03578346595 0.9894247055
0.03881880268 -0.2707748413 1.063596249 -0.2021503896 0.069642663 0.9767431617
0.03757904097 -0.2791618109 1.063516855 -0.2096870095 0.08220684528 0.9742789865
0.04204671085 -0.2823378146 1.063865781 -0.2102403045 0.0826664716 0.9741236567
0.04550050944 -0.2761999965 1.065003753 -0.1977793872 0.07422877103 0.9771934152
-0.09045571089 -0.2237162292 0.9810000062 0.0428221114 0.1705251783 0.9843744636
-0.09430220723 -0.2286459804 0.9810000658 0.02560827695 0.1697161943 0.9847970009
-0.1026732996 -0.2249226123 0.9802471399 0.04960129783 0.1744781584 0.983227849
-0.04130957648 -0.1488746256 0.9486335516 0.03937583044 -0.2288783342 0.9689422846
-0.03747919574 -0.1436015517 0.9514133334 -0.06207520515 -0.2541661263 0.9572960138
-0.02568373084 -0.1455604285 0.9540961385 -0.2754294276 -0.2597794831 0.9237107038
-0.03553111106 -0.1487134248 0.9498132467 -0.02995844744 -0.2678443193 0.9573396444
-0.03180855885 -0.1460199952 0.9520071745 -0.1384027451 -0.2650059164 0.9435352683
-0.033068344 -0.1518554091 0.9524348974 -0.1144913733 -0.2575299442 0.9547041059
-0.05564675853 -0.150712654 0.9598466754 0.5002647638 -0.1228429303 0.8075510859
-0.03849868104 -0.1513284594 0.9538167119 0.03413436189 -0.2377924174 0.9253579378
-0.04525779933 -0.1426305026 0.9510464668 0.07144151628 -0.2323494107 0.9687290192
-0.04774922878 -0.1378091425 0.9531795979 0.1188172325 -0.2647482157 0.9503264427
-0.05318299308 -0.1361165792 0.9533840418 0.245967254 -0.2970168293 0.9171825647
-0.03667528555 -0.135629341 0.9548948407 -0.1421164125 -0.2670291364 0.9490526319
-0.04269713536 -0.1372395903 0.9538664222 -0.001327111502 -0.2566260099 0.960891068
-0.04181557894 -0.1312595904 0.9551993608 -0.02705710568 -0.2859149575 0.9524179101
-0.04682776332 -0.133464694 0.9546260834 0.09009735286 -0.2816081941 0.9499921799
-0.04432165623 -0.1376771033 0.9601233006 0.1200150922 -0.2059155703 0.8915476799
-0.04929804429 -0.1411289275 0.9619755149 0.3012790978 -0.1641328633 0.8291712403
-0.04527606443 -0.1425275207 0.9565566778 0.1234463379 -0.2091356218 0.9334655404
-0.0391958952 -0.1324110031 0.9598172903 -0.05389231071 -0.2443643063 0.9337897301
-0.05187312886 -0.1450756341 0.9609109163 0.378913343 -0.1483066082 0.8246876597
-0.04897071049 -0.146837756 0.9562955499 0.2449503094 -0.1828015149 0.909635365
-0.05512197316 -0.1342313439 0.9585306644 0.289396733 -0.2272070795 0.8832512498
-0.05366660655 -0.1297184527 0.9553429484 0.2329736054 -0.3175747395 0.9140517712
-0.04620247707 -0.132051751 0.9625039101 0.09323749691 -0.1921106577 0.8873021603
-0.06272549927 -0.1436844617 0.962151885 0.5012225509 -0.08156578243 0.8247345686
-0.06178818643 -0.1493234634 0.9623847604 0.6018148065 -0.07197354734 0.7795360684
-0.03993840143 -0.1289046556 0.9626787901 -0.03660426661 -0.2308685333 0.9012471437
-0.03601292893 -0.1253008842 0.9627264142 -0.1499171555 -0.2594233155 0.9226092696
-0.05594779179 -0.1399529576 0.9627777338 0.3473885357 -0.1139511839 0.8425949216
-0.04914524779 -0.1359452307 0.9626805186 0.1989323795 -0.1637172997 0.8621584773
-0.07553549111 -0.1481606513 0.9705631733 0.5281322598 0.1423631161 0.8364257216
-0.07900644839 -0.1490960568 0.9667673111 0.4509844482 0.1574954242 0.874435246
-0.06658061594 -0.1508710533 0.9658833742 0.6118735671 0.0007654457586 0.7808439136
-0.06795974076 -0.1427969038 0.9624069929 0.4583240151 0.004683407955 0.8643302917
-0.06492449343 -0.1397820115 0.9600152373 0.4245809615 -0.08491718769 0.8699134588
-0.07313898206 -0.1437686831 0.9594280124 0.4365327656 -0.03204014897 0.8726820946
-0.07370419055 -0.1466456652 0.9645726681 0.4623647332 0.1069276333 0.8705982566
-0.06923196465 -0.1414785236 0.9569923878 0.4515268505 -0.1242292449 0.8621134758
-0.06607898325 -0.1673370749 0.9671964645 0.6087771654 0.02983981185 0.7871065736
-0.08497224003 -0.1519947648 0.9700056911 0.447234422 0.03322669864 0.870690167
-0.08939998597 -0.1543112993 0.9708342552 0.4163011909 -0.09635908902 0.8832660913
-0.08057341725 -0.1501652151 0.9713404179 0.5027677417 0.09798296541 0.8450323343
-0.0876057148 -0.154429704 0.9774972796 0.4579406381 -0.1021492332 0.8572391868
-0.08891770244 -0.1558418721 0.9841295481 0.4494151473 -0.118416898 0.8528535962
-0.09330429882 -0.1582412124 0.9864308834 0.4119868279 -0.2215231657 0.8663707972
-0.06641665846 -0.1607444733 0.9664021134 0.5805997252 0.05239583179 0.8094886541
-0.0639250055 -0.1546953619 0.9636657238 0.6208469868 0.01054060925 0.7806984782
-0.0141459424 -0.1373237967 0.9642407894 -0.330078125 -0.2199146301 0.9155602455
-0.0961728394 -0.2069366723 0.9765809178 0.09974028915 0.2042108178 0.9737120271
-0.1069676131 -0.214641124 0.9798707962 0.0722181946 0.1702190191 0.9822636247
-0.1021851823 -0.2168649137 0.9779887199 0.07288192958 0.180547297 0.9807323217
-0.1022110283 -0.210871473 0.9786173701 0.06802721322 0.1688748896 0.9830294847
-0.09755793214 -0.2161505669 0.9803529382 0.05455023423 0.1847491562 0.9811100364
-0.1095805839 -0.2064068615 0.9764087796 0.1054815277 0.1278052926 0.9852853417
-0.08078934252 -0.196278885 0.969884932 0.06529293209 0.1801359951 0.9811307192
-0.08496919274 -0.203250885 0.973336637 0.06987591833 0.2126293182 0.9744529128
-0.07972723991 -0.203340888 0.972477138 0.04614201561 0.2151617408 0.9750662446
-0.09162518382 -0.2045547813 0.9752687216 0.09232521802 0.2115696073 0.9728221893
-0.08674230427 -0.2096541226 0.9763051867 0.08035200834 0.2071542144 0.9749094248
-0.08866397291 -0.2005059272 0.9738686085 0.08932229877 0.1944955289 0.9764723182
-0.07920005918 -0.2071994841 0.9755029678 0.03986978903 0.2221496552 0.972761035
-0.07381418347 -0.2048067302 0.9750738144 0.008778626099 0.233619988 0.9707850218
-0.08503870666 -0.1955382973 0.9722066522 0.08549863845 0.1734582782 0.9809243679
-0.08182283491 -0.2182742208 0.9755402207 0.03361457214 0.2006637305 0.9783418775
-0.08464137465 -0.2234042287 0.976021409 0.04401810095 0.1808850616 0.9822134376
-0.08268720657 -0.2110618502 0.9746258855 0.04657440633 0.2134529352 0.9752030373
-0.09082634002 -0.2203582674 0.9765245914 0.04404002428 0.1862437576 0.9812331796
-0.087394692 -0.2149694115 0.975309968 0.05452800542 0.1972358674 0.9784564972
-0.0180706773 -0.1166599095 0.9683789015 -0.2902456224 -0.2445178777 0.9241611362
-0.02401079051 -0.116724588 0.9666136503 -0.2547093928 -0.25198856 0.9321241975
-0.02718584053 -0.1203938574 0.9640856981 -0.2571705282 -0.2643089294 0.9283696413
-0.02259686962 -0.1225542724 0.9644859433 -0.2976715565 -0.2636015713 0.9173461199
-0.01007499173 -0.1239756718 0.9653810263 -0.3314144313 -0.2590439916 0.9069923759
-0.003242202336 -0.1150457114 0.9724068642 -0.3306666017 -0.2100847811 0.9196669459
-0.003860705998 -0.1119095311 0.9783678651 -0.3151672482 -0.2164930701 0.9239585996
-0.007113771979 -0.1132089421 0.975027442 -0.3154290915 -0.2223562151 0.9224184752
-0.007650013082 -0.1152864024 0.9701972008 -0.323792398 -0.2298325747 0.9169722199
-0.0006603823276 -0.1334937662 0.9714792371 -0.3577986658 -0.1906115115 0.9139224291
0.004832654726 -0.13475959 0.9718752503 -0.3588793874 -0.2243184894 0.9059086442
-0.0005171131343 -0.127867505 0.9738872051 -0.3473224938 -0.1968560666 0.9164425135
-0.001945122611 -0.1195858717 0.975926578 -0.3298139572 -0.2046563923 0.9212492704
-0.005674147513 -0.1222656891 0.9716957808 -0.3308208585 -0.2102549523 0.9194904566
-0.001288521569 -0.1412511021 0.9698337317 -0.3732058704 -0.1716653109 0.9113625288
-0.007244052365 -0.1389697045 0.9675732255 -0.3502924144 -0.1954752803 0.913847506
-0.010952604 -0.1208706871 0.969833076 -0.3208837509 -0.2263135612 0.9191060066
-0.01294044033 -0.1274719238 0.9670627117 -0.3172721267 -0.2319633812 0.9184364676
-0.005604201928 -0.1312579215 0.9693894982 -0.3447606862 -0.2046212256 0.9152438045
-0.02008254826 -0.129824236 0.9631034732 -0.2935483158 -0.2571896017 0.9203298092
0.02755486034 -0.2784251273 1.061926007 -0.213217929 0.08513996005 0.9732878804
0.02263136022 -0.2866126299 1.062800288 -0.213217929 0.08513996005 0.9732878804
0.02360326983 -0.291382134 1.061270237 -0.213217929 0.08513996005 0.9732878804
0.02842985839 -0.2866974175 1.062611341 -0.213217929 0.08513996005 0.9732878804
0.02871925943 -0.2920060158 1.060872078 -0.213217929 0.08513996005 0.9732878804
-0.06871404499 -0.1558652073 0.9666443467 0.5675020218 0.07130133361 0.8166157007
-0.07391073555 -0.1552726775 0.9701756835 0.5054430366 0.1052499041 0.8533965349
-0.09538774937 -0.1604748517 0.991296351 0.3885775506 -0.2651030719 0.8720251322
-0.08195457608 -0.1546843946 0.9775437117 0.4739334881 0.02038850263 0.8565624952
-0.004857984837 -0.1267003268 0.9658588171 -0.3441878855 -0.2425996214 0.9069652557
-0.007872967049 -0.1304421574 0.9625988007 -0.3396049738 -0.2283406407 0.912370801
-0.002340784064 -0.1346907467 0.9638150334 -0.3537547886 -0.212636441 0.9106031656
-0.01010424271 -0.1383305639 0.9599373341 -0.3500867486 -0.2114453614 0.9122567177
-0.01433772501 -0.1388071924 0.9580850005 -0.3450893164 -0.2139207572 0.9136067629
-0.006332106888 -0.1420533657 0.9608666301 -0.3627818525 -0.2006462365 0.9098208547
-0.01348040998 -0.1314469427 0.9608265162 -0.3358398676 -0.2360024303 0.9116846919
-0.02246497199 -0.1234208494 0.9586497545 -0.2873466015 -0.2861174643 0.9116176963
-0.07523076981 -0.159904182 0.9716317654 0.4680404365 0.1064737141 0.8760445714
-0.07119807601 -0.1672314256 0.9705951214 0.4990276992 0.08707038313 0.8602818847
-0.08600516617 -0.1618290395 0.9816967845 0.4055702984 -0.08837316185 0.8865254521
-0.07869867235 -0.1571991295 0.9742897153 0.4564993382 0.06961526722 0.8761435151
-0.08200420439 -0.1633156985 0.9775907397 0.4069462419 -0.01619041525 0.896065414
-0.07592973858 -0.1650684178 0.9718208313 0.4204940796 0.08631914854 0.9027087688
-0.02479559742 -0.1352543086 0.956340611 -0.2638736963 -0.2518846989 0.9308536649
-0.0274722483 -0.1406772137 0.9549518824 -0.2559066415 -0.2603401542 0.929920435
-0.03349598497 -0.1407889724 0.9548217654 -0.1720230579 -0.2690180838 0.9465046525
-0.02721486241 -0.1295006424 0.956846714 -0.2444318533 -0.2782467604 0.9277618527
-0.02841665037 -0.1215497628 0.9578130245 -0.2360601872 -0.3096670806 0.9198766351
-0.027322229 -0.1154684201 0.9587923288 -0.2458170056 -0.3304309547 0.9109742641
-0.02228762582 -0.1285944134 0.9576203227 -0.2904567122 -0.2658848464 0.9169738889
