# .PCD v0.7 - Point Cloud Data file format
VERSION 0.7
FIELDS x y z normal_x normal_y normal_z
SIZE 4 4 4 4 4 4
TYPE F F F F F F
COUNT 1 1 1 1 1 1
WIDTH 512
HEIGHT 1
VIEWPOINT 0 0 0 1 0 0 0
POINTS 512
DATA ascii
-0.1780873984 -0.08939030766 1.072810173 0.7248809934 0.6367917657 -0.2615204751
-0.0130411759 -0.08818429708 1.079816103 0.3121778369 0.2404096723 0.9184126258
-0.01843423396 -0.08221624047 1.079311967 0.2982735932 0.2624981403 0.9168186188
-0.06120654941 -0.1577014476 1.085495591 -0.1582166106 0.1328584254 0.978425324
-0.06861227751 -0.1573806107 1.088201523 -0.1582166106 0.1328584254 0.978425324
-0.05293671787 -0.1536981612 1.085958242 -0.1582166106 0.1328584254 0.978425324
-0.06063380465 -0.1525623649 1.0887537 -0.1582166106 0.1328584254 0.978425324
-0.1565737426 -0.09802789241 1.072596908 0.7694147229 0.5613215566 -0.301246345
-0.1573643237 -0.1026777476 1.069018006 0.7293452621 0.5967959166 -0.3299818039
-0.1656014174 -0.1013595015 1.073186278 0.7481015325 0.5560749769 -0.357458353
-0.01269383356 -0.08206059039 1.075819016 0.3190028369 0.2621520758 0.9099267125
-0.1741088331 -0.08045388758 1.070908427 0.7291198373 0.6458415985 -0.2245093882
-0.179969877 -0.08224844187 1.070338488 0.7207602262 0.6494790316 -0.2407764643
-0.1721810699 -0.09499631822 1.07512486 0.7422060966 0.6046494246 -0.2850956619
-0.02968424186 -0.1318893582 1.086564183 0.0658326596 0.1310319453 0.9887707233
-0.03208788484 -0.1365743726 1.088137627 0.05689148977 0.1194555983 0.9908099771
-0.02165741846 -0.1230782494 1.084170341 0.09081997722 0.1543655097 0.9836167693
-0.007884441875 -0.08071310073 1.07074976 0.3689451516 0.2864890993 0.8824278712
-0.1902595162 -0.04800968245 1.00328517 0.5024293065 0.2619053721 0.802007854
-0.03359842673 -0.1269760579 1.086188793 0.06448361278 0.1352998018 0.9885824919
-0.07515410334 -0.1623583883 1.085608482 -0.1582166106 0.1328584254 0.978425324
-0.07489053905 -0.1571902037 1.088211417 -0.1582166106 0.1328584254 0.978425324
-0.2026169896 -0.1231374443 1.027454972 0.1124803945 0.3448791206 0.9261017442
-0.1782532483 -0.1037169471 1.057799578 0.5033204556 0.4946356416 0.04626781121
-0.1820133179 -0.106659025 1.044123173 0.3111205697 0.4429516196 0.3970524371
-0.1779036373 -0.09895947576 1.065008044 0.6112504005 0.5444665551 -0.1352432072
-0.1819563657 -0.09219175577 1.063426495 0.6037114263 0.5885603428 -0.08718910813
-0.1771374941 -0.09527286887 1.071882129 0.7124176025 0.5859971046 -0.3092313111
-0.1809542477 -0.09745880216 1.059059501 0.533398509 0.5415721536 0.02025918476
-0.1802759171 -0.1038088277 1.052416444 0.4298713803 0.4818025529 0.18546395
-0.1833908558 -0.1017366573 1.047057152 0.3612203598 0.4842680097 0.3263195157
-0.1958718747 -0.04535124078 1.003599882 0.4465590119 0.2902179956 0.8425042629
-0.1958520859 -0.05122668296 1.006918073 0.3011010587 0.2742237747 0.8965005279
-0.1721642762 -0.08811669052 1.073061466 0.7224901319 0.6439709067 -0.250243187
-0.0405883193 -0.1463154703 1.08810091 -0.03597073257 0.1176041216 0.9876711369
-0.03618561476 -0.1405201852 1.085697532 0.03985208645 0.1179365441 0.9920566678
-0.009309883229 -0.0948721841 1.079668999 0.3082947433 0.2130486369 0.925537765
-0.01388805732 -0.1068126336 1.078027606 0.2252214104 0.1555079222 0.9593365192
-0.01176500041 -0.09909366816 1.076671243 0.2547592819 0.1875841618 0.9441338778
-0.01446353737 -0.09412093461 1.072198033 0.2801677585 0.2107688636 0.9270113707
-0.01096886769 -0.08556483686 1.069237471 0.3356826305 0.2550795972 0.8982242346
-0.1683283299 -0.03490041196 0.9764510393 0.1808232367 -0.06180365384 0.9695284963
-0.1704242378 -0.04125322029 0.9765625596 0.2538324594 0.03044743836 0.9621254206
-0.198265776 -0.05856624991 1.01000011 0.1495823413 0.2484747022 0.9564697146
-0.1829470247 -0.02690700442 0.9817749858 0.5527406931 -0.08183235675 0.8265689015
-0.09140527993 -0.1633134335 1.077084899 -0.1906456351 0.1659125686 0.9675106406
-0.08285263926 -0.1647188514 1.075954676 -0.1582166106 0.1328584254 0.978425324
-0.08144947141 -0.1601940244 1.085038662 -0.1582166106 0.1328584254 0.978425324
-0.1574994028 -0.05896811932 0.9778631926 0.06619814783 0.05170859769 0.995129168
-0.1501155794 -0.0548450239 0.9780550003 -0.07403686643 0.07180402428 0.9866741896
-0.1511107385 -0.04806411639 0.9771552682 -0.07753278315 0.05026324838 0.991663456
-0.01581967622 -0.09996748716 1.080288529 0.2559702694 0.1745682657 0.9496181011
-0.01991241798 -0.1067148969 1.077563643 0.191180855 0.1453054994 0.9703564048
-0.02920380421 -0.08444795758 1.078583956 0.2497680336 0.2369524688 0.936632514
-0.02361224405 -0.09386787564 1.076160431 0.2861946821 0.2030517608 0.9352158904
-0.01004553493 -0.07865091413 1.065143108 0.3883209229 0.2934890389 0.8696877956
-0.01894075051 -0.09068290144 1.073655248 0.308231771 0.2223971635 0.921020031
-0.1571366191 -0.1136139408 1.022434711 -0.06784263253 0.3184427023 0.8923953176
-0.1559427083 -0.1108924821 1.030944824 0.1880074739 0.3540409207 0.6287500858
-0.1526756138 -0.1171952859 1.032162428 0.107927151 0.3834176362 0.4906382263
-0.1513489485 -0.1152419448 1.038906813 0.289129436 0.4173165262 0.2667022347
-0.2040206939 -0.08824080974 1.011092186 0.1544612348 0.266974628 0.9419835806
-0.2026779354 -0.07608566433 1.00797987 0.1303225458 0.2092434317 0.9664777517
-0.2125338465 -0.06900511682 1.010721684 0.1852235049 0.2006554306 0.961666286
-0.206938982 -0.06972943246 1.011128783 0.1607497931 0.1902398318 0.9680107236
-0.2132984847 -0.07932956517 1.013059497 0.2116699666 0.216238454 0.9511492848
-0.2077119052 -0.07603768259 1.010093212 0.1658841372 0.204899326 0.9623878002
-0.2187412381 -0.08331461251 1.014872909 0.2414277047 0.2454244494 0.9374800324
-0.2194323242 -0.07722792774 1.01273942 0.219190985 0.2303252369 0.946721077
-0.2068144381 -0.1183155924 1.025648594 0.152594313 0.342420876 0.9222225547
-0.2018633634 -0.1202435046 1.02235055 0.1140468791 0.3561643064 0.9234706759
-0.1967957616 -0.124553591 1.022641778 0.06490144134 0.3602792323 0.9279829264
-0.2167531401 -0.1029001474 1.022330761 0.2363159209 0.31199193 0.9194405675
-0.2142225355 -0.1082887799 1.022767186 0.2242141813 0.3195407689 0.9201076627
-0.2202404588 -0.09349428117 1.019720435 0.2573332787 0.2873089015 0.9222556353
-0.1630319059 -0.05619573221 0.9764780998 0.1548503488 0.07449875772 0.9839083552
-0.1660232842 -0.04930377752 0.9755465984 0.1537025869 0.07415791601 0.9825415015
-0.1577289253 -0.04862712696 0.9764940143 0.04026448354 0.04130923748 0.9949643016
-0.1644837409 -0.06125420332 0.9779610634 0.2307078987 -0.008519705385 0.9727461338
-0.1573517621 -0.09044340998 1.072982192 0.749237299 0.6036228538 -0.2706936002
-0.1646689475 -0.090940319 1.073970795 0.739605844 0.6166696548 -0.2695859373
-0.01626035757 -0.07331252098 1.071511507 0.391143471 0.3132129014 0.8653926849
-0.1071683168 -0.03020174429 0.9913951159 -0.4362277985 -0.03325235099 0.8936254382
-0.1353926063 -0.03632682189 0.9825210571 -0.1709198505 0.04403203353 0.9842548966
-0.1664876789 -0.03532005474 0.9865246415 0.2385728806 -0.01630360447 0.8825079203
-0.1661551893 -0.02897998877 0.9838579297 0.1801969409 -0.1176814735 0.9325210452
-0.1710201055 -0.03204113245 0.9871874452 0.3188458681 -0.05903076008 0.8666151762
-0.1627712995 -0.03934412822 0.984107554 0.2095870376 0.02524142899 0.8968127966
-0.1790861189 -0.04168124124 0.9900767803 0.6335472465 0.08352784067 0.7441450953
-0.172818467 -0.03918528929 0.9888018966 0.4399200678 0.04586540908 0.8069637418
-0.1685672253 -0.04236188531 0.9848342538 0.4022982121 0.06685038656 0.8368710876
-0.1599249095 -0.1060992107 1.064422965 0.7081195712 0.5890884995 -0.3682716191
-0.07286763936 -0.1520623267 1.08268714 -0.1582166106 0.1328584254 0.978425324
-0.06534832716 -0.1484377533 1.086312175 -0.1582166106 0.1328584254 0.978425324
-0.06953345239 -0.1516622007 1.088237524 -0.1582166106 0.1328584254 0.978425324
-0.0767461583 -0.1563507468 1.079770088 -0.1582166106 0.1328584254 0.978425324
-0.08594664931 -0.1591746807 1.076999784 -0.1582166106 0.1328584254 0.978425324
-0.06689924002 -0.153491348 1.082710505 -0.1582166106 0.1328584254 0.978425324
-0.07677286118 -0.1654040366 1.075912952 -0.1582166106 0.1328584254 0.978425324
-0.07248771191 -0.1615754664 1.078332305 -0.1582166106 0.1328584254 0.978425324
-0.1481874436 -0.1027351096 1.066140175 0.7516143918 0.5935348272 -0.2830112576
-0.1498556733 -0.09742029756 1.07127285 0.7934862971 0.5586733222 -0.2392791957
-0.02360377088 -0.1095333993 1.08166194 0.1748421937 0.1445776373 0.972230792
-0.01785477623 -0.1145059168 1.082409263 0.1656997353 0.1611844897 0.9690089226
-0.01460585371 -0.06957010925 1.057555676 0.3706683517 0.2924908102 0.879920125
-0.01731916703 -0.06542047858 1.060593009 0.3828722239 0.3048460186 0.8712599874
-0.01961096562 -0.0750150606 1.065736532 0.3519527614 0.2735431492 0.8932010531
-0.02179779671 -0.06660290062 1.067187071 0.3777379096 0.2996480167 0.8749033809
-0.02258856408 -0.08362038434 1.073282719 0.331125468 0.2499645799 0.9084945917
-0.01214402262 -0.07346657664 1.061309218 0.3879196644 0.299998641 0.869731307
-0.01824287884 -0.08002803475 1.069012761 0.3553697765 0.2705015242 0.8921167254
-0.02423000149 -0.06572829187 1.072597861 0.3911402524 0.313216567 0.8653928041
-0.02107477561 -0.07413807511 1.075229883 0.341164887 0.3037500381 0.8873051405
-0.02633747086 -0.07180220634 1.07752347 0.3166003823 0.2990969419 0.8980757594
-0.02730552107 -0.07808803767 1.078420281 0.2879254222 0.2767704725 0.9135507345
-0.141295597 -0.04862008989 0.9792423248 -0.1785449833 0.08339327574 0.9802327156
-0.1352822781 -0.04622852057 0.98103863 -0.1973862648 0.0790425092 0.9767187238
-0.2046291828 -0.05730464309 1.009078741 0.1558188945 0.2524189055 0.9545433521
-0.2012097389 -0.05302914232 1.008115292 0.2048150301 0.2831676006 0.9327740073
-0.2180326283 -0.06715224683 1.009481072 0.1869467646 0.2108896822 0.9594318867
-0.2115129679 -0.06128409505 1.006712079 0.1911152005 0.2218620181 0.9558753371
-0.2217123061 -0.08704138547 1.018194079 0.2544750869 0.2657750845 0.9292154908
-0.2165339142 -0.08905041218 1.015165091 0.259655267 0.2673171759 0.9268218279
-0.2248045206 -0.08259309083 1.020156145 0.241213873 0.2617807388 0.9342294931
-0.1934069246 -0.08748319745 1.007760167 0.02080284804 0.267483294 0.9587078691
-0.2095039785 -0.09224331379 1.013378143 0.2229208052 0.2815292478 0.9268491268
-0.1729321033 -0.09618970752 1.013784647 -0.08264609426 0.2512976229 0.9574235082
-0.1697221249 -0.07399298996 0.9925970435 0.2400184572 0.26300928 0.9033967257
-0.1737458408 -0.09208833426 1.009012818 -0.01866478287 0.2592179477 0.946179986
-0.1787409335 -0.08987054974 1.003657937 0.0300537236 0.2821383774 0.9360181093
-0.172624737 -0.08318582177 1.000413656 0.1112630516 0.2645957768 0.9243622422
-0.1848306358 -0.09649511427 1.006855607 -0.05033614486 0.2996399701 0.9475434422
-0.1756042242 -0.08102793247 0.9963490367 0.1528354883 0.279202044 0.9161601663
-0.1953064948 -0.1291965693 1.029000759 0.03498406708 0.3481447399 0.9356909394
-0.1873338819 -0.0433967337 0.9989805818 0.6444728374 0.2164922804 0.728856802
-0.1916197687 -0.03879055381 0.9998387098 0.6470950246 0.1564978957 0.7423394322
-0.1866410226 -0.02691567317 0.9876397252 0.5950144529 -0.0397323072 0.782322526
-0.1997084767 -0.06455422938 1.01000011 0.1420042962 0.2110830098 0.9666239023
-0.1943238974 -0.06570550054 1.01000011 0.1333134323 0.228508085 0.9640501142
-0.1974881291 -0.07167249173 1.01108551 0.1455786228 0.2225478142 0.9632454515
-0.2026952356 -0.0798143521 1.013796091 0.1842959225 0.2395719439 0.9525725245
-0.1465478539 -0.04640697315 0.9810002446 -0.1390425116 0.06654492021 0.9866756201
-0.1749307066 -0.04519971833 0.9862080216 0.5965231061 0.1046098098 0.7733513117
-0.1660223305 -0.05077974871 0.9844290018 0.3569334745 0.07227256894 0.8725987673
-0.1590046436 -0.04989465326 0.9828219414 0.1437068135 0.03514398262 0.9413284063
-0.153434217 -0.04422984272 0.9813531041 -0.0485557355 -0.005278972443 0.987000525
-0.02369738929 -0.06142542511 1.068830252 0.3911402524 0.313216567 0.8653928041
-0.0092247352 -0.06623952836 1.055954337 0.3931306899 0.3135985434 0.8643170595
-0.01126440149 -0.07004009932 1.065772295 0.3911402524 0.313216567 0.8653928041
-0.01590026543 -0.06763785332 1.068837643 0.3911402524 0.313216567 0.8653928041
-0.1605706066 -0.0153655801 0.9839462042 0.08764432371 -0.2710922658 0.9581662416
-0.1616012454 -0.009239526466 0.9855596423 0.09935871512 -0.324362874 0.9404459596
-0.1567761004 -0.01807028055 0.9809144735 0.04915861785 -0.2478479892 0.9641894102
-0.1042584628 -0.02396943606 0.9915683866 -0.4773823321 -0.09902366251 0.8729526997
-0.1158592701 -0.03306180611 0.9846749902 -0.4535213709 0.02611134574 0.8907367587
-0.1104553863 -0.02953882143 0.985298872 -0.4780542552 0.000328865659 0.8782484531
-0.09926347435 -0.02217476442 1.001194596 -0.4677005112 -0.1197988763 0.8756120205
-0.105240427 -0.02590266988 0.997243166 -0.4350573123 -0.07766598463 0.8918090463
-0.1166344211 -0.03038666397 0.9898287058 -0.3510244191 -0.02358445153 0.929150939
-0.1180205643 -0.03872300684 0.9856740236 -0.3396930695 0.04003796354 0.9371296763
-0.128296569 -0.009489974007 0.9812743068 -0.2121420056 -0.2039937079 0.9532570243
-0.1253958791 -0.004734301008 0.9839708209 -0.2664666474 -0.2343802452 0.9343039989
-0.1219015196 -0.0006214831374 0.9870821238 -0.3484164178 -0.2472734302 0.9024736881
-0.1508780718 -0.02026068419 0.9814268351 0.0214391686 -0.1954729259 0.9789349437
-0.1465613842 -0.02627159841 0.9814583659 -0.04952071235 -0.1066778898 0.9889410138
-0.1420521289 -0.03537841886 0.981333077 -0.1439837962 -0.01125327218 0.9890463352
-0.1280216426 -0.03953506798 0.9815189242 -0.2590497732 0.04914158583 0.9608766437
-0.1596941054 -0.02543983236 0.9781997204 0.05401192233 -0.1888716668 0.9792732596
-0.1616035551 -0.02083143033 0.9822228551 0.08860970289 -0.2264991552 0.9690548778
-0.1836778969 -0.04015761241 0.9935637116 0.7009541988 0.08250092715 0.7061493993
-0.1739706099 -0.03662353009 0.977206707 0.353122592 -0.0168412216 0.9257442355
-0.1582353264 -0.1048746184 1.036682606 0.3217363954 0.3648904264 0.3707036674
-0.1645354331 -0.1011838093 1.024181604 0.02234361321 0.2802858651 0.7872601748
-0.1516840458 -0.1090292633 1.049309015 0.6243151426 0.4527932703 -0.04513567314
-0.1541057229 -0.1091034636 1.042744756 0.4679828286 0.419919759 0.1966522634
-0.1624427289 -0.1074037254 1.022450089 -0.01619108021 0.3072097301 0.9220840931
-0.154203102 -0.110729903 1.036922455 0.3303484023 0.3872961998 0.4127120674
-0.0597458519 -0.146742627 1.086382866 -0.1582166106 0.1328584254 0.978425324
-0.04768085852 -0.1470220536 1.087000012 -0.1254464537 0.1246226206 0.9835631847
-0.05372385308 -0.1465951204 1.086638212 -0.1530848593 0.131568715 0.9792299271
-0.02272373997 -0.08618286252 1.080000043 0.2900617421 0.2389551252 0.9259414673
-0.01887351461 -0.09093406796 1.080000043 0.2782034874 0.2155580968 0.9350952506
-0.03032262623 -0.09137684852 1.078492165 0.2250749171 0.1992831677 0.9519500136
-0.02954430878 -0.1035523713 1.08302176 0.1691853106 0.1376188248 0.9741926789
-0.02116639912 -0.09834644943 1.081066728 0.2289572656 0.1730200946 0.9555534124
-0.04977440834 -0.1372620016 1.0874933 -0.06608711928 0.113534376 0.9900972247
-0.04494531825 -0.1420551538 1.087610006 -0.06090857461 0.113139227 0.9902530313
-0.04338985309 -0.132447958 1.086612701 0.04755705968 0.1145909876 0.9921800494
-0.03851050511 -0.1349006295 1.088461399 0.05119923502 0.1181361601 0.9915427566
-0.04281553999 -0.1259837151 1.086650372 0.05810701102 0.1336395144 0.9893142581
-0.03268803656 -0.1095909625 1.082353115 0.1333942711 0.1488821357 0.978202343
-0.02880675718 -0.09798199683 1.077710032 0.2022444457 0.1706917137 0.9636000395
-0.032993678 -0.1216375977 1.083771586 0.08652341366 0.1373006254 0.9865845442
-0.02875798754 -0.1283392459 1.082167029 0.07806805521 0.1387720555 0.9869561195
-0.03371649981 -0.1157720536 1.08443284 0.1004601493 0.1379353553 0.9853029251
-0.02715605125 -0.1171005145 1.082851291 0.1127592921 0.143064633 0.983071208
-0.1672266275 -0.09924130887 1.018577099 -0.109239392 0.2377119213 0.964341104
-0.1829123199 -0.1393877268 1.030273199 0.01556304377 0.4027305245 0.914642632
-0.1841734946 -0.05100273341 0.9942320585 0.692387104 0.2068773359 0.6890825033
-0.1766033769 -0.05386540294 0.9916785359 0.5136523843 0.1687290519 0.7702887654
-0.1705135852 -0.05472074822 0.9888466001 0.3906705081 0.1285472512 0.8334099054
-0.1791327447 -0.0476854071 0.9894230962 0.6541754603 0.1479051262 0.7348677516
-0.1731857955 -0.0497508049 0.9787839651 0.3669818044 0.1288736314 0.9064418077
-0.1757327914 -0.04204478487 0.9785612226 0.4245473742 0.04577758536 0.8822395205
-0.1792924851 -0.03539216146 0.9787683487 0.5178738832 -0.02803808078 0.8396605253
-0.189149037 -0.09201081842 1.007000089 -0.03523552418 0.2841749787 0.956856966
-0.2002099752 -0.09666145593 1.011006236 0.1005221158 0.2985392511 0.9335197806
-0.2134926915 -0.1022627205 1.017114639 0.2348087579 0.2825375497 0.9291539788
-0.2072884738 -0.09787043184 1.013742328 0.1809401959 0.2917771935 0.9282089472
-0.1883923113 -0.1095774919 1.032547951 0.1695168763 0.4059605002 0.6830076575
-0.1932302117 -0.1157189682 1.022339463 0.04387134314 0.3511473536 0.9282813072
-0.1856241077 -0.09748862684 1.051015735 0.4341108501 0.5277110338 0.2234726548
-0.1848769933 -0.09443215281 1.055696487 0.5008884072 0.5583968163 0.1071240753
-0.1889911294 -0.1129053384 1.027503371 0.09626153111 0.3721099496 0.8089473844
-0.1862991154 -0.1059713066 1.038362145 0.2452057451 0.4396794736 0.5415609479
-0.1810087562 -0.08910736442 1.03038013 0.07045787573 0.3130694628 0.719358325
-0.1900092661 -0.08507759869 1.053185225 0.5522128344 0.5291257501 0.1193288043
-0.186066255 -0.08722775429 1.039168 0.2794618905 0.4003903568 0.4795692563
-0.1939638108 -0.08664847165 1.028237104 0.2280580252 0.3280595243 0.7013297081
-0.194842279 -0.08739178628 1.018568158 0.09281250089 0.2484614253 0.9304171205
-0.1774392128 -0.08934953809 1.035526395 0.09684216231 0.3475021124 0.6141543388
-0.1896823943 -0.08702986687 1.033458114 0.2451244444 0.361305058 0.5981546044
-0.1926402152 -0.08528247476 1.045380235 0.4712897241 0.4697867334 0.2938917875
-0.1853478253 -0.08887164295 1.023510575 0.02897820063 0.2660170496 0.8620889187
-0.1842472255 -0.08696176857 1.045865655 0.3553503752 0.4524314404 0.3274098635
-0.1807722002 -0.08707541227 1.052153587 0.4006184638 0.4967698753 0.1940867007
-0.2051738948 -0.08545918763 1.016562223 0.2139509171 0.2579040527 0.9232156873
-0.2024272382 -0.09355312586 1.022135973 0.293358624 0.3225417733 0.7948459387
-0.1956067234 -0.08549629897 1.039793372 0.4305243492 0.4309620857 0.4127025902
-0.1996388435 -0.08632124215 1.029919744 0.3415316641 0.3598545194 0.6289942861
-0.2031076252 -0.08703719825 1.02142477 0.2649851143 0.2986929119 0.8150821328
-0.1765464246 -0.08697471023 1.042035699 0.2179935724 0.3966597319 0.4539811909
-0.1769505441 -0.08049878478 1.058593869 0.563447237 0.5287648439 0.03256135061
-0.1808480471 -0.08446925133 1.063214898 0.5985769629 0.5876972079 -0.07981604338
-0.1765371412 -0.0824078843 1.052663803 0.4440784454 0.4798871279 0.183114931
-0.1762367487 -0.07596717775 1.066629052 0.7458167076 0.5875663161 -0.1731972694
-0.1732022017 -0.09153013676 1.018559933 -0.1373521686 0.2321621627 0.9627099037
-0.1716376543 -0.07963165641 1.05511415 0.4970834851 0.4942791164 0.1450413167
-0.1707305759 -0.08308169991 1.050068974 0.3680787981 0.4604982138 0.2868333757
-0.1658432782 -0.09701795131 1.034662008 0.1514448524 0.3336995244 0.5331909657
-0.1508496553 -0.1053909212 1.058284998 0.6747338176 0.5573320985 -0.2054634243
-0.1563571393 -0.105153732 1.049854159 0.5714167953 0.4536730051 -0.01813667454
-0.1612644792 -0.09761679918 1.042895794 0.2808094919 0.4201501012 0.3309917152
-0.1617996544 -0.09500447661 1.047739387 0.3425430059 0.4461093247 0.2547167242
-0.1728879809 -0.09141872823 1.02459085 -0.1161314324 0.2445156723 0.8954492211
-0.1539816707 -0.1014572531 1.054470062 0.5309944749 0.5308243632 -0.02456332743
-0.1588496864 -0.096242778 1.053203106 0.454793185 0.4955815971 0.09675078094
-0.1587774754 -0.09162402153 1.064697742 0.6173940897 0.5648136139 -0.1114316061
-0.165600121 -0.09199590236 1.044154167 0.2465234995 0.4030513167 0.3961163163
-0.1556480229 -0.09610737115 1.062747955 0.627486825 0.5709195137 -0.1397073716
-0.1667736173 -0.0798997134 1.068894982 0.7110394239 0.6131852865 -0.1648455113
-0.1664610654 -0.08844274282 1.050123096 0.3415596485 0.4451473951 0.283297956
-0.1708659083 -0.08626160026 1.042364836 0.2168399543 0.3932829499 0.4720584154
-0.1619897187 -0.08696104586 1.06651175 0.6348504424 0.5734520555 -0.1116610169
-0.1633499563 -0.08933085203 1.057105541 0.459074378 0.4951349199 0.1140798479
-0.1720156819 -0.08928982168 1.032052875 0.02202683501 0.3060985208 0.719274044
-0.1678240001 -0.08394913375 1.056519032 0.4752025902 0.5072737336 0.1315902323
-0.1684462428 -0.08057533205 1.06248486 0.5958533883 0.5627054572 -0.01042409055
-0.1696310788 -0.09004327655 1.037237167 0.1088186055 0.34292382 0.5935742259
-0.1639008373 -0.08420564234 1.072082877 0.7380441427 0.6315111518 -0.2355517
-0.1574875116 -0.1035026684 1.044111609 0.453491807 0.3983972967 0.1530044824
-0.1690097004 -0.09514829516 1.027526498 0.003442417597 0.2705574036 0.7473911643
-0.162204057 -0.1014409289 1.030504227 0.1684986204 0.3142143786 0.5653736591
-0.1877924502 -0.03598181531 0.996293664 0.6926857233 0.06333655864 0.7095134854
-0.1789161116 -0.02297123708 0.9889701009 0.4268213809 -0.1087693572 0.8661063313
-0.1876001358 -0.03071991727 0.9942613244 0.610466361 0.01640919596 0.7641552091
-0.1716789454 -0.01748243719 0.9855005741 0.2596394122 -0.2048999518 0.9339385629
-0.1801210642 -0.03219224513 0.9923225045 0.5440383554 -0.025549246 0.7706997395
-0.1700417548 -0.02353308909 0.9862626195 0.254399389 -0.1645972878 0.9025215507
-0.1740569025 -0.02681530081 0.9887405038 0.3696378767 -0.1104348376 0.8496263027
-0.1616821736 -0.06538773328 0.9917293191 0.0006077912985 0.08465220034 0.989844799
-0.1615799516 -0.07167752087 0.9959826469 -0.0155900009 0.1079992577 0.9857817292
-0.1674015224 -0.08024313301 1.005663037 -0.06926840544 0.1613368839 0.9774451852
-0.1677870601 -0.09369188547 1.015151501 -0.1071069837 0.2134406716 0.9684733748
-0.1717044115 -0.07505264133 1.004904747 -0.07827920467 0.1573164463 0.9788142443
-0.1660507023 -0.06758122891 0.9960853457 -0.0284034349 0.1087113246 0.9863566756
-0.1731636524 -0.08479750156 1.012549639 -0.1119555756 0.1993346512 0.9717584848
-0.1666682214 -0.07474029809 1.001405239 -0.05073285475 0.1379374415 0.9813868403
-0.1559267044 -0.06002505869 0.9838265777 0.06058794633 0.04957675189 0.992141664
-0.1623036563 -0.06316807121 0.9844968915 0.2026040554 0.1566449404 0.9395699501
-0.1658039689 -0.06889717281 0.989056766 0.2228693813 0.2120858729 0.9202283621
-0.1622544825 -0.07898519188 1.001077294 -0.02672970295 0.1426490843 0.9776214361
-0.157473743 -0.06456303596 0.98794204 0.04064459354 0.07241250575 0.9883600473
-0.1682432741 -0.0877391994 1.007781625 0.02304376476 0.2383762449 0.9420385957
-0.1710154563 -0.06546386331 0.9974179864 0.08619684726 0.1364352107 0.9323598146
-0.1824360937 -0.05661902577 0.9972132444 0.5223997235 0.2064952552 0.7472304106
-0.1737422645 -0.05837483704 0.9935048819 0.3371483684 0.1519310176 0.8390493393
-0.1783452779 -0.07444424927 1.008665919 -0.06615606695 0.1850274503 0.9581595659
-0.1770834923 -0.06455119699 1.000249147 0.2062694728 0.174596861 0.8713595867
-0.1675013751 -0.06195690483 0.9926453233 0.135688141 0.1133365855 0.9278687835
-0.1747887582 -0.06952081621 1.002768874 0.02446280606 0.1613098234 0.9400562644
-0.1848563999 -0.06551879644 1.007367015 0.2120438218 0.2468967587 0.8897476792
-0.1887290329 -0.05783538893 1.004971743 0.4426459968 0.2861952782 0.8293973207
-0.186879158 -0.05433645472 0.9995837808 0.5975258946 0.2541152537 0.7389822602
-0.02104150876 -0.05024944246 1.060976505 0.3911402524 0.313216567 0.8653928041
-0.01623152569 -0.05268791318 1.058442593 0.3911402524 0.313216567 0.8653928041
-0.1194372252 0.0007101511001 0.9922489524 -0.3985933065 -0.2381243259 0.8849263787
-0.1051500067 -0.01165879332 0.9982981682 -0.4674638808 -0.1745766997 0.8659735322
-0.1098728552 -0.007636642549 0.9974661469 -0.4399520457 -0.1934764683 0.874946177
-0.1146947443 -0.002882573986 0.9939916134 -0.4210331738 -0.2187855542 0.8784556985
-0.1154064462 -0.005619095173 0.9877976179 -0.4196587205 -0.2280033827 0.8777167797
-0.01775120944 -0.06204161793 1.067338109 0.3911402524 0.313216567 0.8653928041
-0.01988155954 -0.05657570809 1.06562078 0.3911402524 0.313216567 0.8653928041
-0.01977668703 -0.0576870665 1.060361505 0.3911402524 0.313216567 0.8653928041
-0.01256886497 -0.0619866848 1.052589178 0.3911402524 0.313216567 0.8653928041
-0.01315094158 -0.06406384706 1.064408064 0.3911402524 0.313216567 0.8653928041
-0.01290005725 -0.06033389643 1.05949378 0.3911402524 0.313216567 0.8653928041
-0.1488327831 -0.04060968384 0.981000185 -0.122542873 0.008651483804 0.9908597469
-0.1424461901 -0.04252445325 0.9780000448 -0.1694064885 0.02826555073 0.9841512442
-0.1627413481 -0.03130880743 0.9767447114 0.05099171773 -0.139863193 0.9879646897
-0.160243541 -0.03602338582 0.9766007066 0.01083191857 -0.06997539103 0.9938417673
-0.1597911268 -0.04261304438 0.9759840965 0.03118016198 0.01287562493 0.9960893393
-0.1525622755 -0.03632349893 0.977486372 -0.06503435969 -0.04989903048 0.9945015907
-0.1582631767 -0.03031007946 0.9813008308 0.01788052917 -0.1109247804 0.9846202731
-0.1691542119 -0.02831816301 0.9779465199 0.191306591 -0.1323673725 0.9661975503
-0.176380381 -0.02960591204 0.9777690172 0.3933876157 -0.08756023645 0.9057736397
-0.1662707627 -0.01719121076 0.9838671088 0.1324914396 -0.2389687896 0.9584217072
-0.1667336524 -0.02335249819 0.9805288911 0.1443937868 -0.1891121715 0.9655086994
-0.1781252474 -0.02395194583 0.9810106158 0.4092291892 -0.1354895085 0.8940159678
-0.1791974306 -0.01957073808 0.9840790033 0.4330939651 -0.1709385216 0.8805746436
-0.1513847709 -0.1141072288 1.045607686 0.5561724901 0.4261575043 0.1029611677
-0.1554681957 -0.119158335 1.037969351 0.2659367323 0.4076262712 0.4332455695
-0.15729177 -0.1214001775 1.031534791 0.1200236008 0.3674309254 0.6698490381
-0.1486248225 -0.1107166559 1.055871367 0.7798394561 0.4925352335 -0.270606637
-0.1590566784 -0.1235727742 1.025936365 -0.01780263148 0.3351714313 0.8802967668
-0.1588792205 -0.1234051883 1.037578821 0.05578529835 0.455383122 0.5326145291
-0.1833647788 -0.1129500866 1.016137719 -0.04771300405 0.3330585659 0.9396959543
-0.1915311068 -0.112131156 1.013312697 0.006606167648 0.3455044329 0.9354825616
-0.1860587746 -0.118389532 1.018270969 -0.01293606311 0.3494464159 0.9337804317
-0.1864886135 -0.1084151566 1.01279068 -0.03939900547 0.3287380934 0.9414303899
-0.1946670562 -0.1157285497 1.016855717 0.0380746536 0.3510742486 0.9345464706
-0.1670968533 -0.115486607 1.019288301 -0.03777602315 0.3221345544 0.9455505013
-0.1671076417 -0.1207512692 1.021897435 -0.006055215839 0.3293322623 0.9434224963
-0.161996901 -0.1125307903 1.019000053 -0.01683303155 0.2916832268 0.9552175403
-0.1588048488 -0.1181301326 1.019128203 -0.1686947048 0.3260093927 0.9199426174
-0.1726550162 -0.1143608838 1.018508911 -0.05937795341 0.3238393366 0.9438995123
-0.1791766882 -0.1058461592 1.012544394 -0.05899362266 0.3147147298 0.9471216798
-0.1777609885 -0.1112537757 1.016274095 -0.06884489954 0.3221440315 0.9439662695
-0.1710140109 -0.1038240343 1.016502023 -0.06887309998 0.2784558833 0.9578359127
-0.1674394459 -0.1085116491 1.01780808 -0.05222623795 0.2943080664 0.9537599087
-0.1812749505 -0.1005075946 1.010369182 -0.06475584209 0.299472928 0.9517186284
-0.1873226762 -0.1317662895 1.026295185 -0.0001986496645 0.3745592237 0.9267734289
-0.190724954 -0.06161596254 0.99455446 0.4309663177 0.2388548553 0.8201978803
-0.1985148787 -0.06340942532 1.001012802 0.2750786543 0.2109536231 0.9018273354
-0.2025064826 -0.06906343997 1.006108403 0.1452858448 0.1936082244 0.964248538
-0.2044975907 -0.06248671561 1.005883336 0.1682173163 0.2080177069 0.9598522186
-0.1977245212 -0.05821478739 0.9997075796 0.3255795836 0.2441411763 0.8802545667
-0.185731709 -0.0544924289 0.9887439609 0.5856276155 0.2620195746 0.7459734082
-0.1931775957 -0.05029775575 0.994015038 0.4806899726 0.2219651788 0.8077425957
-0.2009347081 -0.05342601612 1.001787186 0.2981560528 0.2480976582 0.9003178477
-0.1931174099 -0.04252967611 0.9915993214 0.5577139258 0.1516791284 0.7778756618
-0.1964630783 -0.04597844929 0.9955900908 0.4584872127 0.1819515526 0.8257066607
-0.1906258315 -0.055093918 0.9932301641 0.4838607907 0.2660884261 0.7992159724
-0.1874134839 -0.0479372628 0.9882287979 0.6166776419 0.202221334 0.7388167381
-0.193107754 -0.03587598726 0.9901075959 0.6184883714 0.1052274108 0.7547571063
-0.1869074553 -0.03235128522 0.9835891128 0.6312307119 0.008711782284 0.7630696893
-0.1831520051 -0.03945528716 0.9825534821 0.6069093347 0.06388422847 0.7677544355
-0.1832171977 -0.04625730962 0.9843397737 0.6310831308 0.1581737548 0.7391251922
-0.1788017154 -0.04896871373 0.9817271233 0.5549376011 0.1534255743 0.8008835912
-0.1754504442 -0.07459624857 0.9902191758 0.262814492 0.2922762334 0.8878196478
-0.18111974 -0.08554127067 0.9981167316 0.1146051586 0.3024017513 0.912308991
-0.1714270264 -0.06658867747 0.9844712615 0.3747195601 0.2868032455 0.8671620488
-0.1852893978 -0.08718181401 1.002676845 0.0587506108 0.2926494181 0.9238019586
-0.1808699369 -0.07602001727 0.9948288798 0.2539819479 0.306532532 0.8649272323
-0.1874921471 -0.08162750304 1.004744649 0.03784981743 0.2480318248 0.9519604445
-0.1839154214 -0.07856015116 0.9993826151 0.1548510045 0.2794975042 0.904948771
-0.1739070863 -0.05878006667 0.9810206294 0.4664881825 0.2525511682 0.8312339783
-0.1792418957 -0.05604907125 0.9839730859 0.5904254913 0.2586382031 0.7597275376
-0.2052377015 -0.1112600714 1.024793983 0.1514781713 0.341729939 0.8997280002
-0.195461601 -0.1007744297 1.04504621 0.3869201541 0.4823162854 0.3932909966
-0.1931402087 -0.09683998674 1.049575686 0.4570874572 0.5129233003 0.2694986463
-0.2029490024 -0.1058294773 1.028959274 0.2359737903 0.3689243197 0.7738810182
-0.194586277 -0.11071904 1.030008554 0.161427483 0.3957202435 0.7489813566
-0.1990697086 -0.1135842949 1.025538921 0.1107614413 0.3604184389 0.8738952875
-0.2000069767 -0.1072732806 1.035338998 0.2569818795 0.4162361622 0.6446865797
-0.1920597851 -0.1040192097 1.04042685 0.3053799272 0.4621217847 0.4906935096
-0.1940121651 -0.1074976772 1.035015106 0.2326930314 0.4263470471 0.6275146604
-0.190953657 -0.09211438894 1.053507566 0.5317460299 0.5390547514 0.152200371
-0.2025130242 -0.1005825326 1.027210951 0.2747529149 0.3567023277 0.7622852325
-0.1923739761 -0.09029130638 1.047873139 0.5081927776 0.5011771917 0.2444536537
-0.197716102 -0.09399420023 1.035543442 0.3900142908 0.4157653749 0.5276747346
-0.2001980245 -0.100000985 1.033412695 0.3230987191 0.3992431462 0.6333737969
-0.1948637813 -0.0933233127 1.043222904 0.4494534135 0.4684266448 0.3685669899
-0.1879327893 -0.08749570698 1.058360815 0.60564816 0.5737122297 0.007290048525
-0.2130108923 -0.09323384613 1.018794775 0.231405437 0.2816254795 0.9302169085
-0.208475396 -0.0975297913 1.019528031 0.2071208656 0.2916194499 0.9328546524
-0.2106774747 -0.08824785054 1.016971707 0.2273246348 0.2633060813 0.9368934035
-0.2061745971 -0.1057254821 1.021741033 0.1874823272 0.3163261414 0.9298040271
-0.1960358024 -0.08040925115 1.012857437 0.1047078669 0.2402508408 0.9595490098
-0.1913539171 -0.0768026039 1.010846972 0.05300729722 0.2241663188 0.9702576399
-0.1912835985 -0.08286005259 1.014862061 0.04918768257 0.2413282394 0.9585171938
-0.1819964498 -0.08412778378 1.016446471 -0.05733920261 0.2338995188 0.9632328749
-0.1826190799 -0.07924868912 1.01309526 -0.0404288359 0.2372210026 0.9680549502
-0.199048236 -0.08511910588 1.015783906 0.1314882487 0.2455844581 0.9510174394
-0.1891325116 -0.08774361759 1.018335938 0.01516153198 0.2369044125 0.9546900988
-0.183977589 -0.06992647797 1.024775863 0.2725994289 0.3231408894 0.6687892079
-0.1798026562 -0.07153498381 1.040050507 0.4465007186 0.4146533608 0.3613906205
-0.1816438884 -0.07118692994 1.032615662 0.354647845 0.3702941239 0.5119045973
-0.1764068753 -0.07122559845 1.055580616 0.655459106 0.5068283677 0.04487285018
-0.1744391918 -0.07176232338 1.062580109 0.7357904315 0.5472356081 -0.09622393548
-0.1787155122 -0.07611913979 1.015218973 -0.04418168217 0.2211691588 0.881736517
-0.1758635342 -0.07329105586 1.046353698 0.4674973488 0.4352843463 0.2389401346
-0.1854450703 -0.07042293996 1.013751388 0.1042277366 0.2495029569 0.8950671554
-0.1788562834 -0.07748820633 1.031516194 0.2270376384 0.348233968 0.5850592852
-0.1757441014 -0.08642719686 1.024837494 -0.03149097413 0.2650604844 0.8376250267
-0.1819690466 -0.07555595785 1.022482753 0.1472993791 0.3079681993 0.7351161838
-0.1755073965 -0.08352915943 1.032351494 0.1215614378 0.3217602074 0.6512650847
-0.1746982336 -0.076402165 1.051805258 0.5105768442 0.4666193128 0.1739141047
-0.1760040522 -0.08045919985 1.027531505 0.07682348788 0.290199399 0.7013913989
-0.1756721288 -0.07597894222 1.040154934 0.331466794 0.3859333396 0.3938648403
-0.1745382547 -0.08129091561 1.038054109 0.2234089822 0.3575148582 0.5085416436
-0.1767826825 -0.08106478304 1.019644499 -0.05072392151 0.2363837659 0.8630281091
-0.1741334498 -0.07948172092 1.045432329 0.360601604 0.4112565815 0.3400527537
-0.1762260199 -0.08661530167 1.017213464 -0.1397612393 0.2282913476 0.9631663561
-0.1899627298 -0.06966800988 1.00999999 0.09928744286 0.2273507863 0.9684988856
-0.1970220953 -0.07706248015 1.006490111 0.08180378377 0.2224418223 0.9648373127
-0.1879566759 -0.0668021813 0.9954850674 0.3707649708 0.2558862865 0.8292649388
-0.195748657 -0.07186226547 1.002896667 0.1951906383 0.2229112536 0.9216444492
-0.1928889006 -0.06844385713 0.9993260503 0.2898648679 0.2332571447 0.8777096868
-0.1766285002 -0.06215791404 0.9847706556 0.5386012197 0.3240682185 0.7648199201
-0.1892018914 -0.07379235327 1.000030637 0.2228430659 0.2576450706 0.8839676976
-0.182566151 -0.05897517875 0.987854898 0.5724159479 0.2756042778 0.7429687381
-0.1834668815 -0.07074546814 0.994143784 0.3192253411 0.2923947573 0.8499667645
-0.1807336658 -0.06466188282 0.9891379476 0.46280092 0.2998305261 0.7920657992
-0.1370820105 -0.003928806633 0.9869598746 -0.111839287 -0.2738155127 0.9535838366
-0.1201571822 -0.006230378058 0.9906147718 -0.3587256372 -0.225866735 0.8933138847
-0.1290837973 0.001299894182 0.9870154262 -0.2352870405 -0.269205749 0.9309934378
-0.1021226048 -0.01735778898 0.9957641363 -0.4707233608 -0.1412597448 0.8701065183
-0.1064280197 -0.01414929051 0.9920354486 -0.4727351367 -0.1565036923 0.8663374186
-0.101729311 -0.01463631261 1.001691103 -0.4714768529 -0.1595167816 0.867323339
-0.1454998851 -0.006908217445 0.9867280722 -0.007499877829 -0.2802770138 0.9595959783
-0.153304711 -0.009643616155 0.984888494 0.05912842974 -0.2968097329 0.952399075
-0.1438769251 -0.02139878273 0.9820479751 -0.0372011587 -0.1473635137 0.9839866161
-0.1388113499 -0.01879132725 0.9842277169 -0.0870963335 -0.1455606222 0.9773617983
-0.1333819628 -0.01213096268 0.9800277352 -0.1305685639 -0.1934420168 0.9695426226
-0.1393232942 -0.0145032201 0.9797652364 -0.05389494449 -0.1960022449 0.9752575159
-0.1477651298 -0.01099382434 0.9824473858 0.01924029179 -0.2555229664 0.9603933096
-0.1345155984 -0.018919833 0.9775388241 -0.1161928624 -0.1328559518 0.9828165174
-0.1378828138 -0.008437532 0.9831824899 -0.08500107378 -0.235615626 0.9643315077
-0.1443139315 -0.02932154387 0.977063179 -0.08605506271 -0.05826972425 0.991922915
-0.1407486498 -0.02112652361 0.9770176411 -0.05299763009 -0.1345024109 0.9886870384
-0.1533138007 -0.02693650872 0.9767116904 -0.006961734034 -0.1531042755 0.987226665
-0.173508212 -0.1228018552 1.02290225 -0.03241350874 0.360732168 0.931125164
-0.1794535965 -0.1246684268 1.022719741 -0.01508778799 0.3807390332 0.9236178994
-0.1848647892 -0.1279623508 1.02242887 0.009757841006 0.3788723052 0.9240116477
-0.1908924133 -0.1241374761 1.019520998 0.04142645374 0.3764929771 0.9245134592
-0.1804042608 -0.1327949464 1.026269078 -0.02102083899 0.3815756738 0.9236930013
-0.1573165059 -0.1162934378 1.051923037 0.504737556 0.5449838042 -0.04109366238
-0.1553805918 -0.119027786 1.045558453 0.352470994 0.4725546539 0.2086923867
-0.1640879065 -0.1296565086 1.032550454 -0.1362752914 0.4289682806 0.8201232553
-0.1596026868 -0.1220124662 1.044250727 0.3867026269 0.4293722212 0.3217012584
-0.207089141 -0.1038407832 1.015800834 0.152407214 0.295144856 0.9355896115
-0.2011122406 -0.1018523276 1.013044119 0.08775060624 0.2978836894 0.9396770597
-0.1901016235 -0.0994804576 1.008615613 -0.03516796604 0.3081983924 0.9473287463
-0.1975855976 -0.1089848951 1.015655518 0.04066392407 0.328923434 0.9409433603
-0.1944073588 -0.1043847054 1.012363434 0.00504983915 0.31927827 0.9442308545
-0.2006818801 -0.1153608337 1.018543839 0.08165856451 0.3462516367 0.9341121316
-0.1310478151 -0.02078034915 0.9842296243 -0.1861163974 -0.1043108031 0.9714847803
-0.1318553835 -0.01492888574 0.985239327 -0.1749444753 -0.1625794768 0.9639737606
-0.1178192571 -0.01923795789 0.9879156351 -0.3645443916 -0.1194281206 0.9129964113
-0.115248166 -0.02304371446 0.9909822941 -0.3449816406 -0.08363342285 0.9272827506
-0.110482946 -0.02035170607 0.9948425889 -0.3917719424 -0.1084615365 0.9056738019
-0.1269955635 -0.03125142679 0.9826007485 -0.2546416223 -0.009040131234 0.9625743032
-0.1243434176 -0.02554221824 0.9813918471 -0.2871199846 -0.06031157449 0.9445402622
-0.1274968386 -0.01671049558 0.9787694812 -0.2182682902 -0.1432795525 0.959492743
-0.1369679421 -0.02652945183 0.9780944586 -0.1272429377 -0.04361417517 0.9876605868
-0.1103740036 -0.02627226524 0.9943372607 -0.3954464495 -0.06585562229 0.9086177945
-0.1215594262 -0.02747453749 0.9863885641 -0.2978796363 -0.03984290734 0.9494330287
-0.1329609156 -0.02817626484 0.9832207561 -0.170871973 -0.03512872756 0.9827398062
-0.1586406529 -0.110888347 1.059414983 0.590490222 0.6205108166 -0.2921958268
-0.1651224941 -0.111240983 1.058554769 0.5824155211 0.5018699169 -0.0617551133
-0.1625692099 -0.116019994 1.053596497 0.4593602121 0.5506778359 -0.0008554124506
-0.1665546745 -0.1217904463 1.047085643 0.3118413985 0.4800713062 0.3121141791
-0.1635127962 -0.1258199215 1.041322827 0.1861542761 0.4702674448 0.4818293154
-0.1685975641 -0.1303209066 1.03765583 0.0919926092 0.4425523579 0.6525206566
-0.1712983251 -0.1178043783 1.050967813 0.419016242 0.4493309259 0.2392853796
-0.1736793816 -0.1140682623 1.054758787 0.5192170739 0.4591715336 0.0995279029
-0.1781052947 -0.1240685582 1.04362607 0.2654960454 0.4144824147 0.4963350296
-0.1730060875 -0.1268994808 1.041054249 0.1851533502 0.412624687 0.5952979326
-0.1718523651 -0.1333623528 1.034225941 0.01579858549 0.390563935 0.8432949185
-0.1769529134 -0.1296611279 1.03773129 0.1187402532 0.3956540525 0.7106123567
-0.1730286181 -0.1217528209 1.046573758 0.3188159168 0.4317154586 0.3959214091
-0.1825740486 -0.1283527911 1.038621902 0.1602493674 0.3909658492 0.6717448235
-0.1821085662 -0.1338645667 1.032751083 0.01651248708 0.3712706864 0.884337008
-0.1795794368 -0.1135241687 1.057755589 0.4583335221 0.4746134579 0.1133967414
-0.1802004278 -0.1155094728 1.047659278 0.3113506138 0.4464886189 0.3478034139
-0.1838368475 -0.1219907776 1.037909985 0.1520955265 0.4054619372 0.6320275664
-0.175731957 -0.1070753559 1.064148426 0.5711064339 0.5081968307 -0.1008564383
-0.185559094 -0.1250635982 1.033261776 0.07623326033 0.3859541714 0.7673177719
-0.1906204224 -0.1326517463 1.033444405 0.04995258525 0.3632969856 0.8597519994
-0.1684583873 -0.1058232561 1.065387011 0.7056985497 0.5068818927 -0.2319111228
-0.1859729737 -0.125485301 1.042848945 0.2162234336 0.4050135911 0.5666988492
-0.1720652729 -0.1104433611 1.059807301 0.5952094197 0.4817377031 -0.04508122429
-0.171238333 -0.1027062982 1.072060466 0.7338513732 0.5362235904 -0.3495078981
-0.1788016856 -0.1168758795 1.052995443 0.4261202514 0.4508007169 0.2178180367
-0.1819186956 -0.120885551 1.048145533 0.3303481042 0.4289470613 0.3799413443
-0.1833489835 -0.1167027354 1.030312061 0.09060758352 0.3636992276 0.7589523196
-0.1809083223 -0.1158752367 1.04120481 0.2268098444 0.4206899405 0.4955637753
-0.1819527745 -0.1138129532 1.036009908 0.1811367571 0.3834244609 0.6055805683
-0.1887678951 -0.1202493086 1.023628116 0.002346039517 0.3571944237 0.9332329631
-0.1780821532 -0.1188949794 1.020542741 -0.05569681525 0.3493295908 0.9341625571
-0.168200925 -0.1266544014 1.024461865 0.007260490675 0.3451960385 0.9379107952
-0.1747816503 -0.1297880709 1.025498986 -0.03181246668 0.3781357706 0.9249414206
-0.1736871898 -0.1341486424 1.028964758 -0.03502431884 0.3804422915 0.9241024852
-0.1263628602 -0.01037159376 0.9878987074 -0.2531046271 -0.2106849402 0.9283647537
-0.1210252866 -0.01253005955 0.9888859391 -0.327115953 -0.1900908053 0.9084665775
-0.1320254654 -0.008433782496 0.9867430925 -0.1742787808 -0.2287649214 0.9504907131
-0.1135501117 -0.01415705681 0.9865968823 -0.4527494907 -0.17774266 0.8717352748
-0.110660404 -0.009403635748 0.9896777272 -0.4495564699 -0.1990760118 0.8692682981
-0.1183271334 -0.01041335426 0.98434484 -0.3993639648 -0.211850062 0.8863120079
-0.1219074354 -0.01518218312 0.9822685719 -0.3376170099 -0.1780139357 0.91143471
-0.1080977395 -0.0231851358 0.9877614379 -0.4782882035 -0.09975981712 0.8722684979
