# .PCD v0.7 - Point Cloud Data file format
VERSION 0.7
FIELDS x y z normal_x normal_y normal_z
SIZE 4 4 4 4 4 4
TYPE F F F F F F
COUNT 1 1 1 1 1 1
WIDTH 512
HEIGHT 1
VIEWPOINT 0 0 0 1 0 0 0
POINTS 512
DATA ascii
-0.02903611027 -0.08776336163 1.087132812 -0.5170889497 -0.1643578857 0.8381782174
-0.03980162367 -0.09234747291 1.076234818 -0.4816197455 -0.2061912417 0.8467485309
-0.03350706026 -0.08752696216 1.084152341 -0.4958591163 -0.2004064769 0.8402708769
-0.04244723544 -0.08563783765 1.080363035 -0.4513005614 -0.2814671695 0.8442485332
-0.03923039511 -0.08640331775 1.085182428 -0.4743185043 -0.2411870658 0.8452162743
-0.1174216196 -0.1879419982 1.090280175 -0.1257754713 0.2737152278 0.9530318975
0.02299610898 -0.2142946273 1.277580857 -0.850751102 0.4651139081 0.244481802
0.02147116512 -0.2168909609 1.282731652 -0.854242444 0.4579389691 0.2460691929
-0.06602881104 -0.08725439012 1.069248557 -0.2867977023 -0.2078885436 0.923319459
-0.06442582607 -0.09214121103 1.066652417 -0.2706038058 -0.1888983399 0.9341645837
-0.06016452983 -0.09516894072 1.06735456 -0.3251481354 -0.1820495278 0.9240162373
-0.0708495751 -0.09126218408 1.063930392 -0.1813509762 -0.1733646244 0.961735189
-0.1203864589 -0.1698213369 1.08021152 -0.02324936725 0.3456759751 0.9327780008
-0.02395037003 -0.2474276572 1.180088758 0.03597801179 -0.604493618 0.7945049405
-0.02848815359 -0.2501414418 1.177148581 0.06317034364 -0.6291654706 0.7744392753
0.01566180587 -0.1758610755 1.188107133 0.3656486571 0.06217141449 0.9286346436
0.01959473267 -0.1798329502 1.185406685 0.3820796013 0.04259750992 0.9230521917
-0.1125092134 -0.1818156391 1.087853551 -0.1510670185 0.3115408123 0.9370522499
-0.08850382268 -0.09892094135 1.058902264 0.1529757828 -0.08794810623 0.9791101217
-0.1283131093 -0.1887148023 1.084032655 -0.1091243699 0.2399544567 0.9630505443
-0.1216976792 -0.190104112 1.088742375 -0.1104104295 0.2550573945 0.9603060484
-0.1337711215 -0.1873166412 1.081393361 -0.09092353284 0.2243228257 0.9684216976
-0.1256546527 -0.1765633523 1.080772042 -0.04962610826 0.2975886762 0.9469898343
-0.1234314442 -0.1794155389 1.084045291 -0.09313541651 0.2830043137 0.9500492215
-0.1258211881 -0.1842325479 1.085208774 -0.1209050938 0.2515650392 0.9589022398
-0.1302656084 -0.182592079 1.081077337 -0.07232867926 0.2564458549 0.9590417147
-0.1305771321 -0.1778108031 1.077954888 -0.02467190288 0.2838090062 0.9522925615
-0.1314429045 -0.1865308583 1.091483474 -0.1040309221 0.234237656 0.9664538503
-0.1340200007 -0.1884323359 1.08663249 -0.09668512642 0.2212696373 0.9701113701
-0.09315798432 -0.09472155571 1.065555453 0.1375756562 -0.08495846391 0.9781827331
-0.120218426 -0.1622404754 1.0837394 0.05358025804 0.3634996116 0.9289978743
-0.1306204796 -0.1598593742 1.083508849 -0.001289295033 0.3466501534 0.9376337528
-0.1238948181 -0.1588506699 1.082652211 0.02643834241 0.3620286286 0.9307613969
-0.1256253421 -0.1631637514 1.084472537 0.03163105622 0.350938797 0.9345796108
-0.1309831291 -0.1646521091 1.085425258 0.01162524894 0.337482959 0.9404006004
-0.06027989089 -0.2615407109 1.181448102 0.05984770507 -0.5868613124 0.8074725866
-0.04145854712 -0.2594084442 1.180698395 0.09267178923 -0.6286641955 0.7718925476
-0.03790563717 -0.2558565736 1.182903051 0.09245023876 -0.6081818342 0.7882319689
-0.03502101451 -0.2550752759 1.178195953 0.08328232914 -0.6250030994 0.7758739591
0.01950376667 -0.2194841355 1.278506875 -0.8510448337 0.4647243917 0.2443942279
-0.03177135438 -0.2519808412 1.181026816 0.06962960213 -0.6101766229 0.7884873748
-0.04966909811 -0.1178583056 1.075260401 -0.4687145054 0.09280501306 0.8755937815
-0.04493366927 -0.1169762909 1.077915668 -0.5046625733 0.0912419036 0.8563473821
0.009353639558 -0.1813113987 1.188859344 0.364220351 0.06387294829 0.929119885
0.01118804887 -0.1762967557 1.190023303 0.364220351 0.06387294829 0.929119885
0.0145574715 -0.1816592813 1.18686533 0.3681261241 0.05922006443 0.9277929068
0.02180258185 -0.1872331649 1.184279442 0.3859514296 0.03798506409 0.9217367172
0.01921338402 -0.1843901873 1.188397646 0.3767224252 0.04897942021 0.9248722792
0.01735800505 -0.180136621 1.19081986 0.3701427877 0.05681763962 0.9271077514
-0.04969827086 -0.09769939631 1.067000031 -0.4376356602 -0.1457474381 0.884039402
-0.038347058 -0.09778239578 1.073305845 -0.5050699711 -0.1462816894 0.8499832153
-0.04300199449 -0.09688590467 1.069879174 -0.4882657528 -0.1513138264 0.8582333922
-0.04429449886 -0.0912418589 1.073476195 -0.4612296224 -0.2312039286 0.8514639735
-0.05345770344 -0.09026802331 1.071548343 -0.4210102856 -0.2240697742 0.8762171268
-0.0543817617 -0.09591308981 1.067887664 -0.3927744925 -0.173509419 0.8995932341
-0.04717901349 -0.09355608374 1.069794774 -0.4637772143 -0.189614445 0.8619631529
-0.04937870055 -0.08601143956 1.075569034 -0.4280231297 -0.2908243537 0.854819119
-0.05899003148 -0.1135737225 1.065857649 -0.351588279 -0.03034442291 0.9301040173
-0.06504572183 -0.1150306016 1.064202785 -0.2739204168 -0.05201804638 0.9595541954
-0.05531057343 -0.1015692428 1.065858006 -0.3863810897 -0.1339874864 0.9060647488
-0.05706728622 -0.1070611924 1.065313935 -0.3597140014 -0.09506846219 0.9198693037
-0.0349162519 -0.1263658404 1.087778449 -0.5356729031 0.1044106409 0.8371874094
-0.03935031593 -0.1243965104 1.081484914 -0.5169907212 0.1541994959 0.841396749
-0.1111079007 -0.1564068496 1.081465006 0.07708197087 0.3134972155 0.935839057
-0.0979649052 -0.1281984001 1.072922945 0.2676775157 0.0324463211 0.9532331228
-0.1053547338 -0.1560777128 1.080009699 0.1096648797 0.2639736533 0.938655436
-0.09740230441 -0.1370650083 1.071413517 0.2300225645 0.1332141459 0.9463772774
-0.09337190539 -0.1264466941 1.067149758 0.2954697609 0.05625419319 0.9510102272
-0.1151916161 -0.1612723321 1.083487272 0.07120145857 0.3632071912 0.9288229942
-0.0815576762 -0.1219318584 1.060530782 0.08414322138 0.109173283 0.9850976467
-0.08601490408 -0.1251357049 1.065149903 0.1559375077 0.06915397197 0.9683935046
-0.1593478024 -0.1386067718 1.075392604 0.09291240573 0.06862115115 0.9847898483
-0.1571876705 -0.1309284121 1.0764153 0.1453421712 -0.03622953594 0.9822818637
-0.1598769873 -0.135303542 1.079206228 0.1042369828 0.04223078862 0.9876980782
-0.1536719948 -0.12377996 1.075888634 0.1957425177 -0.115590848 0.9723142982
-0.125867784 -0.190154776 1.093329787 -0.1107655615 0.251519829 0.9614688158
-0.1167976037 -0.1812228411 1.090828419 -0.0818958953 0.2934868038 0.951949358
-0.07445567846 -0.104711473 1.063770771 -0.1992263794 -0.1068649739 0.9733628631
-0.07811051607 -0.09514093399 1.060676575 -0.07154532522 -0.1423570961 0.974668026
-0.07294460386 -0.09710813314 1.062615991 -0.1604328007 -0.1479569674 0.9656703472
-0.06867715716 -0.1019872501 1.063696861 -0.2307379842 -0.1392690539 0.9550855756
-0.08447355777 -0.1028359011 1.057897449 0.06896898896 -0.04648581892 0.9863992929
-0.08021799475 -0.100979574 1.06085217 -0.07117688656 -0.1032192111 0.9812505841
-0.08640812337 -0.09477939457 1.057349682 0.07222344726 -0.1179125682 0.9878279567
-0.08339983225 -0.1110013947 1.057871461 0.09225388616 0.03350611031 0.9859849215
-0.06366564333 -0.09876584262 1.066054583 -0.3113013506 -0.1447018832 0.938703239
-0.100717254 -0.1426318437 1.073569894 0.1875360757 0.1717555076 0.9472329617
-0.1023320928 -0.1499513835 1.076526284 0.1502267569 0.2269023359 0.9409438968
-0.1080908105 -0.1647353172 1.082584143 0.0583412759 0.3330625892 0.9347090721
-0.09961280972 -0.1323155612 1.069443703 0.2323659062 0.09157948196 0.9591311812
-0.1053190827 -0.1456753612 1.074935317 0.1460069418 0.186462447 0.9547979236
-0.1041435897 -0.1350437403 1.070681691 0.1924539059 0.1039136499 0.9669632912
-0.1105295271 -0.1380315423 1.072157979 0.1106217876 0.1252793968 0.9775580168
-0.1111407131 -0.1427522451 1.07408011 0.07715888321 0.1663720161 0.9716742039
-0.1097885072 -0.1526465416 1.077882171 0.07914640754 0.2373539358 0.955706656
-0.1121448725 -0.1481896192 1.076319933 0.03039376251 0.2154298425 0.9653115273
-0.1205045357 -0.1106482595 1.081016064 0.1896626949 -0.04681489617 0.9773719907
-0.10398072 -0.1006341651 1.073958278 0.241772145 -0.006407435983 0.9699465632
-0.1174312085 -0.1070712581 1.079113483 0.1970242709 -0.04075198621 0.9763743281
-0.1266852468 -0.1101123989 1.082182884 0.1643512249 -0.06555700302 0.9811069369
-0.1066420227 -0.1048288643 1.075983286 0.2368889302 -0.01072787307 0.9705651402
-0.109503299 -0.1098220125 1.078326702 0.2322956771 -0.01496349368 0.9711221457
-0.1233182326 -0.1061288342 1.080076218 0.172328338 -0.05896953121 0.9800283313
-0.1129076406 -0.1049145311 1.077382565 0.2120846212 -0.02919458225 0.9742107391
-0.1287617236 -0.1051147655 1.074985147 0.1432619393 -0.1056636944 0.9820915461
-0.1341483742 -0.1069066301 1.079326987 0.1268655807 -0.1073168218 0.9854201674
-0.1152378619 -0.1018484682 1.074003935 0.1957655102 -0.05288524553 0.9756157994
-0.1209270358 -0.1032176241 1.074377298 0.1736333966 -0.07528121024 0.9783325195
-0.1060840562 -0.1011716649 1.066464067 0.1963607371 -0.1114123911 0.9721480608
-0.1012014076 -0.09922911227 1.069215894 0.2315186709 -0.0519028157 0.9692134857
-0.1177204996 -0.1037605926 1.069261909 0.1601599902 -0.120308347 0.9781162143
-0.1151903793 -0.178132534 1.084710956 -0.1099224761 0.3272826672 0.9340420961
-0.1139523238 -0.1676071882 1.081485748 0.01789879799 0.363691777 0.9293965697
-0.1108088121 -0.1693464965 1.086447477 0.04701117054 0.3603968024 0.9313499928
-0.1119125858 -0.1739834398 1.088320613 -0.01339651737 0.334361136 0.9401515126
-0.1332988888 -0.1757346243 1.089950323 -0.1053358987 0.2146766186 0.97083956
-0.1264163554 -0.1678177416 1.086255193 0.00275070779 0.3209735453 0.9427980781
-0.1285816878 -0.1727805734 1.088188767 -0.05498146638 0.2756557167 0.9555235505
-0.1214269474 -0.1777362376 1.089901328 -0.0858438462 0.2718139291 0.9572634697
-0.1186086312 -0.1737080067 1.088180065 -0.03147620335 0.3063226342 0.946380198
-0.118251577 -0.1683268696 1.085925221 0.03259402514 0.335329026 0.9360464811
-0.1253032237 -0.1843764782 1.091471553 -0.1005720571 0.2435266078 0.96425879
-0.1302741468 -0.1808858663 1.091296911 -0.1048531681 0.233827427 0.9666077495
-0.01747658662 -0.2225496471 1.196941853 -0.02334014699 -0.2631190717 0.927095294
-0.02257295325 -0.226692453 1.196207881 0.003494021017 -0.4827397466 0.8519094586
-0.01266068872 -0.2203802168 1.198734999 -0.04583274573 -0.09178116173 0.9913799167
-0.01489162073 -0.2254652679 1.193091035 -0.02624511346 -0.2836169899 0.9168263078
-0.01950784028 -0.2293949872 1.192606688 -0.00167126779 -0.4859617352 0.84830755
-0.04231128842 -0.09483370185 1.082259059 -0.480799824 -0.1675029248 0.85549891
-0.04650497809 -0.09987968951 1.079357505 -0.4638773501 -0.1121226326 0.870321095
-0.04910565913 -0.1132344157 1.076153159 -0.4736168385 0.04358227551 0.8746517897
-0.0456584394 -0.1053674445 1.07904923 -0.4801678061 -0.04608131945 0.8642359972
-0.04292409122 -0.1121978089 1.079550624 -0.5112274289 0.03792401403 0.8497604728
0.01243713684 -0.1943007559 1.193056226 0.364220351 0.06387294829 0.929119885
0.007285596803 -0.1900744289 1.198605061 0.364220351 0.06387294829 0.929119885
0.01343112346 -0.1861656159 1.193511009 0.364220351 0.06387294829 0.929119885
0.0135011822 -0.1805824041 1.194396853 0.364220351 0.06387294829 0.929119885
0.01096675452 -0.1993088424 1.193580985 0.364220351 0.06387294829 0.929119885
0.01648031175 -0.1900241226 1.190067768 0.3721857965 0.05438384786 0.9264136553
0.01753763855 -0.1975857168 1.188951969 0.4095249772 0.03128889948 0.9110375643
-0.05305937305 -0.1076528728 1.073965192 -0.4137820303 -0.03976022825 0.9029732943
-0.05119430274 -0.1018607095 1.07521522 -0.4001249969 -0.1142680719 0.9037713408
-0.04948914796 -0.1222391352 1.071798086 -0.5014104843 0.1454605013 0.8523979187
-0.04544508457 -0.1063749865 1.072073936 -0.4917482734 -0.034336593 0.8675318956
-0.04797740653 -0.1111870036 1.071234703 -0.4911115766 0.02083172835 0.8652777672
-0.05180021003 -0.1183678582 1.069355369 -0.4862959385 0.09787409753 0.8621522784
-0.04799342901 -0.1045106277 1.067708731 -0.4811481237 -0.06102594361 0.8653011918
-0.05202041939 -0.1135843247 1.067453384 -0.4536171854 0.0142599903 0.8819565177
-0.0327668786 -0.09406434 1.079834342 -0.5140516162 -0.1405902505 0.8458570242
-0.0230204463 -0.09215649217 1.087055206 -0.5094122887 -0.1077444181 0.8523818851
-0.02720932104 -0.09263622761 1.08424437 -0.5123640299 -0.123705782 0.848761797
-0.02712878957 -0.09689353406 1.080629349 -0.5002962947 -0.100266166 0.8590615392
-0.03710068762 -0.09050466865 1.087659717 -0.5027990937 -0.1857203096 0.843087554
-0.1164929867 -0.1542642862 1.076983571 -0.01529134344 0.2896006703 0.9516099095
-0.1175005287 -0.1640216559 1.078497291 0.03185793012 0.3739940822 0.9263742566
-0.1170841977 -0.1494327486 1.075622082 -0.03684165701 0.2543508112 0.9619269371
-0.1505198926 -0.1195743829 1.077713966 0.2038200051 -0.134218961 0.9692724347
-0.1561450362 -0.1389495879 1.080000043 0.08399184793 0.1156077906 0.9893250465
-0.1491178423 -0.1270193756 1.080000043 0.1293270141 -0.02692721784 0.9848092198
-0.15167211 -0.1315906644 1.080000043 0.1121598631 0.02835741453 0.9864507318
-0.1408093274 -0.1148183495 1.075692654 0.1493978202 -0.125295788 0.9806566238
-0.1471479982 -0.1145724356 1.080123544 0.1712729335 -0.1361643672 0.9744563103
-0.1412188709 -0.1086563393 1.082660556 0.1230030507 -0.1319264174 0.9833549261
-0.133544907 -0.1122890934 1.07407558 0.1153882444 -0.1346994787 0.9838573933
-0.1334537417 -0.1068570092 1.074113369 0.1285215318 -0.1272381246 0.9834799767
-0.1393815577 -0.1425313056 1.081845403 0.08239274472 0.1914178729 0.9512590766
-0.1493637562 -0.1421634406 1.080785751 0.07783407718 0.1711519063 0.9733459353
-0.1504717916 -0.1371873021 1.080385804 0.09421653301 0.1047948226 0.9799744487
-0.1454583555 -0.1390792876 1.081015706 0.09066398442 0.1371493191 0.9674367309
-0.1454647928 -0.1315690428 1.080585241 0.1163600907 0.03958435729 0.9738068581
-0.1515379846 -0.143114835 1.074130416 0.06502246112 0.1552904546 0.9843104482
-0.1458093822 -0.1416651458 1.073511243 0.06899222732 0.1362856477 0.9859629273
-0.1597839445 -0.1437313408 1.07435894 0.06067951396 0.1408907771 0.985248208
-0.1552764773 -0.134980768 1.074469566 0.1267164052 0.0242771823 0.9794613719
-0.1509305239 -0.1293962002 1.074294925 0.1393280178 -0.05273748934 0.9839853644
-0.1485554725 -0.1349973977 1.074122906 0.08570600301 0.03801765665 0.990175128
-0.1440771818 -0.1775800586 1.097951412 0.004424866289 0.3115772009 0.8737875223
-0.1558006853 -0.1809192151 1.112048626 0.1835963577 0.4764014781 0.7137926817
-0.1402527541 -0.1753702164 1.089088678 -0.099638924 0.2129099369 0.9681236148
-0.1599281579 -0.1865419596 1.133934736 0.4277097583 0.7126213312 0.4902099073
-0.1470679194 -0.1797212064 1.106454015 0.1026177853 0.4052860141 0.784481585
-0.1468487829 -0.1757627726 1.091364861 -0.0593293421 0.2460971624 0.9339986444
-0.1588994116 -0.184768036 1.127062321 0.3517027795 0.6388198137 0.5599456429
-0.147212714 -0.181021452 1.111419082 0.1560817063 0.4577680528 0.7351554036
-0.151241675 -0.174590379 1.087424517 -0.0908517614 0.2107477337 0.9651973248
-0.151976496 -0.1822461635 1.116644621 0.2235080898 0.519448936 0.6751119494
-0.1511242688 -0.1774968207 1.098470569 0.027029505 0.3268937171 0.8562330604
-0.135575816 -0.1796939373 1.095364571 -0.05222535133 0.2699764669 0.9213104248
-0.1417528987 -0.1849765629 1.107347369 0.08317261189 0.402503252 0.7984018922
-0.1392594278 -0.1791424006 1.10048461 0.01738461107 0.33078444 0.8593021035
-0.1231283918 -0.1659170836 1.077000022 0.01766337454 0.3594346046 0.9306567311
-0.1203237623 -0.1596909165 1.076956511 0.01210954692 0.3710129559 0.9280003309
-0.16125229 -0.1491030604 1.075660706 0.04519083723 0.189633891 0.98000741
-0.1616849452 -0.144684881 1.079440355 0.06082098186 0.1411858648 0.9855059981
-0.1610038579 -0.1491521597 1.082029462 0.04586580396 0.1720633209 0.9804366827
-0.1608476043 -0.1549932361 1.083240271 0.02802489698 0.2185004503 0.9731721282
-0.07323095202 -0.1108782813 1.062180042 -0.174057439 -0.02051560953 0.9785538316
-0.06758566946 -0.1087888926 1.063722849 -0.2484778762 -0.08182983845 0.9596805573
-0.07800269127 -0.1176335216 1.059970617 -0.02902176417 0.07422806323 0.9900972843
-0.07790103555 -0.1122600958 1.060420752 -0.06792295724 0.01878224872 0.9861537218
-0.07059912384 -0.1167723164 1.062122226 -0.1934307516 0.02337596193 0.9767975807
-0.07400500029 -0.1205860153 1.061513901 -0.1164558828 0.08017649502 0.9873419404
-0.06920270622 -0.1220756173 1.062181115 -0.2014856339 0.07894612104 0.9731238484
-0.05830033869 -0.1051510498 1.07087934 -0.3446895182 -0.1132244095 0.9315388203
-0.05611802638 -0.09993153811 1.072587848 -0.3579064906 -0.1345119476 0.9216580391
-0.04666691273 -0.09357380867 1.07975769 -0.4407749176 -0.1863914877 0.8747640252
-0.06252741814 -0.0918950215 1.071573019 -0.3405027986 -0.1820390224 0.9214475155
-0.05274205655 -0.09079568088 1.077391386 -0.4137824476 -0.1947521865 0.8861743808
-0.05740796775 -0.09309976548 1.073919654 -0.3667476177 -0.1826700419 0.9089003205
-0.076766707 -0.08838624507 1.063289642 -0.1072176024 -0.1787564605 0.9762508869
-0.08244339377 -0.09277839959 1.070813775 -0.01795812137 -0.1327787191 0.955175221
-0.07485376298 -0.09032186866 1.070396304 -0.1680062264 -0.1757057905 0.9550871253
-0.08251620829 -0.08900330216 1.063597083 -0.009851873852 -0.181141451 0.9767661095
-0.08689922094 -0.09155787528 1.065361977 0.07612498105 -0.1451553702 0.9727342129
-0.06274025142 -0.1026774421 1.070137382 -0.325989306 -0.1394067407 0.9338123202
-0.06925513595 -0.09127311409 1.070316553 -0.2572881877 -0.1854592264 0.9465199113
-0.1229311675 -0.1052912995 1.070498228 0.1472607851 -0.1218075454 0.9800628424
-0.09406511486 -0.1023595482 1.063497305 0.2688545585 -0.07488815486 0.9583851099
-0.1011002138 -0.1005113125 1.064464569 0.2103169411 -0.1169617325 0.9691382647
-0.1137458086 -0.1096119434 1.069538236 0.1936399639 -0.08742645383 0.9731011987
-0.1090881974 -0.1106086522 1.068759799 0.2146551311 -0.07504893094 0.9697488546
-0.1196067184 -0.1145659983 1.071922541 0.15674299 -0.09644323587 0.9814687371
-0.09768026322 -0.1067896038 1.065436482 0.2766679227 -0.05134600773 0.9573540092
-0.123573564 -0.1108642519 1.071940184 0.1436477154 -0.1099988669 0.9824172854
-0.1032612473 -0.1065388024 1.066582799 0.2498979568 -0.06518063694 0.9620015025
-0.09006260335 -0.1058532074 1.061362386 0.2378203422 -0.02697987109 0.9656731486
-0.1204757318 -0.1531703025 1.08088851 0.02959194221 0.3353162408 0.9384154677
-0.1190170571 -0.1439247578 1.077332258 0.02469984069 0.2243922651 0.9657894373
-0.1424890459 -0.1177035272 1.080139399 0.137862727 -0.1104598492 0.9838969707
-0.005589428358 -0.2266260386 1.202000022 0.06788178533 -0.179238975 0.9695073962
-0.02725964785 -0.2345805913 1.195921421 -0.01993494295 -0.5120598674 0.8427422643
-0.02229454368 -0.234217152 1.197882056 -0.06498532742 -0.4202099741 0.8810843825
-0.01826066524 -0.2306776941 1.198838949 -0.07202582061 -0.4001801312 0.8907370567
-0.01352076326 -0.2312760055 1.201075196 -0.1196470782 -0.2721610963 0.942692697
-0.01278537139 -0.2254897505 1.201427698 -0.04762308672 -0.1933705509 0.9705276489
0.007347161416 -0.1980245262 1.198376894 0.3927969038 0.04941488802 0.9169476032
-0.06601782143 -0.2582920492 1.181920409 0.05984770507 -0.5868613124 0.8074725866
-0.06638745219 -0.264549613 1.178622127 0.06016946211 -0.5872688293 0.8071231246
-0.07415207475 -0.2632781863 1.169400096 0.06074210256 -0.5879940391 0.8065012097
-0.06180867553 -0.2638942897 1.175561428 0.09102251381 -0.6263420582 0.7736126184
-0.03120053373 -0.2484027743 1.188644767 0.04841055721 -0.6073791981 0.7917371392
-0.02823824435 -0.2450631708 1.191553593 0.02493260615 -0.6105362773 0.7907452583
-0.01544122491 -0.2421678007 1.1805197 0.002903331304 -0.5898699164 0.8068245649
-0.03244475275 -0.241854459 1.18282187 0.06322395056 -0.6345273256 0.7690982223
-0.02391153947 -0.2416424304 1.181951761 0.03232661635 -0.6113007665 0.7886295319
-0.02794045582 -0.2392882407 1.184568644 0.04295110703 -0.6156610847 0.7845381498
-0.02420913242 -0.2345197052 1.18906498 0.02230945416 -0.5903406143 0.8053568602
-0.01769220084 -0.2374108881 1.185388207 0.003476353362 -0.5818451047 0.8128956556
-0.03111607581 -0.2361685485 1.188118458 0.04950264469 -0.6143528223 0.7852596045
-0.05453760549 -0.263346076 1.180160522 0.07255876809 -0.6029590368 0.7936667204
-0.04970325157 -0.2619908452 1.17878139 0.09886787832 -0.6311503053 0.7691357732
-0.05478418618 -0.2587779164 1.177000046 0.08059370518 -0.6034443974 0.7925830483
-0.0442671217 -0.2568069398 1.177000046 0.09535638988 -0.6092703342 0.7867000699
-0.06051403284 -0.08682902902 1.074375749 -0.3844122887 -0.1985593885 0.9001170993
-0.04778582603 -0.08798353374 1.080150008 -0.4512822628 -0.1997293085 0.8681573272
-0.05606142431 -0.08687182516 1.076212406 -0.4084837139 -0.2025518417 0.8878083825
0.01896018349 -0.1923737377 1.185822725 0.3859514296 0.03798506409 0.9217367172
-0.1477452666 -0.125724718 1.074687719 0.1617148817 -0.1034767553 0.9808347821
-0.1360476166 -0.150138095 1.081892848 0.0558880195 0.2907807529 0.9416055679
-0.1392038316 -0.1379293203 1.080558658 0.09481597692 0.1253657192 0.960519433
-0.1393853575 -0.1327872872 1.078542233 0.1067021266 0.0475843288 0.9746717811
-0.1418854445 -0.126050964 1.0787673 0.1311613768 -0.03832325712 0.9810190201
-0.1468720585 -0.1712138653 1.086896539 -0.07239707559 0.2085915357 0.9743822813
-0.1527233273 -0.1693083048 1.08556366 -0.05838769674 0.2066058964 0.9757193923
-0.1446370035 -0.1667887419 1.086022854 -0.03183693066 0.2454845011 0.9665646553
-0.1362911314 -0.1670936942 1.086558104 -0.02837046422 0.2946458459 0.9527451992
-0.155145362 -0.1790261567 1.103151321 0.08912269026 0.382686913 0.8018476367
-0.1525474936 -0.180886656 1.090753317 -0.02260900475 0.2590253949 0.9166804552
-0.1581993252 -0.1856140196 1.120361805 0.2922788262 0.5726843476 0.621100843
-0.1427218765 -0.1848074496 1.101659536 0.03518469632 0.3479221463 0.8476988077
-0.1529913247 -0.1863375604 1.121745229 0.2774559557 0.5740208626 0.6268997788
-0.154475987 -0.1845083833 1.105241656 0.1338486671 0.4131280482 0.7718952894
-0.1477236301 -0.1838242412 1.095082045 0.002597361105 0.2948573828 0.8892976046
-0.1487873495 -0.1829720438 1.087596297 -0.06035939604 0.2228575647 0.9536326528
-0.1478134692 -0.1850342304 1.106583953 0.1089667901 0.4098086655 0.7841175199
-0.1563211977 -0.185433954 1.115009069 0.2340644747 0.5151811838 0.6760821342
-0.1373708397 -0.1849396527 1.099991322 -0.0100767361 0.3178635538 0.8825497627
-0.1514715999 -0.1852550209 1.110669613 0.1670180559 0.4597352147 0.7334435582
-0.1435216218 -0.1836911887 1.091530204 -0.05357984826 0.2488918453 0.9371015429
-0.146903336 -0.1858303398 1.113622785 0.1686685085 0.4777359962 0.7232925892
-0.1501054168 -0.1842572689 1.100480318 0.06559676677 0.3546757102 0.8313436508
-0.141790837 -0.1843330413 1.09666121 -0.01602577418 0.2957306802 0.8966816068
-0.1384297162 -0.1408728808 1.073385477 0.07077227533 0.1360270828 0.9852279425
-0.1562242359 -0.1521902531 1.07609272 0.05230447277 0.2355643809 0.9696614742
-0.1559962928 -0.1469034702 1.07486558 0.0588199459 0.1914050132 0.9790171981
-0.1481354833 -0.1519122869 1.075468898 0.073614344 0.2612248957 0.9611227512
-0.06670558453 -0.1149839535 1.06960094 -0.2530674338 -0.01981335878 0.9393095374
-0.0758119449 -0.1187735721 1.069022298 -0.08049590886 0.003212905256 0.9512785673
-0.07691777498 -0.1244242787 1.063632846 -0.03406236321 0.0891892463 0.9837893844
-0.0561953932 -0.1132277474 1.072355866 -0.4165821373 0.01295081712 0.9058657885
-0.0619665049 -0.1194703579 1.066795349 -0.3227939904 0.05188175663 0.9402499795
-0.06417847425 -0.123759903 1.063765526 -0.2821962833 0.08829212189 0.9520176053
-0.05637553334 -0.1225728989 1.067773223 -0.4226366878 0.1212238446 0.8904610872
-0.1128485277 -0.129520461 1.070913434 0.1549348682 0.02378887311 0.9840157628
-0.1322396398 -0.1112335995 1.08245635 0.1334140301 -0.08228567243 0.9862986207
-0.1163479686 -0.1207321584 1.077386618 0.1715202928 -0.03177558631 0.9829211831
-0.1104044467 -0.1184258312 1.078663349 0.2183619887 -0.012984314 0.9743888378
-0.1212619394 -0.1210904345 1.077169657 0.1414065063 -0.04733810201 0.9880542159
-0.1281752884 -0.1151201725 1.080370545 0.1350536942 -0.06934274733 0.9872428775
-0.1154906526 -0.1151333824 1.08042264 0.2075697482 -0.02915462293 0.9751566648
-0.1023632661 -0.1090470701 1.075294495 0.2701879442 -0.01263403986 0.9623439312
-0.0994798094 -0.1047154143 1.072685122 0.2818942368 -0.02010610141 0.9588903785
-0.08835889399 -0.09595291317 1.07093513 0.1019765064 -0.09653650224 0.9575438499
-0.09286876023 -0.0979058817 1.071127176 0.1913870126 -0.06769782305 0.957300365
-0.1238344461 -0.117719233 1.072721601 0.115075089 -0.1074730009 0.9870219827
-0.1369945854 -0.1183048487 1.078353167 0.1151775643 -0.1143316552 0.9862707853
-0.1339420974 -0.1224216819 1.076361179 0.1159780845 -0.1112252623 0.9864311814
-0.1284142882 -0.1204278246 1.072814941 0.104809612 -0.1058179736 0.9883236289
-0.1424563229 -0.1220840588 1.075095296 0.1538147479 -0.1078575104 0.9820239544
-0.1285947561 -0.1134411544 1.072396636 0.1130367517 -0.1162124723 0.9863827825
-0.132963255 -0.1177603602 1.073318005 0.1291437447 -0.1039307192 0.9853848219
-0.1435124576 -0.1336569488 1.073819518 0.06889096648 0.02787995152 0.9964407086
-0.1359066367 -0.1323235333 1.073260784 0.09574463218 0.01367986947 0.9937400818
-0.1362554133 -0.1255490333 1.073393464 0.1451212317 -0.0708475858 0.9863579869
-0.009659490548 -0.2278927565 1.190060854 0.03232368454 -0.3094785213 0.9004637599
-0.01002596319 -0.2223578095 1.193624973 0.01482195221 -0.1683475673 0.9499775767
-0.0003899876028 -0.2159655541 1.202000022 0.2785924673 -0.1047326848 0.925144136
-0.001016978407 -0.2227299958 1.202000022 0.2700399458 -0.207564801 0.9221170545
-0.006163263693 -0.219727397 1.202000022 0.08148895949 -0.09589634836 0.9813383818
-0.006819305941 -0.2119248509 1.201388478 0.06553626806 0.02513987944 0.9853559136
-0.004826350138 -0.2084617615 1.197913885 0.09873500466 0.08595139533 0.9852428436
-0.001252405113 -0.2277989686 1.20024085 0.2217236161 -0.2676669955 0.9095087647
-0.005248454399 -0.2318784446 1.199665785 0.02573867328 -0.2441396862 0.946552515
-0.009346738458 -0.2341464609 1.200973511 -0.1131296307 -0.2488227636 0.9443964362
-0.007044934202 -0.2367031723 1.196418047 0.00368316099 -0.3869722784 0.912868619
-0.01230694074 -0.240770191 1.184933543 -0.001999825006 -0.5655770302 0.8222337961
-0.008183108643 -0.2363642007 1.187173128 -0.01710525341 -0.3847567737 0.882207036
-0.004880717024 -0.2335285693 1.192656398 -0.01878263243 -0.2644511163 0.934207201
-0.06940542161 -0.2605879307 1.173992038 0.05984770507 -0.5868613124 0.8074725866
-0.0745459795 -0.2601296604 1.174942613 0.05984770507 -0.5868613124 0.8074725866
-0.02804473415 -0.2408435345 1.194344997 0.009311036207 -0.5811002254 0.8136941791
-0.01606155373 -0.2362654358 1.199378133 -0.09569482505 -0.3682558537 0.9026429653
-0.02315250225 -0.2448346466 1.193321586 0.01208479982 -0.599970758 0.7990380526
-0.02581843548 -0.2467667609 1.186958075 0.01829970255 -0.5852017403 0.8103234172
-0.01062093116 -0.240682587 1.194618225 0.007741116919 -0.5643768907 0.8253695369
-0.01839025691 -0.2436092645 1.189497113 -0.001337767579 -0.5827901363 0.812582016
-0.01783576794 -0.2436923236 1.195482492 -0.005521535873 -0.5825398564 0.8127805591
-0.02083392628 -0.24434264 1.184918761 0.005525300745 -0.5832006931 0.8122562766
-0.03174533322 -0.2465179712 1.179229379 0.06983932108 -0.6310122013 0.772336483
-0.02978368476 -0.2319087386 1.192281246 0.03762891516 -0.5895617604 0.8054201603
-0.03524081036 -0.2374968976 1.19071734 0.04158100858 -0.599367559 0.7980324626
-0.03277906775 -0.2423351705 1.192878366 0.02330054715 -0.5764164329 0.8167209029
-0.03755097836 -0.2425325215 1.190846086 0.05020675436 -0.5842176676 0.8090595007
-0.05197559297 -0.2565476 1.182194829 0.07102431357 -0.6010157466 0.7953333259
-0.04169333354 -0.2464273572 1.187802434 0.07890180498 -0.5971326232 0.7971443534
-0.03632432967 -0.2515725791 1.185729146 0.07452260703 -0.5996605754 0.7958453894
-0.0417101644 -0.2523563206 1.185292363 0.08183388412 -0.6221717596 0.7772285938
0.01170125324 -0.1916355491 1.186869979 0.373796016 0.05246559903 0.9258665442
0.01292280108 -0.2001223117 1.188527942 0.3831051588 0.04137579724 0.9227038026
-0.001135605969 -0.20861049 1.194228649 0.1906886995 0.01708270051 0.9720560908
0.007519523613 -0.1975097358 1.189073443 0.3680303395 0.0557750538 0.927600503
0.003728808137 -0.202791959 1.19144094 0.2870656848 0.03743372485 0.9478538036
0.00573532749 -0.1929250211 1.189481616 0.364220351 0.06387294829 0.929119885
0.007281951606 -0.1862645745 1.192054868 0.364220351 0.06387294829 0.929119885
-0.008398397826 -0.2125709057 1.196107626 0.04200901836 0.005005768035 0.9862453341
-0.0009373757639 -0.2039184719 1.196062088 0.1815149188 0.1160323694 0.9724854827
0.0003016331466 -0.1997118443 1.198368311 0.244502157 0.09805054218 0.9575352669
0.003153823083 -0.1930432171 1.201571226 0.3616020977 0.06462041289 0.929741323
0.002848503646 -0.197450906 1.193010211 0.3038551211 0.08110623807 0.9434477091
-0.04018948972 -0.1088326573 1.075694799 -0.5261135697 0.02818446048 0.8478419781
-0.0410355553 -0.1026036292 1.072506189 -0.5099530816 -0.06451410055 0.8519582748
-0.04340618476 -0.1135427877 1.074356198 -0.5140578747 0.06168667227 0.8510026932
-0.04513143748 -0.1225511655 1.074800372 -0.512914598 0.150465101 0.8447951078
-0.03842524067 -0.1175516769 1.079479814 -0.5234184861 0.1027866825 0.844001174
-0.03003570437 -0.1243223548 1.090524197 -0.5267133713 0.06175572425 0.8457465172
-0.02060744166 -0.1194975749 1.091612816 -0.4934720099 0.01656731218 0.867287159
-0.01743605547 -0.1142127812 1.092120767 -0.4676926136 -0.02500058338 0.8829852939
-0.1212317869 -0.137865752 1.074519157 0.03016338125 0.1263333112 0.9853995442
-0.1269344389 -0.1469620615 1.077924371 0.01603250764 0.2415435463 0.9571103454
-0.123450473 -0.1272595972 1.073297143 0.08920171112 -0.0652191937 0.9912688136
-0.1180482507 -0.1295293421 1.071702838 0.1184537858 -0.01361102983 0.98754251
-0.1292119622 -0.1285832077 1.072934985 0.09961453825 -0.03725316375 0.9911836982
-0.1262812763 -0.1323479265 1.072689891 0.06536649913 0.01280250028 0.9953972101
-0.1174787953 -0.1359619945 1.071632385 0.09636555612 0.09630872309 0.9862584472
-0.1225010604 -0.1433280259 1.073624492 0.01994278654 0.1986114085 0.9773860574
-0.1272474825 -0.1419011354 1.073606253 0.02844486572 0.1688651741 0.982298553
-0.1379617155 -0.1848745048 1.087598562 -0.107643716 0.1754564643 0.9767370224
-0.1434808969 -0.1836602092 1.08581543 -0.1036403477 0.1582321078 0.9804697633
-0.1393724382 -0.1896670014 1.080208659 -0.08446571231 0.2006551176 0.9759929776
-0.1467331797 -0.1853228658 1.082113624 -0.07856178284 0.1954557747 0.9775086045
-0.155399546 -0.1645162404 1.084812641 -0.0155534884 0.2108639181 0.97712183
-0.1580915302 -0.1633863747 1.079523921 -1.463688568e-05 0.2173530906 0.9743403792
-0.1608354151 -0.1624316275 1.085404634 0.01699152403 0.2092414796 0.9776338339
-0.1613865346 -0.154289335 1.077286005 0.03817584366 0.2292295247 0.9725695848
-0.1533051431 -0.1642853022 1.079208612 0.004656855017 0.2321455628 0.9700043201
-0.1517601162 -0.1778784394 1.082800627 -0.05928151309 0.2023280412 0.9760382175
-0.1537709087 -0.1712886989 1.081156254 -0.03083875403 0.2122742087 0.9743791819
-0.154110834 -0.1587103903 1.083671212 0.04094203562 0.2776226997 0.9573629498
-0.1462979466 -0.1500218809 1.081366181 0.07692950219 0.2611110806 0.9549546838
-0.1430052817 -0.1558800936 1.08193469 0.08357307315 0.3413801193 0.9349284768
-0.1522629112 -0.1517375559 1.081889153 0.06447798759 0.2410190105 0.9628031254
-0.1478433162 -0.1565054059 1.082472324 0.0657068938 0.3144306839 0.9444363117
-0.1507215947 -0.1627455503 1.08414042 0.004573793616 0.2484627068 0.9658337235
-0.140925765 -0.1626517326 1.084584594 0.0138119692 0.3099986613 0.9482661486
-0.1356371939 -0.1608173102 1.084515095 0.01731055602 0.3419919014 0.9389321208
-0.1487114429 -0.1694038361 1.076657295 0.00721195247 0.2307673991 0.9709504247
-0.1433061212 -0.1829331368 1.076848149 -0.03162105009 0.2121411413 0.9748972058
-0.1445189416 -0.1777193993 1.076729059 -0.01342034619 0.2240369022 0.9717627764
-0.1461486667 -0.1619971395 1.076263547 0.04900411144 0.2709017396 0.9585515261
-0.1515965313 -0.1596674621 1.076467395 0.03889458627 0.2496196181 0.9662470818
-0.1478354484 -0.1807173789 1.079973578 -0.04846706241 0.2047398984 0.9762143493
-0.149733454 -0.1748670191 1.079714894 -0.02954284661 0.2146961093 0.9739403725
-0.1329374015 -0.172998637 1.076889396 -0.006751431152 0.2918283343 0.9513064027
-0.141533047 -0.1707384735 1.076507211 0.01714140549 0.2627034187 0.9601513743
-0.1349014938 -0.1592081487 1.07645607 0.04924907163 0.330702126 0.9403751493
-0.1337209791 -0.1668030024 1.076698422 0.01823206246 0.3097171187 0.9462682605
-0.1445008516 -0.1567943394 1.076032162 0.07551200688 0.2977980673 0.9503605366
-0.128162533 -0.1699164361 1.076988578 -0.003507944522 0.3228851855 0.9421604276
-0.1390566677 -0.1663716286 1.076486588 0.02936399169 0.2883054614 0.9527068138
-0.1384997368 -0.1785640568 1.076825261 -0.01804924756 0.2488758415 0.9638877511
-0.1011105254 -0.1216371804 1.074420452 0.2726306319 -0.006323285401 0.9617738724
-0.1129293889 -0.126180917 1.076241732 0.131607756 0.04111861438 0.9834634066
-0.1047777012 -0.1358651072 1.075821638 0.1978292912 0.1316596717 0.9485530853
-0.1074292138 -0.1405503005 1.077280641 0.1636142284 0.1850810945 0.9449590445
-0.1063938662 -0.1287312806 1.075264931 0.2176636755 0.03844585642 0.9648083448
-0.1073631495 -0.1236431971 1.077927709 0.225549072 0.032282345 0.9652014375
-0.1134890616 -0.132902503 1.076975107 0.09570752829 0.12016242 0.9761286378
-0.1137474328 -0.1382300705 1.07857573 0.0942171663 0.1790679842 0.9634336829
-0.1145052686 -0.1481434405 1.081122756 0.0835499987 0.2853140533 0.9423599243
-0.08903625607 -0.1131321564 1.061537504 0.2344320565 0.05124402419 0.9666884542
-0.09016057849 -0.1187187508 1.063255191 0.2558965385 0.05821324512 0.9619395733
-0.08571784943 -0.1168542802 1.058991075 0.1686551571 0.07584433258 0.9806394577
-0.1068233103 -0.1158091128 1.069108486 0.2206746489 -0.03607821465 0.9693176746
-0.114188984 -0.1181495339 1.071401834 0.178908214 -0.06601009518 0.9782487154
-0.09311079234 -0.1099534184 1.064655662 0.299238801 0.005239337217 0.9525846839
-0.1032141298 -0.1287572235 1.068529725 0.2157051712 0.06741176546 0.97176826
-0.1157668382 -0.124092333 1.071926832 0.1561223865 -0.03239621222 0.9839006662
-0.09905329347 -0.1158533618 1.066989064 0.2632457912 0.01950712129 0.9601154327
-0.0936813131 -0.1159585416 1.065410137 0.2905207872 0.05626890808 0.9544095397
-0.1062092483 -0.1210625917 1.069108129 0.21300973 0.009548729286 0.971483469
-0.09965355694 -0.1223639399 1.067184806 0.2432460338 0.06296537817 0.9653464556
-0.06142502651 -0.1105809584 1.070021749 -0.3398475349 -0.08906050026 0.9325447083
-0.1040485948 -0.114942342 1.076192141 0.2682698369 0.02329669893 0.9627625346
-0.09143818915 -0.103257969 1.07065165 0.1724916101 -0.04840862006 0.9551160336
-0.09618368745 -0.1103647649 1.071253061 0.2847046554 -0.009685364552 0.9494840503
-0.08189506084 -0.09784370661 1.070401549 -0.01783017628 -0.1169417277 0.9558062553
-0.0861300528 -0.1016474441 1.070663929 0.07220651209 -0.08505468816 0.9538214207
-0.08123268932 -0.1090750694 1.070869088 0.01432921458 -0.06785718352 0.9431792498
-0.07583286613 -0.1096170321 1.070647001 -0.07951873541 -0.0774031207 0.9400024414
-0.06913132221 -0.1045310944 1.070220113 -0.2184021026 -0.1207963675 0.9422051907
-0.0894190222 -0.1084915549 1.071212053 0.1575327963 -0.05208075792 0.9477412105
-0.07561607659 -0.09612575173 1.070283294 -0.1358782053 -0.1518126279 0.954295516
-0.0704433322 -0.09913530201 1.070135832 -0.2160871178 -0.147314474 0.9485946894
-0.0749817118 -0.1020834073 1.070411921 -0.1239644438 -0.1206460446 0.9476324916
-0.0706839636 -0.1104150265 1.070442557 -0.1679112166 -0.08496495336 0.9366731644
-0.09992705286 -0.1148929298 1.073225379 0.3050662577 0.01412799675 0.9516150951
-0.09202710539 -0.1206977293 1.071438551 0.2132660151 -0.007817227393 0.9504525065
-0.09261088073 -0.1159726903 1.071505547 0.2337694615 -0.001747049624 0.9439005256
-0.084709391 -0.1185111105 1.071101785 0.07827483118 -0.01388061699 0.9456208348
0.003940267488 -0.2220162898 1.196406722 0.08577626199 -0.02208175696 0.9713391066
0.0113392435 -0.2074317336 1.194997311 0.4105807841 0.01487828791 0.9009544253
0.008458208293 -0.2131195366 1.195283055 0.2783635855 0.001055846107 0.9303346276
0.01217703894 -0.2056408226 1.189449549 0.348929137 0.02082347497 0.9249333739
0.0002661008039 -0.2247962356 1.191248536 0.07578914613 -0.1717935503 0.9270486236
0.00554659497 -0.2183828503 1.193372488 0.1302106082 -0.02542416938 0.9617527127
-0.005457797553 -0.2308066189 1.187623262 0.04699346051 -0.3580703437 0.8732879162
0.00568099739 -0.2151960731 1.189177394 0.2285643667 -0.1103857383 0.9107965827
-0.0009872602532 -0.2288152725 1.194253325 -0.01720279455 -0.1332994103 0.9616193175
-0.002294304781 -0.2164844722 1.193303704 0.1418131292 -0.08491244167 0.9521242976
0.0006781379343 -0.2202718705 1.18680501 0.1941208541 -0.2514696717 0.8737561107
0.005819395185 -0.2089743316 1.191770077 0.2660623789 0.0003459106665 0.9451202154
-0.002871605102 -0.2244231999 1.186690092 0.1406606138 -0.3149550855 0.8667852283
-0.03797220066 -0.2487098724 1.179756165 0.08798869699 -0.5986892581 0.7958003283
-0.0402707085 -0.2406241894 1.184599996 0.08723793924 -0.6256636381 0.7751196623
-0.04421255365 -0.2515051067 1.179020762 0.07946142554 -0.5911217332 0.8024013638
-0.05962571129 -0.2560964227 1.178278327 0.06243906543 -0.5874242187 0.8068026304
-0.05444131047 -0.2511791587 1.180782199 0.06350231916 -0.5876551867 0.8065276742
-0.04921038821 -0.2552029788 1.177303672 0.07699544728 -0.5905861259 0.8030389547
-0.05047950521 -0.2460060567 1.184347391 0.06859271973 -0.5901959538 0.8041068316
-0.04636209086 -0.2435436696 1.184644699 0.07641680539 -0.6054977775 0.7916209698
-0.05863117427 -0.2529295087 1.183914065 0.07108614594 -0.5886953473 0.8050326109
-0.06455267966 -0.2526828945 1.182100296 0.05984770507 -0.5868613124 0.8074725866
-0.07066221535 -0.2554523349 1.181083918 0.05984770507 -0.5868613124 0.8074725866
-0.03543192893 -0.1093147919 1.0848068 -0.5130085945 -0.006821922492 0.8527770638
-0.03921161219 -0.09912325442 1.083683968 -0.4924137294 -0.1208801195 0.8544213176
-0.04025512189 -0.1065409854 1.081947327 -0.5073361993 -0.03093781509 0.848808229
-0.02373983711 -0.1049689725 1.084599495 -0.4826917946 -0.03315485641 0.8742642403
-0.03238251433 -0.09885843843 1.076950073 -0.5019122362 -0.1143201292 0.8560794592
-0.01996240765 -0.1005307883 1.085030556 -0.48858881 -0.05358671024 0.8701901436
-0.03652788699 -0.1041527987 1.076434612 -0.5158715248 -0.04433116317 0.8501952291
-0.02921182662 -0.104625456 1.081977367 -0.4916768372 -0.03466216102 0.8678414822
-0.1425194144 -0.1486020088 1.074558496 0.07311056554 0.2405076772 0.9660161734
-0.1376994997 -0.1523271054 1.076492429 0.05782415718 0.2936353385 0.9531450868
-0.1286809146 -0.1578556895 1.076624751 0.02970725484 0.356957227 0.9324145913
-0.1308065355 -0.1535273641 1.081357718 0.01713240333 0.3424738348 0.9357554317
-0.1342735887 -0.137137115 1.074333787 0.07630674541 0.08125779033 0.9874994755
-0.1323195249 -0.147241801 1.078701377 0.0410014838 0.2420503646 0.9556281567
-0.1269630343 -0.1513021439 1.075759768 0.01470768265 0.3170208931 0.9443231821
-0.13308613 -0.1442084461 1.074098825 0.04014944658 0.2101432979 0.9766940475
-0.001807133667 -0.2079951018 1.202000022 0.1961634457 0.05310794339 0.961617589
0.004859861452 -0.2162068784 1.201999903 0.3143278956 -0.0843032077 0.937286973
0.007812894881 -0.2028032839 1.198848128 0.3920681179 0.02260570042 0.9165313244
0.006720013916 -0.2084302902 1.20063293 0.3435189426 -0.01070520654 0.9356636405
0.002457364462 -0.2054970264 1.201999903 0.2698727846 0.03754456341 0.9549197555
-0.03257903084 -0.09259743243 1.090000033 -0.5300976634 -0.1403334737 0.8358350992
-0.02525039203 -0.09572330117 1.090000033 -0.5298963785 -0.08528588712 0.8422335386
-0.02978503332 -0.10305053 1.08961153 -0.5171970725 -0.08058170229 0.8484678864
-0.02595450915 -0.1122797355 1.089280725 -0.5079367161 -0.01936765574 0.8594292998
-0.02598399669 -0.1072553545 1.090099931 -0.5066429377 -0.05040235072 0.8576520681
-0.03308819979 -0.1140142977 1.085445762 -0.5127119422 0.03159903362 0.8565931916
-0.03503405675 -0.09762396663 1.086990952 -0.5178117156 -0.1224798933 0.8440236449
-0.03475311026 -0.1034750864 1.086838365 -0.5196529627 -0.05525645986 0.8463127613
-0.03427278996 -0.119370237 1.086478472 -0.5243520141 0.06617286056 0.8485783935
-0.02059039474 -0.111166507 1.087317944 -0.4898529947 0.003786821617 0.8708115816
-0.02431276254 -0.1168891415 1.087573886 -0.5011842847 0.03150252253 0.8636937141
-0.02808547765 -0.1201001778 1.087014437 -0.5040670037 0.04711773619 0.8619549274
-0.02381216176 -0.123612605 1.089908957 -0.5245559812 0.06388133764 0.8488041162
-0.03036982939 -0.1103839576 1.082180619 -0.5133581161 0.02251829207 0.8567041159
-0.03494935855 -0.1096340343 1.0788486 -0.5261066556 0.04230445996 0.8484089375
-0.01660641469 -0.1080326512 1.091002703 -0.475399822 -0.0301442761 0.8790400624
-0.02072152682 -0.1044982821 1.091472745 -0.499283731 -0.0571520254 0.8626127839
-0.01713453792 -0.09828370064 1.089725018 -0.4872213006 -0.04722324386 0.8716821671
