# .PCD v0.7 - Point Cloud Data file format
VERSION 0.7
FIELDS x y z normal_x normal_y normal_z
SIZE 4 4 4 4 4 4
TYPE F F F F F F
COUNT 1 1 1 1 1 1
WIDTH 512
HEIGHT 1
VIEWPOINT 0 0 0 1 0 0 0
POINTS 512
DATA ascii
-0.1109239236 -0.1103091687 1.11045444 0.02707302012 -0.02237804793 0.9934021235
-0.1141968295 -0.1143656299 1.10993886 0.0309981145 -0.09856061637 0.989782095
-0.2709953487 -0.08773759753 1.01475203 0.1740477383 0.3728013635 0.9086068869
-0.2733486593 -0.07344291359 1.008757472 0.1683921218 0.2731869817 0.9412978292
-0.2779301405 -0.07626549155 1.010452151 0.1950440705 0.284784615 0.9327126741
-0.2554423213 -0.07475978881 1.007518649 0.0793986693 0.3106600642 0.9457532763
-0.2662098706 -0.06984962523 1.006467938 0.1278526634 0.2605121732 0.9527785182
-0.2778632939 -0.07122860849 1.008249164 0.1885168403 0.2511177957 0.9446099401
-0.2607207298 -0.07756862044 1.009277821 0.1095603108 0.3210507333 0.9369063377
-0.2711156607 -0.07899053395 1.010950327 0.1639089733 0.313957274 0.9291678667
-0.2669102848 -0.07627265155 1.009339452 0.1392890215 0.3024600148 0.9373474717
-0.2736712396 -0.08320662379 1.013047457 0.1820213795 0.3381394744 0.9181542397
-0.2733723521 -0.0877661854 1.020890594 0.1762013882 0.3723600507 0.9104773998
-0.2690942287 -0.09343865514 1.020265341 0.1557780206 0.3848122656 0.9089261293
-0.2785314023 -0.08166712523 1.021522403 0.1926744282 0.355665952 0.9144094586
-0.08854103833 -0.06206713989 1.097343087 0.4514063001 0.1346938908 0.8820940256
-0.09375517815 -0.06466831267 1.101387501 0.4514063001 0.1346938908 0.8820940256
-0.08677361161 -0.06722296774 1.097201467 0.4514063001 0.1346938908 0.8820940256
-0.0847004354 -0.07240232825 1.09737432 0.4514063001 0.1346938908 0.8820940256
-0.09138596803 -0.06892445683 1.101041079 0.4514063001 0.1346938908 0.8820940256
-0.08181625605 -0.06866953522 1.09412086 0.4514063001 0.1346938908 0.8820940256
-0.08938131481 -0.05858850479 1.093386889 0.4514063001 0.1346938908 0.8820940256
-0.092625238 -0.05926176906 1.097133756 0.4514063001 0.1346938908 0.8820940256
-0.2328101397 -0.06786540151 1.077459335 0.9972268343 0.0207357686 -0.02082835324
-0.2301865816 -0.07328395545 1.079944968 0.9951635599 -0.06195441261 0.01506100316
-0.2351485938 -0.0754294619 1.079815626 0.9954007268 -0.07389390469 -0.0006836101529
-0.1030818969 -0.1145632416 1.105548263 0.04620814696 -0.04320582375 0.9963083267
-0.1037107483 -0.1050231457 1.108908057 0.07441801578 0.02118645608 0.9906994104
-0.09654507786 -0.1075664312 1.103974462 0.1741022319 -0.00298616779 0.9807304144
-0.1003418043 -0.1099451855 1.106568217 0.06030968204 0.03065143526 0.995244205
-0.1054284498 -0.109508954 1.108690858 0.02224390954 0.000910529925 0.9977942705
-0.2499822676 -0.02527148463 0.9990821481 0.531124115 0.09580857307 0.8351967931
-0.2361890376 -0.01178179309 0.9924666286 0.5294331908 -0.1181552857 0.8343361616
-0.2410385013 -0.01840335131 0.9908125401 0.587542057 -0.02932391316 0.8040968776
-0.2764720023 -0.04905820638 1.015131831 0.2113334537 0.06534404308 0.9678823948
-0.2715830207 -0.05374438316 1.013705134 0.2112644762 0.1137888879 0.9594231248
-0.2678376734 -0.06046291441 1.01330018 0.1867612004 0.2039641589 0.953271091
-0.2771144807 -0.05498530343 1.014701128 0.2150878161 0.1274950355 0.9607776999
-0.2727483511 -0.0617333129 1.013805985 0.199921459 0.2104188055 0.9526930451
-0.2682957649 -0.04507188872 1.011445045 0.223555997 -0.03851268813 0.9672484994
-0.2815381885 -0.0716458112 1.015574455 0.2095838338 0.2725835443 0.9375161529
-0.2773796618 -0.08239229769 1.015989423 0.1933297962 0.3392783403 0.9170860052
-0.2799617052 -0.07656209171 1.015499592 0.1952740252 0.3037363589 0.9288630486
-0.2647923231 -0.09737038612 1.020534277 0.1190345511 0.3922733665 0.9102463126
-0.2475209087 -0.1073737964 1.022846699 -0.06236300617 0.4908038378 0.8659930825
-0.2380678058 -0.1166881919 1.031090736 -0.09757330269 0.5585566163 0.8236123919
-0.2295587659 -0.1021979302 1.025699615 -0.12667647 0.5160609484 0.8459432721
-0.2326228619 -0.1085576415 1.029397845 -0.1072729528 0.5628327727 0.8195480108
-0.2354238033 -0.1044098362 1.026683569 -0.1088810936 0.5589563847 0.8217356205
-0.2432226688 -0.1045953929 1.021891117 -0.08030579239 0.4992243648 0.861272037
-0.2431293875 -0.1095218435 1.024903893 -0.08396840841 0.5263835788 0.8447211385
-0.2115317136 -0.03948397562 0.980725944 0.1897968203 -0.04755276442 0.9397458434
-0.2033477128 -0.03366549313 0.9756192565 -0.1140217483 -0.1003664285 0.9794319272
-0.2828555405 -0.06295580417 1.006036043 0.2022568583 0.191024676 0.9603833556
-0.08942113072 -0.05249268934 1.092674851 0.4514063001 0.1346938908 0.8820940256
-0.08307215571 -0.05499343574 1.090966105 0.4514063001 0.1346938908 0.8820940256
-0.08528315276 -0.04958051071 1.09004879 0.4514063001 0.1346938908 0.8820940256
-0.1501331776 -0.003712119535 1.002781987 -0.348310262 -0.1031982303 0.9315746427
-0.1510036588 0.006030090153 0.9995179176 -0.3277229369 -0.1259281933 0.9363280535
-0.1516325325 0.0002865822171 0.9991917014 -0.3410091102 -0.1112592444 0.9332603812
-0.2275317907 -0.1089969128 1.029893637 -0.1164701208 0.5370298028 0.8342093229
-0.2217589468 -0.09817545861 1.021147847 -0.1064913347 0.4646329582 0.8777111173
-0.2246360332 -0.1053047702 1.026558876 -0.1079156324 0.5088825822 0.851431489
-0.2369705141 -0.09972065687 1.019476891 -0.08635888994 0.4660755098 0.880081892
-0.2259567827 -0.09720161557 1.018887997 -0.09226924181 0.4513555765 0.8872459531
-0.2302945405 -0.09870008379 1.021902204 -0.1189441904 0.4780009985 0.8696098328
-0.07925673574 -0.07045942545 1.089294195 0.5043094754 0.1075930595 0.8567820787
-0.08382150531 -0.06537082046 1.090009212 0.4840149283 0.117989406 0.8664921522
-0.08769271523 -0.06408275664 1.092466712 0.466712445 0.1268529892 0.8747707009
-0.08446081728 -0.06005925313 1.09024334 0.4687408507 0.1258138865 0.8738001585
-0.1740864515 -0.02178965136 0.9919679165 -0.3263750672 -0.06447222829 0.9427496791
-0.177874431 -0.02430065535 0.9893193245 -0.3200186193 -0.06801772118 0.9440186024
-0.2122951746 -0.0378276296 0.9747534394 0.11380741 -0.1204180047 0.9672344923
-0.1821202636 -0.008764167316 0.9929206967 -0.2951957583 -0.1500187367 0.9380192757
-0.1784348339 -0.01747046597 0.9909033775 -0.3049981594 -0.09296132624 0.945905149
-0.1894016713 -0.001998452703 0.9909644723 -0.2651372552 -0.1951206177 0.9405821562
-0.2708827853 -0.02956953831 1.016869187 0.3668855727 -0.07197374851 0.9255871773
-0.1880800873 -0.03003072552 0.9839932919 -0.2865994573 -0.09771943837 0.9530310631
-0.1969220489 -0.03128201142 0.9792903662 -0.2196404189 -0.09726238251 0.9700550437
-0.1878212839 -0.02042359486 0.9844992161 -0.2639063299 -0.09985355288 0.9589287639
-0.2756308019 -0.04496162385 1.011501551 0.2277657688 -0.04859418795 0.9715687037
-0.2764435709 -0.04080811888 1.015241742 0.2503305078 -0.04141803086 0.9664654732
-0.2690621018 -0.03359914571 1.013002992 0.3529712558 -0.04906520993 0.9289785028
-0.2731481791 -0.04887780175 1.007000089 0.2220588326 -0.0508203432 0.9699367881
-0.2775504887 -0.05118815228 1.008261442 0.2132422626 0.0295312088 0.9691070318
-0.2816972435 -0.05534095317 1.008024096 0.20106031 0.1228893995 0.967320025
-0.2715834677 -0.03746739402 1.014307857 0.2601692379 -0.07686141133 0.9619594216
-0.2290479243 -0.1154455692 1.035483479 -0.1078983843 0.5627609491 0.8195180297
-0.2352407277 -0.1201684922 1.038735151 -0.1070778742 0.5633029938 0.8192826509
-0.23312895 -0.1134798005 1.03105402 -0.1012683585 0.5604018569 0.8219291568
-0.2424095273 -0.1147447154 1.028248787 -0.08812619001 0.5538389683 0.8279159069
-0.2397624403 -0.1183400229 1.03762877 -0.09708805382 0.5572962761 0.8245205283
-0.2519138753 -0.1054200456 1.025842905 -0.02307297289 0.4674629569 0.8772895336
-0.2496312857 -0.1094577238 1.028445959 -0.02711228281 0.4999011457 0.8567286134
-0.2600499392 -0.09979963303 1.022687316 0.07035298645 0.4066253006 0.9066466093
-0.255281806 -0.1039734706 1.021776795 0.001991458004 0.4412466288 0.8915693164
-0.2603057325 -0.09505607933 1.020759583 0.08334760368 0.3844593763 0.9133123159
-0.2642755806 -0.09208989143 1.019950271 0.1603191197 0.3587720096 0.9175831676
-0.2559145093 -0.09940748662 1.018910885 0.01804244146 0.4149213731 0.907975018
-0.2473628074 -0.09808131307 1.01806426 -0.07614453137 0.4322718084 0.8974403143
-0.2296311259 -0.03496594355 0.9818198085 0.5449078083 -0.03181347996 0.8351008296
-0.2343720496 -0.03290622681 0.9850462079 0.5923761129 -0.01056365576 0.8009684086
-0.2363362312 -0.02788488567 0.9867907763 0.6222110987 -0.01600214839 0.7812821269
-0.1567273587 -0.003174506128 0.9994308949 -0.3474350274 -0.1041645557 0.9317767024
-0.1556114852 0.002914197976 1.001021862 -0.3273548484 -0.1276552379 0.9358332157
-0.1613215357 0.009066686966 1.000814676 -0.2966403663 -0.1747209132 0.9371492267
-0.1643672734 -0.001903671422 0.9958151579 -0.3387804329 -0.1176358461 0.9320556521
-0.1639369577 0.004153552931 0.9980677366 -0.3143185079 -0.1516939551 0.9346081614
-0.1492096484 -0.1392995864 1.101000071 0.01990426332 -0.2169164121 0.9759872556
-0.1120562926 -0.1189230382 1.107661724 0.06573538482 -0.1549807489 0.9825684428
-0.1677584201 -0.01862443425 0.993894279 -0.3466170728 -0.06018906832 0.9355380535
-0.1528324634 -0.007668016944 1.000342488 -0.3585295081 -0.09041044861 0.9289740324
-0.1566973329 -0.012483445 0.9974387884 -0.3732373118 -0.07052879781 0.9249945283
-0.1820284724 -0.02603502572 0.9855982065 -0.3051318824 -0.08414280415 0.9479836226
-0.160644874 -0.01516923681 0.9955145717 -0.3718660176 -0.05314427614 0.9264608026
-0.1726163775 -0.01426975988 0.9885524511 -0.3097292483 -0.07945720106 0.9460365176
-0.08214369416 -0.04711581394 1.087000012 0.4514063001 0.1346938908 0.8820940256
-0.07857083529 -0.06339585781 1.089611173 0.4573219121 0.1316634864 0.8792636395
-0.07889784127 -0.05490965396 1.088384986 0.4514063001 0.1346938908 0.8820940256
-0.2382295877 -0.07968997955 1.080513597 0.9956567287 -0.07572487742 -0.03060062975
-0.2251392156 -0.07445323467 1.079802394 0.9942916632 -0.09427306056 0.04983006418
-0.2248329818 -0.0787345469 1.077557206 0.9841364026 -0.1469038725 0.08004986495
-0.2308086455 -0.0808140412 1.079897523 0.9907414913 -0.08750643581 -0.001106747193
-0.2207090259 -0.09177850187 1.017285109 -0.1023303196 0.4324678779 0.8958017826
-0.08949618787 -0.07079207152 1.095655203 0.459549278 0.1305224746 0.878197968
-0.09222022444 -0.06557950377 1.095984101 0.4514063001 0.1346938908 0.8820940256
-0.09437271953 -0.07512435317 1.10255754 0.4514063001 0.1346938908 0.8820940256
-0.1088877022 -0.1023446992 1.107625246 0.2082063407 -0.06037884951 0.9559626579
-0.1052904874 -0.09524358064 1.109151363 0.2857374847 0.009180388413 0.9378673434
-0.1118087769 -0.1043988913 1.112549663 0.01708442532 0.04230154678 0.9951453209
-0.09560949355 -0.09383447468 1.105710387 0.3995453417 0.02734408528 0.9147910476
-0.1020099297 -0.09056506306 1.108767271 0.2951545715 0.05370905623 0.9384382367
-0.1005449295 -0.1008974537 1.107732058 0.2007182539 0.02162626199 0.9607057571
-0.1002388969 -0.08544369787 1.107804418 0.3892863393 0.06215852499 0.9189308882
-0.09683162719 -0.1015471369 1.104118466 0.2959043384 -0.02145589329 0.950099349
-0.09266172349 -0.09725552797 1.102586746 0.36839661 0.0145611465 0.9254555106
-0.2084625661 -0.03307776898 0.9736944437 -0.004523429088 -0.1361515671 0.9801796079
-0.2120454907 -0.02877204679 0.9741432071 0.07376478612 -0.1427257806 0.9797664881
-0.207608059 -0.02660152689 0.9750713706 -0.08692535013 -0.08998639882 0.98550421
-0.2414220572 -0.02454119921 0.9902848005 0.6238183379 -0.009875347838 0.7812379599
-0.1801682413 -0.01100714412 0.9869681001 -0.2702356577 -0.1180917025 0.9537580609
-0.1991972476 -0.02578847669 0.9794363976 -0.2218387872 -0.1192563921 0.9648441076
-0.1925256401 -0.02058183774 0.9830245972 -0.2598845363 -0.1258634627 0.9555407166
-0.2174079418 -0.009853946045 0.9765546322 0.1743410081 -0.209754914 0.9601948261
-0.2181660831 -0.00485528633 0.9772000909 0.1844199747 -0.2278907001 0.9545648694
-0.2200913578 -0.02356020547 0.976162076 0.2849689126 -0.1644003242 0.9361702204
-0.2215790451 -0.01804853603 0.9769628048 0.3063591123 -0.1828002185 0.9284171462
-0.1900036633 -0.02520274743 0.984860599 -0.2854382992 -0.1178058982 0.9509617686
-0.1825842857 -0.02092926577 0.9867780209 -0.2996472716 -0.1019718647 0.9483712912
-0.2680461407 -0.05366706103 1.007000089 0.1736355573 0.009899815544 0.9841034412
-0.2777453363 -0.06299746037 1.007000089 0.2240444422 0.1909731328 0.9539100528
-0.2659255266 -0.05812217668 1.007000089 0.1617453396 0.1069815308 0.9742103219
-0.2720098197 -0.06115719676 1.007000089 0.1928422451 0.1604986787 0.9624942541
-0.2353521287 -0.06149734929 1.004723787 0.08879733086 0.3196624517 0.9326358438
-0.2314888686 -0.05236650258 0.9981682897 0.2346643358 0.2374155223 0.9207251072
-0.2274013311 -0.05237281322 0.9913522005 0.2380916029 0.1512711197 0.9271351695
-0.2314865589 -0.05810990557 0.9991337657 0.1412964314 0.2411789894 0.932749331
-0.2241503894 -0.04405677691 0.9774867892 0.4052065611 0.05143778399 0.9091323018
-0.2552034557 -0.05834420025 1.006829977 0.136064291 0.1662766039 0.97364676
-0.2770857215 -0.06935606897 1.016031265 0.2114061713 0.2753762305 0.9366475344
-0.2785455287 -0.05981190875 1.015416503 0.2177190781 0.1704165787 0.9535099864
-0.280885756 -0.0519114472 1.016138434 0.2206332088 0.08288342506 0.963665247
-0.2806817889 -0.04520740733 1.015779972 0.221576944 0.01656732149 0.9730895758
-0.2819232643 -0.06662462652 1.01117301 0.210948512 0.2280260324 0.9501001835
-0.2823333144 -0.06023260206 1.010376573 0.1992788017 0.1897644997 0.9609219432
-0.2223232687 -0.08495747298 1.016417027 -0.09095384926 0.404949069 0.9090237021
-0.2499430329 -0.05660907924 1.00703752 0.1596167088 0.1940330863 0.9637494087
-0.2086905837 -0.03564294428 0.982014358 0.1169499159 -0.06693449616 0.9395202994
-0.2031555325 -0.02837344259 0.981538713 -0.09035026282 -0.1058130339 0.9628409147
-0.2033777684 -0.03429696709 0.9815340042 -0.03067626432 -0.07367867231 0.9496574998
-0.2261251956 -0.006202021614 0.9845080972 0.3997609019 -0.1895397305 0.8912040591
-0.2311284095 -0.008467704989 0.9874375463 0.4519261122 -0.1622598767 0.8626909852
-0.2488232106 -0.1003175378 1.022981405 -0.06796520948 0.4483518004 0.8882904053
-0.2250162661 -0.03551451489 0.9779835343 0.4463503063 -0.1097079143 0.882527113
-0.2179106176 -0.03823859617 0.9751013517 0.2709715664 -0.1271424592 0.9440810084
-0.2152908295 -0.03257648647 0.9743606448 0.1912233382 -0.1892280579 0.9621614814
-0.09291098267 -0.08654808253 1.103772044 0.4330474436 0.08532034606 0.896482408
-0.08867783844 -0.09148875624 1.101128578 0.4269728065 0.06819040328 0.9005217552
-0.09273751825 -0.08084329218 1.103336096 0.4368175268 0.112894319 0.8920511603
-0.08827447891 -0.07823952287 1.101350307 0.4499296248 0.1324873269 0.8831019402
-0.1804902107 -0.00222264789 0.9927396774 -0.2851463258 -0.1615218222 0.9381890297
-0.1843854338 0.002402349841 0.99304986 -0.2635709643 -0.204036966 0.9379256368
-0.1764855236 -0.008095395751 0.9923908114 -0.3157478571 -0.1094453931 0.9371765852
-0.1625102758 0.01424747612 0.9989605546 -0.2699636817 -0.2071354687 0.9402964711
-0.1072088555 -0.1176981851 1.105380774 0.06245527416 -0.1222427413 0.9885877967
-0.1091283709 -0.1108849049 1.103354692 0.1146446913 -0.09452237189 0.9795462489
-0.1195408702 -0.1162151769 1.10260129 0.05569958687 -0.1749915481 0.9803672433
-0.1147126332 -0.1157056168 1.103490829 0.06085927039 -0.1460714191 0.9840618372
-0.1184785888 -0.1119225472 1.11096096 0.001161167398 -0.09394927323 0.9951012135
-0.1157442704 -0.1109406054 1.106226921 0.03863460571 -0.1035049632 0.9914013147
-0.1722987741 -0.006847309414 0.9886196852 -0.2827562094 -0.1203012988 0.9498774409
-0.1751952022 0.0005093620275 0.9885784388 -0.2226105481 -0.1710947156 0.9591201544
-0.1679520756 -0.01033241488 0.9897584915 -0.3315345943 -0.08876350522 0.9382373095
-0.1646848619 -0.01445199922 0.9919759631 -0.3521622717 -0.06620881706 0.9331233501
-0.1643044502 -0.005625423975 0.9922754169 -0.3319395185 -0.109527342 0.9359025359
-0.1683219224 -0.002044190653 0.9895405173 -0.3102020919 -0.1299372166 0.9416421652
-0.1604042947 -0.008273038082 0.9961476326 -0.3604818881 -0.08777128905 0.9284457564
-0.1191992164 -0.1241407618 1.106989384 0.05289134756 -0.2060421705 0.9711557627
-0.1264021993 -0.1251017451 1.103814125 0.02981856279 -0.205060482 0.9755271673
-0.1198529154 -0.1306268126 1.104091406 0.08400049061 -0.2681703269 0.9582378268
-0.1217269972 -0.1158047989 1.108206868 0.006939396262 -0.1318613291 0.9893817306
-0.1247349009 -0.120078072 1.103092074 0.03050093353 -0.1883362532 0.9806663394
-0.1150084585 -0.1290191263 1.10438776 0.1031867862 -0.2572770119 0.9598415494
-0.1122521907 -0.1240180954 1.103960872 0.1086168811 -0.2212669849 0.9681652188
-0.1175892651 -0.1213582829 1.10287571 0.0833382085 -0.2184557319 0.9708960056
-0.132153824 -0.1271725893 1.09866631 0.04442122206 -0.232828632 0.9702890515
-0.1490766555 -0.1499233842 1.097204089 0.0771439895 -0.2656650543 0.9597925544
-0.1538986564 -0.1436891705 1.100884795 0.01990426332 -0.2169164121 0.9759872556
-0.1436623186 -0.1353629231 1.099489927 0.01990426332 -0.2169164121 0.9759872556
-0.1476670951 -0.1446581036 1.097000003 0.04732458293 -0.2402691245 0.9682292938
-0.1526539475 -0.1466396898 1.097000003 0.02252668887 -0.2191498131 0.975245297
-0.2615699172 -0.03908488154 1.009457588 0.3127503693 0.03235027194 0.9441470504
-0.2651138604 -0.03455823287 1.010126829 0.3776369989 -0.02121764421 0.9222818017
-0.2683438063 -0.03880623728 1.009453654 0.3250424564 -0.05213250965 0.9377543926
-0.2609082758 -0.02907243185 1.008707643 0.4578554034 0.04754114524 0.8824847341
-0.2598237693 -0.03518036008 1.00620079 0.3942243457 0.05123982951 0.9103851318
-0.2516757846 -0.03126896173 0.9998042583 0.5102618337 0.08214843273 0.8432499766
-0.2469405979 -0.03006975725 0.9956475496 0.5736328363 0.06937023252 0.8060635328
-0.2559806705 -0.03298485652 1.003363371 0.4484364688 0.08232699335 0.878995955
-0.2084861249 -0.01702351309 0.9771105647 -0.07780890912 -0.1677908301 0.9726104736
-0.2144040763 -0.01814460754 0.9749916792 0.1153759137 -0.1937751621 0.970292151
-0.2132578641 -0.02333664149 0.975212276 0.08297790587 -0.1566640288 0.9764478803
-0.2046913207 -0.02233732864 0.9773030281 -0.1690958291 -0.1063729674 0.9775028825
-0.1958556622 -0.01606096327 0.9835996032 -0.2899236083 -0.1790392697 0.9387369156
-0.1858666241 -0.01429682877 0.9863552451 -0.2735596299 -0.1111227423 0.9547949433
-0.19058761 -0.006052894983 0.988049984 -0.2707359493 -0.1741342694 0.9443817735
-0.1850990206 -0.005645957775 0.9856542945 -0.2340409011 -0.1689141989 0.9572979212
-0.1894440353 -0.01138076186 0.9851077795 -0.2700369954 -0.167107895 0.9471636415
-0.2234155238 -0.02803155221 0.9769629836 0.3979078531 -0.161073193 0.9030711651
-0.2288337946 -0.03031129763 0.981407702 0.5239624977 -0.06949000061 0.8426786065
-0.2283972502 -0.02379940078 0.9821552634 0.507068038 -0.1111819074 0.8520700932
-0.2346209884 -0.02264839038 0.985876441 0.5845308304 -0.05565954372 0.80624336
-0.2313709259 -0.01890023798 0.9838311076 0.501531899 -0.1058110669 0.8472557664
-0.2373715192 -0.01721108891 0.9873466492 0.5639413595 -0.06314903498 0.8129900694
-0.2264338136 -0.01809600554 0.9809182882 0.4322446585 -0.1472903341 0.8799884915
-0.2294943184 -0.01081715431 0.9826520681 0.4116066694 -0.1441869438 0.875790894
-0.2252027541 -0.01206007786 0.980138123 0.3672570586 -0.1745970696 0.9002252817
-0.2530392408 -0.03710089251 1.005273223 0.4291812778 0.2087048292 0.8761476278
-0.2504946887 -0.04583052918 1.004728675 0.3126121163 0.2243579328 0.9178994298
-0.2526661754 -0.05168603733 1.005826831 0.2217516452 0.1754562557 0.9523998499
-0.2460809946 -0.03912929073 0.9983080626 0.4560840726 0.1458482444 0.8508522511
-0.2409808338 -0.03981633857 1.001637459 0.4883328378 0.2551004887 0.8267122507
-0.2317525744 -0.01981741562 0.9944194555 0.4763775468 -0.03524035588 0.8599789143
-0.2389251441 -0.03459390998 0.9998494387 0.484254539 0.1810964197 0.8361927867
-0.2333036661 -0.02740946226 0.9966257811 0.4861878753 0.06497884542 0.8429765105
-0.2443041503 -0.05471654981 1.006141424 0.2003342211 0.2585166097 0.9438643456
-0.2344077975 -0.08579923958 1.017349482 -0.08543349057 0.4099077582 0.9080587626
-0.2280065566 -0.09208730608 1.018483996 -0.105619669 0.421982348 0.9003042579
-0.2342530638 -0.09175740927 1.018847823 -0.105751358 0.4112529755 0.9053027034
-0.2408138067 -0.09690129757 1.018119335 -0.09438823164 0.4404209852 0.8923035264
-0.2448913306 -0.08677978069 1.015760541 -0.06676146388 0.3734829724 0.9245449305
-0.2470475286 -0.07937014103 1.010799408 -0.01462743152 0.3386952579 0.9379991889
-0.2500982285 -0.07628870755 1.008349895 0.02844612114 0.323086828 0.9434249401
-0.2397332788 -0.0873387903 1.017696738 -0.07689348608 0.398732394 0.9134031534
-0.2430601865 -0.09081726521 1.01884079 -0.07709926367 0.39708969 0.9138710499
-0.2348368168 -0.08889268339 1.024093509 0.0007507811533 0.3740624189 0.8277549744
-0.2341298908 -0.0839452073 1.038245916 0.3125654757 0.2011496872 0.5931704044
-0.2347613126 -0.09547957778 1.024300456 -0.06522107869 0.4207683802 0.8581823707
-0.2333269268 -0.08774348348 1.052593827 0.5353374481 0.0910120979 0.4001553059
-0.2338990569 -0.09129685163 1.041222811 0.2892692089 0.2268248498 0.5864939094
-0.2327784598 -0.08552545309 1.063276768 0.7546493411 -0.02829918452 0.2307887822
-0.2343280464 -0.08843207359 1.03371048 0.181909889 0.2780131698 0.6830980182
-0.2330750227 -0.08579988778 1.057669997 0.6489681005 0.02774275281 0.3151562512
-0.2264992148 -0.09195189178 1.04368484 0.2854010165 0.2419198602 0.5685670376
-0.2255653888 -0.08422281593 1.046935558 0.4421889484 0.1130603999 0.5007458925
-0.2264267951 -0.09004102647 1.025587082 -0.02703120559 0.4086919725 0.8167657256
-0.2257195264 -0.08621788025 1.05646348 0.5943385363 0.03737925738 0.3729257584
-0.2262467146 -0.08904152364 1.033083081 0.1247123182 0.3176720142 0.7088064551
-0.2268600762 -0.09442671388 1.035265326 0.09809885919 0.3607212901 0.6937204003
-0.226856336 -0.09403719008 1.030261159 0.009978657588 0.4085355103 0.7627480626
-0.2295146286 -0.07747995853 1.026888251 0.1048820391 0.2710914612 0.7794857621
-0.2261196971 -0.0814204812 1.061906219 0.7416847348 -0.07171702385 0.2892059386
-0.2297532707 -0.07887622714 1.039375663 0.3356944025 0.1564337164 0.5923377275
-0.2261437923 -0.08216419816 1.068551898 0.8642567992 -0.1332758665 0.1904813647
-0.2278698534 -0.07952337712 1.04505372 0.4355214238 0.09386938065 0.5241655707
-0.2304171473 -0.08087655157 1.057282925 0.6675149798 -0.006305373274 0.3212276697
-0.2307155281 -0.0818092376 1.065631866 0.8221910596 -0.08223749697 0.1949226409
-0.2256887108 -0.08319036663 1.052656651 0.5570706725 0.0423165597 0.4197481275
-0.2269991189 -0.08210326731 1.020557642 -0.04294399545 0.3744201958 0.8752837777
-0.2258352041 -0.08456616104 1.030631304 0.1336066276 0.2892471254 0.7309818268
-0.2257946879 -0.08408790827 1.037926435 0.2739879489 0.2072581351 0.6279118061
-0.2288758308 -0.07684928924 1.020109534 -0.02229993977 0.3320153654 0.8849522471
-0.2338029295 -0.08368741721 1.043490887 0.4107853174 0.1488047093 0.5147233605
-0.2336529344 -0.08306892961 1.032919645 0.2140817642 0.2473481745 0.6750065088
-0.2311392128 -0.0803283602 1.048955917 0.5148759484 0.07559680939 0.4401163757
-0.2333122045 -0.08237210661 1.026849866 0.1013599262 0.3018627465 0.767805934
-0.2305731177 -0.07893001288 1.032773614 0.214057833 0.2237137854 0.6864902973
-0.2271228433 -0.09744828939 1.043591261 0.1995975375 0.3110183477 0.6074674129
-0.2274272591 -0.09919635206 1.034054518 0.01440771855 0.4319687188 0.726827383
-0.2266489416 -0.09405316412 1.052477956 0.4062145054 0.176073581 0.4742970765
-0.2260207534 -0.08916518837 1.060828567 0.6330916882 0.02789655514 0.328068465
-0.2281323075 -0.10580872 1.034645081 -0.1036807671 0.5090941787 0.8029386997
-0.2398388684 -0.09614077955 1.024983287 -0.03950615972 0.399810046 0.8520094156
-0.2377235442 -0.0900202617 1.047789454 0.4395797849 0.138463825 0.4832915068
-0.2351440638 -0.09320876002 1.035348177 0.1650866419 0.2939763367 0.6832538247
-0.2364249378 -0.09494485706 1.028982878 0.0338004753 0.3645264506 0.7863842845
-0.2342534661 -0.08129790425 1.075295568 0.9890170693 -0.1251228452 0.02653563395
-0.228011772 -0.1012992561 1.047487259 0.206419006 0.3140429854 0.6051071882
-0.2313698232 -0.114808403 1.04019928 -0.1030926183 0.5422073603 0.8116793633
-0.229860872 -0.1099847332 1.039738774 -0.05399034545 0.4958686531 0.7761467695
-0.2261780947 -0.08892988414 1.066425562 0.7357551455 -0.03555732593 0.2628783882
-0.2308752835 -0.1114493087 1.045376182 0.04133622721 0.4468792975 0.7183188796
-0.2280143201 -0.09836345911 1.056308389 0.4188032448 0.1814433336 0.4698836505
-0.2266722322 -0.09324757755 1.058372617 0.5220632553 0.1030187234 0.4003393352
-0.2280671149 -0.09633012116 1.062922478 0.576015532 0.08381862938 0.3699316978
-0.2296730727 -0.1069930866 1.046846151 0.1247042716 0.3823294938 0.6618359089
-0.2258737534 -0.08638083935 1.071055174 0.8594143987 -0.1159395576 0.1832804233
-0.2290507853 -0.1031796187 1.052121997 0.2766119242 0.2810041606 0.5633521676
-0.2278902829 -0.1031962857 1.040602684 0.04543116316 0.4133117497 0.7072688937
-0.2408463657 -0.09868266433 1.039860487 0.1984433085 0.3243905306 0.6121780276
-0.2407220155 -0.09496590495 1.035015225 0.1590026021 0.3017455041 0.6903784275
-0.2418361157 -0.09639055282 1.02960217 0.048126854 0.3608075678 0.7780862451
-0.2372771949 -0.09123045951 1.052777767 0.5115835667 0.1221460477 0.4026250243
-0.2431727648 -0.1002713516 1.026434183 -0.05326941982 0.4414659142 0.8296069503
-0.2392905354 -0.09298536927 1.041740298 0.2992787063 0.2251810879 0.5813958645
-0.2350597531 -0.08346483111 1.080133677 0.9922745228 -0.06532085687 -0.04389584064
-0.2316905111 -0.0901517272 1.068860531 0.7784560919 -0.02618001215 0.2063776106
-0.2319927663 -0.08620067686 1.071790099 0.8898767829 -0.09512417018 0.1241764203
-0.2321256399 -0.1092722043 1.05456388 0.2416490912 0.3187857568 0.5899559855
-0.2408607304 -0.1035460383 1.041045547 0.1824398488 0.358902216 0.6281095743
-0.2397526056 -0.09934685379 1.045022488 0.2916118205 0.2820999324 0.547360301
-0.2424419373 -0.1044531465 1.034412146 0.04690153897 0.4323818386 0.7199775577
-0.2370035499 -0.09573955834 1.056172371 0.5353378654 0.1399315596 0.3783154786
-0.235077247 -0.0908254981 1.063535333 0.715618968 0.02336502075 0.2489031255
-0.2437263578 -0.1081855297 1.02958858 -0.07512070239 0.5133429766 0.8083606362
-0.242715627 -0.111346364 1.034534097 -0.003373486223 0.4929392636 0.7668185234
-0.2384559959 -0.0979481861 1.050338507 0.4053612947 0.2171954662 0.4690199494
-0.2364604771 -0.09101465344 1.057618499 0.5994573236 0.08335209638 0.3264923692
-0.2393211573 -0.109493345 1.043769002 0.1399811655 0.4028372765 0.6597885489
-0.2357348949 -0.1146462634 1.04849875 0.0764843002 0.4430381954 0.6931486726
-0.239225924 -0.1041721404 1.047026873 0.2819961309 0.3096631467 0.5612508059
-0.2344929725 -0.1030809581 1.05779767 0.4059723318 0.2264551669 0.4615221322
-0.2394584417 -0.1139742807 1.04090333 0.01924279146 0.4820747375 0.7437294722
-0.233821854 -0.0964224562 1.063057303 0.5947853327 0.1023586541 0.3289082348
-0.2370916158 -0.1014565378 1.053159952 0.3964446783 0.2337480187 0.4757746756
-0.2367767543 -0.1094431281 1.049251556 0.192507416 0.3673669994 0.6159461737
-0.2354405522 -0.1204852834 1.045778871 -0.07132423669 0.5398553014 0.7945464253
-0.2457955182 -0.06088496 1.006718874 0.1286392808 0.276996851 0.9499178529
-0.2414550781 -0.06286453456 1.004018545 0.1040797904 0.2899155915 0.9419701099
-0.23628591 -0.05919557065 0.999019146 0.1523059905 0.2556588948 0.9328193069
-0.2329404801 -0.05424289778 0.9918365479 0.2390747964 0.1861880273 0.9255647063
-0.2265925109 -0.04674113542 0.9811101556 0.3628625274 0.08915103972 0.9127788544
-0.2403970361 -0.05556887016 0.9994397163 0.2111070752 0.216180101 0.9395106435
-0.2369147986 -0.05283124372 0.9945408106 0.2569549382 0.178948164 0.9327226877
-0.2305494845 -0.04993974045 0.9856467843 0.3167771995 0.1234584525 0.9200339913
-0.2595438063 -0.0726294443 1.014438272 0.128298372 0.3159374893 0.9360839128
-0.2631678879 -0.06628956646 1.013391733 0.1528804302 0.2736754417 0.9475790262
-0.2648222446 -0.07396623492 1.014535427 0.1656865925 0.3239003718 0.9311964512
-0.2531557083 -0.0747153759 1.014888644 0.08360562474 0.3306577206 0.9344201684
-0.2516088188 -0.06933129579 1.01394558 0.07213149965 0.296037972 0.9460974336
-0.2420850247 -0.07252620161 1.014640212 0.005497565027 0.3185063303 0.9434410334
-0.2579190731 -0.06656422466 1.012824655 0.11705596 0.2789301872 0.9492994547
-0.2369112819 -0.07371412218 1.01446104 -0.03004880063 0.3288415074 0.9432125688
-0.2721945941 -0.06662849337 1.006964445 0.1860275716 0.2317026854 0.9504466057
-0.2742595673 -0.07833072543 1.019989252 0.1839281172 0.3411144912 0.9217431545
-0.2685533166 -0.08243374527 1.018437147 0.2001564354 0.3319762349 0.9216396809
-0.272656858 -0.07309940457 1.017192483 0.1915671676 0.3297119141 0.9238280654
-0.2681189477 -0.06905020773 1.014806986 0.1773634553 0.2957736552 0.9377081394
-0.2505731285 -0.07106748968 1.007000089 0.04661301523 0.2918118834 0.9546412826
-0.2546978593 -0.06472334266 1.007000089 0.08236653358 0.2412814647 0.9665733576
-0.2653846741 -0.06487321854 1.007000089 0.1471275091 0.2283070385 0.9586311579
-0.2600436211 -0.06742659211 1.007000089 0.1131761447 0.2534679472 0.9571389556
-0.2505776286 -0.0613969788 1.008709431 0.1025084108 0.2179722339 0.9640096426
-0.2472541332 -0.06636078656 1.010203838 0.05090489984 0.2837110162 0.9546869397
-0.2631189227 -0.06142433733 1.011164904 0.1671041399 0.2037448287 0.9615928531
-0.1660640538 0.00988273602 0.9992531538 -0.2853476405 -0.1929659247 0.9373724461
-0.1725100279 0.005800612736 0.996045053 -0.274250716 -0.1988657266 0.9393436909
-0.1763424128 0.0006483836332 0.9932150245 -0.2776498497 -0.18854855 0.9397506118
-0.170600906 -0.0007885590312 0.9943398833 -0.3023883402 -0.1651441008 0.9377647042
-0.1725453287 0.01326864958 0.9974218011 -0.2525784969 -0.2209520936 0.9418752193
-0.1772694737 0.01338916551 0.9957082868 -0.2452579886 -0.2271040082 0.9423998594
-0.1840275675 0.01011025254 0.992862463 -0.2353370786 -0.2316647619 0.9435288906
-0.1794553399 0.00614855811 0.9906901121 -0.2199030668 -0.2063632011 0.9528191686
-0.1843725145 1.717773375e-05 0.9874779582 -0.2315637022 -0.1927508861 0.9533477426
-0.1797914505 -0.001869458123 0.9872740507 -0.222219184 -0.1728953719 0.9593648314
-0.1238205954 -0.1287238449 1.101320505 0.09910197556 -0.2843657136 0.9535800815
-0.1437058151 -0.1478652805 1.098690152 0.08962173015 -0.2762918174 0.9562622905
-0.08216480911 -0.07377910614 1.092783451 0.5045654774 0.1074619144 0.8566595912
-0.08413751423 -0.07930506021 1.096504092 0.4917117357 0.1140465289 0.8628095388
-0.08686070889 -0.0834710598 1.098931909 0.4848625958 0.1056746468 0.867498219
-0.09098029882 -0.07506728172 1.09831953 0.4545377195 0.1237961277 0.8815409541
-0.1627005339 0.006521676201 0.9924492836 -0.3124921024 -0.1524464488 0.9367259741
-0.1543408483 0.01076471433 0.9970508218 -0.2978594303 -0.1652343124 0.9390482903
-0.1573797613 0.007134325337 0.9947251081 -0.3180223405 -0.1424496472 0.9366600513
-0.1705723107 0.003718918888 0.9896703362 -0.2950905263 -0.1541704386 0.9409746528
-0.1689840704 0.008915835992 0.9934365153 -0.2891792357 -0.1779375672 0.9390993714
-0.1564749628 0.001054858905 0.9960157275 -0.3377279341 -0.1172417775 0.9337073565
-0.1606838852 0.001925493823 0.9934478998 -0.3342974186 -0.1242398545 0.9340767264
-0.1650354564 0.00176486792 0.991076827 -0.3328267038 -0.1288126558 0.934028089
-0.2379760742 -0.02142731287 0.995716989 0.5384640694 0.01228580158 0.8210143447
-0.2395465523 -0.02692487277 0.998154819 0.4746644497 0.09074925631 0.8542856574
-0.24824512 -0.035020262 1.002616405 0.4749719501 0.2280865163 0.8480083346
-0.2456441969 -0.02198289894 0.9985241294 0.5406319499 0.04204496741 0.8278400302
-0.245870769 -0.02978267521 1.000474215 0.5028065443 0.1495929658 0.8372958899
-0.2421373129 -0.01800690591 0.9966179132 0.5321177244 -0.01899782941 0.8326104283
-0.2299177051 -0.01236805506 0.9920000434 0.4892619252 -0.1361095607 0.8603428602
-0.2554887831 -0.04687427729 1.005909562 0.285849601 0.1430324763 0.9448281527
-0.2663521469 -0.04314159974 1.007000089 0.2844823599 -0.03503065184 0.9555638433
-0.2667441368 -0.0494867973 1.010645628 0.1930617243 -0.00568450056 0.9765600562
-0.2619394362 -0.05033196881 1.009012818 0.1905651689 0.03729047254 0.975325048
-0.2596822381 -0.05556575209 1.008286595 0.1665171981 0.104172796 0.9793051481
-0.2584969699 -0.04129637778 1.003054023 0.3682671785 -0.02814341709 0.9127959609
-0.2482389659 -0.03520159423 0.9951799512 0.5262507796 -0.004545903299 0.8267509937
-0.2608571947 -0.04482629895 1.005942583 0.3023141325 -1.366457218e-05 0.9453854561
-0.2518196404 -0.0404484123 1.000632167 0.4152984619 0.07396813482 0.8839868903
-0.2426888645 -0.03282311559 0.9918297529 0.5940335393 0.03757083043 0.7890630364
-0.2116968185 -0.00905935932 0.9888947606 0.08874057978 -0.1648229063 0.9063904285
-0.1980395466 -0.01106840558 0.9856028557 -0.225787878 -0.1854817718 0.9313249588
-0.204636842 -0.01071180869 0.9870986938 -0.07467228919 -0.1749367118 0.9189146161
-0.2018499225 -0.01661406271 0.9857785702 -0.1358475536 -0.1642855704 0.9251654148
-0.2106884271 -0.01861754991 0.9877051115 0.07934237272 -0.1326613575 0.9139367938
-0.1999260485 -0.0231727194 0.9849187136 -0.1520292014 -0.1247446761 0.9431391954
-0.2218357921 -0.01580840535 0.989661932 0.3143895566 -0.1309631765 0.8941239119
-0.2153626382 -0.01770191453 0.9887923598 0.1835897714 -0.1292382032 0.9040423036
-0.2193662375 -0.009193047881 0.9913794994 0.2709146738 -0.1588276178 0.8888993859
-0.209212184 -0.00200261292 0.9926819801 0.06972148269 -0.2018786222 0.9046441317
-0.1999381781 -0.00431734696 0.988037467 -0.1648513526 -0.1965789348 0.928473115
-0.1986310184 0.0005079865805 0.9907666445 -0.1684397608 -0.2217114568 0.9263513684
-0.1941674054 0.006796102971 0.9933933616 -0.2389897257 -0.2563464046 0.9299457073
-0.214116022 -0.005664228927 0.9919288158 0.1658050716 -0.1801377386 0.897241354
-0.2081589699 -0.005781578366 0.9898449779 0.02296504006 -0.1836133301 0.9110907912
-0.2246953696 -0.01094296295 0.9920252562 0.3880854249 -0.1464001536 0.8784831166
-0.2088044584 -0.006933433935 0.9782676697 -0.06851436943 -0.2305125147 0.9615515471
-0.2054611892 -0.005138534587 0.981918931 -0.1567816138 -0.2256978452 0.9610411525
-0.2013463825 -0.01585276239 0.9796575904 -0.1785011292 -0.1486354321 0.9721341133
-0.1939337105 -0.006643556524 0.9836357832 -0.2006396353 -0.1855080426 0.9608435631
-0.2021419555 -0.009653699584 0.981302917 -0.1731344759 -0.1888550073 0.9654952288
-0.2381995767 -0.03857462108 0.9949281216 0.5935421586 0.2067384571 0.7624601126
-0.2458432615 -0.0474851504 1.002284884 0.3648462892 0.2338254005 0.8731580973
-0.2385773063 -0.044078812 0.998426497 0.5234110951 0.2674871087 0.7871861458
-0.235391885 -0.04814877361 0.9928025007 0.3513460457 0.1698959768 0.9000495076
-0.2289765477 -0.04287344962 0.9844563007 0.4857190549 0.1379411519 0.8465610147
-0.2393546253 -0.04938634858 0.9986405969 0.3423659503 0.2186863124 0.8890452385
-0.2316163927 -0.04643599316 0.9959797859 0.4006355107 0.2075253278 0.867102623
-0.2249996215 -0.04635613039 0.9894192815 0.3380983472 0.1032308713 0.9127468467
-0.2357610017 -0.05194145814 1.002317905 0.2797609568 0.3055399954 0.8921582103
-0.2288067937 -0.02432039939 0.9925521612 0.4567998946 0.0153057063 0.8368477821
-0.2244786024 -0.02152540162 0.9905998111 0.3612810075 -0.04463425279 0.867570281
-0.2220190316 -0.02643284388 0.9897870421 0.2970283628 0.006523821503 0.8653557897
-0.2080900669 -0.02242258564 0.9837316871 -0.0180218555 -0.1209798679 0.9491302967
-0.2190979719 -0.02298619598 0.9883981347 0.2349591553 -0.05439956114 0.8908157349
-0.230991438 -0.03102173284 0.9937793016 0.4968905449 0.1149689928 0.8053176403
-0.2274573892 -0.03547326475 0.9924927354 0.4085598886 0.1543686539 0.8100094795
-0.2332436889 -0.03598727286 0.9949556589 0.5412050486 0.1922232807 0.7786968946
-0.213715747 -0.02365171723 0.9861595035 0.1098213643 -0.0746069327 0.9164779782
-0.2230820805 -0.03354865313 0.9905602932 0.3106183112 0.1055942997 0.8383381963
-0.2591530383 -0.09036339074 1.018215179 0.1392445266 0.3719415665 0.9152186513
-0.2552811205 -0.08758379519 1.01666069 0.08330023289 0.3546360731 0.9304322004
-0.2523882985 -0.09119635075 1.018725395 0.01482812781 0.3765202463 0.9228273034
-0.2506265044 -0.09606931359 1.020950556 -0.02945210971 0.4069348574 0.9105382562
-0.2430013716 -0.06925501674 1.0074507 0.03281539306 0.323485285 0.9454131126
-0.2325541377 -0.06900090724 1.012688041 0.01596837863 0.355468452 0.9265732169
-0.2380917668 -0.05687439814 1.006084085 0.1726451367 0.3419460654 0.9215428829
-0.2377236038 -0.06347414106 1.008516312 0.08190167695 0.3288787901 0.9368472099
-0.2304101288 -0.07333204895 1.010776877 -0.01291143149 0.3743546605 0.9239382744
-0.2253565788 -0.08020108938 1.012836695 -0.04717108607 0.397803396 0.912809968
-0.2306901067 -0.08089720458 1.014559746 -0.05334467068 0.3904511631 0.9164183736
-0.2317449003 -0.07525499165 1.015902996 -0.05877030641 0.3499818444 0.9343542457
-0.2376906127 -0.06813404709 1.076681495 0.9975577593 0.03325637802 -0.04666857794
-0.2426524609 -0.07269578427 1.076971054 0.99836272 -0.01934293844 -0.05256058276
-0.2323985398 -0.07571677119 1.075836301 0.9952805042 -0.0653750971 0.01492728572
-0.1374293268 -0.1344704032 1.101000071 0.01990426332 -0.2169164121 0.9759872556
-0.1360516697 -0.1299864948 1.099605918 0.01990426332 -0.2169164121 0.9759872556
-0.1245378926 -0.1343507767 1.103050232 0.07926917076 -0.2674749792 0.9591913223
-0.1322696656 -0.1387288123 1.101631522 0.07536972314 -0.2641539872 0.9602945447
-0.1408057362 -0.1395553499 1.101000071 0.04778569192 -0.2406618297 0.9680988193
-0.1389776915 -0.1435998976 1.097082496 0.09196959436 -0.2782913744 0.9555979967
-0.1322249174 -0.1342231631 1.098806977 0.06860629469 -0.2583938539 0.9622080922
-0.1349571347 -0.1412601173 1.098234534 0.09655976295 -0.2822006345 0.9542993307
-0.2034924626 0.002202923642 0.9931684732 -0.05023879185 -0.2277384102 0.9121029973
-0.2150687873 0.0002315985766 0.9853050709 0.1550408453 -0.3067159951 0.9043251276
-0.2208628058 -0.002645486733 0.9871560931 0.268130362 -0.2642179132 0.884949863
-0.2094964385 0.004193196539 0.9933835268 0.06293223798 -0.2244899273 0.8946992755
-0.2186103463 -0.0008202162571 0.9922694564 0.2340197414 -0.2079072893 0.8757619262
-0.2032680809 0.006988736335 0.9889408946 -0.06277818978 -0.3008007407 0.9225580692
-0.1936572641 0.01282308996 0.9946349263 -0.2355594188 -0.2618591785 0.9295735955
-0.2263906449 -0.005076098721 0.9915159345 0.3804061115 -0.1912851036 0.8590294719
-0.2105888873 0.002922512358 0.9877227545 0.07410273701 -0.2915170789 0.9082732201
-0.2007870823 0.008861674927 0.9934381247 -0.1022669747 -0.2529482245 0.9156913161
-0.2137425691 0.001184082939 0.9932712317 0.1418139786 -0.2096562237 0.8844050169
-0.2324036211 -0.03934255242 0.9864545465 0.5413087606 0.1158861518 0.8144481778
-0.237228483 -0.03526889905 0.990029335 0.6110184193 0.1020818651 0.7708353996
-0.2282375991 -0.04041096568 0.9801552296 0.4785510898 0.04861750826 0.8668813109
-0.2183239013 -0.04152037203 0.9822723269 0.3543703556 -0.009838417172 0.9160485864
-0.2138587236 -0.03105878271 0.9864091277 0.1054628491 0.01897797734 0.8950448632
-0.2227069438 -0.04234010354 0.9851344228 0.4298302829 0.0530590862 0.879652679
-0.2277642339 -0.04175277799 0.9895599484 0.4894994497 0.1404265165 0.8284077048
-0.2327254415 -0.0406636931 0.9942772388 0.5388689637 0.2310838699 0.7750414014
-0.2090359479 -0.03040705435 0.9830765724 0.02690413967 -0.05264477804 0.9366021752
-0.2173531651 -0.03648697957 0.9851929545 0.2509513795 0.0230500102 0.8948357105
-0.2644399107 -0.0786472857 1.015693784 0.1752092391 0.3281395435 0.9276214242
-0.2639712989 -0.08425485343 1.017203093 0.1899579912 0.3281412423 0.9241496325
-0.2590270936 -0.0819927454 1.015753508 0.1186969355 0.3328138888 0.9337778091
-0.2554099262 -0.08005972952 1.01113832 0.08505703509 0.3237576783 0.9412738681
-0.2634281516 -0.08378782123 1.012344241 0.1323755682 0.35400787 0.9225385785
-0.2459596246 -0.07349059731 1.009116888 0.01524047088 0.3171062768 0.9480391145
-0.2386838496 -0.07003873587 1.01055038 0.01437411271 0.3310209513 0.9432624578
-0.2424686551 -0.07771002501 1.012867451 -0.02188925259 0.3462931812 0.9366790652
-0.2383141816 -0.07886008173 1.015535355 -0.05046163872 0.3490978181 0.9353950024
-0.2449005246 -0.08180715144 1.015600681 -0.01174732763 0.3460620046 0.9362172484
-0.2510847151 -0.08399491012 1.015740156 0.03801018745 0.3415451348 0.9373515248
-0.2486988008 -0.07755135745 1.015251398 0.04635020345 0.333609283 0.9374397993
-0.2107464224 0.001754432684 0.9796865582 0.02924795076 -0.3194948137 0.9415498376
-0.2013382614 0.001343861921 0.9832559228 -0.15026021 -0.2342325449 0.9593407512
-0.1980850697 -0.00278203655 0.9835109115 -0.1767750233 -0.2129571736 0.9595043063
-0.2064368725 0.003785360837 0.983715713 -0.04184204713 -0.3111798763 0.9379376769
-0.220875904 -0.003511548508 0.9820743203 0.2878519297 -0.2457288504 0.9107189178
-0.2166165859 -0.0005221238243 0.9796122909 0.1642543375 -0.3029800653 0.9323650599
-0.1982098669 0.003789850278 0.9864313006 -0.2122211605 -0.225433901 0.9495919347
-0.1925200224 0.002759630792 0.9866336584 -0.2091970444 -0.2187493294 0.9518306851
-0.1906322241 -0.001824800973 0.9851916432 -0.2038163543 -0.1974377781 0.9572139382
-0.1896416247 0.01021604985 0.9923773408 -0.2413862348 -0.2383859456 0.9405199885
