# .PCD v0.7 - Point Cloud Data file format
VERSION 0.7
FIELDS x y z normal_x normal_y normal_z
SIZE 4 4 4 4 4 4
TYPE F F F F F F
COUNT 1 1 1 1 1 1
WIDTH 512
HEIGHT 1
VIEWPOINT 0 0 0 1 0 0 0
POINTS 512
DATA ascii
-0.0731279254 -0.05739398673 0.9923526049 -0.2212485969 -0.09687077254 0.969936192
-0.1160939708 -0.2323770672 1.075454593 -0.1726875305 -0.5418000817 0.8225762844
-0.08956611156 -0.2363943905 1.077878833 -0.03011055477 -0.524308145 0.8482269645
-0.1810094565 -0.1546561569 1.028019428 0.2343199551 0.4265556633 0.8734039664
-0.1294487119 -0.05707424134 0.9765990973 0.142988354 -0.287653476 0.9415476322
-0.0736887902 -0.2323376387 1.0791924 0.09354341775 -0.3885818422 0.9132695198
-0.06555709988 -0.2286064327 1.077940106 0.1581562608 -0.3257101476 0.9269881845
-0.05978534743 -0.2236396074 1.074491143 0.2555425465 -0.2898664773 0.9177452326
-0.07960836589 -0.232929647 1.076661706 0.0994958058 -0.4428367317 0.8824631572
-0.07327891886 -0.2243946493 1.078291655 0.162616387 -0.3724824786 0.9035047889
-0.0659660846 -0.2236789912 1.076359749 0.2137093544 -0.3265249431 0.9117603898
-0.07963068038 -0.2266772091 1.079276681 0.1142726988 -0.4188162088 0.8934182525
-0.1197900996 -0.2292985618 1.079974413 -0.1726875305 -0.5418000817 0.8225762844
-0.1260722727 -0.2293204367 1.077488065 -0.1726875305 -0.5418000817 0.8225762844
-0.1089828387 -0.2331858873 1.075468659 -0.1331976354 -0.5758296847 0.8050802946
-0.205376476 -0.11762999 1.014172196 0.244593516 0.2070594281 0.9469653368
-0.2114978731 -0.1196273789 1.018485546 0.2390791774 0.2250029892 0.9445009232
-0.2087598741 -0.1135616824 1.016062379 0.2393370271 0.1921855956 0.95133394
-0.1319998503 -0.2299228013 1.069920421 -0.1726875305 -0.5418000817 0.8225762844
-0.2077734917 -0.1244086847 1.019526243 0.2401340902 0.2686780691 0.9295242429
-0.1987950057 -0.138065055 1.019286871 0.2424695492 0.3727206588 0.8926771283
-0.2032645345 -0.1319138259 1.018415093 0.2431414425 0.3171388805 0.9119616151
-0.049237106 -0.2057242244 1.076034665 0.3075819016 -0.1772091091 0.9315501451
-0.05390390381 -0.2118915021 1.07699883 0.2925548255 -0.1984244138 0.9316322803
-0.08749212325 -0.2283394635 1.080346823 0.03720418736 -0.44835186 0.8904629946
-0.07765129209 -0.2289236337 1.084220529 0.0939841494 -0.4119324684 0.9054924846
-0.1214222386 -0.232258141 1.069234729 -0.1726875305 -0.5418000817 0.8225762844
-0.0583701618 -0.2179005295 1.085408092 0.2371249646 -0.209909007 0.9462338686
-0.05719642341 -0.2218712717 1.07935679 0.2555357814 -0.2508581579 0.9330016375
-0.05392710119 -0.2184037715 1.082790136 0.2710417807 -0.2275091857 0.9337614179
-0.203472048 -0.07521661371 0.9969223142 0.1937649846 0.0601215139 0.9777792692
-0.192658633 -0.0674706623 1.008297563 0.1548430324 -0.04489511624 0.9862470627
-0.1847940832 -0.08624158055 0.9994294643 0.2894238532 0.04974368215 0.9493651986
-0.1920295656 -0.08355211467 0.9971493483 0.2585578263 0.06454560161 0.958529532
-0.1995428056 -0.07962568104 0.9939032793 0.2293138653 0.0662792474 0.9678167701
-0.1953143179 -0.09100835025 0.999535501 0.2011137605 0.1257720143 0.9704449773
-0.1989760995 -0.09467359632 1.003537655 0.2280854881 0.1217809916 0.9652698636
-0.1934059262 -0.09621760994 1.003087521 0.2103396952 0.1371046454 0.9670224786
-0.2003876567 -0.08623310924 0.9972776771 0.2062592804 0.107436806 0.9717445374
-0.1908631921 -0.1018703505 1.006800294 0.2184199393 0.1505302191 0.9635695219
-0.1895538867 -0.09113939852 1.002905846 0.2512158155 0.1370861232 0.9571095705
-0.1854110807 -0.09628088027 1.005669117 0.2501366138 0.1537063569 0.955191195
-0.04736584052 -0.1944998801 1.079934478 0.3170531988 -0.1075418964 0.9421876073
-0.02519167401 -0.1887583137 1.074122548 0.3289030194 -0.1179682538 0.9369665384
-0.02961163409 -0.1938645244 1.074867725 0.3289030194 -0.1179682538 0.9369665384
-0.04468382522 -0.1983972192 1.076309919 0.3221017122 -0.138347134 0.9349574447
-0.04539363086 -0.2111734301 1.075137496 0.3063300848 -0.1714118719 0.9345753193
-0.05260493606 -0.218668282 1.074235201 0.288611263 -0.2344391942 0.9263470769
-0.03888041899 -0.2047501206 1.078829646 0.3156457841 -0.1179410443 0.9409208298
-0.04249740392 -0.2086023539 1.08336556 0.309917748 -0.1350529492 0.939815104
-0.04702508077 -0.213187024 1.080638885 0.2995485067 -0.1642042994 0.9381998181
-0.03409637883 -0.1896297038 1.075920463 0.3289030194 -0.1179682538 0.9369665384
-0.03621428087 -0.1994485408 1.074107647 0.3289030194 -0.1179682538 0.9369665384
-0.04062926397 -0.1909892857 1.07655859 0.3289030194 -0.1179682538 0.9369665384
-0.1805761456 -0.08025386184 0.9967734814 0.2893275321 -0.06333405524 0.948800385
-0.1887753159 -0.06927488744 1.004691005 0.1800559163 -0.07435057312 0.9785636067
-0.1842954159 -0.07669748366 0.9967512488 0.2365148962 -0.09159065783 0.9606050849
-0.1885436028 -0.07283756882 1.000534892 0.2036111355 -0.06748307496 0.9714337587
-0.1908437312 -0.07643888146 0.9958778024 0.2227404118 -0.04053822905 0.9661947489
-0.1943052113 -0.0708578974 1.001830816 0.180117473 -0.02684098296 0.9797698855
-0.1959174126 -0.07407514751 0.9977500439 0.1980242878 -0.006263111252 0.97474581
-0.07184525579 -0.06172164902 0.9886934161 -0.2136871964 -0.05354871973 0.9734296799
-0.120747976 -0.05871574581 0.9758948088 -0.04876384884 -0.2560831606 0.9621728063
-0.1660025269 -0.1463020295 1.016000509 0.2440102696 0.3711923659 0.8947011232
-0.170971632 -0.1487012953 1.019729495 0.2362083942 0.3921931684 0.8880563974
-0.1659895629 -0.1420129985 1.011772156 0.2327643484 0.3508360684 0.9066628218
-0.1671761423 -0.1360163242 1.009561777 0.2223049104 0.3119988441 0.9233631492
-0.0652385056 -0.06506340206 0.9912170172 -0.2005125284 0.02239213698 0.9794331789
-0.06161962077 -0.07191292197 0.9905735254 -0.2147665173 0.03617007285 0.9756525159
-0.06618539244 -0.07129961252 0.9881532788 -0.2321803868 0.02639254369 0.9718875289
-0.07209800929 -0.07388021797 0.9874780774 -0.2520411611 0.004820367787 0.9674507976
-0.02015110664 -0.1696215719 1.076802611 0.3257579803 -0.1168830767 0.9381753206
-0.07051349431 -0.2272669822 1.083948135 0.1312039942 -0.3291495442 0.9311032891
-0.06514462829 -0.2186813354 1.088011861 0.1786347181 -0.2517305911 0.9505961537
-0.06507532299 -0.2256145477 1.083738446 0.1568615586 -0.2740146518 0.9473192692
-0.07862114161 -0.2119530737 1.08748579 0.1331739575 -0.3287099898 0.9310061932
-0.06334850192 -0.2179001272 1.078478098 0.2297301143 -0.2548468411 0.9342562556
-0.07051055878 -0.2135197818 1.082890749 0.1795769632 -0.2533704042 0.9428927898
-0.07546778023 -0.2180167139 1.081635356 0.1625897735 -0.3597379625 0.9129074812
-0.08044882864 -0.2230119556 1.086924553 0.1115214229 -0.3846965134 0.9122536182
-0.07432410121 -0.220473364 1.088229537 0.1328440458 -0.3246003985 0.9315903783
-0.02674978226 -0.1828382909 1.074963808 0.3259818256 -0.1169603169 0.9380892515
-0.02481082641 -0.1755018681 1.075929523 0.3287217021 -0.1179056913 0.9370362163
-0.02690652385 -0.1879975051 1.079360247 0.3289030194 -0.1179682538 0.9369665384
-0.02027428709 -0.1797492504 1.074226499 0.3289030194 -0.1179682538 0.9369665384
-0.03445710242 -0.1826923937 1.078228712 0.322753042 -0.1158462316 0.9393302202
-0.04011199251 -0.2021741271 1.083380103 0.3107385039 -0.1019857451 0.9449698925
-0.03844963014 -0.1956981122 1.082258105 0.3172653317 -0.1077285409 0.9420941472
-0.03678718582 -0.1888964921 1.081076026 0.3240734637 -0.1137188375 0.9390944839
-0.03124970198 -0.1770159453 1.077200294 0.3147596121 -0.1130881459 0.942402482
-0.09681992233 -0.23477754 1.077302814 -0.07923039794 -0.5669612288 0.8179542422
-0.09607943892 -0.2257492691 1.081364393 -0.05529524386 -0.4771004021 0.8692045808
-0.09222450107 -0.2280844152 1.08453548 -0.02990933321 -0.4436946511 0.8946067691
-0.08588985354 -0.2335385829 1.083907127 0.02857715636 -0.4490557015 0.8925058246
-0.100309819 -0.2290755808 1.083764434 -0.08999270201 -0.4794754386 0.8724603057
-0.1055270508 -0.2295822948 1.082345486 -0.1015730575 -0.5178451538 0.8481522202
-0.1319062263 -0.228892222 1.075591683 -0.1726875305 -0.5418000817 0.8225762844
-0.1058836579 -0.2217594087 1.082343936 -0.1042216569 -0.4812870026 0.865680933
-0.1101104841 -0.2265421748 1.078205347 -0.1295361221 -0.5217946768 0.8369930387
-0.1002372652 -0.2213316709 1.082356095 -0.0687379092 -0.4391684532 0.8892276287
-0.09457538277 -0.218315348 1.085175753 -0.03390973806 -0.4018402398 0.9142388701
-0.08587786555 -0.2160919905 1.085384369 0.09097203612 -0.4109201729 0.9053236842
-0.1158573553 -0.2258941978 1.078536391 -0.1661950648 -0.5370676517 0.8263652325
-0.1047123671 -0.219599247 1.08818531 -0.09456984699 -0.4726220965 0.8757249713
-0.1128795296 -0.2307922095 1.080718756 -0.1726875305 -0.5418000817 0.8225762844
-0.1203228086 -0.224501282 1.083985329 -0.1726875305 -0.5418000817 0.8225762844
-0.1133115143 -0.2261564434 1.085508108 -0.1726875305 -0.5418000817 0.8225762844
-0.1110125706 -0.2218593806 1.087630391 -0.1267129928 -0.4898933768 0.860770762
-0.05647372827 -0.2069543451 1.086183071 0.2602601051 -0.1739609987 0.9480657578
-0.0626649186 -0.213479057 1.088230371 0.2038378716 -0.2139532566 0.9524799585
-0.05560989678 -0.2121170759 1.085725665 0.2649039924 -0.1638811082 0.9491648674
-0.06999481469 -0.2143419534 1.089972734 0.1565708071 -0.2624770105 0.951794982
-0.05589559302 -0.2020742297 1.082090855 0.2751478553 -0.1321737021 0.9487370253
-0.06215383485 -0.21185112 1.080817461 0.2317193449 -0.1971186846 0.9480147958
-0.05863398314 -0.2077049613 1.080976605 0.2567436397 -0.1694368273 0.9465961456
-0.0522823073 -0.1980272233 1.082168102 0.3009290397 -0.1051251739 0.946998477
-0.06821415573 -0.2062357813 1.085795045 0.1829894483 -0.1613799185 0.9676632285
-0.05817227438 -0.2151528746 1.077706814 0.2635628581 -0.2180649787 0.9356287122
-0.06134835258 -0.2021911591 1.084440827 0.233590886 -0.1338206232 0.9594419599
-0.1987648457 -0.07306684554 1.00999999 0.1803123504 0.04609549046 0.9811659455
-0.2109516561 -0.1076749638 1.015930176 0.2378603816 0.170640707 0.9559896588
-0.1962866932 -0.1233929396 1.011450887 0.2243534178 0.2494170368 0.9416727424
-0.2039379925 -0.111390233 1.013568282 0.2361441851 0.1704982519 0.9562234879
-0.1984053552 -0.1130358651 1.012458682 0.2359602749 0.1793127805 0.9548804164
-0.2002615631 -0.1072834507 1.011973739 0.2400795668 0.1537173092 0.9582110643
-0.1988994628 -0.1283142865 1.019516468 0.2398631573 0.3194656968 0.9109314084
-0.1992389411 -0.1221362352 1.016581535 0.235853821 0.2541348636 0.9329761267
-0.1946118921 -0.1328461021 1.020643234 0.241373986 0.3702559769 0.8931031227
-0.2011943907 -0.1269854307 1.014224529 0.245425269 0.2800393105 0.9258174896
-0.1976215243 -0.1338745356 1.016164184 0.2379381359 0.3484803736 0.9040759206
-0.1856428832 -0.133009389 1.012873054 0.2210654765 0.3286164701 0.9172279239
-0.1948948056 -0.1286698431 1.012918353 0.223709926 0.3041306436 0.9241576195
-0.189751327 -0.1278137267 1.016970873 0.2138783187 0.3112491667 0.9190604687
-0.193404898 -0.1169793755 1.012830257 0.2207776606 0.2018817216 0.9518825412
-0.1773682386 -0.1100378484 1.037145138 -0.3407147527 -0.0946559906 0.5893544555
-0.1837994456 -0.1206895709 1.017621517 0.07838781923 0.1756540537 0.8704016805
-0.1756850481 -0.1131869629 1.041308403 -0.4066532254 -0.1024428234 0.5249122977
-0.1790316701 -0.1183735803 1.026168942 -0.1022555605 0.07264775038 0.7423655391
-0.1775500923 -0.1154400632 1.035909295 -0.2935605347 -0.03390001133 0.6032874584
-0.1724637449 -0.1092430651 1.050883174 -0.6066311598 -0.2232145965 0.3860266209
-0.1793503314 -0.1196339577 1.021073818 -0.005266576074 0.1242370829 0.8145563602
-0.1737416089 -0.1147950888 1.028078318 -0.1735340804 0.006338922307 0.7089527845
-0.187316671 -0.1409741044 1.017407417 0.2363453507 0.4004252553 0.8841270208
-0.1934362203 -0.1389376968 1.01704967 0.2342795432 0.3846925795 0.8922258019
-0.0485282056 -0.2097871602 1.085080504 0.313147217 -0.1817930639 0.9317363501
-0.04591130838 -0.2025593519 1.083154917 0.316614151 -0.1219137013 0.9403722882
-0.05083306879 -0.2039582282 1.084376097 0.2985277474 -0.1463178694 0.9426742792
-0.1401877403 -0.06585857272 0.9802097678 0.4344571233 -0.3763151765 0.8087416887
-0.09791723639 -0.06300019473 0.9865441918 -0.2746341527 -0.1598827988 0.9478555322
-0.07650018483 -0.06232266501 0.9927396774 -0.2430559993 -0.05344583467 0.9677020907
-0.1824444234 -0.07013662159 1.005295634 0.2028086185 -0.1614442468 0.9643550515
-0.1792240441 -0.07359685004 1.001636267 0.2244732082 -0.1618970186 0.9598049521
-0.1925551146 -0.075041309 1.010025263 0.1643007696 -0.01419455092 0.9813415408
-0.1355372816 -0.06363642961 0.9767827392 0.3019987047 -0.3014397323 0.889261961
-0.1387420893 -0.07147880644 0.9763829112 0.3881887197 -0.3064101636 0.8533097506
-0.1448121965 -0.06285388023 0.9879801273 0.5073234439 -0.3862201571 0.7617012858
-0.1374596804 -0.0595606938 0.9818611741 0.3519157767 -0.4077339172 0.8382322788
-0.07727432251 -0.0561103411 0.9883448482 -0.222748816 -0.1200507432 0.9671568871
-0.08263064176 -0.05733966082 0.988435328 -0.2316275239 -0.1587765664 0.959256351
-0.0818220377 -0.06212118641 0.9913743734 -0.2547161877 -0.08047580719 0.9618063569
-0.09518404305 -0.05830126256 0.9887683988 -0.2731118202 -0.148985371 0.9502806067
-0.1152457595 -0.05628556386 0.9778643847 -0.1156624928 -0.211718753 0.9698217511
-0.1071069166 -0.0573386848 0.9834489822 -0.2138146758 -0.1891910285 0.9576027989
-0.1094829291 -0.06316126138 0.9793236852 -0.2065089792 -0.2010744214 0.9567090273
-0.1001992449 -0.05656028539 0.9861068726 -0.2352391034 -0.1786515713 0.9553748965
-0.1029295772 -0.06201625988 0.9824636579 -0.2360323519 -0.1868158877 0.9535748959
-0.08848363906 -0.05729689077 0.9878665805 -0.2341733277 -0.1786998808 0.9556258917
-0.1003359631 -0.07406006008 0.9781189561 -0.294012785 -0.141585052 0.9436476827
-0.101070486 -0.06811526418 0.9800361395 -0.2563628852 -0.1736963093 0.949562192
-0.09245029837 -0.06351492554 0.9841615558 -0.2517056465 -0.1699579656 0.9517111778
-0.09511572123 -0.07069033384 0.9808262587 -0.2876870334 -0.1422503889 0.9455109239
-0.1823870242 -0.1052248552 1.006780624 0.2017028779 0.1779066622 0.9627754688
-0.187082991 -0.1111666709 1.00863409 0.201300934 0.1582915783 0.9659437537
-0.1945276707 -0.1071072519 1.010608792 0.236996904 0.1518223882 0.9592709541
-0.1757244021 -0.08736600727 1.006364703 0.2813664079 0.07999192923 0.9414855838
-0.1702253819 -0.07360746711 1.008657098 0.304089427 -0.09617488831 0.9331442714
-0.1828275919 -0.08626352996 1.007502437 0.2572201788 0.05431132764 0.9530889988
-0.1815652996 -0.08087601513 1.008180141 0.2524501979 -0.006637832616 0.9536744952
-0.1764944494 -0.07233311981 1.009254694 0.2678221464 -0.1095476672 0.9468066096
-0.1761086732 -0.07798856497 1.008543372 0.2856140733 -0.04905898124 0.9418461323
-0.03271210194 -0.197434321 1.078936338 0.3250442445 -0.1145730242 0.9386667013
-0.141657263 -0.2236976475 1.06957531 -0.1726875305 -0.5418000817 0.8225762844
-0.1364143044 -0.2231698483 1.069432974 -0.1726875305 -0.5418000817 0.8225762844
-0.1307663172 -0.2235142887 1.072418571 -0.1726875305 -0.5418000817 0.8225762844
-0.1259020567 -0.2250830382 1.073672652 -0.1726875305 -0.5418000817 0.8225762844
-0.1266677678 -0.2299097031 1.068221807 -0.1726875305 -0.5418000817 0.8225762844
-0.1377564222 -0.2239711881 1.075313926 -0.1726875305 -0.5418000817 0.8225762844
-0.1299599707 -0.2249521613 1.080119133 -0.1726875305 -0.5418000817 0.8225762844
-0.203051582 -0.0785331279 1.008721471 0.1932253838 0.09647861868 0.9760714769
-0.2024402618 -0.08566490561 1.010614991 0.1770747453 0.123523429 0.9762850404
-0.2062463164 -0.09731703997 1.012780786 0.2110152245 0.1639261544 0.9634631276
-0.1997831464 -0.09351176023 1.01117301 0.2246793956 0.1417802423 0.9630359411
-0.1964390576 -0.08704652637 1.010299563 0.1909568459 0.1102064103 0.9748464227
-0.2019524425 -0.1017962024 1.009891033 0.2334126979 0.1318349242 0.9631448388
-0.204436332 -0.08957454562 1.001037002 0.216640383 0.1065924168 0.9698374867
-0.1978103518 -0.09966145456 1.007111549 0.2353110015 0.1321831793 0.9624348879
-0.2055882365 -0.08512572944 0.9978807569 0.210273698 0.09714630991 0.9723754525
-0.1845408976 -0.09958019108 1.020812154 0.02077045105 0.04369127378 0.8047952652
-0.1830879003 -0.1047806144 1.023689628 -0.07208699733 -0.000329878123 0.7738174796
-0.1869698465 -0.1060103029 1.012822986 0.1392710954 0.1014472395 0.9313825965
-0.1810520142 -0.1032259613 1.029579759 -0.180724591 -0.05275452137 0.6866827011
-0.1724132299 -0.1028087884 1.049456835 -0.5824682117 -0.2381690592 0.3955024183
-0.1709677279 -0.1029918939 1.055765033 -0.7093322873 -0.3040498197 0.3098751307
-0.1756621003 -0.1032564044 1.024461508 -0.09257613868 0.03021702357 0.7259102464
-0.1834690869 -0.1003591567 1.014419198 0.137789771 0.1187848002 0.8819437027
-0.1790370643 -0.1021194011 1.018666148 0.0345338881 0.08467723429 0.811907053
-0.1759017408 -0.1016111523 1.043748379 -0.4564183056 -0.1850123107 0.4807969332
-0.178043887 -0.103244178 1.010422707 0.1854493022 0.1793078929 0.9134814143
-0.1792020798 -0.100764893 1.034737229 -0.2688205838 -0.0945623368 0.6075394154
-0.1714034081 -0.1040755883 1.039524317 -0.3996681571 -0.1247032359 0.5185573101
-0.1879429072 -0.09851402789 1.010991812 0.2257457078 0.1436516643 0.9416764379
-0.1936815977 -0.09292165935 1.010404348 0.2384824455 0.1259655356 0.961959362
-0.1822117716 -0.07544919103 1.009955287 0.2338864952 -0.07599154115 0.9584234953
-0.1887605488 -0.08777244389 1.010031581 0.2244850546 0.06987024844 0.9633010626
-0.1872780472 -0.07788728178 1.010044456 0.2113964111 -0.02006483451 0.9664666057
-0.1924189031 -0.08309394866 1.010082364 0.1944939345 0.05926487595 0.9729844332
-0.1800030768 -0.1395498216 1.015833139 0.2307828665 0.3896058202 0.8896107078
-0.1711574197 -0.1388080716 1.011941075 0.2252806574 0.340413183 0.9122834802
-0.1731397957 -0.1433423012 1.015664935 0.2370994985 0.3936526775 0.8877139091
-0.1862675101 -0.1532373428 1.028045654 0.2429822385 0.4260251522 0.871348083
-0.1915856302 -0.1421936452 1.023761034 0.2484006584 0.4159636199 0.8746814728
-0.1322835833 -0.06327437609 0.9821749926 0.271692127 -0.3330671191 0.8846982718
-0.1225309521 -0.06051779538 0.9821382761 0.07607416064 -0.2704493999 0.9215422869
-0.1160903126 -0.05940873548 0.9841127992 -0.02664470486 -0.2380764484 0.9282771945
-0.1267490834 -0.06674179435 0.9811146855 0.06569416821 -0.2508947551 0.9632861614
-0.1177768856 -0.06755827367 0.9821126461 -0.06999444962 -0.2075961679 0.9629756808
-0.1223777235 -0.06962380558 0.9757770896 -0.009507331066 -0.2388658673 0.9679319859
-0.1279518753 -0.07339769602 0.9756131768 0.114018105 -0.2556227744 0.9512298703
-0.1307119876 -0.067595236 0.9754713774 0.1699982733 -0.2852084339 0.9320393801
-0.125608027 -0.06460037827 0.9754284024 0.04265830666 -0.2719350457 0.957639873
-0.1668859422 -0.06601217389 1.007907391 0.3456168175 -0.1575458646 0.9226987958
-0.1747424155 -0.06659047306 1.008020759 0.2830438316 -0.1528942883 0.9432905316
-0.1731031686 -0.07062172145 1.003907681 0.2951693535 -0.1599080265 0.9402021766
-0.06038312614 -0.07717716694 0.9883984327 -0.2449372411 0.03630828857 0.9688245058
-0.06272808462 -0.09467035532 0.9957398772 -0.2592410445 0.07029402256 0.9624583125
-0.06672882289 -0.09772621095 0.9931646585 -0.2789991498 0.09375692904 0.9552237988
-0.06053175405 -0.08309381455 0.9899330139 -0.2391062826 0.04230578616 0.9696901441
-0.05905564874 -0.08997060359 0.9977868795 -0.2375523001 0.04305795953 0.9703193307
-0.06511725485 -0.07626063377 0.9949928522 -0.2301480621 0.01223365683 0.9721399546
-0.07043932378 -0.0676959753 0.9937940836 -0.2346196324 -0.01854752004 0.9712212682
-0.0610081479 -0.08024805039 0.9949700832 -0.2184006572 0.03880978748 0.9747521877
-0.15936777 -0.1340432614 1.008340955 0.2410907447 0.2909356952 0.9251065254
-0.1585738808 -0.1401324123 1.009585619 0.2580146194 0.3275100589 0.9086363316
-0.1616500318 -0.1163860336 1.06825912 -0.8893828392 0.1090781316 0.1357093304
-0.1608498991 -0.1330810338 1.070665598 -0.7614287734 0.6237218976 0.04522757232
-0.1642838269 -0.1261867434 1.071931362 -0.8641327024 0.4603056908 0.1488444358
-0.1745764166 -0.1460373402 1.047633648 -0.1926956177 0.6289598942 0.4469786584
-0.1846388429 -0.145233348 1.033476353 0.1037941203 0.474508673 0.7349717021
-0.1874672621 -0.1476728767 1.028451324 0.2207339555 0.4316227138 0.8477638364
-0.182475701 -0.1394367069 1.038333774 -0.03926502913 0.5229346752 0.5996597409
-0.176887095 -0.1400918663 1.046849847 -0.1956293732 0.5859045982 0.44511801
-0.1796373278 -0.1360928863 1.043607712 -0.1688355356 0.5695323944 0.4752939939
-0.1867161691 -0.1377718747 1.032173395 0.06344953179 0.4797972739 0.702350378
-0.1883205175 -0.1416312456 1.028684258 0.1635524035 0.4456296265 0.797219336
-0.1829220951 -0.1540084779 1.033879995 0.1727246195 0.4597667754 0.7944831252
-0.1731519252 -0.1366477907 1.053543329 -0.3530934453 0.6434236169 0.2933902442
-0.1808940321 -0.1457864195 1.039153337 0.000573500758 0.5162501335 0.6328396201
-0.1779778302 -0.1482552141 1.043048382 -0.05200402811 0.5406529903 0.5787376761
-0.08932889253 -0.07378348708 0.9829071164 -0.2873863578 -0.09323145449 0.9519520998
-0.0827948451 -0.07046318799 0.9883607626 -0.2715499401 -0.06999383122 0.9555646777
-0.08227831125 -0.08416073024 0.9875833392 -0.3188999891 0.04938575625 0.9460429549
-0.08588291705 -0.07836364955 0.9872195125 -0.3068276644 -0.0158959087 0.9466264844
-0.08829678595 -0.06721496582 0.9871014357 -0.2743921876 -0.1301023513 0.9508885145
-0.1539153457 -0.08821121603 0.9779260159 0.5610116124 -0.3004251719 0.7650312185
-0.1683746874 -0.08284948766 0.9919093847 0.3763920665 -0.1721553802 0.8908035159
-0.1732024699 -0.0805465281 0.9969039559 0.3125810325 -0.1260238588 0.9347556829
-0.1540887803 -0.0824983865 0.9816914797 0.5344998837 -0.2942621708 0.7779513001
-0.1682579219 -0.07691510767 0.9940510392 0.338899672 -0.2055350393 0.8989461064
-0.1636376977 -0.07841844112 0.9902431369 0.4014782608 -0.2343864888 0.8599601984
-0.1576010585 -0.07895488292 0.9862682223 0.4778322875 -0.2717215121 0.811126709
-0.1504407972 -0.07682810724 0.9834893942 0.5579295754 -0.3153061271 0.7572764754
-0.147178635 -0.07907211781 0.9785063863 0.5641863346 -0.3251415789 0.7581654191
-0.1425966173 -0.09034428 0.9702420235 0.2996534109 -0.2744171023 0.8651744127
-0.1429085582 -0.08392600715 0.972889483 0.3989518285 -0.298648268 0.8289666176
-0.1359454393 -0.09330751747 0.9651272297 0.0841467306 -0.246040225 0.950884223
-0.1569937319 -0.1029613614 0.9880383015 0.4383186698 -0.1041440517 0.8285141587
-0.1484491825 -0.09153562784 0.976141572 0.5203746557 -0.2957389355 0.7972584367
-0.1585982144 -0.1072367132 0.9925468564 0.3851423562 -0.02581125312 0.8576473594
-0.1621329784 -0.1194929481 1.003708959 0.2479773015 0.17038849 0.9299589396
-0.1616437733 -0.1130151525 1.000142813 0.2998391986 0.1043367833 0.9068928361
-0.1465501785 -0.0745106414 0.9909147024 0.4445559978 -0.2792528272 0.7992352843
-0.1395151168 -0.07433880121 0.9867531061 0.3025295138 -0.2493640035 0.862454772
-0.144995153 -0.07154221088 0.982337296 0.568315804 -0.3431053758 0.7471109629
-0.1319261789 -0.06954462826 0.9829345345 0.1739279181 -0.2529830933 0.9226652384
-0.1401636153 -0.06827258319 0.9876660705 0.3459794521 -0.2980954945 0.8352895975
-0.181877315 -0.1156457886 1.007418036 0.176739797 0.1733798981 0.9681856632
-0.1822743565 -0.1214301735 1.008366346 0.1882987022 0.2118736207 0.9578473568
-0.1887804717 -0.122115612 1.009542465 0.2033766955 0.2294551432 0.9504597783
-0.1772693247 -0.1197432429 1.007284641 0.1745511591 0.1907919049 0.9655271173
-0.1699051261 -0.1309733093 1.008671045 0.2050025612 0.2735545039 0.9379161596
-0.1743628234 -0.1341713816 1.010776877 0.2142518461 0.3112727404 0.9254459143
-0.1662203521 -0.1238016263 1.007000089 0.196616888 0.2234476358 0.9541196227
-0.1642459482 -0.1297799796 1.007000089 0.2054844797 0.2547216117 0.9434300065
-0.1709730625 -0.1202981398 1.006888986 0.188390553 0.20191966 0.9606122375
-0.1785447448 -0.09497597814 1.004929066 0.2696354091 0.1772505492 0.9458584189
-0.1756851822 -0.08963928372 1.001497507 0.3109869063 0.06692749262 0.9395887256
-0.2046778649 -0.07681617886 1.002653599 0.1971661448 0.08606829494 0.9765198231
-0.2057626992 -0.08431482315 1.00665772 0.1853653789 0.1101099625 0.9762160778
-0.2082228512 -0.09086800367 1.010832191 0.1922092885 0.1338460445 0.9717752934
-0.2063078433 -0.09411521256 1.00590241 0.217186749 0.1192379519 0.9682590365
-0.2101411968 -0.1017118469 1.014800072 0.2224044949 0.1540092975 0.9624893665
-0.1592337191 -0.1347918808 1.016611218 0.1347128004 0.3395198882 0.8106235862
-0.1636499614 -0.1281898022 1.026982903 -0.1008355394 0.3594208956 0.66549474
-0.1605506837 -0.132397294 1.024243236 -0.02125509828 0.3697403967 0.6949514747
-0.162975803 -0.1303439736 1.013179064 0.1659153104 0.2909994125 0.8825498819
-0.1592852026 -0.1329421848 1.035630107 -0.2249375135 0.440862447 0.507532835
-0.164718166 -0.1275589019 1.01919353 0.03667667508 0.3091367185 0.7946311831
-0.1588162631 -0.1325917095 1.045738697 -0.4116330147 0.4987257123 0.3441605866
-0.1621633917 -0.1289045513 1.039563298 -0.3250748515 0.4387111664 0.4580233097
-0.1759818047 -0.1522494853 1.025651336 0.1922717243 0.4240983427 0.8581784368
-0.1732013375 -0.1491093189 1.033820987 -0.005229799543 0.4957588911 0.6839019656
-0.1700497419 -0.1455025524 1.041410804 -0.1896099746 0.5415107608 0.5238751173
-0.1630265713 -0.137479201 1.057819605 -0.588110745 0.6318020225 0.1792952716
-0.1772699803 -0.1535365283 1.03220427 0.03213966638 0.625739336 0.6954912543
-0.1747590899 -0.1509802788 1.0396415 -0.1329012215 0.6912716627 0.5420735478
-0.1689860225 -0.1458148956 1.051069736 -0.3395952582 0.7016995549 0.3394831121
-0.1633118242 -0.1374249905 1.064607143 -0.6016664505 0.7209521532 0.08034681529
-0.1659149677 -0.1429255456 1.056640863 -0.4508143663 0.7002313733 0.2378070503
-0.1596538723 -0.1371188611 1.040383577 -0.2893574536 0.4882538915 0.4371486604
-0.1585307866 -0.1338308156 1.055992723 -0.5933378935 0.5649104118 0.1802988499
-0.1636158079 -0.140533939 1.033210993 -0.1089713126 0.4550283849 0.5892145038
-0.1634585112 -0.1373953968 1.051068425 -0.443416059 0.5433800817 0.3065083921
-0.1676721573 -0.1444207281 1.023583412 0.1182525456 0.4096988738 0.7808644772
-0.1582868546 -0.132709384 1.061766267 -0.7037490606 0.5933637023 0.08698884398
-0.1651472151 -0.1399124563 1.041800022 -0.2508476079 0.4984556139 0.4691155851
-0.1687197387 -0.1438951492 1.030046582 0.0102542229 0.4423167109 0.6894560456
-0.1600155681 -0.1407460719 1.020327568 0.0884495452 0.3891317248 0.7564892173
-0.1633069217 -0.1416334361 1.025778174 0.02581305616 0.4180364609 0.7031875253
-0.1582854539 -0.137386322 1.031508446 -0.1399087161 0.4410004318 0.5641624928
-0.157319352 -0.1272864193 1.070398808 -0.8476869464 0.5106614828 0.07841013372
-0.1823144406 -0.1493584812 1.023709536 0.2244776338 0.4195772409 0.8795152903
-0.1787097901 -0.1455738097 1.019472837 0.2327762693 0.4123393297 0.8807358742
-0.1891512871 -0.1471977085 1.022548914 0.2335824966 0.4143168628 0.8795875311
-0.1385838687 -0.07882834226 0.9836827517 0.2988663614 -0.2497202456 0.8610835075
-0.1330721974 -0.07496824116 0.9826184511 0.1726733595 -0.2233391553 0.9191285372
-0.1285073608 -0.08372567594 0.9773255587 0.06094411016 -0.2245581448 0.9506475329
-0.1447330117 -0.08294390142 0.9849405885 0.4397700727 -0.2787840068 0.7965894938
-0.1262461245 -0.08832436055 0.9746074677 0.005440758541 -0.2256648839 0.9658998847
-0.1338678002 -0.08117768914 0.9806862473 0.1874780506 -0.2380542457 0.9029224515
-0.1336182952 -0.0866612345 0.9785500765 0.1783505231 -0.2477786541 0.8977144957
-0.1390375942 -0.0923204273 0.9743806124 0.3187491298 -0.2506582737 0.8890299797
-0.1380828321 -0.07989744842 0.9735888839 0.3235561848 -0.2876787484 0.8801719546
-0.114880085 -0.06722861528 0.9762505889 -0.1383262724 -0.1945100874 0.9706785083
-0.1495872587 -0.06405593455 0.9925968647 0.5705890059 -0.3704046607 0.732293725
-0.1485282034 -0.06944179535 0.9881798625 0.5904239416 -0.3338356912 0.734500885
-0.07753503323 -0.07191339135 0.9911025763 -0.2727401257 -0.003366865683 0.9601557255
-0.07953263819 -0.07923523337 0.9897311926 -0.2967232466 0.02340218239 0.95305264
-0.06984836608 -0.07375188917 0.993165791 -0.2430705577 -0.001347738667 0.9690311551
-0.07314538211 -0.08232972026 0.9886315465 -0.2915173769 0.0523497723 0.954457581
-0.06857590377 -0.07957949489 0.9883239865 -0.2642864585 0.03001166135 0.9637066126
-0.1635484844 -0.1230025515 1.039526463 -0.3690155149 0.3323046565 0.5180082917
-0.1665460318 -0.1240328327 1.015150428 0.09196445346 0.250762701 0.8775177598
-0.1679628044 -0.1184083298 1.013548374 0.1159941778 0.2092331946 0.9104248285
-0.1637351066 -0.1257464886 1.033659458 -0.2553153634 0.3285387754 0.600468874
-0.1708414555 -0.1282775849 1.045863152 -0.4577335715 0.4017670751 0.4416782856
-0.1815445572 -0.1308706105 1.016612172 0.1498120874 0.363411963 0.8812923431
-0.1742025018 -0.1207540333 1.016626358 0.05317732319 0.2265643775 0.8683288693
-0.1755262166 -0.1288687736 1.031752229 -0.1709318459 0.3743380606 0.6529200673
-0.166278705 -0.1256559342 1.054686546 -0.6585162282 0.3884476721 0.3067521751
-0.1711076051 -0.1247090846 1.036399007 -0.3031401038 0.329721719 0.5783595443
-0.1770726144 -0.1257834733 1.019205332 0.04968972132 0.3010908067 0.8361965418
-0.1726275384 -0.1286510229 1.040839314 -0.3540739417 0.3942068517 0.517090261
-0.1740308404 -0.1245395392 1.026299119 -0.1035054475 0.302069813 0.7288096547
-0.171081081 -0.1148684844 1.037770271 -0.3612130284 0.01443582214 0.5658900738
-0.1684897244 -0.1128383055 1.053990722 -0.672175169 -0.06537219137 0.3315902948
-0.166392535 -0.1153018475 1.063268065 -0.8426581621 0.01803585142 0.1933604777
-0.1681288928 -0.1234138012 1.046069622 -0.5008270741 0.3148336411 0.4348455071
-0.1715945005 -0.1193240136 1.030756474 -0.2194752991 0.1763247252 0.6630352139
-0.1695183814 -0.1170457378 1.044362903 -0.4814942777 0.08889629692 0.4671640992
-0.1675468832 -0.1206433922 1.051882505 -0.6164206266 0.2134988606 0.3532595336
-0.1735799909 -0.1162099987 1.022706151 -0.07352493703 0.06918781251 0.7841207385
-0.1703394353 -0.1112707183 1.04524076 -0.5098451972 -0.1171251908 0.4610825479
-0.1652825475 -0.1246686354 1.060619116 -0.7734997869 0.3527607024 0.2210993618
-0.1673848927 -0.1163564026 1.024910092 -0.1042619199 0.1466232985 0.7466561794
-0.1657694429 -0.1181562245 1.034126639 -0.2760494351 0.1937943548 0.6071238518
-0.165166989 -0.1155283377 1.049672246 -0.5789372921 0.0666680932 0.3833369911
-0.1599545628 -0.1249263436 1.066231728 -0.8732961416 0.3763798475 0.1200524196
-0.1676147133 -0.1139564589 1.031467438 -0.2350185961 0.04586877301 0.6548967361
-0.1674459279 -0.1070528626 1.058458447 -0.7663327456 -0.2602841854 0.2711285353
-0.1627157182 -0.1203474477 1.055993557 -0.6884484291 0.229840681 0.2803177834
-0.1679195464 -0.1041329727 1.064536452 -0.8891431689 -0.3790509403 0.1874967664
-0.1651702672 -0.1178952754 1.040952921 -0.4069812596 0.170560509 0.5070325732
-0.1605653167 -0.1287206709 1.052195907 -0.5717294216 0.468622148 0.2817176878
-0.1598027796 -0.1272638291 1.060908437 -0.7643235326 0.4427296519 0.1898360103
-0.1684421748 -0.1106434092 1.06732285 -0.8961376548 -0.1328537762 0.1882644296
-0.1682799459 -0.118144542 1.069219828 -0.8929148912 0.1456305385 0.1873313934
-0.1694943011 -0.1230095327 1.071807504 -0.8908227086 0.3388503492 0.2051205337
-0.1702027023 -0.1289527118 1.057923079 -0.6536761522 0.4315051734 0.2863985896
-0.1741259545 -0.1268986315 1.062928796 -0.6767196655 0.4051452577 0.3340757489
-0.1781859845 -0.1290967613 1.053502798 -0.4706509411 0.4070880413 0.4525720477
-0.1903296709 -0.1350625157 1.027366519 0.1133288369 0.4087836742 0.7972593307
-0.1793184876 -0.1322576702 1.048326492 -0.3086930811 0.4997362792 0.4615537822
-0.1835731268 -0.1326937824 1.041549683 -0.1756359786 0.4495152831 0.5901712775
-0.1686787009 -0.1321746558 1.063766122 -0.5975573659 0.6555729508 0.1357431263
-0.1710428298 -0.1275586039 1.067269087 -0.7351892591 0.4818317592 0.2273155898
-0.1720288396 -0.129859671 1.052446246 -0.5426533818 0.4308456779 0.3606736064
-0.1839393675 -0.1338962615 1.027987361 0.007878926583 0.4170329273 0.7426757812
-0.1840715706 -0.1334310621 1.034991264 -0.09635268897 0.4170326591 0.6569922566
-0.1771680415 -0.1319652945 1.036701441 -0.2263762504 0.4247764647 0.5896635056
-0.182946533 -0.1341917813 1.021010399 0.09872547537 0.4179946184 0.8222672939
-0.1700946391 -0.09402862191 0.9984751344 0.3525633812 0.08988783509 0.8962103128
-0.1644108444 -0.08782447875 0.9887976646 0.4491446316 -0.1468991935 0.8530722857
-0.1665005982 -0.09260187298 0.9929563403 0.3952029049 -0.01602441445 0.8683333993
-0.1605416536 -0.08930118382 0.984690547 0.4915919602 -0.1921323985 0.8179772496
-0.1696545333 -0.08797665685 0.9951133728 0.3796376586 -0.04448059574 0.8992076516
-0.1555958092 -0.0721674934 0.9902266264 0.4981901646 -0.2851857841 0.7950966358
-0.1623357087 -0.0739274621 0.9928551316 0.4134653509 -0.2429868281 0.8501058817
-0.1538837999 -0.06830041111 0.9954217672 0.5976628661 -0.3081071675 0.7397263646
-0.1742740124 -0.1269254684 1.008850932 0.1925944388 0.2432621419 0.948682487
-0.1823066324 -0.1255242527 1.012540698 0.1892479509 0.274653703 0.9389998317
-0.1795895249 -0.1309567839 1.010831475 0.2164711356 0.2889623344 0.9318143725
-0.1883157343 -0.1272778958 1.010892153 0.2192962468 0.2699525058 0.9371386766
-0.1595166773 -0.07117757201 1.001689672 0.524584353 -0.1625686437 0.8329172134
-0.156957373 -0.06564207375 0.9992290735 0.5426193476 -0.1751361638 0.8144563437
-0.1692819893 -0.07340727746 0.998344183 0.3469875455 -0.1686123312 0.9083397985
-0.06363932043 -0.08925287426 0.9950423241 -0.2544624805 0.04384061694 0.9657345414
-0.125776425 -0.0783771351 0.9785055518 0.007899767719 -0.2017474324 0.9777985811
-0.1274370998 -0.08379741758 0.9715021253 0.01491890382 -0.2309545875 0.9721801281
-0.1301490366 -0.07934194803 0.9735874534 0.1292399019 -0.250459671 0.950543046
-0.1337001622 -0.08607691526 0.9691341519 0.1240957454 -0.2524364293 0.9509894848
-0.133297354 -0.09253456444 0.9709100127 0.1127981842 -0.191200614 0.9725362062
-0.1006850451 -0.09196848422 0.9784150124 -0.2966563404 -0.04732076824 0.9485526085
-0.09648059309 -0.09401218593 0.9814971089 -0.3063758612 0.00306464918 0.9446254373
-0.173999384 -0.09818398207 1.004589677 0.2848426402 0.1939804256 0.9316760898
-0.1747641563 -0.1086952239 1.006976604 0.2179747671 0.2073273212 0.9528407454
-0.1359425038 -0.09300834686 0.9794800878 0.2165125012 -0.15850088 0.8899675012
-0.1491137445 -0.0847736299 0.9875528216 0.5330844522 -0.2424698621 0.7622949481
-0.1298481822 -0.09265837818 0.975833416 0.07973943651 -0.1961433589 0.9347276092
-0.1448163986 -0.092681624 0.986289084 0.4068750441 -0.09225376695 0.8202332258
-0.1494715661 -0.0903603062 0.9890294671 0.518114984 -0.1129134595 0.7772501707
-0.1552021503 -0.09002067149 0.9929558635 0.6447810531 -0.08106774092 0.7323120236
-0.1418449432 -0.0891777128 0.9834449887 0.3562088907 -0.1924795806 0.8318794966
-0.1557247937 -0.09443984926 0.9814153314 0.5214064121 -0.2243410498 0.7862913609
-0.1664281636 -0.1120211259 1.003749132 0.2600567937 0.151216343 0.9338717461
-0.1704468876 -0.1081202701 1.002245188 0.3044725657 0.1053018048 0.9138039947
-0.1670244783 -0.1035154015 0.998113215 0.3841583431 0.04135565087 0.8755991459
-0.1613046676 -0.09909388423 0.988173604 0.4433163106 -0.1206536517 0.830283761
-0.1642391682 -0.0953162536 0.9988747239 0.5496345162 0.06426617503 0.8193079829
-0.1613461524 -0.09460289776 0.9924363494 0.5451290607 -0.04332020879 0.8050091267
-0.1589682251 -0.09421685338 0.9869587421 0.536898315 -0.1351234615 0.7943899632
-0.1529842317 -0.09599891305 0.9887826443 0.5561183095 -0.08132003993 0.789396584
-0.1472044438 -0.0960457027 0.9804404378 0.4493227303 -0.2112655193 0.8430404067
-0.1563131809 -0.09924638271 0.9940136671 0.5533102751 0.003273841226 0.7891984582
-0.1572550237 -0.1120107695 0.9970354438 0.3198362887 0.06247938424 0.9001989365
-0.1505026221 -0.1002594456 0.9857527614 0.4269707501 -0.1244869232 0.8521847129
-0.1587039232 -0.1023687422 0.9978733063 0.5357733965 0.06637918949 0.7964639068
-0.1110660061 -0.06916096061 0.9823423624 -0.1702070534 -0.1765454561 0.9591339827
-0.115617916 -0.07321585715 0.9810966849 -0.1200756356 -0.1683566272 0.9638293982
-0.1058392897 -0.06641169637 0.9832596779 -0.2327094525 -0.1775809526 0.9530915618
-0.1255146712 -0.0727416873 0.9810000062 0.01378836483 -0.191907689 0.9773907065
-0.1091051474 -0.07692410052 0.9810000062 -0.2115584463 -0.1419077069 0.9549663067
-0.1028776467 -0.07816341519 0.9810000062 -0.2968492508 -0.1239681616 0.9464232922
-0.1116097718 -0.09262295067 0.9761542082 -0.1995620579 -0.1200269014 0.9690620899
-0.1068902984 -0.09326022863 0.9792391658 -0.2642445564 -0.07427600771 0.9573201537
-0.1030311286 -0.08559150249 0.9769607186 -0.2824577391 -0.08658192307 0.9542304873
-0.09279818088 -0.07625276595 0.9858411551 -0.3211959898 -0.07435496897 0.940546751
-0.0948317945 -0.06947520375 0.9862851501 -0.3068274856 -0.1303054392 0.9414620996
-0.09835831076 -0.08303789049 0.9824080467 -0.3257547021 -0.07771274447 0.9411554933
-0.0948863402 -0.07910357416 0.9796202183 -0.3229694068 -0.08241775632 0.9407195449
-0.09295148402 -0.08587694913 0.984442234 -0.3467828333 -0.02498133853 0.9370003939
-0.09379825741 -0.09369763732 0.9861690998 -0.353684485 0.00823458191 0.9351098537
-0.08656728268 -0.08891425282 0.9859033823 -0.3254210651 0.06772973388 0.9412565231
-0.06806638092 -0.09098488092 0.9908204079 -0.2783628404 0.07694690675 0.9567947388
-0.06842104346 -0.08533753455 0.9890877604 -0.2739215791 0.06184475124 0.9591577649
-0.07301466167 -0.09725025296 0.9929633737 -0.2994965911 0.1256605983 0.9456181526
-0.07688461989 -0.09034693241 0.9908522964 -0.3091851473 0.07726706564 0.9472026825
-0.08702226728 -0.09437415749 0.9884973764 -0.336915344 0.04376255348 0.9389501214
-0.0817335695 -0.09440820664 0.9901877046 -0.3235244453 0.06907901168 0.942033112
-0.1218420342 -0.08285975456 0.9735730886 -0.07010138035 -0.1983202249 0.9760021567
-0.119945161 -0.07623738796 0.9753338099 -0.04670590162 -0.1889925599 0.9762873054
-0.1181248277 -0.09204747528 0.9725940228 -0.1266604066 -0.1651134789 0.9743220806
-0.1232382804 -0.09293742478 0.9699403644 -0.07268588245 -0.1878418028 0.9736676812
-0.127150476 -0.08946281672 0.9689981937 -0.03961135447 -0.2195544392 0.9700401425
-0.117590256 -0.08613551408 0.9770664573 -0.1095572114 -0.1536744237 0.9754269719
-0.1067261174 -0.08661485463 0.9816237688 -0.2543573976 -0.08677354455 0.9525361061
-0.1147932187 -0.08085516095 0.981372118 -0.1394627541 -0.1307879537 0.9632253647
-0.109580785 -0.08763700724 0.9754613042 -0.2415283024 -0.1320438981 0.9603937864
-0.1703842729 -0.08971934766 1.004688621 0.276715517 0.1162134185 0.9410740733
-0.1556729376 -0.08241065592 0.9937727451 0.6563712955 -0.2424675226 0.7113456726
-0.1555249244 -0.07498946786 0.9963200092 0.6048427224 -0.2846367657 0.7398451567
-0.1129347757 -0.08339697868 0.9751371145 -0.1988727748 -0.1538530588 0.9667320848
-0.106016539 -0.0807807669 0.9765581489 -0.2629010975 -0.1245905235 0.9564287663
-0.1104095727 -0.0718178004 0.9767863154 -0.2013253123 -0.1675435007 0.9630174041
-0.167020604 -0.06906751543 1.002366543 0.3619765639 -0.1252402067 0.919962585
-0.1674962491 -0.07839056104 1.006585479 0.3036565781 -0.03864052147 0.9336333275
-0.166339308 -0.0829269439 1.002787471 0.3464346826 0.006711359136 0.9234021306
-0.1651018858 -0.07511460036 1.002705455 0.4078227282 -0.1047966629 0.9021299481
-0.1613097191 -0.1027692482 1.00384295 0.4342637956 0.1345488131 0.8504116535
-0.1605173647 -0.1075331271 1.001314402 0.4577272534 0.1231501997 0.8333424926
-0.1584509164 -0.08518470824 0.9981868267 0.6099420786 -0.1433440596 0.7512007952
-0.1610368043 -0.08852428943 1.004960656 0.4113865197 0.005289311055 0.8767306209
-0.1601746082 -0.08246390522 1.003353238 0.464209944 -0.05938460678 0.8542195559
-0.1608133614 -0.09376815706 1.003647089 0.4435065687 0.00935159903 0.844250679
-0.1591198891 -0.09093324095 0.9992963076 0.5717859268 -0.08996626735 0.7645760775
-0.1586695164 -0.07777196914 0.9997723103 0.572345078 -0.1542931497 0.7919017076
-0.1626816392 -0.09892044961 1.007383704 0.3216051459 0.1179292575 0.9142277837
-0.1686038375 -0.1052644178 1.008153439 0.2464444935 0.2144623399 0.9450059533
-0.1628862619 -0.1182598472 1.00999999 0.2423370928 0.2435673624 0.9378763437
-0.1650625765 -0.1086430252 1.020218611 0.02594155818 0.09882936627 0.8054181337
-0.167744711 -0.1059329435 1.052027822 -0.6381646395 -0.2576041818 0.3646350503
-0.1679068506 -0.1138331592 1.01629591 0.06774623692 0.1231880188 0.8728018999
-0.168210566 -0.1100042909 1.036343813 -0.3332977295 -0.09289622307 0.5893079638
-0.164830938 -0.1104707569 1.010029674 0.2307385057 0.2091260403 0.9491800666
-0.1821925193 -0.111856401 1.02323246 -0.06537607312 0.04465828091 0.7918362617
-0.1800307035 -0.1106603444 1.029592156 -0.1922309697 -0.02228038758 0.6990157366
-0.1853123307 -0.1135738716 1.014058471 0.1175997555 0.1411497146 0.925719142
-0.184485212 -0.1079526469 1.018913746 0.01241117343 0.0490770191 0.8477187157
-0.1737345457 -0.1050001904 1.01360774 0.1063512489 0.1563618183 0.859562695
-0.16591236 -0.1070034578 1.026739359 -0.1090220362 0.02731452696 0.7099474072
-0.1730726063 -0.1048255712 1.019830346 -0.01556111034 0.08917060494 0.777389884
-0.1713386625 -0.104509823 1.034026504 -0.2922277451 -0.06367278844 0.59075284
-0.168737933 -0.1047079936 1.04534173 -0.5048028827 -0.1830817014 0.4465035498
