# .PCD v0.7 - Point Cloud Data file format
VERSION 0.7
FIELDS x y z normal_x normal_y normal_z
SIZE 4 4 4 4 4 4
TYPE F F F F F F
COUNT 1 1 1 1 1 1
WIDTH 512
HEIGHT 1
VIEWPOINT 0 0 0 1 0 0 0
POINTS 512
DATA ascii
-0.19709602 -0.1352607906 1.043400764 0.1335716844 0.9185534716 -0.2073854804
-0.2016400844 -0.1331832409 1.040460587 0.05783247948 0.8269443512 -0.06643371284
-0.2370061576 -0.1141496003 0.9817862511 0.3236103654 0.2336227745 0.9164545536
-0.1867826134 -0.09708082676 0.9448900223 0.1210612655 0.07658275962 0.9878187776
-0.1923734695 -0.09827429056 0.9462370276 0.211967811 0.1229178309 0.9673892856
-0.1467600912 -0.04226607457 0.9521313906 -0.2746887505 0.05618663877 0.9216657281
-0.1525630951 -0.03983030841 0.9499831796 -0.1936542392 -0.008652308956 0.9518213868
-0.1478438228 -0.03516635299 0.9493103623 -0.1760447621 0.1064695418 0.9445346594
-0.146201238 -0.04920066521 0.954778254 -0.366696924 -0.0004787995713 0.901381135
-0.1427851617 -0.0528784506 0.9568600059 -0.4426007569 0.01662100852 0.877808392
-0.1514293104 -0.04501465708 0.9521176219 -0.2686612904 -0.04019421339 0.9337154627
-0.147084251 -0.02863609418 0.9470973015 -0.1005741358 0.1792660654 0.9583546519
-0.1421842128 -0.03769189492 0.9514601231 -0.2569616437 0.1682982296 0.914735198
-0.0786146149 -0.1751357466 1.064473629 0.1466013193 -0.09835794568 0.9842935205
-0.07212107629 -0.1712047309 1.064914227 0.1466013193 -0.09835794568 0.9842935205
-0.05426583439 -0.1338500082 1.06242013 0.1462537646 -0.02254310623 0.9883751869
-0.1827272624 -0.1367898881 1.048094511 0.4791362584 0.798743248 -0.2379478067
-0.1767673194 -0.1384857595 1.047545671 0.711989522 0.5618908405 -0.1007212326
-0.2220650017 -0.1026221588 0.9721037745 0.4183223546 0.3343137503 0.8406092525
-0.1776668429 -0.03610080108 0.9621642232 0.09581774473 -0.4321826994 0.8857681751
-0.172975108 -0.03190780431 0.9623209834 0.05854150653 -0.3144174516 0.9187999368
-0.1979633272 -0.0924526751 0.9459658861 0.252069056 0.1281056106 0.952334404
-0.2033412009 -0.08652804792 0.9473109841 0.3252809942 0.135869205 0.9242722988
-0.1954157203 -0.0872418806 0.9469496608 0.1677546352 0.01981007122 0.9847142696
-0.2043612897 -0.08085838705 0.9472064376 0.2800987959 0.09521269798 0.9451830387
-0.2091683596 -0.07607762516 0.9478088021 0.2986863256 0.08408627659 0.9475185871
-0.1964737475 -0.07854963839 0.9534403682 0.1303845644 0.01763833314 0.9845260978
-0.2002790421 -0.08235250413 0.9539940357 0.255032748 0.05595676973 0.9515895844
-0.05782853067 -0.1583233774 1.057226062 0.1771562248 -0.0944050476 0.9789317846
-0.05397595093 -0.1530479342 1.059247613 0.1917015165 -0.1003432125 0.975989759
-0.1591729373 -0.04511110485 0.9487853646 -0.1846861839 -0.1541114151 0.9555482864
-0.2053524703 -0.06830886006 0.9470062852 0.1802417189 0.03476880863 0.9828149676
-0.05511528626 -0.06788623333 1.051748991 0.09320363402 0.2409588993 0.9658811688
-0.03890899569 -0.07991696894 1.051334858 0.1599774957 0.2418679297 0.9570170045
-0.04819334671 -0.08042126894 1.05257535 0.1133248806 0.2412328273 0.9632100463
-0.1381561905 -0.03983044252 0.955080688 -0.2991517782 0.1844877899 0.9073155522
-0.13829799 -0.0334280394 0.9517589211 -0.2290253192 0.218715325 0.9178910255
-0.1386074424 -0.04698443785 0.955968678 -0.4021666646 0.1159305647 0.8787530661
-0.1385197043 -0.01897319406 0.9494251013 -0.08613791317 0.3023062944 0.9493108988
-0.04233758524 -0.08860297501 1.056154132 0.1328893602 0.2335511297 0.9621165991
-0.08398919553 -0.1758079082 1.065537691 0.1466013193 -0.09835794568 0.9842935205
-0.0882737115 -0.1797616631 1.063261271 0.1466013193 -0.09835794568 0.9842935205
-0.2380799055 -0.1395230144 0.9850222468 0.2198236585 0.2213513553 0.9498500228
-0.05115158856 -0.1479990929 1.060438991 0.2130474597 -0.08409344405 0.9729582667
-0.0542338565 -0.1412941366 1.061843753 0.1963570863 -0.06652797014 0.9773386717
-0.04851505905 -0.1365954727 1.062161922 0.1693186611 -0.03866931796 0.9842681289
-0.05450614542 -0.1256641001 1.061180711 0.07822532952 0.03280812874 0.9962094426
-0.05860927328 -0.1291965544 1.062345266 0.1184332371 -0.001502135303 0.9912390709
-0.03754817322 -0.1023649573 1.057815552 0.09500484914 0.1941484362 0.9738484621
-0.04199071601 -0.0987098515 1.056587338 0.1010030061 0.2106897533 0.9702472091
-0.04056058824 -0.1086564735 1.057070732 0.09603726864 0.1435002983 0.9820417166
-0.04396835342 -0.1036788821 1.058330536 0.06324499846 0.1777825803 0.9800055623
-0.038364131 -0.09334202856 1.056206346 0.1266815215 0.2383125871 0.9627833366
-0.04478298873 -0.08523970097 1.052595258 0.09151610732 0.2408066243 0.9661613107
-0.2236896306 -0.09832078218 0.9657821655 0.5124060512 0.3303058743 0.7851343751
-0.2285408974 -0.104453668 0.9756913185 0.3682825267 0.2901378274 0.8795580864
-0.1835520566 -0.08718603849 0.9452503324 0.03090754151 -0.03682009503 0.997400701
-0.1830195338 -0.09342128783 0.9441284537 0.05447287858 0.005661105271 0.9966765642
-0.1890661269 -0.08965281397 0.9452432394 0.1031831056 0.01997379586 0.9878108501
-0.1650928855 -0.02859581448 0.962421298 -0.03577388078 -0.2020224333 0.9715589285
-0.1699001044 -0.03587137908 0.9584329128 0.04232778028 -0.3981263041 0.9111717343
-0.2039759755 -0.09287704527 0.9479002953 0.4089770019 0.1952669919 0.8892348409
-0.208272472 -0.08642860502 0.9496258497 0.384657234 0.1642943919 0.901796937
-0.2079582661 -0.1013786122 0.9528701901 0.5010833144 0.2706655562 0.8122636676
-0.2024421245 -0.09950878471 0.9480810761 0.4311750829 0.1935086101 0.8811570406
-0.2061583698 -0.08144143224 0.9576907158 0.3162487149 0.1277674735 0.9050991535
-0.2233879268 -0.1091440096 0.9715201259 0.412643671 0.2959181964 0.8532534838
-0.220403567 -0.1069286764 0.9672926068 0.4579350352 0.3130312264 0.8211889267
-0.2053211033 -0.06010510772 0.948336184 0.04801050946 -0.09512136132 0.9809766412
-0.2109204531 -0.0651647225 0.9503170848 0.1765952557 0.01548113767 0.9669633508
-0.1545405984 -0.05045410991 0.9524754882 -0.3057710826 -0.119438991 0.9196022153
-0.1693078279 -0.08706215769 0.9499123693 -0.06712524593 -0.06623411179 0.9943296313
-0.1741405129 -0.08956313133 0.9462454319 -0.05176895857 -0.06862333417 0.9944595098
-0.2033217549 -0.07482645661 0.9468005896 0.1938097477 0.03029246628 0.9798566699
-0.194144085 -0.08141131699 0.9463800788 0.1205941215 -0.00983390864 0.9886854291
-0.05232924595 -0.08783841878 1.055107474 0.08490431309 0.2367745638 0.9677531123
-0.04844114929 -0.07385324687 1.048345566 0.08843918145 0.2408940494 0.9665136337
-0.05393628031 -0.07381101698 1.050881267 0.08843918145 0.2408940494 0.9665136337
-0.04668883979 -0.06845910847 1.049865842 0.1250490993 0.2413924336 0.9616537094
-0.05616373941 -0.05768691003 1.050596476 0.0885957554 0.2408961803 0.9664928317
-0.05271018296 -0.06212704629 1.050542593 0.1032091454 0.2410951108 0.9645529389
-0.1462306976 -0.05855988339 0.9635487199 -0.376475811 0.007461351342 0.9086241722
-0.1502312124 -0.05170893669 0.9631468058 -0.3938897848 -0.005956158042 0.9051308036
-0.1378548592 -0.04346564412 0.9641820192 -0.1776367575 0.2192871869 0.9399423599
-0.1389594525 -0.03520496562 0.9630194306 0.03045256808 0.2613793314 0.9623734951
-0.1386655271 -0.02748621814 0.9553383589 -0.03246577457 0.2834656835 0.9553242326
-0.05027465522 -0.06554758549 1.045734406 0.08843918145 0.2408940494 0.9665136337
-0.04924687743 -0.06016362458 1.044864178 0.08843918145 0.2408940494 0.9665136337
-0.07727377862 -0.177647844 1.058123231 0.1466013193 -0.09835794568 0.9842935205
-0.08696629107 -0.18362616 1.057253718 0.1466013193 -0.09835794568 0.9842935205
-0.08179266006 -0.1806789339 1.057003975 0.1466013193 -0.09835794568 0.9842935205
-0.1972018629 -0.1761605442 0.9898533225 -0.1920241863 0.261007607 0.9422891736
-0.2109682262 -0.1622374356 0.9815302491 -0.01698205806 0.287327528 0.9568061233
-0.1975045353 -0.1737193316 0.9850010276 -0.1539985985 0.2676141858 0.9450595379
-0.2024335414 -0.1714118868 0.986566782 -0.1253740937 0.2767983377 0.9453294873
-0.205681324 -0.167446509 0.9830449224 -0.07271348685 0.2853194475 0.9494369626
-0.2394745201 -0.1317626387 0.9834359884 0.2512781322 0.2152696997 0.9435350299
-0.2407950759 -0.1181411445 0.9837660789 0.3212474585 0.2187417448 0.9212109447
-0.2415201515 -0.1257346123 0.9835803509 0.29473418 0.2191128731 0.9291071296
-0.05206613615 -0.1008124128 1.058550358 0.07210016996 0.1892131269 0.9766443968
-0.05248351023 -0.1052799523 1.061345339 0.04916841909 0.1659508646 0.9832440019
-0.05204071477 -0.1115488559 1.061338305 0.06004624441 0.1165574118 0.9896917343
-0.05133319274 -0.09406463802 1.056255937 0.08856730163 0.2327623516 0.9678461552
-0.04646513239 -0.1111036316 1.059309721 0.1052999347 0.1131352186 0.9860979915
-0.0409921594 -0.112925224 1.060615897 0.0831547752 0.1194109693 0.9889255166
-0.2138690352 -0.06976235658 0.9506399632 0.2394878119 0.1087707579 0.9643496275
-0.2139259279 -0.09241530299 0.9560697079 0.5326109529 0.2847209275 0.7901781201
-0.2131983191 -0.08251280338 0.9528728724 0.4413951933 0.1541651934 0.8800168633
-0.2103465647 -0.09599398077 0.9540237784 0.4956839979 0.2729505897 0.8190613389
-0.213135004 -0.1004634723 0.9569373727 0.5548882484 0.3389032483 0.7574150562
-0.2196159661 -0.09723513573 0.9689700603 0.4766417146 0.3208113313 0.8145262003
-0.2150876522 -0.1191084832 0.9691104293 0.268276006 0.2932174504 0.8973957896
-0.2163980752 -0.1146622002 0.9664255977 0.3561274409 0.2960204482 0.8592213988
-0.2170646936 -0.1066516638 0.9627459049 0.484012872 0.3213084042 0.7987700701
-0.2215337157 -0.1149035022 0.9695538878 0.3620145619 0.2702438831 0.8760358095
-0.2261749506 -0.1166166887 0.9751223922 0.3136870563 0.2521145344 0.9141765237
-0.1774523556 -0.03955027461 0.9575518966 0.1135674268 -0.452721715 0.8756706715
-0.1715732217 -0.04246393964 0.9527599812 0.04258468002 -0.3817549348 0.9195722938
-0.1675874889 -0.03857812285 0.9538322687 -0.004081669264 -0.3189869225 0.9318273664
-0.16598095 -0.04238932952 0.9488601685 -0.04077856615 -0.2399634868 0.9590518475
-0.1538247466 -0.05648653209 0.9543361664 -0.3625406921 -0.06142264232 0.9097537398
-0.1477743983 -0.05572531 0.9575829506 -0.4522231221 -0.0358951427 0.8812922835
-0.1599783301 -0.05586320162 0.9506918192 -0.2603216469 -0.1020064577 0.9393461943
-0.1638748199 -0.04928964376 0.9471015334 -0.1527619213 -0.187306866 0.9627431035
-0.152213484 -0.06069330126 0.959253788 -0.4311389625 -0.01387824118 0.9013858438
-0.1597601771 -0.06526824087 0.9519344568 -0.2813305557 -0.05777651072 0.9471542835
-0.157516107 -0.06049359217 0.9568505287 -0.3822490275 -0.01282638777 0.9205906391
-0.1560525447 -0.05398175493 0.9600450397 -0.3973870575 -0.04925368726 0.9073728323
-0.1623918116 -0.04840392247 0.9615826607 -0.2541486025 -0.1853129417 0.8994631171
-0.1619769186 -0.05595295131 0.9578716755 -0.2988910675 -0.09123392403 0.9234926701
-0.1737892479 -0.04583078623 0.9606003165 -0.03332228214 -0.3415440619 0.9096421003
-0.1643808782 -0.06102431938 0.9548430443 -0.2799532115 -0.05762476847 0.9440135956
-0.1673367023 -0.05153502151 0.9590218663 -0.179251954 -0.2027366161 0.9177806377
-0.1910801083 -0.08144952357 0.951503098 0.09029249847 -0.05475857109 0.9926843643
-0.14127855 -0.04825587198 0.9659706354 -0.2759058177 0.08791021258 0.9289968014
-0.1443853974 -0.05379348248 0.9652322531 -0.2994001508 0.06026444584 0.9253943563
-0.1404216439 -0.05610661581 0.9617786407 -0.4714003503 -0.01263194717 0.8810873032
-0.1375349313 -0.0485554859 0.9618505239 -0.3769702613 0.153611511 0.9059432149
-0.1403210908 -0.04032404348 0.9681761265 -0.01426757127 0.2213834971 0.9676730037
-0.1400552988 -0.02975803055 0.9606885314 -0.0469244197 0.259835422 0.9615415931
-0.1500592381 -0.02540020645 0.9597371817 -0.07600533962 0.3522015512 0.930349946
-0.1443224102 -0.03401244804 0.9656000733 -0.07509247959 0.2576690316 0.9599740505
-0.1503105313 -0.02980249934 0.9633999467 -0.07369892299 0.3308995068 0.9363673925
-0.1451067477 -0.02373196557 0.9573333859 -0.07968617231 0.3190517426 0.9419915676
-0.1397549212 -0.02137481794 0.9542810321 -0.08393596858 0.2861801088 0.9537234306
-0.1433743685 -0.02368118055 0.9497698545 -0.1026066616 0.3037641346 0.9469872117
-0.1581805348 -0.02646534517 0.9615323544 -0.06188910082 0.1790014803 0.9450240135
-0.1573879272 -0.0364824459 0.9483264089 -0.1148097068 -0.03668474406 0.9781416059
-0.1527105123 -0.03266134113 0.9478901625 -0.1069125608 0.06854116917 0.9690593481
-0.1540347785 -0.02982218564 0.9536249638 -0.1046598032 0.1070459187 0.962939322
-0.160122782 -0.02998488396 0.9574151039 -0.07483175397 -0.05820640922 0.9787839651
-0.1641986966 -0.0343109332 0.9566181898 -0.01783372089 -0.2898494601 0.9514781237
-0.1600372195 -0.1459312588 0.9924372435 -0.388305068 0.2021138221 0.8832129836
-0.06737923622 -0.168921113 1.057045221 0.1466013193 -0.09835794568 0.9842935205
-0.07342665642 -0.1725905985 1.058389306 0.1466013193 -0.09835794568 0.9842935205
-0.05248662829 -0.1177152544 1.061879277 0.06233950704 0.07815311104 0.9944357872
-0.04636683315 -0.1402257532 1.058329463 0.1792733967 -0.04742776975 0.9799159765
-0.04057308286 -0.1327974349 1.059962392 0.1165517196 -0.004713321105 0.9928473234
-0.04668235034 -0.1256998628 1.060798764 0.121588178 0.03683919087 0.9916419387
-0.0475602001 -0.1313615739 1.059719682 0.1465724707 0.004240368493 0.9863122702
-0.03914515674 -0.1273561418 1.058979988 0.1121332124 0.0268059317 0.9924057126
-0.03760457411 -0.1191674396 1.057425618 0.1110698879 0.07424320281 0.9906387925
-0.04178166389 -0.1220846921 1.060313702 0.1178960204 0.06002765521 0.9905469418
-0.04622715339 -0.116926603 1.061277866 0.08214430511 0.0891693607 0.9916866422
-0.2180949748 -0.1091756672 0.9734615088 0.3727899194 0.3608843684 0.8525836468
-0.2278816402 -0.111282073 0.9775471687 0.3219012618 0.2894987762 0.8986614943
-0.2185783237 -0.117407918 0.9765776396 0.2371030748 0.3339823782 0.8912302852
-0.2118897885 -0.1231086627 0.9790803194 0.05555637553 0.3261694312 0.9110928774
-0.2286117673 -0.1172358617 0.9802719951 0.2488848716 0.2525182366 0.9193500876
-0.1966588199 -0.1527253538 0.9899318218 -0.1974699944 0.2755676508 0.8845756054
-0.2025722712 -0.139495492 1.017435431 -0.1536443233 0.6870831251 0.3395957649
-0.2033416629 -0.1450989991 0.9874389172 -0.132035166 0.3168097436 0.8622326851
-0.2048695982 -0.1351411939 1.024520278 -0.1349126995 0.801509738 0.191518575
-0.2007007003 -0.1464599818 0.9960002899 -0.1614834517 0.3961452544 0.7371293306
-0.2041883171 -0.1415989101 0.998737812 -0.1292480379 0.4686468542 0.6540750265
-0.199541688 -0.1461450309 1.003938913 -0.1763881743 0.4837439358 0.6083071828
-0.2006870806 -0.14286457 1.010913372 -0.1657232195 0.5868268013 0.4702046812
-0.2051391155 -0.1307237595 1.032331467 -0.1163663715 0.9202163219 0.02798241749
-0.2052828372 -0.1360161901 1.012782574 -0.1156443581 0.6663460732 0.3836368024
-0.2053500116 -0.1337587684 1.017921567 -0.1087413281 0.7395412922 0.282051295
-0.19625099 -0.1550548226 0.9842825532 -0.1525257975 0.238826111 0.957909286
-0.2087384462 -0.1524565965 0.9854827523 -0.07820495218 0.2490597069 0.9558636546
-0.2226902694 -0.1515518278 0.9848982692 0.06030558422 0.2736713886 0.9587926269
-0.2147698551 -0.155772835 0.9863744378 -0.02859934978 0.2572707832 0.954225421
-0.2003477365 -0.1581512988 0.9870143533 -0.1736163348 0.2295341343 0.9510614276
-0.2075271606 -0.1606449634 0.9863135219 -0.0986527577 0.2429426163 0.954566896
-0.2195984423 -0.09468925744 0.9613785744 0.5461659431 0.332385689 0.7676854134
-0.2198508233 -0.08677913249 0.9598491192 0.5163553953 0.2470299006 0.8128954768
-0.2100196928 -0.06536547095 0.9579381347 0.3244188726 -0.05996407941 0.8867917657
-0.199180156 -0.05160332844 0.9547635317 0.1071465164 -0.300506264 0.9272634983
-0.2170581818 -0.0728276372 0.9555904865 0.3568012714 0.1015602872 0.9048687816
-0.2153495103 -0.083169505 0.9607632756 0.4691316187 0.1941481084 0.8437351584
-0.2149843425 -0.07835397869 0.9581516385 0.3955793977 0.1345970035 0.8869470954
-0.2024360299 -0.07619643211 0.9551356435 0.1829658151 0.05687149987 0.9596084952
-0.2091659606 -0.07593218237 0.9564783573 0.2894515693 0.07787730545 0.921856761
-0.1966649145 -0.06182683259 0.9532416463 0.06878069788 -0.1888684034 0.9565265775
-0.206505388 -0.07107178122 0.9556949735 0.2395748347 -0.007887781598 0.9247213006
-0.2028959244 -0.06639217585 0.9547294974 0.174908787 -0.09437521547 0.933257401
-0.2042248547 -0.06032517925 0.9565753341 0.2265165448 -0.160245508 0.9057583809
-0.2274597734 -0.1227843016 0.9755761623 0.2608838975 0.2102670372 0.9417027831
-0.2329814434 -0.1197431013 0.9780001044 0.298099488 0.2139919996 0.9301304817
-0.1992655396 -0.07029126585 0.9475948811 0.09706602246 -0.01054556761 0.9915326834
-0.1971702278 -0.05638683587 0.9480665326 -0.03036835976 -0.1788371205 0.9825378656
-0.1794900298 -0.05145374686 0.946644783 -0.001972018974 -0.2653301358 0.9614750743
-0.1900659204 -0.05405020714 0.9476583004 -0.01513611153 -0.2230195999 0.9717831016
-0.1855982542 -0.04924762622 0.9501995444 0.03885955364 -0.3261732161 0.9432746768
-0.1948797107 -0.05061805621 0.9510102868 0.03377249837 -0.3184275329 0.946526289
-0.1949623078 -0.04770894349 0.9555848241 0.08683077246 -0.36216259 0.9271687865
-0.1968769133 -0.06345569342 0.947686255 0.01444314793 -0.09069480747 0.9933715463
-0.1831159145 -0.04752985016 0.9589046836 0.1140989065 -0.3991127908 0.8954356909
-0.175782606 -0.05873192102 0.9539507031 -0.02771382593 -0.1758303195 0.9696332216
-0.1494943947 -0.0660225153 0.9587077498 -0.4307183921 -0.03113968298 0.8987571597
-0.1566249132 -0.07051001489 0.9546567798 -0.3484485745 -0.009474424645 0.9353474975
-0.2045987099 -0.1417873204 0.9914825559 -0.1111453027 0.3879757524 0.7689332962
-0.2122122645 -0.1422540396 0.9924917221 -0.02208914421 0.4119718373 0.7475309372
-0.2085982859 -0.1451330483 0.9837502241 -0.06842461973 0.2869453132 0.9155087471
-0.2047629356 -0.1369897872 1.004315853 -0.1029251143 0.5646933317 0.5237639546
-0.2030251324 -0.1297448874 0.9940909743 -0.1323156506 0.4922162294 0.689013958
-0.2026856542 -0.131609574 0.981305778 -0.1436540484 0.334661454 0.9251944423
-0.2060984522 -0.1287801564 1.020924091 -0.08003448695 0.8086396456 0.2002013326
-0.2035664022 -0.1314319819 0.9884433746 -0.1289840341 0.4184480608 0.7953549027
-0.2067938 -0.1347100288 0.9926507473 -0.08766048402 0.4514938295 0.7267051935
-0.2047129571 -0.130852133 0.9996824861 -0.1087838411 0.5518320203 0.5902047753
-0.2051650137 -0.1289409101 1.013513088 -0.09549494833 0.721758008 0.3349590898
-0.2088508308 -0.1363559663 0.9978092313 -0.05991922691 0.503475666 0.6370040774
-0.2068254203 -0.1361501217 0.9848268032 -0.09171102941 0.3536328673 0.8719340563
-0.2104834467 -0.1370782256 1.005166054 -0.03605341539 0.5854626298 0.5052857995
-0.1720090061 -0.06630641222 0.951505959 -0.1228430867 -0.0676561594 0.9843147397
-0.1741384864 -0.07840633392 0.9474443197 -0.05561044812 -0.08878525347 0.9935407639
-0.1969614476 -0.1692035645 0.9891881943 -0.1784925312 0.2524501979 0.9479780197
-0.1744443923 -0.131587252 1.044674754 0.5783817768 0.7465066314 -0.06619992852
-0.1811851114 -0.1318794042 1.036273956 0.2397070527 0.9277415872 -0.1550161391
-0.1913458258 -0.1292599142 1.035689235 0.1011862978 0.9566465616 -0.1216597855
-0.1844215989 -0.1290896684 1.040800214 0.2862824798 0.9171606302 -0.1161770895
-0.1723138839 -0.1333840638 1.038670063 0.3969387412 0.894587338 -0.1728501171
-0.1805347651 -0.1304734796 1.045846581 0.430375278 0.8861397505 -0.1463355422
-0.2002760917 -0.1273305565 1.037959814 0.03193194047 0.9705428481 -0.1053493395
-0.1674819738 -0.137288481 1.035087466 0.4651044011 0.8153181076 -0.1698880643
-0.1700262278 -0.1383409351 1.040877104 0.8460056186 0.4531418681 0.04850622267
-0.1939896345 -0.1341793388 1.038120627 0.2595987022 0.75642097 -0.003598831594
-0.1824859232 -0.139096126 1.040034413 0.6847874522 0.3457901776 0.1115413606
-0.1923696101 -0.1377896518 1.042738914 0.4964309931 0.2238892764 0.1578423977
-0.1867693961 -0.1400970668 1.043542147 0.698194623 0.03800591826 0.2096058428
-0.1887309253 -0.1332129091 1.044046879 0.2888683081 0.9155911803 -0.2093183398
-0.06590320915 -0.1684274822 1.062291265 0.1466013193 -0.09835794568 0.9842935205
-0.06109663099 -0.1632263511 1.060993671 0.1466013193 -0.09835794568 0.9842935205
-0.07028698176 -0.1636018455 1.063250422 0.1466013193 -0.09835794568 0.9842935205
-0.06623461843 -0.1537659019 1.063597441 0.1686214805 -0.09509022534 0.9806332588
-0.07548118383 -0.1641252339 1.067072868 0.1614537835 -0.09615388513 0.9818246961
-0.07941264659 -0.1691235453 1.068867564 0.1512420624 -0.09766927361 0.9835221171
-0.06065485254 -0.1430073678 1.062690496 0.1974239796 -0.07740142196 0.9767268896
-0.06015061215 -0.1369276047 1.06289053 0.2006917596 -0.05461970344 0.9776307344
-0.05734693632 -0.1481233835 1.060262561 0.2002667934 -0.09099329263 0.9750816226
-0.05968794599 -0.153761819 1.061390877 0.1717787981 -0.1010640934 0.9795782566
-0.2052903026 -0.1572313309 0.9825922847 -0.1044203863 0.2476160973 0.9629966617
-0.2160449624 -0.1471259296 0.9813756943 0.01485670079 0.2576900125 0.965457201
-0.2059836686 -0.1096055284 0.9579417109 0.4359088242 0.3617793918 0.8075565696
-0.2112345546 -0.1086252555 0.9601079226 0.445658952 0.3339028955 0.8083574772
-0.2107233703 -0.1163901165 0.964528203 0.3124787509 0.3105738163 0.8763666749
-0.202826947 -0.1451159567 0.9799886942 -0.1438881457 0.2443537265 0.9580426812
-0.198696062 -0.1502344757 0.9832036495 -0.1678975672 0.2391051948 0.9550822973
-0.2251379937 -0.09388209134 0.9694917202 0.5091585517 0.3191390932 0.7986214161
-0.221579209 -0.08057180792 0.9602881074 0.4882709682 0.182881698 0.8505202532
-0.222661376 -0.09005521983 0.9666666389 0.5287716389 0.2856128216 0.7980263233
-0.1856672615 -0.07677458972 0.946506083 0.02079902962 -0.07120592147 0.996979773
-0.1935169995 -0.06967482716 0.947253406 0.01817236468 -0.07352874428 0.9966745377
-0.192639783 -0.07530016452 0.9470156431 0.04910610616 -0.03547189757 0.9970665574
-0.1841828972 -0.0388799645 0.9604225755 0.1761389524 -0.4994657636 0.842885077
-0.1809058785 -0.0453905873 0.9530954957 0.08467213809 -0.3834010065 0.9110036492
-0.1853551269 -0.05371883512 0.9541478157 0.04326414317 -0.3552389443 0.9320142269
-0.189966619 -0.06340795755 0.9540673494 0.0628727749 -0.1865030378 0.959618628
-0.1892748922 -0.05811272562 0.956363678 0.1250016242 -0.2509051859 0.930392921
-0.1890251189 -0.04920018092 0.9572920799 0.1349478811 -0.3716665208 0.9074423909
-0.1748442948 -0.05226149037 0.9572433829 -0.0320324935 -0.2625600696 0.9388570786
-0.1699624062 -0.06034797803 0.9541317821 -0.1645834893 -0.116595827 0.9556689858
-0.1794964075 -0.06286863238 0.9515250921 -0.02458121814 -0.1353028715 0.984103322
-0.1847315729 -0.05928403512 0.9523565769 0.0179499872 -0.2289251685 0.9640548825
-0.185576722 -0.1197552234 0.9682735801 -0.02842113934 0.3525857925 0.9171385169
-0.181723401 -0.1306463182 0.9793944955 -0.1476598084 0.2878296375 0.9345268011
-0.1788152456 -0.1347307414 0.9840280414 -0.1861522198 0.2857705057 0.9377706647
-0.1849484742 -0.1103585735 0.9575577974 0.0965743959 0.3851675391 0.9082579613
-0.1800296903 -0.1244298965 0.9718780518 -0.05767146125 0.2995740473 0.9310410023
-0.1707175523 -0.137914151 0.9855877757 -0.1826351136 0.2358198613 0.9518437982
-0.1729659587 -0.1309796423 0.9785301089 -0.105748415 0.2786990404 0.9405767918
-0.1838893592 -0.1262981296 0.9757933021 -0.1050427705 0.3405990601 0.9224403501
-0.1828746796 -0.1148415729 0.9622683525 0.0496160537 0.3651706278 0.9144578576
-0.1779135019 -0.1278650463 0.9761651158 -0.09255238622 0.3102053106 0.931385994
-0.1736157537 -0.1383353919 0.9907845259 -0.1517685652 0.2827838063 0.8406609297
-0.1704882681 -0.1377566159 1.008957148 0.07074311376 0.5425792336 0.3950953186
-0.1724337339 -0.1379187256 1.001267314 -0.02457483485 0.4318620563 0.5816848874
-0.170757398 -0.1384461969 0.9957095385 -0.08771310747 0.3557230532 0.7262243629
-0.165493831 -0.1415006816 0.9929364324 -0.1497911811 0.290807873 0.8805503249
-0.1671097428 -0.1388738453 1.003533721 0.005847753957 0.465005815 0.5531090498
-0.1647101939 -0.1418964714 0.9991668463 -0.0852003023 0.370177269 0.7465059757
-0.1965648532 -0.1058196947 0.9595429897 0.3427243531 0.4350440502 0.7783783674
-0.1915147305 -0.09203128517 0.9542524219 0.1686681658 0.1474725157 0.9094749689
-0.1948169023 -0.09987812489 0.9575913548 0.277281791 0.3121243715 0.8290156722
-0.1956509054 -0.08757913113 0.9534319639 0.2063615322 0.04626442119 0.9448258281
-0.1944639981 -0.120426245 0.9711256623 0.1336742789 0.4707775712 0.8149306774
-0.190699771 -0.1242257953 0.9741547108 -0.06121360138 0.4197580218 0.8932287693
-0.1891145557 -0.1282507628 0.9790327549 -0.141538009 0.3729832768 0.9112053514
-0.1950830817 -0.1155649275 0.9659974575 0.2378407717 0.4844051301 0.7904707193
-0.1927524954 -0.1111807078 0.9603708982 0.2255567461 0.4644052386 0.8236941695
-0.1888221204 -0.1151600033 0.9640675783 0.04539173841 0.3989275396 0.8936538696
-0.1780935824 -0.08459653705 0.9463849664 -0.02610738575 -0.06065954641 0.9972041249
-0.1849510074 -0.06655703485 0.9477311969 0.007345869206 -0.09394414723 0.9954542518
-0.1810528934 -0.07332034409 0.9479401112 -0.01982334815 -0.1111310124 0.9933669567
-0.1698390692 -0.07261463255 0.9515322447 -0.1470987052 -0.06722455472 0.9798193574
-0.1694565415 -0.06766612083 0.9470601082 -0.09943127632 -0.1062952727 0.9855720401
-0.1663096249 -0.08053536713 0.9474211931 -0.1405746937 -0.1253326535 0.9810544848
-0.1654148549 -0.05935214832 0.9470342994 -0.1469476521 -0.1574349403 0.9721120596
-0.161820367 -0.07055960596 0.9503291249 -0.2270590812 -0.08767219633 0.963005662
-0.1592637599 -0.07531737536 0.9532269239 -0.2819208503 -0.0288645681 0.9558037519
-0.1651439816 -0.07626395673 0.9516243339 -0.2592678964 -0.02612522431 0.961607933
-0.1711208224 -0.08086445183 0.9510449171 -0.08297450095 -0.08087333292 0.9903176427
-0.1765440553 -0.09464012831 0.9515900612 0.02359778062 0.127661854 0.9596011043
-0.1808789521 -0.09102200717 0.951583147 0.03759964928 0.08721172065 0.963070631
-0.1877011359 -0.1029220149 0.9525234699 0.1333668828 0.3562316597 0.9113573432
-0.1847774088 -0.08650714159 0.9513117075 0.0491014123 0.01363495085 0.9782900214
-0.1835342199 -0.09686402231 0.9520356059 0.07949706912 0.2162329108 0.9381540418
-0.1461891383 -0.04406585544 0.9669113159 -0.2151487172 0.1018024012 0.9444816113
-0.1621653736 -0.03964949399 0.9621294141 -0.1836587191 -0.3136622012 0.900765121
-0.1734709442 -0.04036179185 0.9620242119 -0.0004235848028 -0.4088926613 0.9010587931
-0.1586911976 -0.04368864745 0.9622069001 -0.2816093564 -0.2381512821 0.902782619
-0.1680244356 -0.04517415911 0.9620091319 -0.1349627674 -0.2873370051 0.8989386559
-0.1749063283 -0.1418518871 1.042770982 0.9427052736 0.06692452729 0.2125965208
-0.1806758642 -0.1426982433 1.04585743 0.8825060129 -0.1030558497 0.2297648489
-0.1696098894 -0.1362828612 1.046073794 0.9076908231 0.3858554363 0.08226630092
-0.1864367425 -0.1426225752 1.049063563 0.5027706623 0.65691787 -0.2730110288
-0.2105621845 -0.1452436596 0.9783668518 -0.04601575807 0.2567079067 0.9631364942
-0.2100217342 -0.1544273496 0.9798358679 -0.04502811655 0.2781732678 0.9574537873
-0.2230988145 -0.1372589022 0.9811685085 0.1411077082 0.2524634004 0.9423210025
-0.2163302302 -0.1373228133 0.9816285968 0.03447359428 0.2789861858 0.9427933693
-0.2310480475 -0.1301364601 0.9811253548 0.2528268695 0.2250567675 0.9381628036
-0.2089246809 -0.1284331977 0.9810538292 -0.05521424115 0.3107400239 0.9283483028
-0.2215292305 -0.1293188334 0.9810957909 0.1202493832 0.2619622946 0.9338676929
-0.2289191931 -0.1234782487 0.9812113643 0.2201628387 0.2363185734 0.9316806197
-0.2155881226 -0.1278435737 0.9810911417 0.03705299273 0.2854448855 0.9303641319
-0.2231865227 -0.1238320842 0.9811814427 0.1407124698 0.2581516504 0.9298155308
-0.1936156601 -0.1068780497 0.9542061687 0.32568115 0.4357019067 0.8260363936
-0.2015223056 -0.1041743532 0.9515326023 0.4690477252 0.3318428993 0.8114318252
-0.1968324035 -0.1026319116 0.9489043355 0.3663197756 0.2095820457 0.8972936273
-0.2008489072 -0.1078460217 0.9560624361 0.4606427252 0.4261935651 0.7758580446
-0.2025358677 -0.09275443852 0.956882596 0.3807075322 0.2334238142 0.8620133996
-0.1718150675 -0.05105528608 0.9461964965 -0.01645813137 -0.2588371038 0.9621252418
-0.17359294 -0.06225071475 0.9472735524 -0.05720867589 -0.09101264924 0.9897259474
-0.170327872 -0.05652540922 0.9463809729 -0.08365932852 -0.1426894963 0.9823123813
-0.1758909374 -0.05705890432 0.9470482469 -0.03732181713 -0.1622120738 0.9827300906
-0.1778750122 -0.06703882664 0.9479730129 -0.02981493622 -0.05087880418 0.9965019226
-0.1943692416 -0.05517049506 0.9547570348 0.07100954652 -0.2720369101 0.9463440776
-0.1951022148 -0.07082442194 0.9537430406 0.0656600222 -0.04979674146 0.9859665036
-0.1894357353 -0.06093560532 0.9478879571 0.009409484453 -0.1394000798 0.9891708493
-0.1826839149 -0.1364818662 0.9883427024 -0.1699800491 0.2718022764 0.8439907432
-0.1763574779 -0.1373217702 0.9973967075 -0.06782497466 0.3852162063 0.6555621624
-0.1715561897 -0.1369536221 1.017707705 0.1795649678 0.6725444794 0.1656179875
-0.1840415597 -0.144841522 0.9852089286 -0.1976123899 0.2298915684 0.9529258013
-0.1768609732 -0.1401324123 0.9860418439 -0.2068509758 0.2178899497 0.9536979198
-0.1794528812 -0.1463835239 1.008105993 0.2760146558 0.2946387827 0.5860418677
-0.1838628054 -0.1531530619 0.9915712476 -0.09480611235 0.2422993481 0.8707723618
-0.18357189 -0.1468543708 0.9908483028 -0.08481449634 0.2453109175 0.8649644256
-0.1776777357 -0.1459490508 1.015471697 0.430947721 0.3158800304 0.4663486481
-0.1816370636 -0.1494415402 0.99982512 0.09162291884 0.2686935067 0.7277188301
-0.1745747626 -0.1432997882 1.027761221 0.6970970035 0.3528671861 0.2613155842
-0.1964826882 -0.1292883456 1.021963239 -0.07271437347 0.7828223109 0.1766964793
-0.1892103404 -0.1328563988 1.006847501 -0.09842152148 0.5516375303 0.4673842788
-0.1776801199 -0.1351833791 1.018075466 0.125140518 0.6913434267 0.172217384
-0.1773771644 -0.1362562776 1.007677794 0.05070846528 0.5412057042 0.3941656053
-0.1815862507 -0.1355934888 1.001606226 -0.04571900144 0.4618282616 0.5442966223
-0.1827537417 -0.1335316896 1.019769192 0.07659399509 0.7253014445 0.1595762968
-0.1699050665 -0.1365904361 1.027359486 0.2887569964 0.8101884723 -0.06361573935
-0.2002040893 -0.1272707731 1.031724572 -0.04434029385 0.9302733541 -0.0155868344
-0.1961217076 -0.1300737858 1.014783859 -0.1222748309 0.6788687706 0.3292360008
-0.1899865419 -0.1320806891 1.012634039 -0.06433539093 0.636341989 0.3467080593
-0.1873813868 -0.1341262013 0.9991096258 -0.1344499439 0.436873734 0.6250522733
-0.1905533969 -0.1313742846 1.018338561 -0.02833652124 0.7194719315 0.2268121839
-0.1814118773 -0.1346727312 1.011878848 0.03353830054 0.6092656255 0.322799325
-0.1851203889 -0.13530007 0.9937278628 -0.1475665271 0.3551835716 0.7300848365
-0.1737313867 -0.1358876824 1.022899389 0.2090540528 0.7532671094 0.05010624975
-0.1749599427 -0.1348736584 1.029799342 0.2460401654 0.8548432589 -0.09237240255
-0.180991292 -0.1434174627 1.003240466 0.1686834395 0.2939715385 0.6532716155
-0.1889661849 -0.1340594292 1.031729937 0.3418660164 0.6562466621 0.09698272496
-0.1900814027 -0.1365719289 1.015946031 0.08671179414 0.5595783591 0.3709737062
-0.1966237277 -0.1311014444 1.027902842 0.06746073812 0.7717007399 0.1177513972
-0.1811962128 -0.1399527043 1.020652771 0.4088699222 0.4275979102 0.342140317
-0.1872062087 -0.139499113 1.007985592 0.05693216994 0.4461894631 0.5304102898
-0.1772700399 -0.1387564242 1.036649704 0.7479097247 0.4730014801 0.08173613995
-0.1874100864 -0.1423790157 0.992577672 -0.1666882336 0.3351885378 0.8033440113
-0.18843472 -0.1355672926 1.025256991 0.2656769753 0.5980112553 0.2154589742
-0.188871637 -0.1397058815 1.002755404 -0.0649004057 0.4385230839 0.6131888032
-0.1829195619 -0.1381022185 1.025920749 0.4337371886 0.4992619753 0.2377401739
-0.1856102943 -0.1392027438 1.013505578 0.1808613688 0.457323581 0.4420432448
-0.1845258772 -0.14258416 0.9987215996 0.003124331357 0.3267496824 0.7118386626
-0.1788327992 -0.1393785924 1.029526949 0.6022840142 0.4492993653 0.198829025
-0.1914660037 -0.1418289691 0.9975395203 -0.1705592573 0.4140737951 0.704778254
-0.1905008256 -0.1467945278 0.9902326465 -0.1903828233 0.2966751158 0.8600821495
-0.1974424869 -0.1384490281 1.009278893 -0.1445860267 0.5881778002 0.4700241089
-0.1948203146 -0.1461032033 0.9965729117 -0.1778044701 0.3871263266 0.7369362712
-0.1993022859 -0.1347843409 1.016131043 -0.1272637993 0.6951389909 0.327570796
-0.1958584934 -0.1413382441 1.003727078 -0.1585190147 0.5017653108 0.5851897597
-0.2166912556 -0.08936504275 0.9638896585 0.5160527229 0.2587498724 0.8131815195
-0.2138300836 -0.1044803038 0.9691907763 0.4484980702 0.3753686249 0.8048964739
-0.2140506804 -0.09440818429 0.9641509652 0.517083168 0.3179938495 0.7857841849
-0.2029479891 -0.1073535383 0.9627670646 0.4399307668 0.4684577882 0.7503986955
-0.2051829845 -0.1015835702 0.9617719054 0.4397274852 0.3689582646 0.7931591868
-0.2077600509 -0.1065506265 0.9653746486 0.473598361 0.4281974435 0.7584147453
-0.208170414 -0.08967263252 0.9586938024 0.4369595349 0.2058946937 0.861461401
-0.2069427222 -0.09622393548 0.9606523514 0.4378425181 0.2806329429 0.8314193487
-0.1922878176 -0.131545797 0.9995215535 -0.1701203585 0.4854716659 0.6200661659
-0.1877097934 -0.1335010529 0.9866002202 -0.2004555017 0.3095755279 0.865568161
-0.2001468092 -0.1267714053 1.018595695 -0.1094796732 0.7947388291 0.2356289029
-0.1964608878 -0.128030926 1.007502437 -0.1320021451 0.6547419429 0.4415065348
-0.1968260854 -0.128149122 0.9972010255 -0.1476535797 0.5679331422 0.6142039299
-0.1928422302 -0.1288007796 0.9928017259 -0.1551284492 0.4964838028 0.7023898363
-0.1937829107 -0.1291517168 0.9832156301 -0.1725503504 0.4130070806 0.8644541502
-0.1932792068 -0.1331081837 0.9791296124 -0.1043064967 0.378414005 0.8987473845
-0.1917036176 -0.1379506588 0.9817412496 -0.1727416515 0.2847977579 0.9294192195
-0.190476805 -0.1439980268 0.984017849 -0.2098682076 0.2286471575 0.950538516
-0.185484305 -0.1396561414 0.9840260744 -0.2160638869 0.2165676206 0.9518942237
-0.1991591454 -0.1292595118 0.9849002361 -0.1612735391 0.4098244011 0.8446089029
-0.2023067623 -0.1276533306 1.006498337 -0.1252425462 0.6548676491 0.4553765953
-0.2111325562 -0.1354339868 0.9751664996 -0.03055518121 0.289186269 0.9535908699
-0.2032476068 -0.1394231319 0.977799356 -0.1339740008 0.2911258638 0.9449490905
-0.1973511875 -0.1379777789 0.9796060324 -0.136523217 0.3290013671 0.9212472439
-0.182796821 -0.08063344657 0.9511829615 -0.001533628558 -0.08088093251 0.9952263832
-0.1875636429 -0.07608450204 0.9517046213 -0.009057217278 -0.08093865961 0.9951769114
-0.1763174236 -0.07256963104 0.9511783719 -0.05469918624 -0.09361664951 0.9940514565
-0.1549571157 -0.03743826225 0.9648661017 -0.1246875376 -0.1552536637 0.9258973598
-0.1510772705 -0.0445644632 0.9639372826 -0.3212041855 -0.0878335759 0.9192824364
-0.1602308452 -0.03303367645 0.9639468193 -0.04427802563 -0.2655888498 0.9221438766
-0.145600751 -0.03831214458 0.9687960148 -0.06816846132 0.1291771233 0.97081393
-0.2006766796 -0.1644510925 0.9849855304 -0.118323788 0.2463978827 0.9594577551
-0.1860148907 -0.155203104 0.9868907332 -0.2026868165 0.2277450413 0.9523602128
-0.1912661046 -0.1588318199 0.9881687164 -0.2129689157 0.2339395285 0.9483861923
-0.1949375123 -0.1639370173 0.9887190461 -0.231418252 0.2293873131 0.9451634884
-0.1865561903 -0.1801930219 0.9952597618 -0.2452315688 0.267177552 0.9317440987
-0.1744905859 -0.1805976331 1.000559688 -0.2611334026 0.2804950774 0.9236153364
-0.1804217547 -0.1812428534 0.9952306747 -0.2506780922 0.2717389464 0.9289599061
-0.2167717665 -0.1324789673 0.9745371342 0.08229160309 0.2622467279 0.9589499831
-0.2112778574 -0.1110383645 0.9711629152 0.3592503667 0.4472099543 0.8103889227
-0.203103289 -0.1203652397 0.976324141 0.0797880739 0.4261306524 0.8585172892
-0.208564043 -0.1160476431 0.9755911827 0.1862606704 0.3762860298 0.8628267646
-0.1977086961 -0.1244055033 0.9755599499 0.01225337107 0.5007535219 0.8508731127
-0.2047054768 -0.125739634 0.978936255 -0.03723366186 0.3520615101 0.9092000723
-0.1669427305 -0.1566213369 1.00563705 -0.09244976938 0.4394610822 0.6161265373
-0.1649496406 -0.1473163813 1.011996865 -0.05254548043 0.5158641338 0.4050354362
-0.1618917733 -0.1448557377 1.004449964 -0.2803452909 0.3509524465 0.5907011628
-0.1642044932 -0.1519368291 1.002512693 -0.2357477546 0.3510308564 0.6753911376
-0.1669391096 -0.1527111977 1.011350513 0.00285761361 0.532564342 0.4478496611
-0.1649651527 -0.1434417367 1.017727971 0.04369470477 0.6095187068 0.2364642322
-0.1633715183 -0.1539750248 0.9964902401 -0.3640548289 0.2414341569 0.8427684903
-0.1607055068 -0.145762369 0.9987964034 -0.4142467082 0.2425333411 0.7429923415
-0.1655659527 -0.1388237774 1.024502754 0.2191037387 0.7412390113 0.05210407451
-0.1637737602 -0.1416782588 1.010562897 -0.01083822921 0.5087093115 0.452896148
-0.166924879 -0.1449975669 1.022759438 0.1915711612 0.7176392674 0.1125492007
-0.1671778262 -0.1614845395 0.9997032285 -0.1865059882 0.3444277048 0.7953015566
-0.1695821136 -0.1569669247 1.016076446 0.2467269897 0.3737955391 0.5045416951
-0.1671841145 -0.1414892226 1.029471278 0.3159373403 0.8009005189 -0.06294446439
-0.1707296968 -0.1473008692 1.028865695 0.6163985133 0.4073358774 0.2422074974
-0.1695478708 -0.1530150026 1.020463228 0.3357349038 0.4318901896 0.3797647953
-0.1699871123 -0.1639657766 1.009159923 0.07110331953 0.3098926246 0.6883037686
-0.1686518788 -0.1691613346 1.000822783 -0.1591457874 0.2897258997 0.8507642746
-0.1637094915 -0.1562353224 0.9907868505 -0.228160724 0.2706894875 0.9350149632
-0.1915166527 -0.1726062149 0.99274683 -0.2368083 0.2601232231 0.9360498786
-0.1821543872 -0.1753743738 0.9970630407 -0.2505473495 0.2716294527 0.9290267229
-0.226209864 -0.1289240867 0.9755508304 0.2277905643 0.2133946568 0.9492226839
-0.2364796847 -0.1274138242 0.9810838103 0.2656928301 0.2139714956 0.9399203062
-0.2359108031 -0.1338800341 0.979372561 0.2558871508 0.2146591693 0.9419969916
-0.2321882695 -0.1410303414 0.9829437137 0.2180839777 0.2261477709 0.9491600394
-0.2199932933 -0.1378778517 0.976413846 0.090713799 0.2492720038 0.9627426863
-0.2282409817 -0.1449401081 0.983294487 0.1561825722 0.2360878438 0.9587256312
-0.2224692106 -0.147422567 0.9812284112 0.09451706707 0.2599018514 0.9603557587
-0.2023187429 -0.1314749718 0.9748714566 -0.06300012022 0.402059108 0.9036634564
-0.2006302327 -0.1178830788 0.9658126831 0.2717439234 0.4948972166 0.7795487046
-0.2032599896 -0.1178996414 0.9710142612 0.211103946 0.5438334942 0.8028231263
-0.1996677071 -0.1120298579 0.9619296789 0.4067571163 0.5252692103 0.7368169427
-0.203154847 -0.1252477169 0.9694387913 0.1079237014 0.4102227688 0.8556952477
-0.2056252658 -0.1124947444 0.9674687386 0.3813580871 0.5157663226 0.7578852773
-0.207112059 -0.129033044 0.9724634886 0.03418888897 0.3430732191 0.9134910107
-0.2134755552 -0.1257068962 0.9727886915 0.1385405809 0.2900800705 0.9408448935
-0.1689192802 -0.1606747806 0.9919575453 -0.2425121963 0.2739201486 0.930378437
-0.1661734134 -0.1442110091 0.9881519675 -0.1898839027 0.2280009538 0.954899013
-0.1729619652 -0.1443214566 0.9872705936 -0.1834576577 0.2342284024 0.9547049999
-0.1702228934 -0.1532760561 0.9883960485 -0.2121985108 0.2621414959 0.9412341118
-0.1798148602 -0.148313567 0.9863442183 -0.2020997107 0.2407597452 0.949093163
-0.1769948304 -0.1537314951 0.9873715639 -0.2160033286 0.2539454401 0.9426517487
-0.1839585453 -0.1586761922 0.9909424782 -0.1575332731 0.2509045601 0.9052996039
-0.1786832362 -0.1512466222 1.01165247 0.3131071031 0.3100765944 0.5481667519
-0.1810767055 -0.1567780524 1.002097964 0.07585290819 0.2873841822 0.7226278782
-0.1821571738 -0.1605179012 0.9976938367 -0.04489381239 0.2795301378 0.80853194
-0.1752257794 -0.1484625489 1.02507329 0.5986744165 0.3528682292 0.326092869
-0.1868530661 -0.1642063558 0.9902410507 -0.2220279425 0.2541105747 0.9409720898
-0.1776391864 -0.1627156287 1.008388638 0.1154725999 0.3104863167 0.6715123653
-0.172293663 -0.1423176378 1.036311269 0.8726427555 0.3795099258 0.1238403246
-0.1753560752 -0.15836294 1.016611576 0.3125567734 0.329264313 0.5257602334
-0.1808209121 -0.1668836474 0.9985414147 -0.1041949913 0.2889766693 0.8362506628
-0.1764034331 -0.1526098698 1.019422293 0.4466862381 0.3396759629 0.4358953834
-0.1737411171 -0.1681784391 1.011475205 0.07836879045 0.310891211 0.6834293604
-0.1783746332 -0.1573575139 1.011482239 0.2478545755 0.3210338652 0.5817485452
-0.1789972931 -0.1655104458 1.003322721 -0.007720342837 0.2988114357 0.762371242
-0.1743693352 -0.1735093892 1.00570178 -0.09561577439 0.2955771089 0.8071225286
-0.182586506 -0.1690614074 0.9931917787 -0.22217682 0.2773723602 0.9249337316
-0.1732104123 -0.1571314037 1.021910906 0.4149375856 0.3398927152 0.446603328
-0.1731358021 -0.1719911546 0.9959334731 -0.2622718811 0.281244725 0.9231005311
-0.1696004868 -0.1669093221 0.9950029254 -0.2608824372 0.2775295973 0.9246060252
-0.1709979177 -0.1761371791 0.9991472363 -0.2622395158 0.2811815441 0.9231289625
-0.1765416861 -0.1774428785 0.996378541 -0.2583555281 0.2781686783 0.9250352979
-0.1752607524 -0.1639334857 0.9910331368 -0.2539628446 0.2794052064 0.9259239435
-0.1737340391 -0.1588771939 0.9887669683 -0.2322339565 0.2735459805 0.9332834482
-0.1826080829 -0.1750285476 0.9915143251 -0.2496223599 0.2719798088 0.9292765856
-0.1806081682 -0.1645159274 0.9887886643 -0.242959559 0.2736419141 0.9306240082
-0.1865314096 -0.1692227721 0.9885460734 -0.241868034 0.2658988237 0.9331584573
-0.1921854019 -0.1764527112 0.9875441194 -0.238206923 0.250592798 0.9382817745
