# .PCD v0.7 - Point Cloud Data file format
VERSION 0.7
FIELDS x y z normal_x normal_y normal_z
SIZE 4 4 4 4 4 4
TYPE F F F F F F
COUNT 1 1 1 1 1 1
WIDTH 512
HEIGHT 1
VIEWPOINT 0 0 0 1 0 0 0
POINTS 512
DATA ascii
0.01377279684 -0.02120070346 0.8994227052 0.5461733937 0.3008355498 0.7817778587
0.1277280003 -0.07968888432 0.9250635505 -0.07842436433 -0.7064187527 0.4893400967
0.1259601712 -0.08781152219 0.9165402651 0.2439241558 -0.4172852337 0.3699384928
0.1149127483 -0.08608048409 0.9196797013 0.5411784649 -0.6786448359 0.3345450163
0.1411485076 -0.09272330999 0.9096667171 -0.09222613275 0.03731809556 0.3872768581
0.1361431926 -0.08962318301 0.913428247 -0.02388298512 -0.168244645 0.399889797
0.1449860483 -0.0964120701 0.9056369066 -0.1183611527 0.2393666059 0.3646306992
0.133005634 -0.0875088498 0.9186061025 -0.1530463696 -0.3762403429 0.4579580426
0.123685807 -0.08494972438 0.922411263 0.06329158694 -0.6393640637 0.4425427318
0.1286043525 -0.09208579361 0.9120779634 0.2714832127 -0.2146353424 0.334068805
0.01777482778 -0.09204339236 0.9510300756 0.006324382499 0.5481712222 0.8343278766
0.004396631848 -0.05951841548 0.9239959121 -0.1627379656 0.5144147873 0.839677155
0.01571531035 -0.08634631336 0.9461781979 -0.02328481525 0.5422592163 0.8352647424
0.02430761792 -0.09506645054 0.9513699412 0.02210824378 0.5513227582 0.8338284492
0.02146473713 -0.08929242939 0.9466772079 -0.008140454069 0.5452830791 0.8347855806
0.009356371127 -0.07152590156 0.9315578938 -0.1067772433 0.5255883932 0.8379065394
0.01424244605 -0.09178048372 0.9424311519 -0.02129673399 0.5426561832 0.8352018595
0.00640759524 -0.06632717699 0.9288273454 -0.1304427236 0.5208631754 0.838655293
0.009777344763 -0.0773300007 0.9346568584 -0.08341740072 0.5302526355 0.8371673822
0.01236878522 -0.08088796586 0.9410374761 -0.05450023711 0.5360264778 0.8362524509
0.148819387 0.001975521212 0.8512755632 -0.441165179 -0.4169375002 0.7799578905
0.1534109265 -0.006292660255 0.8518262506 -0.5733006001 -0.2930318117 0.6826435328
0.158137545 -0.0129187163 0.8507788181 -0.6938416958 -0.199263528 0.6025097966
0.1413331181 0.0101806717 0.8473086357 -0.3290575743 -0.4242645204 0.8319115639
0.1415400207 0.00859442167 0.8400648832 -0.3476724923 -0.4421181381 0.8180168271
0.1324933469 0.01480473019 0.8391728997 -0.2287772596 -0.4046897292 0.8844704032
0.1081577912 0.02213325724 0.8518339992 0.1743300259 -0.0987213254 0.9259581566
0.09360516816 0.0127873309 0.8617782593 0.324492842 0.0918456912 0.9312406778
0.100554578 0.01911615394 0.8546886444 0.2608052492 0.01461090427 0.9307841659
0.1140657142 0.01861867309 0.8537585735 0.1452533156 -0.3010376096 0.8885082603
0.107271947 0.01533328276 0.8551303744 0.2578461468 -0.2465932071 0.8758938313
-0.002556556603 -0.04392367601 0.9123767614 0.03409132734 0.5611431599 0.825176239
0.06633617729 -0.004400388338 0.8623554707 0.3671386242 -0.03356359899 0.9123907685
0.05578497052 0.01076755673 0.8622453809 0.2161194235 0.1735328734 0.9432656765
0.07082232833 0.002823510207 0.8630478382 0.1541101187 0.03346915171 0.9648287892
0.0632474646 0.004199150018 0.8625196218 0.2385935336 0.07423820347 0.9413740635
0.1667543352 -0.04852557182 0.8695055246 -0.6872030497 0.3483228087 0.6152831316
0.1647638083 -0.03096302412 0.855099678 -0.8247831464 0.07842373848 0.5112688541
0.1384820938 -0.04463716969 0.8308433294 -0.3146876991 0.3116710484 0.8831353188
0.1660544425 -0.07228925079 0.8830894232 -0.7060084939 0.4003236592 0.5804710984
0.1663835049 -0.06506661326 0.88004601 -0.6882548928 0.4034929872 0.5986284018
0.1744934469 -0.06791261584 0.8905206323 -0.7270870805 0.3593236208 0.5782645941
0.1678267121 -0.0535617359 0.8754124045 -0.6645932794 0.4010459781 0.6271719337
0.1023346782 -0.1028868034 0.8956832886 0.8006786108 0.4909433722 0.2242229432
0.1078554466 -0.1067104936 0.8945115805 0.7048590183 0.5202129483 0.2964154184
0.1129518151 -0.1098145694 0.8899264932 0.5913426876 0.5697876811 0.4889679849
0.1295498908 -0.1012277976 0.8945554495 0.3020780087 0.2083816826 0.5658584237
0.1297342777 -0.09507641941 0.9065979123 0.2765932083 -0.06164987758 0.3910872638
0.1356902719 -0.09967076778 0.8983484507 0.1447490603 0.2374588549 0.487894088
0.135024026 -0.1046248302 0.8885867 0.1780925691 0.4466530085 0.6315128803
0.1535862982 -0.09974996001 0.9003810883 -0.2980824709 0.5270987153 0.3910829425
0.1226151586 -0.09490582347 0.9060611129 0.4522806406 -0.1830424219 0.4256704152
0.1358644962 -0.09842780232 0.9047557116 0.1257634908 0.1727299094 0.3910706043
0.1505539566 -0.1040434018 0.8973155618 -0.2234319299 0.6513670683 0.441714853
0.1178870276 -0.1002831459 0.9054509401 0.5599868894 -0.05271386728 0.4429126382
0.139954865 -0.1056121215 0.8972678185 0.03294952214 0.5380549431 0.4784723818
0.1313981563 -0.1057529971 0.8983139396 0.2390424758 0.400108844 0.4934682846
0.1246115118 -0.1107105538 0.8944741488 0.4063141644 0.4907570481 0.568557322
0.1267721355 -0.1024954095 0.9020919204 0.3478396833 0.1878983676 0.4580994546
0.1156782508 -0.09332334995 0.9124625325 0.6076826453 -0.3771562874 0.355545491
0.002767610131 -0.05432014167 0.919649303 -0.1671698391 0.5144447088 0.8393626213
0.003434964688 -0.04803692549 0.9147456288 -0.03448902816 0.5488379002 0.8312368393
0.05549652874 -0.1181438193 0.9581810236 0.170753032 0.742708981 0.6459469795
0.04890032485 -0.1158124655 0.9559673667 0.1717450023 0.7546727061 0.6332241297
0.006931580603 -0.01269061584 0.8980104923 0.5419653058 0.3027973771 0.7839562297
0.0004752189852 -0.02503144927 0.9012584686 0.5419653058 0.3027973771 0.7839562297
0.08748034388 0.008022771217 0.8614928722 0.2618763149 0.0576865077 0.9472506046
0.08555844426 0.003766899696 0.8573957682 0.3646692634 -0.1512321085 0.8900161982
0.08112087101 0.004531235434 0.862483263 0.1614113748 0.04862173647 0.9787265062
0.09190660715 -0.00347091374 0.8468209505 0.5000632405 -0.3820813298 0.7755206227
0.08967197686 0.001010419102 0.852727592 0.5100168586 -0.3055110276 0.7979906797
0.03896737844 0.01565390825 0.8674438596 0.3404940367 0.4193557501 0.8365614414
0.0488910526 0.01997259259 0.8610164523 0.2722864151 0.3811230958 0.8815608025
0.05814559385 0.01897659898 0.8605165482 0.2243833691 0.3805601001 0.8817840219
0.07528892905 0.01014148351 0.8633711934 0.1043295413 0.1494651735 0.9714905024
0.06293595582 0.01112218946 0.8623151779 0.1485113353 0.1805051267 0.9491729736
0.1145723984 0.02194716595 0.8478354812 0.2739328742 -0.2465950549 0.9178943038
0.1026080325 0.0112614315 0.8518522978 0.4371067882 -0.2509125471 0.8528177738
0.09632343799 0.008916202933 0.8554418087 0.4954964519 -0.2068587393 0.8387418985
0.1099006459 0.0146453511 0.8483193517 0.3655595779 -0.2941687405 0.872900188
0.009940160438 -0.006810075603 0.8940714598 0.5324836373 0.309395045 0.7868404388
0.02207132801 0.003879858879 0.8801700473 0.4494177997 0.3772166073 0.8042878509
0.01454607397 -0.002683552215 0.8887489438 0.5011311769 0.3347539008 0.7936128974
0.02832296118 0.00859045703 0.8765057325 0.4228417873 0.4016886652 0.8077819347
0.1335673928 -0.06189351156 0.8710328937 0.1079839841 0.191067785 0.8807249665
0.147181347 -0.05622653291 0.8653637171 -0.3281767666 0.4526049197 0.7213129401
0.1369082332 -0.06071486697 0.8647263646 -0.1278512031 0.4020503759 0.7622844577
0.1601608098 -0.03626024351 0.8552441001 -0.7419614196 0.1927038729 0.5375973582
0.1539129913 -0.04687475786 0.8583752513 -0.5962753296 0.4106516242 0.5951619744
0.1619761437 -0.04058725759 0.8608534932 -0.6788855791 0.2733040452 0.6029719114
0.1584352106 -0.05106819794 0.8665557504 -0.5328114629 0.4835408032 0.6850618124
0.1526088715 -0.04175123945 0.8471645713 -0.5405768156 0.2354703397 0.7125775218
0.1509809643 -0.04579223692 0.8514481783 -0.5407240987 0.3509212434 0.6607215405
0.1480189413 -0.0520655103 0.8566101193 -0.5160024166 0.5157124996 0.6124951839
0.1554898769 -0.04048499838 0.8539345264 -0.6765592098 0.2779974341 0.5528621674
0.1576883793 -0.03552376851 0.8493593931 -0.6878474951 0.1428913474 0.6016907692
0.1400047243 -0.07980212569 0.9132974744 -0.2926662266 -0.3923094571 0.517234385
0.1344726831 -0.07874595374 0.9184815884 -0.1970820725 -0.5578243136 0.5104396343
0.157578513 -0.08379118145 0.8970556259 -0.5902795196 0.1503659338 0.5331539512
0.149602294 -0.08738669753 0.9063614011 -0.4037690163 0.0480241999 0.4776116014
0.1530279219 -0.09228785336 0.9092278481 -0.3824605942 0.1803089827 0.4576711655
0.1587766707 -0.09611390531 0.9063262343 -0.4382191002 0.408131063 0.4343854189
0.1445757598 -0.08608740568 0.912800312 -0.31377846 -0.1698153913 0.5041585565
0.1398296505 -0.08520454168 0.917940855 -0.2151298523 -0.2978882194 0.4749060869
0.1653975397 -0.09998321533 0.9022037983 -0.5163574815 0.6579430103 0.4194221199
0.1747044176 -0.08736025542 0.8998923302 -0.6925396323 0.4691519737 0.507139802
0.1715948731 -0.09339523315 0.8997985721 -0.6322842836 0.5740734935 0.4747945666
0.1751694232 -0.07662329078 0.8940357566 -0.7703579664 0.3147855103 0.553445518
0.1719868183 -0.06149816886 0.8767091036 -0.7243089676 0.3250496089 0.6067373753
0.1738388091 -0.06759888679 0.8830497861 -0.7380383611 0.3054043353 0.5991996527
0.1677593291 -0.0629305318 0.8693544269 -0.678837657 0.2932000458 0.6708645821
0.1183599234 -0.0795076862 0.9206655025 0.4419881105 -0.6526079774 0.4145933688
0.1220597848 -0.07529405504 0.9124732018 0.2355749607 -0.5643606782 0.5665277839
0.1239066571 -0.07160253823 0.9000664353 0.1872217804 -0.3758422136 0.7068377733
0.1239185855 -0.06741148233 0.8781625628 0.3303919733 0.004441852681 0.8769007921
0.1240695044 -0.07562166452 0.9217253923 0.03336743265 -0.754424572 0.5428509116
0.1191457435 -0.07530356944 0.8924212456 0.4858419001 -0.2300802469 0.6576249003
0.1140468642 -0.08416430652 0.9132043123 0.6465634108 -0.5566717386 0.3784329891
0.1178332418 -0.07751613855 0.8994520903 0.535395503 -0.3307748437 0.571544528
0.1161230579 -0.08152848482 0.9073165059 0.5404490829 -0.4839294851 0.4736199975
0.1212343425 -0.07217764109 0.8868907094 0.4036552608 -0.1459787041 0.7486687303
0.1211870834 -0.07567687333 0.9051555395 0.2879946232 -0.4618199468 0.6059001684
0.1089479551 -0.08416921645 0.9235090613 0.6954006553 -0.6559105515 0.293597132
0.1153552383 -0.08035188168 0.9287228584 0.3104358613 -0.7568317652 0.3802635968
0.108717531 -0.0988330245 0.8837509751 0.6436262131 0.5242116451 0.5552923679
0.06224796176 -0.1210153177 0.9601591229 0.1713590473 0.7534722686 0.6346232891
0.1324252188 -0.1112462133 0.8911833167 0.2254639566 0.6285783052 0.5968810916
0.1327396631 -0.1112295762 0.8838492036 0.2472916394 0.5660648942 0.7399241328
0.1431156248 -0.1078743488 0.891687274 -0.02942757308 0.6573301554 0.5614264011
0.03845828399 -0.1135597602 0.9565171003 0.307125777 0.7440950274 0.5897570252
0.05605499446 -0.1104377583 0.955419898 0.1717450023 0.7546727061 0.6332241297
0.05835385621 -0.1031915694 0.9567510486 0.1374918967 0.6796161532 0.7180359364
0.06116843969 -0.1146401241 0.9589147568 0.1645580083 0.7323198318 0.6592780948
0.04832756147 -0.0003568099928 0.8607726693 0.4452188015 0.09233898669 0.8434443474
0.05589466915 -0.007070938125 0.8609393239 0.5585359931 -0.01962114125 0.7767276168
0.04125822335 0.005460483953 0.862701416 0.4011064172 0.2075633854 0.8697189093
-9.860348655e-05 -0.03939752653 0.9072937965 0.1934911758 0.5138902068 0.8072503209
-0.001199788647 -0.03130396828 0.9035421014 0.4526711702 0.3568640351 0.7900041342
0.1361440867 -0.02839543857 0.8266647458 -0.2329815775 -0.0546069257 0.9622839093
0.1289703399 0.003205251181 0.8468450904 -0.07848832756 -0.3965490162 0.8309090734
0.1239434853 0.001410998986 0.8433925509 -0.008134910837 -0.3741531968 0.8530153632
0.1324883103 -0.0007311295485 0.841739893 -0.2220388204 -0.3841163516 0.8780834079
0.1411232948 0.004761319607 0.8511621952 -0.2991055846 -0.4356350303 0.8110279441
0.1212668344 0.005026750732 0.8481760621 0.1123617962 -0.3869729042 0.8096330166
0.1188586056 0.01551186573 0.8475962281 0.2183053046 -0.3341939151 0.8753241301
0.134648636 0.007346661296 0.8508536816 -0.1452910304 -0.4133926332 0.8173526525
0.1142957434 0.009280427359 0.8467485905 0.2765738666 -0.3492605686 0.8390129209
0.1240006313 0.01213917509 0.8486648202 0.09601209313 -0.3631379008 0.8520374894
0.1388892829 -0.02081848681 0.8280678988 -0.2723879516 -0.2187063247 0.9327819943
0.05993016437 0.01573084109 0.854308486 0.2166739702 0.2851113975 0.9272320867
0.09860447794 -0.001914347406 0.8455278277 0.4664422572 -0.3454680145 0.8095872998
0.09616972506 0.001887551975 0.8501262069 0.4919177592 -0.285102427 0.8154972792
0.06288122386 -0.01921429671 0.861194849 0.698620379 -0.1539940685 0.6778351665
0.05635951832 -0.01482366677 0.8629407883 0.6431649327 -0.05021629483 0.7024527192
0.04956615344 -0.007080628537 0.863683939 0.5606480837 0.06452986598 0.75740695
0.03463224694 0.007258019876 0.8696303964 0.4327358305 0.3421134353 0.8181139827
0.04671416804 0.0008017924265 0.8674576879 0.4676196277 0.1818075925 0.8196311593
0.02003183402 -0.006544542033 0.8878662586 0.5008763671 0.3336373568 0.7952930331
0.01590101793 -0.0110652484 0.8938983083 0.5295706987 0.3122312427 0.7873083949
0.05166479945 0.005052494351 0.8632779121 0.3671881258 0.1456878036 0.8958735466
0.05357605964 -0.0009116985602 0.8655225039 0.4218326509 0.1057511792 0.8695306778
0.03352314606 0.01395636238 0.8704423308 0.3727667928 0.4355255663 0.8173763156
0.04418983683 0.01536100358 0.8618241549 0.2998943031 0.2770717442 0.9113078713
0.1321155578 -0.02324688993 0.8262206316 -0.1495689899 -0.1802639067 0.9658055305
0.1268002391 -0.03023105115 0.8250539899 -0.08417185396 -0.02672819793 0.9889308214
0.150088802 -0.06060237065 0.8705586791 -0.2382993251 0.295095861 0.8105626702
0.1535557359 -0.06730493903 0.8755576611 -0.3553096652 0.3145704269 0.744045496
0.1634328961 -0.0787634626 0.8844396472 -0.6466820836 0.3771373034 0.6048529148
0.1613908857 -0.05693961307 0.8689491153 -0.4794852138 0.3822501004 0.7618005872
0.1386622488 -0.06674920768 0.8739010692 -0.007892186753 0.2047147304 0.843762219
0.1534608752 -0.07653176039 0.8820253611 -0.4038431942 0.3053079545 0.6838700175
0.1579892784 -0.0724966675 0.8795784116 -0.4863633811 0.3426098526 0.6812477112
0.1452238858 -0.07317452878 0.8789686561 -0.1949329525 0.2473804504 0.7591122985
0.1570924222 -0.06189899519 0.8720642924 -0.4073631763 0.3457947671 0.7568505406
0.1651963145 -0.05953579396 0.8749648333 -0.6291624308 0.4065081775 0.6528504491
0.1424305737 -0.05931405351 0.871725738 -0.0875017792 0.2384587377 0.8210957646
0.1522275507 -0.05413239822 0.8703886271 -0.3196674287 0.3444990814 0.7609115243
0.1476281583 -0.01758998632 0.8325456381 -0.4214339554 -0.2648916841 0.8580166101
0.1579244435 -0.0223048348 0.8375154734 -0.529645741 -0.184389025 0.8215553761
0.153408125 -0.02636659332 0.8375089765 -0.5682712793 -0.05791967735 0.7710723281
0.1489069611 -0.02630569413 0.8320237398 -0.4415461719 -0.06846228242 0.8922654986
0.1616174579 -0.05019696429 0.852355361 -0.6683504581 0.4092718065 0.6147002578
0.1650377214 -0.06004466861 0.8639091253 -0.6590636969 0.3277409673 0.6715195775
0.1623729765 -0.05558586493 0.8568161726 -0.6541000009 0.3687168658 0.6521725059
0.1586225778 -0.04689438641 0.8453985453 -0.656285882 0.4433371723 0.6062064767
0.1609173864 -0.03392093256 0.8415925503 -0.6807342172 0.1450867951 0.6886204481
0.1625222415 -0.03982366249 0.848123908 -0.7044242024 0.2299172878 0.6421713233
0.1656132042 -0.04099385068 0.8540614843 -0.7231520414 0.1589902192 0.6569714546
0.1677529514 -0.0510713309 0.863268137 -0.7113540173 0.2863126993 0.6293606758
0.1677900553 -0.04437478632 0.8618294597 -0.7720569968 0.1880251318 0.5741105676
0.169674173 -0.05457922071 0.8687872887 -0.721409142 0.2993240952 0.6158227324
0.1562921405 -0.0878874734 0.9022603035 -0.5159513354 0.1584789306 0.5254643559
0.1630516946 -0.09057369083 0.8969488144 -0.6179107428 0.3809932172 0.5302119255
0.1518234164 -0.08244537562 0.9031531215 -0.4865512252 -0.04196695238 0.5309057832
0.1661519408 -0.08526329696 0.8896968961 -0.7338270545 0.3899206817 0.5475770831
0.1053491831 -0.09217470884 0.9124931693 0.8133716583 -0.319817692 0.1541567147
0.1001658365 -0.09805446863 0.9041359425 0.9813888669 0.1781223565 -0.04761167243
0.1234869957 -0.07030244917 0.9308553934 0.07445577532 -0.9120055437 0.3918736279
0.1113265306 -0.07594860345 0.9317945242 0.6149051189 -0.6998444796 0.2483831942
0.1043070704 -0.1002059355 0.8904669285 0.7490013838 0.5052120686 0.4112763405
0.1174323037 -0.108996138 0.8962450624 0.5840754509 0.3771226406 0.4967106581
0.1148068011 -0.10475263 0.9000747204 0.6484223008 0.2132520527 0.4022604525
0.1086022854 -0.1023968011 0.9003152847 0.8167256117 0.2689546049 0.1808772683
0.1100611836 -0.09700674564 0.9070837498 0.7645691037 -0.08731658757 0.2315235138
0.06621728837 -0.1101853177 0.9558870792 0.1612841189 0.7363609672 0.6549583077
0.07649894804 -0.1208264902 0.9588436484 0.1353683174 0.6989700198 0.7018601298
0.06909632683 -0.1216557771 0.9607345462 0.1642639935 0.7432172298 0.647339344
0.1621746272 -0.09770841151 0.8868883848 -0.5668188334 0.6121854186 0.526661098
0.1572277248 -0.09943366051 0.8817799687 -0.5135866404 0.6564442515 0.5353904963
0.1244607121 -0.1104555055 0.8829832673 0.373244822 0.5817539096 0.7208769321
0.1203199849 -0.1136903912 0.8889744878 0.4871707857 0.5978606343 0.6344620585
0.03083123453 -0.1029405594 0.9539502859 0.03132497147 0.5565259457 0.8272818327
0.03208535165 -0.1094906703 0.9523370266 0.1453221738 0.6569607854 0.7126048207
0.02375253476 -0.1043140218 0.9523737431 0.08767524362 0.5918226242 0.780774653
0.03144183755 -0.09613955766 0.9516174197 0.02344397455 0.551589489 0.8337861896
0.01787329651 -0.1023238897 0.948160708 0.02344397455 0.551589489 0.8337861896
0.04939744622 -0.09946000576 0.9550269842 0.1064251661 0.6372603774 0.7541555762
0.03733580187 -0.103424564 0.9540034533 0.03376265243 0.5570495725 0.8294613957
0.04275382683 -0.09690274298 0.9540933371 0.05918232352 0.5705003142 0.8188073635
0.04376611859 -0.1041311473 0.954724133 0.1443602443 0.6491803527 0.7432274222
0.09471706301 -0.04990212992 0.8368034363 0.4281308651 0.2278000265 0.872903645
0.1004309282 -0.05473053455 0.8452748656 0.4148034453 0.2126462162 0.8777016401
0.0939528048 -0.05073298886 0.8473168612 0.5239292979 0.1510490626 0.8238117099
0.09768734872 -0.05235012621 0.8521875739 0.5165035725 0.1265060902 0.8306236267
0.1044319794 -0.05710113049 0.8567280769 0.4625692666 0.140770793 0.8588591814
0.08723351359 -0.04947073758 0.8438491821 0.5834053755 0.1698949039 0.7884204984
0.1134968475 -0.06042475253 0.8638943434 0.4030678272 0.1137214005 0.8950214982
0.1214029938 -0.06396947801 0.8667871356 0.3212707937 0.1228064001 0.9371818304
0.1156739518 -0.06071082875 0.8571051359 0.3159363866 0.1620643288 0.9311333299
0.1092424765 -0.05837960169 0.8518676162 0.3548284769 0.1890917122 0.9102870226
0.1218594313 -0.06368869543 0.8606154919 0.2755972743 0.1511957198 0.9475061893
0.07932521403 -0.04745851085 0.8474596739 0.6208125949 0.1219123825 0.7616254687
0.06985810399 -0.04172780365 0.8512694836 0.6807383299 0.009196971543 0.7324544191
0.07012763619 -0.03048801608 0.8534995914 0.7080468535 -0.08998473734 0.698520124
0.07427734137 -0.005707870238 0.8601261973 0.3603090048 -0.1628266722 0.8997097611
0.07261819392 -0.01587067731 0.856572032 0.6067234278 -0.1943074018 0.7422521114
0.06619247049 -0.02774661034 0.8605294228 0.7081347704 -0.1530054659 0.6809210181
0.0761494711 0.01181935892 0.8483003974 0.238471508 -0.003969117533 0.920155108
0.08877330273 -0.009362761863 0.8440502882 0.5257865787 -0.3807120621 0.7597823143
0.07704484463 0.004275134765 0.8475664854 0.3393568695 -0.1223736554 0.8573083282
0.07943449914 -0.006639777217 0.8450587392 0.4562703073 -0.2246271223 0.8036183119
0.08469764888 -0.01430147048 0.8427722454 0.5466495752 -0.3708989918 0.7499611378
0.07994868606 -0.01994528063 0.8448401093 0.6346451044 -0.2231295109 0.7344875336
0.007655626629 -0.02428367175 0.8980238438 0.542063117 0.3027517796 0.7839055657
0.01082252525 -0.03376587108 0.902998209 0.5215427279 0.312702328 0.7828748822
0.006922706962 -0.04012879729 0.9074133635 0.2011480033 0.4938890338 0.8083812594
0.00696271332 -0.02800551988 0.9028717279 0.5464791059 0.3006930053 0.7816196084
0.1233924702 0.02303480916 0.8479202986 0.04057204351 -0.3584800959 0.9285885096
0.131878525 0.01519229263 0.8504841924 -0.07027738541 -0.3851042986 0.8644049168
0.1379906386 0.01342116855 0.8521954417 -0.2440417707 -0.4334834218 0.8458741307
0.1359476298 0.01429676916 0.8448109627 -0.2497966737 -0.411236167 0.8698499799
0.1264794618 0.01947327703 0.8432964683 -0.05850389227 -0.3676136732 0.9148052931
0.138256982 0.0001513617754 0.8441829681 -0.3098828197 -0.400880456 0.8582473993
0.16016078 -0.01917354576 0.8488320708 -0.7530933619 -0.1255822331 0.5713193417
0.1637711078 -0.02416857518 0.8497385383 -0.85028404 -0.0558299683 0.4990656376
0.1529249102 0.0001179689352 0.8454372287 -0.5172982812 -0.4118024707 0.7495003939
0.1470947713 0.004349488765 0.8420163989 -0.4314690232 -0.4386773109 0.7812688351
0.1557931006 -0.008784815669 0.8455957174 -0.5924201608 -0.3117132783 0.7104836106
0.136343956 0.007349122781 0.8367677331 -0.2573183775 -0.4298174977 0.8528705239
0.1372174323 -0.0008481294499 0.8344451785 -0.2568907738 -0.4164494574 0.8657066822
0.1301441342 0.0006847836194 0.8348304033 -0.1281372458 -0.3618223667 0.9150181413
0.1332977712 -0.006953550503 0.832682848 -0.1713619828 -0.3687090576 0.9094693661
0.1295197755 0.008200885728 0.8369194269 -0.144928351 -0.3734929264 0.9060450196
0.1210300848 -0.004301323555 0.8379229903 0.02161278762 -0.359169364 0.9175982475
0.1097402498 -0.003137208987 0.8415569663 0.2811805308 -0.3525571227 0.8634638786
0.1050499007 0.003064331599 0.8442270756 0.4249834418 -0.3437175453 0.8228642941
0.1170673966 -0.0001781993196 0.8426176906 0.1302549839 -0.3617571294 0.8533062339
0.0830694139 0.001324210316 0.8464345932 0.3890946209 -0.2432933599 0.8267428875
0.08052694798 -0.002969048917 0.8557110429 0.4544831216 -0.3080409169 0.8204791546
0.1382006556 -0.05995550752 0.8397709727 -0.2926332653 0.5060769916 0.7909970284
0.1452478319 -0.07310952991 0.8521981239 -0.2291990072 0.3638199866 0.8786165714
0.1499827653 -0.07737863064 0.8593716621 -0.2712337673 0.2321262956 0.922650516
0.1518112719 -0.07160514593 0.8568671942 -0.3671137691 0.2445327193 0.8747769594
0.1470448822 -0.06428958476 0.8474353552 -0.3560549021 0.4052121043 0.8032706976
0.1442704201 -0.05275893211 0.8367555141 -0.4272900522 0.5615038872 0.6978188753
0.1770895272 -0.08048886806 0.8996629715 -0.7565717697 0.3559502959 0.5408685803
0.1716697067 -0.0834017694 0.8946444392 -0.7419003248 0.3819124401 0.5426695347
0.1155775711 -0.07199721038 0.934079051 0.8719886541 -0.4591931999 0.1049875617
0.1215053424 -0.07759456336 0.9295932055 0.1029163003 -0.7862855196 0.4265231192
0.06886547804 -0.02265754901 0.8555805683 0.7141035199 -0.1568867117 0.6818236113
0.07499017566 -0.01815086603 0.8498835564 0.6692702174 -0.2426081151 0.6980684996
0.06842689216 -0.005081608426 0.8540563583 0.5279904604 -0.0624537468 0.7691960931
0.06961580366 0.007956352085 0.8489831686 0.2747389078 0.07408715785 0.9058635235
0.07027257234 0.0009815233061 0.8503217101 0.3981720209 -0.01442111935 0.8393194079
0.04798566177 0.007702890784 0.8587961793 0.340757221 0.1720576137 0.9030510187
0.06111114472 -0.001464556321 0.8560276628 0.4787307978 0.01033445913 0.8075402975
0.05474230647 -0.001118502696 0.8584579825 0.4868032932 0.0400483273 0.813703239
0.05384807661 0.01089583337 0.8556287289 0.2691093683 0.1864433736 0.9317730665
0.06088129804 0.008502718993 0.8534777164 0.2969708443 0.1297278702 0.9052698612
0.06351235509 -0.01158418413 0.8591990471 0.6557528377 -0.1170280203 0.7147222757
0.07759702206 -0.009900803678 0.8535560966 0.5521515012 -0.3108684123 0.7699201703
0.08566381782 -0.02065106109 0.8397601247 0.5712808967 -0.2465252727 0.7748650312
0.08645280451 -0.03210083395 0.8382811546 0.5888925195 -0.03101378866 0.8051456213
0.1031677946 -0.05339224637 0.8333681226 0.287312001 0.3591255546 0.85348171
0.1146445721 -0.05818643793 0.828990221 0.09247354418 0.5789384842 0.7893392444
0.1052611843 -0.04734239727 0.8301393986 0.2942358851 0.2523305416 0.90797925
0.1130115241 -0.04577782005 0.8284420371 0.1623690873 0.1945113838 0.9616910219
0.1412964016 -0.0837239325 0.8604323864 -0.04965184629 0.3276996017 0.9365465641
0.1510296464 -0.0832311511 0.8619078994 -0.3185793459 0.320741564 0.8814767599
0.1134293824 -0.09369731694 0.8736374974 0.4939927757 0.4711506367 0.7252787948
0.1090918183 -0.09065393358 0.8777827024 0.6023054123 0.4339091778 0.6529865861
0.1252773106 -0.1065856665 0.8780990243 0.3278838098 0.574651897 0.7493727207
0.1482037753 -0.006656157319 0.8429541588 -0.4761230052 -0.3327535391 0.7778861523
0.1508006155 -0.01327289641 0.841804862 -0.5676953793 -0.2585134506 0.7108867168
0.1570092738 -0.01552176103 0.8415778875 -0.6499490738 -0.2528021634 0.6718516946
0.1473735273 -0.007474277634 0.835878253 -0.4263798296 -0.3685411513 0.81908077
0.1216183081 0.0154287992 0.8387932777 0.02288356982 -0.3513173759 0.918720901
0.1220198572 0.007763699628 0.8362125754 0.01120486949 -0.3122164607 0.9468898773
0.1403219551 -0.00448861206 0.8392378688 -0.3562897444 -0.380749017 0.8495538235
0.1350464225 -0.05958534405 0.8573770523 -0.2379554212 0.6120458245 0.6913291812
0.1306886971 -0.06234754995 0.8617005348 -0.01080211531 0.4086661339 0.8011903763
0.1403185725 -0.03693258762 0.8363002539 -0.3418439925 0.1912117302 0.8550229073
0.1373695135 -0.05132543296 0.8479015827 -0.3173112571 0.5138829947 0.7333641648
0.1424400806 -0.0287511684 0.8307371736 -0.3605116904 0.007878836244 0.9142926335
0.1408591121 -0.04571865872 0.8427091241 -0.3537450731 0.3640161455 0.7879111171
0.1459818929 -0.03507642075 0.832043469 -0.406083703 0.09003788978 0.8989004493
0.1351131648 -0.03933950514 0.8316012025 -0.2269027382 0.200521946 0.9201389551
0.1343043447 -0.05495375022 0.8523074985 -0.2705369592 0.5938442945 0.6894465089
0.1276266128 -0.03314409778 0.83562392 -0.1050622761 0.06278117746 0.8741240501
0.1305692345 -0.0387365073 0.8379129767 -0.1636987031 0.1958777457 0.8492183685
0.127368167 -0.03954631463 0.8441081643 -0.1244131997 0.2242254019 0.7794286013
0.1228111908 -0.02359122783 0.8313726187 -0.007681089453 -0.1651007086 0.9205195904
0.1188692003 -0.02422208525 0.8375092745 0.04462826997 -0.1447251886 0.8520313501
0.1147664487 -0.02564258501 0.8327032328 0.1273511499 -0.16719836 0.9151234627
0.1223486513 -0.0355993323 0.8409045935 -0.02808872424 0.1048346385 0.8190608621
0.1265813112 -0.04717017338 0.8451576233 -0.1160847917 0.3668443263 0.7752493024
0.1147594079 -0.03236198053 0.8323316574 0.1261258125 -0.04418254644 0.9261954427
0.1225328669 -0.05002427846 0.8403366208 -0.03475252911 0.3712766767 0.8398770094
0.1175587699 -0.04360451549 0.8349502683 0.06719676405 0.1948703229 0.9030792117
0.1189291403 -0.05645358562 0.8450100422 0.03001911566 0.4297279418 0.8152987957
0.1126052141 -0.05542196333 0.8410161138 0.1499751061 0.3382158577 0.8709053993
0.1236958057 -0.06131771207 0.8549261093 0.1156456247 0.3075121045 0.8733318448
0.1427832991 -0.05754798278 0.8574835062 -0.4184576571 0.6388250589 0.6365574598
0.1441256106 -0.05036252737 0.8496060967 -0.3999023139 0.4444197118 0.7225800753
0.1531151682 -0.03501612321 0.8355230689 -0.4807515442 0.03517945111 0.8684141636
0.1525657624 -0.04191135988 0.837423265 -0.5502253175 0.3573810458 0.7265486121
0.115803875 -0.05132217333 0.8355703354 0.09355225414 0.3172948658 0.9074545503
0.1274998784 -0.05666701123 0.8484887481 -0.143505156 0.5533056259 0.7459936738
0.1378581077 -0.05143621936 0.8334432244 -0.3651555777 0.5573574305 0.7380306721
0.1286321431 -0.04328962043 0.8274539113 -0.1231659129 0.1758963168 0.9721549153
0.1456421614 -0.0454774797 0.8342134356 -0.4414620697 0.4512327909 0.7698562145
0.1066855192 0.01305157132 0.8378499746 0.3175220788 -0.3752576113 0.8701655269
0.1030047908 -0.0003800732375 0.8382662535 0.3590942621 -0.367796123 0.8519604206
0.1149152219 0.01520977542 0.8393544555 0.1903858185 -0.3185259104 0.9275682569
0.06829342246 0.02117347345 0.8519253135 0.1445926577 0.3303907812 0.9299083948
0.07638518512 0.01896743849 0.8561490178 0.1859167367 0.3491802216 0.9125365019
0.08287278563 0.01682958193 0.8584239483 0.2138746232 0.2756361961 0.9295133948
0.08942079544 0.01920557395 0.8547592759 0.2699631453 0.1946337968 0.9336872101
0.06290715188 0.02145552449 0.8556366563 0.1803235561 0.3857485056 0.901424408
0.06839929521 0.01861434057 0.858869493 0.2004047185 0.3483811915 0.9058476686
0.07644271851 0.02027713321 0.849185288 0.2041079104 0.2468920797 0.9387055635
0.08509430289 0.02035364136 0.8489226103 0.2626504004 0.1379535496 0.9380713105
0.1071999148 0.02015000023 0.8444476724 0.2820161283 -0.3144527674 0.9047539234
0.1005631387 0.02004540153 0.8447875381 0.3385971487 -0.3170651197 0.8718785048
0.09126221389 0.02052656375 0.846367836 0.2748013735 -0.1072269082 0.9049630761
0.09969625622 0.006244178861 0.8419086933 0.4541417062 -0.4302206039 0.7797924876
0.09135786444 0.008853352629 0.844958365 0.382339865 -0.2662650943 0.830218792
0.08355489373 0.008681552485 0.8465772867 0.3040836453 -0.1157803535 0.8829593658
0.09864827245 0.01206583623 0.8435295224 0.4372376502 -0.391002655 0.7894619703
0.1512322426 -0.06623314321 0.8529966474 -0.404137969 0.2988717258 0.8335334063
0.1480933428 -0.05731874332 0.8451732397 -0.4143142104 0.4293410778 0.7692568302
0.1505318731 -0.05028568953 0.841126442 -0.5123966932 0.4852131009 0.6787814498
0.1528134346 -0.05804391578 0.8514712453 -0.4416442811 0.3293649852 0.7988613248
0.167905122 -0.07214862853 0.8735333681 -0.673827529 0.2934428751 0.6682836413
0.1723714769 -0.07749603689 0.8861033916 -0.7373389006 0.339304328 0.5784173012
0.1647998244 -0.07960340381 0.8722472191 -0.630634129 0.311244905 0.7009925842
0.1683339626 -0.08205939084 0.880936861 -0.6798888445 0.3356873989 0.636954248
0.1604608297 -0.0631820336 0.8567709327 -0.6002127528 0.322971493 0.71380198
0.1565517932 -0.05257630721 0.8492313623 -0.5515015721 0.3582804203 0.713352561
0.1629001945 -0.06723210961 0.8622944951 -0.6215119362 0.298796922 0.7186506391
0.1560760885 -0.06876702607 0.8616588712 -0.4130147099 0.1882233322 0.8859263062
0.1587121636 -0.0784843117 0.8643612862 -0.5061523914 0.2818011045 0.8055488467
0.1517097354 -0.09754382819 0.8708130121 -0.4139718711 0.5921033025 0.6658358574
0.1510143876 -0.08939170092 0.8659255505 -0.3361083269 0.440564245 0.8016111255
0.1449074894 -0.08758269995 0.8635342121 -0.118020907 0.3871490955 0.908623457
0.1449062973 -0.1043800116 0.876824975 -0.1996719837 0.6225528121 0.6544957161
0.1555183977 -0.103079997 0.890628159 -0.3730310798 0.7024790049 0.496085465
0.1439184546 -0.1071055382 0.8853353858 -0.05856879801 0.6213279963 0.6472478509
0.1523324102 -0.1007495373 0.8762517571 -0.4515275657 0.6719908118 0.5666188598
0.1506791115 -0.1030504182 0.8819929361 -0.3238399625 0.6645461917 0.5735788345
0.136962831 -0.09277406335 0.8652148843 0.04303511977 0.4796779752 0.8691214323
0.1417288929 -0.1005531847 0.8683881164 -0.02608417533 0.5562971234 0.828175962
0.1453389376 -0.09573964775 0.8678588867 -0.1286519766 0.5122566223 0.8355646729
0.1128613651 -0.008593340404 0.8359786272 0.187768966 -0.373884201 0.9017316103
0.10620597 -0.01000928599 0.83590132 0.2902837694 -0.3548546433 0.8872987032
0.1084146425 0.004505259916 0.8372073174 0.280548811 -0.324927628 0.9017248154
0.1131821424 0.0007165180868 0.8339841962 0.1562607884 -0.3006788194 0.9389235377
0.1052229032 -0.01551845297 0.8327301741 0.2788060308 -0.3585500121 0.8883274794
0.1209072098 -0.02498908713 0.8249458671 0.02245933563 -0.1539023966 0.9837491512
0.1089662388 -0.02183325216 0.8274365067 0.2148278952 -0.238740921 0.9426254034
0.119293347 -0.05302087218 0.8283376694 0.02205245197 0.4042355418 0.879604876
0.1280721575 -0.05386384949 0.831202805 -0.2001310885 0.5450868607 0.7879915833
0.1328297853 -0.04853462055 0.8305615187 -0.2584232688 0.3872831464 0.8585011959
0.06927907467 -0.03969463706 0.8600040674 0.6931293607 -0.05898590386 0.7180839777
0.07862311602 -0.04066742212 0.8482846022 0.6568562388 0.03854715824 0.7476065159
0.08167441189 -0.03654549271 0.8432298899 0.6605321765 0.03187882528 0.7486339808
0.07523539662 -0.0325955227 0.8487059474 0.6933480501 -0.03599653021 0.7185415626
0.07371344417 -0.02561699599 0.8506134152 0.7003154755 -0.1142890751 0.7038451433
0.07867121696 -0.02822994813 0.8450695872 0.6680622697 -0.08079449832 0.7368655801
0.09137465805 -0.02562616207 0.8364964724 0.4962400198 -0.1714115739 0.8267408013
0.08968155086 -0.01651775464 0.8379935622 0.4984573126 -0.3479575813 0.7919738293
0.1034620106 -0.006089634728 0.8405501246 0.3917695582 -0.3527672887 0.8477833271
0.09788839519 -0.015279538 0.8350445032 0.3802832067 -0.3659591675 0.8469915986
0.08796171099 -0.04200373963 0.8385232091 0.5489733219 0.1003667191 0.8283935189
0.09564848244 -0.04166291282 0.8346788883 0.4248408377 0.1163494885 0.8838384748
0.09614998847 -0.02490054443 0.8312346935 0.4219831824 -0.1907854229 0.8838338256
0.09204957634 -0.03214136139 0.8336557746 0.4812014997 0.01267543808 0.8669453859
0.1042019278 -0.03904312104 0.8294475079 0.296079576 0.1162052602 0.9413331151
0.1034529805 -0.02179922536 0.8307856321 0.3014382124 -0.2615636885 0.9053777456
0.1011291146 -0.02870143019 0.8283329606 0.3488103747 -0.09953843057 0.9248131514
0.09761656076 -0.03596910089 0.8303381801 0.4136998057 0.09068066627 0.9049829841
0.1183977798 -0.03305098042 0.8251233697 0.0660969615 0.01925601624 0.9872564673
0.1141645536 -0.03725977242 0.8261179328 0.1605496407 0.09672091901 0.9796100855
0.1093836725 -0.0284659341 0.8262233734 0.2089114785 -0.09330672771 0.9637200236
0.1197150424 -0.04336340725 0.827304244 0.04572534189 0.1570775658 0.9821904898
0.1243752912 -0.03730084375 0.8253417015 -0.05042232201 0.09997911006 0.9914612174
0.1069577634 -0.06271416694 0.8455114365 0.3473283947 0.2826257348 0.8701835275
0.1140397936 -0.06670630723 0.8412003517 0.1769278646 0.5972326994 0.7156302929
0.1136361584 -0.06215873733 0.8354128599 0.1237207726 0.6037967205 0.7346457243
0.1070932075 -0.06756311655 0.8520942926 0.4135794938 0.2615820765 0.8559515476
0.1114481762 -0.07347533107 0.8542715907 0.359148562 0.4354408085 0.7527433634
0.1064362973 -0.07361744344 0.8599554896 0.4991891086 0.2651825845 0.8170250654
0.09981580824 -0.06216930225 0.8478187919 0.4613137245 0.261736542 0.8438757658
0.1040863842 -0.05617092922 0.8389389515 0.3219976723 0.249078691 0.9081177115
0.1087434515 -0.08846836537 0.8855075836 0.6912650466 0.2975021303 0.5969850421
0.1083028913 -0.0878463462 0.9169403911 0.69526577 -0.6248173714 0.3034913838
0.108010374 -0.0884404406 0.8941767812 0.6982444525 0.05129850656 0.5064442754
0.1055161208 -0.09358692169 0.8898248076 0.7892865539 0.4046797156 0.4092535377
0.1026666686 -0.09554029256 0.8990933299 0.915296495 0.2159395665 0.1095696315
0.1141241789 -0.09340445697 0.8827693462 0.5935596824 0.404424578 0.6520254016
0.1197204217 -0.09772826731 0.8897032142 0.5069631338 0.2248459905 0.6137652993
0.1283064932 -0.1057772264 0.8851177096 0.3473319709 0.4028121829 0.7047297359
0.1149759069 -0.09197891504 0.9062401652 0.61979568 -0.2906158566 0.4258361459
0.1121915281 -0.09008371085 0.9000352621 0.6580368876 -0.1192018166 0.4719567001
0.1216365099 -0.09883889556 0.8960556388 0.4843089283 0.04485416785 0.5615544915
0.1142751575 -0.09276753664 0.8910633326 0.605478704 0.1580920219 0.5712942481
0.1147156358 -0.1063511521 0.8824317455 0.5230243802 0.5897743106 0.6124079823
0.118799895 -0.1043474376 0.8775354028 0.4242468178 0.5499563217 0.7165262103
0.1126350984 -0.09915986657 0.8779956698 0.5293725133 0.5139193535 0.6599348187
0.1187901348 -0.09371125698 0.8684635758 0.38802737 0.4866238236 0.782499373
0.1387524307 -0.1059696898 0.8747217059 0.07903441787 0.5554804206 0.8120537996
0.1335821003 -0.03402848914 0.8273124695 -0.1866659224 0.07119304687 0.9681889415
0.1235720217 -0.01463506371 0.8310272694 0.0131775206 -0.3257205188 0.9293839335
0.120473519 -0.009460138157 0.8342357874 0.04156468809 -0.3731288016 0.9223587513
0.1180110872 -0.01759399846 0.8281795979 0.0868820399 -0.3362328708 0.9356577992
0.1271126121 -0.009682725184 0.8318920732 -0.0471190922 -0.3654006124 0.9250779748
0.1333646625 -0.01278962288 0.8307637572 -0.1652517766 -0.3680619597 0.9122849107
0.1390517652 -0.01248066872 0.8343262672 -0.3017770052 -0.2967801988 0.8887021542
0.166455403 -0.09169725329 0.8854311705 -0.6581403017 0.4982147217 0.562618196
0.170797199 -0.0937679857 0.8934862614 -0.6711546183 0.5010843873 0.5415264368
0.1609720141 -0.09072417021 0.876855433 -0.6263424158 0.5130500793 0.5838499665
0.16398184 -0.08523403108 0.8760771155 -0.6408717632 0.3941190839 0.6446267962
0.1568829566 -0.09130898863 0.8706303239 -0.5310733318 0.5029522777 0.6754622459
0.1587923765 -0.08553976566 0.8673632741 -0.5418409109 0.3878325522 0.7384210825
0.1151374504 -0.07584471256 0.8707249165 0.4861394167 0.2463863194 0.8362779617
0.1127678007 -0.0701360181 0.8666088581 0.4651765823 0.2120848447 0.8509021997
0.1080486625 -0.06712887436 0.8622660041 0.4862438738 0.2154181302 0.8385574222
0.09609723836 -0.06370407343 0.8530584574 0.5621481538 0.2403815538 0.7904546857
0.09080448002 -0.05738337338 0.8460168242 0.560185194 0.2337951064 0.7927889824
0.1011999175 -0.06857791543 0.8556624055 0.5226998925 0.2585723698 0.8086206913
0.1120788082 -0.08331371844 0.8798652887 0.6063814759 0.3119293451 0.697941184
0.1102236658 -0.08256544173 0.8737703562 0.5839783549 0.2979542911 0.7449061871
0.1279618889 -0.1001288965 0.87717098 0.2705239654 0.5281738639 0.7531915307
0.1197357252 -0.09668340534 0.8804963827 0.4688088 0.4646420181 0.6956018806
0.1403836459 -0.09875953943 0.876809895 -0.05617272481 0.5417687297 0.7524657845
0.1396916509 -0.1027606651 0.881940484 0.03270738199 0.5261611938 0.7176119089
0.1457987428 -0.09624776244 0.8799992204 -0.1928358674 0.5075734854 0.7046144605
0.1327463686 -0.1063940302 0.8784697056 0.215979889 0.5677837133 0.774400413
0.1506750882 -0.09232930839 0.8803783059 -0.3480490148 0.4857729971 0.6799656153
0.1569362879 -0.08918545395 0.883705318 -0.510715425 0.4475355744 0.6273052096
0.1497768462 -0.1014824733 0.8884751797 -0.2141015083 0.6050232649 0.5849941373
0.1615262777 -0.09341409057 0.891484797 -0.5610523224 0.5439722538 0.5103558302
0.1622902006 -0.1011332273 0.8972345591 -0.5119224191 0.7392373681 0.405167371
0.1549835503 -0.09577145427 0.8883700967 -0.3864221871 0.5263568163 0.5779105425
0.1521407664 -0.08363523334 0.8822336793 -0.3877032995 0.3680554032 0.676158309
0.1392437518 -0.08736026287 0.8748996854 -0.06317212433 0.4191531837 0.7928074598
0.1443334818 -0.09028039128 0.8768724203 -0.1942144781 0.4628050625 0.7440826893
0.1293808073 -0.07011801749 0.873508513 0.1985948235 0.1661809236 0.8943243623
0.1324941814 -0.08624178916 0.8717055321 0.1087434664 0.4012981057 0.8557348847
0.1375284493 -0.07663909346 0.8762788177 -0.01242619101 0.2629008293 0.8151943088
0.1310509145 -0.07648216933 0.8730210066 0.1519410908 0.2590875328 0.8750240207
0.1455830336 -0.08375481516 0.8788770437 -0.2214896083 0.368242532 0.7365580201
0.1182770506 -0.07922249287 0.8769884109 0.4641257823 0.2693593502 0.7815121412
0.1278875917 -0.08229992539 0.8727428317 0.2259392291 0.3367731571 0.8521743417
0.1219811291 -0.0843378976 0.8759078979 0.368430078 0.3491380215 0.7801041603
0.1216145456 -0.0918302089 0.8771463037 0.3699739873 0.4507510364 0.7219381332
0.1287215948 -0.09278222919 0.8738194108 0.1951456219 0.4824803472 0.7838427424
0.1229955405 -0.07515069097 0.8741142154 0.3527159989 0.2260243297 0.8569002748
0.1254706681 -0.09854653478 0.8696305156 0.3084175289 0.5296334028 0.7873587608
0.134671852 -0.09892579913 0.8693856597 0.1102790534 0.5514307022 0.8241893649
0.121113576 -0.05937460437 0.8317224383 -0.06144910306 0.6877568364 0.7006176114
0.1332439929 -0.05704937503 0.8365500569 -0.2407427281 0.5422493219 0.7689023614
0.1276106387 -0.0593210347 0.8354923129 -0.137213856 0.5929647684 0.7473973036
0.1313019842 -0.06783911586 0.8461280465 -0.03490576148 0.4181915224 0.847181499
0.1258285493 -0.07190094888 0.84694314 0.09721986204 0.4412336946 0.8421694636
0.123381272 -0.06523031741 0.8388751149 0.01199167222 0.5715790987 0.7672514319
0.1339143217 -0.07427123934 0.8524131775 0.01365239732 0.3354776502 0.9003834128
0.1383589506 -0.06584195048 0.8448321819 -0.2149197161 0.4410823882 0.83738029
0.1348614842 -0.07983893901 0.8574205637 0.07718362659 0.2735398412 0.9412027001
0.1408982277 -0.07705846429 0.8549199104 -0.1011458114 0.3175749779 0.9194843173
0.1381788701 -0.07114073634 0.8495977521 -0.1301015019 0.379959166 0.8764496446
0.1289644986 -0.09423805028 0.8659061193 0.225766927 0.4953763187 0.829865694
0.1257391572 -0.08441170305 0.8615019917 0.3039094806 0.2990528047 0.9017038941
0.132278651 -0.08450946212 0.8605816364 0.148846224 0.3306819499 0.9252835512
0.1267162412 -0.07964800298 0.856128037 0.2186760008 0.326536715 0.898989737
0.1219047755 -0.07618305087 0.8506343365 0.2151587307 0.4527267218 0.821415484
0.1140060872 -0.08811292052 0.868932426 0.469984144 0.3876724839 0.7812675238
0.1210119426 -0.0868992433 0.8647481799 0.3640564084 0.3472573161 0.8586806059
0.1158823222 -0.07776311785 0.856380105 0.3136112392 0.4223916531 0.803804636
0.1130980104 -0.08164858818 0.8651251793 0.4514202178 0.3169259727 0.8142893314
0.1130656376 -0.070760943 0.8483116031 0.2687675059 0.5201712847 0.7318566442
0.1186826602 -0.07134386897 0.8446872234 0.1678701937 0.54843539 0.7686001062
