# .PCD v0.7 - Point Cloud Data file format
VERSION 0.7
FIELDS x y z normal_x normal_y normal_z
SIZE 4 4 4 4 4 4
TYPE F F F F F F
COUNT 1 1 1 1 1 1
WIDTH 512
HEIGHT 1
VIEWPOINT 0 0 0 1 0 0 0
POINTS 512
DATA ascii
-0.02193254419 -0.1816119701 1.078434467 -0.2179877311 -0.2005274743 0.9548601508
-0.08192908764 -0.09389841557 1.001048446 -0.0263538342 0.3886118233 0.9208075404
-0.1064993292 -0.06233694777 0.9948641658 0.0932373777 0.2458576411 0.963971436
-0.1100402549 -0.05948173627 0.9939469695 0.1011350825 0.2279450446 0.9667246342
-0.1210093498 -0.05789118633 0.9940193892 0.07781820744 0.2037301064 0.9757372141
-0.08899603039 -0.09033207595 1.00398612 -0.005261866841 0.3673383296 0.9291008711
0.04029460624 -0.1527954191 1.081396699 0.3448830247 -0.1824986935 0.9204562902
0.061516352 -0.1168305352 1.078827143 0.3890629411 -0.1678652614 0.9057876468
0.05642440543 -0.1229599491 1.077198505 0.3890629411 -0.1678652614 0.9057876468
0.05435638502 -0.1304364949 1.077142 0.3890629411 -0.1678652614 0.9057876468
-0.09241391718 -0.01007382758 0.9920421243 0.2303925902 -0.06671755761 0.9707707167
-0.09441170096 -0.008723704144 0.9882954359 0.241648823 -0.06432310492 0.9680051208
-0.04961214587 -0.1726838052 1.080949306 -0.1947310567 -0.2204557359 0.9557610154
-0.04478542879 -0.1683121622 1.078040481 -0.1947310567 -0.2204557359 0.9557610154
-0.04839878529 -0.1780463308 1.076607227 -0.1947310567 -0.2204557359 0.9557610154
-0.04706755653 -0.1729306728 1.076818705 -0.1947310567 -0.2204557359 0.9557610154
-0.1147693917 -0.05424115434 0.9902086258 0.1210428998 0.2053161561 0.9710214138
-0.1157143936 -0.06056557223 0.9929975271 0.07287365943 0.2055478245 0.9751024246
-0.1197116822 -0.06237223744 0.9948207736 0.05214445293 0.2035923749 0.9775960445
-0.07715766877 -0.08620845526 1.001035929 0.04392518476 0.384437114 0.9218975306
-0.1043244153 -0.09894587845 0.9991633892 -0.008558381349 0.319370687 0.9474037886
-0.08504654467 -0.09574753046 0.9981539845 -0.04526140913 0.3887363672 0.9198574424
-0.09049562365 -0.0952213034 0.9972144365 -0.03311313316 0.3691976964 0.9273326993
-0.09747339785 -0.09813996404 0.9990878701 -0.02201216854 0.3440063 0.9376862049
-0.1087696105 -0.09419836849 0.9952743649 0.00404720474 0.3044867814 0.9522582293
-0.1157151312 -0.08737833053 0.9980795383 -0.01568860933 0.293553412 0.9555413723
-0.1130617186 -0.08978620917 0.9947981834 0.001528562047 0.2947286665 0.9553245902
-0.1122004911 -0.09040626884 1.000307798 -0.01819388382 0.302348882 0.9527344704
-0.1038301513 -0.09410957247 1.007596016 -0.01571079344 0.3176665008 0.947907865
-0.1072020158 -0.09238615632 1.004939795 -0.01674340479 0.3112965524 0.9499150515
-0.104927972 -0.09617729485 1.003556132 -0.01567995548 0.317856729 0.9478479028
-0.09349920601 -0.09925911576 1.00630343 -0.02038291283 0.3567094207 0.9337682128
-0.09782772511 -0.09998779744 1.009636164 -0.02041198686 0.3477783203 0.9373284578
-0.08861763775 -0.09600399435 1.005515933 -0.01923628338 0.3699577153 0.9284729362
-0.08155283332 -0.08866003901 1.003278494 0.03480438888 0.375030756 0.9257413745
-0.1015021577 -0.1007427201 1.003223181 -0.0160168726 0.3307900131 0.9435111284
0.03944975138 -0.1504555047 1.077661991 0.3462616205 -0.1742306352 0.9213263988
0.0304692965 -0.1514661908 1.082906485 0.2922537327 -0.165863052 0.9404790401
0.06000582874 -0.1126565412 1.077429771 0.3890629411 -0.1678652614 0.9057876468
0.05066873133 -0.1179253682 1.083091259 0.3890629411 -0.1678652614 0.9057876468
0.05429527909 -0.1154148951 1.080873966 0.3890629411 -0.1678652614 0.9057876468
0.04885586351 -0.1431390047 1.084273577 0.3820109367 -0.169531256 0.9081227779
0.04108611494 -0.1430830061 1.087532997 0.3609974086 -0.1718271673 0.916041553
0.03598627821 -0.1496454179 1.088143229 0.3346062601 -0.1785129756 0.9246181846
0.03741061315 -0.1547754705 1.086359382 0.3286842406 -0.1821099371 0.9257879853
0.04228983819 -0.1501467526 1.08539331 0.3507840633 -0.1770080775 0.9184271693
0.03647410497 -0.1426986456 1.089549065 0.3491944075 -0.1729144454 0.9205622673
0.03961787 -0.1378252506 1.088968754 0.3648548126 -0.1691853851 0.9153871536
0.04417418689 -0.1392844766 1.0868541 0.3751577735 -0.1686235368 0.9113016129
0.0383528471 -0.1336468905 1.089327812 0.3631052971 -0.1692807972 0.9160809517
0.04983535036 -0.137930721 1.084035277 0.3888915181 -0.1678746045 0.9058556557
0.04680314288 -0.1226867735 1.084580064 0.3862374723 -0.1680193394 0.9069080949
0.048334755 -0.1333391964 1.084483266 0.3867087364 -0.1679936349 0.9067211747
0.03492835909 -0.1379126906 1.091115475 0.3545340002 -0.169748202 0.9194797873
0.04089917243 -0.1294882745 1.086736202 0.3769527078 -0.1685256511 0.9105898738
0.04369427264 -0.1266277581 1.083964825 0.3890629411 -0.1678652614 0.9057876468
0.05179901049 -0.1251502633 1.081170917 0.3890629411 -0.1678652614 0.9057876468
0.05483485013 -0.1328997165 1.081256628 0.3890629411 -0.1678652614 0.9057876468
0.06053204462 -0.1220881045 1.079746842 0.3890629411 -0.1678652614 0.9057876468
0.05757913738 -0.1276957989 1.080557823 0.3890629411 -0.1678652614 0.9057876468
-0.1065256968 -0.05165308714 0.9927607775 0.1469375044 0.2176486701 0.9642460942
-0.1110367551 -0.05282986537 0.9929770827 0.1294702888 0.2128506601 0.9676318169
-0.03880007938 -0.1773307621 1.078449845 -0.1947310567 -0.2204557359 0.9557610154
-0.03370694816 -0.1785598248 1.079580069 -0.1984721571 -0.2120880783 0.9568320513
-0.03383946791 -0.1738225818 1.080276847 -0.194868058 -0.2201492786 0.9558002353
-0.04263960943 -0.1738579124 1.080530167 -0.1958034635 -0.218057096 0.9560680389
0.02376769856 -0.02551128902 0.9836760163 -0.4423398674 0.01898956113 0.8964086771
0.02268961072 -0.01296266355 0.9843794703 -0.455516696 -0.008505243808 0.8898711801
0.02915564738 -0.02969585173 0.9877881408 -0.4477885664 0.04021605477 0.8927244544
-0.1206132248 -0.07490087301 0.9969992638 0.001554632676 0.257714957 0.9651374221
-0.1202248111 -0.06857675314 0.9958691597 0.02745670266 0.2279257178 0.9721977115
-0.1154021472 -0.07411562651 0.9957444668 0.01082118507 0.2349238247 0.9718510509
-0.1169788241 -0.08208827674 0.9956595302 -0.01341265999 0.2699058056 0.9626826644
-0.0915062353 -0.08729565889 1.001292586 -0.01936873607 0.3666939735 0.9298194051
-0.09333463758 -0.09211485088 1.005294085 -0.01925094798 0.3577430844 0.9329944253
-0.09879965335 -0.09536697716 1.008877873 -0.01527192071 0.3312895298 0.9432125688
-0.09301071614 -0.09861279279 1.000892997 -0.0306966044 0.3603468239 0.9315298796
0.02757672407 -0.162497431 1.086694717 0.2738487124 -0.1923874617 0.9418862462
0.03290520608 -0.1560280472 1.081644177 0.3059781194 -0.1825890392 0.9327765107
0.02902242169 -0.1578744203 1.083918095 0.2798234522 -0.1824225485 0.9411769509
-0.1107141897 -0.01926901005 0.9871296883 0.1303475499 -0.007382637821 0.9910120964
-0.1047805473 -0.01515591703 0.9880412817 0.1713956743 -0.02672024071 0.982858777
-0.08275756985 -0.03930176795 0.9851516485 0.2583292723 0.08678410202 0.9586274624
-0.08378197253 -0.02221827395 0.9900752306 0.2661061585 -0.01631302945 0.9563553929
-0.07881370932 -0.028962126 0.9861322045 0.4093801975 0.005880696233 0.900873065
-0.07926095277 -0.03796218336 0.9874328375 0.2692205906 0.09188788384 0.9548763037
-0.08171475679 -0.03172212467 0.9881467223 0.261772126 0.043598447 0.9589184523
-0.0773383379 -0.04286539927 0.9868667126 0.2750860751 0.1297594458 0.9517066479
-0.07387904078 -0.04594580457 0.983725965 0.3549974561 0.1190926284 0.9009522796
-0.07993094623 -0.03517738357 0.9822705388 0.3594118357 0.006314755883 0.9177235961
0.02513945103 -0.04116082564 0.9929076433 -0.4441404343 0.06550908834 0.8935545087
0.02865998074 -0.03807938471 0.9904103279 -0.4449257255 0.05904814973 0.8936048746
0.03225523978 -0.04016725346 0.9938890934 -0.445260942 0.05629029125 0.8936263323
-0.01954144053 -0.1751058847 1.076999903 -0.2287772745 -0.2054752409 0.9510743022
-0.01719561592 -0.1687991172 1.077000022 -0.2494616657 -0.1844827086 0.9503342509
-0.04409916326 -0.0312532261 0.9589847922 0.1605565101 -0.2378484458 0.9563972354
-0.04150769114 -0.03627044335 0.9584406614 0.08926024288 -0.1775370687 0.9655066133
0.04884752631 -0.1399314851 1.077017903 0.3890629411 -0.1678652614 0.9057876468
0.04991564155 -0.1318045557 1.079318523 0.3890629411 -0.1678652614 0.9057876468
0.04187767953 -0.1370108724 1.081380248 0.3890629411 -0.1678652614 0.9057876468
0.03985868394 -0.133399263 1.084495425 0.3890629411 -0.1678652614 0.9057876468
0.0445785597 -0.1314182431 1.081244469 0.3890629411 -0.1678652614 0.9057876468
0.04585639015 -0.1433867365 1.077915549 0.3890629411 -0.1678652614 0.9057876468
0.04336576536 -0.1488421559 1.08049655 0.3641160131 -0.1770640314 0.9140954614
0.02433973178 -0.016835263 0.9856356382 -0.4535734653 0.003745725844 0.8905886412
0.02601599321 -0.0218492467 0.9877293706 -0.4517180026 0.01544332691 0.8912736773
0.03051673621 -0.03369787708 0.9902455807 -0.4463599324 0.04922281206 0.8932518959
-0.0177887436 -0.1794746518 1.081191301 -0.2433942556 -0.1835583001 0.9517681003
-0.01181962527 -0.180965215 1.080922365 -0.2508755028 -0.1617696583 0.9531260729
-0.0143421581 -0.173018977 1.077723384 -0.2547868788 -0.1705552936 0.9511896372
-0.007716994733 -0.1788918525 1.080642581 -0.2579368353 -0.116058737 0.958293736
-0.1122557074 -0.02529927529 0.9878458381 0.1130068004 0.010106178 0.9934433103
-0.105102621 -0.02244504914 0.9885510206 0.1367504448 -0.0089874072 0.9887313247
-0.09772772342 -0.01589825191 0.9909661412 0.2025781125 -0.03761462122 0.9763178825
-0.107045874 -0.02717314847 0.9878435731 0.1106344908 0.01736677252 0.9922955632
-0.1091249809 -0.03514327481 0.9896827936 0.1254405379 0.086472027 0.98441571
-0.02477611788 -0.1776850224 1.077000022 -0.209774971 -0.2128649056 0.9539297819
-0.01612490416 -0.180811733 1.077000022 -0.2452352643 -0.1988583952 0.9486980438
0.01466102619 -0.01854556799 0.9782604575 -0.4015392065 -0.03470456973 0.9144284129
0.02062573098 -0.01640675776 0.9810417295 -0.4508926868 -0.0170724839 0.8921728134
0.01663926616 -0.02383498289 0.978145957 -0.4233073592 0.0001987753494 0.905713737
-0.1043354422 -0.09210881591 0.9935174584 -0.0002022554399 0.3200675547 0.9458419085
-0.09800359607 -0.09222886711 0.9949872494 -0.01426567044 0.3443546891 0.9367043972
-0.100554578 -0.0871950686 0.9951686263 -0.005929927342 0.3446530998 0.9371276498
-0.09589352459 -0.08557894081 0.9965150356 -0.01536960062 0.365978986 0.929287374
-0.09368080646 -0.09059738368 0.9962565303 -0.02294923179 0.3644011617 0.9293463826
-0.09758130461 -0.08638172597 1.001752019 -0.01006764267 0.3361047506 0.9415832162
-0.1107631251 -0.08763533831 1.003667951 -0.01555477548 0.3035476208 0.9524254799
-0.1132849455 -0.08332436532 1.000475645 -0.01122916862 0.2959543467 0.954918921
-0.1053245291 -0.08719941229 1.003095865 -0.004823515192 0.3089973629 0.9508616328
-0.1202461347 -0.08077233285 0.9987608194 -0.01852690615 0.2853080928 0.9581940174
-0.1097562537 -0.07982289046 0.9986627102 0.01035530586 0.2814995348 0.9588383436
-0.1061764508 -0.08277606219 1.000043392 0.00508610392 0.2989018857 0.9539393187
-0.07511972636 -0.03379045054 0.9833143353 0.4968787432 0.02194683626 0.8671292663
-0.07182975858 -0.03672746196 0.9819174409 0.5259855986 0.006393573247 0.8497541547
-0.07809575647 -0.02479940653 0.9807847142 0.3738867342 -0.08020823449 0.917473495
-0.07137610018 -0.0320718959 0.9780814052 0.5411325097 -0.07439035922 0.8366234303
-0.07909801602 -0.03039855883 0.9814456105 0.3855245411 -0.0454711616 0.9091529846
-0.07757440209 -0.02165538818 0.9857162237 0.3970112503 -0.01931635477 0.912353456
-0.08062586933 -0.02455984242 0.9873110056 0.3787096441 -0.01916038245 0.9132534266
-0.08630619943 -0.0144193517 0.991347611 0.2542229891 -0.06970220059 0.9617273211
-0.0808750391 -0.01743677817 0.9879468083 0.3344100714 -0.04321227223 0.9354819655
-0.0351010859 -0.02900044806 0.9589998722 -0.0157106556 -0.183550328 0.9816394448
-0.03542108461 -0.0341453217 0.958999753 -0.04383905232 -0.1375433505 0.989192903
-0.09772455692 -0.06989908218 0.9900467396 0.104294166 0.2961163223 0.9473649859
-0.112980254 -0.0839972198 0.993753612 -0.003239535727 0.2705792785 0.9619909525
-0.1084051877 -0.0836705789 0.9920475483 0.03216449916 0.2876082957 0.9554400444
-0.1098446026 -0.07570334524 0.9937499762 0.03003375418 0.2616504133 0.9624484181
-0.105311498 -0.07445246726 0.9922453761 0.05352543667 0.2771447301 0.9561445713
-0.1091048121 -0.05583794415 0.9893113971 0.1293445081 0.2221092284 0.9653775692
-0.1025858447 -0.0587881729 0.9892645478 0.1327992827 0.2528176308 0.9568212032
-0.1067743599 -0.06641299278 0.9928597808 0.07100746781 0.2489100993 0.9633460641
-0.1019964218 -0.0676510632 0.9918400645 0.08626979589 0.2726920545 0.9553595781
-0.1133938953 -0.06532730162 0.9943401814 0.04774979874 0.2177472562 0.9740538597
0.04008904099 -0.1450841278 1.07969594 0.3767784536 -0.1703799665 0.9103198647
0.03549170122 -0.1457067579 1.082137465 0.3502170742 -0.168181017 0.9206524491
0.02338749915 -0.1528197676 1.086059093 0.2570570111 -0.1669778079 0.9514594674
0.02217735723 -0.1477381885 1.089887977 0.2375844866 -0.1279704869 0.9624484181
0.01864318177 -0.1522598267 1.087467194 0.2254898101 -0.1542761922 0.959536016
0.02284942195 -0.157068789 1.090000033 0.2504760921 -0.1814084202 0.9505026937
-0.01492601726 -0.1727291644 1.086654663 -0.2472951561 -0.1414412558 0.9572325349
-0.02181331255 -0.1768276691 1.081784129 -0.2111826688 -0.1929621249 0.9570814371
-0.01917765103 -0.1729122996 1.083686233 -0.2219064534 -0.178895697 0.9565377235
-0.03482618183 -0.1671503633 1.077235579 -0.1947310567 -0.2204557359 0.9557610154
-0.03772746772 -0.168180272 1.081555247 -0.2028987259 -0.2081253529 0.9559358954
-0.02336790226 -0.1668618023 1.080392361 -0.1974584162 -0.2163383365 0.955819428
-0.02880425937 -0.1727135181 1.080665708 -0.1984650493 -0.2148186862 0.9558409452
-0.02427025326 -0.171846956 1.082723856 -0.2135516405 -0.1920431107 0.956164062
-0.02270745672 -0.1683212072 1.086638212 -0.2409067452 -0.1507463306 0.9567498565
-0.03181417286 -0.1688484401 1.083709359 -0.2189344317 -0.1839169562 0.9562793374
-0.01651652344 -0.1683641523 1.088230729 -0.2530883849 -0.1323562264 0.957010746
-0.0297678411 -0.1666494012 1.077464461 -0.1947310567 -0.2204557359 0.9557610154
-0.02111309767 -0.1636022329 1.077224612 -0.2295233607 -0.1932820976 0.9530742168
-0.01815816015 -0.1656036079 1.081772923 -0.2323328108 -0.1963511854 0.9520588517
-0.01469204668 -0.176119566 1.083208442 -0.2621027231 -0.1588075161 0.9514982104
-0.01039132476 -0.1763958931 1.085129619 -0.2352028936 -0.1483849585 0.9592750072
-0.004920410458 -0.173989743 1.088356376 -0.2195244133 -0.1060830355 0.969766736
-0.009917432442 -0.1690870821 1.08969152 -0.2590810657 -0.112907283 0.9590066671
0.003056054702 -0.1756467819 1.086872697 -0.1468929946 -0.139105767 0.9787831306
-0.001526285894 -0.1710074097 1.090000033 -0.1863881797 -0.1078469381 0.975641489
-0.1139129475 -0.03028186224 0.9878150225 0.1107898206 0.03467440605 0.9929991364
-0.1106704772 -0.03952041641 0.9903876781 0.1308611482 0.1196105927 0.9812826514
-0.1134730205 -0.04814861342 0.9920573235 0.1218337119 0.1730802804 0.9761050344
-0.1172433943 -0.04506587982 0.9906290174 0.1020980403 0.130438298 0.9833495021
-0.1153743491 -0.03854785115 0.9888196588 0.1070336699 0.08345998079 0.9890386462
-0.11834234 -0.04986905679 0.9919966459 0.09978087246 0.1662783623 0.9788848162
-0.1002221033 -0.03807871416 0.9855998755 0.1432994902 0.07088654488 0.9850060344
-0.1070250347 -0.04119703546 0.9861626625 0.1421284378 0.1094889641 0.9816604257
-0.0968189314 -0.03456947953 0.985068202 0.1357622296 0.02378568053 0.9901839495
-0.09512963146 -0.02393161133 0.9884509444 0.1871339232 -0.01267904043 0.980038166
-0.09983316064 -0.02333860286 0.9898575544 0.1635953635 -0.01788094826 0.9826987982
-0.03607433662 -0.1808779836 1.07497406 -0.1984405816 -0.2121586651 0.9568229914
-0.02937404811 -0.1800422221 1.076635957 -0.20129475 -0.2057748139 0.9576401114
-0.03119412437 -0.1747862995 1.076544166 -0.1947310567 -0.2204557359 0.9557610154
-0.03996129707 -0.1677760631 1.076829433 -0.1947310567 -0.2204557359 0.9557610154
-0.03614113852 -0.17359218 1.076121688 -0.1947310567 -0.2204557359 0.9557610154
-0.04096124321 -0.1735404134 1.075431824 -0.1947310567 -0.2204557359 0.9557610154
-0.04184847325 -0.1780843884 1.074193716 -0.1947310567 -0.2204557359 0.9557610154
0.02444061823 -0.03092298098 0.9851067662 -0.4479726851 0.04101571813 0.892794311
0.01590821333 -0.03117118217 0.9831838012 -0.4513738155 0.02861640602 0.8885660172
0.01936516538 -0.02861555107 0.9857512116 -0.4295924902 0.007977551781 0.8988584876
0.01442200877 -0.02611302026 0.9833155274 -0.429223448 -0.0142749669 0.8975568414
0.01515681576 -0.02873661183 0.9788848758 -0.4364294112 0.02288724482 0.8984040022
0.01977151074 -0.02689324692 0.9814508557 -0.4384633899 0.0207908731 0.898090601
0.02285830863 -0.03805346042 0.9896461964 -0.4504536092 0.06212900952 0.8905357122
0.01862355508 -0.03703489527 0.9858560562 -0.4618445337 0.06187229231 0.8846769929
-0.07995387912 -0.09179673344 0.9975498915 -0.01389227062 0.3895617425 0.9199481606
-0.08645763248 -0.08620487899 0.9966627955 -0.008974062279 0.3803979754 0.9219456911
-0.07991532236 -0.08013109118 0.9943238497 0.07622564584 0.3563446403 0.9282895327
-0.07987589389 -0.08658898622 0.9960021377 0.02636895701 0.3741088808 0.9238496423
-0.07754401863 -0.05927485973 0.9896209836 0.1840804368 0.25089854 0.9447408915
-0.07788219303 -0.06612811983 0.9907546639 0.1403605789 0.3014181554 0.9423151016
-0.08011350781 -0.05009716004 0.9873697758 0.2186984569 0.1978561282 0.9514169693
-0.08419751376 -0.05532352254 0.9872142076 0.1551461667 0.2566277385 0.9539408684
-0.08507207781 -0.05098344013 0.9884496331 0.2013471574 0.205251649 0.9538967013
0.02186091244 -0.02549689822 0.9886228442 -0.4238291383 0.01310946513 0.9039423466
0.02368665114 -0.02974960767 0.9899610877 -0.4310356379 0.0270334892 0.9004914165
0.01852583699 -0.01033956558 0.9841635227 -0.4266168475 -0.02632014081 0.903204143
0.02596817538 -0.03388806805 0.9912298918 -0.4429863989 0.04262237996 0.8948684931
0.01931388862 -0.01729843952 0.9862126112 -0.4183013439 -0.01098068804 0.906768024
-0.05426995084 -0.007400870323 0.9757636189 0.4225565791 -0.3011162579 0.8539431691
-0.0717786327 -0.01317405328 0.9830409884 0.3772383034 -0.1115524024 0.9099952579
-0.07573968172 -0.01547731552 0.9849948883 0.3754106164 -0.05105485767 0.9228003621
-0.06083195284 -0.008006688207 0.9777140021 0.3933824003 -0.2589563131 0.8741800189
-0.07217372954 -0.01579398848 0.9776592255 0.4179487228 -0.09247902036 0.8992987871
-0.08172422647 -0.009016206488 0.9845554829 0.2897298038 -0.136733681 0.9402747154
-0.0699473545 -0.008412052877 0.9807172418 0.3477663696 -0.2061153203 0.9030696154
-0.07748518139 -0.01010266598 0.9824951291 0.3251799345 -0.143672809 0.9249444008
-0.03412063047 -0.02505254559 0.9626842141 -0.05109775439 -0.1800808609 0.97304672
-0.0279846061 -0.03050032444 0.9632331729 -0.2170923501 -0.08461112529 0.9589425325
-0.02364853956 -0.03219342232 0.9641869664 -0.3132283986 -0.04401599243 0.9454833865
-0.0181308277 -0.02658217028 0.9669522047 -0.3643137217 -0.08566305041 0.9205909371
-0.05192197114 -0.02025058679 0.9661301374 0.4090010822 -0.2925459743 0.8593015075
-0.05107066408 -0.04132285342 0.9599230886 0.3015931845 -0.1700452268 0.9288937449
-0.08139438182 -0.04671284556 0.984084785 0.215633899 0.17784971 0.952611804
-0.07724118978 -0.04944881052 0.9822353125 0.2207421362 0.1686296463 0.9446763992
-0.06471514702 -0.04678138718 0.9711433649 0.3337906599 -0.01017780136 0.9079422355
-0.06249090657 -0.0428564772 0.9674309492 0.3847267628 -0.08965566754 0.8973732591
-0.07377666235 -0.0529393889 0.9813026786 0.2141986042 0.177647531 0.9394733906
-0.07662555575 -0.04522698745 0.9796244502 0.2628787756 0.1032712385 0.9380751848
-0.06913297623 -0.04442023486 0.9733879566 0.323446244 0.007223928347 0.9170270562
-0.05838681757 -0.0425786227 0.9641088843 0.4166285694 -0.1399285197 0.8859551549
-0.06897768378 -0.04043544456 0.9794157147 0.5013003945 0.000769604987 0.8524836302
-0.07714596391 -0.05473222956 0.985257268 0.1815758795 0.2432587743 0.9474965334
-0.06994709373 -0.04607423767 0.9786349535 0.3681938946 0.06266073883 0.8936229944
-0.06934287399 -0.03975962475 0.9739217758 0.4041410089 -0.03658036515 0.8891832232
-0.06620522588 -0.0423416011 0.9702530503 0.3657440245 -0.05340205133 0.9051142335
-0.07319507003 -0.04113666713 0.9768651128 0.3532567918 0.02108469792 0.9074414372
-0.06868962944 -0.03522137552 0.9749004841 0.5055721402 -0.0813992843 0.8502848148
-0.07973004878 -0.04208543152 0.982334435 0.2968427837 0.1076169237 0.9268772006
-0.07613040507 -0.03798222169 0.9805510044 0.4051085413 0.03080674075 0.8863917589
-0.06061273068 -0.03640481457 0.9712430239 0.5271396041 -0.137757659 0.835062325
-0.0644955188 -0.03766395897 0.9752088189 0.5313584805 -0.07925288379 0.8385302424
-0.09935593605 -0.06008268893 0.9930462837 0.1229474396 0.2583000958 0.9577919245
-0.05076718703 -0.0379928723 0.9650286436 0.3206875324 -0.1589631289 0.8985088468
-0.04366341233 -0.04009185731 0.9620580673 0.1351206303 -0.1402288377 0.948348701
-0.03782233596 -0.04172592238 0.9586679935 -0.03184857219 -0.09350952506 0.9862507582
-0.0294662863 -0.03707715869 0.9600858688 -0.2107382119 -0.02702100016 0.9731624722
-0.06214870885 -0.03160006553 0.9693655968 0.4710015953 -0.1756852716 0.8610377312
-0.06504636258 -0.03453405946 0.9712495804 0.4870262444 -0.1244615018 0.8614406586
-0.06061877683 -0.03763349727 0.9664366841 0.4590127468 -0.1543762982 0.8730945587
0.01525707263 -0.1613175869 1.090000033 0.09776802361 -0.08424530178 0.9822958708
0.01989704184 -0.1609671265 1.090000033 0.1830969304 -0.145062685 0.9622656703
0.01683676615 -0.1562527418 1.090000033 0.1869954616 -0.150218457 0.9684281349
0.007936647162 -0.168079108 1.090000033 -0.0691312328 -0.06424386054 0.9926742315
0.01270428766 -0.1713722497 1.086772442 0.001849316643 -0.1274935901 0.991263926
0.01707433164 -0.1665289402 1.087900043 0.09898674488 -0.1169494539 0.9770044684
0.02167714946 -0.1646557599 1.086976886 0.2147594988 -0.1912446618 0.955190897
0.007275148761 -0.1583687961 1.090000033 -0.04965197667 0.02740733325 0.994736433
0.01036976837 -0.1619829386 1.090000033 -0.01343168505 -0.001497631776 0.9969651103
0.01073086727 -0.1658398658 1.086911798 0.009728490375 -0.1144044995 0.9780340791
-0.008629833348 -0.1619835943 1.081486702 -0.2165035903 -0.096843943 0.9645723104
0.006521529984 -0.1583815813 1.08488822 0.06191566959 -0.1527592838 0.9579287767
-0.002687087981 -0.1595862806 1.081801414 -0.0635105297 -0.1597844213 0.955175221
-0.01635746472 -0.1613458991 1.077260017 -0.2503663898 -0.1686944813 0.9513751268
0.0115287099 -0.1567940563 1.086582184 0.1447606385 -0.1501605362 0.9597239494
0.00527446717 -0.1698035151 1.085996985 -0.1131030023 -0.07376781851 0.9831376076
0.0003666246776 -0.1692325324 1.08540988 -0.1879205853 -0.03998231143 0.9771942496
0.0001226647728 -0.1780219823 1.083269477 -0.183526963 -0.103652887 0.9701446295
0.002326597692 -0.15982683 1.090000033 -0.1323694289 0.008436040953 0.9890211821
0.003789676819 -0.1640592068 1.090000033 -0.1066312417 -0.05007984489 0.991756618
-0.002481522737 -0.1593380272 1.087191701 -0.1701335609 -0.01964016072 0.9795795679
-0.00417273026 -0.1788877994 1.083785534 -0.2369358987 -0.1020867229 0.9654530883
0.02970830724 -0.1437063068 1.087109685 0.3197885752 -0.16011554 0.9332565069
0.0351594463 -0.1396963447 1.084869623 0.3614570796 -0.1662277728 0.9164813161
0.03121349588 -0.1496957093 1.089808941 0.3148983419 -0.1812681854 0.9306148887
0.03210025281 -0.1608576626 1.087125897 0.3017378151 -0.1886555701 0.9344816208
0.02928429656 -0.1552077383 1.089154243 0.2952875495 -0.1869150698 0.9360411167
0.02623408288 -0.144736141 1.090187192 0.2769187093 -0.1401409209 0.9490548968
0.02663473599 -0.151640743 1.090417266 0.2836037278 -0.1808145791 0.9402188063
0.03175785765 -0.1414530724 1.090994954 0.3264624476 -0.1649098098 0.9292495847
-0.1019830927 -0.03213830292 0.9863888621 0.118240349 -0.001677105087 0.9913985729
-0.09883188456 -0.02912406065 0.9855030179 0.1488303244 -0.02578003146 0.9866061807
-0.1008171216 -0.0205215551 0.9856585264 0.1950367987 -0.06549929082 0.9782366157
-0.09273479134 -0.01878198981 0.9900565743 0.2121550739 -0.03622093424 0.974801898
-0.08386582136 -0.02327295765 0.9820337892 0.295825392 -0.0610544458 0.9486497641
-0.07856750488 -0.01529315021 0.9804148078 0.3630260527 -0.08074057102 0.9221715927
-0.0885007605 -0.02202917449 0.9825529456 0.2573435009 -0.06509694457 0.9571517706
-0.08060881495 -0.01983753964 0.9797853231 0.3426320851 -0.068517223 0.9281203747
-0.08374475688 -0.01306059118 0.98347193 0.3055374622 -0.08895974606 0.9426566362
-0.09031894803 -0.01744577475 0.9849116802 0.2355623692 -0.07881421596 0.9658363461
-0.09314149618 -0.02301850915 0.9842817187 0.2070654631 -0.06393925101 0.9743406773
-0.08998268098 -0.0109024439 0.9867258072 0.2430612445 -0.09693797678 0.96482867
-0.09461712092 -0.01488270704 0.9862812757 0.2245914936 -0.08535403758 0.9701383114
-0.1005012095 -0.01361526642 0.9870808125 0.2223605216 -0.07490383834 0.9718010426
-0.08565049618 -0.02581440844 0.9873933196 0.2569238245 -0.02192003652 0.964820087
-0.08751031756 -0.01940644532 0.989738822 0.2332850397 -0.04869936034 0.9695840478
-0.0905084163 -0.02490089461 0.9878749251 0.1978964806 -0.02176861092 0.9774098396
-0.09347540885 -0.02867668308 0.9843326211 0.1846312582 -0.02649945579 0.9806227684
-0.08900842071 -0.02918104455 0.9839218259 0.221039325 -0.02133162692 0.9717707634
-0.08523938805 -0.03397014737 0.9841521978 0.2638596892 0.01155190077 0.963591814
0.01886931621 -0.0414920412 0.9865349531 -0.4602182806 0.1152916029 0.879262507
0.02517829649 -0.03557760641 0.9866892099 -0.4550609589 0.06577773392 0.8875094652
-0.0798593685 -0.06391628087 0.9875275493 0.1542043835 0.2884542346 0.9445148706
-0.08118747175 -0.06898970157 0.9887130857 0.1481843591 0.3076979518 0.939725101
-0.08925941586 -0.05659834668 0.988090992 0.1448135376 0.2607761323 0.954203248
0.01289262809 -0.01979001425 0.9834374785 -0.4046181738 -0.05966247618 0.9079586864
0.01910871826 -0.02269935235 0.9855052829 -0.4210040271 0.002033683937 0.9044770598
0.01596855372 -0.01388755813 0.9807177186 -0.4092649519 -0.03543899953 0.9108707905
-0.03956496716 -0.006774335168 0.9659143686 0.09077621996 -0.3797902763 0.9163426161
-0.05730025098 -0.01781686209 0.9702446461 0.4608679414 -0.25807634 0.8472693563
-0.06842978299 -0.01813899353 0.9748361707 0.4395588636 -0.1094482243 0.8873310089
-0.06158658117 -0.02181868255 0.9703578949 0.4285379052 -0.2018203884 0.8728647828
-0.01270377357 -0.04323755205 0.9700357318 -0.4019177854 0.09236190468 0.9104703069
-0.01662677526 -0.04307921603 0.9679543972 -0.3927589357 0.07365959138 0.9158383608
-0.0244889129 -0.02888729982 0.9605789185 -0.2537466288 -0.07981968671 0.9608425498
-0.009782396257 -0.02364515327 0.9661614895 -0.3800549209 -0.09186597914 0.9187131524
-0.03007808328 -0.02771814167 0.959000051 -0.1906233877 -0.1150359213 0.9720897675
-0.05456767976 -0.03863412142 0.9612181783 0.3945435286 -0.1786463708 0.9000437856
-0.0512278527 -0.03592693061 0.9593923092 0.3142063618 -0.1884401441 0.9256094098
-0.04982423037 -0.03145754337 0.960712254 0.2897048295 -0.2281847 0.9194197655
-0.05199946091 -0.0265089646 0.9640086293 0.363286823 -0.2838377953 0.8790687323
-0.05446622893 -0.03132025525 0.964432776 0.4104568064 -0.2358031124 0.8789645433
-0.04648784921 -0.0349259451 0.9589999318 0.2290623188 -0.2252357304 0.9434394836
-0.08581333607 -0.07519101351 0.9921384454 0.08478294313 0.3376389444 0.9331703186
-0.09243071079 -0.0779703334 0.9901163578 0.0984191671 0.3060077429 0.9447253942
-0.09993493557 -0.08340923488 0.99105829 0.0624573268 0.3034819067 0.9484381676
-0.09387091547 -0.0813357234 0.9935808778 0.03931715339 0.3393698335 0.9359056354
-0.09574013948 -0.08173730969 0.9994293451 0.007838345133 0.3286349773 0.9437832832
-0.09935319424 -0.0703907162 0.9962392449 0.06218989193 0.2828767896 0.9565674067
-0.1048125848 -0.07280968875 0.9966834784 0.05384785309 0.2531394958 0.9657878876
-0.1013801172 -0.08352096379 1.00050199 0.01049581356 0.3085942864 0.951048851
-0.09716938436 -0.07777443528 0.9979492426 0.03297173232 0.3039421439 0.9519274235
-0.1032540351 -0.078511253 0.9983965158 0.03130181134 0.2757578194 0.9600962996
-0.08259487152 -0.08390122652 1.000585914 0.03951519728 0.3648500443 0.9294034839
-0.08962679654 -0.08312778175 1.0001055 0.01957272738 0.3475940824 0.9364121556
-0.085954234 -0.08750446141 1.001076221 -0.00994924549 0.3839230835 0.9227921367
-0.03628643602 -0.03804515302 0.9634994864 -0.03139185533 -0.09395649284 0.9544539452
-0.04497277737 -0.03660515323 0.9662017822 0.1892026365 -0.1210385785 0.9009603262
-0.03123318218 -0.03505577147 0.9646080732 -0.1564750075 -0.04710776359 0.9294704199
-0.04794905707 -0.03210542724 0.967132628 0.2742504478 -0.1564389914 0.8830857873
-0.03435862809 -0.02990579605 0.9638472795 -0.0623970069 -0.1234719828 0.9474877715
-0.04300025478 -0.03132210299 0.9659410715 0.151612103 -0.1442198008 0.9064346552
-0.03077638149 -0.03233870491 0.9589999914 -0.167442292 -0.08440136164 0.9782466888
-0.03367543221 -0.03809691966 0.9580610394 -0.1269093007 -0.06708110124 0.9873973131
-0.02580770291 -0.03717659786 0.9634990692 -0.2927500308 -0.008368645795 0.954057157
-0.02568376996 -0.04206298292 0.9644403458 -0.2794181705 0.05347344279 0.9524940252
-0.03159644827 -0.03956075385 0.9634574652 -0.1434452683 -0.04124416038 0.9608033299
-0.05273036286 -0.03595914692 0.9686668515 0.3881017566 -0.1388905942 0.8542289138
-0.004425798077 -0.1663933545 1.090000033 -0.2154460996 -0.09043049067 0.9714426994
-0.0127035398 -0.1664754748 1.086552978 -0.2552503943 -0.1475036293 0.9543120265
-0.006653853226 -0.162709564 1.088126659 -0.2172345668 -0.07050451636 0.9691321254
-0.006717869546 -0.1743597835 1.081535459 -0.2489567995 -0.09621126205 0.9620374441
-0.001303678378 -0.1651290804 1.085508943 -0.200481981 -0.02372699231 0.9773629308
-0.01301471237 -0.1657752842 1.078823447 -0.2527601719 -0.1405803263 0.9555886388
-0.005799251609 -0.1684228629 1.082641602 -0.2288383543 -0.07487917691 0.9672111273
0.01323125791 -0.03643688187 0.9818094373 -0.4657176435 0.08466726542 0.8801827431
0.01349180564 -0.04272953793 0.9838733077 -0.4650429487 0.1512961686 0.8720272779
0.009633295238 -0.04197341576 0.9813966751 -0.4574364126 0.1622709185 0.8737755418
0.009727286175 -0.03588745371 0.9787820578 -0.4469165504 0.09928192198 0.8869521022
0.006975435652 -0.01726694219 0.9808365703 -0.3980128765 -0.08649660647 0.9087916017
0.01070648618 -0.03157918155 0.9806069732 -0.4503095448 0.04460484162 0.8879912496
0.007898678072 -0.02209082432 0.9806188941 -0.4148911536 -0.0410377793 0.9020503759
0.00614981167 -0.02761643007 0.9791917205 -0.4279443324 0.02170922607 0.8965905905
0.01002905518 -0.02638733946 0.9809740186 -0.4328514934 -0.005524465349 0.8949918151
0.004650550429 -0.03628131747 0.9778798223 -0.4461554587 0.1079163551 0.8880861402
0.004080049694 -0.04140972346 0.9786227345 -0.4422594607 0.1478269845 0.8836723566
8.998516569e-05 -0.04314789549 0.9769548178 -0.430760175 0.1417557001 0.8907380104
-0.08492422849 -0.06674020737 0.9920000434 0.1370600611 0.310562849 0.9402425289
-0.0853029564 -0.05971390381 0.9897685647 0.1476328969 0.2728346884 0.9502550364
-0.08943488449 -0.06116912514 0.9917323589 0.1410933584 0.2742044032 0.9507570863
-0.0892098695 -0.06771326065 0.9920803308 0.1294937879 0.3233335316 0.9372488856
-0.09474830329 -0.06472937763 0.9925943017 0.1334575415 0.2958203852 0.9455803633
-0.0939322859 -0.0742142722 0.9961015582 0.05615919456 0.3080329895 0.9491260648
-0.09535624087 -0.06960024685 0.9945172668 0.09610912949 0.300568223 0.947812438
-0.09327609092 -0.06768579781 0.9893887043 0.125707224 0.3016193211 0.9441255927
-0.09482431412 -0.07386447489 0.9899168611 0.104523547 0.3024390936 0.9455305934
-0.1029391736 -0.08008369803 0.9907685518 0.06748841703 0.2977892756 0.9501819015
-0.09983173758 -0.07478302717 0.9902285933 0.08992569894 0.2985717356 0.9480981231
-0.08670444787 -0.07100499421 0.9893109798 0.1320692599 0.308241874 0.9412251115
-0.09774497896 -0.05627377704 0.9889500141 0.1358285099 0.2528223693 0.957034409
-0.09397812933 -0.06040948257 0.988951683 0.1390615404 0.2822988629 0.9485926628
-0.1030080467 -0.05209763721 0.9890000224 0.1326154023 0.22112149 0.9659205675
-0.103659898 -0.05617239326 0.9932004809 0.1445757449 0.2473779768 0.9579373002
-0.1087789387 -0.04690017924 0.9879373312 0.136749357 0.1774449199 0.9742178321
-0.04406225309 -0.02547857352 0.9608664513 0.1768005937 -0.2522622645 0.9475040436
-0.0480921194 -0.02194623649 0.9639434218 0.3042108417 -0.2748923898 0.8993518949
-0.0704606697 -0.02179138921 0.9768337607 0.4629367292 -0.108154878 0.8777042031
-0.06529853493 -0.02248876356 0.9736204743 0.4890053272 -0.1731977016 0.8477088809
-0.07343670726 -0.02012869902 0.9825310111 0.4354690611 -0.08247166872 0.8882397413
-0.06449306011 -0.02882723697 0.9752947688 0.5608921647 -0.1855083853 0.8048946857
-0.07383138686 -0.02585572936 0.9816311598 0.4792743623 -0.06579238921 0.8711346388
-0.06813749671 -0.02614321373 0.9779680967 0.524050355 -0.1588539779 0.8300032616
-0.06800493598 -0.01816421747 0.9799443483 0.4515227973 -0.1548995078 0.8664784431
-0.06618434936 -0.0128406249 0.9807558656 0.4059474468 -0.159327805 0.8882984519
-0.05814519897 -0.01181091741 0.9765325189 0.4451941848 -0.2628272772 0.8498644233
-0.06292696297 -0.01554248296 0.9779613018 0.4552216828 -0.2129134387 0.8540220857
-0.05967635661 -0.01563246921 0.9737033248 0.4919523001 -0.2403612584 0.8357232213
-0.06173129007 -0.02041438408 0.975568831 0.514829278 -0.2465402335 0.8182823062
-0.05339758843 -0.01363648195 0.9711826444 0.441972822 -0.2974817157 0.8458530903
-0.0608484596 -0.02562618628 0.9733456373 0.532271564 -0.2209960222 0.8159348369
-0.04977009818 -0.007136215456 0.9733381271 0.3448315263 -0.3233108222 0.8780842423
-0.0486317426 -0.01523069758 0.9668706059 0.3401054144 -0.3192360401 0.8743469715
-0.05502617732 -0.02380237542 0.9708070159 0.475992173 -0.2354952693 0.8401688933
-0.05216854811 -0.01883470453 0.9707109332 0.4222007394 -0.2694343626 0.8571054935
-0.0564144589 -0.02979207039 0.9701491594 0.4962533414 -0.2022243291 0.8378325701
-0.05206730217 -0.0285689421 0.9684877992 0.3909053504 -0.2046813518 0.868637979
-0.04547929019 -0.02720901929 0.9658033252 0.2270365059 -0.2010385543 0.9147357345
-0.04914382845 -0.02456076257 0.9681113362 0.3308456242 -0.2295212746 0.8863914013
-0.04460724071 -0.02156730369 0.9667550921 0.2256510109 -0.2429968119 0.9165019989
-0.04095356539 -0.02525532246 0.9642031789 0.1182547584 -0.2064580023 0.9455939531
-0.01305528171 -0.0278841462 0.9652034044 -0.3637881279 -0.06559993327 0.9257521033
-0.01795603521 -0.03037914261 0.963681221 -0.331692785 -0.05212147161 0.9372719526
-0.0187334381 -0.03778519854 0.965123415 -0.3704156876 0.01736815646 0.9264058471
0.007361003663 -0.0323783271 0.9763481021 -0.4144613147 0.03969684988 0.9045194983
0.0113828443 -0.02655062824 0.975838244 -0.4078914523 1.739016989e-05 0.9116597176
0.008692211471 -0.02213985659 0.9752585292 -0.3659913242 -0.05315489694 0.9288960099
-0.08855246007 -0.07293912023 0.9950870275 0.08735729754 0.3196206093 0.9425489306
-0.0803726688 -0.07382544875 0.9917479753 0.1216981784 0.3302532136 0.9347093105
-0.07747797668 -0.07417364419 0.9954903126 0.1157505885 0.3311119676 0.9363352656
-0.08604542911 -0.07912035286 0.9984638095 0.05375519022 0.3373559415 0.9387786984
-0.09079356492 -0.07755307853 0.9978282452 0.04504477978 0.3217992485 0.9450620413
-0.07773142308 -0.08086253703 0.9990811348 0.07493674755 0.3599673212 0.9290596843
-0.09274084866 -0.05213593692 0.9878242612 0.1392029673 0.2273410708 0.9632405639
-0.08804462105 -0.04722682387 0.9863628745 0.1748607755 0.2007866502 0.9628844261
-0.09727482498 -0.05131121725 0.9882609248 0.1348347068 0.2191569358 0.9659589529
-0.1031495184 -0.04725071043 0.9883249402 0.1353631467 0.1855429411 0.9729660749
-0.09587093443 -0.04643077031 0.9873666167 0.1404894739 0.185685277 0.9722101688
-0.0970678851 -0.04163198546 0.9866930842 0.1428412646 0.1258112639 0.9790545702
-0.1016298011 -0.04160315171 0.9884502292 0.1438162625 0.1197738498 0.9795435667
-0.1080530882 -0.04401805252 0.9911419749 0.1336261779 0.1478748173 0.9777667522
-0.0924269557 -0.04283346236 0.9859468937 0.1590402871 0.149392575 0.9733651876
-0.08927646279 -0.0370776765 0.9848259091 0.2138924301 0.05591196194 0.9706894755
-0.08706495911 -0.04178881273 0.9854550362 0.2125368565 0.1335468739 0.9635285139
-0.03513042629 -0.02061047778 0.9652282 0.005561726633 -0.2090490311 0.9438902736
-0.02892007306 -0.02332913317 0.9640542865 -0.1463894099 -0.1557001472 0.9548136592
-0.04116288573 -0.01716705412 0.9630721211 0.1419261247 -0.3042306304 0.9325813651
-0.03186065331 -0.01910272613 0.9689967036 -0.02917900123 -0.2046361566 0.9011377692
-0.04329996556 -0.01440327894 0.9692947268 0.2302299291 -0.2878441811 0.89946419
-0.03791352361 -0.01744924672 0.9676929116 0.09280844778 -0.2399999797 0.9160757661
-0.02283962071 -0.02358326688 0.967402935 -0.2479482144 -0.1309635192 0.9171685576
-0.02771444619 -0.0104916878 0.9646894932 -0.1540201753 -0.3312969506 0.9254973531
-0.03349892423 -0.01768217236 0.961345613 -0.06503550708 -0.2571091354 0.9513581395
-0.03517626226 -0.008145350963 0.9635914564 -0.009818940423 -0.3635945618 0.9280589819
-0.02839516848 -0.01533641666 0.9632974267 -0.1556680799 -0.2682829797 0.9426596761
-0.03950952739 -0.02740418166 0.9591675997 0.06501153857 -0.2235913277 0.9687771797
-0.03782013431 -0.01373471972 0.9623377323 0.03851108998 -0.332973659 0.937461257
-0.03780541196 -0.02108499594 0.9606089592 0.0377369076 -0.2688546777 0.9564123154
-0.03980907798 -0.007004065439 0.97176373 0.1491236091 -0.320518434 0.8994538188
-0.02502571978 -0.007585017942 0.9668457508 -0.1947867721 -0.3509358764 0.9070857763
-0.02652069554 -0.007502097171 0.9724529982 -0.09585713595 -0.2791881859 0.9024024606
-0.03480906412 -0.008430837654 0.97179842 0.06612189859 -0.2987471521 0.8993263841
-0.04511424899 -0.01011157315 0.9708243012 0.270593822 -0.3212987781 0.8950268626
-0.02125381492 -0.007623796351 0.9726522565 -0.1946213543 -0.2643683851 0.9037142992
-0.01814794913 -0.01501410175 0.9662423134 -0.3172740638 -0.2340826392 0.9180613756
-0.0184823554 -0.007642867975 0.9686370492 -0.2867356837 -0.3075881302 0.9038154483
-0.02457000129 -0.02438219078 0.9619426727 -0.2721481025 -0.1241619959 0.9495115876
-0.02608764358 -0.01999303885 0.9624818563 -0.2195688784 -0.2023849636 0.9501975179
-0.02351896465 -0.01643939875 0.9643732905 -0.2375931144 -0.242413938 0.9375159144
-0.03840636835 -0.01324990951 0.9702718854 0.1417860836 -0.2854144871 0.8942093849
-0.02703421377 -0.01815932244 0.9702308178 -0.115092814 -0.2001844496 0.8922041059
-0.03385677189 -0.01458913088 0.9703186154 0.04223032668 -0.2578766942 0.8941153288
-0.02006903104 -0.01591357403 0.9707365036 -0.2454216778 -0.2031247318 0.8969287872
-0.01795271784 -0.02258628421 0.9701468945 -0.322832942 -0.1268055439 0.8900288343
-0.0169363264 -0.01197933685 0.9716948271 -0.2902615964 -0.2249304503 0.9013960361
-0.02658566646 -0.01296309102 0.9709435701 -0.09800504148 -0.2494239956 0.8978546858
-0.01066293661 -0.01682364754 0.9735293984 -0.4082834721 -0.1362641007 0.8995607495
-0.0061743767 -0.01682564802 0.9765821695 -0.3989675939 -0.1402652115 0.9033771157
-0.008210909553 -0.01132686343 0.9767526984 -0.3796133399 -0.1697233915 0.9077054262
-0.01130963489 -0.02169561945 0.9719331264 -0.4324118197 -0.1014054939 0.8935810328
-0.01663942635 -0.0199391339 0.9663307667 -0.3581324518 -0.1463849843 0.9179190993
-0.01087689307 -0.01730609126 0.9668221474 -0.3587761819 -0.1822856963 0.9082881212
0.001195221674 -0.01946795173 0.9799354672 -0.3941127658 -0.08193797618 0.9048542976
0.004960529506 -0.01969866268 0.9750031829 -0.3584911525 -0.108227089 0.9265184999
0.0001040887219 -0.02021595649 0.9718261957 -0.3752358258 -0.1130636111 0.9195084572
0.01091331802 -0.01631684043 0.9782281518 -0.3790851533 -0.06777572632 0.9219650626
0.01247206423 -0.01018684544 0.9821810126 -0.3895404935 -0.06460671127 0.9176821709
0.005746301729 -0.009371010587 0.981796205 -0.3872446716 -0.1397477686 0.9105787873
-0.005419837777 -0.01570848189 0.9704954028 -0.3505182564 -0.1840413511 0.9123550057
-0.0009884040337 -0.01520362962 0.9733465314 -0.3474236727 -0.175663501 0.9170857668
-0.003243031446 -0.009673882276 0.9768052101 -0.3651924133 -0.1904623508 0.9098822474
0.001360530965 -0.01001919992 0.9789756536 -0.3751400113 -0.1681381911 0.9107638597
0.003200734966 -0.01394519582 0.9772514701 -0.3674999475 -0.1485132426 0.9175496101
-0.01135468297 -0.008229771629 0.973552525 -0.3502270579 -0.2321591526 0.9069096446
-0.01258343924 -0.009598514996 0.9695495367 -0.318759799 -0.2713734806 0.9044719338
-0.002721311059 -0.01300990861 0.9798877239 -0.3724602163 -0.1693026274 0.9112552404
-0.00764312176 -0.0242382586 0.9739897847 -0.4164246917 -0.08873787522 0.901736021
-0.003422600683 -0.02188315615 0.9776470065 -0.3819653094 -0.1076151505 0.9139552712
-0.003027562518 -0.02848451212 0.9762483239 -0.3962653875 -0.04862578958 0.9120875597
0.0009859368438 -0.02665793709 0.9782645702 -0.4105032384 -0.01955532469 0.9019063711
-0.008581944741 -0.03285583854 0.9720586538 -0.4184853733 -0.01565930247 0.9067232013
-0.01240934338 -0.02774055302 0.9700286984 -0.4487910271 -0.05182401463 0.8908058405
-0.008022673428 -0.03800700605 0.9729035497 -0.4114179313 0.01955299079 0.9100154042
-0.005127046257 -0.04245164245 0.9748684764 -0.4131833613 0.1106313244 0.902776897
-0.0003889557265 -0.03797034547 0.9761052728 -0.4270137846 0.08683796972 0.8982573748
0.0003384462907 -0.03279655427 0.9742575884 -0.3903601766 -0.004633937031 0.9170513153
0.00208243751 -0.02835834585 0.973359406 -0.3658854365 -0.04635319486 0.9287609458
-0.004611955956 -0.0232401453 0.9677601457 -0.3915833533 -0.09315354377 0.9151708484
-0.003128716955 -0.02804418467 0.9709717035 -0.388050437 -0.05859335512 0.9187995791
-0.0150017729 -0.03307342529 0.9659758806 -0.3869464397 -0.02257104777 0.92105335
-0.007707467768 -0.02807741985 0.9684535861 -0.3959644139 -0.06139545143 0.9151763916
-0.01193738077 -0.03675629571 0.9694455266 -0.392304033 0.005414651707 0.9191533327
