# .PCD v0.7 - Point Cloud Data file format
VERSION 0.7
FIELDS x y z normal_x normal_y normal_z
SIZE 4 4 4 4 4 4
TYPE F F F F F F
COUNT 1 1 1 1 1 1
WIDTH 512
HEIGHT 1
VIEWPOINT 0 0 0 1 0 0 0
POINTS 512
DATA ascii
-0.1200734526 -0.05763925612 0.9710617661 0.09001626074 -0.2591450512 0.9544436932
-0.1179623902 -0.04951773956 0.9740093946 0.09198037535 -0.3411062956 0.931917727
-0.1942920089 -0.1178385764 1.00617969 0.1134640127 0.2117590606 0.9675341249
-0.1897362769 -0.1201777756 1.006623983 0.1305042952 0.2467753142 0.9578161836
-0.1784667522 -0.1239835098 1.008178234 0.1496623307 0.3101646006 0.9378747344
-0.1257330179 -0.2126575261 1.09504056 -0.1004226133 -0.5235415101 0.7825952172
-0.121522367 -0.2107352465 1.093220353 -0.06934455037 -0.4806368649 0.8317599893
-0.1161323935 -0.2177405357 1.091258168 -0.0651358515 -0.3474005759 0.9101262093
-0.1396470815 -0.2096219063 1.100690722 -0.1678397954 -0.7429875731 0.6048269272
-0.1290894002 -0.2173040509 1.096612573 -0.1368988752 -0.5319762826 0.7484821677
-0.1222873032 -0.2169180065 1.093777776 -0.09691319615 -0.4401684403 0.8323382735
-0.1342739165 -0.2137715071 1.098624587 -0.152994439 -0.6336118579 0.6783291101
-0.03045827709 -0.1696720123 1.077746153 -0.01858277433 0.2244447172 0.9743096232
-0.1685878634 -0.1285595894 1.006972194 0.1729862839 0.307980001 0.9352883101
-0.1497558057 -0.2085604519 1.072814822 -0.1933135688 -0.8176366091 0.5423101187
-0.1661349833 -0.1331423372 1.006989121 0.1725262254 0.3234945834 0.9302866459
-0.1633373946 -0.126374796 1.006953835 0.1835450381 0.3023143113 0.9351819754
-0.1924777776 -0.1240836233 1.011444211 0.1084955484 0.3244456649 0.9379435182
-0.1845087409 -0.1246273518 1.009294391 0.1315526366 0.3294932842 0.9338116646
-0.1259463131 -0.05887712911 0.9737318754 0.2447266281 -0.2777377367 0.9085757732
-0.1215378419 -0.06610399485 0.9696164131 0.1297420412 -0.1987221688 0.9527736902
-0.1227304712 -0.05229699984 0.9735688567 0.1521939933 -0.3113736212 0.9301751852
-0.1308399141 -0.06532285362 0.9748345017 0.3829304576 -0.2540269494 0.8725044727
-0.1369538009 -0.05920174345 0.9813144803 0.4842749536 -0.3160451055 0.8126505613
-0.2016859353 -0.1204576716 1.009455919 0.1132819951 0.2621945143 0.9583303928
-0.1738624871 -0.1190262139 1.007000089 0.1289634556 0.2553761601 0.9567525387
-0.1298605353 -0.05013463646 0.9792789221 0.3364915848 -0.3556902707 0.8540863991
-0.1291075349 -0.05546037108 0.9767044187 0.3255985677 -0.3174368143 0.8740909696
-0.1402735263 -0.05088473111 0.9876216054 0.4857298434 -0.3754471838 0.7887729406
-0.1420484483 -0.05560915917 0.9905454516 0.4931426346 -0.3509770334 0.7951452732
-0.1652646959 -0.05382059515 1.003681898 0.3065261543 -0.4132736027 0.8568344116
-0.1718508303 -0.05700165033 0.9997550845 0.2262716591 -0.3399251997 0.9103466272
-0.1108005643 -0.2111385614 1.089820623 -0.02457752638 -0.3345178962 0.9389947653
-0.09825635701 -0.2104811668 1.090312958 -0.01748969033 -0.1885813624 0.9786207676
-0.1049223691 -0.2111829072 1.090301037 -0.02347779833 -0.2541152835 0.9604751468
-0.1149888411 -0.2146024257 1.085972071 -0.1236563772 -0.274205029 0.9525432587
-0.1075080037 -0.2177026272 1.090701938 -0.04850538447 -0.1983362436 0.9758779407
-0.1118992642 -0.2216537893 1.090104342 -0.06067186594 -0.251603812 0.9629440308
-0.1369284242 -0.2122624516 1.092094779 -0.1805917174 -0.7832800746 0.5718861818
-0.1312892735 -0.2105693221 1.095451593 -0.1284127831 -0.6423663497 0.6931928992
-0.1165595353 -0.2112689912 1.090375662 -0.0451807864 -0.417591095 0.8866924644
-0.04105142504 -0.1886631101 1.084349036 -0.01720835268 0.2224037796 0.9747953415
-0.03152609989 -0.1858954132 1.083620548 -0.01660146192 0.2215025723 0.975009799
-0.1595922261 -0.1207982451 1.013346672 0.2130889744 0.2256707847 0.8861520886
-0.160601005 -0.1215461269 1.056013227 0.4951428175 -0.6065909266 0.2324309945
-0.1604646891 -0.1217591986 1.020081758 0.2604082227 0.09596568346 0.7818415761
-0.1679036617 -0.1223590374 1.006915927 0.1801186502 0.2893835902 0.9399440885
-0.1665871143 -0.1171623543 1.006984591 0.1693803072 0.2699186504 0.947732687
-0.1730082035 -0.1245234013 1.007419348 0.1636262238 0.3001092076 0.9393677711
-0.1823695153 -0.1316814423 1.016317725 0.1066536456 0.3901669681 0.9141575098
-0.180239588 -0.1276966035 1.011883736 0.1225753427 0.3607988358 0.9244084954
-0.1743224412 -0.1326451451 1.013034463 0.1345662326 0.3566363454 0.9236549735
-0.1713314354 -0.1297190934 1.026437759 0.2333080024 0.09324775636 0.7224040031
-0.1662635058 -0.1283746809 1.028787613 0.2831768095 -0.01911847852 0.6588441133
-0.1728634685 -0.1312425733 1.019194722 0.1776970923 0.250146091 0.836812377
-0.1615988761 -0.1217218339 1.062620521 0.5255889893 -0.718493402 0.1388518214
-0.1757389754 -0.1300188601 1.029478908 0.2214875817 0.09529171884 0.703589201
-0.1644425243 -0.1254766136 1.043755174 0.3887295723 -0.3252565563 0.4302051961
-0.1665847749 -0.1298142523 1.020718217 0.2308698297 0.1370460689 0.7782874703
-0.1725730598 -0.1278963387 1.038448095 0.2991856039 -0.1160580367 0.5545763969
-0.1687394828 -0.1280396432 1.033440113 0.2948049307 -0.07337174565 0.6053730249
-0.1633942425 -0.1257262528 1.022842526 0.2828493118 0.05221066624 0.7353303432
-0.1627934873 -0.1245156452 1.028163791 0.3210512102 -0.05611810461 0.654704392
-0.1638030559 -0.1258200705 1.013888836 0.2324593365 0.2252462655 0.871285677
-0.161496073 -0.1234573871 1.051023364 0.4555543959 -0.5017899275 0.307719171
-0.1622194052 -0.1237762198 1.036298156 0.3715062737 -0.2164310813 0.5312880278
-0.1904424876 -0.1277739108 1.0145787 0.1027136818 0.34614712 0.9301352501
-0.1871462762 -0.1317094415 1.017548084 0.09983123094 0.3813953102 0.917050302
-0.1950590611 -0.1299945712 1.018885255 0.1281047016 0.3249014914 0.9347270727
-0.1960935146 -0.07027588785 1.006600618 0.3024186492 0.05906353146 0.9500623941
-0.2008494139 -0.07528629154 1.009213448 0.3106881082 0.10042575 0.9451817274
-0.1240294799 -0.07432220131 0.9703996778 0.1130905822 -0.1087602377 0.9862269163
-0.1274206191 -0.06935998052 0.9718651175 0.2916376293 -0.2038559765 0.9052330256
-0.1325353235 -0.07374352217 0.973141551 0.4315984845 -0.1944329292 0.8650042415
-0.04569373652 -0.1869905293 1.086182117 -0.01858277433 0.2244447172 0.9743096232
-0.0428201817 -0.1823899597 1.08319366 -0.01858277433 0.2244447172 0.9743096232
-0.03771005571 -0.1931895167 1.086651683 -0.01479659509 0.2188224494 0.9756475687
-0.03483529016 -0.1874567121 1.089079976 -0.01845207438 0.2242506444 0.9743558168
-0.05305924639 -0.1948434114 1.086800098 -0.005625822581 0.1854385883 0.9824132323
-0.2001810968 -0.1246238723 1.013516426 0.1101630777 0.2726632655 0.9553154111
-0.1381501704 -0.07840641588 0.9746819735 0.5137550235 -0.1880889982 0.8367676139
-0.1794685274 -0.05751252174 1.00087595 0.2205799222 -0.2873497903 0.9316001534
-0.1975640059 -0.08638674021 1.006487727 0.297993511 0.08221253008 0.9503059983
-0.1071872562 -0.05374199897 0.9749265909 -0.1100001708 -0.2554111779 0.9547037482
-0.1111608893 -0.04934929684 0.9747564793 -0.007565944456 -0.3332955241 0.9370577931
-0.1148733944 -0.06152080372 0.9699649215 0.007766876835 -0.2215396464 0.9689722061
-0.1130546331 -0.05432552472 0.9727246165 0.005353705026 -0.2892577946 0.9496423006
-0.1480884403 -0.06024609134 0.9942703843 0.4921682179 -0.2915728092 0.8175088167
-0.1475484967 -0.05439371616 0.9895541072 0.4829697907 -0.3738209903 0.7857758403
-0.1648937017 -0.05765546486 0.9977796078 0.3111519814 -0.4237980843 0.8499174714
-0.1607292742 -0.06007939205 0.9954980612 0.3172416985 -0.385291338 0.8582279682
-0.1542529166 -0.05897589028 0.992433846 0.3833133876 -0.3683713973 0.8333073258
-0.1647878289 -0.06392066926 0.9970301986 0.2380309403 -0.36491099 0.8996494412
-0.08065330982 -0.2192902118 1.090000033 0.008762368932 -0.1599151343 0.9869456887
-0.07890236378 -0.2125017196 1.090000033 0.02818115242 -0.1203207523 0.9921729565
-0.08404689282 -0.2102744579 1.090000033 0.01738789678 -0.1390893608 0.9899192452
-0.0898469314 -0.2143061608 1.09017396 -0.0004962469684 -0.1712268591 0.9851225615
-0.120265156 -0.2139994502 1.086285472 -0.1418090016 -0.6084721684 0.7114367485
-0.1254508495 -0.2130095661 1.088431001 -0.1365034878 -0.664215982 0.6743834615
-0.03873070702 -0.1790127009 1.083016634 -0.01858277433 0.2244447172 0.9743096232
-0.02956694551 -0.1852544546 1.089159489 -0.01858277433 0.2244447172 0.9743096232
-0.03090224601 -0.1779023856 1.084996343 -0.01858277433 0.2244447172 0.9743096232
-0.02775316499 -0.1820533425 1.085466266 -0.01858277433 0.2244447172 0.9743096232
-0.03049215116 -0.1748881042 1.079292536 -0.01858277433 0.2244447172 0.9743096232
-0.03658914939 -0.1739471257 1.079969406 -0.01858277433 0.2244447172 0.9743096232
-0.1590250582 -0.1195179597 1.039608359 0.3916970789 -0.2827263474 0.4818406999
-0.1593845636 -0.1130687073 1.065419555 0.6467376947 -0.7327092886 0.01333749574
-0.1586855501 -0.1183281913 1.033637047 0.3661506474 -0.1570301652 0.5641402602
-0.1590635926 -0.1155099794 1.052409649 0.5287392735 -0.4989184141 0.2425072938
-0.1591117084 -0.1150076464 1.046144485 0.4901999533 -0.3755114079 0.3313215375
-0.1597342789 -0.1096606031 1.034511805 0.4667467177 -0.1179120019 0.4395404756
-0.1588378102 -0.1175211519 1.060964704 0.5669232607 -0.6759762764 0.1382492632
-0.1587138474 -0.117961973 1.025690317 0.3143146932 -0.002247439232 0.6802718043
-0.1597836018 -0.1096395776 1.057848096 0.6309149265 -0.5653725863 0.08443209529
-0.160390228 -0.1045391858 1.053132892 0.6533688903 -0.4420408309 0.09063666314
-0.1598670632 -0.1087733135 1.047284603 0.5661450624 -0.357174933 0.2339316308
-0.1613743007 -0.116197601 1.013430476 0.208861798 0.208368957 0.8789502978
-0.1597878784 -0.1153023168 1.018877268 0.2834817767 0.1344456524 0.7605406642
-0.1794881523 -0.1252596378 1.042025089 0.3230967522 -0.1804599911 0.5432330966
-0.1822927743 -0.127048403 1.03788197 0.2865299582 -0.06639385968 0.6274474263
-0.1757047623 -0.1228150576 1.047594666 0.3723486066 -0.3341864645 0.4298233688
-0.1871821731 -0.1309349239 1.029369593 0.2044519931 0.1777346283 0.7927524447
-0.1920286566 -0.1330393851 1.023067832 0.1556547135 0.338842243 0.9250469804
-0.1746505052 -0.1157203317 1.021438956 0.2018684298 0.07985591143 0.8144239187
-0.1837131381 -0.1258352399 1.03279984 0.2509594858 0.03144213185 0.7097768784
-0.170651108 -0.1178187877 1.044502378 0.3667413592 -0.3613451421 0.4390810132
-0.178275615 -0.1191722006 1.023441195 0.2046158612 0.1023714021 0.8107297421
-0.1791153699 -0.1213448495 1.029779673 0.2442814559 0.01080444828 0.721678555
-0.1898546219 -0.1283324212 1.021855235 0.1603640467 0.3057835996 0.9187581539
-0.1810020059 -0.1199378148 1.017115116 0.1546484679 0.2483359426 0.9255338311
-0.1827798188 -0.1229794249 1.023867965 0.1943356842 0.1643044502 0.8370842934
-0.1700702906 -0.1120512858 1.02187109 0.2180759609 0.002609659918 0.7746224403
-0.1718920469 -0.1148694977 1.027513266 0.2502564192 -0.06245136261 0.7031666636
-0.1721471995 -0.1163122058 1.032787442 0.2845537663 -0.145436123 0.6258407831
-0.1700517684 -0.1187506169 1.050600052 0.4089977145 -0.4709794521 0.3431771696
-0.1736191064 -0.118610017 1.037435055 0.3111455739 -0.1994689405 0.5667712688
-0.1756843626 -0.1213343516 1.041818023 0.3342512548 -0.2400567085 0.5159909725
-0.1653418541 -0.1166642457 1.05826056 0.4736065269 -0.6692984104 0.1939116418
-0.1781873405 -0.1168626174 1.013870358 0.1412861347 0.2586995065 0.953776896
-0.1860911548 -0.1247803718 1.019911647 0.1584094316 0.2801827192 0.9205648303
-0.1784659177 -0.1224891394 1.036962867 0.2938957512 -0.1174811497 0.609112978
-0.1648005843 -0.1127067134 1.054681301 0.4964804649 -0.5826226473 0.2051761746
-0.1651006341 -0.1075339019 1.048077464 0.5170452595 -0.4170832336 0.2506681085
-0.1661897004 -0.1079551578 1.041778684 0.4552284479 -0.3100496829 0.3675139248
-0.167320922 -0.1080729216 1.034941792 0.3932925761 -0.190647468 0.4896858931
-0.1639564186 -0.1012447998 1.049313545 0.6235514879 -0.3791391253 0.1426094621
-0.1629688889 -0.1001439095 1.054363251 0.6847152114 -0.4577003419 0.0384655185
-0.1660065055 -0.1145248637 1.048950911 0.4184226692 -0.4988764226 0.3311594427
-0.1667251289 -0.1139239222 1.043985605 0.383880645 -0.405641526 0.4104701579
-0.162802577 -0.1036618277 1.058622599 0.6686906219 -0.5661945343 0.01161426771
-0.16729936 -0.1118136123 1.038517475 0.3678666651 -0.2892068923 0.4779445231
-0.1655451655 -0.1226592883 1.058742166 0.4751148224 -0.5965995789 0.2155278027
-0.1709655523 -0.1263914257 1.047719002 0.3703948557 -0.3008697927 0.4158400893
-0.1831931025 -0.1329987496 1.022114038 0.1260785609 0.344032526 0.8590148091
-0.1810149252 -0.1317997575 1.027042866 0.172150135 0.2234465033 0.775321126
-0.1784863025 -0.1301923245 1.036370158 0.2506377101 0.02751539834 0.631604135
-0.1674042195 -0.1245973781 1.052996039 0.4264315963 -0.4548670053 0.3149203956
-0.2015135437 -0.08255968243 1.007647634 0.2997812331 0.06866554916 0.9512930512
-0.2021597624 -0.09080486 1.008091331 0.2656935155 0.05936362967 0.9620909691
-0.1933885515 -0.1121015549 1.014682651 0.1232146993 0.1849239469 0.9671674371
-0.1921445876 -0.1182953864 1.017173648 0.1411222219 0.2390452176 0.9532347322
-0.1927636862 -0.1246138886 1.019275546 0.1426180154 0.2872376144 0.9426261187
-0.1948884875 -0.1068802774 1.012289166 0.1046678349 0.138012886 0.9799367785
-0.1903725266 -0.1141938791 1.005586505 0.09973573685 0.1543106139 0.9805717468
-0.09723312408 -0.04968094081 0.9772443175 -0.2034540176 -0.1919792891 0.9594504833
-0.09804097563 -0.05601659417 0.9770874977 -0.2384978384 -0.1877214611 0.950363338
-0.1077854186 -0.06414373219 0.9729294181 -0.1441011131 -0.1198091432 0.9754301906
-0.1049617603 -0.0591522269 0.9755617976 -0.1884618253 -0.1540799588 0.9668682814
-0.06923582405 -0.2014544308 1.087144136 0.05333784968 0.03611046821 0.997693181
-0.1761395335 -0.1123672575 1.011412501 0.1311918795 0.2302624583 0.9633262753
-0.2001300901 -0.1068943217 1.011211157 0.09695713967 0.1260161251 0.9824547768
-0.1983880252 -0.1148857474 1.013015151 0.1103242263 0.1964067668 0.968202889
-0.2000174671 -0.1004569754 1.006064892 0.1849259436 0.09322756529 0.9736098647
-0.1999152303 -0.1124527603 1.005161524 0.1023545191 0.1776804477 0.977093339
-0.1999563724 -0.1072949618 1.00554955 0.1378411353 0.1413535476 0.9756018519
-0.1952040493 -0.1095875427 1.004986644 0.09869271517 0.1190430224 0.9875549674
-0.1966821104 -0.09389916062 1.006763458 0.2558470964 0.09824286401 0.959327817
-0.1807785928 -0.05802697688 1.006126523 0.2926191986 -0.24297221 0.9088481069
-0.1917406023 -0.06519542634 1.004728794 0.2915783525 -0.03849449381 0.9504393935
-0.1909083277 -0.05982125923 1.003976464 0.2883938551 -0.177467078 0.9393675327
-0.1740460098 -0.05093792826 1.009332061 0.3048345149 -0.3574636877 0.8709943891
-0.1781973541 -0.05306601152 1.006675839 0.2841989696 -0.331377238 0.8935477138
-0.1858351529 -0.05738434568 1.003645062 0.2670920491 -0.247228682 0.9282217622
-0.1485879272 -0.07928562909 0.994582355 0.5475753546 -0.05936162174 0.8220086098
-0.1428580284 -0.06777112931 0.9810337424 0.5292602777 -0.2585009336 0.8036336899
-0.1380320936 -0.06569796801 0.9791272283 0.4920016229 -0.2703926265 0.8240998983
-0.1387612671 -0.07080116123 0.9770255685 0.4991933405 -0.2322873622 0.8324100971
-0.1426870525 -0.07551648468 0.9769638777 0.5297425985 -0.2004853189 0.8230976462
-0.1418761611 -0.06078577414 0.9837786555 0.51849401 -0.3118343949 0.7923494577
-0.1474142075 -0.06218090653 0.9887410402 0.4820267856 -0.3012962341 0.8092841506
-0.1171215177 -0.04401309416 0.9809445739 0.1151840538 -0.334682256 0.9332476258
-0.09299655259 -0.04889659584 0.9806250334 -0.2329007536 -0.2149613053 0.9473651648
-0.1576813906 -0.05405151844 0.9955902696 0.3877872229 -0.4050598443 0.8192195892
-0.155759871 -0.04896337911 1.001333237 0.4023318291 -0.4061905742 0.8116272688
-0.156941846 -0.04879831523 1.006740808 0.3720517755 -0.4123903215 0.8278598785
-0.1512892395 -0.05020382628 0.994566083 0.4548617899 -0.3901386261 0.7915653586
-0.1602306068 -0.05099540576 1.002636075 0.35838449 -0.4126765132 0.831107676
-0.1458962411 -0.0499890931 0.9913764596 0.5067022443 -0.3761462867 0.772777617
-0.1496231258 -0.0543615669 0.9973838329 0.449804008 -0.373576045 0.8096204996
-0.1852560043 -0.1040336043 1.00999999 0.147214219 0.1498826593 0.9767735004
-0.1713198572 -0.1008778736 1.005702853 0.2082071602 0.2494073808 0.9434542656
-0.1741192192 -0.09424716979 1.004168272 0.246832341 0.2130353153 0.9419929385
-0.1869331449 -0.09474984556 1.009052396 0.2394513637 0.1696529984 0.9555364847
-0.09086472541 -0.214604795 1.083791256 -0.0067579397 -0.150093466 0.9883658886
-0.08657498658 -0.2110828459 1.084776282 0.007145193871 -0.1449189186 0.9891759157
-0.0910532549 -0.2193941623 1.080629587 -0.01215376146 -0.1460494995 0.9888960123
-0.09450541437 -0.2239692956 1.077833176 -0.02386337146 -0.1476654112 0.9885491729
-0.09958530962 -0.2191334218 1.082596302 -0.02605338581 -0.1737950891 0.9839212298
-0.09492982924 -0.212829113 1.087085009 -0.01417626534 -0.1647801548 0.9859753847
-0.08590080589 -0.2199310511 1.090009451 0.007388389204 -0.1682865024 0.9856640697
-0.07503297925 -0.2184831053 1.090000033 0.02269731835 -0.1259194613 0.9915345311
-0.08476416767 -0.215657562 1.085342288 0.0002938174293 -0.1396331936 0.9900379777
-0.0803232044 -0.2065757364 1.087000012 0.03046631813 -0.09141670167 0.9925411344
-0.1299888939 -0.2145655751 1.085957646 -0.1933135688 -0.8176366091 0.5423101187
-0.1398632824 -0.2146698534 1.097992659 -0.1835411042 -0.7679198384 0.5781555772
-0.1192673668 -0.2245027274 1.088254571 -0.1302548498 -0.4968292415 0.7736099362
-0.1271029711 -0.2207780182 1.091899753 -0.1509529203 -0.6021294594 0.6976892352
-0.1320364922 -0.2194667161 1.090383649 -0.191205889 -0.8069139123 0.5500410795
-0.161402747 -0.1000114754 1.064575911 0.7571190596 -0.636153996 -0.1183767468
-0.1604726911 -0.1054668948 1.024696231 0.3494170308 0.004712108057 0.6126110554
-0.1612875015 -0.1039957553 1.045312762 0.5862335563 -0.3056993783 0.2185680866
-0.160505116 -0.1032359749 1.032251 0.4383392036 -0.1146286875 0.4592751563
-0.1611869335 -0.1106266305 1.02277565 0.3209951222 0.05023315921 0.6758654714
-0.1603907496 -0.108786568 1.012790442 0.2095305026 0.1921363026 0.8532209992
-0.1612876505 -0.1090639159 1.029604435 0.4007975459 -0.05613925681 0.5396630764
-0.1676654369 -0.107198067 1.021704197 0.2872454524 0.0450280793 0.7091454864
-0.166864723 -0.1081585512 1.014315605 0.2039371878 0.1585013121 0.8500978351
-0.1639368385 -0.1032055989 1.037242651 0.4836153388 -0.1930966228 0.3796919882
-0.1698467582 -0.1100052372 1.009832144 0.1398203969 0.2270298004 0.9567905068
-0.1620662212 -0.1058925018 1.017367601 0.2584111392 0.1121154577 0.7605772018
-0.1653384119 -0.1047873944 1.030923724 0.4042066634 -0.09624805301 0.5129702091
-0.1603568196 -0.1195167825 1.067576766 0.5646954775 -0.8225916624 0.06153619662
-0.158480376 -0.1151994616 1.070780396 0.6179713011 -0.7836369276 0.0268826019
-0.1632056385 -0.1077509522 1.066818595 0.6658088565 -0.7300815582 -0.05208289996
-0.1639574617 -0.1153979227 1.068279982 0.5378490686 -0.8414504528 0.04847689345
-0.158429265 -0.1067638546 1.068529248 0.6461003423 -0.7625809312 -0.01795412414
-0.1136496067 -0.04872642457 0.9796401262 0.03234643117 -0.2883995473 0.9370431304
-0.1202349886 -0.05010262504 0.9812648892 0.2161987722 -0.3225310445 0.9026872516
-0.1115815192 -0.05319213867 0.9788475633 -0.005772856995 -0.2541859448 0.9328238964
-0.1350161135 -0.04926101863 0.9839293957 0.4723328054 -0.3798071146 0.794184804
-0.1239491627 -0.04581119493 0.9817006588 0.244857803 -0.3527736664 0.8850867748
-0.1246191114 -0.04770753533 0.9761856794 0.1991088241 -0.3535374403 0.9055748582
-0.1289836913 -0.05519221723 0.9832628965 0.4340877533 -0.3341897428 0.8332027197
-0.05163259432 -0.06517279148 0.9943762422 -0.3699743748 -0.002260460285 0.9287827015
-0.1409123689 -0.08563326299 0.9816349745 0.4792543054 -0.07563629001 0.8504603505
-0.1434209347 -0.08706752211 0.9900521636 0.4826855958 0.02207690664 0.8512886167
-0.135344699 -0.0846715048 0.9774064422 0.3613246977 -0.07925403863 0.8953149319
-0.1275574416 -0.08285910636 0.9718396664 0.2130214423 -0.08429424465 0.9577531815
-0.1357794553 -0.08636582643 0.9855567813 0.3244395554 0.01530015003 0.8888921142
-0.1214138418 -0.08485717326 0.9763737321 0.0300229881 -0.00434304215 0.9624220133
-0.1186146662 -0.0700257048 0.9674304128 0.03134669363 -0.1392261833 0.9882078767
-0.1230545342 -0.0795468837 0.9701135755 0.08176558465 -0.06559719145 0.992438674
-0.1175222993 -0.07616318017 0.9682271481 -0.04969967157 -0.04345925897 0.9967432022
-0.06040784344 -0.2077682167 1.089371204 0.04329942912 0.05405960977 0.995434463
-0.06270367652 -0.2024022341 1.08853066 0.0308066681 0.07755702734 0.9938454628
-0.06185309589 -0.1974273026 1.087019205 0.04278548062 0.07702807337 0.9948864579
-0.1781649441 -0.1150927246 1.006940484 0.09566190094 0.1962004751 0.9739068151
-0.1822791547 -0.1084176823 1.010946631 0.1333469599 0.1899495125 0.9708581567
-0.1890702993 -0.1074540466 1.012363672 0.1591788828 0.1669071466 0.9693390131
-0.1884104908 -0.1130796522 1.014425635 0.1534093618 0.2113683969 0.9601629376
-0.1825919449 -0.1136131808 1.013095379 0.1314490736 0.2288813442 0.9619568586
-0.191775769 -0.09766059369 1.010117054 0.1760157198 0.1307529658 0.9724785089
-0.1938506067 -0.09138376266 1.010001302 0.242229715 0.114552483 0.9622351527
-0.1479099244 -0.07172302157 0.9938281178 0.5344865918 -0.145125553 0.8209611773
-0.1454672068 -0.07464563847 0.990236938 0.5633764267 -0.1255121529 0.8043290973
-0.147475332 -0.06639341265 0.9929751754 0.5235638022 -0.2083217353 0.820579946
-0.1547302157 -0.06634345651 0.9917311072 0.3985723853 -0.2946253717 0.8471990228
-0.154834643 -0.05610518157 1.000648618 0.4218086302 -0.3369570971 0.8396963477
-0.1536552608 -0.06139949709 0.9974957705 0.4379140735 -0.2873572707 0.8479741812
-0.154042989 -0.07831776887 0.9968607426 0.4763379693 -0.06687705964 0.8545048237
-0.1538910866 -0.0706577003 0.9969242811 0.4578601122 -0.179896161 0.8539196253
-0.1563528925 -0.06660587341 0.999394834 0.4177525043 -0.2397101372 0.8597271442
-0.1599907279 -0.08122872561 0.9978220463 0.347415477 0.06607678533 0.9019254446
-0.1591394246 -0.06173241138 1.000676394 0.3658632338 -0.2993597388 0.8762173653
-0.158387199 -0.07558892667 0.9994568825 0.3733841479 -0.03676710278 0.8773604631
-0.1702141166 -0.0752420947 1.001321197 0.3286809027 -0.02361879684 0.9140039086
-0.1762893647 -0.0766787082 1.001034856 0.3135204911 0.04023706168 0.9436395764
-0.1950177401 -0.07548815757 1.006071329 0.3088709116 0.1175910532 0.9437841177
-0.192178905 -0.08518023789 1.007317543 0.2896063626 0.1040650904 0.9504803419
-0.1724603921 -0.06643076241 0.997748673 0.2001268119 -0.247771889 0.9445050955
-0.1675403416 -0.06937079132 0.9966853857 0.2372791618 -0.201263383 0.9405316114
-0.1775365621 -0.1064245999 1.00999999 0.1554400325 0.2048316002 0.9649713039
-0.1675627232 -0.10627985 1.00651443 0.1727706194 0.2659505308 0.9474759102
-0.1780262589 -0.09988325834 1.007780075 0.2115722597 0.2205385715 0.9499900937
-0.0809373185 -0.2234160453 1.086016774 0.00203032745 -0.1431878507 0.9896222949
-0.07013012469 -0.2210440934 1.089194059 0.03189053759 -0.1005061194 0.993357718
-0.07530010492 -0.2084819227 1.087000012 0.04222162068 -0.0219181329 0.9971854091
-0.05835802108 -0.2127049267 1.085767508 0.05929999426 0.02399340644 0.9979272485
-0.06386126578 -0.2112343013 1.08635807 0.05529953912 0.02154436149 0.99819839
-0.06584324688 -0.205966413 1.086714149 0.0607004948 0.02149027027 0.9979121685
-0.1343301833 -0.2125476599 1.080429435 -0.1933135688 -0.8176366091 0.5423101187
-0.1425037533 -0.2104949802 1.076609612 -0.1933135688 -0.8176366091 0.5423101187
-0.129194364 -0.2201277167 1.081103086 -0.1866207421 -0.7528719902 0.590777576
-0.1239678115 -0.2169548124 1.082614899 -0.1625132859 -0.5195909142 0.7653565407
-0.1243707687 -0.2239611298 1.083518267 -0.1932620555 -0.817138195 0.5426831245
-0.1414929032 -0.2124951035 1.08348763 -0.1933135688 -0.8176366091 0.5423101187
-0.1437905282 -0.2155521661 1.074291348 -0.1933135688 -0.8176366091 0.5423101187
-0.1417649537 -0.2120866328 1.089817405 -0.1933135688 -0.8176366091 0.5423101187
-0.144763425 -0.2093167752 1.097333431 -0.1933135688 -0.8176366091 0.5423101187
-0.1472100019 -0.2088294327 1.083255291 -0.1933135688 -0.8176366091 0.5423101187
-0.1465882212 -0.2087769061 1.090360761 -0.1933135688 -0.8176366091 0.5423101187
-0.1445414573 -0.2175512612 1.088500142 -0.1933135688 -0.8176366091 0.5423101187
-0.1522406936 -0.214224562 1.074050426 -0.1933135688 -0.8176366091 0.5423101187
-0.145985648 -0.219156146 1.081318378 -0.1933135688 -0.8176366091 0.5423101187
-0.1492256969 -0.2162392437 1.07864511 -0.1933135688 -0.8176366091 0.5423101187
-0.1454226077 -0.2143398672 1.094512105 -0.1933135688 -0.8176366091 0.5423101187
-0.1489667892 -0.2136397213 1.085632324 -0.1933135688 -0.8176366091 0.5423101187
-0.148542583 -0.2183056772 1.073099375 -0.1933135688 -0.8176366091 0.5423101187
-0.1122288331 -0.2254041284 1.079870224 -0.1204810292 -0.4968672097 0.7583556771
-0.1058246642 -0.2309445739 1.084261894 -0.07146720588 -0.1926352233 0.9780437946
-0.1112366244 -0.2314406782 1.086472154 -0.09828187525 -0.2762335241 0.9549769163
-0.1184132248 -0.2254743725 1.082366347 -0.1563700736 -0.6479498744 0.6611110568
-0.1070799008 -0.2277664095 1.079361439 -0.08609800786 -0.337747246 0.8737341762
-0.1017712578 -0.2285312265 1.077560902 -0.05413727835 -0.204470247 0.962141633
-0.1086698174 -0.2158123255 1.085940003 -0.05751845613 -0.2251607925 0.970969975
-0.1031834409 -0.2230972499 1.07926333 -0.05493344739 -0.1853998154 0.9789215922
-0.1082507595 -0.2202632278 1.081271052 -0.09391716868 -0.2190817893 0.9679889679
-0.07667083293 -0.04929220304 0.9883698821 -0.3153352439 -0.1856383979 0.9305105805
-0.08775158226 -0.04892729223 0.9836210012 -0.2664121687 -0.1929011792 0.9437559247
-0.07769549638 -0.05941136554 0.9818742275 -0.2753415704 -0.1158637851 0.9505015016
-0.07905816287 -0.06503494829 0.978135407 -0.2507725954 -0.07420383394 0.9629868269
-0.07949953526 -0.05482956022 0.9835739136 -0.2818758786 -0.1522565931 0.9438411593
-0.08266599476 -0.05020996928 0.9846649766 -0.2822294831 -0.1900825948 0.9387499094
-0.1687412262 -0.09594597667 1.004141927 0.2263045013 0.2219054103 0.9438838959
-0.1663623899 -0.1004700884 1.001510501 0.2036841363 0.2801226974 0.936750114
-0.1722374409 -0.1077781767 1.004124761 0.1419441998 0.244312048 0.9562128186
-0.1728596687 -0.114130944 1.006684899 0.1075921208 0.2322868854 0.9656341672
-0.1547500938 -0.1017518118 1.001940012 0.323482275 0.174978286 0.8950145245
-0.151662305 -0.09179338068 0.9969590306 0.4840306938 0.1268351972 0.845271647
-0.1583215445 -0.1103057265 1.005556703 0.1856467575 0.2521405518 0.9378404617
-0.1572552919 -0.09294348955 0.9981878996 0.3812890947 0.2808360457 0.8785488605
-0.1622135192 -0.09728845209 1.000305891 0.2660988569 0.2882729769 0.9160389304
-0.159895137 -0.1013359725 1.003353834 0.2277900726 0.279009521 0.9265121222
-0.1605596989 -0.1156325042 1.007000089 0.1531652212 0.2725169361 0.9495942593
-0.15964894 -0.1214409173 1.007204771 0.1812677532 0.2865041494 0.9406121373
-0.1647357345 -0.111716941 1.005878091 0.1751293987 0.2673897445 0.9472033978
-0.1885451674 -0.1074907556 1.004885077 0.1251537949 0.1419172138 0.9814798832
-0.1811376065 -0.1109052449 1.006189466 0.1064333767 0.1707353294 0.9782996178
-0.173868373 -0.09976173937 1.000894666 0.1923666298 0.2424183488 0.9477266669
-0.1787567139 -0.1063254327 1.004239917 0.1430099756 0.1988246143 0.9668121934
-0.1388680488 -0.05895330384 0.9877617359 0.5067102909 -0.2992540002 0.8057665229
-0.1326389313 -0.06108370796 0.984515667 0.4319296479 -0.3084612191 0.8440109491
-0.1345946938 -0.05566782877 0.9849261045 0.5211839676 -0.3338178992 0.7847865224
-0.1432282627 -0.06552251428 0.9866925478 0.5547597408 -0.2415716797 0.795801878
-0.1402415186 -0.07379428297 0.9883582592 0.5146359205 -0.1473970413 0.8232175112
-0.1376024932 -0.06494171172 0.984756887 0.5020906329 -0.2610941529 0.8166193366
-0.1187101305 -0.07778343558 0.9754706621 0.0455868654 -0.09937811643 0.952126801
-0.1305703521 -0.08499526232 0.9832322001 0.2261875868 0.0005021084216 0.9064390659
-0.1263529211 -0.08496081829 0.9804151654 0.13549155 -3.847781772e-05 0.9299661517
-0.1332323551 -0.07874529064 0.9851517677 0.3490636945 -0.08585915715 0.8735406995
-0.1292652935 -0.07540771365 0.9825764894 0.2983386517 -0.1320596188 0.886159718
-0.1226311848 -0.07074709237 0.9782491326 0.2038753331 -0.1965911686 0.9099122882
-0.1286088824 -0.06426815689 0.9823892117 0.4007350504 -0.2860670984 0.8577803969
-0.1238729507 -0.07660583407 0.9789466858 0.1693775058 -0.1155788153 0.9198157191
-0.132530719 -0.06874369085 0.9849085808 0.438575685 -0.2241356522 0.8486894369
-0.1393222064 -0.08372270316 0.9891083241 0.428460896 -0.01695651375 0.8537487984
-0.1272158772 -0.07074277848 0.9813124537 0.3029063344 -0.1965808123 0.884216249
-0.1168558076 -0.0843777433 0.9740829468 -0.06345436722 -0.008244247176 0.9814913869
-0.12797077 -0.077718243 0.9718480706 0.2222477347 -0.1122022346 0.9549276829
-0.1325757056 -0.08129008114 0.9732992649 0.3688973188 -0.1297605783 0.9077153802
-0.1169440001 -0.05965110287 0.9815299511 0.2134929895 -0.2632137239 0.8869493008
-0.1118802801 -0.05956991017 0.981646955 0.1191983968 -0.2266930789 0.9011523128
-0.107207261 -0.06246271729 0.9810214043 0.02531941421 -0.1903334111 0.9152927995
-0.1016635597 -0.05963039026 0.9800677299 -0.1250302047 -0.1600869894 0.9415462017
-0.1204408482 -0.05562277138 0.9812169075 0.2503292561 -0.2972272038 0.8839461803
-0.09376167506 -0.06275361031 0.9807161689 -0.2411367744 -0.09493757039 0.9564333558
-0.1080459878 -0.0472828038 0.9810000658 -0.01690060459 -0.285682708 0.9377866983
-0.103087604 -0.05192020163 0.9797956347 -0.1276579797 -0.2387022823 0.9459072351
-0.08559809625 -0.05466844141 0.9842152596 -0.2817475498 -0.1428027302 0.9481938481
-0.08323230594 -0.06031838059 0.9787201285 -0.2456773221 -0.1128751859 0.9592503905
-0.09149561077 -0.05331510305 0.9775298834 -0.2156692892 -0.1633744091 0.9600215554
-0.08899781853 -0.06257735193 0.9778327346 -0.2742787004 -0.1094311178 0.9508487582
-0.08396879584 -0.06865054369 0.9776645899 -0.2812841833 -0.02785004489 0.9588590264
-0.05121387169 -0.2076210082 1.086361527 0.02025814727 0.124850288 0.9870166779
-0.04352529347 -0.1967619359 1.085334897 -0.01652012952 0.2187795788 0.9756039977
-0.0541234985 -0.2016714662 1.087547898 0.01499500871 0.1354674548 0.9875968099
-0.166437909 -0.08441455662 0.9984506369 0.3215004504 0.1357527971 0.9243904352
-0.1491749138 -0.08857976645 0.9907649755 0.506947279 0.06097858027 0.8377747536
-0.1472553462 -0.08766467869 0.9847471714 0.4874562323 0.002132913563 0.8433589339
-0.1531945914 -0.0871918574 0.9953665137 0.4967069924 0.08615793288 0.8561052084
-0.1598455161 -0.0812753737 0.9924851656 0.3945229948 0.006977663841 0.8982140422
-0.1639910191 -0.07937782258 0.9951102138 0.3033548892 0.01918954961 0.9434252381
-0.1733598411 -0.07115152478 1.002349019 0.3151438832 -0.06014098227 0.9266553521
-0.1646770537 -0.05886663869 1.004862666 0.327611208 -0.2991887927 0.8806003332
-0.1682407707 -0.0674533695 1.001852274 0.3348998427 -0.1515395194 0.9072902799
-0.1694253236 -0.06310871243 1.004870296 0.3121275008 -0.2030658722 0.9003461599
-0.168974638 -0.05499659106 1.008341312 0.2989525199 -0.3243465424 0.8783397675
-0.1728325784 -0.05873350054 1.006869197 0.3069052398 -0.2491778582 0.8899671435
-0.1753285378 -0.06571269035 1.004137278 0.2992098331 -0.1421674341 0.9166805744
-0.1730362624 -0.05326474458 1.004490614 0.2465445399 -0.3547984362 0.8994654417
-0.1678308845 -0.04879890755 1.009876728 0.3073655367 -0.4213714898 0.8531486392
-0.1617031246 -0.05265950412 1.007628918 0.3293364346 -0.3879259229 0.8590743542
-0.1842301637 -0.06219951063 1.001391172 0.2562674284 -0.2033182085 0.9401916265
-0.1773056537 -0.06905336678 0.9980744123 0.2421538532 -0.1416796297 0.9440558553
-0.1782676131 -0.06306236237 0.9994375706 0.217435658 -0.2440917194 0.9398036599
-0.1826327294 -0.06808959693 0.9993790388 0.2792259157 -0.08199193329 0.9425683618
-0.1786664873 -0.08330254257 1.001997232 0.3067691028 0.13575086 0.9410606623
-0.183877036 -0.08371450752 1.002741337 0.3113973737 0.1217677146 0.9409940839
-0.1782213748 -0.08981507272 1.001354218 0.2741938233 0.2023252845 0.9368531704
-0.1732444018 -0.09492464364 0.9988737106 0.2251900434 0.2514021099 0.9395814538
-0.1803333461 -0.1007948071 1.002245069 0.1775064468 0.1916292757 0.961909771
-0.1876031756 -0.09665914625 1.004213691 0.2065437883 0.1381406188 0.9621992707
-0.1879366636 -0.1018074527 1.003916621 0.1570445001 0.1492933184 0.971167922
-0.1819819063 -0.09415013343 1.003141165 0.2364450395 0.1895739287 0.9476886988
-0.1897020638 -0.09003197402 1.005912066 0.292827785 0.1310965866 0.9462941289
-0.1934698969 -0.1040435061 1.005099654 0.133545965 0.1029393747 0.9837434292
-0.0875531435 -0.224342376 1.084985018 -0.001650921535 -0.158181563 0.9872606397
-0.09348026663 -0.2265742421 1.082647085 -0.02107775025 -0.1584842801 0.9867137671
-0.09824561328 -0.2282933593 1.081710696 -0.03945025802 -0.1651576906 0.9849334955
-0.1001777202 -0.2259575725 1.08944881 -0.04389537498 -0.1896750927 0.9798514247
-0.1088190004 -0.2266119272 1.089823008 -0.07238235325 -0.2090686113 0.9752065539
-0.09316937625 -0.224870339 1.089777827 -0.01978723332 -0.1759726405 0.9832212925
-0.1012907624 -0.2150335759 1.091106057 -0.0323250033 -0.1490125805 0.9881988168
-0.09660325944 -0.2177788615 1.090786695 -0.02089634165 -0.1519818455 0.9879085422
-0.1047166884 -0.2226067781 1.090365291 -0.05360886827 -0.1861685365 0.9802440405
-0.06059886888 -0.21430327 1.090000033 0.05515986681 0.009567982517 0.9975112081
-0.06485129148 -0.2174731642 1.088214397 0.04250237718 -0.02080508508 0.9968627095
-0.06794607639 -0.2106856257 1.090000033 0.04369264469 0.008625862189 0.9981322885
-0.1341904402 -0.2221531421 1.07959342 -0.1933135688 -0.8176366091 0.5423101187
-0.1399095058 -0.2200439572 1.077115774 -0.1933135688 -0.8176366091 0.5423101187
-0.1363084465 -0.2142490149 1.085984945 -0.1933135688 -0.8176366091 0.5423101187
-0.1385081112 -0.221887365 1.083649158 -0.1933135688 -0.8176366091 0.5423101187
-0.1392797381 -0.2184205353 1.090137959 -0.1933135688 -0.8176366091 0.5423101187
-0.05430819467 -0.07965199649 0.9904574752 -0.375420779 0.08360008895 0.9224412441
-0.07230201364 -0.05457558855 0.9882798195 -0.3217288256 -0.1528893858 0.9341602921
-0.1085644886 -0.08404167742 0.9749029279 -0.1801038682 0.04812514409 0.9736136794
-0.115284048 -0.07456077635 0.9776496887 0.04605929554 -0.1016738117 0.9251236916
-0.1674280167 -0.09505415708 0.9988865852 0.2380583584 0.2885554135 0.9269783497
-0.1597704887 -0.08709809184 0.9926177263 0.4059537053 0.09293344617 0.868981123
-0.1632998735 -0.09136670828 0.9962130189 0.3069373667 0.24135831 0.8985587358
-0.1553703398 -0.08192085475 0.9895467758 0.4913709164 -0.03987039998 0.8499283791
-0.1508412808 -0.08103776723 0.9862520099 0.5610603094 -0.1138839424 0.8164041042
-0.1463475674 -0.08292230219 0.9810407162 0.5435395837 -0.1369695365 0.8231489062
-0.1553610563 -0.09074631333 0.9917368293 0.3824026585 0.1718167961 0.87562567
-0.1553158909 -0.07681323588 0.990347445 0.4832801521 -0.1318355054 0.8515734673
-0.1609146893 -0.07156577706 0.9941294789 0.3443061411 -0.2032086998 0.894639194
-0.1461039335 -0.0770990923 0.9808391333 0.5432575345 -0.1785108745 0.8198319077
-0.151225552 -0.07452847064 0.9867784381 0.5044293404 -0.209523648 0.826913178
-0.1866841167 -0.06816878915 1.002629519 0.2845866084 -0.09519926459 0.9449927211
-0.1903888136 -0.07277926058 1.004181743 0.3001351357 0.03821597621 0.9447220564
-0.1883594245 -0.08201736957 1.00487709 0.3136074245 0.1260896623 0.9411099553
-0.1972768605 -0.08069752902 1.005142689 0.3031344712 0.07295974344 0.9496856332
-0.1921921819 -0.07845422626 1.002791882 0.3077202737 0.06884420663 0.948543191
-0.1873820424 -0.07795336843 1.00060761 0.3131610155 0.06004574895 0.9476101995
-0.07215514034 -0.0934304148 0.9888563156 -0.3049558401 0.2126143873 0.9278385043
-0.07619337738 -0.09111884236 0.9861554503 -0.291058898 0.1972849071 0.9338567257
-0.07608737051 -0.07508254051 0.9788674712 -0.2548370659 0.04385419562 0.9630823731
-0.07730807364 -0.08500456065 0.9860770106 -0.2965969741 0.2034259439 0.9327870607
-0.07393653691 -0.08062231541 0.9818179011 -0.2777895331 0.09480882436 0.9497652054
-0.06897081435 -0.08132778853 0.9849735498 -0.3290212452 0.1171591431 0.9320998788
-0.06844229251 -0.08716420829 0.9897809029 -0.3268641233 0.192926392 0.9242343903
-0.0576530844 -0.09230780602 0.9966808558 -0.3571852446 0.1547451615 0.9208732247
-0.06363175064 -0.0938527137 0.9918175936 -0.3561092019 0.200612694 0.9125782847
-0.06216486543 -0.08798699081 0.9889491796 -0.3610697389 0.15826343 0.9174503088
-0.05600957572 -0.06320855767 0.9918469787 -0.3711466789 -0.02413360216 0.9276430607
-0.06514526159 -0.0560644269 0.9885923266 -0.3419828415 -0.1480814517 0.9274900556
-0.05905713141 -0.05718879029 0.9885261059 -0.3466693759 -0.1018556505 0.9320890903
-0.09245285392 -0.08318778127 0.9812663198 -0.2772786617 0.1087530851 0.954375267
-0.08645117283 -0.08051496744 0.9831889868 -0.2834458053 0.1144122332 0.9491938353
-0.08942505717 -0.06762116402 0.9813503027 -0.2784951031 -0.03302942216 0.9575016499
-0.0959245488 -0.06734154373 0.9757383466 -0.237536341 -0.04350465536 0.9688000083
-0.1012054011 -0.06580398232 0.9748961329 -0.2194799483 -0.06457039714 0.9726653695
-0.1117310449 -0.07395320386 0.9701134562 -0.129050076 -0.04236327484 0.9838500023
-0.1043206006 -0.07217016816 0.9740263224 -0.234101668 -0.03164109588 0.9706289172
-0.1106170714 -0.06824659556 0.9708583951 -0.1022792757 -0.1056401804 0.9795100093
-0.1089464575 -0.07930595428 0.976957202 -0.1109188274 0.001334844157 0.9442131519
-0.1176369488 -0.06836228818 0.9785840511 0.1365658194 -0.1848490387 0.9030706882
-0.1807529926 -0.07769876719 0.9980000257 0.3059839606 0.08287864923 0.9452167749
-0.1731326133 -0.08514674008 0.9980000854 0.3016268909 0.1698369384 0.9357514977
-0.170387581 -0.08035235852 0.9972267747 0.2861338556 0.06626822054 0.9504064322
-0.0580489561 -0.08932821453 0.9922881722 -0.3600686491 0.1441158354 0.9209337234
-0.05297890306 -0.08092612028 0.9965004921 -0.355885148 0.09300653636 0.9280132651
-0.05104648694 -0.07607071847 0.9963444471 -0.3554241657 0.06686323136 0.931014359
-0.05478171632 -0.08515907079 0.9937271476 -0.3565483987 0.109423548 0.9271954298
-0.07397246361 -0.07501555234 0.9860984683 -0.2953948975 0.06841918826 0.9401264787
-0.07176902145 -0.0688148737 0.9861267805 -0.3029774725 -0.01892676763 0.944776535
-0.078379713 -0.07996861637 0.9855590463 -0.2905058861 0.1233808994 0.9405817389
-0.08006494492 -0.07133722305 0.9844909906 -0.2859897912 0.002271482954 0.9502928853
-0.08190324903 -0.06524003297 0.9833208919 -0.2895665467 -0.06052796543 0.9531856775
-0.08256939054 -0.07660980523 0.9843381643 -0.2860411406 0.07045593858 0.947566092
-0.07483899593 -0.06011571735 0.9865528345 -0.2985504568 -0.1168499067 0.9467383027
-0.08231347054 -0.05914577469 0.9844072461 -0.2947758138 -0.1014590636 0.9495848417
-0.06015134603 -0.06603859365 0.9898200035 -0.3495954573 -0.0251307562 0.935874939
-0.06788451225 -0.06600766629 0.9824236035 -0.3038649261 -0.04466696084 0.9492070079
-0.06206458062 -0.06311613321 0.9860600829 -0.338085413 -0.05453323945 0.9372558594
-0.07223692536 -0.06624609977 0.9799046516 -0.2736277878 -0.05525909364 0.9589055777
-0.06218637154 -0.06880982965 0.9848945141 -0.3441606462 -0.005122575443 0.936216116
-0.06139003858 -0.07147554308 0.9896463156 -0.3514577746 0.02482491173 0.9318265915
-0.05378412455 -0.07166330516 0.993873775 -0.3545884192 0.04014322162 0.9323982
-0.05687784776 -0.07542975992 0.9866312742 -0.380797565 0.06526748091 0.9221508503
-0.0625564307 -0.07563269138 0.9858948588 -0.3764164448 0.08903402835 0.9220235944
-0.05910461396 -0.08357274532 0.9887773991 -0.3758757114 0.1221625507 0.9181916714
-0.0547453016 -0.06952735782 0.9893078208 -0.3809736073 0.01666249149 0.9240230918
-0.06854579598 -0.07508480549 0.9871284366 -0.329946965 0.07790449262 0.9320139289
-0.06601013243 -0.07234291732 0.9819335938 -0.3160319924 0.01970780455 0.9450865388
-0.09115488827 -0.09125774354 0.98262918 -0.287966609 0.1796671152 0.9405501485
-0.08525881916 -0.09207476676 0.9850386977 -0.2923493087 0.1983994693 0.9353852868
-0.08069962263 -0.08303379267 0.981492877 -0.2724024355 0.1169133857 0.9498919845
-0.08661840111 -0.08676764369 0.9808645844 -0.2794450521 0.1496030837 0.9450284839
-0.08758122474 -0.08157683164 0.9777401686 -0.2681479454 0.100516893 0.9545522928
-0.08059306443 -0.07297350466 0.9774542451 -0.2582650781 0.02679930814 0.9651055932
-0.1094127074 -0.07043278962 0.97720474 -0.03935118765 -0.104014501 0.9310863614
-0.1232333109 -0.06172445789 0.9808832407 0.3250383735 -0.30184865 0.8702670336
-0.1139735505 -0.06485196948 0.9802076817 0.1391802579 -0.2034546137 0.8989508748
-0.1040514112 -0.06867008656 0.9793528914 -0.06218591705 -0.09204885364 0.9301533103
-0.09905412793 -0.06575673074 0.9802779555 -0.1406779885 -0.09781455994 0.9410324693
-0.09726744145 -0.07666983455 0.9771714807 -0.2625274658 0.0427528508 0.9630135298
-0.102923803 -0.07974433899 0.9756052494 -0.2490157634 0.04227155447 0.9658489227
-0.1031165794 -0.08525861055 0.9763920307 -0.2481745481 0.1100646555 0.9617640972
-0.09939184785 -0.08948585391 0.9778004885 -0.2772989273 0.1682299823 0.9455121756
-0.09590234607 -0.08552594483 0.977924943 -0.2790360451 0.1580936164 0.9458597898
-0.0883576721 -0.07482437789 0.9775453806 -0.2698890269 0.05442465097 0.9598664641
