# .PCD v0.7 - Point Cloud Data file format
VERSION 0.7
FIELDS x y z normal_x normal_y normal_z
SIZE 4 4 4 4 4 4
TYPE F F F F F F
COUNT 1 1 1 1 1 1
WIDTH 512
HEIGHT 1
VIEWPOINT 0 0 0 1 0 0 0
POINTS 512
DATA ascii
-0.01963997632 -0.06357876956 0.9800956249 -0.2828528881 0.07415883243 0.9522256255
-0.01736243069 -0.07077744603 0.9842230082 -0.3037777543 0.1279922575 0.9412053227
-0.02379737981 -0.07067768276 0.9811021686 -0.184138 0.1288835555 0.9675187469
0.01940936781 -0.195776239 1.10752511 -0.07631455362 0.09964544326 0.9915857911
0.01652565971 -0.1999167055 1.107784748 -0.09486169368 0.06013411283 0.9931252599
0.02895673364 -0.06234902889 0.9993873239 -0.3636561632 0.1932296604 0.9056379795
0.03797354549 -0.06594791263 1.006044388 -0.3691486716 0.1829229891 0.9074081779
0.03257589787 -0.06600820273 1.003478885 -0.3648420274 0.2086655498 0.9021114707
0.0340793319 -0.05935174227 0.9999375343 -0.3690957427 0.1428149641 0.9162896276
0.02671693452 -0.06766451895 1.001713872 -0.3594355285 0.2506681383 0.8933184147
-0.1061711907 -0.08580864221 1.006519318 -0.1436083913 0.04561699554 0.9707001448
-0.1039734557 -0.07524614036 1.006861448 -0.01639005356 0.06365931034 0.9902299643
-0.1111966223 -0.0883461535 1.006326914 -0.2019021064 0.02226215601 0.970208168
-0.1127568781 -0.09547424316 1.006027579 -0.2837711275 0.009837416001 0.9577813148
-0.108735159 -0.07710415125 1.006798983 -0.07277745008 0.04186073318 0.9898065925
-0.09917230904 -0.1056968644 1.000240803 -0.2663937807 0.1316636205 0.9483154416
-0.1036552265 -0.09384097159 1.005135179 -0.2283024639 0.06925572455 0.9546504021
-0.1006161645 -0.08271550387 1.005950689 -0.07718205452 0.08284347504 0.9743717313
-0.09837961197 -0.09340634197 1.002478719 -0.1402848512 0.1211367995 0.9652258158
-0.1018677577 -0.08844932169 1.005366325 -0.1500555426 0.07897405326 0.9648060799
-0.1002206206 -0.09943064302 1.002138972 -0.2252259105 0.1118335798 0.9541754723
-0.09822171926 -0.0750785023 1.006349921 0.03146263957 0.09524061531 0.9884955287
-0.08440383524 -0.08709784597 1.005044103 0.07133817673 0.2144947648 0.9593399167
-0.09244918823 -0.09424436837 1.002437115 -0.07991159707 0.167612344 0.9600912929
-0.09049143642 -0.08726632595 1.004275918 0.004663678817 0.1708508283 0.9661211371
-0.0971654579 -0.0866798237 1.003611088 -0.06140152365 0.1217999756 0.9744701982
-0.09452159703 -0.07855088264 1.005796552 0.04100937024 0.1281922758 0.9810780883
-0.08789004385 -0.08293867111 1.005582452 0.07195934653 0.1828646511 0.9682699442
-0.03671099991 -0.03594097868 0.984405458 0.2564504743 -0.2777559161 0.9092043042
-0.03092152812 -0.03743078187 0.9825936556 0.1302097142 -0.3248651624 0.9196224213
-0.03043328412 -0.0446318686 0.9794976711 0.1411776692 -0.2917332053 0.9391055107
-0.1089629307 -0.0506282337 1.004720926 -0.03470402583 0.1401088536 0.9887801409
-0.1059183404 -0.04221180826 0.9988063574 -0.007927703671 0.09592582285 0.9952808619
-0.103622511 -0.04721700773 1.008562684 -0.01153923385 0.1192650944 0.9900099039
-0.09739844501 -0.04041072726 1.009976268 0.01721178927 0.08193852007 0.9937626123
-0.09342011809 -0.03535367548 1.00999999 0.03111737035 0.04897689447 0.9979331493
-0.1048805341 -0.05223768577 1.00999999 -0.01929642074 0.1505411118 0.9855766296
-0.1102130637 -0.05777150393 1.00999999 -0.03176024184 0.1917364895 0.9800371528
-0.02249379084 -0.0580390431 0.9780001044 -0.2128964216 0.01577072591 0.9696528912
0.02689228021 -0.1917499751 1.114091873 -0.05519936234 0.08081472665 0.9937064052
0.01394728292 -0.2002377957 1.11380589 -0.0933117047 0.0536856167 0.9936739206
0.02291774377 -0.1945279837 1.113358855 -0.0670729205 0.07677146792 0.9933770895
0.03107934631 -0.18912673 1.111061454 -0.04358414933 0.1145830154 0.9917952418
0.03607150912 -0.1857638061 1.112969279 -0.02847310714 0.1107739285 0.9929037094
0.05835470557 -0.1581784785 1.104450583 -0.01034286339 0.1599125713 0.9870769978
0.05057636648 -0.1595176458 1.107827544 -0.004456120078 0.1484189481 0.988692522
0.04750557244 -0.1626280993 1.109795451 -0.0002455484355 0.1401979923 0.9898480773
0.04890844598 -0.170928672 1.108491421 0.0005077670212 0.1387271881 0.9900547862
0.05182794482 -0.1652244627 1.106287479 -0.006067305803 0.1515647173 0.9882503748
-0.009087689221 -0.07340496778 0.9893565774 -0.3591521084 0.2195408344 0.9067307711
-0.009833341464 -0.06864638627 0.988388896 -0.3597937226 0.1760995388 0.9147545695
-0.01435544435 -0.06685380638 0.9855703712 -0.3432602286 0.1168290824 0.9317219853
-0.005492837168 -0.06764085591 0.9913024306 -0.3884779811 0.1712854654 0.9049572349
0.02573052794 -0.07304074615 1.005467176 -0.3572379053 0.2921921015 0.8843328953
0.03170765191 -0.0707924962 1.011289358 -0.3689229786 0.1851454526 0.9069373012
-0.0426752679 -0.03325570747 0.986713171 0.3740020692 -0.240611434 0.8889585733
-0.04969073087 -0.03263029084 0.9882300496 0.4854930341 -0.2042007297 0.846884191
-0.03508615494 -0.04604275897 0.9798229933 0.239592284 -0.2467541397 0.9296417832
-0.04203599319 -0.04290033504 0.982598424 0.3620570898 -0.2101168185 0.8928830028
-0.03890645877 -0.05300527811 0.9783116579 0.3342281282 -0.1722510308 0.9219113588
-0.04671820998 -0.03735139593 0.9856756926 0.4341870248 -0.2065657377 0.8633673787
-0.05309559032 -0.03204097971 0.993031323 0.4477424026 -0.1666676104 0.8699273467
-0.05531807989 -0.03132627904 0.9977718592 0.3892451227 -0.1354076266 0.9011971951
-0.06401676685 -0.03292442858 1.006657958 0.3529890776 -0.04176446795 0.9293195605
-0.04578677937 -0.02895425633 0.9904392958 0.3995918334 -0.2286653817 0.8853405714
-0.1025293395 -0.04287682474 1.003964067 0.000459007686 0.09372424334 0.9952070713
-0.04658894613 -0.04259576648 0.9928441048 0.5038324594 -0.1960876286 0.835835278
-0.05119431764 -0.04314589873 0.9983612895 0.4466699362 -0.1833920628 0.8686158061
-0.04961303994 -0.03008045442 0.9981728196 0.3547995985 -0.1814473867 0.9056265354
-0.06202333793 -0.03923147544 1.005429387 0.4010948241 -0.06942263991 0.9051621556
-0.05534858257 -0.04028651118 1.001444578 0.4139915109 -0.1395531297 0.887770474
-0.05621352792 -0.03174144402 1.003043413 0.3205977976 -0.1286592335 0.9237950444
-0.0421244204 -0.03317360207 0.9947345853 0.3391499817 -0.2765203118 0.8902768493
-0.05937709659 -0.04287348315 1.003434539 0.4413738847 -0.0979186669 0.885319531
-0.04780393094 -0.03848271444 0.9973261952 0.3958835006 -0.2181798518 0.8801465034
-0.05675353482 -0.06267258525 0.9987021685 0.4621225893 -0.00729982974 0.8581479192
-0.06263282895 -0.0722579211 1.002825379 0.3448534012 0.1292936206 0.8973701
-0.04792269692 -0.06338316202 0.9882257581 0.4899350107 -0.08037621528 0.8615159988
-0.05874241143 -0.07474982738 0.9979170561 0.3281366527 0.1282743514 0.9121823311
-0.05171332136 -0.06874122471 0.9914741516 0.4108892977 0.01798234507 0.89033252
-0.05348434299 -0.06299774349 0.9938725233 0.5079908967 -0.0874697566 0.8374654651
-0.06340409815 -0.07782682031 1.001896381 0.2808102965 0.1914781034 0.9251230955
-0.06745272875 -0.08083763719 1.005617142 0.2397545874 0.2474014461 0.9346523881
-0.05552880093 -0.07151261717 0.9944325089 0.3630348742 0.07903528959 0.9069593549
-0.06689065695 -0.04369312897 1.005778432 0.3777241409 -0.04922165722 0.9220525622
-0.05990185216 -0.04872423783 1.002895713 0.4573478401 -0.08498512208 0.881131649
-0.1074792668 -0.04817187041 1.000192165 -0.01351559255 0.1173276827 0.99214077
-0.1117283404 -0.0612032935 1.006059766 -0.05025202781 0.1632812917 0.9848864675
-0.1077371389 -0.06784336269 1.007000089 -0.01586937532 0.1257036477 0.9891472459
-0.1118273363 -0.06562419236 1.00842607 -0.05328776687 0.1809940785 0.9819808006
-0.01000732835 -0.06357471645 0.9873437285 -0.3538177013 0.118661128 0.9264703393
-0.009757715277 -0.05566056818 0.98206532 -0.307641834 -0.0006661596126 0.9506770372
-0.01530790143 -0.05967608839 0.9815805554 -0.3230235875 0.04618846625 0.9432466626
-0.00301116053 -0.05757653341 0.9865445495 -0.2978559732 0.03060714342 0.9515296817
-0.01738162525 -0.03018453531 0.989872992 -0.1170436293 -0.3690610826 0.8877798319
-0.03100376949 -0.02848946676 0.9913062453 0.1559731662 -0.3533670902 0.8942700624
-0.01285537891 -0.03269930556 0.9920496941 -0.1761053503 -0.2849693596 0.9024306536
-0.02322394773 -0.0287961103 0.9895885587 -0.0106794592 -0.3925986886 0.8848668933
0.0352242589 -0.1823159158 1.108465672 -0.02780554444 0.1333098263 0.9905061722
0.04391675442 -0.1786083281 1.112517357 0.004119511228 0.1177885756 0.9929398894
-0.07628106326 -0.07937162369 1.005458474 0.1688603312 0.2172889262 0.9610641599
-0.07276657969 -0.08259285241 1.006592989 0.1972701848 0.2466283888 0.9482632279
-0.06884872168 -0.07578605413 1.003618956 0.2517873347 0.2117712051 0.943390429
0.004720527213 -0.2048786283 1.105775476 -0.1542468369 -0.0228668768 0.9810901284
-0.004299111664 -0.2086538374 1.105568767 -0.1960435212 -0.08391429484 0.9718570113
-0.0002514993248 -0.2078066021 1.108068347 -0.1769690365 -0.0604419373 0.9780587554
-0.002103994368 -0.2047293335 1.111747265 -0.2367064804 -0.0005618004361 0.9708955288
-0.02789440379 -0.2068809718 1.102424979 -0.2700362504 -0.1589024663 0.9493250251
-0.01757508516 -0.2101665437 1.102710962 -0.253945291 -0.1653230488 0.9526467919
-0.02233377099 -0.209080115 1.098929167 -0.2808530033 -0.1545864046 0.9470921159
-0.01518556383 -0.05349577218 0.9797817469 -0.3141251802 -0.04453292862 0.942471087
-0.004510117695 -0.04714858532 0.984886229 -0.2956493497 -0.1397584677 0.9360315204
-0.001632425585 -0.04347496107 0.9868755341 -0.2789622843 -0.200634554 0.9300395846
-0.01159567293 -0.04417414218 0.9837441444 -0.2650426626 -0.2054816335 0.9247201085
-0.009539984167 -0.04933292791 0.9827331305 -0.2995456755 -0.1093538404 0.9373173118
-0.01995884627 -0.05067401007 0.9792197347 -0.247706145 -0.1018380895 0.9387543201
-0.01996381022 -0.04406949133 0.981261611 -0.1909546852 -0.219623968 0.9268357754
-0.02743342519 -0.04899888113 0.9781399965 0.1188112199 -0.2163284719 0.9576239586
-0.02008900791 -0.03336550295 0.9844806194 -0.1049079224 -0.4034782946 0.9036715627
0.06096654013 -0.1413567215 1.100195885 -0.01034286339 0.1599125713 0.9870769978
0.0008629526128 -0.06238576025 0.9900986552 -0.3124199808 0.119074367 0.9340623021
0.003635170637 -0.05711982027 0.9891829491 -0.2923193872 0.04378005862 0.9489511847
0.018193122 -0.03827803209 1.002217889 -0.3536401391 -0.1402527839 0.9235184193
0.01298967469 -0.0391702354 1.001252532 -0.3133237958 -0.1445036978 0.9384528995
0.03700334579 -0.06603647023 1.011832833 -0.3742576241 0.136274904 0.9172570109
0.004111744463 -0.0490513891 0.987498641 -0.3012505174 -0.09179355949 0.9475131035
-0.0003481999156 -0.04970287159 0.9855869412 -0.3096453547 -0.08717478067 0.945017755
-0.004872012418 -0.05277433246 0.9837523699 -0.3057851791 -0.04076718912 0.9495141506
-0.02910016105 -0.05748526752 0.978000164 0.03709136322 -0.05614050478 0.9702154398
-0.03340300173 -0.05398365855 0.9780002236 0.2619900703 -0.1837244332 0.9464645386
-0.03594102338 -0.06447288394 0.9807443619 0.1676662564 -0.03368230909 0.974633038
-0.05146526545 -0.05331750959 0.9953586459 0.5427573919 -0.1334773898 0.8281897902
-0.04981322959 -0.04680060968 0.9945893884 0.5310288072 -0.1592127681 0.8315069675
-0.05421023071 -0.05020591989 0.9988669753 0.508690536 -0.1262519658 0.8508339524
-0.02191931382 -0.06503244489 0.9873583913 -0.1479215175 0.05539004505 0.9033087492
-0.04687459767 -0.05716009811 0.9942489266 0.4277972877 -0.08234039694 0.8402429223
-0.03306109086 -0.06328166276 0.9913657904 0.09022288769 0.00466586696 0.8765738606
-0.02716542594 -0.06506761163 0.9895945787 -0.03130155429 0.0263111461 0.8862578273
-0.0425151363 -0.05971507356 0.993324697 0.3140778542 -0.05136628821 0.8533696532
-0.03418004885 -0.06533849984 0.9865317941 0.1175481379 -0.01358001679 0.9171699286
-0.02687282115 -0.06754045188 0.9851371646 -0.06257332861 0.03766965121 0.9430507421
-0.03934003785 -0.06367632747 0.9888989329 0.2524200082 -0.05521955341 0.8769519925
-0.07037444413 -0.07049868256 1.002505064 0.2562220693 0.1505666077 0.9501270652
-0.06530538946 -0.0684575364 1.002216816 0.3278971612 0.1199402288 0.9224478006
-0.06071143597 -0.05949133262 1.001457214 0.4201123416 -0.005196691956 0.8903830647
-0.05416894704 -0.05680014938 0.9968295097 0.5200193524 -0.07856243849 0.8419457674
-0.05801374093 -0.05300666019 1.00103724 0.4814452231 -0.1016053855 0.868773818
-0.06538210064 -0.05587662384 1.001218081 0.4015043378 -0.07310290635 0.9096326232
-0.05292550474 -0.06268940121 0.9890636802 0.5120843053 -0.08722575009 0.8475856781
-0.06436023116 -0.065106906 0.9959323406 0.3641348481 0.03973273188 0.9090862274
-0.05889374018 -0.06696489453 0.9942860603 0.4183138311 0.0217224434 0.8842263222
-0.07819597423 -0.07416383177 1.004680991 0.176350072 0.193745032 0.9647328258
-0.1054851711 -0.05813037604 1.01000011 -0.04525469616 0.1689899266 0.9844577312
-0.07101719826 -0.05381202698 1.002055407 0.3248117864 -0.07650527358 0.9392656088
-0.06809592992 -0.04923290387 1.003627419 0.3650362492 -0.06911236793 0.9252324104
-0.08462128788 -0.06465484202 1.005262017 0.1898240149 0.1208947077 0.9734482169
-0.07800529897 -0.04663441703 1.003785014 0.2259639502 -0.04805311561 0.9697743058
-0.06918387115 -0.05780734122 0.9985308051 0.3280679584 -0.05041229352 0.9318881035
-0.07297533751 -0.06399261951 0.9998584986 0.2672022283 0.09168460965 0.9517686963
-0.06160275638 -0.05934101716 0.9941617846 0.4158945382 -0.08085028827 0.8924587369
-0.08326725662 -0.04923707247 1.003419638 0.1596895903 -0.01740423776 0.9807141423
-0.07919504493 -0.0521816425 1.00267005 0.2133297473 -0.03970201686 0.9708843231
-0.08813005686 -0.04818185046 1.003257036 0.1103785262 0.008657916449 0.986158669
0.008684078231 -0.03853954747 0.9943040013 -0.325104624 -0.200797379 0.9224480987
0.002974724164 -0.04382362589 0.9890906215 -0.3184319437 -0.1573834419 0.9332533479
0.002049989533 -0.03923045844 0.9917494655 -0.3285728395 -0.1997875422 0.921237886
0.003786053276 -0.03540959209 0.9947581887 -0.3351615369 -0.2330759913 0.91235888
-0.1101583764 -0.1051415503 1.012926817 -0.4168543816 0.001119484776 0.9056777358
-0.0968574062 -0.1065041348 1.020087361 -0.3378978074 0.1298758537 0.9248986244
-0.1064795852 -0.1083569229 1.015160203 -0.4096889794 0.003860248951 0.9033551812
-0.1131015942 -0.08426013589 1.011110783 -0.1008845046 0.04109695554 0.9935741425
-0.1106875911 -0.08301881701 1.006553292 -0.1440702528 0.03013304062 0.979820013
-0.09123744816 -0.103768982 1.000345707 -0.1606172472 0.1821078658 0.9475859404
-0.08176010847 -0.09199844301 1.004175544 0.03765454143 0.2182344943 0.9508290887
-0.07778356969 -0.08814719319 1.006501675 0.1190540791 0.2470439374 0.9488623738
-0.0853131935 -0.09502778947 1.002981424 -0.02232702449 0.204738915 0.951384902
-0.08793348819 -0.09943819791 1.00166297 -0.08973872662 0.1938430965 0.9491302967
-0.07929232717 -0.0837540254 1.006299376 0.1453262866 0.2311629653 0.957834363
0.02255729213 -0.06610450149 1.000369787 -0.3649828732 0.24462758 0.8925266862
0.0422157608 -0.0620030947 1.00563705 -0.3683393598 0.128578648 0.9205695391
0.03276650608 -0.05522717163 0.9972316027 -0.3722584248 0.1094606519 0.9212184548
-0.0100417193 -0.03681392595 0.9869518876 -0.2512306571 -0.3144729137 0.9090282917
-0.01483842451 -0.033240702 0.9862546921 -0.2050252259 -0.3936375082 0.8945525885
-0.02624911815 -0.03840559348 0.9813596606 0.03819381073 -0.3525386751 0.9288146496
0.02161828987 -0.04541355371 0.9965493679 -0.3427934647 -0.06046525016 0.9333785772
0.01562019624 -0.04008513317 0.996398747 -0.3313842118 -0.1533789933 0.9250500798
0.06132920086 -0.1441750526 1.105078697 -0.01034286339 0.1599125713 0.9870769978
0.06329917908 -0.137938872 1.10366106 -0.01034286339 0.1599125713 0.9870769978
0.05211440101 -0.1455966383 1.106033087 -0.01034286339 0.1599125713 0.9870769978
0.06311407685 -0.1492081285 1.10359478 -0.01034286339 0.1599125713 0.9870769978
0.05605300888 -0.1505308747 1.106415987 -0.01034286339 0.1599125713 0.9870769978
0.05978119746 -0.1536502689 1.105390072 -0.01034286339 0.1599125713 0.9870769978
0.002191200154 -0.0720499903 0.9965206981 -0.3780895174 0.2916983664 0.8724348545
-0.0001863138896 -0.06939902157 0.9927180409 -0.3405582905 0.2258004546 0.9124832749
-0.004204047844 -0.07278428227 0.9917622805 -0.3599488437 0.2273279577 0.9046265483
0.01108160708 -0.04572501779 1.00096941 -0.320040077 -0.0582347475 0.9265112877
0.0137031693 -0.06105818599 0.9993517399 -0.3355799615 0.1696413606 0.9166390896
0.01812942699 -0.05122650787 1.002793312 -0.3349539638 -0.009753214195 0.9244790673
0.02320641465 -0.06527152658 1.006572962 -0.3673942089 0.1774678826 0.9029532075
0.01608522423 -0.04463311657 1.001273155 -0.3195450902 -0.1018005088 0.9354314804
0.01662169397 -0.06581294537 1.001638293 -0.3722408414 0.26778543 0.8851867318
0.02346978709 -0.05873003229 1.006781697 -0.3508913219 0.05806089565 0.9195433259
0.01886571757 -0.05782184005 1.003333569 -0.3510613739 0.09835820645 0.9102548361
0.02724124305 -0.06788399816 1.009591579 -0.3717892468 0.1744157523 0.9066688418
0.01663547568 -0.07167166471 1.004657388 -0.3679737747 0.3164659441 0.866369307
0.02128466405 -0.07186294347 1.006945729 -0.3646802604 0.2912687957 0.8734014034
0.02675408125 -0.05140245706 1.005915284 -0.3835933506 -0.03646817803 0.9158897996
0.02402140014 -0.04707296193 1.003818393 -0.3751115799 -0.07857769728 0.9191026688
0.02826095372 -0.0564927645 1.00818789 -0.377317667 0.009292485192 0.9175055027
0.03129906207 -0.06607887894 1.012490511 -0.3674073815 0.09590958059 0.919914782
0.02467969619 -0.04361421242 1.000080824 -0.391503334 -0.07570051402 0.9125392437
0.0265808329 -0.04848176986 0.9970770478 -0.3773624599 0.001378323883 0.9240087271
0.03260742873 -0.05838055536 1.009543419 -0.383543998 0.05400117859 0.9130747318
0.02875656448 -0.04472085461 1.0036515 -0.3919001818 -0.07695500553 0.9085014462
0.03896014765 -0.05608384311 1.004288077 -0.3578986526 0.063952595 0.9263602495
0.0326208733 -0.05260177329 1.006171584 -0.3812936246 0.006132807117 0.9139296412
0.03704050183 -0.06018428132 1.008142352 -0.3682546914 0.08927208185 0.9206720591
0.03549278527 -0.05301801488 1.001657605 -0.3822540045 0.04800594226 0.9184417725
0.03171140701 -0.05029910058 0.999291122 -0.4087718427 0.03489877656 0.9096285701
-0.1009122878 -0.03856936097 1.003212452 -0.009678208269 0.07748320699 0.9966235757
-0.09768477082 -0.04287742078 1.002205968 0.01617512293 0.06616030633 0.9973142743
-0.08257567883 -0.04332297668 1.003914475 0.1642727554 -0.01417874452 0.9781710505
-0.08800237626 -0.0425571613 1.004355073 0.08212956041 0.02196472697 0.9937948585
-0.09331039339 -0.04468948022 1.003988862 0.04400101677 0.03805091232 0.9974569678
0.01073807571 -0.04778632522 0.9882963896 -0.2978515625 -0.1144251451 0.9476037621
0.01046478469 -0.03462902457 0.9980994463 -0.3301855326 -0.2270641625 0.9158178568
0.01150553115 -0.04330835864 0.9915555716 -0.3082592189 -0.1550529152 0.9364022613
-0.003447425086 -0.0621224083 0.9916851521 -0.3870447576 0.114240244 0.9128221273
0.001337193418 -0.06530068815 0.9949872494 -0.3797336817 0.2012519687 0.8903612494
0.007327842992 -0.05688983575 0.9991631508 -0.3444625437 0.1083642766 0.8967780471
0.002364938613 -0.05783505738 0.9952424169 -0.3638748527 0.08062892407 0.9104075432
0.002689867513 -0.05261230841 0.9954991341 -0.3533631563 -0.003377119545 0.9242188334
0.004962174688 -0.06225308403 0.9972942472 -0.3625122011 0.1768386215 0.8892782331
0.007343082689 -0.06652419269 0.9991751909 -0.3616588414 0.2687110305 0.869279027
0.01213992201 -0.05581854284 0.9989370704 -0.316505909 0.07682769001 0.9322406054
0.01016427577 -0.05177297816 1.0005759 -0.3233522773 0.03662578017 0.911944747
-0.03766900301 -0.05985818058 0.9780000448 0.2702215016 -0.110156253 0.9497760534
-0.0305024758 -0.06728634238 0.9811799526 -0.004166787956 0.04642026871 0.9841333032
-0.02621249855 -0.06469683349 0.9789764881 -0.0972109437 0.07575903833 0.9816105962
-0.0471201092 -0.05192164332 0.9917839766 0.5281894207 -0.170043245 0.8250409365
-0.04523067176 -0.04730753228 0.9912518859 0.4845126569 -0.1926074326 0.842774868
-0.04137628525 -0.03800087795 0.9915654063 0.3908777833 -0.2622582018 0.8726968169
-0.04172007367 -0.04305815697 0.990172267 0.4072957933 -0.2332385629 0.8705565333
-0.07288339734 -0.04623848572 1.002118587 0.2999045551 -0.07404252887 0.9486556649
-0.06801810116 -0.04926170409 0.9986743927 0.3527294695 -0.08828588575 0.9250377417
-0.06404435635 -0.05517618731 0.9959158897 0.3925075531 -0.08784032613 0.9048418403
-0.05681828409 -0.0534215048 0.9920060039 0.4786148071 -0.108015269 0.8668742776
-0.05678188056 -0.0588494949 0.9915055037 0.4730629921 -0.09899671376 0.8672228456
-0.06199181825 -0.04654581472 0.9955244064 0.4259188175 -0.1072121933 0.8932497501
-0.07231786102 -0.04081072286 0.9986572266 0.2974382937 -0.05479806662 0.92765522
-0.09127128869 -0.03843593225 1.002274632 0.04732097313 0.06196041405 0.9863101244
-0.06547748297 -0.04197593406 0.997661829 0.3887397647 -0.09894785285 0.9080703259
-0.09194511175 -0.0598195307 1.003887773 0.1304376125 0.1220527366 0.9803431034
-0.09421879798 -0.05479891598 1.002261758 0.1032414138 0.1056481451 0.9836936593
-0.09703151882 -0.04917098209 1.001158714 0.06478384137 0.06859445572 0.9905355573
-0.08644033968 -0.05429839343 1.004647732 0.1319201589 0.006889748853 0.9886395931
-0.1012579277 -0.04633556306 0.9997337461 0.03417656198 0.08333036304 0.9924648404
-0.1007095203 -0.06874030083 1.007000089 0.04598810151 0.127269417 0.9890652299
-0.1044610068 -0.05168003589 1.001735568 0.01597874798 0.1254380345 0.9902585745
-0.09852771461 -0.06020962819 1.005019188 0.0767763555 0.1229074374 0.9878807068
-0.1061895713 -0.06133811548 1.005929708 -0.000435775175 0.1813583374 0.9828782678
-0.1056498885 -0.05628972501 1.003757834 0.004471855238 0.1546603739 0.9865341187
-0.1000838876 -0.05569526926 1.003192067 0.06058708206 0.11322245 0.9900183678
-0.1051818505 -0.1032925174 1.002252579 -0.2899193168 0.08150608838 0.9505366683
-0.1082895845 -0.1000687033 1.004106522 -0.2955705225 0.04946936294 0.9516618252
-0.1071124151 -0.1098622158 1.008080125 -0.3907030225 -0.0005523108994 0.9104167819
-0.1112021506 -0.1021010205 1.007801414 -0.3445951045 -0.009408581071 0.9331079721
-0.1107085273 -0.1100364402 1.012085319 -0.43695274 -0.06330578774 0.8946301341
-0.09801674634 -0.1110007092 0.9989085793 -0.2933070362 0.1457680017 0.9422819018
-0.1038691625 -0.1084475517 1.003704071 -0.3333963752 0.06592011452 0.9310760498
-0.04150538892 -0.196607843 1.101163387 -0.2779114842 -0.1010384858 0.9549736977
-0.03591974825 -0.1987291574 1.101824999 -0.2797132432 -0.1134495437 0.9528563619
0.04650933295 -0.166986838 1.105803609 -0.01036320347 0.1610321403 0.9868919849
0.04123140872 -0.1652870774 1.10663569 -0.01611948013 0.1651367545 0.9860910177
0.03889512271 -0.1601398736 1.107963562 -0.01371884998 0.1629657 0.9865007401
0.02084565163 -0.1860080063 1.107809544 -0.06803765893 0.1288708299 0.9892497659
0.02247437648 -0.1905877441 1.107473373 -0.06715750694 0.1288408339 0.989356637
0.01647348143 -0.1896627992 1.107892513 -0.074882254 0.1090410501 0.9911183715
0.00106654712 -0.1849019825 1.107999921 -0.1575096846 0.08001113683 0.9815936685
-0.00367951137 -0.1883269846 1.109366179 -0.1767621934 0.02749990299 0.9811111093
-0.010891838 -0.1893107295 1.10839951 -0.2106684595 -0.0291266609 0.9760260582
0.001002160716 -0.1892398149 1.111211538 -0.1391536891 0.03510097787 0.9869315028
-0.003236445831 -0.1958224624 1.110986829 -0.2193941027 0.003344510216 0.9742093682
-0.01029770635 -0.1942794621 1.106210947 -0.2272605449 -0.04395932332 0.9716818929
-0.006895127706 -0.1999013126 1.110041976 -0.2343252748 -0.01400651503 0.971416235
-0.06845568866 -0.08678429574 1.008837819 0.2071434259 0.2891153395 0.9339951873
-0.02789803967 -0.02869820409 0.9876531959 0.08379852772 -0.3861538172 0.9117814898
-0.02658181451 -0.03267742321 0.9844341874 0.03651618585 -0.3893260658 0.9164541364
-0.02078267746 -0.03342554718 0.9923554659 -0.01604741439 -0.2784827054 0.9004187584
-0.02561307885 -0.03241309524 0.9923359156 0.07438426465 -0.2908516526 0.8994032741
-0.03758856282 -0.02817017213 0.9922241569 0.2928956151 -0.3221794665 0.8993818164
-0.03468307853 -0.03065351583 0.9867907763 0.209946081 -0.3248703182 0.9011895657
-0.03339366987 -0.0387336202 0.987641871 0.2249193043 -0.3140770793 0.9127234221
-0.02457417361 -0.04241636395 0.986872673 -0.02881021611 -0.2351156026 0.9271217585
-0.01731666364 -0.03684589639 0.9907437563 -0.1307772547 -0.2418490499 0.9119493961
-0.03398428112 -0.03452309966 0.9909842014 0.2030432671 -0.2854923308 0.9007694125
-0.02499119192 -0.03723039106 0.9900383949 -0.001342856325 -0.2477505356 0.9118829966
-0.007911938243 -0.03608331457 0.9917717576 -0.2845277786 -0.2374617755 0.9110123515
-0.01736848429 -0.0425674729 0.9875292778 -0.2253697217 -0.1860610992 0.9319352508
0.02545140125 -0.05868031457 0.9971210957 -0.3713153303 0.1453996748 0.9165756702
0.02098133229 -0.05072437599 0.992875278 -0.3328693211 -0.004708724096 0.9389005303
0.01049420703 -0.0601156801 0.9916439652 -0.3095962405 0.06654085219 0.9359778762
0.008224167861 -0.06438419223 0.9931784868 -0.325484395 0.1332627684 0.9240187407
0.01205048896 -0.07277918607 0.9999275208 -0.3489692807 0.3636825681 0.8587706685
0.007784076035 -0.07210355252 0.9975107312 -0.351031214 0.2932313383 0.8846022487
0.01338436455 -0.06512071937 0.9955340028 -0.32411322 0.1911139786 0.8969181776
0.02484434657 -0.05518525094 0.9938559532 -0.3584258854 0.09273798764 0.9288606048
0.01874133572 -0.05571293086 0.9920558929 -0.3200345933 0.0150650451 0.9399138689
0.0203847792 -0.06103793532 0.9966089725 -0.3502036333 0.1554309726 0.9092698097
0.01575046219 -0.06008156389 0.9933687449 -0.3096060157 0.09465652704 0.9161475897
-0.003993480001 -0.03940944001 0.9917299151 -0.3477033079 -0.1763276905 0.9196299314
-0.009721377864 -0.04169887304 0.9891050458 -0.3227103651 -0.1758707613 0.928884089
0.003438328393 -0.04690584168 0.9961807132 -0.3412709832 -0.07859427482 0.9311167598
-0.0008808943676 -0.04409638047 0.9931371212 -0.3549175858 -0.1095796973 0.925178051
0.006974974182 -0.04369186237 0.9988846183 -0.3220933676 -0.1141593084 0.9355194569
-0.002470146865 -0.05318176746 0.9917788506 -0.3700790703 -0.01154575124 0.9251747131
-0.006297688466 -0.04729763418 0.9902502298 -0.3458212912 -0.09300029278 0.9288753271
-0.007122177631 -0.05224225298 0.9897788763 -0.3466915786 -0.04343231767 0.931049943
0.01172636636 -0.05302540213 0.9885739088 -0.2838103473 -0.05654559657 0.9567588568
-0.05707574263 -0.0462092571 0.9924952388 0.4641856849 -0.119762525 0.8763151765
-0.05158949643 -0.05076496676 0.9878433347 0.4463112056 -0.1262443662 0.8829911351
-0.04812848568 -0.05040491745 0.9847441912 0.4088484049 -0.1361619979 0.9004120231
-0.05173068494 -0.05780609325 0.9883273244 0.5047340393 -0.1131763458 0.8535813093
-0.04412387311 -0.05234636366 0.9812781811 0.3845952153 -0.1433875263 0.9109376669
-0.04310461879 -0.05887291208 0.9805984497 0.4147363305 -0.1381930113 0.895676136
-0.04553199187 -0.06274339557 0.9840157032 0.4661513865 -0.1006294787 0.8757894635
-0.04470842332 -0.04760719463 0.9819505215 0.416603446 -0.1607842445 0.8910446763
-0.05365789682 -0.04135761783 0.9895997047 0.4554359317 -0.1480973512 0.8752678037
-0.04906094074 -0.04328436404 0.9857258201 0.4448787272 -0.1601206958 0.8774106503
-0.1071360484 -0.08731594682 1.012620687 -0.1133195013 0.09369006008 0.987191081
-0.1028604507 -0.09089618921 1.014435172 -0.1347823292 0.1135371402 0.9820660353
-0.09515149891 -0.08860593289 1.014362931 -0.07072580606 0.182337597 0.9786790609
-0.112723738 -0.09758978337 1.011232018 -0.3130254149 0.001000191085 0.9392567277
-0.1004404873 -0.09711101651 1.017618656 -0.2177381963 0.1287659556 0.9601355195
-0.09495331347 -0.09667055309 1.017398119 -0.1759196818 0.1666665673 0.9688994288
-0.1008729115 -0.1025540009 1.017853856 -0.3156952262 0.1124887541 0.9334770441
-0.1084859669 -0.09186438471 1.013952494 -0.1866002232 0.06708105654 0.9706894755
-0.1070231944 -0.09859959036 1.014605284 -0.2941543162 0.06273552775 0.9406903982
0.03835633025 -0.1788666099 1.112664461 -0.01319611259 0.1008715481 0.9947591424
0.03778927401 -0.1698663533 1.110330105 -0.01381908823 0.1226311997 0.9918031693
0.03641033545 -0.1646607965 1.107919693 -0.02235858515 0.1706971079 0.9850369096
0.04211638123 -0.1724451184 1.110952139 0.0007809372619 0.1253981143 0.9917845726
0.00887717586 -0.1945441365 1.107796311 -0.1114100069 0.07376037538 0.9908090234
0.01388408337 -0.1955881864 1.107856274 -0.09052691609 0.08047148585 0.9923337102
0.01023348328 -0.1885550022 1.107999921 -0.09688009322 0.09948806465 0.9899457693
-0.0002815100306 -0.2032765895 1.103153706 -0.1803221703 -0.02911302447 0.9733310938
-0.01746083237 -0.2101154774 1.097330809 -0.2801707387 -0.145842731 0.9475120902
0.00462801801 -0.1983131766 1.105779648 -0.1425939798 0.02850844152 0.9831797481
-0.0114406338 -0.2073974013 1.099474072 -0.2441982329 -0.1023444459 0.9568238258
-0.0001550560992 -0.198220253 1.104796886 -0.1642924547 0.01211086754 0.9776304364
0.009355503134 -0.2019508779 1.105617404 -0.1319813281 0.01612421125 0.9857537746
-0.004933693446 -0.1986502707 1.104525924 -0.2021487057 -0.02068545856 0.9711754918
-0.009694959968 -0.20168221 1.103034973 -0.2413696498 -0.06895725429 0.9628199935
0.001655399217 -0.1934253275 1.107582688 -0.1557639837 0.04518170655 0.9832187891
-0.100076206 -0.1160408035 1.017339468 -0.3377386928 0.1512115151 0.8958038092
-0.1022340432 -0.1123399511 1.011497617 -0.3857147992 0.0367824249 0.9057624936
-0.09560690075 -0.1152563021 1.011675477 -0.2853827477 0.2055449039 0.9213055968
-0.09865250438 -0.1116246134 1.004493594 -0.3178230524 0.1098824218 0.9345629811
0.05544086918 -0.1465561688 1.101714969 -0.01034286339 0.1599125713 0.9870769978
0.05626330525 -0.1417567581 1.101777434 -0.01034286339 0.1599125713 0.9870769978
0.0514723435 -0.15205051 1.103318572 -0.01034286339 0.1599125713 0.9870769978
0.06059510261 -0.1462378651 1.09889698 -0.01034286339 0.1599125713 0.9870769978
0.05110679939 -0.1588120908 1.102974415 -0.01034286339 0.1599125713 0.9870769978
0.0570563972 -0.1521231979 1.100238323 -0.01034286339 0.1599125713 0.9870769978
0.044763688 -0.1581122279 1.106189966 -0.01034286339 0.1599125713 0.9870769978
0.04847851023 -0.149954617 1.107848287 -0.01034286339 0.1599125713 0.9870769978
0.01365949865 -0.1809731424 1.110661983 -0.07434208691 0.1102427691 0.9909009337
0.008292160928 -0.1824439466 1.109720945 -0.0831252113 0.09510548413 0.9916000366
0.01117167808 -0.1920227706 1.112000227 -0.09672980756 0.0776270926 0.9921560884
0.006347869057 -0.1880170852 1.112000108 -0.09753450006 0.06397666782 0.9931114316
0.02352265455 -0.1874963641 1.112705112 -0.06452420354 0.1073859632 0.9912540317
0.01803399809 -0.1860250086 1.11216712 -0.07582135499 0.1055176929 0.9910694361
0.03029231355 -0.1836615801 1.113159776 -0.04407275096 0.1231029555 0.990909934
0.02553761937 -0.1823844165 1.112693667 -0.0538562648 0.1214905754 0.9907497764
0.01767829992 -0.1913766265 1.112333775 -0.08283740282 0.09246489406 0.9916087389
-0.07357705384 -0.1094197184 1.017755151 -0.09867413342 0.3758493662 0.8932919502
-0.07891491801 -0.1108348817 1.02032721 -0.1547355056 0.3508853912 0.9063438773
-0.01476102415 -0.1925917417 1.105957866 -0.2306345403 -0.06130835041 0.9707155228
-0.02635785565 -0.1938731521 1.103941083 -0.2588812411 -0.07374682277 0.9624166489
-0.02013045177 -0.1964629889 1.103779435 -0.2453459352 -0.09071543068 0.9645471573
-0.03057213686 -0.1976110339 1.102158189 -0.2732037604 -0.1032127887 0.9558659792
-0.04856306314 -0.2008976489 1.092393041 -0.2800328732 -0.1156514362 0.9524806738
-0.05165646225 -0.1964182407 1.094111681 -0.2763720155 -0.0904340595 0.9567828774
-0.04403671995 -0.2032200694 1.093251705 -0.2848894596 -0.1491053253 0.9467733502
-0.04280327633 -0.2024318427 1.098689556 -0.2834668756 -0.1393060982 0.9484451413
-0.03827157617 -0.2037034184 1.100513816 -0.284727335 -0.1479886025 0.9469638467
-0.03124040179 -0.2023625672 1.096288681 -0.2828139663 -0.1348085552 0.9492124319
-0.03690302745 -0.2051304579 1.094904065 -0.2854205668 -0.1527638584 0.9461491704
-0.02510285564 -0.2089108676 1.094949603 -0.2854205668 -0.1527638584 0.9461491704
-0.03100604191 -0.2070774883 1.093513608 -0.2854205668 -0.1527638584 0.9461491704
-0.03885610402 -0.1993955672 1.096018791 -0.280777216 -0.1207786426 0.9516059756
-0.04419483617 -0.1958952099 1.096945405 -0.2763570249 -0.09033077955 0.9568004608
-0.01376878563 -0.04897349328 0.9868485928 -0.3168527484 -0.09532865137 0.935539484
-0.01307255123 -0.05405217037 0.9862675071 -0.3301967382 -0.01333800796 0.936504662
-0.02233422361 -0.04809434712 0.9856615663 -0.09386577457 -0.1513730735 0.9350676537
-0.01799932681 -0.0526600033 0.9848192334 -0.2216986716 -0.05260878429 0.9421725869
-0.03408160433 -0.05814532191 0.9893808961 0.1790699512 -0.03828290105 0.8645913601
-0.02741917782 -0.05981292576 0.9889179468 0.02712672763 0.008663079701 0.8806861043
-0.01452616695 -0.05855065584 0.9877973199 -0.2374950349 0.03123375401 0.9210159779
-0.03351015225 -0.05256812274 0.9892782569 0.2204650044 -0.1300521344 0.8782021999
-0.0281505622 -0.05117949098 0.9876286983 0.1031864285 -0.1437993199 0.908673346
-0.03747754544 -0.04957061633 0.988787353 0.317465812 -0.1950340569 0.8798805475
-0.04175383598 -0.05274287984 0.9909814 0.405815959 -0.1455231905 0.8431406021
-0.03216081113 -0.04785562679 0.9870074987 0.2019788623 -0.2149719298 0.9121396542
-0.02125618607 -0.05948560312 0.9897989631 -0.07321496308 0.02695029415 0.887110889
-0.05811364949 -0.03555257246 0.994394362 0.4465143383 -0.1417612582 0.876406312
-0.06529954076 -0.03304106742 1.001034141 0.3489405513 -0.08699353039 0.9151356816
-0.06894740462 -0.03440373763 1.004481196 0.3092593849 -0.05859812722 0.9389916062
-0.0723554045 -0.03273810446 1.007779002 0.2621315122 -0.03095006384 0.9566762447
-0.06123723462 -0.03327061236 0.9986925125 0.4078432322 -0.1023755744 0.8919845819
-0.06113790721 -0.03861079738 0.9965589046 0.4215280116 -0.1189885512 0.8957233429
-0.08220653981 -0.03902702406 1.000228047 0.1643967927 0.008482035249 0.9567988515
-0.07635321468 -0.03779697791 1.002634287 0.2324071825 -0.0189693775 0.9560858607
-0.08105562627 -0.03753656149 1.004870296 0.1746213585 0.01317013707 0.9762712121
-0.0685909614 -0.03799207509 1.000359774 0.3285222948 -0.06790078431 0.9291291237
-0.1076797098 -0.08188656718 1.011144519 -0.08018345386 0.08241727948 0.9920707941
-0.1115635857 -0.07325896621 1.010005474 -0.06696968526 0.1150272489 0.9899175763
-0.1059742719 -0.07223626971 1.010216475 -0.04029316455 0.1162959859 0.9909995794
-0.09696178883 -0.08098494262 1.012007952 -0.008574440144 0.1534196734 0.986089766
-0.1002960876 -0.07729621977 1.010927558 -0.01223162655 0.112365514 0.9915575385
-0.1007366851 -0.08398988098 1.012075543 -0.05950144306 0.1542985588 0.9850949049
-0.09950954467 -0.05376149341 1.01000011 0.003113432089 0.1253109574 0.989187777
-0.09311147034 -0.05219004676 1.01000011 0.07909765095 0.08468103409 0.992780745
-0.09442175925 -0.0466863811 1.01000011 0.04802635685 0.08004098386 0.993886888
-0.08943483233 -0.07628452778 1.010298371 0.1226149201 0.1883144081 0.9730642438
-0.08989468962 -0.0828011632 1.011870265 0.06432668865 0.2242321521 0.9688428044
-0.08727781475 -0.07420995831 1.006468415 0.1415115297 0.172912702 0.9719521999
-0.0920587033 -0.06966217607 1.006396294 0.1214087307 0.1165400222 0.9832885265
-0.08216565102 -0.08499826491 1.011251807 0.1293274164 0.2777314782 0.9500603676
-0.07300993055 -0.08583830297 1.010166883 0.1904142499 0.2968583405 0.9341537356
-0.08565177023 -0.08060909063 1.010755181 0.1307284981 0.2384262681 0.9605728984
-0.08087477833 -0.07815083861 1.008873463 0.1731286645 0.2228945941 0.9577088356
-0.09208120406 -0.100927867 1.019052386 -0.2136391997 0.1935419738 0.9498364925
-0.08967403322 -0.09419504553 1.014934421 -0.06856092066 0.2232867777 0.9669884443
-0.08650517464 -0.0876519829 1.012532473 0.06431075931 0.2696856558 0.9576966166
0.0003085566568 -0.1992111355 1.112035155 -0.219787553 0.01618974097 0.9744802117
0.00498970598 -0.2030292898 1.112581372 -0.2192019224 0.01540927403 0.9742037654
0.009554276243 -0.1971679479 1.113167048 -0.09967774153 0.05205310136 0.9936224222
0.003129485296 -0.193897292 1.112000108 -0.1570723504 0.03843040764 0.9847320318
0.01929316297 -0.1800837964 1.112019062 -0.06578817964 0.1204173937 0.9905059934
0.02827177756 -0.1778771281 1.112374544 -0.04020035639 0.130500555 0.9906078577
0.0211731568 -0.1751613319 1.10909164 -0.04791921005 0.1102426723 0.992380619
0.03333190829 -0.1743955612 1.110991955 -0.02571714856 0.1247324422 0.9912830591
-0.08288408816 -0.1146041155 1.022248507 -0.2388548702 0.3707687259 0.8966132998
-0.02329915389 -0.2039811313 1.097490668 -0.2808436155 -0.1359997094 0.9495481849
-0.01269143727 -0.2111685872 1.10499835 -0.2343482822 -0.1639788896 0.9579148293
-0.01652099565 -0.2045163512 1.100208282 -0.2629599869 -0.1216464788 0.9558159113
-0.009356549941 -0.2045312524 1.10890317 -0.2491006106 -0.04028874636 0.9645287395
-0.02024433576 -0.2056229711 1.103329897 -0.2626684904 -0.1360387057 0.9538736939
-0.008755267598 -0.2108532488 1.107803583 -0.2107265741 -0.1151904091 0.9702859521
-0.01391308382 -0.1996373236 1.105999947 -0.2442314029 -0.07009326667 0.965128541
-0.08556494117 -0.1150611565 1.011382937 -0.2783405185 0.3129117191 0.8981304169
-0.08193653077 -0.1150950566 1.014695287 -0.2832049429 0.3613070846 0.880168438
-0.07716365904 -0.1155473366 1.019410014 -0.2867278159 0.4242028892 0.8580909371
-0.1045567319 -0.06490652263 1.01000011 -0.003197869286 0.1882607192 0.9817561507
-0.09506824613 -0.06229123101 1.00999999 0.07681041956 0.1281160563 0.9863849282
-0.09627916664 -0.06769941002 1.010159135 0.07335749269 0.1428300738 0.9854057431
-0.07768531889 -0.09359816462 1.008324265 0.09139062464 0.2824230492 0.938308835
-0.07952292264 -0.09943661094 1.006735206 0.01256393455 0.2612963617 0.9376677275
-0.06911792606 -0.09920690954 1.012853742 0.1631431878 0.3183940053 0.933480978
-0.08778283 -0.1071581319 1.002758622 -0.1361920983 0.2116040885 0.941065073
-0.08259788901 -0.1033318564 1.005001903 -0.05649028346 0.2398048043 0.9385077953
-0.07328882813 -0.09812586755 1.009438634 0.08888326585 0.2907657921 0.9340473413
-0.08458205312 -0.09798447043 1.01548326 -0.05159278587 0.2809917331 0.9524857998
-0.07034440339 -0.09326541424 1.011701345 0.1580371559 0.3172599971 0.9340816736
-0.07647382468 -0.1030416265 1.016369104 0.01592099667 0.3119615912 0.9304278493
-0.08390551805 -0.1041962206 1.018916488 -0.1191794276 0.3062438667 0.9312466979
-0.07489144057 -0.09783886373 1.013768673 0.07680547982 0.31466344 0.9390760064
-0.08478169888 -0.09301049262 1.013359189 0.0108721517 0.2721055746 0.9607011676
-0.07989321649 -0.09438345581 1.013059616 0.04802890122 0.2926240563 0.9528970718
0.02805365808 -0.1828003526 1.107745886 -0.04428227618 0.1321752667 0.990154624
0.02520952187 -0.1711971909 1.107999921 -0.02880856581 0.1019058749 0.9941357374
0.01681269892 -0.1777382046 1.107999921 -0.0629298538 0.1212897822 0.9905213118
0.02259445935 -0.1810899228 1.10788393 -0.0573759079 0.1320430636 0.9895043373
-0.09360826015 -0.1157270297 1.021227121 -0.2682336569 0.2676823139 0.9163686633
-0.09092546254 -0.1206844673 1.021818995 -0.2326939702 0.3567195535 0.9020261168
-0.09182846546 -0.1068688184 1.022000194 -0.2838226557 0.2196634114 0.9310424328
-0.08802086115 -0.112927787 1.022057056 -0.2366681099 0.3323767483 0.9115466475
-0.1007699296 -0.1089333892 1.018119931 -0.3654108047 0.0804009065 0.9133930206
-0.0894722417 -0.1186748967 1.015694022 -0.2436727732 0.3177242279 0.910941422
-0.09402019531 -0.1145145297 1.006058216 -0.2652864158 0.2312272489 0.9300783277
-0.08219315112 -0.120404914 1.019330621 -0.2513097227 0.3664148152 0.8925430179
-0.07692024857 -0.04032719508 1.010149121 0.2424720824 0.0268868655 0.9643337727
-0.07247500867 -0.03831531107 1.009831667 0.3032309413 0.01715349965 0.9483963251
-0.08298054338 -0.05206704512 1.008586407 0.1922218949 0.05000944808 0.9738294482
-0.08001714945 -0.04711332917 1.009547234 0.224450931 0.04794931039 0.9660302401
-0.07418899983 -0.04524144158 1.006972671 0.281129837 -0.008892749436 0.9552691579
-0.08764687181 -0.05485101789 1.00991869 0.1457465887 0.0868999064 0.9831928611
-0.09086689353 -0.05818273872 1.00999999 0.1162319034 0.1006983668 0.9879299998
-0.0822782591 -0.0396659039 1.01020658 0.1689676195 0.0347150974 0.9829934835
-0.08515426517 -0.04406728595 1.01009798 0.1484872997 0.05541536212 0.9857895374
-0.08736264706 -0.04866407812 1.010027409 0.1346313059 0.0732691288 0.9873863459
-0.07995541394 -0.033168789 1.010263443 0.1809881479 0.01326106489 0.9820650816
-0.0844559893 -0.03501718119 1.010040998 0.141196698 0.03754436597 0.9887180328
-0.08897139132 -0.03891441226 1.00999999 0.09450660646 0.05278772488 0.9926859736
-0.07521244138 -0.0575009957 1.00308919 0.2621098757 0.0006720158271 0.9596962929
-0.08388595283 -0.05974771827 1.007764459 0.1707641631 0.1026907489 0.9759437442
-0.07864848524 -0.06055090204 1.005698681 0.226956442 0.09248615056 0.963409543
-0.07552693039 -0.06980439276 1.004272819 0.1972465962 0.1554937065 0.9638168812
-0.07994209975 -0.06553329527 1.006093979 0.1757626384 0.1357981861 0.9711565971
-0.08760260046 -0.06306020916 1.009346843 0.135338217 0.1296505332 0.9810384512
-0.08739432693 -0.06795181334 1.009384394 0.1389579177 0.1553269923 0.9767242074
-0.08256533742 -0.07069717348 1.007275939 0.1508462429 0.170233801 0.9726949334
-0.07582595199 -0.1032945663 1.009459734 0.02356541716 0.2868215442 0.9305473566
-0.07243233919 -0.1045325026 1.014274955 -0.0932970494 0.3700012267 0.8933555484
-0.08238785714 -0.1106908843 1.011071444 -0.2957107723 0.3459407687 0.8803555369
-0.07808613777 -0.1113165841 1.015417457 -0.301918149 0.4067924023 0.8574463725
-0.09209727496 -0.1107041314 1.002266645 -0.286813587 0.2211830169 0.9246448874
-0.07888209075 -0.107256636 1.011834264 -0.286621213 0.3606962264 0.8822125793
-0.08818478137 -0.1113902479 1.006301761 -0.2928791642 0.277562499 0.9031994939
0.02661701664 -0.1757187843 1.107998729 -0.03634951636 0.1224828735 0.9916302562
0.03718807548 -0.1768215746 1.107688069 -0.01915900409 0.1275964379 0.9911375046
