# .PCD v0.7 - Point Cloud Data file format
VERSION 0.7
FIELDS x y z normal_x normal_y normal_z
SIZE 4 4 4 4 4 4
TYPE F F F F F F
COUNT 1 1 1 1 1 1
WIDTH 512
HEIGHT 1
VIEWPOINT 0 0 0 1 0 0 0
POINTS 512
DATA ascii
-0.194240734 -0.07421994954 1.020333529 -0.08506058902 0.3898605704 0.9168365002
-0.1885194629 -0.07311952114 1.019545317 -0.098498106 0.3959035575 0.9128853679
-0.05348771811 -0.07344720513 1.101722836 0.2946108878 0.01976015978 0.954146564
-0.04600032419 -0.06486955285 1.095579982 0.362701118 0.08702913672 0.927216351
-0.05090330541 -0.07335975766 1.096722245 0.3385917544 0.02394808456 0.9396861196
-0.05036424473 -0.06909629703 1.099842548 0.3310685456 0.04555340111 0.9415405989
-0.04743682221 -0.06943368912 1.094091535 0.3608581722 0.0587301515 0.9293476939
-0.1113471687 -0.1198552251 1.09776628 0.208173275 -0.4875311852 0.8479252458
-0.04303111136 -0.07663262635 1.092933059 0.3522923887 0.01399828587 0.9356610775
-0.03775880858 -0.08221865445 1.092170596 0.347263217 0.007058793679 0.9374435544
-0.03724393621 -0.07651352137 1.092204094 0.3713629544 0.0265585091 0.9274699688
-0.04720543325 -0.06526865065 1.10154748 0.3298895657 0.07234314084 0.9404658079
-0.0441528298 -0.0721815899 1.098229527 0.3327976465 0.04380237684 0.94066751
-0.1157581657 0.03704518825 0.981176734 -0.2671618164 -0.1596186459 0.9488248825
-0.1232870519 0.04304703698 0.9840188026 -0.2283717394 -0.2269370705 0.9465373755
-0.09863802791 0.009110514075 0.9884406924 -0.3196619153 -0.008159451187 0.9474672079
-0.02600723319 -0.03186611831 1.082896948 0.5417826176 0.11386206 0.8325355649
-0.02187602594 -0.03898591176 1.080616117 0.5546705723 0.1110035703 0.8244485259
-0.02903672494 -0.02896384895 1.085561752 0.5363020897 0.1150776222 0.8359745145
-0.02411886491 -0.02755257487 1.07836616 0.5400938392 0.1142366156 0.8335952163
-0.06097596139 -0.09170166403 1.096621275 0.1961473376 -0.1457387507 0.9687073231
-0.0266005341 -0.03318753466 1.076204896 0.5534588099 0.1112723276 0.8252088428
-0.03258258849 -0.03385961801 1.079444766 0.528886497 0.1167223677 0.8406277299
-0.03425596654 -0.0296384804 1.086387992 0.528886497 0.1167223677 0.8406277299
-0.03279699013 -0.02676329203 1.081607699 0.528886497 0.1167223677 0.8406277299
-0.2092560679 -0.06066709757 1.014080644 -0.01108676754 0.3973349035 0.916672349
-0.2045212835 -0.06582079828 1.016149282 -0.03299420327 0.4126332104 0.9099043012
-0.20627895 -0.06635250151 1.011435509 -0.02505371906 0.4252231121 0.9043713808
-0.1993892193 -0.07117180526 1.01724124 -0.05936302245 0.4072190523 0.9108441472
-0.1997448504 -0.07521171868 1.021264315 -0.07146257907 0.3880491257 0.9186477661
-0.0408138819 -0.08771241456 1.094511628 0.3189457953 -0.03997178748 0.9444604516
-0.04610043392 -0.09430278838 1.099583983 0.2721458375 -0.1031262726 0.9553384781
-0.04458127543 -0.09125199169 1.095105529 0.3000938892 -0.08927990496 0.9462800622
-0.04853559658 -0.09508642554 1.093845129 0.2430246025 -0.1165208146 0.955732882
-0.05259662494 -0.09868535399 1.093840957 0.2000753731 -0.1506758034 0.963096261
-0.09640260041 -0.1114144027 1.100735188 0.208173275 -0.4875311852 0.8479252458
-0.1033031344 -0.1156097725 1.096499085 0.208173275 -0.4875311852 0.8479252458
-0.02928148955 -0.06335832924 1.086873055 0.4552670717 0.1368749887 0.879529953
-0.03306085616 -0.07250028849 1.090191603 0.402361393 0.05810096115 0.912555933
-0.03899928555 -0.06757493317 1.091120243 0.3903465271 0.09217292815 0.9150913954
-0.04433827475 -0.05944369733 1.095181823 0.4166389406 0.09687835723 0.9010295272
-0.03728909045 -0.03270652518 1.09278357 0.5016940236 0.1127841249 0.85419029
-0.04038294777 -0.04168302566 1.094787359 0.4652698338 0.107508868 0.8723573685
-0.04224016145 -0.05050106719 1.092393637 0.4927318096 0.1114861369 0.8586603403
-0.0447791405 -0.05315279216 1.098982573 0.3950263262 0.09733562917 0.9073922038
-0.04089250416 -0.05543825775 1.093951225 0.4647886455 0.1051623896 0.8734077811
-0.0374314189 -0.03895282 1.088023782 0.528886497 0.1167223677 0.8406277299
-0.03471484408 -0.02624586411 1.090463996 0.528886497 0.1167223677 0.8406277299
-0.03649591655 -0.062933743 1.089813709 0.4224903286 0.1239578053 0.8958377242
-0.03381636739 -0.05428203195 1.087095737 0.5247466564 0.1158630326 0.8428167701
-0.03872174025 -0.05414742976 1.08920145 0.499281019 0.1113312468 0.8564614058
-0.04055603221 -0.05988502502 1.090314269 0.4429067969 0.103256695 0.8865430951
-0.03252005577 -0.05879475921 1.09135735 0.4758732617 0.1002534032 0.8660249114
-0.03983896598 -0.06323347241 1.096942306 0.3841720223 0.09122020751 0.9145879745
-0.03723959625 -0.05904009566 1.094783068 0.43767941 0.09730166197 0.8848587871
-0.02922771499 -0.06760429591 1.089372754 0.429787606 0.0958859399 0.8961099982
-0.02295026556 -0.04949969426 1.082625628 0.5421590209 0.1150308922 0.8309310079
-0.02663044818 -0.05814768001 1.084893465 0.4852614999 0.1310981661 0.8628665209
-0.2031265497 0.001058827387 1.001865745 0.3724945188 0.0368562825 0.924689889
-0.1960390508 -0.005467273295 0.9972064495 0.344411552 0.09245932847 0.9286631942
-0.199168995 -0.0008015253698 0.999479413 0.3752202094 0.05846068263 0.9211252332
-0.1881617457 -0.03286255151 1.001884699 0.05814404786 0.3946710229 0.9137257338
-0.185672015 -0.02628278732 0.9979526401 0.08871363103 0.3267798424 0.9392750859
-0.1309651583 0.04195047542 0.9837548137 -0.1704893112 -0.2584907711 0.9473113418
-0.176151365 -0.03565626964 1.067736149 0.8690654635 0.2284860015 -0.1961833835
-0.1743198335 -0.0416835323 1.067469239 0.6645699739 -0.7065109015 0.136180833
-0.1681088805 -0.04353716224 1.070886254 0.8183252215 -0.5667069554 0.05858862773
-0.2084769905 0.007858730853 1.000876784 0.40838781 0.01169781387 0.9105792642
-0.1925314367 0.01571178995 0.9861953259 0.5096545815 0.03160777315 0.8585905433
-0.1970705688 0.01416520961 0.9926985502 0.475201726 0.0248340331 0.8762781024
-0.2044714987 0.01175711863 1.002113104 0.4244143963 0.01484878175 0.9023514986
-0.2004806548 0.01071835775 0.9906342626 0.4627934694 0.02239445597 0.8826482892
-0.20441176 0.008670153096 0.9941017628 0.4379549921 0.01751098782 0.8953999877
-0.07890160382 0.0419306457 0.9927410483 -0.2210169882 0.0002067176974 0.9752699137
-0.09099976718 0.04331450909 0.9887149334 -0.2258064896 -0.005689957645 0.9741401672
-0.08470719308 0.04264873266 0.9882644415 -0.224082008 -0.003566832514 0.9745469093
-0.08041528612 0.03945759684 0.9878072739 -0.2367109358 0.004369857255 0.9713659883
-0.08998709172 0.0257230401 0.9920424819 -0.2578679919 0.009982200339 0.9661030173
-0.1211372837 0.0344723314 0.9833422899 -0.2536308467 -0.1853491962 0.9472513795
-0.1095614657 0.02903391235 0.9854992628 -0.2867976129 -0.0814248994 0.9509803653
-0.03049329296 -0.02239621431 1.084816813 0.528886497 0.1167223677 0.8406277299
-0.02880820632 -0.02219783887 1.079728365 0.528886497 0.1167223677 0.8406277299
-0.04754371941 -0.07955506444 1.094619036 0.3216246068 -0.0216960609 0.9446940422
-0.04554041475 -0.08437495679 1.095088482 0.3172422051 -0.03775971383 0.9472173452
-0.05104644224 -0.08410877734 1.096052289 0.2859509289 -0.06544688344 0.9544782639
-0.05285621062 -0.09260716289 1.095327854 0.2337655276 -0.1197960526 0.9610394835
-0.05791030824 -0.09534671903 1.095380664 0.1913339496 -0.1533585042 0.9683396816
-0.05546395108 -0.08636566252 1.096920252 0.2518230379 -0.09892973304 0.9623615146
-0.1714737564 -0.05462469906 1.037664175 0.1978719383 -0.03005569056 0.5996314287
-0.1700787991 -0.05580760911 1.032320738 0.1208174154 0.1051194295 0.6775739193
-0.1724502295 -0.06317403167 1.02565968 0.01258773636 0.2592609525 0.7877803445
-0.1726187021 -0.06057516113 1.030428767 0.08454792202 0.1423790008 0.7147998214
-0.1744973511 -0.05353308842 1.046773911 0.3273279071 -0.2627666295 0.4687981904
-0.173923552 -0.04410442337 1.061223865 0.5485764146 -0.6131256819 0.2442287058
-0.1685420722 -0.06133930758 1.019334555 -0.07194140553 0.4271632433 0.8728830218
-0.1689152867 -0.05765518546 1.026418447 0.03458510712 0.2531151772 0.7648668885
-0.1701238602 -0.04983025044 1.042465329 0.2748181224 -0.1424153596 0.5213364363
-0.1723067462 -0.06642273813 1.019859672 -0.07511082292 0.4011961222 0.8767327666
-0.1660840958 -0.05677255988 1.021086574 -0.03804072365 0.3930295408 0.8380742073
-0.1776054651 -0.06265553832 1.03631258 0.1494819522 0.006254567765 0.6490241885
-0.1787025183 -0.07186675817 1.022445917 -0.06829898804 0.350391537 0.8698720336
-0.175718233 -0.05758447573 1.042492867 0.2571282387 -0.1587052792 0.5401097536
-0.1822081357 -0.07145101577 1.027099133 -0.02453595959 0.2669904232 0.8248061538
-0.1752737761 -0.04804642871 1.05763495 0.4892365932 -0.5282535553 0.3045991659
-0.1777252406 -0.06561508775 1.03159368 0.07728816569 0.1212675795 0.7222796082
-0.07690691203 -0.09800792485 1.102139354 0.1423592865 -0.3052878082 0.9360761046
-0.1834581941 -0.03144987673 1.0005126 0.04869414493 0.3978306651 0.9136407971
-0.1071490571 -0.1195926219 1.093907595 0.208173275 -0.4875311852 0.8479252458
-0.08809190989 -0.1147299185 1.096173644 0.208173275 -0.4875311852 0.8479252458
-0.09206632525 -0.1182124913 1.095816255 0.208173275 -0.4875311852 0.8479252458
-0.0973341167 -0.1169338524 1.098178744 0.208173275 -0.4875311852 0.8479252458
-0.1028326452 -0.1140688434 1.101291776 0.208173275 -0.4875311852 0.8479252458
-0.07471583039 -0.09913574904 1.096963048 0.1296951473 -0.3236224353 0.936296165
-0.07083410025 -0.09542933106 1.097000003 0.1555106193 -0.2637104392 0.9456065297
-0.07487742603 -0.109501414 1.097752929 0.14457798 -0.3979488015 0.899005115
-0.07618271559 -0.103906855 1.100368977 0.15850766 -0.349655658 0.9123495221
-0.07029631734 -0.102884993 1.100710869 0.1289881617 -0.2365049124 0.9623658657
-0.08152031153 -0.1168661192 1.093127728 0.1656736583 -0.4662235379 0.8681325912
-0.08798182011 -0.1210771799 1.091260552 0.2000701874 -0.4834685922 0.8517780304
-0.07662419975 -0.1140917093 1.09566319 0.1503204554 -0.4585260451 0.8754325509
-0.06628855318 -0.1113631055 1.096010447 0.1463159919 -0.342310667 0.9271384478
-0.0711222887 -0.1058894098 1.096509457 0.1328877062 -0.3176832795 0.9357666373
-0.06295097619 -0.1014061272 1.096203685 0.1556802839 -0.2121844739 0.9643914104
-0.06617811322 -0.1060489714 1.098646522 0.1485776603 -0.273809731 0.9464811683
-0.06588224322 -0.09785183519 1.101807117 0.1580337584 -0.1998017877 0.9649788141
-0.05589828268 -0.1016929075 1.099207759 0.2058934867 -0.2084140629 0.9490392208
-0.05882295966 -0.104388386 1.094666123 0.1592112333 -0.2210163623 0.9601821303
-0.05327685177 -0.08368267864 1.102422118 0.2605132461 -0.04430114478 0.9625024199
-0.05379889905 -0.07856377959 1.101666451 0.2753297687 -0.008525941521 0.9609044194
-0.04874128848 -0.08735933155 1.099457741 0.2814929485 -0.06119079515 0.955896616
-0.02245336398 -0.04395882413 1.08172369 0.562597394 0.109245427 0.8194745183
-0.02731094509 -0.03731989488 1.085466027 0.5504989624 0.1119288132 0.8270661235
-0.2210006267 -0.04486998543 1.007461667 0.1085733473 0.3092538118 0.9434689879
-0.2142402828 -0.05535278097 1.006593943 0.01974849403 0.3963020742 0.9160787463
-0.1714699119 0.0001598734671 0.9762257934 0.5588091016 0.007362120785 0.8290325403
-0.1809301972 0.007488954347 0.9802915454 0.5409989357 0.02515551634 0.8403184414
-0.1826865822 0.006092069205 0.9849543571 0.5542966723 0.02939651161 0.8316456676
-0.1772531867 0.003659966402 0.9794976711 0.5506965518 0.02218671329 0.8341721296
-0.2127536088 -0.05456921086 1.011403203 0.00628519617 0.386864841 0.9215286374
-0.1905562282 -0.02459278703 0.9980425835 0.1192048192 0.2915455103 0.9466872811
-0.1927073598 -0.01530843228 0.9945954084 0.2667933702 0.1912027001 0.9379845858
-0.1878756732 -0.01631564461 0.9947119951 0.2301759273 0.2401391119 0.9400861263
-0.1861038804 -0.03772295266 1.004295826 0.01538189407 0.4400954247 0.8971617818
-0.1923609972 -0.03793503344 1.005512714 0.01879674196 0.4041275382 0.9096654654
-0.1946133971 -0.03223859146 1.002606273 0.073493056 0.3596384823 0.925845325
-0.1935184598 -0.0423527658 1.008274555 -0.02112481743 0.4213974476 0.9031203389
-0.2103404403 -0.05838513002 1.00345242 0.007454976905 0.4230010509 0.9048796296
-0.2060192376 -0.04734173417 1.000865936 0.05014675483 0.3853215575 0.916870296
-0.2001191676 -0.04749206081 1.000200272 0.02305006236 0.4231307805 0.9040640593
-0.2038697153 -0.04018846899 0.9992669225 0.08069011569 0.3568497896 0.9260151982
-0.2039445043 -0.05234267935 1.001563072 0.01287457719 0.4276178181 0.9028865695
-0.2167836577 -0.015263265 0.999653101 0.2551223934 -0.001315486385 0.9654914141
-0.2215380371 -0.01663696952 1.002022386 0.2500506639 0.03214281052 0.9656288028
-0.2081599534 -0.01848360337 1.002161503 0.2362241298 0.1513513774 0.9521254897
-0.2113772631 -0.01284997538 1.003050089 0.266540736 0.07987415791 0.9523290992
-0.2125050724 -0.007167815231 1.004443288 0.2962034941 0.03906471282 0.9482867122
-0.2058952302 -0.0126028955 1.003019214 0.2746412754 0.1405849755 0.9409011602
-0.2072431296 0.004957525525 1.005881667 0.3782661259 0.01912127994 0.9239025712
-0.2076936066 -0.004520436283 1.006094456 0.3093752265 0.09544096142 0.9356679916
-0.2009310573 -0.02142863907 1.001536727 0.176505208 0.2443296015 0.9399895668
-0.2037737817 -0.004575778265 1.00270021 0.3161914051 0.09065057337 0.9285683036
-0.2000311315 -0.01467529777 1.000266075 0.2365813404 0.1737290621 0.9408369064
-0.1971595436 -0.01902378164 0.9980109334 0.2068603188 0.201678887 0.9501933455
-0.08285152912 0.03430515528 0.9928370714 -0.2377714664 0.004651184194 0.9711021781
-0.08643021435 0.02954783849 0.9923912883 -0.2486272454 0.007530899253 0.9684017301
-0.07358983159 0.03734447435 0.988741219 -0.2570829988 0.009501268156 0.9663080573
-0.07804106921 0.03232488036 0.9886018038 -0.2656902075 0.01488714293 0.9638324976
-0.08638930321 0.02235479839 0.9891072512 -0.2805642188 0.02517414279 0.9594048858
-0.08210241795 0.02733178623 0.988989234 -0.2728628516 0.01984780096 0.96169734
-0.09259842336 0.01608804986 0.9893147945 -0.2948303521 0.01063202042 0.955041647
-0.0935652107 0.02054127678 0.9909745455 -0.2768928409 0.004383504391 0.9604105949
-0.1044954881 0.0212670397 0.9865877628 -0.3115731478 -0.03995790333 0.949126482
-0.09938988835 0.02176707424 0.9888160229 -0.2929335535 -0.02306430414 0.9548636675
-0.1055598557 0.02561686933 0.9823867083 -0.3002074659 -0.06180685759 0.9490446448
-0.1020180658 0.0385068208 0.9889922142 -0.2531054318 -0.06007391587 0.9644433856
-0.09709687531 0.0275893528 0.9898557067 -0.2711409926 -0.01363172568 0.9615657926
-0.1035867184 0.02792582661 0.987074852 -0.2921815515 -0.03604460508 0.9549897313
-0.1070612594 0.01557491999 0.9835315347 -0.3328253329 -0.05313797668 0.9396364093
-0.103622131 0.0120318085 0.9854898453 -0.338034302 -0.01934444904 0.9396806359
-0.1071089655 0.008152555674 0.9856721759 -0.3466048539 -0.03461597487 0.9371346831
-0.03022990003 -0.02866337821 1.076998949 0.528886497 0.1167223677 0.8406277299
-0.02008623071 -0.03292137757 1.074648023 0.5628265142 0.1091946065 0.8193307519
-0.1830097139 -0.07510381192 1.021840453 -0.108994253 0.3991231024 0.9103898406
-0.1865215003 -0.06823443621 1.017255902 -0.1087680086 0.4177646041 0.9016657472
-0.1887242943 -0.05542347208 1.037968636 0.2194091976 -0.06677688658 0.5968508124
-0.1822485924 -0.05844397098 1.043168426 0.256182462 -0.1387988031 0.5417561531
-0.1813486069 -0.04989758879 1.05447495 0.4481377304 -0.4221818447 0.3469114602
-0.186938867 -0.06836979836 1.025103092 -0.02288447134 0.2827014923 0.8345566392
-0.1919060498 -0.06217134744 1.025696516 0.02979657426 0.2195981294 0.7957804799
-0.1861242503 -0.06089903787 1.035024405 0.1453417689 0.03427672014 0.6637251973
-0.1874713749 -0.06336184591 1.030293822 0.07327583432 0.1435068548 0.7397208214
-0.181696564 -0.04575584456 1.058892965 0.529088974 -0.5396432877 0.266792357
-0.1828214079 -0.06564903259 1.033887982 0.09721645713 0.09539697319 0.7026287913
-0.1857757866 -0.05456389487 1.042974234 0.2827249467 -0.1677099168 0.5251074433
-0.194310829 -0.06689906865 1.014424205 -0.07879970223 0.4182801545 0.9035550952
-0.1999441385 -0.06710640341 1.012752175 -0.0554077439 0.4128606319 0.9077604413
-0.1927160919 -0.06223484501 1.011137009 -0.07277920842 0.4374171793 0.8946941495
-0.1934984922 -0.05770583451 1.006959319 -0.03886832669 0.4492233396 0.8916581273
-0.1876992583 -0.06268716604 1.013109088 -0.09234337509 0.4390011728 0.8926697969
-0.1847779155 -0.05712823197 1.009203315 -0.06343596429 0.4556637704 0.887114048
-0.2032950222 -0.05998331681 1.005851984 -0.0225421451 0.4375854135 0.8979871869
-0.1981041282 -0.06178132445 1.009047031 -0.05199081823 0.4356287718 0.896892488
-0.1814167053 -0.05335862562 1.050180674 0.3733130097 -0.3135121763 0.4223932326
-0.178734377 -0.04390667751 1.063136935 0.5856217146 -0.6473805308 0.2072831988
-0.1802925318 -0.04042760283 1.066843271 0.6583461761 -0.7347638011 0.1340139359
-0.1691789627 -0.05992016196 1.01451683 -0.04970470443 0.4564540982 0.8883333802
-0.1686477512 -0.05008972436 1.011171341 -0.05057403073 0.4668655097 0.8828466535
-0.1726008207 -0.05509361997 1.012326002 -0.04915522784 0.461129427 0.8859519362
-0.1716643423 -0.04643528536 1.013358355 0.00598916458 0.468418479 0.8134409785
-0.1756307632 -0.04158834741 1.036070466 0.3752373159 0.4459465146 0.3606922925
-0.1743268073 -0.04035591334 1.040712953 0.4484772086 0.4396235049 0.2689553201
-0.1730624437 -0.04254801571 1.030700445 0.2862072289 0.4499262571 0.4683635235
-0.1708073914 -0.04467217997 1.022248983 0.1429810971 0.4579411745 0.6422499418
-0.1695985645 -0.04940388352 1.033942699 0.2368727475 0.4490948617 0.5053118467
-0.1682982892 -0.05054279789 1.020598769 0.04332301766 0.461846292 0.7481011152
-0.1735724062 -0.04167081043 1.04682219 0.5113567114 0.4340916872 0.183181569
-0.167835936 -0.05238498747 1.02528429 0.08165387809 0.4582798779 0.6925212741
-0.1756913364 -0.03811671957 1.057425618 0.7001662254 0.4228826165 -0.04480310902
-0.1713564843 -0.0454297252 1.036010146 0.3170500994 0.4455760419 0.4174365103
-0.1704818308 -0.04645525664 1.028736353 0.2061973065 0.4526913166 0.555137217
-0.1735409498 -0.04265968129 1.052179337 0.548546195 0.253115505 0.1520620584
-0.1713487357 -0.0477106981 1.048393488 0.3687332869 -0.2559202909 0.4212065935
-0.1767946035 -0.05220994726 1.009162188 -0.04865070805 0.4656766355 0.8836072087
-0.09264818579 -0.1222115904 1.089817882 0.208173275 -0.4875311852 0.8479252458
-0.1043047607 -0.1217123568 1.090275049 0.208173275 -0.4875311852 0.8479252458
-0.1058961824 -0.1187964082 1.100137591 0.208173275 -0.4875311852 0.8479252458
-0.09875523299 -0.1212829649 1.092686415 0.208173275 -0.4875311852 0.8479252458
-0.08442159742 -0.1059344932 1.09682107 0.204188481 -0.4803064167 0.8520235419
-0.07949748635 -0.1071260571 1.09593606 0.1517589986 -0.3983771503 0.9003744721
-0.08689053357 -0.1155663803 1.091130257 0.1767389774 -0.4378541112 0.877150178
-0.08331611753 -0.1120135039 1.093124747 0.1617701054 -0.4141981304 0.8910669684
-0.1613527685 -0.05936266109 1.018953681 -0.0816334188 0.4621881247 0.882841289
-0.1666409522 -0.05523059145 1.013719678 -0.05413409695 0.4625943303 0.8848073483
-0.05753578246 -0.09348675609 1.101258039 0.2008073926 -0.1483553052 0.9673636556
-0.06923931837 -0.09234710783 1.102482796 0.1456827372 -0.1901142597 0.9695557952
-0.06533682346 -0.08930018544 1.098793626 0.1803495884 -0.1669308692 0.9643771052
-0.03051018901 -0.03992430866 1.079791784 0.5345875025 0.1149991602 0.837130487
-0.03889220953 -0.04547530785 1.087915897 0.528886497 0.1167223677 0.8406277299
-0.0345126763 -0.03801011294 1.083271384 0.528886497 0.1167223677 0.8406277299
-0.02822692879 -0.04432669282 1.085261583 0.5558873415 0.1107336879 0.8236849904
-0.03338763863 -0.04275795817 1.088125348 0.5407891273 0.1140824109 0.8331589699
-0.03183949366 -0.03403424099 1.088577747 0.5410914421 0.1140153632 0.8329692483
-0.02750005014 -0.05039552227 1.086121321 0.5591682792 0.1100059897 0.821626246
-0.1519986838 0.002837047679 0.9650884867 0.181180492 -0.2251603305 0.9513208866
-0.1592956781 0.004885680042 0.9664851427 0.3238901794 -0.137479946 0.934211731
-0.1789098531 -0.00325542409 0.9839348793 0.5181714296 0.1064273715 0.8449831009
-0.1734618694 0.02373968996 0.9770123363 0.4369095862 -0.1639317125 0.8805593848
-0.1804421544 0.01308491267 0.9798107147 0.5246984959 -0.02381041832 0.8462558985
-0.1871599704 0.01628027484 0.9825748801 0.5159417391 0.006370006129 0.8531879187
-0.1777546704 0.01962032728 0.9787461758 0.4740295112 -0.09669531882 0.8666898608
-0.1755971611 0.010610139 0.9778162837 0.5321941376 -0.04425229132 0.8407508731
-0.171463564 0.01661183499 0.9757325053 0.4689759612 -0.1282978207 0.8681990504
-0.1706123352 0.01037032623 0.9750864506 0.5022135377 -0.08885891736 0.8550060987
-0.1898659617 -0.05023984239 1.003357887 -0.0165993534 0.4513455033 0.891471982
-0.1946500391 -0.04417759553 0.9989390969 0.01733040623 0.4378565848 0.8988325
-0.1952040493 -0.05060061067 1.002292633 -0.004658283666 0.4438861907 0.8955013752
-0.1975758672 -0.05485061556 1.004037857 -0.01422922499 0.4449293911 0.8948904872
-0.1882799268 -0.006719477475 0.9944913983 0.3448837698 0.178225711 0.9109155536
-0.1914859116 -0.001709089498 0.995885849 0.3951935768 0.1119435057 0.9039446115
-0.1830800176 -0.007238922641 0.9888067245 0.4574646354 0.2138430625 0.8593814969
-0.1911293119 -0.03561388701 0.9978352785 0.04289516434 0.4196383655 0.9064112902
-0.1967838705 -0.03629899025 0.9978896379 0.06736271083 0.3822872341 0.918220818
-0.1906782538 -0.02965507284 0.9958258271 0.1278622299 0.3827139139 0.902335465
-0.1839433908 -0.01702531986 0.9910701513 0.3226078153 0.3294906318 0.8728182912
-0.1886083484 -0.02181750536 0.9936235547 0.2299984246 0.3311490417 0.899120748
-0.1986093521 -0.03055049852 0.9975605607 0.1079786345 0.329950273 0.9358174801
-0.2038994282 -0.03211141378 0.9979061484 0.1250721812 0.3091647029 0.941988647
-0.1479694098 0.006985272747 0.9664048553 0.1061602086 -0.2244884968 0.9665762186
-0.15182513 0.01040654257 0.9665409923 0.1589896083 -0.1957461685 0.9654331803
-0.1480632126 0.01992631331 0.9698035121 0.04670251161 -0.2653493881 0.9551309943
-0.1522599757 0.02244903147 0.9705545306 0.1352230012 -0.2980954647 0.9379063845
-0.2134693116 0.005666743498 1.008586049 0.3609061241 0.005921372678 0.9313030243
-0.221565038 -0.01031915564 1.001416445 0.2711503506 -0.004562320188 0.9623294473
-0.2183116972 -0.003148046788 1.003895998 0.3080101311 -0.003623258555 0.9498326778
-0.2141865194 -0.0001619913091 1.006493449 0.3321855366 0.006107214838 0.9409735799
-0.2176873088 -0.006932412274 0.9995499849 0.2929150164 -0.0233097896 0.9553734064
-0.213115871 -0.01078473683 0.99795717 0.280182451 -0.03128005192 0.9590342045
-0.1376223117 0.03765447065 0.9767047763 -0.1537503898 -0.2977457643 0.9408302307
-0.1393726617 0.04057272896 0.9806841016 -0.1149944365 -0.3035809994 0.9445613623
-0.1520176083 0.03512360901 0.974802196 0.0840510875 -0.3483380079 0.9313150048
-0.1439553052 0.03809634969 0.9769396186 -0.04881561175 -0.3244261742 0.9363043904
-0.1461940408 0.0322542116 0.9732483625 -0.01259897929 -0.3204209507 0.945330143
-0.1480433941 0.02636798471 0.9718278646 0.02803560533 -0.3245982528 0.9400319457
-0.1201737151 0.01320558507 0.9770104289 -0.3521415591 -0.1291933954 0.9266018867
-0.1145962402 0.01529973187 0.9803405404 -0.3446685076 -0.103327468 0.9329264164
-0.1469822526 0.01428591926 0.9681990147 0.04221338779 -0.2274074554 0.9691057205
-0.1423962861 0.02078459412 0.9708871245 -0.05765827 -0.2617973983 0.9554244876
-0.1358745992 0.02500692569 0.9732097983 -0.1782447845 -0.2666034997 0.9449524879
-0.1409323663 0.0341154784 0.9746451378 -0.1006094366 -0.2988874316 0.9455614686
-0.1400660276 0.02905930951 0.9735437632 -0.1129686758 -0.2914819419 0.9461502433
-0.142433241 0.01121095289 0.9691850543 -0.07441286743 -0.2016672343 0.9619540572
-0.1215199903 0.0336968489 0.9776985645 -0.2576536536 -0.1853323728 0.9442231655
-0.1152559444 0.03214110434 0.9778163433 -0.2887032032 -0.1395171434 0.9457250834
-0.1268493831 0.03623469174 0.9784642458 -0.2292830199 -0.228107363 0.9431323409
-0.1323431581 0.03461175039 0.9762305617 -0.2068589181 -0.2589500844 0.9413550496
-0.1598671079 0.02469947003 0.9709098339 0.2575173378 -0.3028875887 0.9113169909
-0.1562842131 0.02869348042 0.9718793035 0.1917573363 -0.3456501067 0.9164658189
-0.164407745 0.02835657261 0.9729406238 0.3233412802 -0.3254872561 0.8855605125
-0.1627499759 0.01804353669 0.9699565768 0.3303059042 -0.2345161587 0.9055835605
-0.1558532417 0.01537373196 0.9679387808 0.2170386314 -0.2192000747 0.9463817477
-0.1589232534 0.01110177953 0.967729032 0.2875668705 -0.1753341109 0.9347487092
-0.1665129513 0.0208162386 0.9734407663 0.3703557849 -0.2148354352 0.9001726508
-0.1663539708 0.008377608843 0.971516788 0.4446134865 -0.1166649535 0.8862166405
-0.1676540673 0.01561945304 0.9724786878 0.4014973044 -0.1504765451 0.9012782574
-0.2055209577 -0.03546861932 1.005631804 0.09865237772 0.3083010614 0.9373887181
-0.2118238062 -0.02807532437 1.002681971 0.1569267511 0.2437855303 0.9523522258
-0.2027681172 -0.03040081449 1.00292778 0.1326389015 0.2876774371 0.9431355
-0.1988801211 -0.03917586803 1.006878257 0.02577883378 0.3744730353 0.9217318892
-0.1985748857 -0.04393121973 1.00940907 -0.01406667754 0.4030454457 0.9118625522
-0.1992606968 -0.03382230178 1.004026651 0.07090190798 0.3421278596 0.9329390526
-0.2219978869 -0.03694771975 1.005655289 0.1283393055 0.2515914142 0.957588613
-0.2100947499 -0.04323361814 1.008557558 0.05035150051 0.3447500169 0.93288517
-0.213789165 -0.04885015637 1.009642482 0.03013833612 0.3692232966 0.9277171493
-0.2072687894 -0.05339989066 1.011285305 0.004526257981 0.4140806794 0.9097728133
-0.08974680305 0.03303082287 0.9881341457 -0.2392929941 0.005054798443 0.9707236886
-0.0926700756 0.03056499735 0.9916236401 -0.2520298064 -0.005552966613 0.9669839144
-0.1031027883 0.04417666793 0.9888058901 -0.2428167164 -0.07809267193 0.9664120078
-0.09534011781 0.03839169443 0.9907978177 -0.2424633801 -0.03411545604 0.9683004022
-0.08710751683 0.03940888122 0.9927379489 -0.2302173674 -0.003940181341 0.9727121592
-0.1826185584 -0.02237731591 0.9934596419 0.2190941572 0.3661415279 0.8827068806
-0.1791364849 -0.03069938533 0.9968591928 0.05902903527 0.4144023061 0.9008803964
-0.1286748499 0.03453690559 0.9825498462 -0.2118239701 -0.2293583006 0.9451875091
-0.1353882253 0.03787577897 0.9832963347 -0.13812612 -0.26619187 0.94840765
-0.1154454276 0.02868630365 0.9838351607 -0.2831398249 -0.1260513663 0.9465088844
-0.1101297364 0.02365066484 0.9847049117 -0.306309104 -0.08120980859 0.9460147619
-0.1129570305 0.008428320289 0.9823532701 -0.3673404157 -0.06803050637 0.9275377393
-0.1163987219 0.01965177804 0.9825409055 -0.3187087178 -0.1287531853 0.9365924001
-0.1272775382 0.02873320505 0.981138289 -0.245897904 -0.210852176 0.9405335188
-0.1352890879 0.03266157582 0.9813023806 -0.1675585359 -0.2534587681 0.9451856613
-0.1281831115 0.02398936264 0.9787551165 -0.270919174 -0.202717483 0.9383611679
-0.1337089986 0.02819505893 0.9795609117 -0.2071157992 -0.235839799 0.942348063
-0.1786437631 -0.0677837953 1.017129421 -0.09966374189 0.4275396168 0.8982506394
-0.1814832687 -0.06398680061 1.015255332 -0.09759283811 0.4382711053 0.8931370974
-0.1742778122 -0.06173317879 1.013713121 -0.05876405537 0.4499278963 0.8909614682
-0.1852450818 -0.04606600851 1.009943724 -0.03013884649 0.469497323 0.8822575212
-0.1817606241 -0.04189711809 1.006509185 -0.005332399625 0.4650980532 0.8845575452
-0.1843365878 -0.04584806785 1.015778184 0.0478685908 0.4666856527 0.7770116329
-0.1786853671 -0.03933799267 1.045879483 0.5339295268 0.4353639185 0.1681248993
-0.1791590005 -0.04349122569 1.027413368 0.2361354083 0.4553219676 0.5371759534
-0.1788577139 -0.04583926871 1.017107606 0.07001144439 0.4666008651 0.7422946095
-0.1793552488 -0.03618922085 1.06318903 0.5453540087 -0.1221256554 0.03059508465
-0.1815752983 -0.04066574574 1.040051341 0.3853190541 0.3317642212 0.3306334913
-0.1835668087 -0.04285490885 1.032734871 0.05729192123 -0.08239907771 0.6414576173
-0.187490955 -0.04181475565 1.038976669 0.06937021762 -0.2468856871 0.5841785669
-0.1847213209 -0.04422492906 1.02544415 0.02496974915 0.09953895956 0.7218404412
-0.1905348599 -0.04582163319 1.01760447 -0.02429845743 0.2870519757 0.819013238
-0.1908619553 -0.04438983276 1.025449753 0.005500226282 0.08849007636 0.7362034321
-0.1819315255 -0.03795624152 1.059170723 0.1663928926 -0.7466247678 0.3559864163
-0.1886645257 -0.04335632175 1.030754447 0.0333266072 -0.04147744179 0.6745284796
-0.1847375184 -0.03971711919 1.050989389 0.1478248835 -0.53519243 0.4429351985
-0.1911059916 -0.04654125497 1.010581493 -0.04953081906 0.4502930343 0.8911573291
-0.08363068104 -0.1019801795 1.100536227 0.1813587844 -0.436989069 0.8775826097
-0.08807504177 -0.1044465154 1.101466417 0.208173275 -0.4875311852 0.8479252458
-0.09261317551 -0.1072952375 1.101737738 0.208173275 -0.4875311852 0.8479252458
-0.09946399182 -0.1220631152 1.087540627 0.208173275 -0.4875311852 0.8479252458
-0.09419102967 -0.1112156808 1.094315171 0.208173275 -0.4875311852 0.8479252458
-0.09871450812 -0.1136911213 1.094146132 0.208173275 -0.4875311852 0.8479252458
-0.08948893845 -0.1093663648 1.095203876 0.208173275 -0.4875311852 0.8479252458
-0.1177145019 0.008118173108 0.9788735509 -0.364896059 -0.08853603899 0.9266878366
-0.1305113286 0.01764527708 0.975687623 -0.2938794494 -0.1931767911 0.9354345798
-0.1250056475 0.01225444395 0.9767542481 -0.3434463739 -0.1347746849 0.9281705618
-0.1252157539 0.006538584828 0.9754460454 -0.3654304147 -0.1102021709 0.9241921306
-0.1206051335 0.01791077293 0.9802269936 -0.3268333673 -0.1409598291 0.932410121
-0.05823217332 -0.08182021976 1.099116325 0.2531332672 -0.06924165785 0.9632440805
-0.0621875599 -0.08407577127 1.101857543 0.1935847402 -0.10146676 0.9743375182
-0.05650511011 -0.08818222582 1.101829052 0.2190212309 -0.09851353616 0.9683867693
-0.05234861001 -0.09536685795 1.101019979 0.2250657678 -0.1343989968 0.9649896026
-0.1661494076 0.002665252658 0.9717904329 0.4805027544 -0.0822089389 0.8723034859
-0.1677969992 -0.002235844499 0.9738101959 0.5193984509 -0.02406413853 0.8525515199
-0.1629838645 -0.0006544992793 0.9691413641 0.4417344332 -0.09150421619 0.8914763927
-0.1597212404 -0.006814694032 0.9714686275 0.3147142231 -0.06597088277 0.9198297858
-0.1689260155 -0.02369867079 0.9884744287 0.1123681813 0.2545333505 0.9123331308
-0.1660485268 -0.01160925161 0.979562521 0.2606855333 0.07761914283 0.9115323424
-0.1698229313 -0.01596138254 0.9853537679 0.2007011175 0.1820073873 0.9101381302
-0.1723419428 -0.02601395734 0.9932154417 0.05979245156 0.3346413076 0.9161556363
-0.1645692736 -0.01650166139 0.9814407229 0.167212978 0.1183317378 0.9259927273
-0.1607516855 -0.0120750526 0.9757525325 0.2187041491 0.01447507367 0.9303732514
-0.1732215285 -0.03070352413 0.995947063 0.02895293757 0.394233048 0.9084016085
-0.1755904108 -0.01753404923 0.9886185527 0.2802407146 0.2739258111 0.8796789646
-0.1740931869 -0.010279743 0.9827934504 0.4003194273 0.1657720655 0.8699304461
-0.2099816501 -0.03366733715 1.000276923 0.1490983069 0.269969821 0.9504958391
-0.213504374 -0.04843233153 1.004293799 0.06286615878 0.3446748257 0.9297312498
-0.2138588428 -0.03626184165 1.002467036 0.1563834399 0.2516479492 0.9532459378
-0.2105893046 -0.0404802449 1.001358509 0.1131151393 0.3076353371 0.9390428662
-0.223081708 -0.03170098364 1.004533768 0.1624255776 0.2152723074 0.9620431066
-0.2165303677 -0.03310736641 1.006168842 0.1348022223 0.2545666695 0.947332561
-0.2161544412 -0.03814438358 1.006774664 0.09626392275 0.2854399979 0.9471433759
-0.2231705636 -0.02639698796 1.004217744 0.2028231323 0.1841816008 0.9605695009
-0.2043561339 -0.04377817363 1.009292006 0.021558173 0.3742351234 0.9239524007
-0.2163567245 -0.02561667748 1.002300978 0.1824940145 0.2126604766 0.9580640793
-0.2102334201 -0.03707188368 1.007150054 0.08665641397 0.3075643778 0.9368652701
-0.1764670014 -0.0204374902 0.9945085049 0.1564760357 0.3296245933 0.8948562145
-0.1805971563 -0.01399524417 0.9951583743 0.2149226964 0.2773680091 0.8997436166
-0.181666702 -0.008507507853 0.9932291508 0.3296925128 0.2175559253 0.8783797026
-0.1863349676 -0.001041728538 0.9936650395 0.4061769843 0.1544920951 0.8820280433
-0.1789381355 -0.009031549096 0.9855871797 0.4475545287 0.2264391184 0.8530661464
-0.1722489893 -0.006608671043 0.9791318178 0.4565402269 0.09421694279 0.8661523461
-0.1763862371 -0.0131781064 0.9903888702 0.3349296153 0.2379103601 0.8571072221
-0.2083753496 -0.02137740329 0.9980000854 0.2116085738 0.1181122884 0.9616442323
-0.2134394944 -0.02099280991 0.9996521473 0.2120213062 0.1198944971 0.9608331323
-0.2037715912 -0.02640220523 0.997834146 0.1660178006 0.2356751561 0.9552384615
-0.2043469399 -0.01761631295 0.9969067574 0.2162267268 0.1171025783 0.9667790532
-0.1973329484 -0.01120741572 0.9954301715 0.2943140864 0.09103576839 0.9461733103
-0.2028764635 -0.007302814163 0.9954513907 0.3073577583 -0.003233926371 0.9479337931
-0.2044640779 -0.01188914943 0.9961387515 0.2613160014 0.04301952943 0.9613280296
-0.187828362 0.001665198011 0.9878005385 0.4843173623 0.1019760445 0.8633217812
-0.2016471773 -0.001737631974 0.9932155609 0.3628112078 -0.02166343108 0.926042974
-0.1960184574 -0.003921564203 0.9921452999 0.3978177011 0.03859147429 0.9060316682
-0.1925208867 0.002824039664 0.9889032841 0.4524477422 0.05357722193 0.881031096
-0.1905637681 -0.002568227006 0.9900045991 0.4458208978 0.08736748993 0.8812580705
-0.188854292 0.008317258209 0.9860065579 0.5033134222 0.07366153598 0.8572701216
-0.1973608434 0.00512555521 0.9896888137 0.4240657091 0.0005919931573 0.8975812197
-0.2114866525 -0.004411018919 0.9973094463 0.319026053 -0.03967924416 0.9466210008
-0.2076506168 -0.0003952142142 0.9955070615 0.3631657064 -0.01732731983 0.9290886521
-0.1953438967 0.009733398445 0.9876283407 0.4603479505 0.01019197982 0.8811634779
-0.2087500542 0.005082154647 0.9947938323 0.4109318554 0.0107885981 0.9089437127
-0.2121623158 0.001875626971 0.9970667362 0.380464524 0.001250843983 0.923755765
-0.1159244254 0.02542335354 0.9781292081 -0.3086487651 -0.1465629637 0.9397062659
-0.1111346111 0.02669960074 0.979778409 -0.3041306436 -0.1081436425 0.9444333315
-0.0984448567 0.0166980885 0.9865335226 -0.3154810071 0.0001452400465 0.9475764632
-0.1280000955 0.02733749151 0.9749975801 -0.2301478684 -0.222286433 0.944020927
-0.1227952763 0.02807693183 0.9761574864 -0.2577915788 -0.1891330034 0.9438197017
-0.1215282381 0.02234981582 0.9764948487 -0.3047465086 -0.1678892374 0.9355765581
-0.1249660403 0.01765585691 0.9754282236 -0.3240389228 -0.1691000313 0.9290238619
-0.1035230011 0.03671722487 0.9841443896 -0.2625200748 -0.04565218836 0.9631046653
-0.1066932753 0.04107758775 0.985175252 -0.2580580115 -0.09085054696 0.9608789086
-0.09892548621 0.03109220415 0.9866240025 -0.2516747415 -0.01246060058 0.9671415091
-0.1104566082 0.03729185835 0.9821846485 -0.2750668824 -0.1143595725 0.953913331
-0.1119454876 0.04387288913 0.9865282178 -0.2363667339 -0.1487140357 0.9591656327
-0.1079331636 0.03512043878 0.9865794182 -0.2700271606 -0.08727759868 0.9562439919
-0.0976806879 0.04072388262 0.9861734509 -0.2402117848 -0.0198026225 0.9700984359
-0.1737342179 -0.03266101703 1.001156926 0.006372156087 0.4161000252 0.9074529409
-0.172241956 -0.03753791004 1.002378464 -0.009615831077 0.4385095835 0.8975065351
-0.1704182029 -0.04294503853 1.007286429 -0.03427765518 0.4555873275 0.8883540034
-0.1770058572 -0.04447834939 1.006747842 -0.01992516406 0.4811436236 0.8762828112
-0.1874595731 -0.04374908283 1.000405073 0.001572125009 0.4447549582 0.8950091004
-0.1781596541 -0.03820365667 0.9995926023 0.001697224332 0.434266001 0.9001847506
-0.1823752671 -0.05193798617 1.006048441 -0.04098197073 0.4618087113 0.8857237101
-0.1844480783 -0.0474585034 1.003128648 -0.01929911226 0.4525389075 0.8907411695
-0.1830721945 -0.0410108082 0.9999555349 0.002095060656 0.4395585954 0.8975826502
-0.1836245805 -0.03582157195 0.9977580309 0.0233786758 0.4303985238 0.9022280574
-0.1981398463 -0.0556509234 1.013298512 -0.04493996501 0.4219841361 0.9049324989
-0.2039683908 -0.05719174072 1.012748957 -0.01132752094 0.4265304506 0.9041002989
-0.185582608 -0.04474493861 1.048299789 0.4104717374 -0.334874481 0.398291558
-0.1942959875 -0.05069768801 1.015576959 -0.02309633978 0.3629669547 0.8581829667
-0.2022530138 -0.0511402376 1.011404276 -0.01007198915 0.4122508466 0.910428524
-0.1911039948 -0.0528299883 1.028942585 0.130801484 0.09909695387 0.6959007978
-0.1880449057 -0.05043218657 1.040464401 0.2822848856 -0.1463056505 0.533683002
-0.1845798939 -0.04625586048 1.052921057 0.4565876126 -0.4205273986 0.3481502235
-0.1905223876 -0.05696575344 1.033001065 0.1510546207 0.04066769406 0.6706867218
-0.1867635995 -0.04854198545 1.044929981 0.3473833203 -0.2468221486 0.464651823
-0.1950332522 -0.06050162017 1.016011357 -0.07231931388 0.4025320113 0.9098892808
-0.1934545785 -0.05735299364 1.021179795 0.009412905201 0.2807898223 0.8238329291
-0.1894631684 -0.05096861348 1.034888625 0.2131249011 -0.03105708025 0.6081855297
-0.1822827011 0.02103091776 0.9810803533 0.4835828245 -0.06193668395 0.8645239472
-0.1926656961 0.01660192944 0.9947717786 0.4839143753 -0.005264133215 0.8695842028
-0.2066745609 0.01099619642 1.007091999 0.4009929001 0.004748000763 0.9139919877
-0.1990136057 0.01402687654 1.000047088 0.4472367167 0.0006662428495 0.8893314004
-0.1851965785 0.01751505025 0.9884431958 0.5215554833 -0.00175007293 0.8498014212
-0.2007051557 0.008411508985 1.002264142 0.4210812449 0.02230522037 0.9041821957
-0.1959975958 0.008618929423 0.9982260466 0.4439376295 0.02645734698 0.8922740817
-0.1981118321 0.004205612466 1.000305295 0.4207553864 0.04395279661 0.9053955078
-0.189299047 0.01264245622 0.9922508001 0.4876085222 0.01565732062 0.8686209917
-0.1881386638 0.005214152858 0.9927422404 0.4759428501 0.09072647989 0.8730882406
-0.184945181 0.01119256113 0.9893526435 0.5074665546 0.05588886514 0.856223464
-0.152614519 0.0337260142 0.9813792109 0.1193302944 -0.2834047079 0.9279054999
-0.1560078412 0.02952314913 0.9821081161 0.2169771194 -0.2366168499 0.9144607186
-0.1566977799 0.03487663344 0.9777255654 0.1594418138 -0.3252993524 0.9143617153
-0.1704878658 0.02798004262 0.9757658839 0.387147516 -0.2380284369 0.8860921264
-0.1607034802 0.02768531069 0.9810906053 0.2821056843 -0.235656634 0.9022573829
-0.1651040763 0.0302046407 0.9781432152 0.2888058722 -0.2334216684 0.9053270221
-0.168695122 0.02674553916 0.9805567265 0.3842051327 -0.2011028379 0.8723679185
-0.1545280963 0.0001588243031 0.9720636606 0.2268014699 -0.09632325172 0.901648283
-0.1444658041 0.003591193585 0.971552372 -0.01151384041 -0.1534541547 0.9367267489
-0.1523967087 -0.002533444902 0.9675012827 0.2278810292 -0.155090794 0.9416630268
-0.1575893164 -0.003268665401 0.9684976935 0.3415789306 -0.1251898557 0.9198909402
-0.1469646245 -0.001090803882 0.9675341249 0.08426389098 -0.1594847441 0.9531271458
-0.1378533691 0.001679475303 0.9681138396 -0.1583515406 -0.1650912464 0.9693220258
-0.1354409307 0.01045703609 0.9713303447 -0.2405239344 -0.1919918209 0.9486075044
-0.1309015453 0.01291521732 0.9731801748 -0.2876217961 -0.1789544225 0.9378734827
-0.134048447 0.004040478729 0.9710735679 -0.2419422269 -0.1519895494 0.9547770619
-0.1292650849 0.007867103443 0.9726818204 -0.290663898 -0.1455181837 0.9401703477
-0.1744185388 0.02162736841 0.9825949073 0.5014259815 -0.09798888862 0.8526926637
-0.1700915545 0.01692843437 0.9822339416 0.4724968076 -0.09576778114 0.8724117875
-0.1795582026 0.01413906552 0.9864263535 0.5021350384 0.0008938252577 0.8582499623
-0.1801463217 0.008159976453 0.9886717796 0.4678783417 0.02599063516 0.8754797578
-0.182107687 0.001611757441 0.9892740846 0.5185531378 0.1014405489 0.8440424204
-0.1732721329 0.01019977313 0.9846140146 0.4821359813 -0.02860345133 0.8651205301
-0.175742507 0.004614626989 0.9856204987 0.5215325356 0.03970846161 0.840872705
-0.1600867957 0.01238610782 0.9774196744 0.3256370127 -0.1471574754 0.9019871354
-0.1593821496 0.007096947171 0.9749540091 0.3251416087 -0.1293529421 0.9006131291
-0.1491343826 0.006950566079 0.9722584486 0.0974317342 -0.1867139786 0.938852191
-0.1549197882 0.005145197269 0.972964704 0.2314086854 -0.1465524286 0.9158324599
-0.1603505909 0.002232433762 0.9731014967 0.3606719971 -0.1038344279 0.8932999372
-0.1729559749 0.0002055150399 0.9820829034 0.5423378944 0.04416701198 0.8297541142
-0.1698194593 0.004630220588 0.9801671505 0.507629931 -0.02300290205 0.8516193032
-0.1664706916 0.009929801337 0.9783460498 0.469304651 -0.09733952582 0.8754549026
-0.1424058378 0.008142694831 0.9741286635 -0.07903825492 -0.157001406 0.9378961325
-0.1508639306 0.01094998047 0.9755199552 0.1162282676 -0.1677240729 0.9258574247
-0.1384165585 0.01414932963 0.9741136432 -0.1951242089 -0.1922483742 0.932164073
-0.1439837664 0.01422770321 0.9754353762 -0.06456388533 -0.1774244308 0.9229190946
-0.1645274758 0.02135094069 0.9811919332 0.3967145681 -0.1787249297 0.8906705976
-0.1479039341 0.03441078216 0.9831076264 0.06616470218 -0.2526965141 0.9326554537
-0.1406078935 0.02211908624 0.9770919085 -0.1329810023 -0.221030578 0.9328155518
-0.1556341499 0.02280526236 0.9806940556 0.2175092101 -0.1835428476 0.906935513
-0.1600129753 0.01763758808 0.9798286557 0.3066450655 -0.1502349675 0.8938252926
-0.1432181746 0.03158802912 0.9810535908 -0.04945012555 -0.2535077631 0.9380193949
-0.1457943916 0.02336539514 0.9786953926 -0.009560025297 -0.2123007923 0.9249299765
-0.1478753686 0.02879273333 0.9810968041 0.05189448595 -0.2293453813 0.9268776774
-0.1428810954 0.03762144968 0.9831309319 -0.0426617451 -0.2795728445 0.9448751211
-0.1363583505 0.01932453923 0.9751453996 -0.2384011 -0.2207881063 0.9374368191
-0.1517363191 0.01629723795 0.9775011539 0.1112597361 -0.1668703854 0.9070819616
