# .PCD v0.7 - Point Cloud Data file format
VERSION 0.7
FIELDS x y z normal_x normal_y normal_z
SIZE 4 4 4 4 4 4
TYPE F F F F F F
COUNT 1 1 1 1 1 1
WIDTH 512
HEIGHT 1
VIEWPOINT 0 0 0 1 0 0 0
POINTS 512
DATA ascii
0.1175392568 0.08489391208 0.8675556183 -0.4440163672 -0.3520970047 0.8237301707
0.115956746 0.07743151486 0.8633767366 -0.4431428611 -0.326366365 0.8342884183
0.1289295405 0.05716085061 0.8658226132 -0.663798213 0.08745505661 0.6534926891
0.1257969588 0.06394288689 0.8668196797 -0.6091623902 -0.01986823417 0.6876713634
0.129914239 0.05289655551 0.8692563176 -0.7003386021 0.2263231128 0.5807754993
0.1236400828 0.06921061873 0.8656039834 -0.563295722 -0.1382219344 0.7396487594
0.1087110415 0.04933537543 0.8475573659 -0.4020397663 0.04775708914 0.8987488747
0.1117040589 0.04261115938 0.8480847478 -0.4515565336 0.2059013546 0.8661282659
0.1161743551 0.04484440014 0.851390779 -0.5100705624 0.1724057943 0.8382128477
0.1286574602 0.05086561292 0.8611408472 -0.6679968238 0.07078052312 0.7160930634
0.1303203106 0.05627055839 0.8591911197 -0.6597246528 -0.01061667129 0.7300382257
0.131419763 0.04614749551 0.8662679195 -0.7226634622 0.3142772019 0.5606617332
0.114128828 0.05235381797 0.8500727415 -0.4474625885 -0.05616621673 0.8798561692
0.09696058929 0.09419775009 0.8567021489 -0.325600177 -0.2790365517 0.900935173
0.09429372847 0.0918360725 0.850354135 -0.2985273898 -0.1971579343 0.9312365651
0.1018089876 0.09057970345 0.855986774 -0.3475416303 -0.2657024264 0.8919728398
0.106172733 0.08743751794 0.8561722636 -0.3677771091 -0.2617022097 0.882095933
0.07839646935 0.09749531001 0.8505908251 0.103365764 -0.2857819796 0.9323625565
0.05866757408 0.08757580072 0.8661168814 0.6173257828 -0.307939887 0.718059957
0.01565957628 -0.008021214046 0.980031848 -0.003989091609 0.1083845869 0.9373469949
0.01209057309 -0.01874905266 0.9748562574 0.02925541624 0.1143527552 0.9930093288
0.007313882001 -0.01646579616 0.9738448262 0.02925541624 0.1143527552 0.9930093288
0.01887946576 -0.02204856463 0.9768095016 0.02925541624 0.1143527552 0.9930093288
0.01120739151 -0.001513986383 0.9809532166 -0.02816475369 0.05691246316 0.9979612827
-0.004648389295 0.009313571267 0.9800969958 -0.02852038294 0.05655670911 0.9979919195
0.03503295407 0.07524881512 0.8740797639 0.5838035941 -0.374334693 0.7200539112
0.03210738674 0.0722072646 0.8789346814 0.5733178854 -0.3651694655 0.7333026528
0.03729771078 0.08051720262 0.8729114532 0.6023032069 -0.3983024657 0.6915050149
0.1232188195 0.07222162187 0.8598998189 -0.5338320732 -0.2690474987 0.7923153639
0.1286008358 0.06151856109 0.8586781621 -0.6203228831 -0.1113088578 0.7667410374
0.1212282553 0.08073315024 0.8633269072 -0.4623781443 -0.3422721922 0.8166109324
0.1166045591 0.07331866026 0.8590085506 -0.4401138127 -0.320405215 0.8342505097
0.1045737788 0.0401467979 0.8461655378 -0.3610619307 0.2164863944 0.8982855082
0.09831431508 0.049545113 0.844403863 -0.2673288584 -0.02273764834 0.9570403099
0.1026663035 0.05400403589 0.8456385136 -0.2904033959 -0.1150514707 0.9475674629
0.1034244224 0.04669265822 0.8460423946 -0.3283552825 0.0566742681 0.9390115738
0.07044183463 0.1001694724 0.8517746925 0.3085424006 -0.3934529424 0.8565564156
0.06273427606 0.09771154821 0.8602640033 0.473380059 -0.4168736637 0.760219276
0.06761237234 0.09979770333 0.8567216396 0.3756097555 -0.4079801738 0.8082790971
0.05810800567 0.09363269806 0.868978858 0.5637794137 -0.3732478917 0.7102392912
0.07295225561 0.09899462759 0.8607141376 0.2651689947 -0.321737498 0.8544207215
0.07554471493 0.1016660631 0.854724586 0.2155159712 -0.3549079299 0.8845117092
0.110438697 0.07810144871 0.8575618863 -0.3942913115 -0.3002374172 0.8648036122
0.1047464162 0.08076240122 0.8550815582 -0.3695948422 -0.2610377073 0.8880704641
0.111042507 0.08500116318 0.8583862782 -0.3968079984 -0.2862226069 0.8625869751
0.08246069402 0.1008529961 0.859236896 0.05005580932 -0.2685084045 0.9317112565
0.08019675314 0.0956608355 0.8607221246 0.04589836672 -0.2894950509 0.8578312397
0.06878988445 0.09139305353 0.8632389307 0.3641270995 -0.2894176841 0.7850645185
0.06417899579 0.09343845397 0.8671379685 0.4176675975 -0.3456808031 0.7450447679
0.07080367208 0.09598473459 0.8657280803 0.2315040082 -0.3467366695 0.7871143818
0.08474785835 0.08300230652 0.8609598279 0.07201115042 -0.2300783396 0.8278779387
0.09434066713 0.08106020838 0.8597609997 -0.1813317537 -0.204484567 0.8794320822
0.07549846917 0.08055513352 0.857869029 0.2440744936 -0.143059805 0.868345201
0.06428263336 0.08469723165 0.8611105084 0.5715638995 -0.2213729322 0.7690024376
0.08373858035 0.07641421258 0.8544083834 -0.0148779396 -0.05713895336 0.9642472267
0.08804388344 0.07952882349 0.8577892184 -0.06194458157 -0.1487247497 0.9041713476
0.09961750358 0.08291186392 0.8619721532 -0.27188012 -0.265907824 0.8468359709
0.09318790585 0.09118240327 0.86115098 -0.2145327479 -0.2886458635 0.8697918057
0.08750609308 0.0890641883 0.8613069057 -0.0472872816 -0.2740709186 0.8438047171
0.0750060454 0.08453892171 0.8616347313 0.3189199269 -0.2424507588 0.7873541117
0.07701890916 0.08995177597 0.8610578775 0.199704051 -0.2629963756 0.8214978576
0.0883942619 0.09907083958 0.8601999879 -0.1978746206 -0.3082706332 0.8996173739
0.08600477874 0.09410007298 0.8607220054 -0.0750644207 -0.288680613 0.866866529
0.09239608049 0.06916833669 0.8528345823 -0.1952717751 -0.2476057261 0.9421331286
0.06699902564 0.05661218613 0.8446221352 0.2452740967 -0.1995240599 0.9431040883
0.0737901181 0.06144365296 0.8449930549 0.1229539737 -0.2467510104 0.9595017433
0.07793743908 0.06590661407 0.8505473137 0.08211394399 -0.1815962046 0.9624345899
0.07143541425 0.06711435318 0.8504765034 0.2276076972 -0.1967895031 0.9491221309
0.07397200167 0.05347749591 0.8421118259 0.1272707283 -0.155392915 0.974165678
0.06991605461 0.03525713086 0.8446887732 0.1704742163 0.3004157841 0.9327199459
0.1070995256 -0.01848979294 0.8929376602 -0.1073283702 0.5592699051 0.8187292218
0.1265722364 0.008740130812 0.8901485205 -0.4863209128 0.397555083 0.719438374
0.1091491655 0.03722750396 0.8482636809 -0.4092260301 0.2825059295 0.8666388988
0.08030696213 0.06320612878 0.8459639549 0.01867238246 -0.2352397442 0.9678928256
0.08335894346 0.05621913821 0.8428759575 -0.03821714222 -0.2168533653 0.9733678102
0.07790607959 0.05746436119 0.8434045911 0.05444002524 -0.2191414833 0.9706732631
0.08110971004 0.06880477816 0.8462031484 0.02957762592 -0.1992692053 0.971993506
0.07824305445 0.07396486402 0.845995307 0.09790876508 -0.1833101511 0.9701223373
0.07649933547 0.0816263333 0.8458025455 0.1600005329 -0.1451919526 0.9715155959
0.07502736151 0.06886408478 0.8459220529 0.1251363605 -0.2338110059 0.9619284868
0.07902983576 0.02063186653 0.9536372423 -0.3023168445 0.7409845591 -0.508687973
0.07215885818 0.02144599147 0.9562775493 -0.45836851 0.7331994176 -0.4662134945
0.06907897443 0.0112853609 0.949015677 -0.6465291977 0.6286033988 -0.3617251217
0.06837344915 0.01526824571 0.9575279355 -0.579154551 0.6976168156 -0.4148987234
0.02103322744 -0.01074891165 0.9810000658 -0.02852038294 0.05655670911 0.9979919195
0.009422429837 -0.01124825887 0.9749860764 0.001450608368 0.08653820306 0.9954072237
0.005492098629 -0.007194495294 0.9747521281 -0.01726077497 0.06782026589 0.9970209002
0.02189446054 -0.01743865944 0.978269577 0.02106981911 0.1061642915 0.9937152863
0.01691606268 -0.01404869463 0.9768592715 0.01178262196 0.09687384218 0.9945161939
-0.009972400963 0.01023438759 0.9810000658 -0.02852038294 0.05655670911 0.9979919195
-0.01052066218 0.006084898952 0.975705266 -0.02852038294 0.05655670911 0.9979919195
-0.01626585983 0.007000837475 0.9778494239 -0.0119720092 0.07311087847 0.9965648055
-0.018823158 -0.00185036473 0.9719690681 0.02048734576 0.1055816114 0.993765533
0.04434061795 0.0790849179 0.8712798357 0.6009027362 -0.387424171 0.6987134814
0.0530785732 0.08440908045 0.8685852885 0.5970528126 -0.3826884329 0.7035520077
0.1314049214 0.02048256807 0.8908933997 -0.6578291655 0.5216703415 0.5432379246
0.128450036 0.04116707668 0.8653421998 -0.7066693902 0.3588801622 0.5733418465
0.1247076541 0.0524029173 0.8648938537 -0.6283528209 0.1608774215 0.6797278523
0.1209343076 0.06003196537 0.8633953333 -0.5553300381 -0.006295948755 0.7470934987
0.1190416813 0.06640321016 0.8633763194 -0.5127103925 -0.1248931363 0.7743289471
0.1185277104 0.05474617705 0.8611131907 -0.5376454592 0.04159241542 0.7857669592
0.1217522547 0.04630346969 0.8614576459 -0.6033841372 0.2069055289 0.7404432297
0.1147695482 0.06653641164 0.8591250181 -0.4436775148 -0.2096283734 0.833609283
0.1219517142 0.04902902618 0.855316937 -0.5731320977 0.07856798917 0.8037444949
0.1178374216 0.05824494734 0.8518144488 -0.5013823509 -0.1595993936 0.8403311372
0.1244633794 0.05997920409 0.8552837968 -0.5918423533 -0.1463788748 0.7842345834
0.0846811682 0.07282286882 0.8466694355 -0.07699230313 -0.1935993731 0.9754033685
0.08275148273 0.07994879037 0.8465811014 -0.03448629007 -0.1715923846 0.9747982025
0.08484134078 0.08678233624 0.8474817276 -0.1216850802 -0.1769725084 0.9750965834
0.09296243638 0.08566294611 0.8477152586 -0.2754231989 -0.1943827868 0.9397653937
0.03598027304 0.06634750962 0.8704430461 0.6464571953 -0.2803342342 0.7049075365
0.07255333662 0.08946108818 0.8475027084 0.2268775702 -0.1809313595 0.9513669014
0.0715046078 0.09548831731 0.849668324 0.2387266606 -0.3178404272 0.9013085961
0.09694418311 0.07964817435 0.8486942053 -0.3054412901 -0.2154928148 0.9270555973
0.09051500261 0.07870664448 0.8486455083 -0.2153692842 -0.1293720007 0.9660949707
0.1003592983 0.07757828385 0.8586786985 -0.3125609159 -0.2248534411 0.8987750411
0.09477745742 0.07354801893 0.855974257 -0.223815307 -0.2216325104 0.927606225
0.08753725141 0.07250442356 0.8533853292 -0.1126530319 -0.1273138821 0.9740880728
0.1057498753 0.07699196041 0.8602072597 -0.390563935 -0.3130838871 0.8630084395
0.1124872193 0.08131472766 0.8654535413 -0.4235501289 -0.3371070921 0.8405025005
0.1072764546 0.08219208568 0.8629361391 -0.4247062504 -0.2954696119 0.8552168012
0.1142056882 0.05641426891 0.8576750755 -0.4701101482 -0.05614259094 0.8216711283
0.1169491708 0.04804319888 0.8587455153 -0.5338609219 0.1157337874 0.791015327
0.09902793914 0.06948133558 0.8536621332 -0.2896220386 -0.2827531993 0.9113947749
0.1052228436 0.05803921819 0.8475851417 -0.3206312656 -0.1847571284 0.9259630442
0.102870971 0.09391396493 0.8659205437 -0.3580197096 -0.3350716233 0.8666499853
0.09726561606 0.09557117522 0.8626891375 -0.3179745972 -0.3195150495 0.8877120614
0.1098270416 0.0864616558 0.8671476841 -0.4218702912 -0.324336797 0.8448098898
0.1019432545 0.08903446794 0.8625186086 -0.3754436374 -0.2988159359 0.8727161884
0.08356931061 0.09941698611 0.8536049128 0.02048980072 -0.2594213784 0.9431018829
0.08877722919 0.09490405768 0.8506488204 -0.1536883265 -0.2099672556 0.9426350594
0.08359798789 0.09332346916 0.8493471742 -0.07361166924 -0.2213160247 0.9566732645
0.09217409045 0.09805679321 0.8560693264 -0.3010209203 -0.2787393034 0.907507956
0.06484442949 0.03063569218 0.8504604697 0.2553094327 0.3379287124 0.8859112263
0.07439213246 0.02825471945 0.8501264453 0.08330551535 0.4364107251 0.8579562902
0.06284169853 0.05077829212 0.847548306 0.3628679216 -0.02128836326 0.9198288918
0.06365095824 0.06472654641 0.8511938453 0.3115816116 -0.2261578888 0.9130598307
0.06540431827 0.0451092124 0.8443104029 0.2995642126 0.03393409029 0.9502732158
0.07192872465 0.04850586876 0.8413472772 0.1790993363 -0.03176089376 0.9746128917
0.06716255099 0.05068103224 0.843441844 0.2614389658 -0.07457137108 0.953990221
0.06103304774 0.04118876532 0.8465308547 0.3726425469 0.09894040972 0.9171136022
0.06697858125 0.04017139599 0.8460651636 0.2521769702 0.1494561881 0.9436984658
0.08790406585 0.02797027677 0.849198997 -0.122381784 0.4313707352 0.8831809163
0.08331488818 0.03412117064 0.8448602557 -0.0452817753 0.34527421 0.9325327277
0.121099703 0.004184179939 0.887270093 -0.3019553125 0.2199133486 0.9274299145
0.119278118 -0.004047040828 0.8913328052 -0.258734405 0.2746962905 0.9205096364
0.1147174537 -0.007732647471 0.8922210336 -0.2045185417 0.344848603 0.9071377516
0.1261198223 0.01455716509 0.8905490041 -0.5022761822 0.4771179259 0.7148302794
0.1070240438 -0.00240641227 0.8867756724 -0.1281226426 0.2560812831 0.9545361996
0.1240194887 0.03881080076 0.8622732759 -0.663228929 0.392534107 0.5999068022
0.1079314351 0.03268422186 0.8520780206 -0.4108206332 0.3642582893 0.8277382255
0.1082938835 0.02676662244 0.8558243513 -0.4505659938 0.5902896523 0.6610011458
0.08882473409 0.05019048229 0.8476776481 -0.1368683428 0.06271784753 0.9585593939
0.09230323136 0.03209343553 0.847667098 -0.1753326803 0.3445544839 0.9210627079
0.08860415965 0.03697820753 0.8446428776 -0.1301911771 0.2782472372 0.9424113035
0.09393396974 0.05272970349 0.8435387611 -0.21570535 -0.1284391135 0.9613505602
0.0775000602 0.04975005984 0.8444359303 0.07469559461 0.02758888155 0.9842367768
0.08408322185 0.05903851613 0.8483124971 -0.06129057705 -0.09219384938 0.9796407819
0.0876616165 0.05079459399 0.8424236774 -0.117127195 -0.09433873743 0.9738070965
0.09307990968 0.04539852589 0.8429569602 -0.2199443877 0.06327977031 0.9682213664
0.08462084085 0.04220505804 0.8432155848 -0.07955960929 0.1582366973 0.9769816399
0.07844464481 0.03817943484 0.8436313272 0.04590659961 0.2480635643 0.9566416144
0.07495141029 0.0424150303 0.8428267241 0.1176050082 0.1479858905 0.9756470919
0.05410409346 0.05130725354 0.851390481 0.4679783583 -0.03179614991 0.8703866601
0.05969143659 0.05529007316 0.8499726653 0.3946453929 -0.0948530212 0.8942631483
0.04790333286 0.05034169927 0.8542402387 0.560495913 -0.04282902181 0.8208894134
-0.001434291946 -0.01328595262 0.9720711112 0.2330947071 0.6576269865 0.2475374788
-0.01957063377 -0.007533941884 0.9698567986 0.2208597511 0.6168731451 0.3097528815
-0.01497970521 -0.01094538998 0.9697261453 0.3151375353 0.864135325 -0.02643943205
0.1044620946 0.02376748063 0.8581300974 -0.391944021 0.6238297224 0.653850913
0.09962052852 0.01067860052 0.8711825609 -0.1939646602 0.435331732 0.8252177238
0.09703451395 0.01643159986 0.8618459105 -0.2493955344 0.5914928913 0.7156532407
0.09959245473 0.02047547512 0.8586242795 -0.3176792264 0.633212924 0.6704238653
0.1010248661 0.01564225182 0.8659030795 -0.2661508918 0.5135289431 0.7570949197
0.1059709117 0.02012664825 0.8633977771 -0.3568269908 0.5238536 0.7248238921
0.105815202 0.01543863956 0.8694230914 -0.2962750793 0.4326303303 0.7969835997
0.1113873348 0.01853876747 0.867181778 -0.3855137527 0.4246660769 0.7807039618
0.1126483902 0.01312517095 0.8745740652 -0.3439539671 0.3544640541 0.8382524252
0.1086727083 0.01038538199 0.8768760562 -0.2619495094 0.309392035 0.8839068413
0.07469754666 0.01310134586 0.9466733336 -0.4326573312 0.6934095025 -0.4552769661
0.07438149303 0.01518966351 0.9555132985 -0.3101069927 0.7325802445 -0.5045002103
0.08367342502 0.01560906973 0.9509462118 0.07873374969 0.7700294852 -0.6311733723
0.07327066362 0.01051210426 0.9523106813 -0.3869239688 0.6972411871 -0.4828852415
0.006116789766 0.002667155117 0.9807189703 -0.02852038294 0.05655670911 0.9979919195
-0.001057312475 0.00461938465 0.977502346 -0.02852038294 0.05655670911 0.9979919195
0.038617149 0.07653551549 0.8689209223 0.6001714468 -0.3807232082 0.7023400068
0.1194314361 0.06535882503 0.8554591537 -0.5166448355 -0.2508808374 0.8103695512
0.1053500175 0.07116922736 0.8519106507 -0.3591002524 -0.2474490106 0.8980126977
0.1115379333 0.07041867077 0.855235517 -0.4003211558 -0.2867766321 0.8687886
0.1118975803 0.05736230314 0.8497563004 -0.4038969576 -0.1677964181 0.8964880109
0.1133230627 0.06368605047 0.8529981375 -0.4102983475 -0.252484411 0.874181509
0.1082714051 0.06335824728 0.8509325385 -0.3551537097 -0.2604048848 0.8953003883
0.03824365884 0.05653021112 0.8633311391 0.6779432297 -0.1652407646 0.7145079374
0.03652963787 0.06096134335 0.8664433956 0.6646817923 -0.2264655977 0.7084571719
0.04294550419 0.06538640708 0.8592508435 0.5826827884 -0.3179662526 0.746984303
0.04427550733 0.08356902748 0.8669600487 0.5815064311 -0.3873814642 0.7132713199
0.05600970611 0.09349060804 0.8597188592 0.5577452779 -0.3394291401 0.7563738823
0.04839509726 0.08301400393 0.8629567623 0.559673965 -0.3879264891 0.7302969694
0.04627302289 0.08838585019 0.8710507751 0.6178264022 -0.3997436166 0.6758726239
0.04870171845 0.08884698898 0.8651705384 0.5804304481 -0.3658176064 0.7248219252
0.05140087381 0.09175480902 0.8704813123 0.6228470802 -0.3935416639 0.6747274995
0.05446916446 0.09337738156 0.8650467992 0.591824472 -0.3660153449 0.7143594027
0.08991890401 0.0668925941 0.8474597931 -0.1607906669 -0.2040115148 0.9603359103
0.09006412327 0.07317192107 0.8481657505 -0.1876590401 -0.1575776041 0.9647588134
0.09620945901 0.07338835299 0.8478450775 -0.2764132619 -0.2268106192 0.9329596162
0.1006309912 0.06825226545 0.8482314944 -0.2990268469 -0.2385927141 0.9235394001
0.08925572783 0.06088874489 0.8458795547 -0.136323005 -0.2291522622 0.9597409368
0.09945392609 0.059711501 0.8467776179 -0.2673953772 -0.2281578928 0.9345462322
0.0728020817 0.0760300979 0.8459758759 0.191394642 -0.1965268254 0.9570445418
0.06730042398 0.0657818988 0.8465200067 0.2282783985 -0.2800072432 0.9293067455
0.07021278888 0.08129116893 0.847104907 0.282954216 -0.1752664596 0.9368117452
0.06831023097 0.07203933597 0.8466363549 0.2491336763 -0.2379283309 0.9333138466
0.07827365398 0.08807193488 0.8469356298 0.08157919347 -0.1635368913 0.9704923034
0.0634855032 0.03510890901 0.8464682698 0.286455512 0.2770334184 0.9132828116
0.1037100852 -0.01223236974 0.8879860044 -0.06432978064 0.4120182097 0.8921288848
0.1091772839 -0.01150428224 0.8911055923 -0.1286372095 0.443025887 0.8797770739
0.1061528772 -0.01288010832 0.8978039622 -0.01434439421 0.3980882764 0.8660287261
0.09543165565 -0.02478742227 0.9095513225 0.2815101743 0.6206823587 0.716745615
0.1026226059 -0.01807375811 0.9027801156 0.09237929434 0.5046611428 0.7963915467
0.09865616262 -0.02220595628 0.9062376618 0.1943947822 0.5885941982 0.7471815944
0.09802404791 -0.01741682552 0.8988213539 0.1184374988 0.5107241273 0.8136535287
0.115478307 0.003618432209 0.8892863393 -0.3041627705 0.3306741714 0.8802241087
0.1166657209 0.01154344901 0.8867977858 -0.3859426379 0.3967010975 0.8228746653
0.1139171794 -0.001439964282 0.8904434443 -0.2397605926 0.2798901498 0.9241731167
0.1106156632 0.00865820609 0.8847374916 -0.2714426517 0.3130946457 0.8966807127
0.1086716875 0.002529937075 0.8859598041 -0.190725863 0.2483958304 0.9456777573
0.1307580471 0.02852941863 0.8902525306 -0.6680529714 0.5194548965 0.5327504277
0.1326517165 0.04335485771 0.8722552657 -0.7576650977 0.4102252126 0.5056810379
0.130708009 0.03776877373 0.8711373806 -0.7495968342 0.4530774057 0.4821704924
0.1307034492 0.03083897941 0.8786326051 -0.7091135979 0.48425138 0.5082142949
0.1308313757 0.02476876043 0.885794282 -0.671626687 0.5108961463 0.534093976
0.09385100007 0.02612711675 0.8515514135 -0.2390316576 0.5067612529 0.7989108562
0.09944656491 0.02532873675 0.8540557027 -0.3395562172 0.6096379161 0.69133991
0.09984726459 0.03537972271 0.8479684591 -0.3081172407 0.3267005384 0.8898890615
0.09987909347 0.04215708002 0.8516552448 -0.3023988903 0.1801896095 0.8791868091
0.1006358415 0.05105359852 0.8521570563 -0.3022978604 0.00999165792 0.8884788156
0.1004929245 0.0618522875 0.8526115417 -0.2931782901 -0.1862159818 0.9041025639
0.08958540857 0.05561283231 0.85063833 -0.1466291845 -0.006053001154 0.9470633268
0.09287279844 0.04721457511 0.8510345221 -0.2032108158 0.1309397668 0.9176755548
0.09481631219 0.06045864895 0.8518815041 -0.2371693403 -0.1115158275 0.9253607988
0.08767426014 0.06312140077 0.8519228101 -0.1203069091 -0.1289196759 0.9580770135
0.0964416191 0.0550236851 0.8517234921 -0.2636924386 -0.02174506336 0.9111754894
0.08281958103 0.01047087368 0.8646376729 0.04635616019 0.5899424553 0.7488189936
0.0786966756 0.01275546197 0.8601718545 0.09443700314 0.4095108509 0.8977819085
0.0779568851 0.01645405963 0.8547129631 0.04027486593 0.4402759671 0.8808392882
0.08060882986 0.001468588714 0.8785270452 0.2320295572 0.4027005136 0.8776554465
0.08035071194 0.004652503878 0.873142302 0.1926771104 0.4028141201 0.8851370215
0.08654943854 0.02050445974 0.8521754742 -0.1475821286 0.5928376913 0.7512260675
0.08336579055 0.02561252005 0.8485217094 -0.05936879665 0.3840471804 0.9172036052
0.1030632854 0.02690174058 0.8697434068 -0.3831508458 0.5299350619 0.6967054009
0.1028322726 0.03228732571 0.865352571 -0.3665538132 0.4080986679 0.7423661947
0.1018360034 0.03404676169 0.860522151 -0.345733732 0.3591642082 0.7874742746
0.1049917638 0.03695489466 0.870249629 -0.391628772 0.3259057105 0.7045708299
0.1044632196 0.02240131982 0.8778636456 -0.417201966 0.643715024 0.6189782023
0.1038771421 0.05616755038 0.8535141349 -0.3275619745 -0.1116173714 0.8769876361
0.1003200635 0.03614243492 0.8535542488 -0.3154287338 0.2976129353 0.8519986868
0.1022470817 0.04048509151 0.8578075171 -0.3373846412 0.2203269452 0.8195275068
0.1051511094 0.03180823103 0.8742192388 -0.4064626098 0.4417281449 0.6629492044
0.1039277017 0.04092929512 0.8637138009 -0.3644379675 0.2271327823 0.7675655484
0.1028375849 0.04739778489 0.8554428816 -0.3309141695 0.0727391988 0.8490527868
0.1101942882 0.0402578488 0.8663670421 -0.4584049582 0.2658320069 0.7300878763
0.1068096012 0.04570543021 0.8650756478 -0.3976971507 0.138449192 0.7575024366
0.1165609732 0.03909398988 0.8633534312 -0.5514332056 0.304784894 0.7384095192
0.1098110527 0.04960361868 0.8609903455 -0.4311918914 0.05857657641 0.7907454967
0.1089018583 0.0587317124 0.8560506701 -0.3970250189 -0.1449640542 0.8486465216
0.1140476614 0.03204235807 0.870092392 -0.5299811363 0.4475376904 0.6811196804
0.1099324077 0.02464437298 0.8782514334 -0.4860185683 0.5925364494 0.6163299084
0.1147444397 0.02878307924 0.874977529 -0.540361464 0.4961615205 0.6471138597
0.06775585562 -0.01164538227 0.9044511914 0.6977984905 0.4602333307 0.5448050499
0.07267348468 -0.01361704338 0.8987038732 0.5414978266 0.5184143782 0.6458004117
0.06958350539 -0.009232345968 0.8990626931 0.6313223839 0.4345028698 0.6290456653
0.07256905735 -0.01773433201 0.9027956724 0.6029453874 0.5377391577 0.5862731338
0.06219117343 -0.01054716296 0.9309042692 0.5663036108 0.2129861265 -0.08446686715
0.06793328375 0.002094754949 0.9417464733 -0.4842331111 0.5746043324 -0.3494251072
0.06453726441 -0.002479302464 0.936999917 -0.126469925 0.3845920563 -0.1767474562
0.06028585136 -0.0151150059 0.9271863699 0.9290904999 0.114606075 0.004736490548
0.06838622689 -0.01199689787 0.9307289124 0.3560482264 0.6798152924 -0.3627766967
0.06808338314 -0.007809697185 0.9337794185 0.3638562262 0.4729718864 -0.3304385245
0.06780639291 0.006165960804 0.9464261532 -0.7149327993 0.5952014923 -0.3350879252
0.06627821177 -0.003170828801 0.9279561639 0.5096806288 0.131956771 -0.06780900061
0.07188902795 -0.006347770803 0.9250175357 -0.2025431842 0.4545915127 -0.04616627097
0.08904450387 -0.02114632539 0.9078215361 0.1548828781 0.6220091581 0.6117144227
0.08572476357 -0.01805862412 0.9115952849 0.008790807799 0.6146111488 0.4659800231
0.08046738803 -0.0132035939 0.9196592569 -0.2353763729 0.6033209562 0.2052333504
0.09699162841 0.005392218474 0.8807650208 -0.05307243392 0.2599259615 0.951675117
0.09382940084 0.01097910572 0.8694837689 -0.1226200461 0.4607579112 0.8184323907
0.09432348609 0.008360194974 0.8746500611 -0.07599884272 0.3675935864 0.8818604946
0.100571081 0.007601995021 0.8768989444 -0.1491055042 0.3345820308 0.8942367435
0.09213034064 0.01454616897 0.8623204827 -0.1715629101 0.5886666775 0.7330471277
0.08963944763 0.01737954281 0.8557015657 -0.1996935159 0.7260418534 0.6436950564
0.09307657182 0.001459738822 0.8773928285 -0.006859802641 0.4460382164 0.8570392728
0.08774521202 -0.002123775193 0.882761538 0.175500229 0.4249587953 0.8604124188
0.08927100897 0.005825144704 0.8712658286 -0.01123834495 0.5485674143 0.7814182043
0.08598466963 0.002825783566 0.8758224249 0.1210478023 0.520504117 0.7913708687
0.08422148973 0.01640465297 0.8565376401 -0.09828774631 0.7616090178 0.6244218349
0.09637843817 -0.001275418676 0.8844799399 0.01301964 0.2985210419 0.9502828121
0.07324368507 0.005943445954 0.9472321868 -0.3930576146 0.6744797826 -0.4784536958
0.06637604535 -0.0207312163 0.9155682325 0.8860472441 0.4044339061 0.160115093
0.06282731146 -0.01558656618 0.918990612 0.9147219062 0.306979537 0.1219357401
0.04901410267 0.05696260557 0.8535192609 0.5460520983 -0.1422400922 0.8196986914
0.0427808091 0.03565626219 0.8582871556 0.5486822724 0.06570660323 0.8300782442
0.1252959669 0.026702445 0.8897627592 -0.6365048885 0.5431337357 0.5446649194
0.1187377349 0.03528223932 0.8680272102 -0.5850399137 0.3730080724 0.6954557896
0.1238962412 0.03763259947 0.8677133322 -0.665047586 0.387960732 0.6073560715
0.120063588 0.02862887643 0.8781402111 -0.6181080937 0.5267656446 0.5622002482
0.1223895699 0.03360274062 0.8725010753 -0.6474398375 0.4526562095 0.5821309686
0.1254377365 0.03204222769 0.8790054321 -0.6819093823 0.506149292 0.5166575909
0.1184938028 0.02530173585 0.882784605 -0.592079401 0.5705474019 0.5600995421
0.1230047345 0.02872043289 0.8834285736 -0.6397960186 0.5373670459 0.5389176011
0.1314285547 0.03805825114 0.8808007836 -0.7191448808 0.4561643302 0.5181754827
0.1304529607 0.03442989662 0.8856732845 -0.6957720518 0.4861758649 0.524076283
0.06883720309 0.02600671537 0.8485724926 0.1519491076 0.3689696491 0.9133908153
0.06416779757 0.02523789182 0.8511337638 0.2487868518 0.3412985802 0.9000992179
0.07402608544 0.02002244256 0.8512204885 0.07668492198 0.3926571012 0.9119928479
0.04030329362 0.05025736615 0.8614618182 0.6635101438 -0.07134720683 0.7419379354
0.03917953372 0.04502607882 0.8624255061 0.6441531181 -0.01639058627 0.7639648318
0.0564285107 0.08112835884 0.8642244339 0.5433799624 -0.3428388834 0.7608790398
0.06171224266 0.07868076861 0.8599768281 0.4882025123 -0.3026480973 0.8145272732
0.06928166002 0.07620861381 0.85661906 0.3235585093 -0.2274527401 0.8807166219
0.06849686056 0.08150923252 0.8588908315 0.4221602976 -0.1863728762 0.828417182
0.07331424952 0.0723573193 0.854562521 0.2156612128 -0.2467886209 0.9088929892
0.08067408204 0.07014913112 0.8532606363 0.03702744469 -0.2283970416 0.9446099997
0.05129672214 0.07771981508 0.8658984303 0.5435950756 -0.3546530604 0.753722012
0.06740686297 0.06979721785 0.8524119258 0.2930244803 -0.2499254644 0.9185752869
0.04927145317 0.06388679147 0.8603935838 0.5948054194 -0.1957281083 0.7644537091
0.04096746817 0.06559051573 0.8664105535 0.6343759894 -0.2636766732 0.7138277888
0.05280251056 0.06835186481 0.8604555726 0.555368185 -0.2345166355 0.782635808
0.0484444201 0.07252760977 0.8652704954 0.5618376136 -0.3129760027 0.7539509535
0.04276563972 0.06065430865 0.8628012538 0.645706892 -0.1893964857 0.7277346253
0.04222425073 0.071971111 0.8688520789 0.5994633436 -0.3399715126 0.7172105908
0.06258577853 0.07403130829 0.8570293188 0.4418895543 -0.2729267776 0.8479156494
0.05808228627 0.06840628386 0.8568059802 0.4645292759 -0.2392963916 0.8333631754
0.04513191432 0.05602874607 0.85807693 0.6134662628 -0.1375056803 0.7650303841
0.07645549625 -0.007433392107 0.8918280602 0.3870443404 0.4526439905 0.7928267717
0.08274124563 -0.007230413146 0.888061583 0.3001790643 0.4146613479 0.8588709831
-0.02157606184 -0.00175281812 0.9663654566 0.130008325 0.3785972595 0.6337268949
-0.02082607709 0.003588170512 0.9744477272 0.005663105287 0.09075217694 0.9950439334
-0.01692973822 0.002471763641 0.968101263 0.01855889708 0.1036524847 0.9939318299
0.06203342602 -0.01139147487 0.9230095148 0.9893467426 0.05083104223 0.09942419827
0.06492570788 -0.0124938041 0.9134522676 0.8875021935 0.3333217204 0.2593252957
-0.004340129439 -0.008003526367 0.9713696241 0.1002329439 0.3005053997 0.7399051785
-0.003231050912 -0.0006229277351 0.9741967916 0.001070805709 0.08615826815 0.9954400063
-0.008588720113 -0.0008388682036 0.9713298082 0.01520329528 0.1002957076 0.9942212105
-0.01373999752 -0.004025201779 0.9684268832 0.04252533615 0.1491557509 0.9456891418
0.002138524549 -0.001269418863 0.9782389402 0.06797269732 0.2851636708 0.7063749433
-0.008070971817 -0.01353833079 0.970705092 0.3315378129 0.9095900059 -0.09015958756
-0.01202018186 -0.003986413125 0.9747481346 0.1916035712 0.5780642629 0.3327433169
0.06799101084 -0.02244968712 0.9208049774 0.6698426604 0.6593546867 -0.02961619198
0.08460938185 -0.02613226324 0.9127210379 0.4666223526 0.6314964294 0.506760478
0.08283019066 -0.02087114751 0.9186888933 0.359546423 0.6639719009 0.261988163
0.06764543802 -0.01624901593 0.9269708991 0.4847906232 0.6920949817 -0.2588989139
0.07515985519 -0.01217395719 0.9290094376 0.220114544 0.7104868889 -0.2238207757
0.06436897814 -0.02002918348 0.9241496325 0.6640195251 0.673902452 -0.2040744722
0.07864569873 -0.006055924576 0.9340330362 -0.03735307232 0.7404872775 -0.3555213511
0.07797205448 -0.0158391688 0.9247659445 0.2864165306 0.6910130978 -0.02902789973
0.07287659496 -0.00524316309 0.9362697005 0.04028328508 0.7463817596 -0.5204036236
0.07502233982 -0.01970606484 0.9217787981 0.4625448585 0.6722800136 0.03655938059
0.08945477009 -0.01999662444 0.9178643823 0.2128036171 0.6663836837 0.3880447745
0.07756767422 -0.02307813801 0.9178852439 0.524296999 0.6543765068 0.2147809863
0.08285631239 -0.0116713997 0.9271333814 0.02878621407 0.701611042 -0.03822318092
0.07345410436 -0.004992987961 0.9308274388 -0.4653351009 0.6286629438 -0.2381633669
0.09552615136 -0.02190966159 0.8932960629 0.1117442027 0.6165086627 0.7773535252
0.09465896338 -0.02340324409 0.9000705481 0.1963516325 0.6248127818 0.7483711243
0.1017356664 -0.02213658951 0.8916107416 -0.01725305989 0.5911780596 0.798142314
0.1011118591 -0.0229809992 0.8998346329 0.06313420832 0.6108217239 0.7626901269
0.08831292391 -0.02705228515 0.9079400897 0.4067224562 0.6181268692 0.6617465019
0.09985237569 -0.006915591657 0.8865861297 -0.01079789735 0.3430568576 0.9302714467
0.100406535 -0.01747339033 0.8881536722 -0.0222091563 0.5216216445 0.8427334428
0.1054192856 0.007889172994 0.8833390474 -0.2125078142 0.3267181814 0.8961820006
0.09980992228 0.01212399639 0.8826498389 -0.2523032725 0.5458779335 0.7655100822
0.1018274724 0.0183792226 0.8815268278 -0.3712916374 0.6772343516 0.6269658804
0.1128148139 0.02130176499 0.8840330243 -0.5161600709 0.6111816764 0.5918550491
0.1059811264 0.01566649601 0.8834906816 -0.3555907607 0.5601028204 0.7249547839
0.1122710332 0.01494881138 0.8844340444 -0.3766061664 0.4464918971 0.8013775349
0.1043384597 -0.006800247356 0.8903335333 -0.05905585736 0.3327118754 0.935053587
0.09409540892 -0.007581344806 0.892383635 0.1075822487 0.4001518786 0.881159842
0.09210529923 -0.002813099651 0.8895314336 0.1071637049 0.3464393616 0.9126655459
0.08991812915 -0.01127121877 0.8954470158 0.1980117112 0.4734387994 0.8304174542
0.09304594994 -0.01577963866 0.8979572058 0.1787680984 0.5173103809 0.8063743114
0.09916420281 -0.01277376059 0.895054996 0.0623078011 0.4425430596 0.8602306247
0.0713172704 -7.185491268e-05 0.9362844229 -0.7256296873 0.5862912536 -0.3210480213
0.07949913293 0.006473900285 0.9441584349 -0.1051670089 0.7489805818 -0.6128756404
0.07523427159 0.0008332699654 0.9403156042 -0.2652682364 0.7236126065 -0.5541546941
0.08245559782 0.01030102093 0.947045207 -0.002470859326 0.7613369226 -0.6466333866
0.06910417229 -0.0224733986 0.9104038477 0.7668058276 0.4589630365 0.4010197222
0.08032140881 -0.02928909659 0.9101192951 0.5522620082 0.5805200934 0.5798110962
0.07115772367 -0.02515523322 0.9169825912 0.647028327 0.6253783107 0.1759999394
0.07457714528 -0.02822500095 0.9127227664 0.6215023994 0.5845008492 0.4073995054
0.0556673035 0.05928605422 0.8482792377 0.4367636442 -0.2042911649 0.8711003065
0.0535833016 0.06416184455 0.8514767289 0.4592202604 -0.3042981029 0.8301725388
0.05898239464 0.06479167193 0.84783113 0.3890528083 -0.2454834133 0.8863525391
0.06212409958 0.07642326504 0.8497279286 0.4036169052 -0.2318887413 0.8780682087
0.06365118176 0.08204704523 0.8512256742 0.4167972207 -0.2365740091 0.8656058908
0.05783350393 0.07455970347 0.8533753157 0.4575053453 -0.3264919817 0.8188169003
0.06333892792 0.06033848226 0.8463648558 0.2931595147 -0.2561886609 0.9167989492
0.04758104682 0.06960576028 0.8568488359 0.5361022949 -0.3761825264 0.7524914742
0.05222922191 0.07152790576 0.8556836843 0.4949665368 -0.392477572 0.7736927867
0.0513018854 0.07908835262 0.8574786186 0.5246432424 -0.3932619095 0.7515872717
0.05986050144 0.0919483602 0.8558120728 0.4978554249 -0.3004274368 0.801509738
0.06446962059 0.08941754699 0.8514681458 0.395222038 -0.2220058292 0.8782904744
0.05954343826 0.08648902178 0.8540577292 0.45236817 -0.2888874412 0.8259521723
0.05674536899 0.08011861891 0.8538903594 0.446295917 -0.3124395907 0.818605721
0.0540615581 0.08814628422 0.8593514562 0.5487010479 -0.3624026179 0.7516903281
0.04710344598 0.0767563805 0.8612404466 0.5432599783 -0.4129372239 0.730027616
0.04407074675 0.07215116918 0.8619551659 0.5582161546 -0.3974318504 0.7267536521
0.1183437183 0.02009087615 0.8859169483 -0.536544621 0.5616359115 0.6237918735
0.1234359071 0.0181110017 0.8773665428 -0.5034940243 0.4512888193 0.6776104569
0.1264201999 0.01517281309 0.8844364285 -0.5295084715 0.4383231103 0.671497941
0.1229727641 0.009368139319 0.8848597407 -0.3803706169 0.2906199396 0.8412701488
0.1221160665 0.02166310698 0.8721361756 -0.5211510658 0.4968610406 0.6404684782
0.1146551594 0.02544008754 0.8601273298 -0.4900704026 0.5210132003 0.6816366911
0.1184297651 0.01517269481 0.8739832044 -0.3968089521 0.3604591191 0.8089946508
0.1182460263 0.02250285819 0.8667216897 -0.4826128781 0.484169662 0.6853045225
0.1153744906 0.009579992853 0.8799734116 -0.3323582709 0.3047468662 0.8736352324
0.1222409233 0.02822884358 0.8662666082 -0.5991672873 0.5881792307 0.5392976999
0.1294041425 0.02468423732 0.880284965 -0.6682930589 0.5131592155 0.5323055387
0.1267632395 0.03040127084 0.8712828159 -0.6659224629 0.525870204 0.5180503726
0.1267195046 0.02506806515 0.8758523464 -0.6374351978 0.5444768071 0.5385315418
0.1136202365 0.03584705666 0.8514213562 -0.4681405723 0.3641038835 0.7726048231
0.1125031263 0.03060525469 0.8538890481 -0.4781171083 0.4646560252 0.7268150449
0.120071508 0.0313135013 0.8608771563 -0.5744927526 0.5545113683 0.5762681365
0.1216084436 0.04301298037 0.8559685946 -0.5694970489 0.2236863524 0.7682356238
0.1187742427 0.0387631841 0.8552963138 -0.5372853279 0.324709028 0.7371840477
0.09315735847 -0.01924933121 0.8888171315 0.1446975172 0.5295670033 0.8289371133
0.08950057626 -0.010007062 0.8873953819 0.1953850836 0.4088199139 0.8800154924
0.0553018637 0.03917119652 0.8497182131 0.4566417038 0.1242109016 0.8797982335
0.0485480465 0.04298244044 0.8540980816 0.5203627348 0.06165958568 0.8508377075
0.0563627556 0.04441125691 0.8484739661 0.4719024003 0.06026365981 0.8787669539
0.0506663397 0.03337341547 0.8556489348 0.4815758467 0.1594215333 0.8516634107
0.04388717189 0.04250146449 0.8595514297 0.5821205974 0.0421106033 0.8059498668
0.05881295726 0.03169702366 0.8516492844 0.3603579402 0.2767218053 0.8884544373
0.05407878384 0.02833200991 0.8532888889 0.3846310079 0.2385098934 0.8853138685
0.08390074223 0.0007043165388 0.8887142539 0.2297652811 0.3494247496 0.8947011232
0.08354827762 -0.005349332001 0.8930630088 0.2935265601 0.4391698539 0.8306086063
0.08792234957 -0.01858910546 0.9023032188 0.3125653565 0.5573504567 0.7131114006
0.07914634049 -0.006543987431 0.9007427096 0.4699814618 0.3625479043 0.641120851
0.082250081 -0.0129771689 0.904645443 0.4512593746 0.4181248248 0.6011552215
0.08067820221 -0.01524017379 0.9111814499 0.5546096563 0.3561466336 0.455186069
0.07279406488 -0.009103444405 0.9170019031 0.7756697536 0.1524372399 0.2494930625
0.07810877264 -0.009945021011 0.9079976678 0.5706282854 0.3099499643 0.487351656
0.07206470519 -0.004863908514 0.911879003 0.7336919308 0.1560920328 0.3410035074
0.07812746614 -0.001397636835 0.8947828412 0.4245351553 0.3628979623 0.7455931306
0.08400461823 -0.01106967963 0.8983035088 0.3464147449 0.4835152924 0.7454673648
0.07735183835 0.004980317783 0.8813886642 0.2922019362 0.3828236759 0.865709722
0.07709557563 0.01014566235 0.865999341 0.1414394379 0.4016451836 0.8940827847
0.07772090286 -0.0002112772199 0.8842897415 0.2787592411 0.3994356394 0.867946744
0.0666404739 -0.001170667587 0.8920984864 0.6230899096 0.348144114 0.689610064
0.06525266916 0.002191676525 0.8881320953 0.5894443393 0.3311060369 0.7192296386
0.05861191079 0.013718375 0.8742189407 0.5045861602 0.2661453784 0.8025853038
0.05234770104 0.01980563812 0.8664088845 0.5044070482 0.2222476155 0.8199790716
0.06831075996 0.00652708672 0.8838309646 0.4675885439 0.3260009587 0.8042337298
0.07227373868 0.003440536791 0.8874621987 0.4577610791 0.3588871956 0.7976562381
0.06372658163 0.01149172615 0.875613153 0.4707853496 0.3251823187 0.8009847403
0.06170378625 0.01681353152 0.8707215786 0.4064215124 0.2755783498 0.8653165698
0.05972722545 0.02156857774 0.8626204729 0.3742867708 0.2940694988 0.8781358004
0.06281591207 0.005970787723 0.8827487826 0.5705832243 0.322234273 0.7350062132
0.04741327837 0.02800208703 0.8562065363 0.4491736591 0.1799979061 0.8740249276
0.06014036015 0.009206666611 0.8790143132 0.5580146313 0.2959099114 0.7541454434
0.05470442772 0.02293359488 0.8608256578 0.4293729663 0.2619906366 0.8536439538
0.07018879056 -0.002818759298 0.9014161825 0.665718019 0.2693923712 0.5542689562
0.07602448761 0.00208056462 0.8914014101 0.4310207069 0.350120306 0.7929739952
0.07355466485 0.0002209330996 0.8974568844 0.5484109521 0.2862404287 0.6504151225
0.0710138157 -0.001217129524 0.9077218175 0.7092866302 0.154532209 0.4115167558
0.06706881523 -0.00408356823 0.9182767868 0.9055656791 0.03806269914 0.1636329591
0.0671653077 -0.005552423187 0.9069754481 0.7974352837 0.2215228528 0.4243436158
0.06560006738 -0.007247439586 0.9121124148 0.9025625587 0.1601316631 0.310572803
0.1002001017 -0.001656518667 0.8889908791 -0.09460956603 0.4425833225 0.8698046803
0.08720133454 0.004582223017 0.8861522079 0.09939655662 0.3575308621 0.904715836
0.09467600286 0.005855386145 0.8853966594 -0.1053885892 0.4833313823 0.8330911398
0.1015503705 0.003718701424 0.8845226765 -0.1263025701 0.3200311959 0.9174721241
0.07866110653 0.01982572116 0.8595162034 0.02347976342 0.4914645553 0.8510578871
0.08353010565 0.01771520264 0.8673317432 -0.07315407693 0.601760149 0.7801874876
0.08142092079 0.0213968493 0.8549063206 -0.03587749973 0.5341514945 0.8277485371
0.08109104633 0.0163220726 0.8737724423 -0.0239472352 0.5819242597 0.7830607295
0.06790845841 0.02612172626 0.8564533591 0.2070939392 0.3845419884 0.8704723716
0.077466093 0.01890356839 0.870434165 0.03831071779 0.536465466 0.7984720469
0.06905061752 0.02495379187 0.8619650602 0.183488369 0.4264781773 0.8386058211
0.07589045167 0.02038297802 0.8644884229 0.06939247996 0.4888772964 0.8323927522
0.06222743168 0.02550620213 0.8593081832 0.2727221847 0.3572641611 0.8586142659
0.07152636349 0.0199618265 0.8699736595 0.1187896207 0.4887820184 0.8023335934
0.0754866004 0.01618822291 0.8759790063 0.0779466778 0.5317956805 0.7828345895
0.08201278001 0.01227586903 0.883148253 -0.0002622282773 0.6044446826 0.7534272075
0.06710633636 0.01538189407 0.8721663952 0.3367418647 0.3476287723 0.8582263589
0.07667348534 0.01131866593 0.881129384 0.1766694486 0.480194211 0.8043236732
0.06946261972 0.01253699791 0.8760798573 0.3474115431 0.3515321016 0.8568535447
0.06605100632 0.0179249756 0.864761591 0.3065842986 0.3295070529 0.8808841109
0.0737439543 0.01417801529 0.8654777408 0.2049763352 0.372639358 0.8874554038
0.07156013697 0.01883781701 0.8561561704 0.1478917897 0.369694531 0.9014789462
0.0752838999 0.009178563021 0.8763957024 0.2861745358 0.3702848852 0.8699954748
0.06696150452 0.01995683089 0.8585700393 0.2354117334 0.3410128951 0.8925986886
0.08208116144 0.006910563912 0.8868398666 0.1529717743 0.4661498666 0.8232405782
0.09048429877 0.02190382406 0.8590421081 -0.2197559476 0.6614214182 0.7074210048
0.08699460328 0.01975964755 0.8624445796 -0.1468546987 0.6419463754 0.7470681071
0.08733446151 0.01647256874 0.8734636307 -0.1482205987 0.6696773767 0.7221690416
0.09037832916 0.01907692477 0.8681123853 -0.2130123824 0.6812393665 0.6920048594
0.09520576894 0.01548750233 0.882704854 -0.2626432478 0.6798862219 0.6715320945
0.09057947248 0.01589652523 0.8792735338 -0.1987104416 0.6842042804 0.6880797148
0.09964168817 0.02084214613 0.8740014434 -0.3549641371 0.6841047406 0.6260453463
0.09307003021 0.01835673302 0.8740199804 -0.2482341975 0.6842781901 0.6709993482
0.09830987453 0.02345644869 0.8632307053 -0.351970464 0.6844266653 0.6350665689
0.08818732947 0.01347952243 0.884506166 -0.1508207768 0.6841283441 0.7044866681
0.07204879075 -0.02625810914 0.907640934 0.6265343428 0.5518829226 0.5459542871
0.08041368425 -0.02325275354 0.9006898999 0.4082466066 0.5921440125 0.6781108379
0.07672316581 -0.02686842158 0.9042819142 0.5055298805 0.5849348903 0.6178953648
0.07797210664 -0.01872463897 0.8981306553 0.4330530465 0.5671800971 0.6908039451
0.08313843608 -0.02689060196 0.9057058692 0.4376906455 0.6242822409 0.6404810548
0.08754024655 -0.02485902049 0.8962013125 0.2774116993 0.5741894841 0.7264489532
0.08612910658 -0.02509994805 0.9016256332 0.3500010669 0.6223787665 0.6845297217
0.08595508337 -0.01957840472 0.8953385949 0.2918083072 0.5870928168 0.7519116402
0.08861958981 -0.01622245088 0.8896515965 0.2364804745 0.5051701665 0.8204807043
0.08342590183 -0.01302035619 0.8904031515 0.3304845691 0.4751086533 0.8092351556
0.07708562165 -0.01351281442 0.8941736221 0.4312310219 0.5245813131 0.7286990881
