# .PCD v0.7 - Point Cloud Data file format
VERSION 0.7
FIELDS x y z normal_x normal_y normal_z
SIZE 4 4 4 4 4 4
TYPE F F F F F F
COUNT 1 1 1 1 1 1
WIDTH 512
HEIGHT 1
VIEWPOINT 0 0 0 1 0 0 0
POINTS 512
DATA ascii
-0.244267568 0.03807774559 1.165131807 -0.0324696973 0.5833361745 0.8103172779
-0.268825233 0.04591139778 1.155802131 0.3071016073 0.492852509 0.8080669045
-0.2761512995 0.05487081781 1.154218316 0.3891677558 0.4443134665 0.8014159799
-0.2698202729 0.04839974642 1.150385976 0.328356564 0.5075554848 0.791726768
-0.2535270452 0.03698729351 1.163500071 0.05289817229 0.5599319339 0.8209728003
-0.2485250235 0.03788342327 1.162361503 0.0005013854243 0.5716184974 0.8144831657
-0.2543073595 0.03902522102 1.15811789 0.05538583547 0.5836871266 0.8053049445
-0.2592895031 0.03756774217 1.161176801 0.1082234904 0.5628003478 0.8186343908
-0.2320715487 -0.03309076279 1.264258385 -0.08950524777 -0.3179049492 0.9438883662
-0.2702529132 0.09922688454 1.139061213 0.307870388 0.1327791214 0.9390141368
-0.2237898111 -0.03938157111 1.262300849 -0.08950524777 -0.3179049492 0.9438883662
-0.2105722278 -0.04210993648 1.259864211 -0.08950524777 -0.3179049492 0.9438883662
-0.2152260989 -0.04344284534 1.261777997 -0.08950524777 -0.3179049492 0.9438883662
-0.2310329527 -0.04075501859 1.26403904 -0.08950524777 -0.3179049492 0.9438883662
-0.2756879926 0.08694524318 1.148091793 0.3998509943 0.214094013 0.8847874403
-0.2736090422 0.0910346359 1.144068837 0.3846214116 0.2134035081 0.8954207897
-0.2787298262 0.07644489408 1.154568315 0.446346879 0.272141844 0.8486650586
-0.2060866058 -0.02729180083 1.263093352 -0.07569543272 -0.2965511084 0.951952517
-0.2100970298 -0.02846463583 1.259690523 -0.06340487301 -0.2991199493 0.9520815015
-0.1683656275 0.09410449117 1.120188117 -0.1863718182 0.1530102044 0.9675436616
-0.1627811641 0.06745654345 1.135828972 -0.2796429396 0.428140223 0.8553574681
-0.1625215709 0.07517842203 1.133725405 -0.2888400853 0.3373913467 0.887866199
-0.1733433753 0.06926216185 1.137265325 -0.1958457381 0.3924253583 0.8924739361
-0.1669025868 0.07269894332 1.135197401 -0.2511819601 0.360684216 0.8893300891
-0.1725451201 0.07517631352 1.134472847 -0.2034240216 0.3225843012 0.9181959033
-0.1693499535 0.06748881936 1.131291509 -0.2084982097 0.4166598618 0.8833375573
-0.1800939143 0.06878129393 1.137666821 -0.1373422593 0.3881736398 0.9110845327
-0.2634701729 0.04421934113 1.148910046 0.226716429 0.5513926148 0.7955189347
-0.2588889003 0.04121229053 1.154532909 0.105474323 0.5713751912 0.8103619218
-0.2550604045 0.04587230831 1.148769379 0.02522036619 0.541346848 0.8394637704
-0.2533695698 0.04281357303 1.152756333 0.0262093842 0.5662090182 0.8200542331
-0.2401215583 0.03979405761 1.156692147 -0.08413495123 0.6078342199 0.7877675891
-0.248201564 0.04400740936 1.151200175 -0.0302073881 0.5651029944 0.8210231662
-0.2758573294 0.06927338243 1.155726314 0.441113472 0.3032644689 0.8441963196
-0.2349894494 0.08381873369 1.135013342 -0.08275063336 0.2419806272 0.9649137855
-0.2389497608 0.07970903814 1.136497974 -0.0730689317 0.3168919683 0.9403717518
-0.2462784052 0.08094640821 1.13760066 0.02730241045 0.3203385472 0.9406770468
-0.2517571449 0.07134599984 1.140109897 0.1106921583 0.3582697213 0.9231504202
-0.170786038 0.1125488058 1.119853854 -0.198668316 0.04237145558 0.9786202312
-0.1655600369 0.1036564857 1.120663524 -0.2190039009 0.09516140074 0.9702126384
-0.1647973955 0.110933803 1.12133801 -0.2338060737 0.05480933189 0.9699097276
-0.1700021327 0.1104298383 1.124466181 -0.228877902 0.07415939867 0.9658432007
-0.1651986539 0.1086676791 1.12610662 -0.2925064564 0.054853037 0.9495508075
-0.2448692322 0.1125337109 1.142160773 0.1512734443 0.06228827313 0.9709947705
-0.2308727205 0.1034689546 1.144338608 0.1799454391 0.2780328393 0.9380892515
-0.2409701794 0.1029624566 1.147921205 0.1318122149 0.104069449 0.9717775583
-0.2360031456 0.1012050956 1.148073316 0.1400930882 0.1681643724 0.9617616534
-0.2537232041 0.1108205542 1.144338012 0.1362253428 -0.02467772923 0.9865614176
-0.2416348904 0.1083789766 1.142957211 0.170461297 0.1509571075 0.9561893344
-0.2369241118 0.095664002 1.149726272 0.03681062534 0.1959566921 0.9556043744
-0.230845958 0.09614281356 1.150969148 0.1187616363 0.209243536 0.9595031738
-0.2502560616 0.1071160883 1.145669222 0.1064945683 0.02334274352 0.979759872
-0.227300182 0.09051208198 1.152323246 0.04865590483 0.2848153114 0.9463163614
-0.1996460706 0.106342718 1.120589972 0.2614755929 0.008018336259 0.9578548074
-0.2058122605 0.1086993143 1.123616338 0.3449312747 0.04401508719 0.9296932817
-0.2567616105 0.1132931337 1.140669346 0.1335464418 -0.00311538321 0.990172863
-0.2516636252 0.1155148596 1.140642524 0.1240213588 -0.02528674342 0.991135776
-0.1335498691 0.001605384285 1.26802516 -0.2654543519 -0.05467506126 0.9610347152
-0.1379796863 -0.003949961159 1.265668035 -0.2078843266 -0.09144124389 0.9709628224
-0.1564754099 0.0668881461 1.137466311 -0.3421430886 0.442699194 0.8273801804
-0.2286235094 -0.02917787805 1.264440894 -0.08252567798 -0.2998223603 0.950091064
-0.2201426625 -0.03169971332 1.261076927 -0.0831701681 -0.3138259649 0.945720017
-0.2145844698 -0.03250029311 1.259662509 -0.07985304296 -0.3116901517 0.9466791153
-0.2160004377 -0.02796806395 1.262838364 -0.06348279119 -0.2936888039 0.9537098408
-0.2015636116 -0.03657922894 1.273651719 -0.08588564396 -0.2553183734 0.9619531631
-0.2033649087 -0.04255507514 1.269494653 -0.08729014546 -0.2726615369 0.9571928382
-0.1998746693 -0.03167016804 1.277151346 -0.08469640464 -0.2402905375 0.9660949707
-0.2082079202 -0.04069818929 1.268600464 -0.08776972443 -0.287435323 0.9526993036
-0.1968852133 -0.03907224908 1.27411437 -0.08555097133 -0.2422894686 0.9659699202
-0.2042642981 -0.02619792707 1.268274188 -0.07943851501 -0.2806917727 0.9559063315
-0.2032663077 -0.0253902711 1.273491025 -0.07757975906 -0.2575542033 0.9621567726
-0.2110215127 -0.02689604647 1.266438246 -0.06827870011 -0.289870441 0.9542102814
-0.2114786506 -0.03574176878 1.271093965 -0.08696451038 -0.2793477178 0.9548273087
-0.2058575302 -0.03239748254 1.27463758 -0.08569531143 -0.2600867152 0.9602917433
-0.2196641713 -0.04295034334 1.26409936 -0.0894697085 -0.3173656762 0.9440413713
-0.2193243504 -0.03754460439 1.267328978 -0.08832715452 -0.300026685 0.9489605427
-0.202905342 -0.0276443772 1.278733015 -0.08423002809 -0.2378501743 0.9666004181
-0.2161705345 -0.03370768204 1.269784927 -0.08746177703 -0.2868940532 0.9526863694
-0.2231894881 -0.03376853839 1.265420079 -0.08733857423 -0.3071042597 0.9472222328
-0.2191331387 -0.02925771102 1.268267632 -0.07926850021 -0.2749142349 0.9574570656
-0.212500155 -0.0270080734 1.272677302 -0.07886058837 -0.2534961998 0.9633475542
-0.1941399127 -0.04325346649 1.270754695 -0.08361918479 -0.2347118855 0.9673698545
-0.1863267124 -0.04313032329 1.267281175 -0.06728419662 -0.1514522731 0.9851428866
-0.195249632 -0.04302561656 1.262477398 -0.07676055282 -0.2276201099 0.9663837552
-0.1741903871 0.07264530659 1.128314495 -0.1585852057 0.3963133693 0.9034523964
-0.1649699062 0.0696195215 1.129123688 -0.2251137942 0.4052311182 0.8837099075
-0.1681497246 0.07455535233 1.12755096 -0.1843269765 0.3743445575 0.9056198001
-0.1291492283 0.08033281565 1.151265144 -0.5394966602 0.2011939436 0.8170921206
-0.1255573928 0.08754166961 1.148048997 -0.5494093299 0.1818473488 0.8151257634
-0.1401298493 0.1016231403 1.137537718 -0.5533272624 0.06960367411 0.8284105062
-0.1358761042 0.101486899 1.141755939 -0.5546320081 0.07426861674 0.8269327283
-0.2568582296 0.03899828717 1.169517279 0.1371082962 0.5201678276 0.8327673078
-0.2614535987 0.04981607571 1.16286695 0.2759858966 0.4934499264 0.8098335266
-0.2513358295 0.03572757915 1.170392513 0.04258509725 0.5488155484 0.8326188326
-0.2526058555 0.0435022749 1.164976954 0.1119003072 0.5420582891 0.8119468093
-0.2482511699 0.04409221932 1.162858248 0.03143614903 0.5782654285 0.7983315587
-0.2561244071 0.04744841158 1.162949204 0.1794919819 0.5263844132 0.8057546616
-0.2676739991 0.05628377199 1.160068512 0.3754983842 0.4381785989 0.8131939173
-0.2806684375 0.06375879794 1.157176018 0.457403779 0.337567538 0.8205276728
-0.2724855244 0.05724813044 1.159230709 0.3973713815 0.4279308915 0.8086612225
-0.2428929806 0.05730960891 1.155269146 -0.04413324222 0.4934988022 0.8621637821
-0.2446006835 0.04779731855 1.160019517 -0.02936128527 0.5688316822 0.8126738071
-0.2499690056 0.05369941518 1.158247352 0.07723212242 0.5078567266 0.8319513798
-0.2559911609 0.0561407879 1.158209324 0.1897858679 0.4742170274 0.8331658244
-0.248258993 0.07843323797 1.152999997 0.1584814638 0.3458713591 0.8899140358
-0.2417639196 0.07954569161 1.152999997 0.0781025812 0.3538823724 0.9015542865
-0.243606329 0.07456159592 1.152999997 0.06539225578 0.3792601824 0.8940453529
-0.2584463656 0.06996460259 1.152999997 0.2334100902 0.3731289804 0.8655974865
-0.2487028092 0.0728270635 1.152999997 0.1219092533 0.3780772686 0.8841351271
-0.2436678112 0.06484222412 1.152999997 -0.007696332876 0.4366866946 0.8851861358
-0.2359470725 0.07728725672 1.152999997 -0.01863992773 0.3803336024 0.9090460539
-0.2393740565 0.0698101148 1.152999997 -0.02863928862 0.4169150889 0.8966953158
-0.2617162466 0.07619352639 1.148326278 0.3406198323 0.3412858546 0.8649681211
-0.2648748457 0.07438273728 1.151924968 0.3584203422 0.3353635669 0.8588460684
-0.257925868 0.07602073997 1.152590871 0.2736783028 0.3395158947 0.8718297482
-0.2222357392 0.08236666769 1.151015401 -0.08364271373 0.3640395403 0.9273316264
-0.1895123869 0.07192535698 1.140365601 -0.114451319 0.3829510212 0.91584903
-0.2174296379 0.08112515509 1.148778081 -0.07415878773 0.3684185147 0.9261066318
-0.2147798687 0.08757107705 1.149024844 0.08832801878 0.3051860929 0.9441349506
-0.2094743699 0.08452300727 1.147881508 0.04452663288 0.3156741261 0.9390772581
-0.1925803572 0.07615594566 1.138913989 -0.007615999319 0.3695111871 0.9241580963
-0.1957240552 0.07619126886 1.143192768 -0.06165011227 0.3563969731 0.9241571426
-0.2058611661 0.08123005927 1.146683574 -0.01042819396 0.3349963725 0.9323710799
-0.2013415694 0.07602733374 1.144719481 -0.1005879194 0.3705498278 0.9210400581
-0.2226854563 0.08742458373 1.152178168 0.02520577051 0.318556875 0.9403788447
-0.2012581527 -0.03228406236 1.259000063 -0.08580468595 -0.2677550912 0.9590389729
-0.1876796782 -0.03751698136 1.271818399 -0.04908616096 -0.1459594816 0.9827849865
-0.1848219037 -0.0321800895 1.271966338 -0.03456573933 -0.08605093509 0.9922963381
-0.1807463616 -0.03583209217 1.269426227 -0.005104420707 -0.07206043601 0.9958806634
-0.1913644671 -0.03500948846 1.273920894 -0.07510545105 -0.163647607 0.9788404703
-0.1276886463 0.07287106663 1.154914975 -0.5287957788 0.2108133882 0.8220075965
-0.1335358173 0.06781969965 1.153509498 -0.5240703225 0.2017916143 0.8273859024
-0.1307960898 0.07112197578 1.15047729 -0.5288946033 0.2109529972 0.82186836
-0.2663623095 0.08035571873 1.146335006 0.373313725 0.2883797288 0.877222538
-0.2693916559 0.08587922156 1.14576292 0.3680394292 0.2250084877 0.8968542814
-0.2724768817 0.07435633987 1.153001308 0.4177079201 0.3179402947 0.8501064777
-0.2743322849 0.07876425982 1.147827506 0.4283831418 0.2952537239 0.8531389832
-0.2595913112 0.09283839911 1.137346983 0.2537074387 0.1095697656 0.959505856
-0.2637206912 0.08833283931 1.138759613 0.3257881999 0.1840008199 0.9264450669
-0.24304232 0.08643446118 1.136209846 -0.02119177952 0.2315394431 0.9686657786
-0.2418483794 0.09454435855 1.133205771 0.01645721123 0.09301715344 0.9936753511
-0.2360883206 0.09205289185 1.133118391 -0.02779316157 0.1723135412 0.9829890728
-0.249597609 0.08762589842 1.136086822 0.1448783726 0.1981271356 0.9553753734
-0.2531132996 0.08297656476 1.137928963 0.2270695567 0.293899864 0.9261040688
-0.2540979385 0.08953367174 1.137076259 0.2336002886 0.1874608994 0.9490694404
-0.2398478836 0.1032029167 1.133616328 0.09550137818 0.08679681271 0.9855021834
-0.2526800036 0.07614200562 1.139151096 0.2070881426 0.3642666936 0.9075258374
-0.2689966857 0.08109454811 1.142059088 0.3416008055 0.2840498984 0.8885929585
-0.2655256093 0.07636636496 1.142727375 0.2863801718 0.303868562 0.896548748
-0.2327383608 0.07792357355 1.136651397 -0.1585553586 0.3738450706 0.9005870819
-0.2117517292 0.07768064737 1.12986505 0.1512255669 0.4163154662 0.8595020175
-0.2276202738 0.08054964244 1.133978009 -0.03946115449 0.326268971 0.9175409675
-0.2190269828 0.08126077801 1.1308918 0.1005284637 0.3261709809 0.9088603854
-0.2224521786 0.07725536823 1.133533359 -0.01562735997 0.4065082967 0.8749340773
-0.2038399279 0.07933657616 1.126708031 0.2946070135 0.3925616145 0.8603925705
-0.2080869973 0.08516711742 1.126884341 0.2986107469 0.2271901369 0.9085487127
-0.1710738391 0.1075739935 1.119000077 -0.1970018297 0.05944776163 0.9770997763
-0.1746921837 0.1088974774 1.126458883 -0.1435632408 -0.0132272644 0.9659698009
-0.1686756462 0.09974846244 1.119000077 -0.1947110891 0.1018107086 0.9746576548
-0.146181345 0.1031556353 1.139423013 -0.4957471192 0.01128495578 0.8651645184
-0.2308002114 0.0898699984 1.132497311 0.0294814501 0.1770606637 0.9627504349
-0.2184192091 0.09419463575 1.128389835 0.2903706133 0.09021936357 0.9206804037
-0.2120820731 0.08835206926 1.127535462 0.2910678387 0.1684448719 0.9172100425
-0.2175751328 0.08673030138 1.129403591 0.1895148158 0.1932965517 0.9317490458
-0.222563386 0.08545726538 1.131068707 0.1005446687 0.2128652334 0.944519937
-0.2277844548 0.08572988957 1.132559538 0.0335489437 0.209239915 0.9544143081
-0.2120205164 0.09540356696 1.126410365 0.4066919684 0.06252985448 0.9018306732
-0.2029637545 0.09438171238 1.122859001 0.3266409338 0.0853599906 0.9316289425
-0.1985706687 0.09187677503 1.121565104 0.2752971649 0.1257178783 0.9454960227
-0.2057783604 0.09027306736 1.125301003 0.3941236734 0.1396663338 0.9039289355
-0.1996072233 0.09794757515 1.120705843 0.265678823 0.04331937805 0.954821229
-0.2098132372 0.1053687856 1.125761747 0.4605665207 0.06699828804 0.8835038543
-0.2063659132 0.1010817587 1.123757839 0.377386868 0.02956163883 0.9166455269
-0.2352754474 0.09985333681 1.133091807 0.08556191623 0.1645276546 0.9776586294
-0.2218186259 0.09842843562 1.129109144 0.2896712422 0.09356096387 0.9320209026
-0.227035597 0.09847149998 1.13060379 0.2008289844 0.1218791306 0.9503911138
-0.2268629223 0.1045971662 1.130986094 0.2704579234 0.1277298778 0.9411386251
-0.2162421942 0.1013555229 1.127635956 0.3906523585 0.07524178922 0.9079289436
-0.2243546396 0.1119523719 1.129403949 0.2807178497 0.0865508616 0.9458768368
-0.2116481513 0.1109453812 1.126237512 0.3981073499 0.07346596569 0.9118150473
-0.2365773171 0.1085913628 1.133174777 0.1629781872 0.1303784549 0.9767037034
-0.2199505121 0.1081296802 1.128391147 0.359451741 0.08163355291 0.9158073664
-0.2312013805 0.1131122708 1.131400704 0.2122487724 0.09664019197 0.9668101668
-0.2379330695 0.1143309548 1.134418488 0.1609489173 0.06812595576 0.9803053737
-0.2174807787 0.1132770628 1.131255627 0.3488126695 0.0913086459 0.9264153838
-0.2262051105 0.109532997 1.138100505 0.2685884237 0.2554569244 0.9138960838
-0.2382896096 0.1164681092 1.139428496 0.1717825979 0.02632000297 0.9687463045
-0.22503905 0.1143335328 1.134559751 0.2848747671 0.07317145914 0.9401305318
-0.2326583564 0.1121039391 1.139516234 0.215455085 0.1754145175 0.9366591573
-0.2439876646 0.1154344901 1.138079762 0.1213633567 -0.02936004475 0.99055022
-0.1831905693 0.1123449504 1.123023033 0.02143041976 -0.03860868141 0.9953423142
-0.1765917987 0.1121357903 1.123016357 -0.1390021443 0.0757162869 0.9841682315
-0.2623738348 0.110604763 1.141465902 0.1556731761 0.0191412475 0.986131072
-0.2666443288 0.106704995 1.140503764 0.2201855332 0.06433483958 0.9689582586
-0.2642201185 0.1017285138 1.138000369 0.2049375176 0.0562854223 0.9762496352
-0.2586332262 0.098715581 1.136999249 0.1988604814 0.03610789031 0.975935638
-0.2524949014 0.1104937494 1.138005733 0.1067521423 -0.03359502181 0.9932730794
-0.2587881386 0.1057391241 1.137474179 0.1497460455 -0.01075216848 0.9876406193
-0.2434843481 0.1114141792 1.13446784 0.1371010095 0.04676877707 0.9867084622
-0.2493695617 0.1046036854 1.134788156 0.09243272245 -0.02547477186 0.994136095
-0.2520860732 0.09756556153 1.135362744 0.1478237808 0.03833249211 0.9835353494
-0.2478489876 0.09513465315 1.134273052 0.08807534724 0.05987238884 0.9903979301
-0.1369700879 0.07572583109 1.141573787 -0.5377782583 0.2075465024 0.8168165684
-0.1311142594 0.07440773398 1.145801425 -0.5338341594 0.2158294469 0.8173344731
-0.1329006702 0.07899866253 1.141432881 -0.547195971 0.2122598439 0.8095468283
-0.1209133714 0.006961634848 1.267824054 -0.2843208909 -0.04262625426 0.9577810764
-0.1584217101 0.07200022042 1.13516283 -0.3280222118 0.3794876635 0.8581551909
-0.1492161751 0.07368630916 1.137805581 -0.4733361304 0.3040654361 0.8250643611
-0.1495387554 0.06829152256 1.140500069 -0.4433616996 0.3548563719 0.8195649385
-0.1623346061 0.08394241333 1.125863433 -0.2812633812 0.2435481846 0.9214496613
-0.1677012295 0.08057648689 1.125776887 -0.1607453525 0.3061183989 0.9373189807
-0.1662177145 0.08824004978 1.123047709 -0.2072467059 0.2117334455 0.9479317665
-0.1635610312 0.07679465413 1.127515197 -0.2525709271 0.3237359822 0.9032829404
-0.2093990594 -0.04368224367 1.264817357 -0.08916801214 -0.310693264 0.9460187554
-0.2039171755 -0.0434907563 1.264231443 -0.08900208026 -0.3071447909 0.9470670223
-0.2049310505 -0.03767570108 1.259000063 -0.08876828849 -0.313490659 0.9453229904
-0.1376630217 0.06872610748 1.146335125 -0.5170938969 0.2103323638 0.8293918371
-0.1430597305 0.0666801855 1.145954132 -0.4941292405 0.2984958589 0.8149312735
-0.1314707845 0.08794018626 1.148104191 -0.5481314659 0.1811957508 0.8158512712
-0.1308172941 0.1009817347 1.14503932 -0.560489893 0.1102018282 0.8192597628
-0.1509274989 0.1010214984 1.1366992 -0.4962350726 0.03676481918 0.8630158901
-0.1577275395 0.09796751291 1.131462336 -0.4351054728 0.08527654409 0.8887987733
-0.1615941226 0.1023616195 1.130092263 -0.3826513886 0.04657223448 0.9204217196
-0.2409360558 0.04953781888 1.153329372 -0.080141671 0.5630934834 0.8193348646
-0.242426157 0.05448777601 1.15056026 -0.05957647413 0.5141099691 0.8531790972
-0.2397064567 0.04516876861 1.155316591 -0.09316404164 0.5945494175 0.7978698015
-0.247603327 0.05487022921 1.147200823 -0.02927388251 0.4844488502 0.8738654256
-0.2501146793 0.04915941507 1.148446202 -0.0386564061 0.5417434573 0.838858366
-0.2570237815 0.03440928087 1.171049833 0.09683813155 0.5304201841 0.8419684768
-0.2607652545 0.04346928 1.167107701 0.2174850106 0.503849268 0.8247793913
-0.2635321617 0.04060630873 1.162176967 0.1995917559 0.5281130672 0.8184889555
-0.2658371031 0.04846136272 1.160611749 0.2860589325 0.5314536095 0.7950226665
-0.2714681029 0.05022348091 1.155805349 0.3559905887 0.4754877985 0.8027660251
-0.278075695 0.05871454254 1.157754064 0.420340836 0.4113528132 0.8076528311
-0.2392203063 0.06075786427 1.153427005 -0.1574537605 0.4623404443 0.86511904
-0.2383811027 0.04909592494 1.158563018 -0.1155532673 0.5783217549 0.8033197522
-0.2316336632 0.07389011234 1.152999997 -0.1658447832 0.3994702697 0.8947690725
-0.2340679616 0.06772132218 1.152873278 -0.2244518101 0.422844857 0.8723928928
-0.2663838267 0.06431596726 1.156301975 0.3609051406 0.396699518 0.8334328532
-0.2527024448 0.06447752565 1.153722405 0.1266473532 0.4202794135 0.8669812083
-0.259667486 0.06187833846 1.156208396 0.2487414777 0.4260083139 0.8426354527
-0.2474443316 0.06131988391 1.154231191 0.04024390504 0.4520264864 0.8705790043
-0.2722719014 0.06409425288 1.156847954 0.4140000045 0.3488150239 0.8370220065
-0.2704854906 0.06912402064 1.154604197 0.4099518359 0.3426828384 0.8434541821
-0.2449670136 0.05880128592 1.146155357 -0.06362651289 0.4634830058 0.8772702813
-0.2400338352 0.06824529916 1.142411709 -0.1355912685 0.4151329994 0.8765674233
-0.2447240502 0.06444651634 1.143520832 0.04701626301 0.4194551408 0.8973392248
-0.236393705 0.06618386507 1.146704555 -0.2670785189 0.4205207527 0.8642169237
-0.2496222854 0.06091913953 1.143934608 0.07805736363 0.4199786186 0.9032094479
-0.2434918284 0.07449582964 1.138507366 -0.04108610749 0.393717438 0.9156210423
-0.2535124719 0.06644655764 1.142151117 0.09386900812 0.3517211378 0.9298714995
-0.2482197583 0.06778597087 1.141672254 0.07115735114 0.38380301 0.9178343415
-0.211761266 0.07959358394 1.145740509 -0.06031824276 0.3756857216 0.9239451885
-0.2135902941 0.07713178545 1.140608072 -0.06928174943 0.4148000479 0.9057341218
-0.21939376 0.07926275581 1.144380927 -0.07727371901 0.401700139 0.910995841
-0.2242648304 0.07870008051 1.142804027 -0.08881776035 0.4231540561 0.9005023837
-0.2042220384 0.07670301944 1.140592575 -0.05018735677 0.3943907022 0.9163346291
-0.2189018577 0.06864013523 1.142878652 -0.191059202 0.4113691151 0.8820926547
-0.2203828692 0.07688715309 1.139650583 -0.08498027921 0.4362276495 0.8948143125
-0.2114394307 0.06965365261 1.140864611 -0.1509170085 0.4086926579 0.8901371956
-0.2092211992 0.07422593981 1.138431907 -0.08132826537 0.4201958776 0.8997671008
-0.227631703 0.07162329555 1.143444657 -0.1817423403 0.4265047014 0.8797473311
-0.1976229399 0.07672101259 1.12848413 0.2266566008 0.4130534232 0.8654783964
-0.1922355741 0.07177083939 1.135762811 -0.04953442141 0.4002773762 0.9090303779
-0.2074769437 0.0751619637 1.131610513 0.1571589261 0.4162783921 0.8572832942
-0.1981565803 0.07381595671 1.133022547 0.07016612589 0.4078746736 0.8840274215
-0.2005679011 0.07079542428 1.137875438 -0.08973419666 0.4036551118 0.8997919559
-0.2243001163 0.06784744561 1.144155264 -0.2134255469 0.4129533172 0.874622345
-0.2283347249 0.08117363602 1.148821712 -0.09893862903 0.3909355104 0.9130527377
-0.233031109 0.07168598473 1.148643732 -0.2191382647 0.4028954506 0.8830302358
-0.2295410335 0.07739127427 1.142534614 -0.116085887 0.4366186261 0.8901124001
-0.232997179 0.07013934851 1.142964959 -0.2578659356 0.4121989012 0.8593171835
-0.2278090417 0.07339210063 1.138384819 -0.1769925356 0.4100364149 0.85525316
-0.2131753564 0.07428640127 1.133458257 0.1099790707 0.417704463 0.8531375527
-0.1704270095 -0.02228924632 1.260655046 0.0371635519 -0.01010807417 0.9941384196
-0.1650827378 -0.01844048128 1.259605527 0.08119557053 -0.118257232 0.9848334789
-0.1789395958 -0.02418421954 1.26394093 0.01617411897 -0.04341335967 0.9945969582
-0.167677626 -0.01833845675 1.264385223 0.1440974772 -0.1212252155 0.9797823429
-0.1743296236 -0.02171573229 1.264531255 0.07604149729 -0.07459909469 0.9879650474
-0.1838998348 -0.02635511942 1.265427709 -0.01332708914 -0.007964965887 0.9989533424
-0.1181240305 -0.001492048847 1.267858982 -0.3142647743 0.02728419192 0.947339654
-0.1241710931 -0.01112574991 1.272402048 -0.3297156692 0.06335762143 0.9419518709
-0.1193722785 -0.005314933136 1.272366524 -0.3297156692 0.06335762143 0.9419518709
-0.1291465908 -0.01431008335 1.267342806 -0.2913739979 0.02966606617 0.94777596
-0.138003096 -0.02074618265 1.26265645 -0.1404911727 -0.1332194954 0.97107476
-0.1350792646 -0.01786851697 1.266168594 -0.2080880553 -0.039864216 0.9603812099
-0.175337702 -0.02026679926 1.270317554 0.1056891531 -0.07623660564 0.9844179153
-0.1769530773 -0.02479583025 1.27124846 0.04032024741 -0.02410639264 0.9920386076
-0.1694628298 -0.02330780961 1.267973542 0.1486018151 -0.05086604506 0.9832196236
-0.183835119 -0.02194528654 1.274032354 -0.01705642417 -0.0459846966 0.9944096804
-0.176738739 -0.03051589429 1.269489288 0.0309256725 -0.008861544542 0.9965459108
-0.1699929535 -0.03695569932 1.266699791 0.06580168009 0.007013400085 0.9950678349
-0.1705451161 -0.03006813116 1.261921525 0.033355169 0.008519603871 0.9971562624
-0.2570039928 0.07961297035 1.139430523 0.267730087 0.3297356367 0.8995935917
-0.2602671087 0.07609602809 1.141828656 0.2649160922 0.3167829812 0.901245892
-0.25782004 0.06900133193 1.142447591 0.1650489122 0.3297692537 0.9224635959
-0.2644727826 0.06389161944 1.148675799 0.3957772851 0.3320012987 0.8490344286
-0.2596014738 0.06469675899 1.145498633 0.2457839847 0.3370454311 0.8935383558
-0.2614892721 0.05967355892 1.146241784 0.2662900388 0.3890869021 0.863637805
-0.2558030784 0.0568161495 1.144722939 0.08051808923 0.4240407348 0.8962367773
-0.2613120973 0.05337521434 1.145546317 0.2108810544 0.4613694251 0.8479926586
-0.267601192 0.07335442305 1.146580338 0.371963501 0.3151698411 0.8644615412
-0.2633726895 0.06940826774 1.146178842 0.314357847 0.317463696 0.8811741471
-0.2690909505 0.06145935506 1.147225261 0.3588347733 0.4299786389 0.8166345358
-0.2695334852 0.05514618382 1.149756789 0.339977622 0.4515329599 0.816621244
-0.2723499835 0.06058097631 1.152323961 0.3709266782 0.3864530325 0.8409814835
-0.2705046833 0.06682315469 1.147464037 0.3814120293 0.3902053535 0.8283782601
-0.2741370797 0.06918140501 1.150754452 0.4108299613 0.3491759896 0.8406226039
-0.2766879797 0.06438241154 1.15356946 0.4154923558 0.371388346 0.8287367225
-0.2148494422 0.1013878509 1.139215112 0.3213447332 0.1325520575 0.9161480069
-0.2171303034 0.09668610245 1.140457511 0.3392171562 0.1572900265 0.9178463817
-0.1984768659 0.08056911081 1.137907863 0.1053358465 0.3200595975 0.9211232066
-0.2083181143 0.08548273146 1.142893076 0.1384098381 0.2917094529 0.930279851
-0.219977051 0.09280861169 1.14516139 0.2723252773 0.2114681751 0.9300019741
-0.2130251825 0.08853062242 1.143590808 0.1981552243 0.2565164566 0.9295006394
-0.2030263543 0.0822378695 1.141669631 0.08267838508 0.3256422579 0.9298129082
-0.1942390651 0.08665888757 1.119475603 0.1694867462 0.2439123988 0.9502832294
-0.1926045418 0.09366327524 1.118696094 0.1398491561 0.1273067743 0.9756836295
-0.1926229894 0.1009449735 1.118258595 0.1473559141 0.02489219792 0.9840573668
-0.1792152822 0.1041961536 1.124173164 -0.07949133962 0.03100348637 0.9859991074
-0.1736129522 0.1026306674 1.126128435 -0.1856879294 0.04779227823 0.9631498456
-0.1679363847 0.093527399 1.127977133 -0.2569214404 0.1405392438 0.9446743727
-0.1682828665 0.0997595191 1.127937913 -0.2757142484 0.07715120912 0.9431889057
-0.1735398173 0.09590382874 1.126226902 -0.1858334988 0.1194425151 0.9603965282
-0.1802466214 0.09506909549 1.124090314 -0.08672779799 0.1317274719 0.9807004333
-0.127577588 0.07971407473 1.144902229 -0.5459589958 0.2156705111 0.8095090389
-0.1299162656 0.08411929011 1.142373919 -0.5528433919 0.2038425505 0.8078953624
-0.1278525293 0.09030417353 1.144690633 -0.5553525686 0.1812814474 0.8113334179
-0.1216024831 0.08334860951 1.147962689 -0.5529470444 0.2029108107 0.8080373406
-0.1278414428 -0.0007314796094 1.274060965 -0.3092431128 0.01556004956 0.9490907192
-0.1275660545 -0.006656008773 1.274069428 -0.3297156692 0.06335762143 0.9419518709
-0.1174040809 0.002219846938 1.275499105 -0.3167462349 0.03307767957 0.9464743733
-0.1173485965 0.006259492133 1.272472501 -0.3032317758 0.001525293803 0.9511868358
-0.1232322007 0.005952958018 1.272711992 -0.2929156721 -0.0225599017 0.9547840953
-0.117952466 0.01170630753 1.268309355 -0.2843208909 -0.04262625426 0.9577810764
-0.1308727115 0.003902247176 1.273057222 -0.2848404944 -0.0414131023 0.9575999379
-0.1224002242 0.00151371758 1.275766015 -0.3094330728 0.01600352302 0.9490244389
-0.1269408464 0.007590141613 1.268946648 -0.2843208909 -0.04262625426 0.9577810764
-0.1446376443 -0.02270101942 1.260361433 -0.06948894262 -0.1742922366 0.9815927148
-0.1254632324 0.002895185957 1.267528176 -0.2778432071 -0.0476161465 0.9586319327
-0.1293341219 -0.001898703398 1.266016603 -0.2573520243 -0.06340099126 0.9613234401
-0.1334575862 -0.006532709114 1.264840603 -0.2454598844 -0.07256176323 0.962885499
-0.1351386309 -0.01547273248 1.26019311 -0.1557034254 -0.1358349025 0.9728271961
-0.121200189 -0.006536697038 1.266712189 -0.3011392951 0.02998114191 0.9469342828
-0.1303291172 -0.01340215839 1.262263179 -0.2030378133 -0.08781375736 0.9636130333
-0.1249372587 -0.01075749286 1.264706731 -0.258426398 -0.02917093597 0.9531552792
-0.1396318674 -0.01091364119 1.262374043 -0.1551508904 -0.1330318898 0.977586925
-0.1560520977 0.1002591401 1.124078512 -0.3923959136 0.05537051708 0.9037637711
-0.1634429246 0.09728685766 1.12073791 -0.2679949701 0.09533444047 0.9467066526
-0.1609701216 0.1079817936 1.123150349 -0.2885679603 0.07158117741 0.9487894177
-0.1541844606 0.1040856019 1.127305508 -0.446067363 0.02389804646 0.8906661272
-0.1496464908 0.1022021621 1.130292058 -0.5118393302 0.02898304164 0.8555344343
-0.1515230536 0.09869924188 1.12660706 -0.4898358583 0.02575280704 0.8681713343
-0.1462854296 0.09187743068 1.128635406 -0.5347925425 0.06007866561 0.8399677277
-0.1427556723 0.08790849149 1.132070899 -0.5412598252 0.1132075563 0.828175962
-0.1356396228 0.0888902247 1.138543606 -0.5498300791 0.1529650986 0.8182379007
-0.1435572058 0.09610252082 1.131453991 -0.5405529737 0.05753485486 0.8376774788
-0.1388868988 0.09583612531 1.135570645 -0.5456954241 0.08790917695 0.830739677
-0.1287152469 0.09603321552 1.144845128 -0.5581700802 0.1528553367 0.8150485158
-0.1390256435 0.07534400374 1.146141887 -0.5140697956 0.290571332 0.8040552735
-0.1403579265 0.08176270872 1.143328071 -0.5567384362 0.2190682441 0.7986545563
-0.1438563317 0.07549592108 1.141491771 -0.4992389977 0.3277021646 0.800519526
-0.1463139355 0.07872921228 1.138029575 -0.5210148692 0.2736736834 0.8070110083
-0.1356104165 0.07981009781 1.148575306 -0.5526913404 0.2029991001 0.8069104552
-0.1359216571 0.08519533277 1.149297595 -0.5412726402 0.1456824094 0.8216331601
-0.139182508 0.0868903473 1.145149827 -0.5565313697 0.1501585692 0.8120976686
-0.1384873092 0.09457541257 1.146867156 -0.5376710296 0.07540638 0.8343558311
-0.1471759826 0.09354194999 1.139606953 -0.4940247834 0.1056811586 0.8519632816
-0.1424862593 0.09940141439 1.143936753 -0.5298300385 0.03075047769 0.8439933062
-0.1524624676 0.0920881778 1.135923386 -0.4387987852 0.1325565875 0.8776535392
-0.1430508345 0.08759889752 1.140836239 -0.5575413108 0.1638338268 0.8089639544
-0.1429301798 0.09345017374 1.142272592 -0.5420131683 0.09817570448 0.8272461295
-0.15825665 0.08913811296 1.131911278 -0.37469396 0.1756188124 0.9037082791
-0.1493048519 0.0855820477 1.137033463 -0.4793435931 0.1960879713 0.8426010609
-0.1541128457 0.08609512448 1.134419322 -0.4170137644 0.1985940188 0.8740054369
-0.1588540077 0.08307498693 1.132035732 -0.3438084722 0.2365457565 0.9002836943
-0.1992305666 0.110665299 1.127588749 0.2805355191 0.008193874732 0.9376611114
-0.2048541903 0.1104815379 1.128973365 0.3672488928 0.02961300686 0.9164558053
-0.1898520291 0.1125603169 1.123885751 0.1371619403 -0.04642895237 0.9833595753
-0.1948179454 0.1127650142 1.123835921 0.223063305 -0.05015852675 0.9701361656
-0.2220683396 0.09442587942 1.150326848 0.157825619 0.2589313984 0.9459074736
-0.2249653935 0.1024364233 1.143897891 0.2202880234 0.2975554168 0.9199952483
-0.2115148902 0.1093717515 1.133169055 0.3770105541 0.09259242564 0.9116547704
-0.2211059928 0.09836786985 1.146390676 0.2039226592 0.2422647625 0.935264945
-0.2163386196 0.1074440628 1.136502266 0.3264698088 0.1657727808 0.9130147099
-0.1799646467 0.07167880982 1.128468394 -0.0987816751 0.3953856826 0.9071713686
-0.1907152086 0.07625999302 1.125896454 0.05594272912 0.3800798953 0.9171518683
-0.1852855533 0.07400082797 1.127178311 -0.02210693806 0.3875486553 0.9123381972
-0.1831781864 0.07184285671 1.132878304 -0.04534051567 0.3988643885 0.9133858681
-0.1760454625 0.07779148966 1.126370072 -0.1220975742 0.3778401911 0.9169935584
-0.1941826493 -0.0278684441 1.263465643 -0.0564785637 -0.1651275009 0.9806858301
-0.2007831037 -0.02753694914 1.263562918 -0.07774510235 -0.258965373 0.961548388
-0.197449863 -0.02544540353 1.26789701 -0.07053084671 -0.205930993 0.9698892236
-0.1984146088 -0.02441401221 1.277606606 -0.08202938735 -0.2317855656 0.9679153562
-0.1951448321 -0.02394307964 1.272994995 -0.07240326703 -0.1693934947 0.9758089781
-0.1915449798 -0.02270987257 1.27753973 -0.06852683425 -0.1171322316 0.9863357544
-0.1909017563 -0.02945045009 1.275643587 -0.0714064762 -0.1340790093 0.9836497903
-0.1946945041 -0.02690137178 1.279891133 -0.07923439145 -0.1900414079 0.9761869311
-0.1771024615 -0.04116008058 1.266116619 0.02034490183 -0.0700661242 0.9968384504
-0.1740483195 -0.03346479312 1.263225913 0.01722116582 -0.01444454119 0.9971854687
-0.1736283898 -0.02610087395 1.259584785 0.007868656889 0.0005897256779 0.9915124774
-0.1788170636 -0.02997711301 1.261368155 -0.02261522412 -0.01486678608 0.9927014709
-0.1855781525 -0.03281052411 1.261261344 -0.04714982957 -0.08733379841 0.9840948582
-0.1903123856 -0.03017255478 1.258999944 -0.05028260872 -0.1700864732 0.9722191691
-0.1807599515 -0.02573845163 1.258999944 -0.01463232283 -0.06927146018 0.9841148257
-0.183506906 -0.03806114569 1.26516068 -0.04816127941 -0.04781856015 0.996001482
-0.1883815974 -0.03684394807 1.263388276 -0.06897214055 -0.09594725072 0.986867547
-0.1937100589 -0.03643215075 1.261066198 -0.07564400882 -0.1838368326 0.9726117253
-0.1895101517 -0.02385956049 1.271614909 -0.05411401391 -0.08617980778 0.9925372601
-0.1220211908 0.07701085508 1.150637984 -0.5452991128 0.207343325 0.812043488
-0.1442644894 -0.01445882395 1.259962082 -0.09043040872 -0.1684174985 0.9805309176
-0.1399680376 -0.01730612852 1.259000063 -0.1123334765 -0.1654097885 0.9793260098
-0.2583298087 0.08534048498 1.138000011 0.2805682123 0.2189872563 0.9307787418
-0.2512899041 0.07953839749 1.147742629 0.2160006166 0.3388812542 0.8914176822
-0.2566147149 0.0781640783 1.147329569 0.2816163003 0.337690562 0.8800622821
-0.2439511865 0.08182409406 1.147570848 0.1270591766 0.3370161951 0.9099710584
-0.2584383488 0.08949413151 1.143584609 0.2667268515 0.2046755552 0.9198368788
-0.2611100674 0.08352636546 1.145153642 0.3156374097 0.2631536126 0.8942245841
-0.2615875602 0.09451325238 1.144761324 0.2684529722 0.1403612792 0.9279133081
-0.2634970844 0.08941054344 1.144865036 0.3097222149 0.1961818635 0.9097911119
-0.2624834776 0.09973845631 1.14281249 0.2560476959 0.08936657757 0.9477974176
-0.2668121457 0.09216293693 1.142001033 0.3329569995 0.1754684746 0.9215882421
-0.2584999204 0.1036994159 1.144348502 0.1978223175 0.04062705114 0.9607006311
-0.2465277761 0.1022624373 1.146887779 0.06580133736 0.09071603417 0.9686082602
-0.2498195022 0.08485496789 1.144024849 0.1924636662 0.2870768309 0.9182606339
-0.2559755147 0.09874489158 1.142755628 0.2020243853 0.106097579 0.9531952739
-0.2511078417 0.09480812401 1.144378901 0.1599775702 0.1660314202 0.9451568127
-0.2454252988 0.09351697564 1.146564603 0.0947176367 0.1969923526 0.9449579716
-0.2481490374 0.08960106224 1.145118117 0.1481928974 0.2356781512 0.932448864
-0.235764429 0.08719068766 1.149917245 0.003989404999 0.2983912528 0.9331371784
-0.1971758008 0.08339666575 1.132464767 0.2362309098 0.2434123755 0.8950579166
-0.2095408887 0.08972059935 1.136801481 0.3233590126 0.1912966669 0.9050830007
-0.1918129027 0.07819316536 1.133737803 0.1080662906 0.3211562335 0.9082445502
-0.2018555403 0.08464027941 1.135579705 0.2269778997 0.2494526953 0.9070450068
-0.2152517289 0.09147056192 1.140304923 0.3206003606 0.1934616268 0.9180557132
-0.213504374 0.09505876899 1.13573277 0.4155554175 0.1269454509 0.8971840739
-0.2110739499 0.1037053019 1.132472396 0.4318339527 0.0682945475 0.8965372443
-0.1967848837 0.08290395886 1.122025847 0.2286188006 0.3209391236 0.9095852971
-0.20139575 0.08405309916 1.124715924 0.337067306 0.2674637139 0.8939560056
-0.1801799238 0.09892527014 1.118843794 -0.08331123739 0.09976303577 0.9840459824
-0.1770887971 0.1090173572 1.118914843 -0.1089786664 0.03573317453 0.9866830707
-0.1751312464 0.1024862975 1.118961573 -0.1555203497 0.09094441682 0.9781664014
-0.1736469269 0.09753040224 1.118997097 -0.1908180565 0.1328350157 0.9717056751
-0.186672911 0.1083574146 1.118875265 0.06873223931 -0.02818588354 0.9917020798
-0.1882077456 0.1029441729 1.118556023 0.06408047676 0.03304814547 0.9940778017
-0.1729574203 0.08940789849 1.121801376 -0.1729660928 0.2256032079 0.9525274038
-0.1685930938 0.08156749606 1.132858634 -0.2556380033 0.2578158081 0.9216431379
-0.1693426371 0.08580710739 1.13015902 -0.2274166644 0.2396379858 0.9281049967
-0.1790437251 0.07793859392 1.132051349 -0.09469850361 0.337469101 0.9235178232
-0.1739121825 0.08102874458 1.132290006 -0.1709461361 0.2876724005 0.9214702845
-0.1761582047 0.08472829312 1.123236418 -0.1255291402 0.295283854 0.9367506504
-0.1863794774 0.08411046118 1.121121049 0.03838649765 0.2956030071 0.9421599507
-0.1802110523 0.08743533492 1.121149659 -0.06784646958 0.25546363 0.9481139183
-0.1785658002 0.09326440096 1.119068027 -0.1084228456 0.177878812 0.9651354551
-0.1524236649 0.08416588604 1.126831412 -0.4401418567 0.1878320724 0.863163352
-0.1559703052 0.07892183959 1.127779603 -0.3800703585 0.2608220279 0.865804255
-0.1588605046 0.07365840673 1.129248738 -0.3311816156 0.3319523335 0.8656799197
-0.1450053155 0.0810437873 1.133690357 -0.4968597591 0.2162372768 0.8347810507
-0.1500759125 0.07853058726 1.132999778 -0.4537476301 0.2563683689 0.8474613428
-0.1386637688 0.08216893673 1.136074543 -0.5440152287 0.191681236 0.8156391978
-0.1525105834 0.08943205327 1.125179768 -0.4429783821 0.1318951994 0.8795509934
-0.1579593569 0.08662839234 1.125769138 -0.3696729541 0.1923902333 0.9064640999
-0.1626356095 0.09181553125 1.122446775 -0.2843414545 0.1542588621 0.9391265512
-0.1952117682 0.1091575846 1.119808674 0.2215244025 -0.04414559156 0.9710869193
-0.1896684766 0.1052626744 1.124905467 0.1105917245 0.02743955702 0.9699757099
-0.201735884 0.0989061743 1.128514171 0.3466494679 0.066211164 0.9083651304
-0.1973412484 0.1049662456 1.126998782 0.2493256927 0.03568297997 0.9369608164
-0.1945077777 0.1003079489 1.126481891 0.2125515044 0.0535274446 0.9413126111
-0.2077576071 0.0953489095 1.130335569 0.4656128287 0.08724671602 0.8769872785
-0.185147807 0.1072302684 1.123801708 0.03645794839 0.005508053582 0.9906870723
-0.1882472336 0.1000745595 1.124668717 0.0841447562 0.0656395629 0.9697148204
-0.1833929121 0.09971246868 1.123238921 -0.01917601749 0.08015761524 0.992020309
-0.2264943868 0.09837217629 1.147904277 0.1619402766 0.2972948551 0.9395042658
-0.1618664861 -0.02280087024 1.259764433 0.07388641685 -0.06451570988 0.9878405929
-0.1655229181 -0.02707488462 1.26225853 0.06459985673 0.0412957035 0.9946457148
-0.2008852214 0.08887034655 1.130430341 0.3183189631 0.1810438931 0.8895611167
-0.1858992875 0.07636418194 1.132010102 -0.003150886158 0.3695599139 0.9204810262
-0.1890700907 0.08660516888 1.126853228 0.04717526212 0.2909116745 0.9266203046
-0.1958488971 0.09409034252 1.126913071 0.2211185694 0.1167588159 0.9299672842
-0.1872973591 0.09274343401 1.124751091 0.03457333893 0.1695909202 0.9618014693
-0.179852888 0.08674987406 1.126201868 -0.1119210944 0.3003349304 0.93907094
-0.173495397 0.09063982964 1.126927733 -0.1846084744 0.2014022619 0.9472736716
-0.1635184586 0.09128850698 1.129408002 -0.3129195273 0.162983641 0.9313115478
-0.1793616116 0.08150803298 1.128271103 -0.08517873287 0.3304002583 0.9371080995
-0.1914487183 0.08129216731 1.122531295 0.0919617638 0.327187717 0.9366275668
-0.1839554757 0.07971540838 1.124562025 -0.01633794606 0.3505190015 0.9309063554
-0.183960408 0.0939328298 1.118835449 -0.02746552974 0.1572748721 0.9757787585
-0.1892372668 0.0895703584 1.11890471 0.06847256422 0.2152304798 0.9639766216
-0.1586774439 -0.03183372319 1.267251372 0.0882351771 -0.09987062216 0.9846151471
-0.1516488194 -0.02657141909 1.262986898 0.01440159883 -0.1639307737 0.9827353954
-0.1560032964 -0.0286440514 1.263939023 0.03454320505 -0.08862356097 0.9866853356
-0.164187178 -0.02807321027 1.267602205 0.1245551631 -0.06509305537 0.9842552543
-0.154351145 -0.02080921084 1.259000063 0.03719494864 -0.1726626158 0.981621325
-0.1547582746 -0.01517273765 1.262298703 -0.001341930474 -0.182140097 0.9784711003
-0.1483037323 -0.01148704346 1.262235522 -0.07777822763 -0.1398617178 0.9803484082
-0.1588638127 -0.01599553227 1.259133697 0.04639271647 -0.1674170643 0.9815838337
-0.1368213147 -0.01259027421 1.271172404 -0.2494046092 0.01013874914 0.9511505961
-0.1467389911 -0.01842863858 1.270011306 -0.1018284634 -0.03739180043 0.9661611319
-0.1512307674 -0.02240411378 1.26911509 -0.02371041477 -0.08280022442 0.9728782773
-0.1548841298 -0.01792170294 1.268646002 -0.01857132465 -0.05102781206 0.978376627
-0.1571839303 -0.02273965627 1.268093348 0.04248487949 -0.09905359894 0.9818032384
-0.1418695152 -0.01443700865 1.270972133 -0.1841073334 0.009002071805 0.9588776827
-0.150832504 -0.0158294905 1.258999944 -0.05540807918 -0.1740000099 0.983151257
-0.1323025972 -0.008822197095 1.272346139 -0.3069202602 0.04315494001 0.9444655776
-0.1505402029 -0.01534115802 1.265456676 -0.0667507574 -0.169697836 0.9709496498
-0.1430478394 -0.02154454961 1.267714381 -0.113399215 -0.09480637312 0.9695487618
-0.1506625414 -0.02734638751 1.268232703 0.008863086812 -0.1364645511 0.9745796323
-0.1389194876 -0.00782897044 1.269892097 -0.2115488797 -0.05559938774 0.9573248625
-0.1334767342 -0.002651068149 1.272004843 -0.273003906 -0.01879678667 0.9534555078
-0.143675074 -0.004870581441 1.270501018 -0.1427587271 -0.0593291074 0.9712861776
-0.1466115117 -0.008156795055 1.268313766 -0.1079769507 -0.07896962762 0.9769037366
-0.1599953324 -0.0161028374 1.267490864 0.04115029797 -0.07869433612 0.9884857535
