# .PCD v0.7 - Point Cloud Data file format
VERSION 0.7
FIELDS x y z normal_x normal_y normal_z
SIZE 4 4 4 4 4 4
TYPE F F F F F F
COUNT 1 1 1 1 1 1
WIDTH 512
HEIGHT 1
VIEWPOINT 0 0 0 1 0 0 0
POINTS 512
DATA ascii
-0.2183602452 -0.05528140068 1.016248345 0.2381739616 0.1857082397 0.9526542425
-0.2120607644 -0.05253676698 1.008683801 0.2597994208 0.2273217291 0.9378097653
-0.2161260545 -0.0578055121 1.010025501 0.2472718507 0.1993122548 0.9472887516
-0.2203123868 -0.06307101995 1.011911869 0.237001285 0.1707211435 0.95582968
-0.2227671146 -0.06917178631 1.012979865 0.2350851595 0.1673127413 0.9567344785
-0.198480323 -0.0548404865 1.008984566 0.3018327653 0.2582675219 0.9149169326
-0.2128346115 -0.05538932607 1.014503479 0.249226585 0.2054324597 0.9442257285
-0.2054131776 -0.05034528673 1.008614302 0.3256470859 0.2684709728 0.9029262066
-0.1785704643 -0.09487193078 1.073894978 0.5792390108 0.6938462853 -0.3765615821
-0.198890537 -0.1243522987 1.034741998 0.1662925333 0.3405430317 0.8212270737
-0.1848944128 -0.1178548709 1.047716618 0.4111051559 0.4207399786 0.3545455337
-0.1798610389 -0.114836961 1.053704023 0.5117322206 0.4509511292 0.1657701433
-0.1698510796 -0.1101938114 1.062976003 0.6867512465 0.508300066 -0.1678822041
-0.1797762811 -0.1114359871 1.060302734 0.5753178596 0.4581976831 0.05959785357
-0.1904292703 -0.1194153428 1.04454267 0.3329323828 0.3910548091 0.5080789328
-0.172810182 -0.1076471955 1.067836642 0.7074167728 0.4992290735 -0.189737007
-0.1903057247 -0.1145558581 1.048939943 0.3801949322 0.4287607372 0.392596215
-0.1842640042 -0.1016970426 1.059674501 0.5470767617 0.5616681576 -0.0143854674
-0.1796238571 -0.09412487596 1.067388177 0.6668176651 0.6377151012 -0.2845162451
-0.1819522679 -0.09756568074 1.063600183 0.6080447435 0.6036099792 -0.1555766612
-0.1744123399 -0.1005684584 1.072607756 0.7466197014 0.554230094 -0.3125314713
-0.1870133132 -0.1129945517 1.053535104 0.4512137473 0.4396542609 0.2711417079
-0.1848147362 -0.1074829549 1.057633162 0.5149866343 0.4974229932 0.1077087969
-0.1779249161 -0.1031866968 1.067485929 0.6673671007 0.5318457484 -0.1654073447
-0.1961317956 -0.1172799766 1.040817738 0.2546656132 0.4099212289 0.6068025231
-0.06531251222 -0.1589030027 1.081018925 0.005669049453 -0.08858146518 0.9954935908
-0.06322699785 -0.1518166214 1.084437847 0.0004548750585 -0.08157865703 0.9964212775
-0.06999906152 -0.1528845131 1.084378481 0.01616580971 -0.09170459211 0.9954776764
-0.1226793379 -0.00719734095 0.9837884307 -0.2113146782 -0.1636896729 0.9630513191
-0.1633338183 -0.009847463109 0.9818318486 0.100365743 -0.2601576746 0.9582125545
-0.1710968465 -0.02252396196 0.9781782627 0.252707392 -0.1590259969 0.9489575624
-0.1668761522 -0.02225993201 0.9821345806 0.157039851 -0.1595986485 0.9675440192
-0.1672958285 -0.0168349985 0.9796746969 0.1795507669 -0.2050894648 0.9537878633
-0.1957733929 -0.06877048314 0.9983073473 0.1727235019 0.1039517522 0.9755632281
-0.1832363904 -0.06488505006 0.9859787822 0.2329561561 0.06473277509 0.9657933712
-0.1993807256 -0.0655054301 1.001086831 0.1817382872 0.09535297006 0.9766824841
-0.1761492789 -0.0259042643 0.9789751172 0.3416295052 -0.137199536 0.9260260463
-0.1765951514 -0.02310645021 0.9866900444 0.3835833669 -0.140928179 0.8791824579
-0.1705446541 -0.01777259074 0.9839336276 0.2499818951 -0.1912193149 0.9384718537
-0.1805971712 -0.02720071189 0.9888653159 0.4800766706 -0.1041915417 0.8338824511
-0.1736358702 -0.02981280163 0.9844373465 0.3374615312 -0.09918381274 0.9261183739
-0.1657555401 -0.09734003991 1.035728693 0.2288400829 0.3534691632 0.6185473204
-0.1649326682 -0.1007259786 1.031525612 0.1546845734 0.3192659318 0.7261918783
-0.1672222614 -0.09104587883 1.044041634 0.3736448288 0.419126749 0.4097038507
-0.1652132124 -0.1028346196 1.022609591 0.0208389014 0.2717929184 0.9033952951
-0.1682936698 -0.09103523195 1.035565495 0.2557225525 0.3839586079 0.5578493476
-0.1675940305 -0.09655747563 1.023608208 0.06376261264 0.3069729507 0.8226566315
-0.2135085315 -0.08295474946 1.017191172 0.1915857494 0.2655887902 0.9426324964
-0.2210000008 -0.06943996996 1.019666672 0.2335355282 0.2123168409 0.9470647573
-0.2166880965 -0.077451244 1.018251181 0.2094115764 0.2437244207 0.9443249702
-0.2234157324 -0.08535403758 1.021275163 0.2489182502 0.2601457238 0.9320442677
-0.2113274038 -0.07478612661 1.015986681 0.1782643944 0.2422863692 0.9511633515
-0.2151596993 -0.06911017001 1.017302513 0.1998372376 0.2190034837 0.9524264932
-0.2230356187 -0.07892757654 1.020865321 0.246138826 0.2400418073 0.9375905395
-0.22108832 -0.06061426178 1.019349456 0.2332368493 0.1838980764 0.9541493654
-0.1710934043 -0.08629442751 1.04586947 0.4320012629 0.4536353946 0.320309639
-0.1688638777 -0.08084446937 1.06388855 0.6973818541 0.552131176 -0.04055266455
-0.1701039374 -0.08432265371 1.052536845 0.5292623043 0.4896315038 0.187868759
-0.172290504 -0.08184374869 1.058138609 0.6281357408 0.5281181931 0.05668003485
-0.1757981628 -0.07962113619 1.061907053 0.7062322497 0.55957371 -0.04501813278
-0.159089908 -0.09183140844 1.078231692 0.7835398316 0.5928095579 -0.1860092431
-0.1648178399 -0.08410336822 1.073282003 0.788267374 0.5897240043 -0.1753279567
-0.1713333875 -0.08479501307 1.07141304 0.7925885916 0.578649044 -0.1918390095
-0.175622955 -0.08984661102 1.073833227 0.7783934474 0.5880734921 -0.2179137021
-0.177739948 -0.08483493328 1.071570396 0.7804636955 0.5922550559 -0.1968759596
-0.1813155711 -0.08968387544 1.072227001 0.555588305 0.7231089473 -0.3593325019
-0.178416267 -0.0789334476 1.069088817 0.7842770815 0.5956262946 -0.1715151072
-0.1726392359 -0.07808147371 1.068845272 0.7899436355 0.5908753872 -0.163616702
-0.1829411536 -0.08485826105 1.069400907 0.6176379323 0.6950408816 -0.3131490946
-0.1816319972 -0.1341206133 1.028146267 0.0638128072 0.2529837489 0.965149045
-0.1317638904 -0.01232952718 0.9798563719 -0.1296171844 -0.1663760394 0.976241827
-0.02212873101 -0.1128227115 1.080404878 0.2486493587 0.1699011922 0.9528973699
-0.06017878279 -0.1565806568 1.082604885 -0.004822634626 -0.080524683 0.9962705374
-0.07293358445 -0.1644123495 1.078641176 0.02477728948 -0.10429243 0.9938913584
-0.1607274115 -0.106508784 1.051760793 0.4962924719 0.4879371226 0.1437912285
-0.1613423675 -0.1052533537 1.042387247 0.3266674876 0.4021206796 0.434420377
-0.159396559 -0.1021491811 1.065843344 0.720541358 0.5890446901 -0.1907111704
-0.1601899713 -0.101210624 1.054346561 0.5154376626 0.4864672422 0.1559198052
-0.1599802077 -0.1039658338 1.059583902 0.6202740669 0.5435649753 -0.04005128145
-0.1620933115 -0.1058610156 1.032817364 0.1627416164 0.3229217529 0.700244844
-0.1584465355 -0.09207548946 1.069793463 0.7400891781 0.5779789686 -0.1398037672
-0.1591273546 -0.09504519403 1.063237548 0.6402981877 0.5350976586 0.0005453752819
-0.1625025719 -0.08738207817 1.066816211 0.7066346407 0.5561717153 -0.06507788599
-0.161217764 -0.09519011527 1.053609729 0.4867683649 0.4614480436 0.2466464192
-0.1615433544 -0.09188102931 1.059710264 0.5869134068 0.5048245788 0.1038755551
-0.1648233831 -0.09353162348 1.048749328 0.427444309 0.4323632121 0.3427240551
-0.1630693227 -0.1060113311 1.026952386 0.06650071591 0.2765430808 0.8555420041
-0.1614773422 -0.09903023392 1.045064092 0.350273639 0.4016994834 0.4433688521
-0.1598380953 -0.08764796704 1.07239449 0.7825219631 0.5916389823 -0.1820818633
-0.1660398394 -0.0885289982 1.056306124 0.5558015108 0.4872464538 0.1621527374
-0.1580886394 -0.0985058099 1.070415497 0.7561544776 0.6096187234 -0.2327421308
-0.1614015549 -0.0973745957 1.077919245 0.7786086798 0.5771381855 -0.2338997126
-0.1646695882 -0.1013155058 1.075590014 0.7729013562 0.5619190335 -0.2824734151
-0.1635551155 -0.1050916985 1.071201205 0.7617581487 0.5656050444 -0.3083100617
-0.02720047161 -0.1268874258 1.084989667 0.1194122434 0.15746364 0.9798002839
-0.03807479888 -0.1205554083 1.089238763 0.1198192388 0.1591257155 0.9789757133
-0.03818784654 -0.1432385892 1.086835384 0.04787428677 0.04811030999 0.997448504
-0.2201360613 -0.0899708122 1.017482638 0.2185342014 0.3017240763 0.9275896549
-0.2185625732 -0.08308825642 1.014639974 0.2291762829 0.2544018626 0.938796699
-0.2207841724 -0.0766114369 1.012340903 0.2360647172 0.1956696808 0.9512984157
-0.1619322151 -0.05731735006 0.9768822789 0.09219841659 -0.01647686772 0.9917623401
-0.1564269811 -0.05693363026 0.9764236212 0.04504145682 -0.0001895742316 0.9886696339
-0.1687523723 -0.03136539087 0.9766230583 0.2140446454 -0.1115822718 0.9653111696
-0.206130892 -0.05679593608 1.006563783 0.2343072295 0.2308787107 0.9423149228
-0.2111153305 -0.06003253162 1.00685513 0.2327970266 0.1920008659 0.9514337182
-0.2155936658 -0.07342446595 1.010274529 0.2217207104 0.1532762051 0.9628397822
-0.2149750441 -0.06691411138 1.007309556 0.2154308259 0.1401178837 0.9663404822
-0.1939079911 -0.05949692428 1.008564711 0.2435059994 0.2502144575 0.9240227342
-0.195288077 -0.06543338299 1.01021421 0.1449212283 0.1892735362 0.9696721435
-0.1811112761 -0.02025358193 0.9838389754 0.3718292117 -0.1759924293 0.9105209708
-0.1875656098 -0.02950550057 0.9900327325 0.522367835 -0.01483460888 0.8263533115
-0.1912553906 -0.03489669785 0.9924383163 0.6008520126 0.07353404909 0.7862385511
-0.01738605462 -0.08330878615 1.072079659 0.3802258372 0.2179467082 0.898847878
-0.02353143692 -0.07909673452 1.076042891 0.3802258372 0.2179467082 0.898847878
-0.02077106945 -0.0780498907 1.070671439 0.3802258372 0.2179467082 0.898847878
-0.01550237089 -0.07698117197 1.067549706 0.3802258372 0.2179467082 0.898847878
-0.1664036661 -0.1050607786 1.017540812 -0.02894010022 0.225776121 0.9737042189
-0.1663903594 -0.0904700309 1.075769663 0.7833831906 0.5874981284 -0.2016859651
-0.1705393195 -0.1026712358 1.075874209 0.7898880839 0.5211322904 -0.3195735514
-0.1730182767 -0.09627661854 1.075688004 0.7800245881 0.566205442 -0.2596611679
-0.1675326824 -0.09555500746 1.077258468 0.7813155055 0.5746327043 -0.2354885936
-0.1341194659 -0.02782644518 0.9782599211 -0.1362074316 -0.07836396247 0.9852956533
-0.1289635897 -0.01992387697 0.9784710407 -0.1597892642 -0.1218077764 0.9773800969
-0.130584389 -0.03939301893 0.9803696275 -0.1966208071 -0.0005425927811 0.9786013961
-0.1242309809 0.001046492369 0.9880226254 -0.2153491229 -0.1623303145 0.9629270434
-0.1263670921 -0.01505228877 0.9794914722 -0.1700216383 -0.1500041336 0.9730066061
-0.1379549652 -0.001185200876 0.9861281514 -0.09273334593 -0.2133064717 0.9714457393
-0.1306841075 -0.002848139033 0.9858421683 -0.1583253145 -0.1845368147 0.9689117074
-0.132015124 0.001543874037 0.9882050753 -0.1501176506 -0.1953678131 0.9682703614
-0.1430370063 -0.002102816012 0.9864808917 -0.05505707115 -0.2356759161 0.9700263143
-0.07606831938 -0.155687511 1.082978964 0.02634231746 -0.09930813313 0.9946386814
-0.07683654875 -0.1610016376 1.080159307 0.03004376777 -0.105207704 0.9939315915
-0.08403667063 -0.1638179868 1.077001214 0.03320472315 -0.110245809 0.9933277965
-0.08178178966 -0.1587777138 1.082800031 0.02560550161 -0.09813375771 0.994779408
-0.02917968482 -0.1322645247 1.086052537 0.07840441167 0.1471380442 0.9857248664
-0.03376467153 -0.1386936605 1.088529348 0.037273895 0.1142395288 0.9915742874
-0.03419068083 -0.1258548945 1.08605659 0.08459500223 0.1513127387 0.9844460487
-0.0492076166 -0.1512337476 1.081858516 -0.0003010306973 -0.05026782677 0.9986743331
-0.0522281155 -0.148577556 1.087428451 0.01359667908 -0.02899362706 0.9981771111
-0.05925803259 -0.1514407396 1.088000655 0.01385911088 -0.07022882253 0.9967561364
-0.04409313574 -0.1451905221 1.083266497 0.01133754291 0.02028853446 0.995667696
-0.03880049661 -0.1355180144 1.088276267 0.03030891344 0.1176630557 0.9921959043
-0.171877563 -0.05975071341 0.9750522375 0.2763742208 0.02815463208 0.9593235254
-0.1467946768 -0.02243010886 0.9773806334 -0.05147396773 -0.1591066718 0.9850014448
-0.1580863595 -0.01284202747 0.9805248976 0.0456832163 -0.2376383692 0.9668910503
-0.1542307138 -0.01755019091 0.9790973663 0.007267215755 -0.2017446458 0.9752476215
-0.1417805403 -0.01825996488 0.9780637026 -0.06382094324 -0.1775804609 0.9802767038
-0.1570218503 -0.008835243061 0.9843558073 0.05525568873 -0.2936208248 0.9523750544
-0.1617466211 -0.01904500462 0.9789403081 0.06610042602 -0.1850691885 0.9767689705
-0.1564429551 -0.02304933034 0.9778145552 0.005228966009 -0.1655354202 0.9832969904
-0.1624626666 -0.02566118725 0.9818463326 0.09190316498 -0.1351840198 0.9699560404
-0.1549572498 -0.02970330603 0.9770073295 -0.02150755189 -0.1188679114 0.9909009933
-0.1606900692 -0.02852812409 0.9766244292 0.05398032442 -0.1223214045 0.9890044928
-0.2042001486 -0.05728632957 1.012617707 0.2512814999 0.2135014087 0.9429405928
-0.2061820626 -0.06303299218 1.012384176 0.1823125333 0.1232866421 0.9745159745
-0.2006258816 -0.06169360504 1.010515451 0.2084097415 0.1621246636 0.9608970284
-0.1952807605 -0.07060346007 1.011451483 0.1267475784 0.1825589091 0.9528155923
-0.189269051 -0.07215603441 1.042105198 0.4858484566 0.4178899229 0.3458943069
-0.1929530799 -0.06933211535 1.024360657 0.2884004414 0.2846387923 0.6959402561
-0.1938925534 -0.07491768897 1.016332388 0.1619013697 0.2137439102 0.8588904142
-0.1922250539 -0.06799978018 1.015191436 0.172707513 0.2244634777 0.875561595
-0.191240564 -0.06945802271 1.031399846 0.3703447878 0.340244025 0.55623281
-0.1981033087 -0.08141851425 1.030690432 0.3412441313 0.3809600174 0.600990355
-0.1932647973 -0.07547722757 1.022596836 0.2374541312 0.2668680251 0.7368682027
-0.2006304264 -0.08196815103 1.020119548 0.2146910876 0.3030386269 0.8126888871
-0.1932745129 -0.0788262859 1.041953087 0.4739024341 0.4468116164 0.3671748638
-0.1926249266 -0.07610548288 1.029721022 0.3238246739 0.3279260099 0.5983116627
-0.1943956465 -0.07887809724 1.036150455 0.4041639268 0.4019008875 0.4823513031
-0.1963697374 -0.07893374562 1.025727034 0.278850317 0.3209064603 0.689091444
-0.1873942018 -0.07503233105 1.051975012 0.5903367996 0.492685467 0.1529870629
-0.1875472367 -0.07781545073 1.058536172 0.6569865942 0.5667913556 0.0008832084714
-0.1880859286 -0.08347948641 1.055693269 0.5716493726 0.5893279314 -0.04529872164
-0.1911604702 -0.07881664485 1.049639463 0.5597573519 0.5063818097 0.2003742903
-0.1854247898 -0.07757097483 1.063667536 0.7096853852 0.6042417884 -0.1210299879
-0.1948477775 -0.08416026831 1.039372087 0.4050170481 0.4694541395 0.3444530964
-0.1822395623 -0.03681011125 0.9888402224 0.5256978869 -0.009268691763 0.8321191669
-0.193799302 -0.05376636609 1.004955888 0.369858861 0.2658488452 0.8672950268
-0.1898528486 -0.06514429301 1.008864999 0.1539349705 0.2217862755 0.9490758777
-0.1896252483 -0.05896314979 1.004807591 0.2962490916 0.207455501 0.8889997005
-0.1921899021 -0.04923768342 1.000806808 0.4893417954 0.2320702821 0.8137605786
-0.1872159392 -0.06060635298 0.9887553453 0.2379036844 0.06660427153 0.966206789
-0.1805493981 -0.05813097954 0.9820099473 0.2661416829 0.05384127796 0.9604674578
-0.1937359124 -0.06376546621 0.9955354333 0.2086945325 0.0779074356 0.9722806215
-0.1592417955 -0.04003742337 0.9821280837 0.0800517872 -0.001348299906 0.972492218
-0.1639870107 -0.03639478236 0.9827657342 0.159779653 -0.03805320337 0.9575268626
-0.1661304682 -0.03031385876 0.9829161763 0.1846940517 -0.09659925848 0.9512311816
-0.1735782921 -0.03584976494 0.9842662215 0.3379903138 -0.0477383323 0.926564455
-0.180160895 -0.08302363753 1.01327455 -0.006868654862 0.2621004879 0.9452707767
-0.1785997897 -0.0787916109 1.04730773 0.5064101815 0.4671497047 0.2428305298
-0.177892819 -0.08544295281 1.017625928 0.02919827588 0.302143693 0.868922472
-0.1814005971 -0.08032511175 1.018139124 0.0874016434 0.2816313207 0.8353455663
-0.1772916913 -0.08237905055 1.038279772 0.3456436396 0.4242687821 0.4403738976
-0.1787381321 -0.08296994865 1.02427423 0.1459054649 0.3345114291 0.7242133617
-0.1776214838 -0.07892560214 1.053971648 0.5973034501 0.5117965341 0.1096634716
-0.1795864552 -0.08059669286 1.030375123 0.2540374398 0.3637275696 0.5909510851
-0.1862547547 -0.07198862731 1.015034676 0.1236291528 0.2368295044 0.8778600693
-0.181114912 -0.07650274038 1.039070845 0.4147463739 0.4039301574 0.4000955224
-0.1838669926 -0.07289365679 1.029653907 0.3174672723 0.3356650174 0.5860759616
-0.1849219799 -0.07256135345 1.022998929 0.2285026759 0.2907945812 0.7189528942
-0.1811589003 -0.075240843 1.057471275 0.6646797657 0.5314400792 0.03580982611
-0.1800431162 -0.07610408962 1.063748479 0.7428200245 0.5749228001 -0.08894834667
-0.1855869591 -0.07208947837 1.036767602 0.4049446583 0.3895879686 0.4484594762
-0.1840042174 -0.07340442389 1.04705739 0.5323758721 0.4613830149 0.2443314791
-0.1814347655 -0.03100148588 0.9821773767 0.4234802723 -0.1069116071 0.8904925585
-0.1781281084 -0.04194218665 0.9823137522 0.4242453277 0.03085933998 0.8839043379
-0.1773969829 -0.03548482805 0.9799508452 0.3604972661 -0.06847340614 0.9202453494
-0.1746707559 -0.04032429308 0.9784585834 0.3103416264 -0.02548370883 0.9429605603
-0.170504719 -0.03635429591 0.9767275453 0.271982342 -0.06559779495 0.9550592303
-0.1697425395 -0.04371633753 0.9764476418 0.2160091549 -0.001589149819 0.9721343517
-0.1699353456 -0.04884281754 0.9754661918 0.2116759419 0.01878481545 0.9726513624
-0.1763671488 -0.06836586446 1.000187278 0.07822611183 0.09677761793 0.9814724922
-0.1777064353 -0.04997273907 0.9902674556 0.4691370428 0.06909194589 0.8244667053
-0.1877308786 -0.04827317595 0.9965799451 0.5556577444 0.1595854163 0.776814878
-0.1816908717 -0.05315114185 0.9951921701 0.415982157 0.111842826 0.842243433
-0.1730886698 -0.05436418578 0.9896214604 0.3473109603 0.03375660256 0.8807967305
-0.1834924072 -0.06792303175 1.00577724 0.08904065937 0.1546396017 0.9773237705
-0.1774152219 -0.05659854412 0.9942062497 0.3172359169 0.07803668827 0.8885056973
-0.1730769128 -0.06293916702 0.9949877262 0.1524689198 0.04873769358 0.9625287652
-0.166081056 -0.05922133103 0.9875085354 0.2034834176 -0.02304606885 0.9490635991
-0.1682156175 -0.062804766 0.9913256764 0.1322861463 0.003166442504 0.9765046239
-0.1789485961 -0.06263715029 0.9991198778 0.18739447 0.102963306 0.9412242174
-0.1873882711 -0.05456858128 1.000273824 0.4110162556 0.1674693078 0.8378673792
-0.1852261722 -0.06170157716 1.003153682 0.2386516929 0.1598592848 0.9126098752
-0.1756413132 -0.07934781909 1.006821036 0.004801946692 0.1928823441 0.968960166
-0.1822068542 -0.07811745256 1.009713054 0.007835367694 0.2134604156 0.973641634
-0.1657507867 -0.08196298033 1.001072764 0.03554480895 0.1100597158 0.9709573388
-0.1637254506 -0.07695996761 0.9976429343 0.05361784622 0.070883587 0.9761190414
-0.1631805897 -0.06791579723 0.98741889 0.1087790355 -0.03900159523 0.9804226756
-0.163835004 -0.07094167918 0.993725419 0.07257758826 0.03315371275 0.9795607328
-0.1687307358 -0.08777292073 1.009200811 -0.01090342831 0.2062526345 0.9658494592
-0.16823484 -0.09244942665 1.012444258 -0.02659710497 0.2368074954 0.9637108445
-0.1708336771 -0.08252446353 1.004975438 0.009328056127 0.1692562103 0.9662957788
-0.1745579988 -0.08687082678 1.011432767 -0.02859255113 0.2497426718 0.9609469771
-0.1554438174 -0.05826953426 0.9822887778 0.05537486076 -0.03743297607 0.9916200042
-0.1503345519 -0.05548780784 0.9793812037 -0.009818190709 -0.0003859121061 0.9903145432
-0.1610987633 -0.06128625572 0.9812927246 0.1281089038 -0.09528199583 0.984991014
-0.02548581548 -0.06709031761 1.071546674 0.3802258372 0.2179467082 0.898847878
-0.01694727875 -0.05817286298 1.062405467 0.3802258372 0.2179467082 0.898847878
-0.02025062963 -0.06588512659 1.067016244 0.3802258372 0.2179467082 0.898847878
-0.01933065243 -0.0731100142 1.069751859 0.3802258372 0.2179467082 0.898847878
-0.01488180086 -0.07116872817 1.064654231 0.3802258372 0.2179467082 0.898847878
-0.1170356721 -0.005565858446 0.9896157384 -0.2327279747 -0.1592196971 0.9591398835
-0.1076018065 -0.01586298831 0.9896084666 -0.2602652907 -0.1502877623 0.9537388682
-0.1165608019 -0.01195408124 0.9909101725 -0.1953825057 -0.1720975339 0.9615832567
-0.122359477 -0.008971860632 0.9894205928 -0.1679092795 -0.1813384593 0.9651532769
-0.1277497262 -0.008264197037 0.9874942899 -0.1386643648 -0.1919222921 0.9682452679
-0.173732549 -0.1347933263 1.027759433 0.05585858226 0.2484713942 0.9669889212
-0.1705513299 -0.1318449825 1.02345109 0.04926205054 0.2534956336 0.9660422206
-0.163779512 -0.1295734048 1.019410968 0.04101816565 0.254542321 0.966175437
-0.1613367796 -0.1193159819 1.038004637 0.2786842585 0.3691011071 0.531121552
-0.1628673375 -0.1164238378 1.049574614 0.4753717482 0.4691098332 0.2069978267
-0.1641105413 -0.1229311153 1.035374522 0.2372989655 0.3446581066 0.6216198802
-0.1588664353 -0.1194621921 1.031378746 0.1643452644 0.3126996756 0.7081570029
-0.1590378284 -0.1156437844 1.041985393 0.3433459699 0.405056864 0.4043808877
-0.1624089926 -0.1248794943 1.025887609 0.07554596663 0.2628987134 0.8849848509
-0.166067794 -0.1225955635 1.041068435 0.3199719191 0.386613965 0.4875841737
-0.1688018143 -0.129363507 1.029885888 0.1287356615 0.2852372825 0.8304860592
-0.1691161692 -0.1275371015 1.035416484 0.2082104683 0.3272286952 0.6906806231
-0.1673489511 -0.1203743368 1.049941421 0.4404344261 0.4501845241 0.2771739662
-0.1731249243 -0.1320289373 1.033235312 0.1394046545 0.2904637158 0.8196840286
-0.1610762924 -0.1078809649 1.065716505 0.7452065349 0.5895470977 -0.2777106464
-0.164560467 -0.1130340174 1.059932709 0.6317115426 0.5220581889 -0.07228588313
-0.1583296806 -0.1170081347 1.026198626 0.06268011034 0.2753795683 0.8512724638
-0.1590386033 -0.1132088825 1.047651768 0.437782377 0.4550447464 0.2413847893
-0.1590742618 -0.1236453727 1.019716501 0.01179509331 0.2358999401 0.9715602994
-0.1618314683 -0.1187166646 1.018563271 0.00270853145 0.2345549762 0.9717057347
-0.1657639742 -0.1230665073 1.019256353 0.02327036113 0.2464717478 0.9684087634
-0.1675060689 -0.1108124852 1.01865828 -0.01145488396 0.2303844541 0.9726262093
-0.1720419526 -0.07495447993 0.9981729388 0.04686770588 0.09981239587 0.9717182517
-0.1693556607 -0.06991583109 0.9916664958 0.08444937319 0.02204391547 0.9769967198
-0.1814151257 -0.07713184506 1.002086163 0.03301392868 0.1559721977 0.9747464657
-0.1857870668 -0.07926410437 1.005273461 0.01805025712 0.1977669299 0.9746041894
-0.1797548831 -0.07394790649 0.997979641 0.05677268282 0.106932357 0.9781060219
-0.1685719937 -0.06582261622 0.9860506654 0.1173903942 -0.03106793948 0.9820617437
-0.1666892767 -0.06217932329 0.977434814 0.1597566605 -0.04002789408 0.9849541783
-0.1747301519 -0.0679879114 0.9867929816 0.1279498637 0.0551655069 0.9780640006
-0.1776117831 -0.07078325748 0.9913924336 0.09563650936 0.08871311694 0.9787904024
-0.1746462882 -0.06448618323 0.9807677865 0.2301612794 0.05653340742 0.9623544216
-0.1828411222 -0.09043140709 1.013675451 -0.01089901756 0.3031855226 0.9523922205
-0.1819507033 -0.1276755482 1.019741297 0.07426658273 0.2808561623 0.9563008547
-0.1700304896 -0.1287650913 1.019130588 0.05288474634 0.2654388547 0.9622331262
-0.176562801 -0.1305212379 1.022340059 0.05688221008 0.2557562888 0.9648388624
-0.1594525278 -0.109431766 1.05636549 0.5821531415 0.5323973298 -0.007434200961
-0.1591803879 -0.1131976917 1.035470843 0.2200329006 0.3556476831 0.587016046
-0.1603388041 -0.1124069393 1.027394295 0.08005996794 0.287327379 0.8167930841
-0.1619149148 -0.1125064865 1.01951921 -0.01739344373 0.232116878 0.972424686
-0.017302569 -0.09855024517 1.074331164 0.337049365 0.2092225254 0.9175683856
-0.01973450184 -0.1075550169 1.0793823 0.2879369259 0.182303831 0.939258337
-0.01787008345 -0.09317043424 1.074367404 0.3559809029 0.2166442573 0.9089796543
-0.0238298662 -0.09114968777 1.07532227 0.3410840631 0.206307441 0.9163296223
-0.1335192025 -0.04496405646 0.9779447913 -0.1657494754 0.03133529797 0.9842529893
-0.1207365692 -0.01416276302 0.9856587648 -0.2235078961 -0.1550972909 0.9587376714
-0.07200043648 -0.1576922089 1.090000033 0.02694645338 -0.1002710462 0.9945232272
-0.06522221863 -0.155934751 1.089328766 0.02734076604 -0.09817861021 0.9943445325
-0.06991752237 -0.1634319574 1.084848881 0.03423340619 -0.1118853763 0.9931312799
-0.06836984307 -0.1622494906 1.090000033 0.03371079639 -0.1110524088 0.9932311177
-0.08397690952 -0.1607608944 1.090000033 0.0227293428 -0.09354958683 0.995328784
-0.07851955295 -0.1573151052 1.090000033 0.02242250182 -0.09306052327 0.995387435
-0.08034281433 -0.1659447998 1.089954257 0.0290457122 -0.1036169529 0.9941222668
-0.09421998262 -0.1695012897 1.090000033 0.02311854996 -0.09416992217 0.995254457
-0.08788905293 -0.1667319983 1.090000033 0.02550881915 -0.0979796648 0.9947978854
-0.07690829039 -0.1635920256 1.085595012 0.03362182528 -0.1109106019 0.993248105
-0.08456575871 -0.1680939496 1.082358599 0.02978988551 -0.1048030555 0.9939801097
-0.08994693309 -0.1662409157 1.081645966 0.02824857645 -0.1023464352 0.994274497
-0.04130663723 -0.1263953149 1.088081956 0.05446505919 0.1490501761 0.9867060184
-0.03649516776 -0.1306987554 1.089179635 0.04732029885 0.1497204453 0.9868823886
-0.04294900969 -0.1315509528 1.087324858 0.03660074621 0.11871133 0.9918575883
-0.02779623307 -0.07193680108 1.075882912 0.3787424564 0.2180927098 0.8994089961
-0.02875222452 -0.07805777341 1.074562669 0.3626798987 0.2196736336 0.905484736
-0.1530297101 -0.01229001582 0.9837448001 0.005156518426 -0.2715481818 0.9610835314
-0.1480180025 -0.006215078291 0.9855021238 -0.02001927607 -0.2635884285 0.9632438421
-0.1448976994 -0.01406917907 0.9833247662 -0.05557320639 -0.2105694711 0.9758523107
-0.2002539337 -0.07931862772 1.00897193 0.09968918562 0.2159334123 0.9677367806
-0.2013986558 -0.06814018637 1.010531664 0.1608384252 0.1312294751 0.9762292504
-0.2128552794 -0.08024882525 1.01205802 0.1998298019 0.2175658345 0.9523512125
-0.2054422349 -0.08188530058 1.012707114 0.1410826147 0.2396000773 0.9586850405
-0.2093271613 -0.06633447111 1.006948948 0.1827939004 0.1212774739 0.975058794
-0.2095131427 -0.07325822115 1.008534431 0.169953078 0.1438719332 0.9735726118
-0.2105944306 -0.06550015509 1.013821959 0.1805637032 0.1525079161 0.9703121185
-0.2140472382 -0.06107699871 1.015760422 0.2021243721 0.154430747 0.9659212828
-0.2046551108 -0.07314599305 1.010482788 0.1433431506 0.1493277252 0.9778704047
-0.1893559098 -0.06919424981 0.994145155 0.1739810258 0.1048016027 0.9717921615
-0.2016997933 -0.07232480496 1.004474282 0.1335937381 0.1305032521 0.9808511734
-0.192797631 -0.07769526541 1.006548166 0.04537181929 0.1939153224 0.9786791801
-0.1941510737 -0.07328718901 1.001749039 0.1140360311 0.145690918 0.9769560099
-0.1846198142 -0.07283932716 0.9947323799 0.1403922439 0.1446736157 0.9680539966
-0.1884092987 -0.07618168741 1.001096368 0.08762197196 0.1784874499 0.9726417661
-0.2020408213 -0.04451767728 1.0007658 0.4409743845 0.1783449054 0.8542477489
-0.1971237808 -0.04053549841 0.9976180792 0.5360761881 0.1540981829 0.8104588985
-0.1838706881 -0.04730372503 0.9868758321 0.4823037088 0.1206350252 0.8510881066
-0.1788464785 -0.05160727352 0.9805846214 0.3710336685 0.08104297519 0.9118258953
-0.1862230897 -0.04146344215 0.990273118 0.6033496857 0.1184092015 0.7880497575
-0.196874395 -0.04629620165 1.003491998 0.4279877543 0.3013066947 0.8486511111
-0.1968644857 -0.06058625877 0.9982328415 0.2357535958 0.09963034838 0.9564419389
-0.1854059845 -0.05556379259 0.9868471026 0.3062324822 0.08468752354 0.935725987
-0.1894429028 -0.05321460962 0.9912582636 0.3626061082 0.1170925125 0.9034792781
-0.188940227 -0.04680301249 0.9913598299 0.4877662063 0.1572354734 0.8431250453
-0.1933193505 -0.05363753811 0.9952340126 0.3639245033 0.1305574179 0.8982342482
-0.2017837763 -0.06097850576 1.003292203 0.2402748168 0.1176695451 0.9483988285
-0.1971875876 -0.05158275366 0.9994418025 0.4140735269 0.1603152603 0.8692191243
-0.1909285486 -0.05917218328 0.9922192693 0.2488463819 0.08406252414 0.9571145177
-0.2014555931 -0.05233003572 1.003381371 0.3433339 0.2157781869 0.8946909308
-0.1903098375 -0.04345205799 0.9963706732 0.5983008742 0.1759957224 0.765368402
-0.1638531536 -0.04144743085 0.9754623771 0.09871441871 -0.0337067917 0.9927883744
-0.1632303298 -0.03617994487 0.9759818316 0.09968099743 -0.0860376358 0.9894396067
-0.1559277773 -0.03687611595 0.977367878 -0.02390503325 -0.04859669507 0.9953478575
-0.150140807 -0.03547433019 0.977781713 -0.08000146598 -0.0656761229 0.9931761026
-0.1805999577 -0.04161829874 0.9876764417 0.4961639643 0.06550116837 0.849155724
-0.1555211693 -0.05154947937 0.9824538827 0.01968317665 0.01580888405 0.9910975099
-0.1618353873 -0.04864067212 0.9829631448 0.1365858912 0.03247427195 0.9657909274
-0.167764619 -0.04769387841 0.9836491346 0.2464707941 0.04185952991 0.9439207911
-0.1729367375 -0.04975270852 0.9859932065 0.3617731631 0.03118208982 0.9027547836
-0.1715562791 -0.04281684011 0.9837505817 0.3145780861 0.0451628007 0.9274597168
-0.1644831449 -0.04357599095 0.9827700257 0.1848833561 0.04842493311 0.9516266584
-0.1750772595 -0.05273404717 0.9769364595 0.3354836404 0.0513497591 0.9330244064
-0.1761010885 -0.04661209881 0.9804797769 0.3822868466 0.05757487193 0.9046849608
-0.1628454328 -0.05594036356 0.9838756919 0.1731238514 -0.02937493287 0.9709239602
-0.1628917009 -0.05174662918 0.9759019613 0.07714579254 0.004658533726 0.9960135221
-0.1054715216 -0.02959947474 0.9905235171 -0.3048713803 -0.08316187561 0.9486186504
-0.1048872098 -0.02031525038 0.9921793938 -0.2706556916 -0.1311048716 0.9534270763
-0.02190987021 -0.1034077033 1.075330853 0.302556783 0.1935707629 0.9331609607
-0.02635675296 -0.09634786099 1.076450109 0.3077270389 0.1957095861 0.9310457706
-0.03102350235 -0.1029909998 1.077900171 0.270021528 0.1808445752 0.9453254342
-0.02716740966 -0.1084394157 1.079096556 0.2501542866 0.1735639572 0.9518167377
-0.204607442 -0.1200717315 1.024894238 0.1169907898 0.3160227835 0.9410872459
-0.2131494284 -0.1122045666 1.025243759 0.1853119582 0.3238216043 0.9275614023
-0.2063382864 -0.112710081 1.022732496 0.1596819907 0.3106732965 0.9365271926
-0.1983384639 -0.1246458292 1.024630904 0.09861944616 0.3120314777 0.9448701739
-0.1980572939 -0.113900125 1.020752788 0.1071382612 0.290785104 0.9501142502
-0.1933603883 -0.1214224696 1.019717336 0.09873669595 0.296164602 0.9497226477
-0.1919669658 -0.1263684183 1.021538377 0.09227773547 0.2999503314 0.9492992163
-0.1898248494 -0.129198581 1.025849938 0.07894665003 0.2790132761 0.956210196
-0.1745102108 -0.1155281812 1.021797657 0.008283680305 0.2342757434 0.9720471501
-0.1806213856 -0.1158259958 1.019783497 0.02433438227 0.2573241591 0.9658105373
-0.1743302047 -0.1248525083 1.019000053 0.0475053452 0.2670533955 0.9620925188
-0.1840015352 -0.1214852259 1.019000053 0.05716275796 0.2787276804 0.9580145478
-0.1743682921 -0.1090475097 1.018568993 -0.005156194791 0.240183264 0.9701220989
-0.1808010489 -0.1100598201 1.018358827 0.008662736975 0.2584371567 0.965341866
-0.1924243569 -0.08631162345 1.009430051 0.04413842037 0.2657507062 0.9610774517
-0.1921745986 -0.09325303882 1.012612939 0.04371827468 0.3175879717 0.9460865259
-0.1855403036 -0.08484119177 1.010944366 0.009429739788 0.2733351588 0.9614368081
-0.1762111038 -0.09049930423 1.020042777 0.03226451576 0.3214280903 0.8589098454
-0.176516965 -0.08401488513 1.043464422 0.4108448625 0.4562847912 0.3512789607
-0.1768758297 -0.08474168926 1.033362031 0.2593785822 0.3973789215 0.5539951921
-0.1767136604 -0.0916756019 1.014494896 -0.03400912136 0.2897287309 0.9561172128
-0.1757018417 -0.0840229243 1.049591541 0.5016313195 0.4901114106 0.229717046
-0.1755481809 -0.0904026255 1.031826854 0.2048543096 0.3901297748 0.6280523539
-0.1706988662 -0.09191311896 1.029521227 0.1765669733 0.3578183651 0.6648039222
-0.1737577617 -0.08799082786 1.039272547 0.3331716061 0.4246089756 0.4553573728
-0.1726099104 -0.09346097708 1.024441719 0.08756879717 0.3370578587 0.7847498655
-0.182632193 -0.09665377438 1.015205383 -0.009642175399 0.314697355 0.9488145709
-0.175232172 -0.09860599786 1.015954614 -0.02790557034 0.2879092991 0.95681113
-0.1370234787 -0.04905692115 0.9761853814 -0.1423562318 0.05616094917 0.9873128533
-0.1452036053 -0.05102698505 0.9796921611 -0.1302479506 0.08122072369 0.9878516197
-0.1548385918 -0.04600872844 0.9768913388 -0.01802445389 0.04096894711 0.9987317324
-0.1496732831 -0.0478059873 0.9814377427 -0.06097483262 0.03042787686 0.9969139695
-0.09073723108 -0.1610687822 1.08468008 0.02329753712 -0.0944552049 0.9952203035
-0.07728907466 -0.1526801586 1.087550521 0.0214557834 -0.09151972085 0.9955720901
-0.08470994234 -0.1560105979 1.08688736 0.0214557834 -0.09151972085 0.9955720901
-0.03548248485 -0.1091738418 1.082265258 0.19632788 0.1720578223 0.9637331367
-0.02287324704 -0.1184644625 1.082759738 0.2049865574 0.1660839915 0.9624090195
-0.03084767051 -0.1200881079 1.085854173 0.1543996334 0.1624882221 0.9736895561
-0.03000178747 -0.1150439903 1.085431099 0.2009362131 0.1658690125 0.9632677436
-0.03276715055 -0.09781918675 1.077517033 0.3068678081 0.1976196617 0.9304971099
-0.03669572994 -0.1032621264 1.084541559 0.2259517759 0.1908441335 0.9513454437
-0.03998034075 -0.1140171885 1.088535547 0.1553301215 0.1638902873 0.9733527303
-0.02619106695 -0.1027150452 1.080579042 0.2793855965 0.1927444339 0.9400898814
-0.02595701441 -0.08413383365 1.078160524 0.3598538935 0.217189759 0.9068729877
-0.03076042235 -0.09234672785 1.079478979 0.3056891561 0.2159918249 0.9270315766
-0.1310056746 -0.02831011638 0.9832901955 -0.1672169119 -0.0879490152 0.9790784121
-0.1307636499 -0.03375873715 0.9824430943 -0.1851182729 -0.04660033062 0.9790548086
-0.1392556429 -0.01147925295 0.9845535159 -0.07938850671 -0.1983721703 0.9762848616
-0.1318009198 -0.01824391074 0.9844646454 -0.1535419524 -0.1320996732 0.9743958116
-0.132714197 -0.01283480972 0.9852664471 -0.1350820512 -0.161588043 0.9729114175
-0.1492239684 -0.01812900044 0.9822111726 -0.02437999658 -0.1982940137 0.9775414467
-0.1483314484 -0.04736636579 0.9761919379 -0.06376256794 0.05172027275 0.9952073097
-0.1450084746 -0.04104759917 0.9768334031 -0.09952041507 -0.01806985028 0.9914275408
-0.141928643 -0.04584489018 0.9759111404 -0.1111082062 0.02374283411 0.9908978939
-0.02299400419 -0.04901252687 1.063071132 0.3802258372 0.2179467082 0.898847878
-0.02421112359 -0.05944886804 1.068065166 0.3802258372 0.2179467082 0.898847878
-0.02405293658 -0.05545048788 1.064221859 0.3802258372 0.2179467082 0.898847878
-0.1123542935 -0.01948186196 0.9897469878 -0.2674481571 -0.1217284799 0.9550130963
-0.118436642 -0.02250499651 0.9871190786 -0.2738731802 -0.09226446599 0.9565224051
-0.1126282066 -0.02392435633 0.9862409234 -0.2785796821 -0.09926995635 0.9550022483
-0.1149142608 -0.01610097848 0.9857301712 -0.2623040378 -0.1475137621 0.9535937905
-0.1230902597 -0.02344613522 0.9811027646 -0.220302403 -0.09825719148 0.9656482339
-0.1190408617 -0.02756782621 0.9833264351 -0.2650912702 -0.07078851759 0.9582344294
-0.1205838248 -0.01841513626 0.9826560616 -0.2238948941 -0.1298943907 0.9635865688
-0.1108757406 -0.03186000884 0.9890338778 -0.2998587787 -0.06303393096 0.9515139461
-0.1218833998 -0.03421866894 0.9841188788 -0.281707257 -0.03962500393 0.9584274888
-0.117701292 -0.03200962022 0.9866623878 -0.2839137316 -0.05782973021 0.9567298889
-0.1247937977 -0.02852220275 0.9839303493 -0.2754956484 -0.057904955 0.9594551325
-0.04824375361 -0.1246055812 1.087000012 0.03408766165 0.1479375958 0.9877648354
-0.04432734847 -0.1189985126 1.089059591 0.102463074 0.1558870226 0.9807786345
-0.2053823471 -0.1055097133 1.034855604 0.2936481833 0.4011767507 0.6402118802
-0.2012255192 -0.1015623882 1.04003644 0.3567425907 0.4476947486 0.4750785232
-0.188830629 -0.0896178335 1.057005882 0.5597529411 0.5980809927 -0.05326520279
-0.2063793689 -0.1074501276 1.02494216 0.193734318 0.323456645 0.884704411
-0.1954998374 -0.09646143019 1.044238925 0.4149660766 0.4892492294 0.3169396818
-0.2094726712 -0.1092004031 1.031446218 0.2480728328 0.3683650196 0.7628054023
-0.1963889301 -0.09673584998 1.049355745 0.4619988501 0.5269203186 0.2060214579
-0.1900148541 -0.09492252022 1.056248784 0.5387595892 0.5854061246 0.002159045544
-0.1838176548 -0.09081814438 1.063731551 0.6263355017 0.65087533 -0.2279036492
-0.1907802969 -0.1165575907 1.019000053 0.069047831 0.282572031 0.9563148022
-0.1783511937 -0.1037688702 1.016780734 -0.01610277034 0.2775937915 0.9599514008
-0.1723666787 -0.1029735208 1.016894579 -0.02583492734 0.2587590218 0.9649152756
-0.1455778331 -0.03595344722 0.9810000658 -0.09176163375 -0.04203441739 0.9927213788
-0.1500679553 -0.04098705202 0.9810000658 -0.06546831876 0.00981609989 0.9958860874
-0.1511057764 -0.02997259423 0.9810000062 -0.05917926878 -0.09618644416 0.9899501801
-0.1456687599 -0.02627453767 0.9810000658 -0.05666016042 -0.1077924818 0.9911609888
-0.1384609491 -0.03396773711 0.9815546274 -0.118985422 -0.05157008767 0.9911005497
-0.1408286393 -0.03908931836 0.9810000658 -0.1230939403 -0.009705900215 0.9913085103
-0.1373348981 -0.02248333022 0.9830244184 -0.09965647757 -0.1373786926 0.9840351343
-0.1410994828 -0.02387942187 0.9780001044 -0.06727281213 -0.1171643063 0.9906827807
-0.1357655078 -0.01703073829 0.9779999256 -0.09296714514 -0.1738128662 0.9802106619
-0.05343899503 -0.1373892874 1.086953163 0.02276334353 0.02586915344 0.9983305931
-0.05628005415 -0.1433217376 1.085753322 0.01189720165 -0.0242473837 0.9977869391
-0.05119260773 -0.14378497 1.084260702 0.01374865044 -0.006623283494 0.998452425
-0.04713984951 -0.1433835328 1.088090539 0.02277568355 -9.441046859e-05 0.998256743
-0.0428831093 -0.1393398494 1.08864522 0.04121461883 0.05658806488 0.9974114299
-0.04836734757 -0.1352431029 1.087135077 0.03213496506 0.06864894181 0.9968956113
-0.06062556803 -0.1395501345 1.087000012 0.0230231937 0.008391206153 0.9954508543
-0.05362467095 -0.13144584 1.087000012 0.018255895 0.09262532741 0.9924659133
-0.06304456294 -0.1451172829 1.086878419 0.003642357187 -0.06013223156 0.9960891008
-0.06859029084 -0.14611727 1.08698833 0.01864863373 -0.05710434914 0.9948269129
-0.1735621095 -0.1223791838 1.048303604 0.4070226848 0.3945190012 0.3388698101
-0.1783257723 -0.1348255575 1.033465624 0.1122118533 0.2722561359 0.8762181401
-0.1896451712 -0.1302969009 1.03275001 0.116816394 0.2996318042 0.8905831575
-0.1806979477 -0.1242666468 1.043049097 0.3118714094 0.3675710261 0.5234829187
-0.1950236112 -0.128826037 1.031720281 0.1049249247 0.306292057 0.922616601
-0.1858519316 -0.1248209104 1.040073395 0.2598736882 0.3556483686 0.6268748045
-0.1915089786 -0.1240298674 1.038224578 0.2317350507 0.3556065559 0.6885538697
-0.1700191051 -0.116197139 1.056224823 0.5627103448 0.4567890465 0.05304772779
-0.1755321473 -0.1278009117 1.04188931 0.279427141 0.3413980901 0.5712535977
-0.180435285 -0.1282359511 1.039151788 0.2318675816 0.3309156597 0.6661983132
-0.1832840145 -0.1307864338 1.035234094 0.1567271352 0.3034071326 0.8064208031
-0.1793212295 -0.1188876554 1.049142241 0.4339167178 0.4195158482 0.3022214174
-0.1940335929 -0.1017882749 1.015686989 0.06777633727 0.3082234263 0.9484614134
-0.1863676459 -0.1043258384 1.016483545 0.005324958358 0.2995866835 0.9536679387
-0.1899111867 -0.0975632593 1.014354944 0.02927466668 0.3210228384 0.9458955526
-0.1907335073 -0.1102394164 1.018291116 0.0521640256 0.2855878472 0.9560862184
-0.2037361562 -0.08746997267 1.014018059 0.1356227249 0.2945168912 0.9451625347
-0.2009977996 -0.09305878729 1.014596105 0.1298792213 0.3217138946 0.9357597232
-0.2031363398 -0.08751478046 1.019933343 0.2088947892 0.3348317146 0.8130603433
-0.1969301552 -0.08505646884 1.034202933 0.3463604152 0.4363880455 0.4559621215
-0.1993794441 -0.08923093975 1.029469252 0.3081118166 0.4116767943 0.5888361931
-0.192406252 -0.08522552997 1.045154095 0.4563575685 0.5198214054 0.1907302886
-0.2015772164 -0.09312086552 1.025261998 0.2745108902 0.3901944757 0.7077026963
-0.2008455098 -0.08621667325 1.025091052 0.2576851845 0.370444566 0.6822298765
-0.2031148225 -0.09949474037 1.017017841 0.1663514078 0.3247977793 0.9289720654
-0.2102888525 -0.08705607057 1.016265869 0.1776323467 0.2843789756 0.9406625032
-0.2148115337 -0.09115841985 1.019044995 0.2203364819 0.2967962623 0.9278181195
-0.2077269703 -0.09456203878 1.016705155 0.1984716505 0.328932941 0.9231056571
-0.210851714 -0.1036145911 1.021654963 0.1977592558 0.3252589405 0.9244887233
-0.2171888649 -0.1024071947 1.023149967 0.2185427547 0.3183808029 0.9218975306
-0.213036418 -0.09832782298 1.020456672 0.212808907 0.3198326528 0.9226564765
-0.2231067717 -0.0916814357 1.022212505 0.2488949597 0.2799441814 0.9266933799
-0.2037228048 -0.09500966966 1.020635843 0.2298953831 0.3578355908 0.8304052949
-0.1970222294 -0.09669522196 1.037563443 0.3566054702 0.4458257258 0.4693261683
-0.1944214553 -0.09039422125 1.04177177 0.4297797084 0.5041173697 0.298768729
-0.1906157583 -0.09166254848 1.051491618 0.5006738901 0.5530133843 0.09504782408
-0.2033387423 -0.1000616178 1.023288965 0.2200641632 0.3456808925 0.8313733339
-0.2011265606 -0.09934201837 1.028444171 0.2662990391 0.3791593313 0.7065853477
-0.199843064 -0.1078892425 1.019017458 0.1415439993 0.2997313142 0.9411145449
-0.1859014928 -0.09473387152 1.060320854 0.5805233121 0.6186708212 -0.1130832508
-0.202747494 -0.1101321578 1.038027287 0.2930484414 0.4154838622 0.6027884483
-0.2036722004 -0.123447068 1.030955195 0.1268508732 0.3282768726 0.9146025181
-0.2096935362 -0.1162301376 1.028952837 0.177544415 0.3332363069 0.8924725652
-0.1921630651 -0.09969998151 1.052389741 0.4828060865 0.5477664471 0.1364508718
-0.2006158978 -0.1188660562 1.035838127 0.2005666196 0.3760415614 0.745662868
-0.1983554959 -0.1079840064 1.04296422 0.3454834521 0.4570742548 0.4569397569
-0.1964650899 -0.1042060778 1.046427369 0.4024712443 0.4923783243 0.331805408
