# .PCD v0.7 - Point Cloud Data file format
VERSION 0.7
FIELDS x y z normal_x normal_y normal_z
SIZE 4 4 4 4 4 4
TYPE F F F F F F
COUNT 1 1 1 1 1 1
WIDTH 512
HEIGHT 1
VIEWPOINT 0 0 0 1 0 0 0
POINTS 512
DATA ascii
-0.07070126384 -0.1440539807 1.077950358 -0.06261494011 0.1025296226 0.9924845099
-0.06515483558 -0.1356327981 1.08340466 -0.06134058163 0.1005170569 0.9927380681
-0.06225645542 -0.129701823 1.086829901 -0.06558695436 0.1056636572 0.992033124
-0.2000700682 -0.03948148713 0.9972754121 0.2619881332 0.2147009522 0.9402956963
-0.1983214319 -0.02865691856 0.9928307533 0.2799061239 0.166445449 0.9444274902
-0.08923007548 0.01444241125 0.9757461548 -0.2736696303 -0.1847649813 0.9415139556
-0.08551768959 0.01095257141 0.9754454494 -0.263850987 -0.1511384696 0.9502023458
-0.08590061218 0.02325057052 0.9793635607 -0.2336555868 -0.2326253802 0.9423628449
-0.118988499 0.02142590471 0.9651198387 -0.1091351882 -0.2058074623 0.9693513513
-0.09241273254 0.0003008419299 0.9685553312 -0.3215737045 -0.1480861455 0.9336583018
-0.08830527216 -0.003508179914 0.9690477848 -0.3239507675 -0.1179821938 0.9368690252
-0.09405526519 -0.004702954087 0.9659571052 -0.3478444815 -0.1508249044 0.9239245057
-0.07813289016 0.0255824998 0.9805746675 -0.2192929387 -0.2093004584 0.9528006911
-0.08082770556 0.02981665544 0.9825560451 -0.2169131041 -0.2405206263 0.9459071159
-0.007096672431 -0.06432501227 1.074092269 0.1555809379 0.1330460608 0.9788224101
-0.01115307026 -0.07081003487 1.075619221 0.1555809379 0.1330460608 0.9788224101
0.002333309501 -0.06709384173 1.073919654 0.1555809379 0.1330460608 0.9788224101
0.001335342065 -0.06157596782 1.073203444 0.1555809379 0.1330460608 0.9788224101
-0.009410427883 -0.06473850459 1.080038428 0.1555809379 0.1330460608 0.9788224101
-0.003422472393 -0.0602100119 1.074934959 0.1555809379 0.1330460608 0.9788224101
-0.0004803261545 -0.06451337785 1.077221155 0.1555809379 0.1330460608 0.9788224101
-0.2011679113 -0.03438199311 1.000053644 0.279902637 0.2101804763 0.9365553856
-0.1861018836 -0.05179841444 1.000032902 0.1900449097 0.2475065142 0.9490426183
-0.1958184093 -0.04006761685 1.000947833 0.2516776025 0.2243041247 0.9401175976
-0.1915227175 -0.04257420823 0.9993290305 0.2414230257 0.2324741483 0.941147387
-0.1885095239 -0.03676976264 0.9960485101 0.2785820067 0.2482443452 0.9273392558
-0.1791961342 -0.01506229304 0.9876235127 0.2868717015 0.08045910299 0.9535981417
-0.178336665 -0.02095851675 0.9872791171 0.294662714 0.1231893897 0.947360456
-0.1748379022 -0.01263867505 0.9868520498 0.3005320728 0.04087663814 0.9527565837
-0.07845258713 0.01642434672 0.9786585569 -0.2342298627 -0.1297104061 0.9612748623
-0.1144878268 0.01239891164 0.9645690322 -0.2269598991 -0.1964769363 0.9537460804
-0.1103387326 0.01433416177 0.9657198191 -0.2490209043 -0.1966648251 0.9481127262
-0.09246484935 0.01193993725 0.9710752368 -0.2781392038 -0.2088345587 0.936907649
-0.09549510479 0.006841441616 0.9687818289 -0.3068172932 -0.1953259856 0.9307996631
-0.09315545112 0.01720812358 0.9726856351 -0.2719025612 -0.2158831358 0.9374760985
-0.09775932878 0.01470879279 0.9700181484 -0.2602352202 -0.2083592415 0.9426558614
-0.1023538411 0.02204629779 0.9713628292 -0.2608450055 -0.2136548907 0.9393174648
-0.1061271802 0.01827643253 0.9685655832 -0.2541261017 -0.2046265304 0.9439466
-0.109656781 0.02202878147 0.9680455327 -0.208957687 -0.2116193771 0.9526070952
-0.08972088993 -0.01614470221 0.9673640728 -0.3765955865 -0.09518629313 0.9213219881
-0.08561124653 -0.007641743869 0.974722743 -0.3385448456 -0.03255958855 0.9400461912
-0.09088377655 -0.005192347337 0.9727327228 -0.3554831147 -0.08301255107 0.9294477105
-0.09394462407 -0.01029533986 0.9713951945 -0.3713407218 -0.1105618253 0.9217604399
-0.08871671557 -0.01159500983 0.9735145569 -0.361528635 -0.07961335033 0.9284691215
-0.1314965934 0.01468678657 0.9651914835 0.2230767161 -0.305308789 0.9068056941
-0.1153400242 0.02161613666 0.9678504467 -0.1836280674 -0.2140521109 0.9518087506
-0.09850966185 0.01631136611 0.9742160439 -0.3000058532 -0.20296821 0.9319838881
-0.09918747097 0.02467579208 0.9767403007 -0.2751800716 -0.2273643911 0.9332816601
-0.08778375387 0.02837463468 0.9804021716 -0.2332759649 -0.2469175607 0.9398136735
-0.09434497356 0.02425217628 0.9757083654 -0.3056346774 -0.2207771242 0.9261413813
-0.1074734032 0.02120722085 0.9728263021 -0.2820738852 -0.2150735557 0.9347625375
-0.09394710511 0.003521840554 0.9733062387 -0.3034271896 -0.1347526908 0.9420384169
-0.0892284438 -0.0002501957933 0.9740796089 -0.3124861717 -0.07836391777 0.9443036914
-0.08631847054 0.006046470255 0.9736743569 -0.2806377411 -0.1214469373 0.951646626
-0.09053173661 0.006621257868 0.9710445404 -0.2950563133 -0.1681130081 0.939032495
-0.09137351066 -0.0122872917 0.9650107026 -0.3668354154 -0.1213961318 0.9213092327
-0.1323006749 -0.02275929786 0.9597454667 0.3202282786 -0.02528006956 0.9416063428
-0.1345519274 -0.02471995354 0.9633106589 0.3178952336 0.02914235555 0.9314430356
-0.1350571215 -0.02877943963 0.9683731198 0.2186989933 0.1792539805 0.937120676
-0.1273918599 -0.02583244629 0.9635054469 0.08803202957 0.03031418473 0.9548230171
-0.1255772263 -0.02355483547 0.9581077099 0.1307709664 0.02237679064 0.9763224721
-0.1223466098 -0.02446701378 0.9621364474 -0.02849537134 -0.08835861832 0.9576399326
-0.1309063584 -0.02768144757 0.9669243693 0.1266612262 0.09551868588 0.9425648451
-0.06698611379 -0.1323536634 1.085968494 -0.06577219814 0.1075158194 0.991856277
-0.07138454914 -0.1358605772 1.084344506 -0.06951406598 0.1134252697 0.9911117554
-0.06833314151 -0.13933824 1.084608912 -0.06189212203 0.09642834216 0.993073523
-0.06239884719 -0.1427764744 1.084260821 -0.05586611107 0.08121272177 0.9947841167
-0.067910932 -0.1436943412 1.082209468 -0.05874983966 0.09159579873 0.9936870933
-0.05702403188 -0.1442415714 1.084601164 -0.04944133386 0.06662579626 0.9964610338
-0.08961675316 0.02098987997 0.9755474925 -0.2758579254 -0.2285925895 0.9329301715
-0.08089148998 0.02243299037 0.9778649211 -0.2214188725 -0.2201751471 0.9494706392
-0.002523341682 -0.06865591556 1.074844837 0.1555809379 0.1330460608 0.9788224101
0.001310924068 -0.08357824385 1.075984001 0.1555809379 0.1330460608 0.9788224101
-0.0001399133907 -0.07930719107 1.076318622 0.1555809379 0.1330460608 0.9788224101
-0.001831181813 -0.07356034219 1.077397227 0.1555809379 0.1330460608 0.9788224101
-0.006382458843 -0.07534624636 1.079312086 0.1555809379 0.1330460608 0.9788224101
-0.004856385291 -0.06592026353 1.078767896 0.1555809379 0.1330460608 0.9788224101
-0.01314809173 -0.07373518497 1.078698754 0.1555809379 0.1330460608 0.9788224101
-0.01913151518 -0.08393410593 1.077357292 0.1518613994 0.1309868544 0.9796792865
-0.01113221236 -0.09036581963 1.081680298 0.1432455182 0.1354543567 0.9801662564
-0.0119878836 -0.09609496593 1.083781362 0.1211478934 0.1404325962 0.98173666
-0.01956260204 -0.09357382357 1.083838105 0.1003562436 0.1465191543 0.981446445
-0.0209417548 -0.1027564406 1.087206602 0.06490889192 0.1545062065 0.9839638472
-0.01359910052 -0.1016542017 1.085916519 0.0967085287 0.1460761279 0.9832998514
-0.05981717259 -0.1335978359 1.084158897 -0.04464294016 0.07414680719 0.9960604906
-0.05663266033 -0.1282223463 1.086754441 -0.04999570921 0.07969708741 0.9952560663
-0.1881899834 -0.02197161876 0.9887960553 0.2926142216 0.143161431 0.9453551769
-0.1912327409 -0.01825187914 0.9933391809 0.2942671776 0.1349915713 0.9458001852
-0.1892745942 -0.01541340165 0.9894918203 0.288171351 0.1009540334 0.9517174959
-0.1841728836 -0.01627072692 0.9885758162 0.2837484777 0.1282580048 0.9501881599
-0.1912823766 -0.05035763606 1.001204371 0.2051013708 0.2399591953 0.9474059939
-0.1962642074 -0.04512260854 1.001000047 0.2392436862 0.2297476977 0.9423930645
-0.177556023 -0.05898782983 1.001193285 0.1315348893 0.2872923315 0.9485350847
-0.1983008534 -0.04941771924 0.9982129335 0.2251584232 0.230012998 0.9460165501
-0.1949251294 -0.05703047663 1.000789642 0.1788947135 0.2369495034 0.9536435604
-0.1862656772 -0.03240815178 0.9936361909 0.292647928 0.2242820263 0.9283043742
-0.1941418201 -0.034980122 0.9983633757 0.2821382284 0.227996245 0.9314880967
-0.190435037 -0.02899766155 0.994841814 0.2921154201 0.1757414937 0.9395936131
-0.1931857169 -0.02563901246 0.9967960119 0.2888489068 0.1663550287 0.9414533377
-0.1888982505 -0.02359747514 0.9937800169 0.2959969342 0.151225999 0.9424485564
-0.1959536672 -0.02992974594 0.9987308979 0.2833940089 0.1882799566 0.9392200708
-0.1768719554 -0.05126034468 0.9985404611 0.1583080739 0.2978696823 0.9406534433
-0.1766940057 -0.04350462556 0.9948519468 0.2019619048 0.3013903797 0.9309560061
-0.1843705922 -0.04407854751 0.9961608052 0.2351167202 0.2517546117 0.9382299185
-0.1810990423 -0.04825067148 0.9951577783 0.2085286826 0.2964940965 0.9307566285
-0.1777785271 -0.03886214644 0.9920816422 0.2341295481 0.3003340364 0.9245135784
-0.08390562981 0.01586966217 0.9746463299 -0.2567985058 -0.2139034271 0.9421000481
-0.05838399753 0.0003599608608 0.984303236 -0.2361322492 -0.06410156935 0.9682221413
-0.08171703666 -0.01221864112 0.977357924 -0.3452825844 -0.01859957539 0.9371443391
-0.07770168781 -0.01302342303 0.9801194668 -0.3410106301 0.01319779735 0.9388549924
-0.08530288935 -0.01558153983 0.9708778262 -0.3656584322 -0.06422907114 0.9274837375
-0.09662082791 0.009776240215 0.9735214114 -0.2967677116 -0.1726428121 0.9388733506
-0.1212250739 0.01538230013 0.9637839794 -0.0788019076 -0.2239288241 0.9647832513
-0.1249006912 0.0190987438 0.9641194344 0.03083303384 -0.2318401039 0.9586792588
-0.1659417599 -0.01522988081 0.9864784479 0.3616493344 0.03608626127 0.9315267205
-0.1788180172 -0.008274229243 0.9895697236 0.3132231236 0.0562385805 0.9478153586
-0.1836063713 -0.01026929356 0.9917729497 0.304243505 0.07277365774 0.9495909214
-0.1627808064 -0.02658322453 0.9856803417 0.2913809419 0.2057115287 0.9299510121
-0.1623046845 -0.02065734752 0.9863479733 0.3403897882 0.1184189171 0.9206203818
-0.1584589481 -0.02360996231 0.9833039045 0.2928914726 0.1724652946 0.9389685392
-0.1583718061 -0.0181667842 0.9829498529 0.3330646455 0.1678126901 0.9268541336
-0.1817098707 -0.02039938793 0.9909450412 0.3150948286 0.1156169698 0.9402377605
-0.1067551002 -0.02077834494 0.9622892737 -0.2238592803 -0.1698771566 0.9585559964
-0.0966674909 -0.01662459411 0.9672374129 -0.3337937295 -0.1226688102 0.9311853647
-0.1222951263 -0.02029893175 0.9569075108 0.06994969398 -0.04623430222 0.9807131886
-0.1173828393 -0.01648062654 0.9585065246 -0.07889745384 -0.172458604 0.9732062817
-0.1452407837 -0.02743423544 0.9767807722 0.3987972438 0.1788518578 0.8617204428
-0.138385728 -0.02175009809 0.9706012607 0.332824409 0.05299912021 0.9009658098
-0.1412291676 -0.02481425554 0.9738084674 0.3458774984 0.1203717664 0.887252152
-0.1123203486 0.01823019609 0.9696102142 -0.2367136478 -0.2149549723 0.9435551763
-0.1113920957 0.009523597546 0.9686787128 -0.184689343 -0.1807589829 0.9507293105
-0.1048587039 0.01259821467 0.9711430073 -0.2927643955 -0.1708746403 0.9386257529
-0.126144439 0.01316870097 0.9635532498 0.05750031397 -0.2370269895 0.9614325762
-0.1343063265 0.00871678628 0.9647806883 0.3309058249 -0.2725186348 0.8971991539
-0.07609990239 -0.1443244517 1.07922852 -0.06951406598 0.1134252697 0.9911117554
-0.08284885436 -0.1446443498 1.082087398 -0.06951406598 0.1134252697 0.9911117554
-0.07496812195 -0.1403818727 1.082846522 -0.06951406598 0.1134252697 0.9911117554
-0.07983773947 -0.1390482187 1.08354795 -0.06951406598 0.1134252697 0.9911117554
-0.1518663764 -0.05440166593 1.059643626 0.331207335 -0.8803625107 0.1498331726
-0.1470780075 -0.05524445698 1.060395241 0.7910459042 -0.4674161077 -0.047213424
-0.008919751272 -0.07796724886 1.076488614 0.1555809379 0.1330460608 0.9788224101
0.002113682684 -0.07523205131 1.074581981 0.1555809379 0.1330460608 0.9788224101
-0.01391118206 -0.07869235426 1.077000022 0.1555809379 0.1330460608 0.9788224101
-0.01179633662 -0.08363062888 1.076999903 0.1555809379 0.1330460608 0.9788224101
-0.04552987963 -0.1163325086 1.086850286 -0.04776869714 0.1223059446 0.9904479384
-0.04964883626 -0.1188426614 1.086897016 -0.06983668357 0.1148170233 0.9908989072
-0.04145245254 -0.1133476868 1.088407159 -0.03122783452 0.1395815462 0.9885265827
-0.0362248309 -0.1100154668 1.089231968 -0.009233304299 0.1547660977 0.9870196581
-0.04780414328 -0.1416585892 1.082726479 -0.02933747321 0.02528234757 0.9992390275
-0.05142507702 -0.1323568821 1.085716724 -0.04007527977 0.05255040154 0.9976062179
-0.04595895112 -0.1250393391 1.084991097 -0.03978487477 0.0662272647 0.9969812036
-0.04605994374 -0.130093649 1.084739089 -0.03432220593 0.04472658783 0.9981660843
-0.05443513393 -0.1340288818 1.082551003 -0.0400753282 0.06689112633 0.9969408512
-0.06065462902 -0.1385650635 1.081855536 -0.04036130756 0.06746803969 0.9969047308
-0.05179513246 -0.1260901541 1.085976601 -0.04031127319 0.0674905479 0.9969052076
-0.05324581638 -0.1399824768 1.085125327 -0.04465983436 0.05599698052 0.9972889423
-0.0461753644 -0.1356102079 1.084333658 -0.0315788202 0.02958448417 0.9989626408
-0.02249929309 -0.09670893848 1.079347134 0.1008635834 0.1399793476 0.9846758842
-0.03163933381 -0.1054621115 1.08488214 0.0470585674 0.1394093782 0.9879235625
-0.02861735411 -0.1013954282 1.082481742 0.0753961131 0.1348368973 0.9862060547
-0.02329686098 -0.09728899598 1.085422635 0.07512947172 0.1525671482 0.9826275706
-0.02741866559 -0.1020524427 1.08760643 0.04354577512 0.1603023708 0.984104991
-0.01499554608 -0.0869814381 1.08031702 0.144598648 0.1351591796 0.9794687033
-0.007108682767 -0.09959363192 1.08387816 0.1352744699 0.1289232522 0.9820662737
-0.004749841522 -0.09624824673 1.078318715 0.136318922 0.1384073049 0.9803321362
-0.01128189359 -0.1015025154 1.079822421 0.09137078375 0.1531927288 0.9829518795
-0.0123083964 -0.09667471051 1.07794261 0.1313779205 0.1337509602 0.9812273383
-0.01679431275 -0.09916644543 1.079157948 0.110560216 0.1389675736 0.9828219414
-0.02112160809 -0.08862657845 1.077000022 0.1510041207 0.1282051653 0.9801709056
-0.0179945603 -0.09366638958 1.076999903 0.1549562216 0.1176879928 0.9808681011
-0.009263878688 -0.1041418165 1.08595252 0.1066086888 0.1415275186 0.9838930368
-0.01572381333 -0.1059181094 1.086943746 0.07804148644 0.1469159722 0.9849059582
-0.0241850093 -0.1074852198 1.088389754 0.04112078249 0.155958727 0.9858227372
-0.0240041241 -0.1134133041 1.087199688 0.03801263496 0.1401839256 0.9890205264
-0.02974273078 -0.1165246516 1.087617278 0.01800430194 0.1397272646 0.9897760749
-0.03076487221 -0.11052268 1.089154482 0.01299379766 0.1583594978 0.9871017933
-0.03437614441 -0.1226829961 1.084341884 -0.04645103589 0.1185012609 0.991148591
-0.0335191004 -0.1182442978 1.084526062 -0.01415375341 0.12258856 0.9908587933
-0.02041534893 -0.1071187407 1.082437634 0.05446278676 0.1550000906 0.9855982661
-0.02368617989 -0.1022180542 1.080862164 0.0677402541 0.1434534192 0.9860750437
-0.02610136196 -0.1066541895 1.081586957 0.04258408025 0.1377039552 0.9871974587
-0.02724123001 -0.1134546101 1.08303237 0.01028264686 0.1366129071 0.9881772399
-0.01742169261 -0.1134925932 1.084332585 0.03485072404 0.165983364 0.9853826761
-0.02691671252 -0.1236130446 1.0861938 0.01918860525 0.124377653 0.9919051528
-0.02477978542 -0.1188329011 1.084751964 0.002700677142 0.1427643001 0.988512218
-0.1938901544 -0.05375150219 0.9979416132 0.2295812815 0.2529660761 0.9397818446
-0.1927135885 -0.04778624326 0.9975751638 0.2393227369 0.2494539768 0.9383054376
-0.185023278 -0.06524378061 1.002800226 0.1326089501 0.2737881839 0.9517877102
-0.1787745506 -0.06401368976 1.001825094 0.1280076653 0.2801809013 0.9509614706
-0.1837659031 -0.05986473709 1.001882195 0.1488026232 0.2634516656 0.9526773691
-0.1890557259 -0.06021166593 1.002082467 0.1520988196 0.247178793 0.9568641782
-0.1716956347 -0.06333360076 1.00183475 0.112716794 0.2920938432 0.9495692849
-0.1742793769 -0.07040169835 1.002707481 0.113046661 0.307384342 0.9445719123
-0.1692018211 -0.06873964518 1.002433062 0.102496326 0.2900116146 0.9514192939
-0.1627906561 -0.06447400898 1.01805687 0.3314559758 0.09399141371 0.6526626945
-0.1568849832 -0.05578681827 1.043317199 0.69878304 -0.2464522868 0.1706290692
-0.1614997834 -0.06118612364 1.026130199 0.4454113841 -0.02342812344 0.5003069639
-0.1545673162 -0.05372012407 1.050763965 0.8104009628 -0.3384919465 0.02687666193
-0.1653594524 -0.06629178673 1.010966301 0.2215568423 0.1767017841 0.791490674
-0.1646372676 -0.07098689675 1.008599281 0.1678786278 0.232204631 0.848968029
-0.1582300365 -0.05805401877 1.038267016 0.6179845929 -0.1795103997 0.2713126838
-0.153838098 -0.05829500407 1.045382977 0.7338759303 -0.2353847921 0.1297235489
-0.1580639482 -0.06419999152 1.030312538 0.4980240762 -0.03994959593 0.4268934727
-0.149295494 -0.05779219046 1.052337408 0.8576832414 -0.2881534696 -0.01482254267
-0.1623268872 -0.07049744576 1.014571071 0.2525416613 0.1663694978 0.736864984
-0.1598944068 -0.06641110033 1.024333119 0.4035574496 0.03537354618 0.5452409387
-0.151906237 -0.06369996071 1.021836519 0.3902756274 0.08061736822 0.5596932769
-0.1606086046 -0.06622739881 1.012812376 0.254971683 0.1744306087 0.745857656
-0.148486495 -0.06518599391 1.012483954 0.2428721786 0.2008508444 0.7284314632
-0.1534080207 -0.06621222198 1.009477854 0.1989665926 0.2283609509 0.7943816185
-0.1569234282 -0.06478658319 1.018561602 0.3422450423 0.1112246737 0.6308708787
-0.1478841603 -0.06057935953 1.036165595 0.6107681394 -0.08646144718 0.2831522822
-0.1466079801 -0.0595052205 1.04114902 0.6875240803 -0.144796744 0.1872126758
-0.1549256444 -0.06135843322 1.035450339 0.6037083268 -0.09077387303 0.3102653325
-0.1527147293 -0.06492182612 1.015862703 0.2978507876 0.1518790275 0.6732945442
-0.1456989944 -0.06375597417 1.01860249 0.3364065588 0.1314862818 0.6082649231
-0.1580911875 -0.06683402508 1.008462906 0.1858855784 0.2320608795 0.8225272298
-0.1450164318 -0.06664075702 1.003270149 0.09759785235 0.3194870353 0.8944690228
-0.1550693065 -0.0633329004 1.025245786 0.4451126754 0.03324523941 0.5019136071
-0.1485255659 -0.06255809218 1.026174784 0.4557839036 0.03403332829 0.4717598259
-0.1506741941 -0.06187673658 1.030738235 0.5279846787 -0.02552105859 0.3903598189
-0.1609080434 -0.06780952215 1.004722953 0.1293556243 0.2724007368 0.8981434703
-0.1548987627 -0.06749166548 1.00352788 0.1073064804 0.2980700135 0.9088626504
-0.1772370785 -0.02694331855 0.9873107076 0.2990253568 0.1448097378 0.9427620173
-0.1850611866 -0.02581410296 0.988850534 0.294855386 0.1597646326 0.9418957233
-0.1936932057 -0.02348201163 0.9889889359 0.2872303426 0.142756775 0.9469358325
-0.1897896379 -0.04165707529 0.9951272011 0.2568070292 0.2318246961 0.9376017451
-0.1855071336 -0.04011121392 0.9937883615 0.2571462691 0.2226703763 0.9395701289
-0.18020311 -0.03543225303 0.9906540513 0.2644434869 0.2333223522 0.9338156581
-0.1943501085 -0.02819182724 0.9908620119 0.2797701359 0.1637815386 0.9450719953
-0.1830483228 -0.03106928989 0.9890826941 0.287552923 0.1820381582 0.9401337504
-0.19893381 -0.03526465595 0.9947319031 0.2650269866 0.1940232515 0.9432775378
-0.1925885528 -0.03605515882 0.9934176803 0.2705566585 0.2005039006 0.9408852458
-0.195521757 -0.04194777086 0.996463716 0.256822139 0.2287883013 0.9386491776
-0.1582963616 -0.0366698131 0.9890850782 0.2088900208 0.2898872197 0.9256125093
-0.1593657881 -0.03061066568 0.9865294695 0.2578488588 0.2555407286 0.924033761
-0.1493746936 -0.04431318864 0.9908234477 0.1650113463 0.3948266506 0.9037053585
-0.1638100296 -0.03455865011 0.9886261225 0.2294209749 0.2542271018 0.9323796034
-0.1585088819 -0.04581688717 0.9925153255 0.149978444 0.3510252535 0.9219102263
-0.1653048694 -0.04408326745 0.9918856621 0.1721596271 0.3258758187 0.9259524345
-0.1689689159 -0.03382863849 0.9896000028 0.2440258116 0.2339808941 0.9371322989
-0.1719116271 -0.05205468461 0.9971699119 0.1521637738 0.3238329589 0.9336385131
-0.1704357415 -0.04753568023 0.9947232604 0.1635445505 0.3297338784 0.9293741584
-0.07691634446 0.006416297518 0.9745253921 -0.2412111461 -0.04305626824 0.9678082466
-0.07617936283 0.01379514113 0.9747183919 -0.2469590753 -0.1332888305 0.959251523
-0.08077016473 0.008989818394 0.9741432071 -0.2620496154 -0.116759114 0.9571923018
-0.07156031579 0.01338971127 0.9805067778 -0.2194197625 -0.08652275801 0.9712189436
-0.07231872529 0.007381161675 0.9794440269 -0.2300499082 -0.07872641832 0.9689672589
-0.07203460485 0.01822726429 0.9808977246 -0.2146233171 -0.09592662007 0.9718210101
-0.08290921897 -0.005706848111 0.9694441557 -0.3106683493 -0.06689608842 0.944257021
-0.08541644365 -0.01047502737 0.9672298431 -0.3413534164 -0.08359466493 0.9333648086
-0.07057629526 0.01722135022 0.9761003852 -0.2094651163 -0.1325487643 0.967159152
-0.07518257946 0.02029514126 0.9774686694 -0.2157889456 -0.1703614593 0.9603031278
-0.07762787491 -0.01550299488 0.9732205272 -0.3536269665 -0.02305324562 0.9324527383
-0.07249081135 -0.01433531288 0.9770919085 -0.3397097886 0.008432065137 0.9388952851
-0.06395454705 -0.006413815543 0.9777771831 -0.2836621106 -0.003322732169 0.9559092522
-0.06639921665 -0.0117208017 0.9779629111 -0.318492651 0.01750914007 0.9470599294
-0.06035652757 -0.001305646379 0.9792397022 -0.2560413778 -0.03720332682 0.962857306
-0.05831931531 0.003237929428 0.9789553881 -0.2255740166 -0.05386574566 0.9705907702
-0.1046284884 0.008789844811 0.9664066434 -0.2939893901 -0.1890552342 0.9360845089
-0.1000998393 0.004852615297 0.9668070674 -0.3174062669 -0.1862536073 0.9293903708
-0.1512334049 -0.03290385008 0.9858990908 0.2920103967 0.3478422165 0.8840897679
-0.1636916846 -0.02329907194 0.9820047617 0.4208079875 0.1205096468 0.8873209357
-0.1747577041 -0.01788779348 0.9864141345 0.2938575149 0.05962057784 0.9532008171
-0.101718016 -0.01715412922 0.9664715528 -0.2937346101 -0.1432056576 0.9414743781
-0.1156797111 -0.02136717364 0.9585571289 -0.1283267885 -0.2033552527 0.9702042341
-0.113970466 -0.01690784283 0.9633569717 -0.1177010387 -0.1504268646 0.9622047544
-0.1264885515 -0.01688789949 0.9639779925 0.1333990544 -0.08004308492 0.9693090916
-0.1270103157 -0.02352544293 0.9689325094 0.05466955155 0.006464812439 0.9430520535
-0.1237975881 -0.02025837451 0.9654629827 0.03681424633 -0.06660283357 0.9583331347
-0.1416725665 -0.03087617084 0.979331255 0.2372027338 0.2475358695 0.9027426243
-0.1332822889 -0.02729432471 0.9738297462 0.124402903 0.1172191277 0.9233778119
-0.1215489581 -0.01718471572 0.9624687433 0.03483650461 -0.1273627728 0.9720924497
-0.1321381032 -0.02088851295 0.9688248038 0.1881153136 0.02712379955 0.9492290616
-0.1202894077 -0.02479482256 0.9675013423 -0.09100567549 -0.0473405309 0.9434694648
-0.1169178486 -0.023008544 0.9635346532 -0.1302789152 -0.1253762543 0.9565432072
-0.1353833675 -0.03170725331 0.9770005941 0.1063447818 0.1823724061 0.9061959386
-0.1296273768 -0.02884311043 0.9718639851 0.03540546075 0.07278089225 0.9243728518
-0.1412333101 -0.02971078269 0.9732190371 0.3306566179 0.1921816319 0.8966736794
-0.1380335838 -0.02520695888 0.9665390253 0.3768748045 0.0941599831 0.9035738111
-0.1360017061 -0.01880964451 0.9625806808 0.4202166796 0.01641618647 0.9054492712
-0.09819755703 -0.01586585306 0.9621892571 -0.2906333208 -0.1248806417 0.9393751025
-0.1137948111 -0.01268915366 0.9594570398 -0.1543169618 -0.1655445993 0.9702398777
-0.1096689105 -0.01700516604 0.9605442882 -0.1832356751 -0.1814613938 0.9607974291
-0.09238226712 -0.01760065556 0.9632892609 -0.3410106599 -0.1129949689 0.927829206
-0.1044026315 -0.01629812643 0.9611191154 -0.2282549292 -0.1605415493 0.9499114752
-0.1074380577 -0.01151732262 0.9607493281 -0.2242493778 -0.1212525964 0.9600811005
-0.0999032408 -0.01022259612 0.9641525149 -0.3074587584 -0.1343194544 0.9366671443
-0.1173494607 0.005061563104 0.9660075903 -0.08720397204 -0.1901412159 0.9617785811
-0.1083612218 0.004895141348 0.967905581 -0.2417124957 -0.1711135954 0.9438088536
-0.112090379 0.001419651555 0.9662448168 -0.1796052456 -0.180372417 0.9514131546
-0.1019260064 0.007236537524 0.9703992009 -0.3119907975 -0.1587710977 0.9366557002
-0.09916068614 -0.007707439363 0.9689605236 -0.3421682715 -0.1380773038 0.9283983111
-0.1026176438 -0.01256251056 0.967092514 -0.3113822639 -0.1482067257 0.9377011061
-0.1033476666 -0.004298532847 0.9671528935 -0.3098558486 -0.1626088768 0.9364677072
-0.09890379012 -0.0001062587689 0.9702210426 -0.3090760112 -0.1543793231 0.9379462004
-0.1068716794 -0.003905277234 0.9632575512 -0.2458506972 -0.1564971805 0.9513067603
-0.1109400839 -0.007104771677 0.9615603089 -0.2085033357 -0.1433808953 0.9626745582
-0.1051721796 0.001178891049 0.965061605 -0.2964102626 -0.171246469 0.9358352423
-0.1428775787 0.005287335254 0.9707373381 0.4730805159 -0.1709858775 0.858402729
-0.1271702647 0.01112800371 0.9701613188 0.1018425077 -0.1840757877 0.906785965
-0.1205701604 0.01494257618 0.9703266621 -0.04982187226 -0.1971549392 0.9182445407
-0.1354150474 0.00613297848 0.9697681665 0.2910323441 -0.1683249325 0.8945983052
-0.1191600412 0.01147945691 0.9668887258 -0.08720823377 -0.2108820081 0.9602606297
-0.1302633584 0.007346581668 0.968465209 0.170596689 -0.1830413491 0.9198560119
-0.1392400116 0.008370154537 0.9689905643 0.391550988 -0.2155880779 0.8738715053
-0.1467093229 0.003155370476 0.9741287827 0.5041706562 -0.1090267748 0.8538780808
-0.1533313692 0.0009348787717 0.9809325337 0.492606312 -0.002342824591 0.8672664165
-0.1799273193 -0.06006380916 0.9958913326 0.1374338865 0.3049392402 0.9410768747
-0.1735440046 -0.04996072873 0.9923884273 0.1720845997 0.3327670097 0.9253216386
-0.1806245148 -0.06501131505 0.9977604747 0.1196731105 0.2891969681 0.9496273398
-0.1772638857 -0.05333583802 0.9934580922 0.1610267311 0.3248529732 0.9300391078
-0.1737012565 -0.04449462891 0.9908885956 0.1971430331 0.3458707929 0.9165095687
-0.1817526668 -0.05508589372 0.9961407185 0.1749688387 0.3042743504 0.9351047277
-0.1864150316 -0.06441887468 0.9978954196 0.1332150251 0.2775029838 0.9507384896
-0.1531077623 -0.06709074229 1.035181403 0.5656698942 -0.05814544484 0.34742558
-0.1532524824 -0.07987518609 1.022322178 0.3030602336 0.1394454688 0.6655575633
-0.1530897319 -0.07217017561 1.030221701 0.4633583426 0.01878703386 0.4712435901
-0.1639771461 -0.07514015585 1.005747557 0.1110537872 0.2907709777 0.9159656167
-0.1604599208 -0.0764496401 1.011422634 0.1789493114 0.2374383509 0.8278800249
-0.1566984206 -0.08180979639 1.013597727 0.1714256406 0.2406674922 0.8306798339
-0.1559428275 -0.06844689697 1.028235197 0.4621364474 0.02154842578 0.477507025
-0.1561703831 -0.07485281676 1.021484852 0.3263890743 0.123785153 0.6422109604
-0.1573277265 -0.07708607614 1.016997457 0.2501322031 0.1818820685 0.7364607453
-0.1605751514 -0.07999654114 1.007706404 0.1040765271 0.2938213646 0.9187068343
-0.1544485986 -0.08653170615 1.013407946 0.1362470239 0.2656709552 0.8694909215
-0.1593619436 -0.07212569565 1.017848611 0.2959231734 0.1487582773 0.6844418645
-0.1527696103 -0.06358018517 1.039303184 0.6457900405 -0.1186187491 0.2498730123
-0.1496892422 -0.06093960628 1.04799819 0.7819007039 -0.2229709625 0.07994545996
-0.1495652646 -0.06595811248 1.043308258 0.6836659312 -0.1491728574 0.1986508816
-0.1539161354 -0.08580633998 1.00721693 0.06937304884 0.3140885234 0.9468522072
-0.1532271206 -0.08331175148 1.017510176 0.2153477818 0.2054797262 0.7720379829
-0.1491811723 -0.07431109995 1.027064681 0.4132066667 0.05448895693 0.5274547935
-0.1490283608 -0.07927129418 1.017516136 0.2537130415 0.1746266037 0.7214295268
-0.1489856839 -0.07098454982 1.032932639 0.5138603449 -0.02146259323 0.4047685266
-0.1500212103 -0.08370421082 1.011013031 0.1350917816 0.2644880116 0.8667272329
-0.149012506 -0.06784767658 1.038845658 0.6132472754 -0.09635678679 0.2838312685
-0.1471455693 -0.07938744873 1.008126736 0.1203761622 0.2803245187 0.8790438175
-0.1457693875 -0.06966948509 1.013747454 0.2410484254 0.1993109137 0.7258228064
-0.1463080198 -0.07440644503 1.009632707 0.1617805958 0.2553433776 0.8246994615
-0.1469798237 -0.07517257333 1.0150491 0.2394041419 0.1912306845 0.733690083
-0.1461251825 -0.06791125238 1.021055102 0.3564306796 0.1089657545 0.5874258876
-0.1472048461 -0.06962335855 1.028773427 0.4646765888 0.01845993847 0.4612062871
-0.1447550952 -0.06658251584 1.00952971 0.1901053786 0.2458060533 0.7827697992
-0.1475325674 -0.07489550859 1.021366954 0.3344146013 0.1148348078 0.6209883094
-0.1457960308 -0.06180690601 1.03015399 0.5150351524 -0.008916947991 0.3932172656
-0.1455974877 -0.07363697141 1.003820419 0.07828134298 0.3242155612 0.9226564765
-0.1537312865 -0.08044192195 1.002776861 0.06762245297 0.314371258 0.946888566
-0.003130991478 -0.09240385145 1.076264501 0.1555809379 0.1330460608 0.9788224101
-0.009003931656 -0.08855266124 1.076658845 0.1555809379 0.1330460608 0.9788224101
-0.01423616707 -0.08964864165 1.076855183 0.1559989154 0.1275973767 0.9794504046
-0.0007191115874 -0.08763305098 1.077586412 0.1559104919 0.1287500262 0.9793175459
-0.004116994329 -0.08193207532 1.078304052 0.1555809379 0.1330460608 0.9788224101
-0.01539027505 -0.1081272438 1.08271265 0.05573195592 0.1632694155 0.9848229289
-0.01754343696 -0.10349112 1.081173658 0.06957811117 0.157322675 0.9849419594
-0.03369834647 -0.1131200865 1.085628271 0.03034014441 0.1266768873 0.9912111759
-0.1499611437 -0.06738097966 1.001285434 0.07157555223 0.3338301778 0.9393669963
-0.1739131361 -0.03665823489 0.9887807369 0.2322543263 0.2890603244 0.9258366227
-0.1710193753 -0.0288038794 0.9862654805 0.2780943811 0.2124147266 0.9293488264
-0.1681499034 -0.02289503999 0.9868481755 0.3135620952 0.1260986775 0.9343944192
-0.1736856699 -0.0312365219 0.9899311662 0.2739733756 0.216480419 0.9276483655
-0.07123156637 0.01206275541 0.9747491479 -0.2241426259 -0.08577668667 0.9691759944
-0.06354113668 0.009861715138 0.9746004939 -0.206746906 -0.04312837496 0.9766732454
-0.06778440624 0.007094551343 0.9749289751 -0.2228501737 -0.03070814535 0.9734288454
-0.06455870718 0.0003646041732 0.9776170254 -0.2599433362 -0.04176410288 0.9631329775
-0.06198465079 0.004650415853 0.976734221 -0.2313796729 -0.04840687662 0.9699701071
-0.0734788999 -0.01111804321 0.9812880158 -0.3312274218 0.02759254538 0.9429149628
-0.08000024408 -0.01033581328 0.9698437452 -0.3350555301 -0.06380409002 0.9374759197
-0.07497561723 0.002083320403 0.9744718075 -0.2525739074 -0.01813641191 0.9660871625
-0.07477334142 -0.003386880504 0.9739548564 -0.2900421321 -0.03620298952 0.9540503621
-0.08466096222 -0.01654879004 0.9661961198 -0.3717535138 -0.07944491506 0.9237699509
-0.07532996684 -0.0099619627 0.9728493094 -0.3312472403 -0.04982395098 0.9404741526
-0.08525554091 -0.00286622229 0.9745857716 -0.3184926212 -0.03980792314 0.946003139
-0.08087836951 -0.00109764887 0.9761450887 -0.3012895584 -0.05530502275 0.9495740533
-0.07054018974 -0.001563126338 0.9803763032 -0.2659092546 -0.03109827824 0.960644722
-0.07476458699 -0.005330675282 0.9791308641 -0.3099437952 -0.01464796625 0.9484009743
-0.06597234309 0.002078386256 0.9817757607 -0.2213818878 -0.04586247355 0.973097682
-0.08227956295 0.00403229706 0.9749560952 -0.2735586762 -0.09773357958 0.9558365345
-0.05905009434 -0.004685549065 0.9839895368 -0.29618752 -0.06254669279 0.9525592923
-0.06287974864 -0.008600326255 0.98185426 -0.3119836748 -0.02503578365 0.9485558271
-0.06546440721 -0.004232672974 0.9823340178 -0.2745169103 -0.02680437453 0.9595099688
-0.06792923808 -0.009341773577 0.9826166034 -0.3122856915 0.0001343857293 0.9487890601
-0.1488729417 -0.02907848358 0.9821477532 0.3920880854 0.2760377824 0.850869298
-0.1487718672 -0.02226825431 0.9794333577 0.4545102715 0.1926386207 0.8426867723
-0.1491759717 -0.01947375014 0.9751811028 0.558442533 0.1012340114 0.8211352825
-0.1424987316 -0.01732278056 0.9712291956 0.4467557073 0.03308085352 0.8671070933
-0.1341196299 -0.0160559006 0.9664568901 0.3008249402 -0.04174295813 0.9250021577
-0.1598780304 -0.001144097536 0.9814181328 0.4440594316 -0.006364649627 0.8898583055
-0.1740201265 -0.006645962596 0.9874389768 0.3262478113 0.0428500846 0.9438099265
-0.1639592052 -0.002462035511 0.9851408601 0.4150289297 0.03428624198 0.9043803811
-0.1602934897 -0.006706799846 0.9847368598 0.440705061 0.03475831077 0.8952586055
-0.1609117389 -0.01200386789 0.9846562147 0.4041508436 0.05880151317 0.9089142084
-0.1683326513 -0.006145300344 0.9867325425 0.3636429906 0.04512430355 0.9298220277
-0.1212575138 -4.475249807e-05 0.9605951309 -0.06147937477 -0.1806542873 0.9787641764
-0.1231729835 0.006916595157 0.9618258476 -0.02419342473 -0.2087507844 0.9756060243
-0.1167299226 -0.007457709871 0.9594597816 -0.1516259611 -0.1366456151 0.9785422087
-0.1214588806 -0.009093888104 0.9593479633 -0.0404695496 -0.1478375793 0.9784547091
-0.1226759478 -0.01491734013 0.9577491283 0.03079275042 -0.07271362841 0.983846426
-0.1294476986 -0.006725550629 0.9620434046 0.2222860605 -0.1264209002 0.9353675246
-0.1318864822 -0.0161651168 0.9604910612 0.3281035125 -0.01644722372 0.936106801
-0.1355613619 -0.004983719904 0.9640798569 0.4166035056 -0.1117544696 0.9017471075
-0.1432413757 -0.00019469783 0.969227612 0.5018136501 -0.1289459169 0.8543596864
-0.1408631653 -0.003375970293 0.9660152793 0.4820367694 -0.1319852918 0.8627753258
-0.1398234367 0.00288408366 0.9677521586 0.4513106644 -0.1864864826 0.8684000373
-0.1501768231 -0.0003292393521 0.975790143 0.5090744495 -0.03987265006 0.8591970801
-0.1474006027 -0.01518383995 0.9727766514 0.5481226444 0.04484224319 0.8303074837
-0.1421585232 -0.01574987732 0.9669314027 0.4989562035 0.006371271797 0.8598136306
-0.1478395164 -0.02346208133 0.973194778 0.5505288839 0.105543904 0.825150311
-0.1430840045 -0.02135198936 0.9684329033 0.5041487217 0.07075800747 0.8555511832
-0.1398810595 -0.01972569153 0.9652029276 0.4730618298 0.04505253956 0.8759616613
-0.141943112 -0.008250842802 0.96589607 0.5023224354 -0.07737094909 0.8588320613
-0.1500176936 -0.00777690392 0.9763900638 0.5328738093 0.03092908114 0.8444820642
-0.1472442746 -0.004584398121 0.9740203619 0.5446062088 -0.02775608748 0.8369275331
-0.1757370234 -0.07710206509 1.005068779 0.1112783998 0.3284538388 0.9379222989
-0.1782182306 -0.08503194898 1.009064317 0.1148872301 0.335703969 0.9349346757
-0.182243377 -0.06959176809 0.9995358586 0.1171205714 0.3021614552 0.9457556009
-0.1831754446 -0.07728274912 1.006496072 0.1243883669 0.3048384488 0.9430396557
-0.1905018538 -0.06567449123 1.003408909 0.1392063946 0.2537312508 0.9566473365
-0.1878731698 -0.06834810972 1.00008893 0.1464724988 0.2801088393 0.9469096065
-0.1938619465 -0.06152078509 0.9982495904 0.175794825 0.2397535294 0.9542559385
-0.1848359704 -0.07411129028 1.002425909 0.1334930956 0.3055233061 0.941049993
-0.1780496091 -0.0731440559 1.001254797 0.1163158938 0.3142317832 0.9417852163
-0.1689787507 -0.07449144125 1.000407696 0.08838125318 0.3275451362 0.9403626323
-0.1652696133 -0.07021176815 0.998393476 0.0826953277 0.3149977028 0.9450986385
-0.1767473668 -0.08182502538 1.004626393 0.1146360487 0.3363709748 0.9347172976
-0.1475974321 -0.08084644377 1.003524065 0.07031516731 0.3167768717 0.9458596706
-0.1679550409 -0.07945665717 1.003070712 0.09691473842 0.3263905346 0.9400098324
-0.1620404571 -0.07845534384 1.002358794 0.08384883404 0.3176856339 0.9443626404
-0.1566678286 -0.07687217742 1.000631332 0.0703580752 0.3161829412 0.9460466504
-0.1585045308 -0.08412310481 1.005978227 0.07786397636 0.3150760829 0.94575876
-0.1581443846 -0.08852151781 1.009965062 0.0789392069 0.3164678216 0.9451656938
-0.1670264453 -0.08692629635 1.009334564 0.09597101063 0.3254575431 0.9403628111
-0.1725632995 -0.08637611568 1.00963366 0.1055859104 0.3304895759 0.9376674891
-0.1700652093 -0.08102603257 1.006580114 0.1002418995 0.3210846782 0.9415649176
-0.1528758109 -0.05231042951 0.9949611425 0.1205962002 0.3593526483 0.9252616167
-0.1485594809 -0.05343069509 0.9955354929 0.1238039136 0.3685765266 0.9207004309
-0.149207443 -0.04881828651 0.9936068058 0.15808025 0.3973905742 0.9036751986
-0.155177772 -0.04432050139 0.9895863533 0.1813907176 0.3860794902 0.9038424492
-0.161334008 -0.04325764626 0.988630116 0.1846364439 0.4146213531 0.8904328346
-0.1512801945 -0.06049435586 0.9970356226 0.1053583771 0.3471591473 0.9318083525
-0.153603062 -0.06494038552 0.9981266856 0.09683354199 0.3406992257 0.9350497723
-0.167100057 -0.02634630352 0.9835660458 0.3735922575 0.159496218 0.9049508572
-0.1566783935 -0.02662009746 0.9794378877 0.484498173 0.1757290959 0.84896487
-0.1669998914 -0.03108621947 0.985426724 0.2817116082 0.2696256638 0.9109777212
-0.1594889462 -0.03017420694 0.9816064835 0.3991147578 0.2520365715 0.8685756326
-0.1548110396 -0.03245619312 0.9802592397 0.43131423 0.2899676263 0.8411883712
-0.1597694904 -0.03740284964 0.9842094183 0.3060922623 0.3610766828 0.8634657264
-0.1514846832 -0.0273257345 0.9771991968 0.531330049 0.1916985661 0.8228145838
-0.1541702598 -0.03615148365 0.9831598997 0.348883152 0.3248879015 0.861246407
-0.1556883007 -0.04009510204 0.9864740372 0.2492130846 0.371535033 0.8839206696
-0.1476664841 -0.03167845309 0.9787018299 0.3998456001 0.278347373 0.8570447564
-0.1474702656 -0.03581015021 0.9837488532 0.3055067062 0.3612599969 0.8707938194
-0.1447769403 -0.02591273934 0.9707188606 0.4788359106 0.1564634889 0.8576784134
-0.1499552578 -0.03967505321 0.9870823026 0.2297434211 0.3696572483 0.8895531297
-0.1704001129 -0.06632748246 0.9979636669 0.1032431871 0.2922030389 0.9503165483
-0.160011366 -0.06814360619 0.9978516102 0.08262987435 0.3163332045 0.9445285201
-0.159308508 -0.06360685825 0.9987388849 0.1051212698 0.3246652186 0.9395230412
-0.155827716 -0.05900445208 0.996665895 0.111460872 0.3429868519 0.9325810671
-0.0737612173 0.02455720119 0.9828058481 -0.207208097 -0.1181232333 0.9710699916
-0.06684372574 0.01451305579 0.9838547111 -0.2109425962 -0.07762574404 0.974077642
-0.06834428757 0.02312381938 0.9853559732 -0.21324265 -0.098841995 0.9719796181
-0.0677280426 0.01048284676 0.9818155766 -0.2101923823 -0.07070559263 0.9747619629
-0.06660950184 0.02034994587 0.9808754325 -0.2024275362 -0.09109256417 0.9746245742
-0.05980405584 0.01441449299 0.9755824804 -0.1906876415 -0.0628195405 0.9794989228
-0.06522940844 0.01496233232 0.9754623175 -0.1997475475 -0.08592972159 0.9759170413
-0.06209905073 0.01581849717 0.9799519181 -0.1977322847 -0.07600687444 0.9770085216
-0.0602972433 0.01179597899 0.9817970395 -0.1943310201 -0.07261933386 0.9779906273
-0.05769344047 0.008412732743 0.9797335863 -0.1879463345 -0.0636921972 0.9800255895
-0.0619340241 0.005356620997 0.9836036563 -0.2008893788 -0.05774713308 0.9777234197
-0.1568225324 -0.0090100253 0.9827289581 0.458528161 0.07376979291 0.8809502125
-0.1531317234 -0.004937266465 0.9788630605 0.4989306629 0.02595826797 0.864499867
-0.1537598222 -0.01083828043 0.9786348939 0.5178554654 0.09921105206 0.8469786048
-0.1449535936 -0.006679053418 0.9692569375 0.5091049671 -0.05437911302 0.8553932905
-0.1537241638 -0.02588609233 0.9844571948 0.3244897723 0.2763898671 0.8942747116
-0.1511431187 -0.01408374123 0.9770367742 0.5353822112 0.1126357913 0.8329647779
-0.1653379053 -0.009099903516 0.9838525057 0.4095024765 0.07651980221 0.9013091922
-0.1591676772 -0.01361798868 0.980394423 0.4686385691 0.1058635861 0.8679216504
-0.1701054424 -0.01060590521 0.9852514267 0.3582552373 0.06077987328 0.9251813889
-0.1648568511 -0.01861385256 0.98248142 0.4035928547 0.08613976091 0.8982269168
-0.1554933041 -0.01678407565 0.9788428545 0.5091778636 0.1251204163 0.8462015986
-0.1539126486 -0.02282959782 0.9781259298 0.5281943679 0.1394658983 0.8341023922
-0.1122117415 -0.01143565029 0.9648385644 -0.1534596086 -0.1541600525 0.959207654
-0.1156952307 -0.008046575822 0.964410603 -0.091433011 -0.1546448618 0.9650233388
-0.1201318428 -0.005985795986 0.9637902379 -0.008510007523 -0.1527764499 0.9740619659
-0.1065515578 -0.00887929555 0.9658031464 -0.2682756782 -0.1622586697 0.9439250231
-0.1173151359 -0.01344109513 0.9637217522 -0.03272708133 -0.1365872324 0.9660189152
-0.1242519766 -0.01210087258 0.9625628591 0.10889332 -0.1263955981 0.9782032967
-0.1081132591 -0.01440413203 0.9653325081 -0.2252035886 -0.1529152691 0.950483501
-0.1359897703 -0.007446126081 0.9684700966 0.31061849 -0.06282918155 0.9103963375
-0.1455124319 -0.01055615023 0.9732730985 0.5009178519 0.02269206755 0.8468482494
-0.1290621758 -0.01161882933 0.9640808702 0.1982985735 -0.09885052592 0.9600020051
-0.139891386 -0.01104419399 0.9703229666 0.3886948526 -0.01206269581 0.8866589665
-0.132871151 0.001107207499 0.9673996568 0.2387102693 -0.1448226124 0.9236522317
-0.1254318058 -0.003800711827 0.9633645415 0.08952534944 -0.1540778279 0.9815887809
-0.1375641972 -0.002530146856 0.9691010714 0.3602507412 -0.1002798378 0.8920691013
-0.1152107567 -0.002411743393 0.964920342 -0.1167119667 -0.1733349413 0.9596461058
-0.1243471503 0.002447735751 0.9633654952 0.02693046443 -0.197437197 0.9775714278
-0.1318730265 -0.001704834634 0.963314414 0.2906980813 -0.1790620685 0.914917171
-0.1520850509 -0.07552254945 0.9992349744 0.0753159225 0.3133393228 0.9466254711
-0.1468009055 -0.06508988887 0.9984019995 0.09041378647 0.3454642296 0.9339459538
-0.1541423351 -0.07070747018 0.9978945851 0.08923777193 0.3205635548 0.9428837299
-0.1489076465 -0.07124298811 0.9979766607 0.08412655443 0.3214244545 0.9430183172
-0.1708757281 -0.05632878467 0.9943761826 0.142866984 0.338899523 0.9263199568
-0.1662111431 -0.0497261472 0.9919939041 0.1556181908 0.3777341843 0.9097479582
-0.1698065847 -0.04127786681 0.988930583 0.2011193186 0.3711613715 0.9059929252
-0.1740566492 -0.06174097955 0.9966551065 0.1284184307 0.3041597903 0.9421216249
-0.1586309075 -0.05033954605 0.9947226644 0.1329223663 0.3562673628 0.9246148467
-0.1656330079 -0.0567282401 0.9968779087 0.1163106114 0.3271009922 0.9376184344
-0.169639796 -0.05916517973 0.9992996454 0.12641491 0.3123357594 0.9410458207
-0.1602011472 -0.05640303716 0.9960996509 0.1142943874 0.3294175565 0.9366359115
-0.1663745642 -0.06458403915 1.000475645 0.1044524387 0.3020516336 0.9472058415
-0.1628991365 -0.06039087102 0.9984226823 0.1101437062 0.320415169 0.9403573871
