# .PCD v0.7 - Point Cloud Data file format
VERSION 0.7
FIELDS x y z normal_x normal_y normal_z
SIZE 4 4 4 4 4 4
TYPE F F F F F F
COUNT 1 1 1 1 1 1
WIDTH 512
HEIGHT 1
VIEWPOINT 0 0 0 1 0 0 0
POINTS 512
DATA ascii
0.1415207982 0.05941621214 0.8058607578 0.1045543477 -0.01078872476 0.9842874408
0.04304078594 0.04455950484 0.8889549971 0.6048361659 0.227618739 0.7631270885
0.0454352349 0.05035999045 0.889359355 0.6048361659 0.227618739 0.7631270885
0.04502646625 0.0023808931 0.9009414911 -0.4537630081 0.2556517124 0.8379172683
0.04376792535 0.008279280737 0.8967716098 -0.1277339906 0.4119568169 0.8130851984
0.04019573331 0.004142355639 0.8985561728 -0.4858659208 0.2402608991 0.8403624296
0.221503526 0.02334121056 0.864119947 -0.8034898043 0.02737623639 0.5906894207
0.1978415698 0.05494147167 0.8453440666 -0.5504484177 0.1699545681 0.8048791885
0.1919991076 0.06511285901 0.8329681158 -0.5991876125 0.09319089353 0.7731416821
0.1951502264 0.05915862694 0.8408202529 -0.5275623798 0.1821875721 0.8063919544
0.1113258526 0.09806455672 0.8397977948 0.5573713183 -0.1954031438 0.8024410009
0.1109033078 0.09094969183 0.8376042247 0.5912816525 -0.2255747169 0.7687938213
0.108104758 0.08525740355 0.8370752335 0.6414319873 -0.241323024 0.7252652645
0.1083401367 0.07513790578 0.8358370662 0.6707367897 -0.1953566968 0.6997494698
0.05184631422 0.002174505964 0.9007866383 -0.4667350948 0.2512547374 0.8473113775
0.07648704946 -0.04144547135 0.9259585142 0.103412576 0.5994632244 0.7634589672
0.06261819601 -0.01821971126 0.9139924049 -0.2247238308 0.3994434476 0.8062822223
0.05550827831 -0.005247408524 0.9065338969 -0.4074037969 0.2875083089 0.8305797577
0.06664016098 -0.02453288808 0.9167515039 -0.1361975819 0.4531320333 0.7949447036
0.05982704833 -0.01215288788 0.9104562402 -0.3067414761 0.3488317132 0.8174717426
0.08252546936 -0.03419777378 0.9300395846 0.1097308472 0.5986619592 0.7662990093
0.07302374393 -0.03471095487 0.9225469828 0.01236295234 0.5436270833 0.7756056786
0.07922925055 -0.02998757735 0.9271227121 0.04127992317 0.5572507977 0.7749848366
0.07117003202 -0.02126321755 0.9201045632 -0.1136801988 0.4639837742 0.7942698002
0.07404001802 -0.02677814849 0.9227781296 -0.03946972638 0.5094451308 0.7844074368
0.07394699752 -0.03202131018 0.9294740558 0.03092340939 0.5552765131 0.7729191184
0.07710428536 -0.03453976661 0.9340662956 0.09300794452 0.5928344131 0.7650424838
0.06623464078 -0.01802009717 0.9183084369 -0.1811012328 0.4247171879 0.8016265631
0.04937924072 0.038081076 0.8869025707 0.6048361659 0.227618739 0.7631270885
0.04953413829 0.0318713896 0.8866320252 0.6048361659 0.227618739 0.7631270885
0.03854554147 0.01040628459 0.8951200247 -0.1329592466 0.4094517231 0.8134831786
0.04005818442 0.01570340805 0.8910473585 0.2199632227 0.4751411974 0.7639977932
0.04270607233 0.03388674185 0.8908258677 0.4725966454 0.3471603692 0.7712048292
0.04164184257 0.02782997303 0.8912127614 0.4000635445 0.4127286673 0.7756354213
0.03919743374 0.02221557312 0.8898820281 0.4321035147 0.3837652504 0.7736783028
0.05118248984 0.01036300696 0.8946294785 0.07848840207 0.5108241439 0.7973781824
0.04547241703 0.01387536526 0.8933764696 0.2342807651 0.5625926852 0.7857621312
0.05004322529 0.01950232126 0.890360713 0.3596378565 0.4492726326 0.7781047821
0.1329466105 0.08835732937 0.8147758245 0.3249452114 -0.3983231783 0.8518052101
0.1493185759 0.09840984643 0.8233161569 0.01830982044 -0.4882825017 0.8633851409
0.1825008094 0.08240703493 0.8189483881 -0.4537339807 -0.29599002 0.8336005807
0.1180961356 0.08248456568 0.8229184747 0.5485790372 -0.3239531815 0.7630426288
0.1177376211 0.09456764907 0.8344272375 0.5441780686 -0.200874418 0.8141179681
0.1194898859 0.08902559429 0.8325536847 0.552447319 -0.2135261595 0.805190146
0.1342896521 0.09442057461 0.8324348927 0.3112192154 -0.3253626227 0.8259913921
0.1284693927 0.09288366139 0.8317276835 0.413566649 -0.2790658772 0.8164996505
0.1405330002 0.09913196415 0.8355299234 0.1659537256 -0.3799789548 0.845113039
0.1245672107 0.09668080509 0.8349362016 0.4262634814 -0.2558353245 0.8242272139
0.1564921886 0.09780678898 0.8312053084 -0.04673512653 -0.5075554848 0.8565463424
0.1249077693 0.1020737588 0.8371558189 0.3623091578 -0.2759089172 0.8417054415
0.1369357258 0.1023037434 0.8275800943 0.2012346983 -0.4081819057 0.8595177531
0.1442176849 0.1002964079 0.8302417397 0.1098534241 -0.4372779131 0.8562290668
0.1349250972 0.100327082 0.8368186951 0.2337008566 -0.3400350809 0.8438335657
0.1500330865 0.09949167818 0.8292213082 0.03459361941 -0.4794760048 0.858836472
0.1188356578 0.07671354711 0.8241876364 0.5460950732 -0.4071346521 0.7293443084
0.1171795875 0.08393271267 0.8317357302 0.5641145706 -0.261536926 0.7814641595
0.1245619804 0.08333151788 0.8260791302 0.496303767 -0.2527902126 0.8229067922
0.1471602321 0.06747713685 0.8096308112 0.02936447598 -0.2111158818 0.924759984
0.1507196575 0.06052251905 0.8063756227 -0.06922674924 -0.012981534 0.9887509346
0.1342456937 0.07530903816 0.8105865717 0.3236589134 -0.4239917994 0.8451524973
0.135725975 0.07047863305 0.8077991009 0.2755050063 -0.3362631798 0.8924786448
0.1402783394 0.06712940335 0.8064539433 0.1556619853 -0.2152658105 0.9490314126
0.1525761932 0.06660939008 0.8067385554 -0.07699728757 -0.1530514061 0.9782983065
0.1441079378 0.07210239768 0.8073250651 0.09389191866 -0.3189838529 0.9352419376
0.08741678298 -0.03885072842 0.9293809533 0.1612113714 0.6313058138 0.7585855722
0.09855269641 -0.03129315376 0.9306840897 0.1613512188 0.6295868158 0.7599884272
0.08906020224 -0.03495604545 0.9345055223 0.1611409485 0.6321715117 0.757879138
0.08392872661 -0.04677063972 0.9283490181 0.1610956788 0.6327280998 0.757424891
0.08850137889 -0.0448146835 0.9312201142 0.1613349319 0.6297870278 0.7598250508
0.08440167457 -0.03949801251 0.9350645542 0.1611101925 0.6325495839 0.7575705647
0.0445596166 0.02220284939 0.8871557713 0.5558062196 0.3114504516 0.7572090626
0.04077844322 0.03071183711 0.8850963116 0.6048361659 0.227618739 0.7631270885
0.05065106601 0.02597787231 0.8861549497 0.6048361659 0.227618739 0.7631270885
0.04283818975 0.03907212242 0.887052834 0.6048361659 0.227618739 0.7631270885
0.112818256 0.05996327475 0.825450778 0.6575024128 -0.09890956432 0.690338254
0.138014257 0.08633878082 0.8209500909 0.2396058589 -0.3911024332 0.8779773116
0.1314911842 0.0857629478 0.8237736225 0.3874396086 -0.2962711155 0.8660636544
0.128141135 0.08099827915 0.821354568 0.4276019335 -0.4069252014 0.7999153137
0.1340332478 0.08262914419 0.8185635209 0.3609572351 -0.3937423229 0.8423992395
0.1381384283 0.08894104511 0.8265938163 0.2769689262 -0.3322018087 0.8654808402
0.1288141608 0.08691259474 0.8284974694 0.4337058365 -0.2373391241 0.840557158
0.1440594643 0.09208352119 0.830532968 0.1747599393 -0.3780734241 0.8478202224
0.1015456989 -0.04682169855 0.9270755053 0.1613888443 0.6291241646 0.7603660226
0.2118783295 0.01939661987 0.8504791856 -0.7411583662 0.05777016655 0.6604507565
0.2062885761 0.02165827528 0.8427876234 -0.7056603432 0.05041427165 0.6991887093
0.2169570625 0.02087335289 0.8568846583 -0.7718347907 0.0261308793 0.6290603876
0.1491670907 0.09065300971 0.8233309984 0.00621091947 -0.4983695745 0.8612806797
0.1432471424 0.08880186826 0.8217912912 0.08395024389 -0.495398283 0.8634195924
0.1521918327 0.07401966304 0.8078999519 -0.0155563429 -0.3306249082 0.9416917562
0.1573306173 0.07112727314 0.807772994 -0.1281296462 -0.2245145142 0.9584503174
0.1432837993 0.1019033343 0.8214671612 0.1128485277 -0.4763102233 0.8690099716
0.153557986 0.09411540627 0.8204253316 -0.04722190276 -0.4877127707 0.8608564138
0.1601737589 0.08936220407 0.8198057413 -0.1476910114 -0.4936452806 0.8556877375
0.1703048348 0.08769263327 0.8186811209 -0.2388267666 -0.4680843055 0.8490014672
0.1617328972 0.08132809401 0.811630547 -0.1551173478 -0.4417976737 0.8765613437
0.1611628979 0.07630025595 0.809589684 -0.1736660302 -0.3119668961 0.921479702
0.2162341326 0.01934292912 0.8649035096 -0.7910085917 0.101129353 0.5831953883
0.2168324292 0.0129015753 0.8652294874 -0.7591046095 0.2343582809 0.5779219866
0.2090315074 0.006687680725 0.8657278419 -0.7211482525 0.3939510584 0.5693981051
0.1023952365 0.07557442784 0.8366696239 0.7252836227 -0.2211733162 0.6476576328
0.1009976268 0.06976752728 0.8391947746 0.7502977252 -0.1417676806 0.638021946
0.1118682772 0.08750361204 0.8315271139 0.6045154333 -0.2359338999 0.7532758117
0.1266652644 0.09725038707 0.8191913962 0.4604612589 -0.2801006138 0.8369683623
0.127162233 0.08634509891 0.8159388304 0.433221817 -0.3659304976 0.8182367086
0.130732134 0.09379836917 0.8162505031 0.3924764395 -0.3318927884 0.8520863056
0.1268091351 0.07883722335 0.8145409822 0.4309124947 -0.4093222618 0.8007718325
0.09755019099 0.0578013882 0.8410264254 0.7741573453 -0.04017015919 0.6259715557
0.0993860662 0.06386404485 0.8402901888 0.7809917331 -0.07924315333 0.6193371415
0.09996923059 0.05567241833 0.8367412686 0.7842817903 -0.01446742937 0.6190350056
0.1017618701 0.06628677249 0.833398819 0.7571098208 -0.1561615169 0.6337584257
0.1066407338 0.06052615494 0.8259537816 0.7448100448 -0.07776865363 0.6551629305
0.1076308936 0.05428027362 0.825055182 0.7461419106 0.05615834147 0.6624839306
0.1157045811 0.06115087122 0.816722095 0.6292659044 -0.08463875204 0.7618076205
0.1132378578 0.05564148724 0.818908155 0.6694981456 0.06490164995 0.7349634767
0.1341848522 0.06296920776 0.8068102002 0.2701829374 -0.1354186535 0.9463906288
0.1357604861 0.0509714298 0.8071444631 0.193380177 0.135627076 0.9678450227
0.1176947728 -0.0483548753 0.9275324345 0.3348222375 0.1468837857 0.7006260753
0.1210390255 -0.05259545147 0.9263986349 0.4495141506 0.1022881567 0.6147447824
0.111814402 -0.05188796297 0.9249086976 0.2085749656 0.6679934263 0.7123835683
0.105563432 -0.05121638253 0.9258881807 0.1642733961 0.6321643591 0.7568002939
0.1059349999 -0.04256277531 0.9255030751 0.1690846384 0.6372352839 0.7508530021
0.1131244972 -0.04130652174 0.9246422052 0.1600027978 0.6227504015 0.7537216544
0.1056073233 -0.03337874264 0.9284342527 0.1302661151 0.5916938186 0.790964663
0.09711065888 -0.03698613867 0.928150773 0.1613888443 0.6291241646 0.7603660226
0.09404698759 -0.04459732026 0.9276271462 0.1613345295 0.6297919154 0.7598210573
0.1630259752 0.0698120892 0.8083545566 -0.2474396825 -0.1488156021 0.9549981952
0.1586478353 0.0645287782 0.8073317409 -0.1955304295 -0.08823536336 0.9737769365
0.1594883502 0.09300858527 0.8254537582 -0.1305332035 -0.5015146136 0.8540041447
0.1690950245 0.09242852777 0.8259801269 -0.2138488591 -0.4792161584 0.8469621539
0.179335162 0.0845881626 0.8236835003 -0.4127407074 -0.2977296412 0.8065855503
0.1751206964 0.08875993639 0.8249287009 -0.3158625066 -0.3937458396 0.8278978467
0.1871953309 0.07366798073 0.8228427172 -0.6640447378 -0.02480140515 0.7380360961
0.1790268123 0.07270569354 0.8162846565 -0.428460449 -0.1587985456 0.861199379
0.1829330325 0.06840565056 0.8176401854 -0.5716163516 0.009640187025 0.7998632193
0.1765458286 0.06737809628 0.8147879839 -0.4383080304 -0.04189204052 0.8845109344
0.1973534822 0.04257031903 0.8547585011 -0.4186978042 0.1549772918 0.7825952172
0.1904691607 0.03457851708 0.8579598069 -0.2752625048 -0.03976619616 0.7339642048
0.1921576858 0.04416899756 0.8539031744 -0.2818226516 0.1134503409 0.8077548146
0.1924647093 0.02748082578 0.8610681295 -0.3521513641 -0.1134221032 0.6717347503
0.1842987239 0.04143702239 0.85481745 -0.0941080898 -0.02053599618 0.8040559292
0.1971231401 0.03393122926 0.8584549427 -0.4452995956 0.03276389465 0.7130946517
0.1788964421 0.03191843629 0.8587217927 0.006268882193 -0.2182326764 0.739567101
0.1760815084 0.03882255405 0.8556696177 0.1030715853 -0.1572850943 0.8021509051
0.1683493257 0.03583478183 0.8566977382 0.2866335511 -0.2932543755 0.7960805297
0.2022484392 0.03186380118 0.8595089316 -0.582157135 0.06694939733 0.6843001842
0.1798819005 0.04415272549 0.8528854251 0.06039271504 0.03597057238 0.8331409097
0.1862996668 0.04642586783 0.8525381088 -0.1148814186 0.09703676403 0.8387148976
0.194224298 0.04981288686 0.8511022925 -0.2889110446 0.2693496048 0.846283555
0.1989273578 0.02064896561 0.8579612374 -0.5214759111 0.08855707943 0.6627417207
0.1844301373 0.02908502892 0.8593631983 -0.1414435208 -0.1633981764 0.7110381126
0.2039759457 0.02293802798 0.8623181581 -0.6558685303 0.002104023006 0.6184651852
0.1469654292 0.07797779143 0.8108240962 0.06000866368 -0.401479125 0.9108748436
0.1502728462 0.08681404591 0.8153688312 0.002780975308 -0.5040476918 0.8565942645
0.1455057263 0.09034829587 0.8161975145 0.06846758723 -0.4753661156 0.8680255413
0.1419875622 0.09598901868 0.8172442317 0.1064961553 -0.4547390938 0.8729196787
0.1353018284 0.1036360487 0.8190740943 0.1933196783 -0.4164835513 0.8862455487
0.140621677 0.07913274318 0.8127536178 0.1962833256 -0.4569685757 0.8609707355
0.1449801326 0.08377052099 0.8151748776 0.1007587612 -0.4723296463 0.8743306398
0.1378284991 0.09133758396 0.816129446 0.1971069872 -0.4370601475 0.8721845746
0.1593662202 0.05656421557 0.8077069521 -0.2156430632 0.05763725936 0.9702798128
0.1656093448 0.0629401058 0.8085017204 -0.3003896177 -0.03717554361 0.9499855638
0.1660422385 0.05669350177 0.809019208 -0.3017561138 0.07690663636 0.9473028183
0.1704671383 0.06416018307 0.8112478852 -0.3758717179 -0.02002285607 0.9208538532
0.1739233881 0.05945112556 0.8135121465 -0.4796151817 0.1587703228 0.8341476917
0.1130107716 0.10078004 0.833552897 0.5371554494 -0.2060045004 0.8174216747
0.1168596596 0.09689842165 0.8281553388 0.5252794623 -0.209789589 0.8245697021
0.1224513054 0.1019752026 0.8233152032 0.502315402 -0.2098077387 0.8383355737
0.1282259524 0.1045236513 0.8198916912 0.4303529561 -0.2584338188 0.8643680811
0.1199291274 0.1031164899 0.8281251192 0.4847435951 -0.2115907222 0.8465619087
0.1183640435 0.09258830547 0.8233703971 0.5161140561 -0.2602728009 0.8074505925
0.1212821379 0.07855284959 0.8182153702 0.5047093034 -0.3773546219 0.7682234645
0.122951135 0.08909808844 0.819563508 0.4791520238 -0.3078978658 0.8127824664
0.1056756303 0.0670414418 0.8280947208 0.7322351933 -0.1902379692 0.6513742805
0.1081848964 0.07163916528 0.8313166499 0.6930154562 -0.2229767144 0.6717534065
0.1113886014 0.07477679849 0.8272976875 0.6391792893 -0.3108925819 0.6984674931
0.109501794 0.08117038757 0.8311688304 0.6469287276 -0.2534235418 0.710262835
0.1151076332 0.06934159249 0.820325613 0.6167858839 -0.3296500742 0.7086405754
0.1107444912 0.06775198132 0.8234116435 0.6715191603 -0.2653805315 0.6916077733
0.1184065565 0.06192538142 0.8222327232 0.580930233 -0.1221824065 0.7324985862
0.1192412525 0.05640021339 0.8187895417 0.5734835863 0.0177402962 0.7693231702
0.1140384525 0.04792691022 0.8229231834 0.6651129127 0.1420219988 0.7063542604
0.1239259988 -0.04603544623 0.9276999831 0.4240900874 -0.08793530613 0.667729497
0.1302693635 -0.04890807346 0.9273041487 0.6397005916 -0.4428987503 0.5542475581
0.1710963547 0.07157043368 0.8123267889 -0.3215825856 -0.1709994972 0.9280815125
0.1550382823 0.08000805974 0.8118915558 -0.04169715196 -0.433001101 0.8979161978
0.1727205813 0.07814960927 0.8142493963 -0.2952758968 -0.2879780829 0.907166481
0.1741931736 0.08384793252 0.8158336878 -0.2807888985 -0.3910405934 0.8747251034
0.1687606573 0.08326775581 0.8139662147 -0.2431498468 -0.4240449667 0.866697669
0.2142190933 0.02422594093 0.8532953858 -0.7521164417 0.006257646251 0.6487864852
0.204961881 0.02764066868 0.840673089 -0.6683197021 -0.04168945178 0.7329378724
0.2104394287 0.02782076411 0.848733604 -0.699066937 -0.04813406989 0.6953774691
0.1939540207 0.02087197267 0.8346478343 -0.4056392908 0.1014119983 0.8611226082
0.2009748369 0.02305268496 0.8361576796 -0.6588222384 0.05737841502 0.7420039773
0.1984783411 0.0313811563 0.8361866474 -0.520865202 -0.07289958 0.8354640007
0.1636062562 0.04993411154 0.8086818457 -0.3360369205 0.2210773826 0.9065502286
0.1902212203 0.05410959572 0.8410190344 -0.3681829572 0.4048875272 0.8046926856
0.1866155416 0.06022100896 0.83192873 -0.5237483382 0.2645771801 0.7617895603
0.1664581895 0.08897895366 0.8317306042 -0.2219457328 -0.3641752601 0.8232773542
0.177441299 0.07034298778 0.8331530094 -0.3715919852 0.04149584845 0.7911606431
0.1825993657 0.05779189616 0.836037159 -0.4102779031 0.3132450283 0.7811540365
0.1713172048 0.08302623034 0.8310228586 -0.3072110415 -0.2337110788 0.8060059547
0.1750529557 0.07666888088 0.8315175176 -0.3579568565 -0.09533026069 0.795106709
0.1852267832 0.06767291576 0.8280127048 -0.5653266311 0.1036844701 0.754309535
0.1804749519 0.07785976678 0.8261582851 -0.5182459354 -0.1172454581 0.7653665543
0.1806564927 0.07285514474 0.8289214969 -0.4816614091 -0.01011563186 0.7711116672
0.1820234805 0.06423772871 0.8327724338 -0.4479108453 0.1750404537 0.7755302787
0.1774545461 0.04619983584 0.8474332094 -0.06196751446 0.1535155177 0.7768784165
0.1853194386 0.04969086871 0.8427169919 -0.2899613082 0.3891880214 0.7923386097
0.1706735343 0.04211186618 0.856308341 0.2709795535 -0.1324804127 0.7779714465
0.1569446027 -0.009844287299 0.8516921401 0.219449982 0.4903688133 0.8416623473
0.1591159999 -0.01773026027 0.852863431 0.1466921866 0.5417505503 0.8271808624
0.1688876599 0.02102014981 0.9093835354 0.2437847406 0.06244075298 0.2239209265
0.1645200402 0.02431280725 0.8937910199 0.3424310684 -0.5292935967 0.6442265511
0.1676813364 0.02749331109 0.8985552192 0.3289497793 0.3007989824 0.3201553226
0.161376819 0.03235824779 0.8738430142 0.4443773925 -0.4428935051 0.6951220036
0.1696807742 0.02736164443 0.9044772387 0.3034913838 0.6514577866 0.1670738161
0.1655453146 0.02119640075 0.9028759003 0.2982806265 -0.4623265564 0.5458934903
0.1632835716 0.02744567394 0.8882007003 0.3741599023 -0.3412823081 0.5565212965
0.1622897238 0.03032213636 0.8818405867 0.4075588882 -0.2586971223 0.5450196862
0.1602790356 0.03495645151 0.8681691289 0.474619627 -0.3587656319 0.6687178016
0.1716770828 0.02652552724 0.9097924232 0.2598915696 0.9247749448 -0.1680904925
0.1649520695 0.03238715231 0.902803421 0.3223984241 0.7043948174 0.1066409796
0.1616040915 0.03586032987 0.8784400225 0.4321851134 0.06318444014 0.4873794615
0.1635163277 0.0347058475 0.892431438 0.3698552251 0.4331293702 0.3006898463
0.1680659056 0.03376724198 0.8963155746 0.4093253911 0.5649881959 0.318058759
0.1638809294 0.03547436744 0.8870832324 0.4096696973 0.3007237315 0.4099170566
0.1708315015 0.03256415203 0.9071011543 0.3794045448 0.8592938781 0.1919945776
0.1677628607 0.03057459928 0.9117901325 0.3186509907 0.9265083671 -0.001198235783
0.2095477432 0.01311885659 0.8650733232 -0.7571986914 0.2423171848 0.577606976
0.2091166526 0.0178182777 0.8625158072 -0.7748364806 0.1466029584 0.5971528888
0.1266546696 0.1031620055 0.828189075 0.3379219174 -0.3131437898 0.8673890829
0.1171730757 0.1034220755 0.8362070918 0.4722559452 -0.2151900232 0.8440164924
0.1927426606 0.01194341481 0.8362238407 -0.4168829024 0.2790753841 0.849483788
0.1875126809 0.02010986209 0.8331839442 -0.1486181021 0.09340781718 0.9568147659
0.122923784 0.07314733416 0.8200497627 0.4976305664 -0.3254172802 0.7730039954
0.1215231121 0.06253834814 0.8136123419 0.5358989835 -0.1330740005 0.8189957738
0.1279606372 0.05538062751 0.8100046515 0.4000430107 0.07588955015 0.8968844414
0.1196535304 0.06791660935 0.8154345155 0.5554563999 -0.2679901123 0.7730742097
0.1327127069 0.05758443102 0.8080601096 0.2885801196 -0.006554915104 0.9384229779
0.1307428926 0.06930550188 0.8122053146 0.3711583614 -0.3013263345 0.8533777595
0.1260142624 0.06561902165 0.8110399246 0.450294584 -0.2336734533 0.8569789529
0.1192115471 0.03630776331 0.8288285732 0.6445032954 0.1987604201 0.7100929022
0.1330281794 0.0364334397 0.8371576667 0.5691645741 0.04211681336 0.7360123992
0.1531256437 0.03731248528 0.8541153073 0.5189341307 -0.3014079928 0.7469294071
0.1587051451 0.03654125705 0.8584763408 0.5468595028 -0.3308923841 0.7557893991
0.1037942693 0.05483519286 0.8311867714 0.7748221159 0.0107752122 0.631242156
0.1046837047 0.04885375127 0.83249861 0.7644893527 0.07704162598 0.6364305615
0.1019323915 0.04247478396 0.8361946344 0.7405292392 0.1193234846 0.6592019796
0.1367885023 0.03698824719 0.8456306458 0.5997194052 -0.1268152744 0.7174343467
0.1300260723 0.0367940627 0.8424690962 0.6300284863 -0.05640148744 0.705868721
0.123194322 0.03656231984 0.8372199535 0.6529473662 0.04847880453 0.6994716525
0.1123327762 0.03619844466 0.8291380405 0.6903728247 0.2108968347 0.6886231303
0.1470039785 0.03729914874 0.8514215946 0.5577373505 -0.2498505116 0.7322943807
0.1410853118 0.0370234549 0.8492493033 0.5903133154 -0.1910738051 0.7214015126
0.1171530038 0.03604795039 0.834871769 0.6933025122 0.1243691891 0.690200448
0.1076299697 0.04302127287 0.8312343359 0.7333648205 0.152558744 0.6586089134
0.1360174268 0.03733964637 0.8119694591 0.2363569885 0.3394501507 0.9055652022
0.1319822222 0.04466889054 0.8095295429 0.2910961211 0.2499836534 0.9180212021
0.1304965317 0.04002773389 0.8127940297 0.3471939862 0.307138294 0.8789813519
0.1543816626 0.03573445603 0.8356334567 0.4874529839 -0.07336749882 0.8301336765
0.1296593994 0.03640014678 0.823184967 0.4894322157 0.2623372376 0.7972062826
0.1507437527 0.03736596927 0.830729723 0.4412050545 -0.01648315974 0.8535866737
0.1413366795 0.03534192592 0.8305547833 0.5110693574 0.1001406088 0.7990341783
0.1365092397 0.03694294766 0.8251773119 0.4668138921 0.1728726178 0.8197492361
0.147060439 0.03900871053 0.8257830739 0.394656986 0.04106657952 0.8771639466
0.1415721774 0.03938185796 0.8225681186 0.3882571459 0.1166918948 0.8740127683
0.1323769689 0.03951784596 0.8181616068 0.392380327 0.2410094738 0.859706223
0.1245794818 -0.04213678464 0.9238231182 0.6769437194 -0.521499753 0.5190755129
0.1185527071 -0.04433275759 0.923455596 0.4099705815 0.1997605562 0.6172311902
0.1680565476 -0.02250380069 0.8595057726 0.06501609832 0.5537167788 0.8288427591
0.161337927 -0.02179686353 0.8576888442 0.114613466 0.540771246 0.8315510154
0.1916613281 -0.01346473582 0.8561062217 -0.3630575836 0.6089938283 0.6569615006
0.1876084954 -0.01678153127 0.8523517847 -0.2867235541 0.6382368207 0.6971585155
0.1948951036 -0.01189199463 0.8509709239 -0.4355143607 0.6084302664 0.6452403665
0.2103747576 -0.002431969624 0.8635627031 -0.6630193591 0.5073557496 0.5349152684
0.1976066977 -0.007183599751 0.8524475098 -0.5230247378 0.5601113439 0.6191031933
0.2020423263 -0.007783637382 0.8569594026 -0.5371161699 0.5653181672 0.593283534
0.2038503885 0.006253539585 0.8571192026 -0.6836711764 0.3972514868 0.603818655
0.1657804847 0.03033526801 0.8558431864 0.3684453964 -0.1635663509 0.7669171095
0.1819170713 0.009256299585 0.8500122428 -0.1185651645 0.2541179061 0.6924042702
0.1618727148 0.02122854069 0.8481983542 0.5235384107 -0.0458040759 0.8074293733
0.1704589874 0.02088645287 0.8526468277 0.2472894937 0.03946174309 0.7384831905
0.1654390246 0.02489011548 0.852963686 0.4078490436 -0.04472717643 0.763158381
0.171410799 0.01365888678 0.8476250172 0.2184615433 0.1138194054 0.7603920698
0.1673815995 0.01736471429 0.8482570052 0.3472091854 0.04180172458 0.7781735063
0.1786154509 0.01668947935 0.8539025784 -0.01416430622 0.1554145515 0.6889035106
0.1875084043 0.006843955722 0.8512295485 -0.2979100943 0.3294092715 0.6565068364
0.1926986277 0.01376397163 0.8562351465 -0.3899938166 0.2054556161 0.6600143909
0.1724146008 0.02857823856 0.8561608195 0.1628702879 -0.1670841128 0.7625075579
0.1867151707 0.01879454032 0.8565329313 -0.2209624052 0.08350527287 0.6921070814
0.1925347447 0.01901491173 0.85871768 -0.3393443525 0.1087908447 0.6752815843
0.1796305627 0.02196425013 0.8555369377 -0.04590422288 -0.01002639066 0.7222644091
0.1983362138 0.004231237341 0.8536352515 -0.592392683 0.4078370929 0.616289556
0.1929451525 0.007175179664 0.8531348109 -0.4543940425 0.3269549608 0.6407346725
0.2022173554 0.0122960005 0.8589238524 -0.6000804901 0.2801857889 0.6273488402
0.1884135008 0.02455449291 0.8575100899 -0.2417277396 -0.02387877554 0.7060320973
0.1892485321 0.0602353476 0.8240011334 -0.6946461201 0.08338996023 0.7060214281
0.1993983686 0.04074411839 0.8365932703 -0.6249473095 -0.07069049776 0.76908952
0.1938940436 0.05258079991 0.8306547999 -0.6706208587 0.03035002574 0.7300931215
0.1969700307 0.04769252241 0.8351871371 -0.6558328271 -0.002283577574 0.7453501225
0.1893774867 0.05400374159 0.8252991438 -0.6466977 0.1319932342 0.7293195128
0.1966590285 0.05419789627 0.8369452357 -0.6666240096 0.003260209924 0.7451111674
0.1997462809 0.04833067209 0.8425492048 -0.6534047723 0.02094723284 0.7548406124
0.1946627647 0.05888433009 0.8343560696 -0.6620616913 0.01194485649 0.7474471927
0.2100817412 0.02985974588 0.8611277342 -0.7159792185 0.09167627245 0.6518297195
0.2112429738 0.02469098382 0.8632687926 -0.7805578709 0.04422593489 0.6067111492
0.2061156929 0.03685481846 0.8577644229 -0.6229244471 0.16004996 0.7168434262
0.2036956251 0.04262586683 0.8551553488 -0.5481660962 0.2149800807 0.7690742016
0.2104183435 0.03573423252 0.8537037969 -0.7189810872 0.0295430962 0.6822479963
0.2168770432 0.02835573256 0.8593968749 -0.7722525001 0.02039953135 0.627242744
0.2012398392 0.0499336049 0.8496331573 -0.5951086879 0.1378761679 0.7883771658
0.2041151226 0.04430373013 0.8496291041 -0.6492408514 0.0736015141 0.7462334633
0.2059583515 0.03840923309 0.8477527499 -0.6852962971 -0.009318822064 0.7190210819
0.2124846131 0.03035184555 0.8533302546 -0.7244791985 -0.02054929174 0.6724101305
0.203516677 0.03402780369 0.8407245874 -0.6220877767 -0.1083947569 0.7676543593
0.2067182362 0.03219802678 0.8448790908 -0.6552449465 -0.084259592 0.7358345985
0.1939612776 0.03923045471 0.8326987028 -0.5016569495 -0.01772572286 0.8350945115
0.1902262866 0.04710040614 0.8265293241 -0.6176717281 0.1205413789 0.7441859245
0.1847891659 0.06208999082 0.8199003339 -0.6783509254 0.1898057461 0.7025900483
0.1791473478 0.0617467761 0.8159612417 -0.5664707422 0.1774530262 0.7873983979
0.2057714909 0.01664373837 0.8456054926 -0.7158571482 0.1847579181 0.6643087268
0.2016641051 0.01715517789 0.8407685161 -0.6941093206 0.210142836 0.6847680211
0.2118559778 0.009026611224 0.8592875004 -0.7232654095 0.3231488168 0.5984401107
0.2076589316 0.01336150989 0.8502132893 -0.7206754684 0.2488689572 0.6346345544
0.2193469852 0.01591392234 0.8610730767 -0.7867012024 0.07806871831 0.6051203012
0.2084842473 0.009846603498 0.854621172 -0.7104773521 0.3322309554 0.6145398617
0.2144221812 0.006732047535 0.8644850254 -0.7262803912 0.359374404 0.5780444741
0.1975289881 0.001741906512 0.8481811881 -0.6138672829 0.4652807713 0.6321124434
0.199180454 0.008829491213 0.843854785 -0.6443346143 0.3664459884 0.6614449024
0.2092813253 0.003424186958 0.8586719632 -0.6978371739 0.4327536225 0.5593573451
0.2044630051 0.0007156081265 0.8562809825 -0.6638165116 0.4724133313 0.5729148388
0.2030330598 0.006439891178 0.8501973152 -0.676007092 0.3932574093 0.6111136675
0.1383173019 0.04360764474 0.808073163 0.1240821108 0.2468380332 0.9583435059
0.1425464749 0.03783495352 0.8084611297 0.08643648773 0.281088233 0.9544434547
0.1694484204 0.05196885765 0.8118802905 -0.4610477388 0.3004203737 0.8300152421
0.1778964251 0.05472996086 0.8162637353 -0.6070133448 0.3490447998 0.712490797
0.1548011154 0.04631707445 0.8087083101 -0.1402230561 0.1920422763 0.9613451958
0.1474417001 0.04652511701 0.8073044419 -0.04291865602 0.1869976372 0.9783350229
0.1534964889 0.0541966334 0.8072272539 -0.1458013952 0.09643328935 0.9817863703
0.1453569978 0.05351110175 0.8059120774 0.01361466385 0.1216383502 0.9904604554
0.1664351374 0.04112290218 0.8523301482 0.1235370263 -0.05561420694 0.6409732699
0.1796468794 0.04775486514 0.8414304852 -0.3288558424 0.3754211664 0.6772144437
0.170825839 0.04327960312 0.8484227657 -0.05158323422 0.1104425415 0.6308415532
0.1697214842 0.05391404778 0.8392317295 -0.5376556516 0.410797298 0.2852504253
0.1714470387 0.06925217807 0.836032629 -0.3446667194 0.0675194785 0.6606514454
0.1688126326 0.04492736235 0.8410937786 -0.6497137547 0.6118206382 0.06900054216
0.174505055 0.04908597469 0.8395957947 -0.5454818606 0.5133844018 0.359947741
0.1731929034 0.05809673294 0.8379971385 -0.4552137256 0.3141051829 0.4962736368
0.1842364669 0.05212889984 0.8378277421 -0.4139126837 0.4356427491 0.7743723392
0.1762017161 0.06539785862 0.8362103105 -0.3416163027 0.1484553963 0.7541686893
0.1783822775 0.05392940715 0.8381833434 -0.4514330626 0.4015640914 0.5991439819
0.1706529409 0.07469742745 0.8350667357 -0.2901287377 -0.05290487781 0.7429919243
0.1665462255 0.0828614682 0.8339704871 -0.2373324335 -0.2304628044 0.7608607411
0.1618100852 0.03729015589 0.8536322713 0.1991038173 -0.005704511888 0.5312615633
0.1651585549 0.06220574304 0.8373124003 -0.4785169363 0.2246952504 0.31031093
0.1623838395 0.07845525444 0.8329151869 -0.3025459945 -0.1455602944 0.5800350904
0.1637554616 0.07336966693 0.8353520036 -0.3649873734 -0.02209015563 0.4861059189
0.159657672 0.08371156454 0.8276386261 -0.2188506424 -0.2929148376 0.7018550634
0.1638943702 0.06745178998 0.8351163268 -0.4163122773 0.09960335493 0.4043541253
0.1615065634 0.09198652208 0.8322744966 -0.1769969314 -0.4322564304 0.7775421143
0.1495075226 0.04116412997 0.8194416165 -0.1030421406 0.3844213486 0.6829553246
0.1538788378 0.04110367969 0.8254742622 -0.2526898086 0.4705144465 0.4890739918
0.1376519203 0.04236205295 0.8144845366 0.1613020599 0.3056484461 0.8284156919
0.1435572803 0.04181333259 0.8174828291 0.02306394652 0.3520647585 0.7383120656
0.1613373607 0.0377805382 0.8380097747 0.06855095178 0.1643249989 0.5465298295
0.1615446508 0.06889872253 0.8297587633 -0.3566381037 0.008860290051 0.4752222002
0.1626516134 0.06298913062 0.8314350247 -0.4188711643 0.1386905015 0.3769958019
0.1558098942 0.08507438004 0.8173224926 -0.09356285632 -0.4920250177 0.8237524629
0.1595240384 0.07144059986 0.8245564103 -0.2769184411 -0.1300753802 0.5629629493
0.1603570729 0.07570037246 0.8280804753 -0.2879764736 -0.1359143853 0.5857283473
0.1640636772 0.05295125023 0.8327887058 -0.49823156 0.3515391946 0.2500849664
0.1571538746 0.07653419673 0.8189321756 -0.1693389565 -0.3089902401 0.7030254602
0.1609361321 0.06220261008 0.8260290027 -0.3461978734 0.08482343704 0.4621909857
0.1520174146 0.05011054501 0.8169169426 -0.1940986216 0.2975956202 0.6761066914
0.1505155116 0.04305798188 0.8141630292 -0.07574084401 0.299272418 0.8355749846
0.1639255136 0.04237309471 0.8352200389 -0.5603752732 0.6022079587 0.1630360484
0.1485829502 0.05134945735 0.8115829825 -0.07953696698 0.2146988213 0.8357996345
0.1578769386 0.04922301322 0.8203806877 -0.3340051472 0.3329967558 0.5901588202
0.1590506285 0.06572593004 0.8219217658 -0.2579565048 -0.02481019124 0.5838817358
0.150736317 0.07524322718 0.8197227716 -0.06902949512 -0.2489241511 0.7114782333
0.1549521387 0.062363334 0.8260219693 -0.2464605719 0.06036796048 0.4670399129
0.1591715664 0.05422917381 0.8309224844 -0.3939137757 0.2811545432 0.2980159521
0.1526938975 0.06103607267 0.8141297698 -0.1358821392 -0.02083060518 0.7930272222
0.1577654183 0.05170026794 0.8148005605 -0.28534168 0.2176897079 0.763908565
0.1477208883 0.0709227249 0.815752089 0.001068572863 -0.2550991476 0.7560747862
0.1620977968 0.047455661 0.8269908428 -0.4619574845 0.4195018411 0.4052857161
0.1518973112 0.06468807906 0.8208306432 -0.1410790235 -0.05943430588 0.602065742
0.1550452411 0.05852511898 0.8201004863 -0.2290196419 0.08880865574 0.6169292927
0.1513685286 0.01666371152 0.8312855363 0.3076080382 0.2941839099 0.8967528939
0.1481989771 0.03129768744 0.8170125484 0.1220897436 0.2916485071 0.9387309551
0.1430481225 0.03464977443 0.8142453432 0.1589566767 0.3127468526 0.9267937541
0.1417806894 0.02770914882 0.821329236 0.296638757 0.3275241852 0.893388629
0.1476901472 0.02197996341 0.8263872266 0.2855350375 0.3056434393 0.8996943235
0.1582410783 0.006818769034 0.8420051336 0.4154521823 0.227399677 0.8690415025
0.1460945457 0.01740190387 0.8353265524 0.4838212729 0.2388504893 0.8211386204
0.1329617202 0.02921112813 0.8235408664 0.4248324931 0.3456007838 0.8255608082
0.1269839108 0.03136332706 0.8237338066 0.4932676256 0.3579312563 0.7859873176
0.1398888677 0.02055023983 0.8312600851 0.4443213344 0.3236806691 0.8270760179
0.1376599222 0.02558467723 0.8258814216 0.4020438194 0.3335152864 0.8427501321
0.1525012702 0.01037336607 0.8381119967 0.3902195394 0.2906904817 0.8700454235
0.1339872777 0.03274198249 0.8184846044 0.3506129384 0.3483116031 0.8603938222
0.1579487771 0.01403621584 0.8537073731 0.442578882 0.1196498871 0.8078820109
0.1573350579 0.002438887721 0.8490514755 0.3874716461 0.2693998218 0.8237061501
0.1568383873 -0.003233249765 0.8508163095 0.3084805906 0.3799368739 0.8363203406
0.1590595543 0.03049284965 0.855379343 0.5843091011 -0.1383793652 0.7794760466
0.1584187895 0.01670081727 0.8480100632 0.5423630476 0.0228028819 0.7960849404
0.158632502 0.02488016523 0.8558008671 0.5232023597 -0.0412251167 0.7903602719
0.1574137509 0.006314604077 0.8532075882 0.372412771 0.2433463335 0.8215537071
0.1611430645 0.01354582421 0.8433244824 0.5265669227 0.03135935962 0.8388259411
0.159405604 0.0104919998 0.8481654525 0.4550152719 0.1270708442 0.8303046227
0.1533226073 0.0283744093 0.8209170103 0.1595962942 0.2223148495 0.9430698156
0.1563372016 0.01875803061 0.8300666809 0.258379668 0.2232038826 0.920748055
0.1552702934 0.02362649143 0.825625658 0.2127386779 0.2130562216 0.9328618646
0.1579264998 0.01281245984 0.8356093764 0.3168427944 0.2295506448 0.9064610004
0.1006363407 0.04412807897 0.841168344 0.756065309 0.07885205746 0.6488002539
0.105173707 0.03802585229 0.833176136 0.717728138 0.1720992327 0.6730994582
0.09791461378 0.0506400615 0.8423418403 0.771066606 0.03652641922 0.6350696683
0.1002713516 0.04881798476 0.8372183442 0.7669302225 0.04858737811 0.6380886436
0.1103071496 0.04433498159 0.8259854913 0.7129601836 0.1770759225 0.6770829558
0.1263837367 0.04490048066 0.8126509786 0.4222216904 0.2540216744 0.8663284779
0.1252670884 0.04037033767 0.8164242506 0.4447126687 0.3084478974 0.8307827711
0.1189914644 0.05066110939 0.8150948882 0.5732060075 0.1380838007 0.8045224547
0.1253109574 0.0502387844 0.8113108873 0.4391906857 0.1685514748 0.874114573
0.1190909594 0.03639144823 0.8226758242 0.5737434626 0.3335623741 0.7422941327
0.1171495095 0.04224776104 0.8211702704 0.6059929729 0.2580710053 0.7405621409
0.1201133206 0.04438154772 0.8161438107 0.5473380089 0.2206325084 0.8023812175
0.1934651732 -0.01109245326 0.8617533445 -0.3730871677 0.561968863 0.6370738149
0.1823104918 -0.01852778532 0.8611406088 -0.1219813526 0.5832459331 0.7382625937
0.1857752502 -0.01175540406 0.8549665809 -0.2581056356 0.5513876677 0.713788569
0.2033946514 0.002577838022 0.8640680313 -0.6033700705 0.4248082936 0.607837379
0.1938233972 -0.00497097522 0.8572856784 -0.4398208559 0.4989740252 0.6585155129
0.1986844391 -0.003406536067 0.862918973 -0.4840510786 0.4855106473 0.6239305139
0.1811856031 0.02575043216 0.8315627575 0.00470901886 0.009168098681 0.9896752834
0.1638099402 0.04073640332 0.8166939616 -0.4519372582 0.6039869785 0.6317771673
0.1698362678 0.04270495474 0.8167241216 -0.4580793977 0.4499971271 0.7116012573
0.1760031134 0.03444899619 0.8236521482 -0.2589434087 0.2470143586 0.8319542408
0.1690893173 0.03659205884 0.8206617236 -0.3399325907 0.443139106 0.7238034606
0.1823237538 0.03140064329 0.8281462789 -0.1609763652 0.07446394116 0.9372104406
0.1770571619 0.04185565189 0.8215633035 -0.3957595825 0.2810718119 0.8252047896
0.1803051382 0.03938025236 0.8262829185 -0.3234905601 0.2086161524 0.886708796
0.1881158948 0.03588821366 0.8332927227 -0.288523674 0.04222207144 0.9420357347
0.1854263544 0.04007368907 0.8297683597 -0.3335034549 0.1228220463 0.9026964307
0.1788285673 0.04806194082 0.8201800585 -0.5014902353 0.300958097 0.7750902772
0.1832893938 0.04469268024 0.826051414 -0.403640151 0.1965342909 0.851321578
0.1744705737 0.04746283218 0.816583097 -0.5222105384 0.3732668161 0.7450385094
0.1942499131 0.0281560719 0.8338938951 -0.4387373626 0.0209729746 0.8485815525
0.1857052743 0.03016699478 0.8323185444 -0.1437978148 0.0277367942 0.9753762484
0.162445724 0.0344959721 0.848716259 0.553117156 -0.2069874257 0.8039735556
0.1300759315 0.03501419723 0.8294831514 0.5479986072 0.2408258915 0.7637637258
0.1487834007 0.03470983729 0.8370918036 0.5333037972 -0.008358626626 0.79601264
0.1550819874 0.03460984305 0.8414418697 0.537358582 -0.09716214985 0.8022754788
0.1419292539 0.03482361138 0.835934937 0.5468973517 0.0784650594 0.7800067663
0.1632783413 0.03447340429 0.8425502777 0.519718647 -0.2002334446 0.8221223354
0.1338232607 0.02783523127 0.8307711482 0.6036808491 0.1860341579 0.7545529604
0.1444461346 0.03269120678 0.8454904556 0.660187602 -0.04333287477 0.7289989591
0.1587590873 0.02485917509 0.8415413499 0.7033009529 -0.04689699411 0.7079353929
0.1502960622 0.03184790909 0.8475605845 0.6539439559 -0.07879438996 0.7361494899
0.1511281282 0.02731125802 0.8409535885 0.6977605224 -0.02013878152 0.7076450586
0.1572798342 0.02988572791 0.848539114 0.6561607718 -0.1073495001 0.7382997274
0.1359857023 0.032951314 0.8409971595 0.6789292693 0.02179148793 0.7122442126
0.1527969837 0.02101245709 0.8401181102 0.6562613845 0.0002932831994 0.7481290698
0.1228163689 0.03233091161 0.833669126 0.7025427222 0.1289865524 0.6917622685
0.1400222033 0.02773159929 0.8372032642 0.696121335 0.04990205169 0.7060561776
0.1455921233 0.02352661267 0.83858639 0.6651972532 0.03178804368 0.7365431786
0.1923403889 -0.0007327342755 0.8435747027 -0.4456626773 0.5038828254 0.7163719535
0.1863525063 0.004187738989 0.836566627 -0.1466061622 0.3661898077 0.9139549732
0.1944014728 0.006367804017 0.8392497897 -0.5091617107 0.3897793293 0.7624967694
0.1634378284 0.001612297376 0.8458429575 0.3538929224 0.2720003724 0.835599184
0.1692384332 -0.005128790159 0.849142015 0.2411967963 0.3680518866 0.8202804327
0.161422506 -0.003658413654 0.8473719358 0.2711769044 0.4184377193 0.8377090096
0.1785898805 -0.0112906443 0.8525723815 -0.04857655242 0.5205478668 0.7660461068
0.1861339957 0.0004414927389 0.8491572738 -0.2596085668 0.3941681981 0.6872941256
0.1780145317 0.006141946185 0.8460672498 0.006582475733 0.2481579334 0.7360753417
0.1841133237 -0.005448712036 0.8510863781 -0.2089414001 0.4703026712 0.713781476
0.1680468023 0.005292475224 0.8451707363 0.3166408837 0.1896717399 0.8113657236
0.1735213101 0.001381340204 0.8472791314 0.1370188296 0.2891591787 0.7786079645
0.172177881 -0.009705800563 0.8512088656 0.1554192454 0.4501280785 0.810294807
0.1807504147 0.000252596772 0.8485734463 -0.09157066047 0.3584264219 0.7274286151
0.1764498055 -0.01726160757 0.8547126055 0.007989044301 0.592813611 0.7935095429
0.1900226027 -0.007034526207 0.852674067 -0.3938141763 0.5309406519 0.6731542945
0.16627267 -0.01322297845 0.8533446193 0.1377541423 0.5359980464 0.8234228492
0.1589594781 0.04021645337 0.8138870597 -0.3462100029 0.5696243048 0.7186930776
0.1607184261 0.04457564279 0.8094519377 -0.3328948915 0.3481706679 0.8640006185
0.1595093608 0.02742980793 0.8239485025 0.07367319614 0.3107104599 0.8623723984
0.1547991186 0.03487673402 0.8157345057 -0.0917641446 0.4532048404 0.8365568519
0.1486965716 0.03609624133 0.812597692 0.03348106146 0.3043593466 0.9419557452
0.1783498228 0.005203160457 0.8357738256 0.04218133166 0.3105892539 0.9429923296
0.1659830511 0.002262742957 0.8389442563 0.2439383417 0.3513438702 0.9027776122
0.1673592329 -0.003311960725 0.8408145308 0.1900409609 0.4528329372 0.8670790195
0.1797407269 -0.004564219154 0.8408168554 0.004160672892 0.4783678651 0.8724902868
0.1867583692 -0.01327061001 0.8465988636 -0.1392719895 0.6025260687 0.7656030655
0.1867625564 -0.007447338197 0.8438798785 -0.2005715519 0.5552913547 0.7973610163
0.1861138642 -0.001901727403 0.840729177 -0.1491496712 0.473118186 0.8635710478
0.1925174594 -0.005791765172 0.8466538191 -0.4975500405 0.5722202063 0.6468246579
0.1676741987 0.03170225024 0.8241006732 -0.1861151904 0.3942728639 0.7820022702
0.1720759571 0.02733026631 0.8288328648 -0.0201943405 0.2033695579 0.9064227343
0.1664033383 0.02603711188 0.8239841461 -0.05019659922 0.3489284515 0.8681009412
0.1687430739 0.02174656466 0.8272611499 0.05726584047 0.2515669763 0.9250634909
0.165092662 0.01907937229 0.8323616385 0.2539867461 0.1361147612 0.914568305
0.1602785885 0.03169921786 0.8183259368 -0.1124011502 0.447657764 0.844358027
0.174063161 0.01033910085 0.8345980644 0.1455000788 0.2174922973 0.9608110785
0.166419059 0.008401934989 0.8375008702 0.2750940621 0.23779805 0.9226010442
0.168137908 0.01464032661 0.8355051875 0.2955038249 0.0989144966 0.9412389398
0.1812256128 0.01983412914 0.8322623968 0.03072219901 0.06692198664 0.988476038
0.1754449308 0.01790961623 0.8323820829 0.1240398809 0.1136679053 0.9837812185
0.1848678589 0.009992250241 0.8339738846 -0.08739811927 0.2649068832 0.9564048648
0.1745712161 -0.00659743743 0.8418810964 0.08558838814 0.5311400294 0.842617929
0.1653337628 -0.01225290354 0.8467324972 0.1285115629 0.561678946 0.8168427348
0.1764183044 -0.0142073147 0.8476594687 0.02662484907 0.5978662968 0.800999403
0.180863291 -0.01678589359 0.850283742 0.004623620305 0.6005208492 0.7994503975
0.1699787527 -0.0192035269 0.8540862799 0.04135717824 0.5724235177 0.8183152676
0.1702712476 -0.01541165914 0.8495925069 0.05806910992 0.5800882578 0.8115121126
