# .PCD v0.7 - Point Cloud Data file format
VERSION 0.7
FIELDS x y z normal_x normal_y normal_z
SIZE 4 4 4 4 4 4
TYPE F F F F F F
COUNT 1 1 1 1 1 1
WIDTH 512
HEIGHT 1
VIEWPOINT 0 0 0 1 0 0 0
POINTS 512
DATA ascii
0.1354581267 -0.02816208638 0.829528451 -0.3793865144 0.3389075398 0.8375349045
0.1309842914 -0.03221043944 0.8298892379 -0.2963311076 0.3988855481 0.8421106935
0.1390740722 -0.02492743917 0.8452537656 -0.4454861581 0.3172934949 0.6840253472
0.1399243325 -0.01999160089 0.8427542448 -0.4507264793 0.2070928067 0.696542263
0.1360059083 -0.007406750228 0.8386738896 -0.3288891613 -0.1428114623 0.7780668139
0.142920211 -0.01060158294 0.8374800682 -0.4913129508 0.01305446494 0.7091198564
0.1259373873 -0.03506281227 0.829433918 -0.2162257135 0.4212059677 0.8664348722
0.1285529435 -0.02467042767 0.8270971179 -0.1848652065 0.1820992529 0.9558387399
0.1310973465 -0.01943507604 0.825837791 -0.2539587319 0.1138301566 0.9480528235
0.1141351089 -0.03765873611 0.829000175 -0.04030219093 0.3769378662 0.8733888865
0.1064895168 -0.03792797029 0.829000175 0.1248756871 0.2474530935 0.9294162989
0.1447153389 -0.02486860752 0.8333115578 -0.5638203621 0.3276618123 0.7531995773
0.1511126161 -0.01629826613 0.8374769688 -0.7098050117 0.1782191396 0.6691835523
0.1450358778 -0.01926223747 0.8325963616 -0.5167750716 0.127611205 0.8279995918
0.1602690965 -0.0513606742 0.8644717336 -0.4648539424 0.1670080572 0.8680331707
0.07858028263 -0.1081877202 0.9634065628 0.2834717035 0.841806829 0.4593528509
0.02011782117 -0.09109181911 0.9479649663 -0.05683033168 0.4712705612 0.8796809316
0.02544332109 -0.08937601 0.9509993196 -0.09036390483 0.3857873082 0.9142012596
0.06886927038 -0.1020508781 0.9540822506 0.2834717035 0.841806829 0.4593528509
0.04916927591 -0.1042658165 0.961384654 -0.02626598254 0.4200578034 0.8367166519
0.05224774405 -0.09706485271 0.9592023492 -0.02937944047 0.415818423 0.8405098915
0.06165901199 -0.09176389128 0.9524831176 0.258323729 0.807564497 0.4899914861
0.1576963365 -0.0372678265 0.8563622236 -0.6154965758 0.3034055233 0.7064058185
0.1575787961 -0.03299167007 0.8527767062 -0.6689554453 0.3342870474 0.644346714
0.1609965414 -0.03225039691 0.8592064977 -0.6809690595 0.3619776368 0.6299304962
0.1568689048 -0.02834880352 0.8492045403 -0.7133876085 0.3637344837 0.588622272
0.1628837734 -0.04209658876 0.8640523553 -0.6175277233 0.3027027249 0.7221081853
0.1194279268 -0.0491771847 0.8632907867 -0.09543760866 0.5687448978 0.7584322691
0.1598403603 -0.02829156816 0.8553925157 -0.7051204443 0.3746196628 0.5968548656
0.165449217 -0.03376233578 0.8683148623 -0.6584184766 0.3646421731 0.6578755379
0.1251672506 0.03037627228 0.8451156616 -0.2775742412 -0.5668570995 0.7705941796
0.1201520711 0.03023347072 0.841142714 -0.2162876576 -0.5099438429 0.82808882
0.1020691097 0.03034035303 0.8441163301 0.3076007068 -0.2859829962 0.7949739099
0.1165814921 0.03051005118 0.8488376141 0.004431904294 -0.4408526719 0.7827761173
0.1132673845 0.03018256463 0.8397263885 -0.05947968364 -0.4321535826 0.8344136477
0.1075680628 0.03024769202 0.8415383697 0.1203457639 -0.3591623604 0.816908896
0.09382229298 0.03038064018 0.8452371955 0.5429257154 -0.185349077 0.7787731886
0.1214408875 0.03063770942 0.8523892164 -0.06441875547 -0.4861677289 0.7667070627
0.1123883054 0.02995773777 0.8334713578 -0.0290437229 -0.3607453108 0.8736272454
0.13123025 0.002725818194 0.8296663761 -0.1969565004 -0.3774216175 0.9037842751
0.1270672381 -0.001113113831 0.8352668881 -0.1724025458 -0.2280755043 0.8634161353
0.1282968372 -0.006583645009 0.837434113 -0.2038469464 -0.110375084 0.8346856833
0.1272212565 0.002747675404 0.8397882581 -0.1639655083 -0.2915376127 0.8250124454
0.1312793642 0.004748127889 0.8367906213 -0.218652159 -0.3912865818 0.8271294832
0.1314674765 -0.01455858722 0.8453550935 -0.278065443 0.08610836416 0.7470847964
0.126342833 0.008437733166 0.839045465 -0.132512331 -0.417712301 0.837495625
0.1340192854 -0.02725808509 0.8490604758 -0.3541998565 0.3680178821 0.6968763471
0.1326923072 -0.00133719435 0.8384151459 -0.2580361366 -0.2587164938 0.8032620549
0.1294851452 -0.004946977366 0.8425911665 -0.2196648866 -0.1265802979 0.7850337625
0.1358424425 -0.01591461152 0.842492938 -0.3488011658 0.06195757166 0.7458513975
0.133424297 -0.021448588 0.8469108939 -0.3281059265 0.2314869165 0.7204205394
0.1392251551 -0.01701749116 0.8282150626 -0.3856522143 0.0746242404 0.9155791402
0.1369722635 -0.02177743614 0.8279893994 -0.3551200926 0.1626891047 0.9169956446
0.1406739205 -0.02859298326 0.8310981393 -0.4550156593 0.388412565 0.7721477747
0.1440364718 -0.009885959327 0.8314196467 -0.4697728455 -0.07909567654 0.8765369058
0.1147172377 -0.03421312943 0.8348723054 -0.02218334749 0.293725729 0.9210907817
0.1106053069 -0.03474089876 0.839612782 0.02649922296 0.3269284964 0.8717296124
0.1150711551 -0.03783703968 0.8426398635 -0.06686998159 0.4016638696 0.8509839177
0.1076840982 -0.032008145 0.8360563517 0.09538241476 0.2566795051 0.899636507
0.1051182523 -0.03087316826 0.8283554316 0.1768993884 0.1528621763 0.9712991118
0.09903793782 -0.02618541382 0.8287230134 0.273914367 0.1029040962 0.9541814327
0.1004375443 -0.0345810838 0.8290001154 0.237921685 0.1710465699 0.9556788206
0.002278383356 -0.04428277165 0.9181519151 -0.3304831088 0.4850777686 0.8089540601
-0.0007364570629 -0.04863803834 0.9216923714 -0.3108689189 0.4933898449 0.8113811016
0.01296246424 -0.01707463525 0.9009540081 0.6095977426 0.243961066 0.7541713119
0.01217181981 -0.01125726569 0.8997711539 0.5996710062 0.2245048583 0.767239213
0.003410215257 -0.038015645 0.9135500193 -0.3461818397 0.4784249961 0.8070115447
0.155908078 -0.007987092249 0.8376718163 -0.683482945 -0.07474736124 0.7023457289
0.1509302706 -0.00763237197 0.8357580304 -0.494659096 -0.1462750584 0.8523977995
0.05519045889 -0.1060440093 0.955068469 0.2324122488 0.7722826004 0.5215603113
0.06419996917 -0.109669514 0.9574958086 0.1841463894 0.7065622211 0.5803642273
0.07376138866 -0.111119628 0.958055079 0.2760388255 0.8316859603 0.4684085846
0.05092833564 -0.1100589857 0.9596250057 -0.09212385863 0.330383569 0.9169535041
0.06847410649 -0.1104928926 0.962092042 0.169330284 0.686388135 0.5984151363
0.05928529426 -0.1091369838 0.9627201557 0.05863269418 0.5356586576 0.7332817316
0.06347605586 -0.09717611969 0.9490984678 0.2834717035 0.841806829 0.4593528509
0.06299050897 -0.1040421128 0.9537591338 0.2834717035 0.841806829 0.4593528509
0.06250958145 -0.09307961166 0.9575768113 0.2568134069 0.8055080175 0.4918315411
0.06913089752 -0.1031684652 0.9613999724 0.2369021773 0.7783962488 0.516090095
0.06403344125 -0.1002320647 0.9602206349 0.2028543353 0.7320355773 0.5575717092
0.0580538325 -0.1034782231 0.9612802863 0.09452329576 0.5845284462 0.6895550489
0.05775460228 -0.09638836235 0.9586851001 0.1632333696 0.6780863404 0.605843246
0.09500786662 -0.0344327502 0.8303307295 0.3274103105 0.1374281496 0.9309054017
0.0906791836 -0.03105701134 0.8331804276 0.4237258136 0.1408924758 0.8869893551
0.09730499238 -0.04008165374 0.829315424 0.2730826437 0.1660382301 0.9459979534
0.1168900803 -0.04603579268 0.8577796817 -0.1700919271 0.6265140176 0.713853538
0.09526517987 -0.02991981432 0.8358277082 0.3252514303 0.1860583872 0.8760857582
0.09689705819 -0.03708483279 0.8438022137 0.2777427733 0.3294248581 0.7941424847
0.1083737984 -0.03969084471 0.8491365314 0.02498034202 0.4530881941 0.7777222395
0.1010222211 -0.02944092453 0.8352982402 0.2166226059 0.1998418719 0.8959632516
0.1070093885 -0.03602710366 0.8444429636 0.06648948789 0.3705245256 0.8217033744
0.1132119745 -0.04136643559 0.8516519666 -0.07855737954 0.5118854046 0.7659407258
0.1130502149 -0.06736987084 0.8681095839 0.3928465545 0.3680174947 0.8377195001
0.1165520102 -0.05590261891 0.8726221323 0.3345144987 0.3075923324 0.88918221
0.1141662672 -0.06155612692 0.8728646636 0.3674472868 0.3504205644 0.8546367884
0.1125045121 -0.07421030849 0.8706362844 0.4164710641 0.4329427183 0.7980514169
0.1083689332 -0.07348129153 0.879640162 0.4239892364 0.4278389215 0.7928767204
0.1122313663 -0.06499330699 0.8767690063 0.3803808689 0.3700066507 0.8393266797
0.1144552007 -0.07135141641 0.8767305017 0.3561907709 0.4261122644 0.8200088739
0.1195548251 -0.06720348448 0.8735194206 0.3010011613 0.4076517522 0.8508142829
0.1242013648 -0.07672404498 0.8724447489 0.2520445585 0.4968102574 0.8241872787
0.1113859415 -0.07913582027 0.8739212155 0.4272831976 0.4489235282 0.7835646868
0.105288431 -0.08330427855 0.8852232099 0.4123077393 0.4739967287 0.7770255208
0.1050666869 -0.08827985078 0.8898817301 0.3710297644 0.4945898056 0.7858424783
0.08745741844 0.02821631171 0.8464549184 0.6932925582 -0.1708409488 0.6965391636
0.08275985718 0.02249922231 0.8495768905 0.64874053 -0.2748099864 0.6909264922
0.08702233434 0.01385568455 0.8497412205 0.5689466 -0.3601691723 0.7343155742
0.08105485886 0.01707793586 0.8477126956 0.6318139434 -0.3004679382 0.6939283609
0.07509420812 0.00945023261 0.849866569 0.5604096055 -0.438031733 0.7019678354
0.1540337056 -0.05627460778 0.8617156744 -0.3379345238 0.1519651115 0.9251775146
0.1285705864 -0.05555665866 0.8698170185 0.1255245656 0.2619769275 0.9052591324
0.1453214586 -0.06107283011 0.8650898933 -0.1370680034 0.2681966722 0.9205024242
0.154344961 -0.03433194011 0.8635070324 -0.5951251388 0.4433853924 0.6636451483
0.1569481045 -0.03991418704 0.8633162379 -0.5584973097 0.3310412765 0.7468319535
0.1437446177 -0.04443818331 0.8649432659 -0.2930732369 0.3264693618 0.7996533513
0.1497681588 -0.04361352697 0.8635057211 -0.4081715345 0.3077421784 0.7965450883
0.1477610618 -0.03701930121 0.8621208668 -0.4906529188 0.4362035394 0.7056362033
0.138061285 -0.04686400294 0.8667467237 -0.1554900855 0.3148204386 0.8246417642
0.1312917471 -0.04823287576 0.8684822917 -0.01836047322 0.3280008435 0.8340525031
0.1408548653 -0.0518562682 0.8665629625 -0.1368810385 0.2284974009 0.8832218647
0.1469480693 -0.05488936976 0.8647791147 -0.2171710581 0.1661826372 0.9149897099
0.1515522748 -0.05135199055 0.8636427522 -0.3389135897 0.1897345632 0.8828829527
0.1347889006 -0.05312403664 0.8681832552 -0.01203179918 0.2385803014 0.8928648233
0.1586494893 -0.03204621375 0.8667625189 -0.624976933 0.4245626628 0.6499868631
0.1398129612 -0.03738359734 0.8552212119 -0.4645513594 0.5887030363 0.6545354128
0.1418702304 -0.03675242141 0.8604359627 -0.4750589728 0.5096509457 0.6967290044
0.1306020021 -0.04321829975 0.8609214425 -0.3094445467 0.5013954043 0.7871893644
0.1245731711 -0.04660511017 0.8604800105 -0.2234443873 0.5076289773 0.8278264999
0.1450064182 -0.030390976 0.847345233 -0.579292357 0.5023135543 0.6237800121
0.1457798779 -0.03292311355 0.855433166 -0.5538560748 0.516379118 0.6440606713
0.148140341 -0.02839322016 0.852802217 -0.592001617 0.431139797 0.6439681053
0.1470074505 -0.0198084265 0.8414141536 -0.5979343057 0.271964252 0.6466220021
0.1448036432 -0.02127025649 0.8508030176 -0.4989476502 0.2212844789 0.6986709833
0.1380691081 -0.001148604671 0.8367901444 -0.3460986018 -0.2841904461 0.7942470312
0.1491801292 -0.02567288652 0.8448458314 -0.651062429 0.426096946 0.6141685843
0.1429140866 -0.01350487955 0.8431899548 -0.4689616561 0.04923560098 0.7200151682
0.1584742516 -0.02277284302 0.8505341411 -0.7410865426 0.3215227723 0.5831028819
0.1537109762 -0.02042802423 0.8413387537 -0.7472884655 0.3083725572 0.5735017061
0.1002073735 0.03036915138 0.8383731246 0.3137284219 -0.2713416517 0.8316032887
0.09143027663 0.03146757558 0.8400406241 0.5549089909 -0.2016376406 0.8002712131
0.1178666651 0.01832928881 0.8455810547 0.0009094020352 -0.4896312058 0.7768123746
0.1075615585 0.01883400232 0.8492814302 0.2519528866 -0.3985983431 0.743858695
0.1323002279 0.02710653283 0.8572844863 -0.2723711431 -0.5899802446 0.7257022262
0.1264292151 0.02161560953 0.8491042852 -0.1770754755 -0.5546611547 0.7661896348
0.1265731752 0.01878155023 0.8440192342 -0.2039327323 -0.5640267134 0.795642674
0.127170682 0.02542317286 0.8556819558 -0.1633889377 -0.5502058268 0.729139328
0.1015119851 0.01757803932 0.8486899734 0.3865057826 -0.3496020734 0.7404326797
0.1135376841 0.0205543898 0.8507197499 0.1229956001 -0.4456264377 0.7423237562
0.1191578284 0.02375918999 0.8548977971 0.01482723095 -0.4853098392 0.7246057391
0.1035496965 0.02137982659 0.8536301851 0.3735283315 -0.3402796686 0.7092456818
0.1130707115 0.02419225127 0.8555160761 0.1705229729 -0.4082455039 0.7070323229
0.1249416545 -0.03261538595 0.8399806023 -0.1842599809 0.3989902139 0.8210783601
0.1234772429 -0.04346065223 0.8552002907 -0.2583878338 0.6171400547 0.7137567401
0.1195535883 -0.03175341338 0.8372119069 -0.09047859162 0.3363643885 0.8774882555
0.1332593709 -0.04031737894 0.8534396291 -0.3863179088 0.630903542 0.6634644866
0.1261773258 -0.03827923164 0.848495543 -0.2549136877 0.5293755531 0.7476298809
0.119684726 -0.04107058793 0.8506805897 -0.1763434857 0.5352067351 0.773204267
0.132882461 -0.03718364611 0.8488153219 -0.3521243334 0.5612869263 0.7014341354
0.1232035831 -0.02213085257 0.8256618381 -0.07119869441 0.1193194464 0.9866044521
0.1195648983 -0.01583761163 0.8238981962 -0.01336143166 0.02251483686 0.9947308302
0.1094540879 -0.02623213269 0.8270881772 0.09191565216 0.1360545456 0.9835945368
0.1195989549 -0.03698970005 0.8286986947 -0.1538963467 0.4291589558 0.8580562472
0.1159002259 -0.02807436883 0.8274213672 0.001893494511 0.2119108588 0.9657167196
0.1245785281 -0.02969395369 0.8278422356 -0.1231384575 0.2682842016 0.9482498765
0.1173484027 0.01359747164 0.8317207098 0.01255828608 -0.3012917042 0.9487297535
0.1212661043 0.004607523326 0.8294928074 -0.02410499379 -0.372571677 0.9237830043
0.1179549769 0.01301800553 0.8398975134 0.03843411058 -0.4494089484 0.8423550725
0.1000470743 0.009553580545 0.8411768079 0.4418151379 -0.2727404833 0.8544177413
0.09431468695 0.009373468347 0.8422468305 0.4414537251 -0.3108602762 0.8412138224
0.1318580955 -0.002694959287 0.8269030452 -0.2151372433 -0.2814470232 0.9280175567
0.1388577372 -0.00970251672 0.8278188109 -0.3900141716 -0.05652451515 0.9126825929
0.1306280941 -0.01254103705 0.8246626258 -0.1995542198 -0.05475628749 0.9650983214
0.01156304497 -0.00554994354 0.8964465261 0.5954737067 0.1664745361 0.7857918739
0.07495463639 0.01586462185 0.8591228724 0.6102694273 -0.4300667942 0.6641458869
0.07121887803 0.008077830076 0.8565558791 0.62308079 -0.3940461278 0.6744897962
0.08067888767 0.01636062376 0.8560592532 0.6152021289 -0.3935047388 0.68162781
0.06427881867 0.005945559591 0.857136488 0.667514205 -0.3552191257 0.6503468752
0.05995709822 0.0004088319256 0.854693532 0.6890887618 -0.3192393482 0.6497799158
0.07334110141 0.0184438359 0.8660947084 0.6298092604 -0.4267552793 0.6481826305
0.06919714808 0.01390732545 0.8643890023 0.6533642411 -0.3919632733 0.6447480321
0.09956479073 0.03068650141 0.85643363 0.3730997741 -0.3999987245 0.695976615
0.1065728441 0.02960318141 0.857563138 0.2489346862 -0.4438031018 0.703766644
0.08639146388 0.02975345217 0.8544654846 0.6142739058 -0.3187866807 0.687164247
0.09351516515 0.03170980886 0.8545975089 0.4870594144 -0.3458371758 0.6964462996
0.0984473452 0.03068458661 0.849191606 0.451200515 -0.2583854198 0.7559042573
0.1128937677 0.03096837923 0.8552411795 0.1571386158 -0.4211149514 0.7338790894
0.1078909859 0.03064754978 0.8516643643 0.2717719674 -0.3363982141 0.7547903061
0.08317136019 0.02343072742 0.8593642116 0.6228672862 -0.3372710049 0.703004837
0.08981695026 0.02433980629 0.8598757386 0.5060606003 -0.3748110831 0.7060437202
0.1160215363 0.02821498178 0.8606026173 0.06141744927 -0.5136544704 0.7159378529
0.1225430369 0.02831005678 0.8590593934 0.0007451152196 -0.4899161756 0.7132747769
0.1021360531 0.02597714216 0.8609487414 0.2884403169 -0.4445664287 0.7118424177
0.1104742587 0.02704305574 0.8605937958 0.1610244215 -0.4736247659 0.7134862542
0.0971936956 0.02441198938 0.8577055335 0.4456661642 -0.3401439488 0.702100873
0.1273920834 0.02964381874 0.8614945412 -0.1358438581 -0.5735099316 0.7209364176
0.08976337314 0.02177947015 0.8517954946 0.7065028548 -0.1570456475 0.6848303676
0.08586733788 0.01928920858 0.8553466201 0.6338958144 -0.3106071651 0.7065325975
0.1097838059 -0.04305516183 0.8300784826 0.02311871573 0.3269061148 0.8976563811
0.10176 -0.04387616739 0.8291088939 0.1746572405 0.2381811142 0.9263669848
0.09923794121 -0.050111413 0.832885325 0.2126202136 0.4205386937 0.8780553341
0.1157959923 -0.0439251624 0.8302305937 -0.1245336905 0.5420780778 0.7986519337
-0.002133187139 -0.03475571051 0.9106286168 -0.3461818397 0.4784249961 0.8070115447
0.1378284544 0.02867191099 0.8592579961 -0.3421678245 -0.6180451512 0.7044628263
0.1392231882 0.0266013518 0.8543221354 -0.3867012262 -0.6103656888 0.686450243
0.1299567819 0.03023958765 0.850287199 -0.3086954355 -0.6002066731 0.7362627387
0.03150223196 -0.08500748128 0.9533070922 -0.1010727361 0.3535598814 0.9266998768
0.04098787159 -0.07967950404 0.9559254646 -0.1151372716 0.3043653369 0.9448176026
0.03265781328 -0.07875909656 0.9561268687 -0.1005429849 0.3554128408 0.9260174036
0.01633290946 -0.06639587879 0.9405858517 -0.1658641994 0.4712818563 0.8590937853
0.01764936373 -0.0857154429 0.9464993477 -0.09050723165 0.4843815863 0.8686395288
0.02238414437 -0.08124310523 0.949875772 -0.0905296877 0.4634584785 0.8795002103
0.01936437003 -0.07795371115 0.9449121952 -0.1057620868 0.4746568501 0.8687098622
0.02736827172 -0.07969087362 0.9538689852 -0.07720865309 0.445195049 0.8914653063
0.01072690357 -0.0677966997 0.9345109463 -0.1738859862 0.4954754412 0.8433580399
0.005612500012 -0.05606707931 0.9278447032 -0.2399704456 0.500228703 0.8277979493
0.0186236091 -0.07126680762 0.9435037374 -0.1378035992 0.4687354565 0.8659772873
0.01143466774 -0.06183154136 0.9347596765 -0.1989249289 0.4847619534 0.8447827697
0.02226528339 -0.07419797778 0.9477690458 -0.1151683629 0.4581675529 0.8765362501
0.0138514163 -0.07687493414 0.9403140545 -0.1334580779 0.4909760654 0.8553037047
0.007731119171 -0.063570939 0.931419611 -0.2038534433 0.5002337098 0.8353339434
0.03705634177 -0.0959500894 0.9566155076 -0.1176266298 0.2956581414 0.9480243921
0.04247411713 -0.1049767211 0.960788548 -0.1176266298 0.2956581414 0.9480243921
0.1205649674 -0.07082951069 0.8642818928 0.3240637481 0.3876028955 0.8600124717
0.06908227503 0.002543675248 0.8540257812 0.6159234047 -0.380872786 0.6871761084
0.08018745482 0.01095355395 0.8523736596 0.5983625054 -0.3803640604 0.7017820477
0.08939494938 0.01040899009 0.8452808261 0.484772563 -0.3720370233 0.7883834839
0.08336436003 0.01644576341 0.8412610292 0.5312447548 -0.3232723475 0.7688267231
0.08573384583 0.02199529856 0.8443384767 0.6490921974 -0.2155540437 0.7111750841
0.07824525982 0.01044739317 0.8453837633 0.5834128857 -0.3631691635 0.7121613622
0.1155443564 -0.08339601755 0.8747676015 0.3728473485 0.5003700852 0.7812184691
0.1122936457 -0.08570053428 0.8796972632 0.3859024346 0.4927691221 0.7790518999
0.08803488314 -0.04184031859 0.8442216516 0.5032753944 0.2352021635 0.8121901751
0.09875315428 -0.05004908144 0.8447716832 0.3319121897 0.4656546414 0.7392520308
0.1042956486 -0.05507320911 0.849809587 0.3273305893 0.4486977458 0.7681052089
0.09627392888 -0.04726918414 0.8392699361 0.2765401304 0.5662587285 0.6808561087
0.09270565212 -0.04537153244 0.8441809416 0.423642844 0.3436571658 0.7764788866
0.1037769094 -0.05383209512 0.844636023 0.2446372956 0.5849371552 0.699555099
0.1123662069 -0.05457667634 0.8604778647 0.3594303131 0.2830435336 0.8843865395
0.1092883945 -0.05970159918 0.8589236736 0.4025355577 0.2988544703 0.8603181243
0.1060335413 -0.05475602672 0.8566680551 0.4125668108 0.2771884203 0.8601853848
0.09535203874 -0.04815054312 0.8498340249 0.4784989357 0.2417295724 0.8362392783
0.1159930825 -0.05561735854 0.8654503822 0.3348166049 0.2937431335 0.893873632
0.09964439273 -0.04648482054 0.8538843989 0.4382720888 0.2417615205 0.8555101752
0.09106521308 -0.03820903227 0.8487702608 0.3287977278 0.3026049435 0.7723578215
0.08090303838 -0.03409025446 0.8473492265 0.5035073757 0.171156913 0.7866085172
0.1035194695 -0.04137135297 0.8561970592 0.05889265984 0.4620683491 0.7299748659
0.1105886772 -0.04464516416 0.855953455 -0.05055118352 0.5538626909 0.7254618406
0.0953611508 -0.04302985594 0.8560634255 0.4655217528 0.2130741328 0.8443925977
0.09132430702 -0.03999642655 0.8596655726 0.4932308495 0.1600781679 0.8314784169
0.08455559611 -0.03707480431 0.8500456214 0.5354656577 0.1575503051 0.8170793653
0.07581008226 -0.03146810457 0.8508682251 0.5936114192 0.08122575283 0.7923359275
0.09014091641 -0.04003988951 0.8539739847 0.499532789 0.1817416549 0.8308185339
0.08477906138 -0.0364365764 0.8556782007 0.5355056524 0.1283322275 0.815092504
0.08035604656 -0.03311691061 0.8545514941 0.528142333 0.1170780361 0.7891609669
0.1106452867 -0.05049877241 0.8695661426 0.3541475534 0.2712430358 0.8753544688
0.1119756624 -0.04747652262 0.8637738228 0.1009161472 0.4399648011 0.7873351574
0.1052383631 -0.0471438244 0.8664562106 0.3688518107 0.2545084953 0.8538541198
0.09662886709 -0.04244661331 0.8626033068 0.4341022372 0.2002733052 0.8352581859
0.1011195406 -0.04119923338 0.8494281173 0.1636930853 0.4225505292 0.7607113719
0.09072803706 -0.03711496666 0.8428047895 0.3935687244 0.2773300707 0.7969610095
0.1476346999 -0.0447021313 0.8484905362 -0.3970195651 0.2566363811 0.8440721035
0.1474584043 -0.05001585558 0.853798449 -0.2949023247 0.1822742075 0.9141204953
0.1387444437 -0.03795076907 0.8361679316 -0.3994190097 0.4689774513 0.7539613843
0.1248789579 -0.04121654108 0.8305748701 -0.2691297829 0.5427077413 0.7859842777
0.1416295767 -0.04511817172 0.8452624083 -0.2985732853 0.3314503431 0.849331975
0.1374768615 -0.04311631992 0.8405755758 -0.3081442118 0.399933666 0.8201744556
0.1387871653 -0.05071202293 0.8490927815 -0.1915648431 0.2698872983 0.9199282527
0.1340139359 -0.03701218218 0.83218503 -0.3884416521 0.5260959864 0.7381944656
0.129311353 -0.04190095514 0.834109664 -0.2825955153 0.492225498 0.7982217073
0.1336876899 -0.04789927229 0.8429790735 -0.2090985477 0.3595038354 0.8795136809
0.1254019141 0.01490679197 0.8398001194 -0.1450953931 -0.5331663489 0.83131814
0.1374964863 0.0159014985 0.8467078209 -0.3558637798 -0.5774697065 0.7232230306
0.131872803 0.01406450849 0.8422226906 -0.2385420352 -0.5426412821 0.78689605
0.1435636431 0.02240468003 0.8525594473 -0.4363972843 -0.6048627496 0.665581882
0.1421075165 -0.003586037317 0.851647377 -0.4439236224 -0.1579191238 0.6985318661
0.140564397 -0.007544553373 0.8452801108 -0.397557497 -0.120776467 0.7530959249
0.1424900442 -0.009927399457 0.8506742716 -0.4453949332 -0.03666023165 0.7128333449
0.1373713911 0.006386173889 0.8398131728 -0.3318959177 -0.4380579591 0.7819319963
0.1391014159 0.004147971515 0.8446254134 -0.3747401536 -0.3607512116 0.7461299896
0.1391510814 0.009761420079 0.8467419744 -0.3837415874 -0.4596901536 0.7235254645
0.1446378976 -0.01471238397 0.8559496403 -0.4958404005 0.09506144375 0.6760089397
0.1409807503 0.00357741979 0.8505013585 -0.4238289893 -0.3099263608 0.7001665235
0.1521895081 -0.02148176916 0.8601855636 -0.605540514 0.2928088903 0.6304374933
0.1445652395 -0.005669014063 0.8559280634 -0.4928632975 -0.08185584843 0.6636391878
0.1413021982 0.01148522831 0.8525255322 -0.4350914061 -0.4524334669 0.6740165353
0.1483443081 -0.02595719509 0.8599327803 -0.5601584315 0.3558493853 0.6517761946
0.1129953191 0.007602546364 0.8350809813 0.1179431975 -0.4074519873 0.8913987279
0.1067060307 0.009214695543 0.8391122222 0.2909109294 -0.3305882812 0.8673887849
0.1249822602 -0.02318158001 0.8383054137 -0.1491881311 0.183624655 0.8141781092
0.1296057403 -0.03000705689 0.8440733552 -0.2622009218 0.3735229075 0.7485322952
0.1187851429 -0.02263004147 0.8309037089 -0.02528498508 0.1272277087 0.9193839431
0.1200113818 -0.01535724755 0.8320854306 -0.0261249803 -0.03174300864 0.883783102
0.1188599765 -0.008616457693 0.830891788 0.01130509749 -0.1688981801 0.8954533339
0.1255096644 -0.01655402221 0.8395965695 -0.1528025866 0.08995207399 0.8032534719
0.122147046 -0.002048757393 0.8316076398 -0.04663775861 -0.2677771747 0.8917290568
0.1227561906 -0.007712761872 0.8347802162 -0.07518456876 -0.1239563078 0.85823071
0.1156969219 0.002665486885 0.8295545578 0.08622303605 -0.3690011203 0.924482286
0.1245991588 -0.0007840990438 0.8268234134 -0.07012400776 -0.3400806785 0.9350373149
0.1182018593 -0.007446386851 0.8248971105 0.04265515879 -0.2191563398 0.9633825421
0.1247899011 -0.00898784399 0.8238216639 -0.08138473332 -0.1563343704 0.9738403559
0.09762386233 0.01333644055 0.8454323411 0.4998730421 -0.2765592039 0.791413188
0.09390751272 0.01584161073 0.8487843275 0.5734317899 -0.270709455 0.7439485788
0.1122670621 0.01487623155 0.8429341316 0.1403087676 -0.419429332 0.8081098199
0.009657084011 0.0002495557419 0.8978490233 0.5790790915 0.192992419 0.7920304537
0.0761577189 0.02267428301 0.8675304651 0.636598587 -0.4283296764 0.6407077312
0.08094892651 0.02920658141 0.8567400575 0.6577032208 -0.3336606324 0.6717415452
0.0784740746 0.02646406554 0.8616319299 0.6470900178 -0.3749605715 0.6592969298
0.08608812094 -0.03939304128 0.8383909464 0.4703388214 0.214107722 0.8402026296
0.09101665765 -0.04411481321 0.8365751505 0.3727506697 0.3107699752 0.8506612778
0.09572649002 -0.04527151585 0.8321413994 0.2884794176 0.2625126541 0.9058859944
0.006055602804 -0.02916110307 0.9065617323 -0.1609853357 0.4331357777 0.7966691852
0.00930120144 -0.02178339101 0.8982391953 0.5874009132 0.2478783429 0.7555109859
0.004546777345 -0.01478738524 0.9019322395 0.4911037087 0.3085077107 0.7695233226
0.005246307235 -0.02103542164 0.9030278325 0.3580383062 0.4731679559 0.7598306537
0.1322956234 0.009529639035 0.8337163329 -0.2607537508 -0.4686447084 0.8426750898
0.1255638748 0.009794482961 0.8329929113 -0.1552603692 -0.4180943966 0.8926874399
0.1289786994 0.01633056998 0.8354680538 -0.2680441141 -0.4783292115 0.835786283
0.1220460013 0.01993330382 0.8351563811 -0.1646818221 -0.4073720276 0.8865662813
0.1204626411 0.02497597225 0.8362244964 -0.1696648151 -0.399923265 0.8835183382
0.04434468597 -0.09340769798 0.9523831606 -0.1176266298 0.2956581414 0.9480243921
0.03856544942 -0.08965920657 0.9529805183 -0.1176266298 0.2956581414 0.9480243921
0.04368397221 -0.0985577628 0.9602763653 -0.1176266298 0.2956581414 0.9480243921
0.04066665843 -0.08682736009 0.9575730562 -0.1176266298 0.2956581414 0.9480243921
0.04285032675 -0.09312712401 0.9587730169 -0.1176266298 0.2956581414 0.9480243921
0.04603581503 -0.088265948 0.9562248588 -0.1176266298 0.2956581414 0.9480243921
0.05031094328 -0.09494955093 0.950838387 -0.001153744059 0.4542514682 0.8061215878
0.05584891513 -0.09303985536 0.9504415989 0.1225392595 0.6226758957 0.6554222703
0.05327601731 -0.08704075217 0.95647645 -0.1176266298 0.2956581414 0.9480243921
0.04617735744 -0.0824162811 0.955881238 -0.1036968306 0.3146254122 0.9310532212
0.02682167105 -0.09609685838 0.9488321543 -0.08965887874 0.3740935028 0.9214500785
0.04522963241 -0.103712894 0.9532950521 0.04674267396 0.5194687843 0.7477677464
0.03762259707 -0.1012071073 0.9519326687 -0.1176266298 0.2956581414 0.9480243921
0.03545947745 -0.09545356035 0.9511589408 -0.1176266298 0.2956581414 0.9480243921
0.05186359957 -0.1011859477 0.9516163468 0.1538496763 0.6653091908 0.6172757149
0.05814535543 -0.1002150625 0.9510446191 0.2613435388 0.811676383 0.4863123298
0.1419881731 -0.06838053465 0.8662189841 -0.02814162709 0.3611098528 0.9107881188
0.1331437826 -0.06122238934 0.8685615063 0.08364616334 0.3162747622 0.9083268642
0.1375759989 -0.06506481767 0.867395401 0.02928235009 0.3413841426 0.9092770815
0.1274393648 -0.06212825701 0.8702433705 0.1911618412 0.3445368409 0.9003050327
0.1252385825 -0.06711478531 0.8711435199 0.2305619121 0.4059890509 0.8693044186
0.1217291802 -0.06144603714 0.8719356656 0.271483928 0.3577411771 0.8820225596
0.1315875202 -0.07112674415 0.8694155812 0.1464876384 0.4262394905 0.8747859001
0.1450331211 -0.07429737598 0.8652969599 -0.04586385936 0.411871314 0.9090729356
0.1508547366 -0.0707513243 0.8645538092 -0.1923323572 0.347153157 0.9157614708
0.1519765556 -0.06450032443 0.8629673719 -0.233631894 0.2875951231 0.9281946421
0.1362868994 -0.08140319586 0.8711869717 0.1217189655 0.529763341 0.8347603083
0.1432093084 -0.08359664679 0.8713464737 0.04694264755 0.5364261866 0.8421667814
0.1392284632 -0.07899997383 0.8659219146 0.0558321476 0.4735429883 0.8738296032
0.1348297149 -0.07571054995 0.8635947704 0.06973684579 0.4385989308 0.8948104382
0.06740044802 -0.02434025332 0.8520851731 0.6243684888 0.001717367209 0.7806639075
0.06268265843 -0.008663160726 0.8526123762 0.6651834249 -0.1733908057 0.7118647695
0.0657954067 -0.01455790084 0.8507147431 0.6439416409 -0.06514666975 0.7598515153
0.07041125 -0.02766237222 0.8477520943 0.6223339438 0.04842501506 0.7803944349
0.07755888253 0.004003413022 0.843542695 0.5207146406 -0.413652122 0.7414043546
0.08216421306 -0.0004704628664 0.838629365 0.474969238 -0.327563554 0.8065566421
0.08293705434 0.00655915495 0.8402702808 0.4736245275 -0.3964591324 0.7789954543
0.08705616742 0.01378557552 0.8380942941 0.4690458477 -0.3345388174 0.8069324493
0.09061836451 0.02554821037 0.8367350101 0.4944420159 -0.2438665777 0.8268698454
0.08823745698 0.0203397125 0.8378949761 0.4915961623 -0.2866032422 0.8115118146
0.1153925285 -0.09322294593 0.8832756281 0.3555754721 0.5107198954 0.7825846076
0.0786780864 -0.03124439158 0.8393297791 0.5728875995 0.1258825809 0.8097834587
0.08145455271 -0.0361186862 0.8409304619 0.5534436107 0.1791970879 0.8131377101
0.07667700946 -0.03115749359 0.8449656963 0.5905530453 0.1075995713 0.7956928611
0.1161364168 -0.06431919336 0.8608005643 0.3321366608 0.3455838561 0.8637036085
0.1188742965 -0.0617479831 0.8563686013 0.234666124 0.3803021312 0.8600865602
0.1034625098 -0.05257968605 0.8385066986 0.1416609585 0.7528688908 0.6162720919
0.1156539544 -0.05824987218 0.8497709632 0.1722846925 0.4961677194 0.791459322
0.1132769808 -0.06116756424 0.8548598886 0.2755098641 0.4495586753 0.8022584915
0.1100503281 -0.05683655664 0.8467535973 0.1905861646 0.5854970813 0.7242665291
0.1239365116 -0.05513045192 0.8472775817 0.03068998456 0.4156795442 0.8661060929
0.1211495101 -0.04537298158 0.8338371515 -0.1577321887 0.5453189015 0.7918069959
0.1171511859 -0.05016113073 0.8388773203 -0.02309746295 0.5678852201 0.7639383078
0.1264618784 -0.05837015808 0.8522039056 0.08067548275 0.3469384909 0.9099565148
0.1186745912 -0.05519178137 0.845831871 0.07336729765 0.4996576607 0.8032817841
0.108520478 -0.04923446104 0.8351759911 0.02475968748 0.7145637274 0.6565879583
0.1230084822 -0.0517142415 0.8425857425 -0.03565407544 0.4603012204 0.8406653404
0.1295949817 -0.07350610197 0.8635585904 0.1716272533 0.4165228903 0.8851598501
0.1257060468 -0.06896882504 0.8621829152 0.2365154922 0.3661264181 0.8949047923
0.1086414158 -0.09265998751 0.8904064894 0.3493031263 0.5077071786 0.7875394225
0.1107529029 -0.08981747925 0.8851103187 0.3582341373 0.5054396391 0.7849026322
0.1164137423 -0.09870419651 0.8866950274 0.3432156146 0.5176286101 0.7836930752
0.1204191148 -0.05141579732 0.8693903089 0.1457710117 0.3588335514 0.8698588014
0.1339548826 -0.04270779714 0.8658773899 -0.1794926375 0.4187471569 0.7655954361
0.1561920792 -0.001593326917 0.8457086682 -0.7358831167 -0.1755355746 0.5894467831
0.1503565162 0.005592638161 0.8475388288 -0.6178996563 -0.3305589557 0.6224202514
0.1463854015 0.01046682987 0.8487874866 -0.5379754901 -0.4356057942 0.6446905136
0.155127883 0.00431782892 0.8432976007 -0.5411027074 -0.3353274167 0.7479291558
0.1565450281 -0.02834259905 0.8632302284 -0.6261731982 0.4375331402 0.6428367496
0.1576949656 -0.02276716568 0.8588609099 -0.6736281514 0.3069414794 0.6267589331
0.1572269499 -0.01797691919 0.8540704846 -0.728469193 0.2051998675 0.5946969986
0.1500556171 -0.004399008118 0.8531979918 -0.6005419493 -0.09498808533 0.6270573139
0.1519249231 -0.01271048188 0.8559802771 -0.6217523813 0.09398070723 0.6227527857
0.1462813169 0.001258301199 0.8538792729 -0.5225070119 -0.2195314467 0.6493782997
0.1547540426 -0.008897586726 0.8509094119 -0.7057344317 0.001278284006 0.5961543918
0.1626668423 -0.01996898651 0.8607058525 -0.7153863907 0.2141827047 0.618106246
0.1633940935 -0.02363909781 0.8648055792 -0.6809014082 0.2902841568 0.6370681524
0.1615580022 -0.0136022279 0.8521175385 -0.7809279561 0.05761190504 0.586145401
0.1664115489 -0.02829312347 0.8673658967 -0.6819143891 0.3040964603 0.6445275545
0.1566682905 -0.01802308112 0.8454124331 -0.7745683789 0.2536975443 0.5665789247
0.1569954455 -0.01277587935 0.8427282572 -0.7837091684 0.12475425 0.5729888082
0.1315211952 0.01906183548 0.8466735482 -0.2775752246 -0.5817932487 0.7556934357
0.1358222365 0.02240186743 0.8519074321 -0.3316185176 -0.6001159549 0.7240270972
0.1444086134 0.01935452409 0.8473654389 -0.4287079871 -0.6007870436 0.6744097471
0.1396967918 0.02296564355 0.8473699689 -0.4112004042 -0.5979085565 0.6852217317
0.1275573075 0.02794547565 0.8405691981 -0.3477137685 -0.5800890326 0.733436048
0.1347493678 0.02636932954 0.846763432 -0.3911679983 -0.5939525962 0.6984012723
0.1414343566 0.01831672154 0.8421416283 -0.4035551548 -0.5909884572 0.6968536973
0.1480171829 0.01412009355 0.8431876898 -0.4238694608 -0.571620822 0.7018647194
0.1433191746 8.219465235e-05 0.8330444098 -0.424380362 -0.2944945097 0.8405221701
0.141781494 0.006886688992 0.8356041312 -0.3667396605 -0.476947993 0.7941978574
0.1411156356 0.01298363879 0.8379787207 -0.3761879802 -0.563816607 0.7340791821
0.1459231824 0.009552903473 0.8389827013 -0.3968521953 -0.5075283051 0.7621338367
0.1373105794 -0.0009030163637 0.8297205567 -0.3223083913 -0.2835992575 0.8867542148
0.1550407559 -0.0451342836 0.8604784608 -0.496825844 0.2384916842 0.8331518769
0.1528453976 -0.0418740958 0.8562081456 -0.5264188051 0.2620615363 0.7947089076
0.1437544972 -0.03718428314 0.8391509652 -0.4682329297 0.4286466241 0.7450031042
0.1462247074 -0.03976963833 0.844848752 -0.4691089094 0.3676543236 0.7767166495
0.1523892432 -0.03571177647 0.8507050276 -0.5926094651 0.310588181 0.7118824124
0.1476622075 -0.02921899036 0.8387264013 -0.6107697487 0.444097966 0.6298947334
0.1427534819 -0.03270000219 0.834877491 -0.5175070763 0.4984534085 0.6844296455
0.1519326121 -0.03069804795 0.8458621502 -0.6424714923 0.3596495986 0.6440326571
0.114830412 0.02418864146 0.8341132998 0.01879175566 -0.2282744795 0.9720626473
0.1079866141 0.02704208717 0.8307153583 0.1683937758 -0.1861378103 0.9599696994
0.1125733405 0.01600305922 0.8304083943 0.1073340625 -0.2675356269 0.9483926892
0.109759815 0.02105943859 0.8301110864 0.1521553844 -0.2275948226 0.9517956376
0.1045710146 0.03024640307 0.8344448805 0.1842129976 -0.296367079 0.8732429743
0.09496420622 0.03050900809 0.8342657089 0.4678480327 -0.1950498372 0.859875977
0.08799128979 0.005623888224 0.837026 0.4161072969 -0.3773003221 0.8223984838
0.09251705557 0.01105152909 0.8359255195 0.4092311859 -0.3078378439 0.8508560658
0.09651646763 0.02087791823 0.8346037865 0.402564317 -0.2072174549 0.8849288821
0.0996883586 0.02493259311 0.8322169781 0.3393749893 -0.1825364977 0.915204823
0.1120615527 -0.01895217784 0.8251004219 0.09280303121 0.0464014858 0.9924572706
0.09917521477 -0.01978967525 0.8283448815 0.2711656988 0.02564185858 0.957218051
-0.0006687694695 -0.03062902763 0.9068555236 -0.2367099822 0.4513911009 0.8009725809
0.003876058152 -0.03370700777 0.9099341035 -0.3102678657 0.4867070317 0.8037693501
0.001905763871 -0.009859855287 0.9014028907 0.5582092404 0.2069202513 0.7798830271
-0.001347549725 -0.02413392439 0.9043571949 0.2805761993 0.555975318 0.7580370903
-0.001086569391 -0.01737586223 0.8983565569 0.6066735983 0.2379566878 0.7565664649
0.1298725605 -0.06302586198 0.8577753305 0.1175744087 0.2971131206 0.9460024238
0.1343990862 -0.07065911591 0.8612934947 0.05717984959 0.3795846403 0.9208450317
0.1443602741 -0.06380657852 0.8598634005 -0.117087543 0.2877514958 0.9495050907
0.1465098262 -0.05451365188 0.8572888374 -0.2068157345 0.1492349505 0.9618532062
0.08579465002 -0.02371492423 0.8345880508 0.4984548688 0.0790726468 0.8610197902
0.08940473199 -0.01564865187 0.8322766423 0.4301838577 -0.02519790642 0.9003110528
0.09144724905 -0.02477524243 0.831823051 0.4040767848 0.08680285513 0.908295095
0.09376270324 -0.019920744 0.830524087 0.3676714301 0.02154082246 0.9267012477
0.0846568346 -0.03285704553 0.8372943401 0.5388678908 0.1752631813 0.8235568404
0.08180392534 -0.0261915084 0.8383886814 0.547835052 0.09521107376 0.8280870318
0.08390691131 -0.01753367297 0.8351451755 0.5161587596 0.01395457331 0.8536419272
0.08325926214 -0.00724953087 0.8357505202 0.463226229 -0.2140620649 0.8511018753
0.08143630624 -0.01204301324 0.8378006816 0.5490160584 -0.06994270533 0.8163674474
0.09134370834 -0.007180714048 0.8322153687 0.37210536 -0.2460834086 0.8870518208
0.09259635955 0.00420695357 0.8404372334 0.4479013681 -0.2498199493 0.8496963382
0.08821169287 -0.003156072926 0.8343982697 0.3914642632 -0.3318974674 0.856096983
0.08690029383 0.00251667737 0.8414654136 0.4680539072 -0.3217235506 0.8033072352
0.1272760779 -0.08256660402 0.868885994 0.2322935611 0.5456824303 0.8035097718
0.1214616001 -0.08222307265 0.8714661002 0.2989856303 0.5528110862 0.772631228
0.1211001948 -0.07661596686 0.8669260144 0.3257222474 0.4498173892 0.8260648251
0.1267823428 -0.07773796469 0.8660770059 0.2528539598 0.4705552161 0.8435295224
0.1064316854 -0.07840061188 0.8819100261 0.4434650242 0.4585925341 0.7696503401
0.1251656115 -0.08606185019 0.876388669 0.2657610476 0.5484886169 0.7897897363
0.120517239 -0.09491969645 0.8848615289 0.3404647112 0.519831121 0.7834917903
0.136096403 -0.08711067587 0.8755712509 0.1434930265 0.5346215963 0.8210663199
0.1308566332 -0.08908225596 0.8775042295 0.2145002931 0.5355063081 0.806750834
0.1249969378 -0.09224069118 0.8819923997 0.2922542989 0.5237489939 0.7927815318
0.1354904473 0.01400613599 0.8379868269 -0.3382309675 -0.5244631767 0.7799203992
0.1326469928 0.02125187591 0.8376635313 -0.3537381589 -0.5735003948 0.7377385497
0.1272692829 0.02293081582 0.8373358846 -0.2857095003 -0.5046221018 0.809782505
0.1593961567 -0.005844983738 0.844201088 -0.8053631186 -0.08367581666 0.5778588653
0.1513173878 -0.001607264159 0.8365196586 -0.5394870639 -0.2207376808 0.8043369651
0.1592496037 -0.002797126072 0.8385550976 -0.6598179936 -0.2087106109 0.7130046487
0.1472667754 0.003411641112 0.8367055655 -0.4458038807 -0.3746340275 0.8063256145
0.1458281875 -0.004731332883 0.8330563307 -0.4838044047 -0.1629536152 0.8592746854
0.1066904813 0.002246196382 0.8299362659 0.2261816561 -0.3601259887 0.901704073
0.1014604643 0.01697978191 0.8311430216 0.2877750397 -0.255448997 0.9135045409
0.09647325426 0.004248595797 0.8344265819 0.3548367918 -0.3586836755 0.860874176
0.0994213447 0.01113669667 0.8325363398 0.3153928816 -0.3024934828 0.8904644251
0.1061889157 0.00874833297 0.829646647 0.2305060029 -0.311501205 0.9149755239
0.1127886623 0.00741203595 0.8290002346 0.128679961 -0.3227947056 0.930875361
0.1071137115 0.01491109189 0.8290000558 0.2146813869 -0.2647137046 0.9325824976
0.09879699349 -0.003104529809 0.8338251114 0.3571061194 -0.229952544 0.8924213648
0.1012676284 0.001295853755 0.8317414522 0.2886578441 -0.3563926518 0.8839821219
0.1050635949 -0.009700896218 0.8297812343 0.2180365175 -0.1832237989 0.9243130088
0.1065210328 -0.01946321316 0.827971518 0.1730952114 0.04456712678 0.9629778266
0.1373297274 -0.06361114979 0.8584814668 -0.009825373068 0.2920841277 0.9529696703
0.1391767561 -0.05589838326 0.852083087 -0.1481655389 0.2857599258 0.931769073
0.1412395239 -0.05939200521 0.8556875587 -0.1221437752 0.2628471851 0.9508295059
0.1302272975 -0.04613547027 0.838969171 -0.2187541872 0.4183677137 0.8538010716
0.1286491454 -0.0509820953 0.8419869542 -0.1373236477 0.4358350039 0.8635275364
0.1335770488 -0.05328185111 0.846001327 -0.1557550728 0.3801730573 0.8898881674
0.1320118308 -0.05979117751 0.8533965349 0.005879003089 0.3333938718 0.9290980697
0.07247379422 -0.02122116834 0.8457424045 0.6249459982 0.01160798874 0.7799972296
0.07718987763 -0.02289904654 0.8401342034 0.5829120874 0.06421593577 0.8079088926
0.07746756077 -0.01676507667 0.8395905495 0.5997944474 0.007080218289 0.7988303304
0.113910675 -0.004005945753 0.8264543414 0.1219449341 -0.3154367208 0.9398468733
0.1118937358 -0.0101389708 0.8292127848 0.1242574751 -0.1218403131 0.9500762224
0.1096243933 -0.00484157633 0.8311113715 0.1678833663 -0.1999054253 0.9354634285
0.1081641614 -0.01422672439 0.8255493045 0.1716427952 -0.05719311908 0.9781041741
0.1025811806 -0.004768648185 0.8291530609 0.2710962296 -0.3105764091 0.9093987942
0.07537689805 -0.01110227779 0.8411433101 0.598416388 -0.08942255378 0.7898308039
0.07812106609 -0.005941683426 0.838709414 0.5369265079 -0.1907497644 0.8209060431
0.07677327842 9.503325418e-05 0.8477340341 0.5400010347 -0.3366962671 0.7478834987
0.06658415496 -0.004159602802 0.8539056778 0.6320275068 -0.2686504126 0.7090755105
0.06957709789 -0.009685287252 0.8505167365 0.6047221422 -0.1611191928 0.7574369907
0.07420597225 -0.007356725167 0.8470534086 0.5765752196 -0.1918654442 0.764858067
0.07906077802 -0.00397015037 0.8435669541 0.54843086 -0.2411391288 0.7666999698
0.07029920816 -0.0153869288 0.8467393517 0.6332384348 -0.03326932341 0.7721197605
0.07120274752 0.00396663975 0.8475545049 0.5762078762 -0.3912379444 0.7150246501
0.07031474262 -0.003132933984 0.8454116583 0.6019357443 -0.2500885725 0.7524659038
0.06589847058 -0.001377031091 0.8491105437 0.6351922154 -0.290057987 0.7080486417
0.1020238847 -0.01369343605 0.8271634579 0.2513448596 -0.08284013718 0.9596884847
0.09511300921 -0.01411636081 0.8300948143 0.3495756984 -0.06450976431 0.9295091033
