# .PCD v0.7 - Point Cloud Data file format
VERSION 0.7
FIELDS x y z normal_x normal_y normal_z
SIZE 4 4 4 4 4 4
TYPE F F F F F F
COUNT 1 1 1 1 1 1
WIDTH 512
HEIGHT 1
VIEWPOINT 0 0 0 1 0 0 0
POINTS 512
DATA ascii
-0.09225615859 -0.246018365 1.187470078 -0.2575423717 -0.5406985879 0.8008226752
-0.09653218836 -0.2554094791 1.169434428 -0.2575423717 -0.5406985879 0.8008226752
-0.09932222962 -0.2487687469 1.180023909 -0.2575423717 -0.5406985879 0.8008226752
-0.09615946561 -0.251149267 1.174115181 -0.2575423717 -0.5406985879 0.8008226752
-0.09298637509 -0.2560851872 1.16369617 -0.2575423717 -0.5406985879 0.8008226752
-0.05739089847 -0.07817129791 1.0905931 -0.4203290045 -0.3030581772 0.8542952538
0.00525833806 -0.1742086112 1.199442029 -0.1171734855 0.2120507658 0.9702086449
0.004375629593 -0.1691672057 1.195836544 -0.1171734855 0.2120507658 0.9702086449
0.0006023671012 -0.1698144227 1.20071876 -0.1171734855 0.2120507658 0.9702086449
-0.003831197042 -0.1740595698 1.198765874 -0.1359181255 0.2294249982 0.9628216028
-0.00611783471 -0.1806447357 1.195991635 -0.1560827345 0.2481153905 0.9548749328
-0.01281994022 -0.2163395733 1.210000038 0.02845354006 -0.09395954013 0.9945480227
-0.01779935509 -0.2242013365 1.209982276 -0.02712006681 -0.08123862743 0.9959432483
-0.02166598663 -0.2290231436 1.208524823 -0.03799004853 -0.06902465969 0.9956622124
-0.02502367832 -0.2326860875 1.209540725 -0.04191528261 -0.09053418785 0.9944829941
-0.01157854591 -0.1846837103 1.203751683 -0.1805113405 0.2707580626 0.9452478886
-0.1002029032 -0.2543738484 1.177598238 -0.2575423717 -0.5406985879 0.8008226752
-0.09654320776 -0.2484635115 1.184295297 -0.2575423717 -0.5406985879 0.8008226752
-0.05484408513 -0.08259963244 1.090810299 -0.4571559429 -0.2842044532 0.8423794508
-0.1556930244 -0.09998058528 1.084261775 0.1325071901 -0.1939579844 0.9707905054
-0.1570121497 -0.100086689 1.06876862 0.1864109933 -0.2250430733 0.9559592009
-0.0414653644 -0.1179718971 1.101000071 -0.582331121 0.1216610074 0.803498745
-0.01600532047 -0.2038599849 1.212195873 -0.05093947798 0.02889342047 0.99115026
-0.01243948098 -0.2091871053 1.210390449 -0.0005102589494 -0.04610174894 0.9963935018
-0.02262964472 -0.2006722838 1.213079214 -0.09049522132 0.07285038382 0.9889889359
-0.01777824201 -0.2092345059 1.210986137 -0.008572227322 -0.03695610538 0.9929032326
-0.025530627 -0.2086232901 1.210575581 -0.03063942492 -0.03365886211 0.9955378771
-0.1635313928 -0.1150599942 1.073626041 0.118673563 0.06556651741 0.9666272998
-0.1664239019 -0.1203756034 1.075971246 0.09293403476 0.1721318811 0.9705175757
-0.1617495716 -0.108888559 1.070884824 0.1499269903 -0.05312428251 0.9607719779
-0.1601174176 -0.1206302121 1.076159477 0.08610078692 0.1566637754 0.9761770964
-0.161002785 -0.1047001705 1.075253963 0.1297975034 -0.1326301247 0.9806109071
-0.1706928015 -0.1230497435 1.084016442 0.1161738262 0.2149742544 0.9663677812
-0.03530198708 -0.2137148976 1.203987241 0.00777297141 -0.04878927022 0.9976999164
-0.01606768556 -0.1901730597 1.213507652 -0.1219319925 0.1837151051 0.9745480418
-0.003967629746 -0.1715090275 1.203390598 -0.1193343699 0.2102501243 0.9700789452
-0.01000202261 -0.1811898202 1.208786726 -0.1158310473 0.1912829727 0.9744429588
-0.01300757844 -0.1853675395 1.211499929 -0.1152772382 0.1827155054 0.9761897326
-0.006677976809 -0.176047489 1.205895782 -0.1164072976 0.2001976669 0.9726253748
-0.03015185334 -0.2352283299 1.20899415 -0.05584876239 -0.1036869287 0.9922831059
-0.06029641256 -0.2385254502 1.195659399 -0.294339776 -0.2181833684 0.9274119735
-0.07249486446 -0.2418492436 1.190640211 -0.2970937192 -0.369618088 0.8688815832
-0.06745350361 -0.2421971411 1.192851543 -0.3118937016 -0.3043069541 0.8945054412
-0.07689706236 -0.2438489348 1.187760592 -0.2822948098 -0.4435086846 0.8422214389
-0.0815038681 -0.2436041087 1.185710192 -0.2690285444 -0.4992543757 0.8195912838
-0.08745580167 -0.2447257936 1.179607153 -0.2575423717 -0.5406985879 0.8008226752
-0.08921317756 -0.2491455972 1.17362237 -0.2575423717 -0.5406985879 0.8008226752
-0.09002503008 -0.2550503016 1.168056846 -0.2575423717 -0.5406985879 0.8008226752
-0.09267836064 -0.2478773594 1.177608371 -0.2575423717 -0.5406985879 0.8008226752
-0.08667773008 -0.2406953573 1.184195161 -0.2575423717 -0.5406985879 0.8008226752
-0.09112206846 -0.2543186545 1.174335361 -0.2575423717 -0.5406985879 0.8008226752
-0.05113336816 -0.2415833622 1.196884871 -0.2281664908 -0.2212295234 0.9434403777
-0.05971885845 -0.2488739192 1.191583633 -0.2470362335 -0.3408037126 0.901165843
-0.06469838321 -0.2521587312 1.193180919 -0.295899868 -0.3139110804 0.90010041
-0.03112893365 -0.2379653752 1.197636127 -0.08374614269 -0.1584523171 0.9773877263
-0.0387692377 -0.2424936146 1.201720476 -0.1004191414 -0.2039945424 0.9720292687
-0.02523569576 -0.2347702533 1.197239041 -0.0649086535 -0.1042692587 0.9877643585
-0.04490432888 -0.2447771579 1.19695127 -0.1449538171 -0.2724879086 0.9491312504
-0.05246644467 -0.2475799322 1.195782065 -0.2046831399 -0.2847122252 0.9311326146
-0.167632252 -0.1149926633 1.078535438 0.08826028556 0.1149030775 0.9798756838
-0.1656478345 -0.109026216 1.080767632 0.0937140286 -0.008957765996 0.9905520678
-0.1662981659 -0.1356406361 1.083855152 0.1818075776 0.2691160142 0.9429056644
-0.1568860114 -0.1333449483 1.082998633 0.08734679222 0.2589810789 0.9616780281
-0.1650493294 -0.1295570731 1.080520511 0.1145718545 0.2458262146 0.9601391554
-0.1603742093 -0.1261029989 1.078976393 0.08022915572 0.2184966207 0.9718816876
-0.124811925 -0.1740099788 1.088370919 -0.06207470596 0.2113509625 0.9754108191
-0.149155274 -0.1739566624 1.087603331 0.07962238789 0.2234936208 0.9684173465
-0.1354652345 -0.1805955321 1.092510462 -0.04959218577 0.2040007263 0.9765835404
-0.1359377056 -0.1735236198 1.087525964 0.002808341989 0.2181472331 0.9719188809
-0.1294224709 -0.1770333648 1.090107799 -0.06114004925 0.2081807256 0.9760295749
-0.1406292319 -0.1761564016 1.089297891 0.01270461269 0.2151634991 0.9722638726
-0.1074850261 -0.09358424693 1.078965783 -0.0343356505 0.1650255471 0.9802373052
-0.02862335742 -0.2360834777 1.204103231 -0.06531217694 -0.09994580597 0.9916564822
-0.03295723349 -0.2390509546 1.20623672 -0.07223151624 -0.1376328021 0.9869579673
-0.02321341075 -0.2333288789 1.202758908 -0.04692545906 -0.07504177839 0.9958102703
-0.01927791536 -0.2289551198 1.201273322 -0.04412152246 -0.03188635409 0.9975973964
-0.006622372661 -0.2019899338 1.205715179 -0.08848883957 0.09133356065 0.9859172702
-0.008803165518 -0.1934706569 1.201019764 -0.1448704004 0.2021600604 0.962262094
-0.003693070961 -0.1965999901 1.205013752 -0.1054883897 0.1318067759 0.9809086323
-0.1327970922 -0.1028798223 1.067452312 0.105286181 0.1363031417 0.9659683108
-0.1248672605 -0.09197483957 1.05874002 0.06680476665 0.2907954454 0.9440876245
-0.1390025467 -0.1028645039 1.067859054 0.128153339 0.04112742096 0.9644778967
-0.1354621351 -0.1069955975 1.070718408 0.118601121 0.0830250755 0.9743035436
-0.1293128878 -0.09718023986 1.06294322 0.08760845661 0.2069163024 0.9543771148
-0.1447623819 -0.1036709622 1.068851948 0.1500739753 -0.04968271032 0.9648813009
-0.1384791136 -0.1107748896 1.07375586 0.1329284459 0.02535909228 0.981823504
-0.1521341652 -0.09908217937 1.065907717 0.1733648181 -0.1489947736 0.9531595707
-0.1414486617 -0.1073713526 1.071403623 0.1409924924 -0.009967613034 0.973715961
-0.1472184062 -0.09736192226 1.064286351 0.1537818164 -0.06838750839 0.950568378
-0.02805978246 -0.2261678129 1.210000038 -0.04620768875 -0.05742370337 0.9971846938
0.00129920186 -0.1954835355 1.209026337 -0.1068118364 0.1452435255 0.9836134911
-0.01164600626 -0.1929719895 1.213296533 -0.1120857894 0.1625070572 0.9802424908
-0.004242547788 -0.1934113503 1.210376024 -0.1091215536 0.1528040469 0.9821372032
0.002938900609 -0.1892735213 1.206845403 -0.1102801114 0.1676056087 0.9791265726
-0.001510067843 -0.179006964 1.202980876 -0.1133106723 0.1869054437 0.9752553701
-0.006188439205 -0.1847358048 1.207344651 -0.1124222502 0.1729620695 0.9780986905
-0.001586371334 -0.1850070208 1.205349326 -0.1093744263 0.1575530618 0.9811669588
0.003059129464 -0.1828809828 1.202351451 -0.108926475 0.1588779837 0.9808777571
-0.003976181149 -0.1853901446 1.199660659 -0.1411341429 0.2098740339 0.9647397399
-0.0009950977983 -0.1793539971 1.19720304 -0.1343530267 0.2246067077 0.9639871716
-0.00924924016 -0.1860946417 1.196953177 -0.1678555906 0.2588795722 0.9502595067
-0.004625951871 -0.1905753314 1.202001572 -0.1397587657 0.1997909695 0.9667170644
-0.05765629187 -0.2379967868 1.202009201 -0.2879892886 -0.1788526475 0.9400246739
-0.05236515775 -0.2364277095 1.202262759 -0.2358472943 -0.2004825324 0.9504001737
-0.05112517998 -0.2452249378 1.202004075 -0.2445143163 -0.2096613348 0.9464436173
-0.04701893032 -0.2372741401 1.203546047 -0.1888931841 -0.1879597902 0.9592806101
-0.04352017865 -0.2339767665 1.20544076 -0.157769382 -0.14484483 0.9698095918
-0.04502831027 -0.2424001694 1.202905416 -0.1739724576 -0.2196185738 0.9571948647
-0.03294313699 -0.2304300964 1.2095927 -0.06623540819 -0.06603518873 0.9942329526
-0.03872967511 -0.2360846996 1.206409574 -0.1177907437 -0.1389564425 0.9765872359
-0.06396412849 -0.0996921584 1.084162831 -0.4142215252 -0.06350318342 0.8807255626
-0.06341315806 -0.08870074898 1.08549428 -0.3807693422 -0.2122598588 0.8866547942
-0.06521167606 -0.2404383719 1.19769907 -0.32418558 -0.2362312227 0.9142740369
-0.06884136796 -0.2369161993 1.197281957 -0.3169698715 -0.2746835053 0.9061112404
-0.05578372255 -0.2448016852 1.200252295 -0.2769263387 -0.2161122561 0.935082972
-0.05193444341 -0.2289269716 1.20181942 -0.2578943372 -0.123110652 0.9581153989
-0.05660613254 -0.2348546386 1.197875381 -0.2806027234 -0.1714719534 0.9436123967
-0.06069074944 -0.2329792827 1.201906085 -0.3075385988 -0.1580742896 0.9380009174
-0.04662158713 -0.2276680022 1.204634905 -0.1460216194 -0.1186578423 0.9732863903
-0.03664592654 -0.2272250205 1.208204865 -0.06437303871 -0.08291009814 0.9904177785
-0.08313513547 -0.24230358 1.191147685 -0.2578094602 -0.5396347046 0.8012692928
-0.08734086156 -0.2481911927 1.187078834 -0.2575423717 -0.5406985879 0.8008226752
-0.09226217121 -0.2511352301 1.182225227 -0.2575423717 -0.5406985879 0.8008226752
-0.1721298099 -0.1386429369 1.091274977 0.2409982532 0.2555521429 0.9359819889
-0.1538494825 -0.1407864392 1.088408351 0.1340709031 0.209601149 0.9652323127
-0.1563862711 -0.1362168789 1.087667108 0.135749951 0.2530615628 0.9549409747
-0.1609733552 -0.1404921114 1.089664459 0.1727486253 0.2206259072 0.9569326639
-0.16601035 -0.1417159289 1.091927528 0.1922811121 0.2275643349 0.9525524974
-0.1547138393 -0.1469147503 1.090416193 0.1529360563 0.1589098275 0.9741665721
-0.1629054099 -0.1476078182 1.093964458 0.1786786765 0.184216857 0.9647262692
-0.1717464328 -0.144868955 1.09565115 0.2188633382 0.2247136831 0.9485890269
-0.1713734716 -0.1308024526 1.086128473 0.1753168702 0.2564383745 0.949172616
-0.1591202021 -0.1123181283 1.091168761 0.1522768885 -0.04098735005 0.9577894807
-0.1538383961 -0.1076591238 1.086792231 0.067890957 -0.1332164854 0.9830148816
-0.1670841277 -0.1329028308 1.089005232 0.1807115376 0.2226642668 0.948453486
-0.160054341 -0.1205314696 1.08699739 0.1110603288 0.04376469925 0.9699776173
-0.1650258452 -0.1271298528 1.090164065 0.1808079779 0.1493762434 0.9480863214
-0.1575723141 -0.1153786033 1.086925983 0.09394627064 -0.02702963538 0.9751432538
-0.1659908742 -0.1207869872 1.088552356 0.1396211833 0.1177809834 0.964333117
-0.1635528207 -0.1113950014 1.087940335 0.1034727171 0.01705767214 0.9776046276
-0.1689907014 -0.1146473363 1.085558653 0.07259851694 0.1148844063 0.9855980277
-0.1587554961 -0.1056597605 1.089434743 0.1126513183 -0.08978671581 0.976641655
-0.1586628407 -0.1528100669 1.086851835 0.1549527049 0.1530144513 0.9758233428
-0.1636300385 -0.1646069437 1.089102268 0.1455840468 0.2006115019 0.9682250619
-0.1692908555 -0.1577760577 1.094280958 0.1828368306 0.1923773736 0.963427484
-0.172361061 -0.1539927721 1.09969914 0.2036304027 0.1877813041 0.9607496262
-0.171770826 -0.1518850625 1.094717741 0.210586518 0.2071393579 0.9543614984
-0.1671672314 -0.1519725919 1.091671109 0.1987585872 0.1975231767 0.9581305981
-0.1636674255 -0.1475770921 1.087596178 0.2071772814 0.2449250072 0.9441691637
-0.1583696604 -0.1465022117 1.086652756 0.1616294235 0.197769776 0.9644691348
-0.1634637266 -0.1589889377 1.089318275 0.1626108289 0.1755756885 0.9703688025
-0.05496256053 -0.1174898893 1.088154197 -0.5251483917 0.1646743715 0.8340788484
-0.05875363946 -0.1157665998 1.082877755 -0.4786150455 0.1526421905 0.8603233099
-0.07301159948 -0.1153088212 1.0755229 -0.3658819497 0.1050894782 0.9224113226
-0.06941295415 -0.1176243648 1.078867316 -0.4011572301 0.1456954777 0.9004765749
-0.05897361413 -0.1211617142 1.085246205 -0.4892807603 0.2040345669 0.8476012945
-0.06439945847 -0.1175460368 1.081258774 -0.441537559 0.1596181989 0.8800728321
-0.1435310394 -0.1792792082 1.092098594 0.008085088804 0.211824134 0.9736974835
-0.1346980035 -0.1836420298 1.09682405 -0.0564189516 0.1920207739 0.9797101617
-0.04077871144 -0.1156057492 1.09604454 -0.5848639607 0.1258048564 0.8012763262
-0.04927605763 -0.1178965569 1.091465592 -0.5568114519 0.1550946087 0.8156619072
-0.04474540055 -0.114376761 1.090508342 -0.5742277503 0.1396738887 0.8064742088
-0.04135607928 -0.09928353876 1.098409534 -0.54512918 -0.05034229904 0.8221604228
-0.03667964786 -0.09642580897 1.099829197 -0.5557201505 -0.04809854925 0.8243000507
-0.04443325475 -0.1087965891 1.098667026 -0.5547738671 0.02117095143 0.8127275109
-0.04629890248 -0.0900112614 1.094989777 -0.5071775317 -0.170268476 0.8328236341
-0.04121278599 -0.1047980115 1.099327683 -0.5576475263 0.003298066324 0.8163359165
-0.04508215934 -0.09491090477 1.096240163 -0.5222164989 -0.1157195419 0.8274470568
-0.05769049376 -0.07462122291 1.086644888 -0.4010850191 -0.3105950058 0.8612515926
-0.01330948807 -0.192521736 1.198318362 -0.1568397582 0.2229620665 0.9527911544
-0.01339290384 -0.1990775317 1.201225996 -0.07854876667 0.08035013825 0.9769581556
-0.01268615946 -0.2039949149 1.203768134 -0.02490155213 -0.01818104461 0.9948789477
-0.1577670574 -0.102717109 1.079670072 0.1062897965 -0.1597558707 0.9808008075
-0.1628337204 -0.1063718125 1.08549428 0.0884970054 -0.03852048889 0.9894119501
-0.1283246726 -0.1425856501 1.089847326 0.0843686685 0.2497642934 0.9640964866
-0.1236165985 -0.1324113011 1.086094499 0.1082300693 0.2065916806 0.9700100422
-0.1199205071 -0.1239401847 1.082906246 0.1269074529 0.1720202267 0.974722445
-0.12692599 -0.1365233809 1.087211132 0.09111118317 0.2326738387 0.9662926793
-0.1253789961 -0.127333954 1.083021283 0.09863103926 0.2098530233 0.9693511128
-0.1438436806 -0.11197225 1.074685216 0.1517727971 -0.04475932196 0.9818566442
-0.1544059962 -0.1060997173 1.070239425 0.1670697629 -0.1310043335 0.9643114805
-0.1478587836 -0.1168543175 1.076366544 0.1250486225 0.03694422916 0.9842274189
-0.1492606252 -0.1092094928 1.072668076 0.162517041 -0.09686364233 0.9735904932
-0.1552658379 -0.1111281291 1.072312117 0.1382617503 -0.03508913517 0.9693792462
-0.1536397785 -0.117951259 1.07568872 0.1056964174 0.08267401904 0.9792786837
-0.03436492756 -0.214461565 1.209644079 -0.06019160897 -0.04025166109 0.9972213507
-0.03338613361 -0.2223034203 1.209611416 -0.04353562742 -0.05846186727 0.9970318079
-0.09087551385 -0.1217430159 1.071002007 0.02133393101 0.0361036025 0.9926915765
-0.08763514459 -0.1162476465 1.068646908 -0.07692712545 0.01036220882 0.9947108626
-0.05095974728 -0.07879188657 1.087470889 -0.458830744 -0.2720029056 0.8433127403
-0.0614461489 -0.08218763769 1.081664205 -0.3756997287 -0.2710932493 0.8839817643
-0.06170639023 -0.09120245278 1.078001022 -0.3850489557 -0.2137040198 0.895308435
-0.06382103264 -0.08631135523 1.07941246 -0.3626617789 -0.2507934868 0.8954956532
-0.05566353723 -0.08008538187 1.083979368 -0.4174380302 -0.2693785429 0.865277648
-0.0415350534 -0.2196923643 1.205416203 -0.04203404859 -0.03803797439 0.9979484081
-0.03090639226 -0.2324015647 1.198594093 -0.07065874338 -0.1043685824 0.9880629182
-0.03696012497 -0.2306589931 1.200070977 -0.0781795755 -0.1106568873 0.9873108268
-0.03704920411 -0.2404904664 1.1971699 -0.1034542471 -0.2140432894 0.9658625722
-0.04232293367 -0.2341204286 1.199895144 -0.09761952609 -0.1686768234 0.9757594466
-0.04574847221 -0.2396848649 1.197835565 -0.1501088887 -0.2251584381 0.9576376081
-0.06472072005 -0.2478246391 1.195827365 -0.2976567745 -0.3306661844 0.8823328614
-0.05988282338 -0.2481207997 1.198179126 -0.265171349 -0.3202337623 0.8937782645
-0.07458122075 -0.2471209466 1.194238424 -0.2699311674 -0.4913514256 0.8215393424
-0.07903874665 -0.242064923 1.19492054 -0.2723006904 -0.4819130599 0.82550174
-0.07385575771 -0.2397174388 1.196216583 -0.2996239662 -0.3730787039 0.8711919785
-0.07552350312 -0.2522453368 1.183897972 -0.2803797126 -0.4582973123 0.8381392956
-0.0840068832 -0.2531823814 1.177417755 -0.2616378963 -0.5259211659 0.8075148463
-0.08052492887 -0.2513231337 1.186749578 -0.2575423717 -0.5406985879 0.8008226752
-0.08003153652 -0.2467016429 1.192280412 -0.2575423717 -0.5406985879 0.8008226752
-0.07588567585 -0.2528521717 1.189556122 -0.2575423717 -0.5406985879 0.8008226752
-0.06847018749 -0.2516158223 1.189250231 -0.3006004989 -0.3825798631 0.8714612126
-0.1266076565 -0.1674703658 1.092812181 -0.04573230073 0.2126610428 0.9759973884
-0.1274216175 -0.1731760949 1.093831778 -0.05023168772 0.2072728872 0.9769038558
-0.1331805438 -0.1754750311 1.094730377 -0.05807347968 0.1949766576 0.979067564
-0.1303399354 -0.1812886447 1.095401645 -0.05885328725 0.1962516457 0.9787806869
-0.14144364 -0.1788483858 1.097982168 -0.04478213191 0.1883546859 0.9809220433
-0.1402677894 -0.1660905629 1.092798471 -0.04033172131 0.203887105 0.9779782295
-0.1374543458 -0.1709261239 1.094712019 -0.05391228572 0.1931520998 0.9795982242
-0.1543800831 -0.1283046752 1.08367455 0.08309619129 0.2144127488 0.971206665
-0.1618631929 -0.1296465248 1.085971475 0.1315272003 0.2119305134 0.9616633654
-0.1555253565 -0.1227024645 1.082528591 0.06083381921 0.12672019 0.9825775027
-0.1583862901 -0.1603738517 1.087000012 0.1391829848 0.1813412905 0.9726966023
-0.1555536687 -0.1550623178 1.091983676 0.1385292113 0.1512093991 0.9780425429
-0.1612342894 -0.1541430205 1.094953418 0.1619989723 0.1629974693 0.9720847607
-0.1458422989 -0.1817069948 1.096114755 0.006325687747 0.1991413534 0.9768127799
-0.1569220871 -0.1683431864 1.087000012 0.1206842288 0.2166336924 0.9687173963
-0.1596357971 -0.1670228094 1.093556643 0.117032595 0.2058407068 0.9694852829
-0.1544699073 -0.1725758761 1.094743133 0.07140798122 0.2009321004 0.9732749462
-0.1596336514 -0.1672969609 1.098573089 0.104302913 0.19088462 0.9697389603
-0.150280565 -0.1770110875 1.094448805 0.03759246692 0.2006978244 0.9762851
-0.1431389451 -0.1849206686 1.100382447 -0.03636134788 0.1811122 0.9817399383
-0.1459775418 -0.1684008837 1.094639421 -0.01345490105 0.2040120661 0.9770565629
-0.1545462012 -0.17143929 1.100344777 0.05629054084 0.1847699732 0.9732598066
-0.1555217355 -0.1635265201 1.097113848 0.06487368047 0.1972135305 0.9712018371
-0.1654503047 -0.1608329117 1.100804925 0.1461717188 0.1859291047 0.9655792713
-0.1486625373 -0.1761432588 1.09961772 0.007871468551 0.1859502941 0.9772034883
-0.1677084863 -0.1562867761 1.099796176 0.1649684608 0.1903326213 0.9635261297
-0.164533779 -0.1615101546 1.095225096 0.1557318568 0.1943212748 0.9669023752
-0.06090134755 -0.0948125869 1.087459564 -0.4163156152 -0.1099161804 0.878313005
-0.0626141727 -0.1113320366 1.084256053 -0.4603947401 0.1059569269 0.8719275594
-0.05919391289 -0.08853831142 1.088519454 -0.4030148983 -0.1896512508 0.8819734454
-0.06210940704 -0.1047467217 1.085559607 -0.4422433674 0.01952122338 0.8742649555
-0.05594952032 -0.1076693535 1.084492683 -0.4737760127 0.0720532313 0.8760618567
-0.05642136559 -0.09818268567 1.086171269 -0.4434171915 -0.05717241764 0.8807365298
-0.05505630746 -0.09311001003 1.088008046 -0.4610384107 -0.1407960504 0.8608198166
-0.04842241481 -0.1027471647 1.095654845 -0.5252039433 -0.05587958172 0.8229982257
-0.0513901189 -0.09490784258 1.092957139 -0.4962171614 -0.1459462494 0.8337199688
-0.04659735411 -0.1143098772 1.095511317 -0.5453413725 0.1001113951 0.8283407688
-0.05191583559 -0.104455404 1.089555264 -0.494831562 0.001293491223 0.8549818397
-0.03415638953 -0.1025175452 1.101000071 -0.569591105 0.01408399735 0.8201745749
-0.036444664 -0.1105045527 1.101000071 -0.5751599073 0.07088808715 0.8133656979
-0.03972871602 -0.1101855189 1.093395591 -0.5878250003 0.09734839946 0.8027551174
-0.03539835289 -0.1065633893 1.09662497 -0.5954300165 0.0582940653 0.800847888
-0.03193211555 -0.1083976924 1.10054028 -0.5737305284 0.04329450428 0.8172667623
-0.03984446824 -0.1001942009 1.092045426 -0.5733635426 -0.02105200291 0.8135065436
-0.04543523863 -0.08459886163 1.089179635 -0.5149511099 -0.2181904018 0.8284579515
-0.043720074 -0.08496708423 1.096795321 -0.5082808137 -0.1767184734 0.8354565501
-0.03605845943 -0.08710397035 1.100989819 -0.5421122313 -0.09803415835 0.8325167298
-0.03931172937 -0.09144284576 1.098526835 -0.5364045501 -0.1046464145 0.8297472596
-0.05030186474 -0.08502753079 1.093097329 -0.482850939 -0.2361258119 0.8385480046
-0.05029218271 -0.07894543558 1.092742324 -0.4706996381 -0.2651717067 0.8372115493
-0.0442629382 -0.07894185185 1.09322691 -0.4921472669 -0.2252634615 0.8386680484
-0.03744606674 -0.08273947239 1.097093701 -0.5513330698 -0.139384836 0.8212248087
-0.09926838428 -0.08676656336 1.069058657 -0.09087271988 -0.06620366871 0.9380455613
-0.1038709804 -0.08735878021 1.067047477 -0.0802397728 0.0331820026 0.9404796362
-0.09570286423 -0.08580686897 1.073766232 -0.120118469 -0.1624103785 0.9643326998
-0.09250633419 -0.08728401363 1.070207477 -0.08567789942 -0.1991952807 0.9235697985
-0.1107303798 -0.09185212851 1.06084609 -0.01829981245 0.2065037191 0.9302513599
-0.09672319889 -0.09174454957 1.067489266 -0.03997354582 -0.09590495378 0.9360067844
-0.09806662053 -0.1001854539 1.065484524 0.03669755533 -0.04357821494 0.9624319077
-0.09149389714 -0.1021348611 1.068277359 0.04422203451 -0.1799475849 0.9715320468
-0.09108886123 -0.09256983548 1.070020556 -0.04100688547 -0.215144828 0.9411011934
-0.1046400592 -0.09240042418 1.063637972 -0.02245849557 0.0766627118 0.9346579909
-0.1091586426 -0.08697675914 1.068007469 -0.1031586006 0.2004735172 0.9495351911
-0.08596430719 -0.07973533869 1.076945543 -0.1715285182 -0.2650925517 0.925101757
-0.101429902 -0.08377461135 1.077116847 -0.1780405343 0.1009626389 0.9641558528
-0.1268530339 -0.1030884609 1.065978527 0.08417412639 0.2269395441 0.9616220593
-0.1253670156 -0.1209613904 1.073893785 0.09659399837 0.1962013543 0.9737331271
-0.1267067343 -0.1082345247 1.068413973 0.08871812373 0.2137627155 0.9657357931
-0.1288136393 -0.1168294102 1.073787928 0.1043909714 0.1556254625 0.9778391123
-0.1244102195 -0.1142859533 1.070097566 0.08675767481 0.2309125662 0.9658451676
-0.1327947229 -0.1121420041 1.073707461 0.1134806573 0.1085019186 0.982655406
-0.1513268799 -0.09866468608 1.091321588 0.1334465295 -0.2082786113 0.9675492644
-0.09262162447 -0.0822660923 1.079794407 -0.1753816903 -0.06874733418 0.9450679421
-0.07264149189 -0.08002865314 1.080791473 -0.2700654864 -0.310387522 0.9099594355
-0.0643113032 -0.07769805938 1.083285928 -0.3395660818 -0.3054996133 0.885291934
-0.06833639741 -0.09897233546 1.081060052 -0.3692798316 -0.09796558321 0.9031636119
-0.06848248839 -0.09338226914 1.081150889 -0.3495457172 -0.177382499 0.9071605206
-0.02044453099 -0.2187036872 1.210000038 -0.004237825982 -0.07298049331 0.9959522486
-0.0312081296 -0.2102912515 1.210000038 -0.04099034891 -0.04358009994 0.9981428981
-0.02647544816 -0.2204434723 1.210000038 -0.03686579689 -0.05499262363 0.9973163009
-0.02540880814 -0.2136913985 1.210000038 -0.01907656714 -0.05968652293 0.9969386458
-0.0139184026 -0.2209693342 1.204139352 -0.03040958382 -0.004361445084 0.9987677932
-0.008070167154 -0.212341845 1.209144831 -0.01935878769 -0.04001097754 0.9979501963
-0.009632936679 -0.2136070132 1.204068065 -0.04816490784 0.02688177675 0.9978797436
-0.0156486202 -0.2208936363 1.198727012 -0.03337536752 0.01444335654 0.9987032413
-0.009735290892 -0.2083214074 1.204760909 -0.04054778442 0.01012861449 0.9977154732
-0.01550084725 -0.2106608301 1.201309085 -0.0112387361 -0.03494080529 0.9984209538
-0.0196972359 -0.2177370042 1.1970644 -0.001957847038 -0.01566196792 0.9979307652
-0.04042258859 -0.2263369262 1.201853871 -0.07376062125 -0.08097360283 0.9937999845
-0.03438462317 -0.2207082659 1.200149655 -0.03579869121 -0.07651095092 0.994807303
-0.02607949637 -0.2297146916 1.198435426 -0.05334015563 -0.06284585595 0.9962891936
-0.0311476402 -0.2248743027 1.199506164 -0.04536660761 -0.07089020312 0.9953886867
-0.03094032593 -0.2149404734 1.199081302 -0.003493852681 -0.07511436939 0.995367229
-0.02561237663 -0.2188279778 1.197910547 -0.006873848848 -0.0671973899 0.9963070154
-0.02467663772 -0.2127726227 1.197451472 0.0205966942 -0.06883504242 0.9964333177
-0.01184965111 -0.1997484416 1.211928368 -0.04921586439 0.06497245282 0.991127789
-0.001986673567 -0.2024611533 1.209997654 -0.07513602823 0.07832455635 0.9883131385
-0.008548550308 -0.2047540992 1.210000038 -0.01392953563 0.001746111433 0.9978154302
-0.1310171187 -0.1272206903 1.081568599 0.07702191919 0.2133055627 0.9707345366
-0.1356077194 -0.1405059099 1.088683009 0.08022233099 0.2523493171 0.9641964436
-0.1342383474 -0.1452812254 1.085404396 0.01354416553 0.2949166298 0.9553766847
-0.1452897638 -0.1414490342 1.086465359 0.02909894474 0.2360005677 0.9703498483
-0.1507885456 -0.1445713341 1.08656311 0.07580742985 0.2017925531 0.9739528298
-0.151841253 -0.137125507 1.084677577 0.06474957615 0.2549430728 0.9640227556
-0.146170035 -0.1357170194 1.085258603 0.06158337742 0.2548257709 0.9646491408
-0.1151370928 -0.1272891313 1.082573414 0.1263670176 0.1438632011 0.977858305
-0.1191704348 -0.139634937 1.086407661 0.0969781056 0.1846988797 0.9719498754
-0.108311832 -0.1253081858 1.07854712 0.1235092282 0.09402883798 0.9832651615
-0.1188902333 -0.1340428442 1.085524917 0.1121860072 0.1770380437 0.9735098481
-0.1135777459 -0.1219446808 1.08101666 0.1393181831 0.1274933368 0.9802812934
-0.1018053964 -0.1253598928 1.072930574 0.1615824848 0.009937924333 0.9819478989
-0.1072369888 -0.1317408532 1.077056766 0.1357869804 0.05592024326 0.9794030786
-0.09632989764 -0.1228445768 1.071222901 0.1247603446 0.0003491445677 0.9912968278
-0.1170874014 -0.1451113522 1.085999846 0.05367536098 0.1631333381 0.9786021709
-0.1232248619 -0.1446909755 1.089312911 0.08045826852 0.2146004587 0.9696822166
-0.1142239794 -0.1363847703 1.083254218 0.09925434738 0.1463900506 0.9764863253
-0.09425824881 -0.1177153736 1.069078326 0.1224336326 -0.05181429163 0.9894491434
-0.0545084998 -0.1124275997 1.083438993 -0.5008086562 0.1264483482 0.8503978252
-0.1245821193 -0.1682840884 1.08774507 -0.0414429605 0.2195117474 0.9738807678
-0.1173779964 -0.1392129362 1.08007133 0.1253039539 0.1288713217 0.9700748324
-0.112718381 -0.1335794628 1.077031255 0.1605245173 0.07889113575 0.9710041285
-0.124704428 -0.1496752352 1.086704493 0.05910685286 0.2097202688 0.970007956
-0.1301105469 -0.136359632 1.080554724 0.07073261589 0.2612963617 0.9613550901
-0.1278637201 -0.1322805434 1.078199625 0.09718573838 0.245362252 0.964187324
-0.1385664195 -0.1383483708 1.084271193 0.0511213392 0.2717807293 0.9601979256
-0.1271057129 -0.1262318194 1.076657534 0.08795792609 0.2077454329 0.9736985564
-0.1299643666 -0.1419829428 1.082828283 0.05136317387 0.2670229077 0.9610824585
-0.1166185513 -0.1301599741 1.075774908 0.1500340849 0.1317008585 0.9686250091
-0.1069747061 -0.1267503351 1.073423862 0.2031171918 0.01747462712 0.9722567201
-0.1234522313 -0.1413404495 1.08146596 0.09240886569 0.2005359083 0.9677082896
-0.1218968481 -0.1328909695 1.077458978 0.1190059707 0.1930249035 0.9668008089
-0.1585350037 -0.1584549546 1.095974803 0.1051692069 0.1885077953 0.9704624414
-0.151871115 -0.1609344333 1.093722105 0.05588317662 0.1904214919 0.9749976397
-0.1452547014 -0.155064404 1.090058327 -0.03292376548 0.1516501009 0.9849326611
-0.1382453293 -0.1504313052 1.09073472 0.0353458114 0.191499114 0.9758244157
-0.133578971 -0.1476369947 1.091170073 0.07463696599 0.217293039 0.9701241851
-0.04339145869 -0.1086376533 1.089993954 -0.573752284 0.1009634361 0.8122157454
-0.04319296032 -0.1033771932 1.089835882 -0.5745741129 0.05128471553 0.8143691421
-0.04617389664 -0.09946828336 1.086578131 -0.5435977578 -0.02615965344 0.8315488696
-0.05049569905 -0.1044687629 1.084262252 -0.5302414894 0.06124669686 0.8408403993
-0.04885366559 -0.110090971 1.08609736 -0.5458376408 0.1219259128 0.8258964419
-0.05676481128 -0.1035075784 1.079342842 -0.4609736204 0.009554898366 0.8819502592
-0.05582328141 -0.09481669962 1.078583717 -0.4377347231 -0.1779811829 0.8800227642
-0.05366005376 -0.08704849333 1.082746625 -0.4474764764 -0.2253349423 0.8618667722
-0.04664047807 -0.0924654752 1.085798502 -0.5156265497 -0.1646120697 0.839851737
-0.05163018033 -0.09917500615 1.08211112 -0.4949221015 -0.06563933194 0.8554837704
-0.03581290692 -0.1000349224 1.095807195 -0.5841915607 0.009803264402 0.8103417754
-0.04326267168 -0.09509593248 1.089148879 -0.5631335378 -0.07993900776 0.8204964399
-0.04087234661 -0.09003520757 1.091370344 -0.5310890675 -0.1257168651 0.8369122744
-0.03836955875 -0.09412662685 1.093318224 -0.5530127883 -0.06238219142 0.8289813995
-0.03098483197 -0.09578546137 1.100205302 -0.5621002913 -0.04414753243 0.8248987794
-0.08710896224 -0.0962022692 1.072233319 -0.0609097667 -0.2424690127 0.9593147635
-0.1045535877 -0.08830463886 1.078869462 -0.09294299781 0.1280425638 0.9750108123
-0.0988747403 -0.09477586299 1.075545907 0.03788266703 -0.057634864 0.9755653739
-0.1191890538 -0.09089654684 1.069437265 -0.009926477447 0.4043318629 0.913866818
-0.1177252159 -0.08900285512 1.063236117 -0.02245042659 0.3837388754 0.9225102067
-0.1255165339 -0.09416722506 1.073270798 0.0714154169 0.5059654117 0.8466502428
-0.1461213231 -0.09904524684 1.070912123 0.1757318974 0.1377792805 0.8796415925
-0.1391434669 -0.09776819497 1.078642845 0.2279012203 0.1457873136 0.9404714704
-0.1433000863 -0.09830062091 1.075981975 0.2200997472 0.05811492354 0.9441919327
-0.1249584332 -0.093001917 1.064295292 0.06241664663 0.4273605049 0.8925865889
-0.1390697062 -0.09597995877 1.065608621 0.1354697347 0.1674556136 0.9082717299
-0.1340070367 -0.09348635375 1.060924172 0.1037140042 0.1619394124 0.9390741587
-0.1335677803 -0.09521941096 1.066751122 0.1237860695 0.3305908442 0.8783833385
-0.132767126 -0.09773076326 1.075301647 0.1527895331 0.5818170309 0.7888075709
-0.1376688629 -0.09808751941 1.073257804 0.159441784 0.4086429775 0.825863719
-0.1255897433 -0.1123955771 1.0801723 0.1052309349 0.08988500386 0.9900619388
-0.1189169362 -0.1156792119 1.082383633 0.1308674365 0.06884261966 0.9887751937
-0.1234215796 -0.1182089522 1.081474423 0.1220835894 0.08238773793 0.9879215956
-0.1172929928 -0.1092384607 1.081929684 0.1056241021 0.07196172327 0.9912039638
-0.1486969739 -0.09786721319 1.084353805 0.1743771881 -0.1159947738 0.9731678963
-0.1498369128 -0.09861436486 1.078474522 0.1846316457 -0.09632259607 0.9686661363
-0.1513323188 -0.09918484092 1.073033214 0.1978161484 -0.1152372733 0.9603164792
-0.1290919483 -0.1019644737 1.083911777 0.128495425 0.06207793579 0.9882773161
-0.1353970319 -0.1135762334 1.08187604 0.1145393327 0.02889421396 0.9908207655
-0.134571448 -0.1032170653 1.083637476 0.1481842846 0.07540245354 0.9851218462
-0.1322312206 -0.1178525835 1.080037355 0.09776937217 0.04903502017 0.993925631
-0.130728662 -0.1092855111 1.081534863 0.1210308522 0.07371900976 0.9890349507
-0.1371174604 -0.1089433804 1.082963943 0.135990262 0.05393908918 0.9882498384
-0.1417659372 -0.09933532029 1.085988283 0.1758580804 0.06122766435 0.9821856022
-0.1249098256 -0.1067849472 1.080829382 0.1161147654 0.09824872762 0.9880995154
-0.1104368046 -0.08705092221 1.079733729 -0.09485861659 0.2129353732 0.9633660913
-0.1240268052 -0.09155480564 1.083028197 0.01949627325 0.1290171444 0.9756634235
-0.1172235534 -0.09216333926 1.081986547 -0.02057641372 0.1263996661 0.9797496796
-0.1364849806 -0.0957069844 1.085446119 0.1292884499 0.08083168417 0.9801120162
-0.1205090284 -0.1007863656 1.082581282 0.06656035036 0.07501701266 0.9891842008
-0.1144228801 -0.09941068292 1.081488013 0.01724108681 0.09080754966 0.9887705445
-0.1308312416 -0.0946720317 1.080036759 0.1634659767 0.2103200406 0.9490901828
-0.1200853065 -0.09004745632 1.07809031 0.03029672243 0.3150413036 0.9326704741
-0.07944704592 -0.1156449914 1.072235227 -0.2580700517 0.05490420386 0.9579533339
-0.08422094584 -0.1201549694 1.071402073 -0.129407078 0.08161796629 0.9831796288
-0.0830226019 -0.1075737253 1.072070956 -0.2009731382 -0.06597360224 0.9688149095
-0.0865387246 -0.1111874133 1.071870923 -0.09191897511 -0.06232730299 0.9697281718
-0.06197679788 -0.08306562155 1.087993264 -0.3715481162 -0.2752470076 0.886453867
-0.06728540361 -0.08282418549 1.085228682 -0.3351122141 -0.2790409625 0.8987227082
-0.08919474483 -0.08355703205 1.07545805 -0.1374522597 -0.2738991082 0.9461388588
-0.07759189606 -0.07887357473 1.081335664 -0.2397096604 -0.2726977766 0.9179323912
-0.08283132315 -0.08198807389 1.080914974 -0.2349022925 -0.1732834131 0.9294327497
-0.08333025873 -0.08775217831 1.078608632 -0.1543411165 -0.233729288 0.9389981627
-0.09102598578 -0.08762650937 1.078793287 -0.1365812123 -0.1075649112 0.9519863129
-0.09652224183 -0.08535255492 1.080160618 -0.1788219512 0.03350932896 0.9569053054
-0.07635565847 -0.08559976518 1.0797472 -0.2531332672 -0.2724582851 0.9237222075
-0.08628443629 -0.09170801193 1.076454282 -0.0892855376 -0.2412003726 0.953649044
-0.07702249289 -0.09251760691 1.077307105 -0.2518485487 -0.2194627821 0.9387081861
-0.08223374188 -0.08364444226 1.075429201 -0.1602023244 -0.3563779891 0.9177231789
-0.0710516572 -0.08729508519 1.076985598 -0.2994043231 -0.2683376372 0.9117629528
-0.06525955349 -0.1076844186 1.076967955 -0.4131824672 0.03992313519 0.9073145986
-0.0186470598 -0.1966490895 1.199750781 -0.08417557925 0.09881219268 0.9789333344
-0.01966879889 -0.2015913278 1.197423935 -0.03590044379 0.04631696641 0.9788926244
-0.01781214774 -0.2053491324 1.200872898 0.009192843921 -0.05441624299 0.9962637424
-0.02572012693 -0.2072016895 1.199515581 0.03302749619 -0.05661666021 0.9969853163
-0.02605387196 -0.2033994049 1.208441854 -0.0567651242 0.009629335254 0.9958338141
-0.02973512188 -0.2082440257 1.204018831 0.01458298136 -0.05078517646 0.9973583221
-0.01947420649 -0.1958182454 1.21162641 -0.09619348496 0.1123515293 0.9864835143
-0.01956511848 -0.196461767 1.205721378 -0.06915091723 0.07141302526 0.9900451303
-0.01564863138 -0.1904982477 1.206711888 -0.1334760636 0.1876174659 0.9653799534
-0.1363895535 -0.1250849068 1.081668019 0.07985393703 0.1449302882 0.9807745218
-0.1365195364 -0.1327044368 1.083530307 0.05609765276 0.2527492642 0.9639515877
-0.1472445279 -0.1137727425 1.084834695 0.1122200936 -0.001555262716 0.9794254303
-0.1457227767 -0.1050569788 1.083976507 0.1488233358 -0.09353433549 0.9834036231
-0.1487736702 -0.1020526811 1.087684393 0.1387837827 -0.1557002962 0.9748358727
-0.1453952193 -0.123166956 1.081852078 0.09487967938 0.1273125112 0.9848377109
-0.1438477486 -0.1097166315 1.083047271 0.1336142123 -0.03919582814 0.9852244258
-0.1440413445 -0.1173559353 1.082225919 0.1110757068 0.05438232422 0.9855520725
-0.1497521251 -0.1109919548 1.088819742 0.107119672 -0.05625465512 0.9676845074
-0.1527834088 -0.1137087047 1.085256219 0.05463522673 -0.05212746933 0.9844791889
-0.147461623 -0.1263619214 1.086189985 0.07649172843 0.1483553946 0.9659951329
-0.1492074132 -0.1178513244 1.087854624 0.08890520781 0.03079797514 0.9664952159
-0.1501002163 -0.1219604909 1.08488071 0.05724582076 0.07119359076 0.9775486588
-0.138579905 -0.120197773 1.078551412 0.09767022729 0.08517574519 0.9861446023
-0.1405005157 -0.1270267814 1.077161193 0.09066943079 0.209848389 0.9728310108
-0.1348329484 -0.1283744425 1.077194929 0.09350068122 0.21952191 0.9704806209
-0.1413629055 -0.1310248971 1.082491398 0.08277358115 0.2250889093 0.9694851041
-0.1523555964 -0.1515540481 1.086811185 0.08652092516 0.1545488089 0.979233861
-0.1461015493 -0.1501923352 1.086894274 -0.01278038323 0.1757586449 0.9812840223
-0.1518224329 -0.1576831341 1.087000012 0.06521262228 0.1678679138 0.9781404734
-0.1226730272 -0.09996341914 1.062283635 0.06336190552 0.3016427159 0.9488540888
-0.1148286983 -0.09521781653 1.060574174 0.002667559544 0.3016015589 0.9322431087
-0.1058378592 -0.09910437465 1.06207335 0.03641724586 0.1242849007 0.9536550045
-0.09421250224 -0.1060443595 1.06639719 0.08184485883 -0.1090460569 0.9819931388
-0.1085088626 -0.08588522673 1.074411988 -0.1216146275 0.2565975487 0.9492998719
-0.1152122244 -0.08814164251 1.068278551 -0.04516111314 0.3761074841 0.9232316017
-0.1128480285 -0.124779515 1.073248148 0.1721270084 0.0873195678 0.9714766145
-0.0716252476 -0.1085309908 1.07487762 -0.3681391478 0.01792693138 0.9267825484
-0.08196648955 -0.1010880098 1.074946761 -0.1871914715 -0.1440024674 0.9548140764
-0.0677838102 -0.11318703 1.08138442 -0.4102907181 0.1027616486 0.8901042938
-0.07311110944 -0.1070309579 1.079390168 -0.3199863136 -0.0103782136 0.9121707678
-0.0779531002 -0.1074262336 1.076001883 -0.2620865703 -0.03718690574 0.9405536652
-0.07696826756 -0.09749335051 1.076887965 -0.255784899 -0.1642612666 0.9390844107
-0.07376927882 -0.1024699733 1.074512959 -0.3302372396 -0.0712043047 0.9384717941
-0.06999117136 -0.09352261573 1.076216936 -0.3321308494 -0.1885969043 0.9198067784
-0.08187099546 -0.09390604496 1.075077534 -0.1821217239 -0.2311553806 0.9505689144
-0.0681181401 -0.103230834 1.075513721 -0.3790450096 -0.0345107615 0.923153162
-0.0639956817 -0.09998416901 1.076498389 -0.3898870349 -0.08624190092 0.9123301506
-0.09183037281 -0.09543971717 1.074510098 0.0008438224904 -0.2201488018 0.9709474444
-0.1272180676 -0.1534397602 1.091976643 0.03070170805 0.2277249396 0.9723773003
-0.1387095451 -0.1610147357 1.091427326 -0.05626246706 0.1782537252 0.9817629457
-0.1327818334 -0.1587117463 1.091840506 -0.02132649347 0.2017093599 0.9778102636
-0.1322724372 -0.1652375162 1.092500448 -0.05245247111 0.2027827501 0.9776580334
-0.127644673 -0.1622559577 1.092360973 -0.02668263204 0.2158308029 0.9754519463
-0.1329780817 -0.1615939736 1.086911678 -0.01994849369 0.203750506 0.9777128696
-0.1430657804 -0.1683508307 1.086963415 0.04548826441 0.2165650576 0.9717796445
-0.137549147 -0.1583612412 1.086885214 0.003685562406 0.2012724131 0.9781250954
-0.1304896772 -0.1724774688 1.086998701 -0.02409231476 0.2171081007 0.9729939699
-0.1308331639 -0.166470632 1.086950898 -0.02782662213 0.2093354166 0.9758643508
-0.1506410986 -0.1685330421 1.086974025 0.08343302459 0.2171026915 0.9701865315
-0.1490725428 -0.1627640128 1.086998701 0.02541308478 0.1913034171 0.9764428139
-0.142474398 -0.1601100117 1.086923957 0.01817471534 0.1990006417 0.9771015048
-0.1269991845 -0.1625171155 1.086984277 -0.01530481502 0.2263550609 0.9724622965
-0.1281649768 -0.156366393 1.086990595 0.01908204332 0.2392011881 0.9697138071
-0.1352476776 -0.1506768614 1.086245537 -0.006780510303 0.2350579053 0.9701915979
-0.140993163 -0.1475637704 1.086467624 -0.0122837387 0.2300804406 0.9709913731
-0.1078760102 -0.1042770967 1.064326167 0.06933328509 0.1540356576 0.9517213702
-0.1130977422 -0.1007015929 1.063122869 0.04561813548 0.2459544539 0.9392008781
-0.1070785969 -0.1127222851 1.067544341 0.1459049582 0.08999677747 0.9591377974
-0.09782314301 -0.1101797149 1.066265821 0.1059305817 -0.01671697572 0.9751423597
-0.1031672806 -0.1079005972 1.065564513 0.09440585971 0.06861992925 0.9632900953
-0.1030580327 -0.1209210604 1.07056284 0.2144572735 -0.0152493678 0.9725729227
-0.09916467965 -0.1167816967 1.068845749 0.1692916155 -0.04070709273 0.9771662354
-0.112445645 -0.1144062355 1.06884563 0.1300419718 0.1436113268 0.9583798051
-0.1196724251 -0.1209833324 1.072711945 0.1092961207 0.1818871498 0.968372643
-0.1175304428 -0.1065754667 1.066090584 0.05932481587 0.259385705 0.9446820021
-0.1165983528 -0.1112664118 1.068026304 0.086952582 0.2149477452 0.952609539
-0.1119519323 -0.1083068997 1.066098332 0.1060082465 0.1812876463 0.9482964277
-0.1196763888 -0.115764007 1.070418596 0.08575753123 0.2191537768 0.9596880674
-0.1084571555 -0.1212740466 1.07132566 0.1887797713 0.04762557894 0.9703312516
-0.1033193395 -0.1150129139 1.073578238 0.206381321 -0.03840025887 0.9772179723
-0.09773412347 -0.111360617 1.07311523 0.08161849529 -0.06057116017 0.9777684808
-0.1039256379 -0.1206322014 1.075929999 0.126954034 0.04683026299 0.988896668
-0.1078556329 -0.1186270416 1.078412533 0.1315436661 0.05607369542 0.9883939028
-0.1133048534 -0.1060524955 1.08102107 0.0805458799 0.09397201985 0.9894477129
-0.1081599891 -0.09912979603 1.078329563 0.03762362897 0.1611035466 0.9831408858
-0.1127287224 -0.1125323996 1.081150413 0.1493260711 0.05062036589 0.9858034849
-0.1056545079 -0.1041712314 1.078733683 0.09133391827 -0.02341929264 0.9807257652
-0.1029026732 -0.09871286154 1.076997161 0.05561811104 0.01989875734 0.9783293009
-0.09724298865 -0.10139402 1.073818088 0.07361195236 -0.1077725962 0.9783734679
-0.1020563841 -0.1038651392 1.074054718 0.1509025246 -0.04251310974 0.9803146124
-0.09494383633 -0.1061864272 1.07289052 0.01893957332 -0.06992017478 0.9798215032
-0.1035531536 -0.1090391874 1.074007154 0.184199661 -0.02778022364 0.9789595604
-0.08905344456 -0.1056599542 1.07208395 -0.09129408747 -0.1001428738 0.9798042774
-0.1087752879 -0.1089431718 1.077746987 0.1729289144 0.01825617999 0.9833414555
