# .PCD v0.7 - Point Cloud Data file format
VERSION 0.7
FIELDS x y z normal_x normal_y normal_z
SIZE 4 4 4 4 4 4
TYPE F F F F F F
COUNT 1 1 1 1 1 1
WIDTH 512
HEIGHT 1
VIEWPOINT 0 0 0 1 0 0 0
POINTS 512
DATA ascii
0.07114620507 -0.08656337857 1.033203363 -0.1725080609 0.3537023067 0.9193125963
0.08208403736 -0.0856032446 1.031279564 -0.1725080609 0.3537023067 0.9193125963
0.07357424498 -0.08895626664 1.028223038 -0.1725080609 0.3537023067 0.9193125963
0.1331630349 0.04641451687 0.9270489812 0.4205244482 -0.1220062673 0.8979846239
0.1371758133 0.04262723401 0.920827806 0.3341459036 -0.2390543222 0.9036573768
0.08021394163 -0.09759724885 1.028675199 -0.1725080609 0.3537023067 0.9193125963
0.07243952155 -0.0941715911 1.030916572 -0.1725080609 0.3537023067 0.9193125963
0.09655120224 -0.1033249497 1.028881788 0.1154183 0.9215354919 0.3558513522
0.09009669721 -0.1013335586 1.028803468 -0.03358897194 0.5701420903 0.7307093143
0.1186285093 0.03827641159 0.9264156222 0.5845923424 -0.2196572721 0.7712706327
0.1228611544 0.04167731851 0.9302256107 0.5404568911 -0.1823079586 0.8084900379
0.1305723041 0.04860595614 0.9317992926 0.4325120151 -0.1089848578 0.8876361251
0.1246662736 0.002807463054 0.919192493 0.6110105515 -0.1731683463 0.7658854723
0.1313336045 0.002405541949 0.9138231874 0.5088908672 -0.1850662082 0.8302758336
0.1876541823 0.0345611982 0.938993752 -0.4190777242 -0.4570831656 0.7837398052
0.1835672855 0.03044931404 0.9355382323 -0.4039176702 -0.4777062535 0.776832819
0.1815981567 0.03698427603 0.937435627 -0.3674987853 -0.4765808582 0.7935263515
0.1742813289 0.03918254748 0.933724165 -0.2976841629 -0.4930018485 0.808893621
0.1508463472 0.045992136 0.9268757701 0.05954302102 -0.3641376793 0.8779122829
0.1411490142 0.049320627 0.928650558 0.232767418 -0.2052137852 0.9026826024
0.1566711515 0.04348927736 0.9238430858 -0.01494980417 -0.4799389243 0.8739344478
0.1453297287 0.04471104592 0.9224337339 0.2014314532 -0.3030993044 0.9098110795
0.1453497857 0.03945337981 0.9178490043 0.2255659997 -0.3519367874 0.9062736034
0.1476601958 -0.07185125351 0.966080606 0.5771724582 0.5425552726 0.6092511415
0.05296719447 0.001360746101 0.9781839848 0.5707936287 0.204223603 0.7952882648
0.05341755226 -0.01000012923 0.9825202227 0.5824125409 0.198671177 0.7881839275
0.04740383103 -0.00651322864 0.9828494787 0.5737022161 0.202738598 0.7935349345
0.0485894531 -0.0008545291494 0.9807068706 0.5706466436 0.2042888701 0.7953794599
0.1451940984 -0.07477964461 0.97953403 0.5915237069 0.5646983981 0.5755131841
0.1474284977 -0.07034811378 0.9738358259 0.5915237069 0.5646983981 0.5755131841
0.2004231513 -0.05810426548 0.9514446855 -0.5860278606 0.4773711264 0.645593524
0.1880888343 -0.06814265251 0.9453479648 -0.2645323277 0.5252921581 0.8030239344
0.1103506908 -0.1009546071 1.037924409 0.124057278 0.8884597421 0.4172975719
0.1177779511 -0.1012506336 1.038085103 0.1053133309 0.9339061379 0.3404546678
0.1141752303 -0.0976524502 1.034574509 0.09968867898 0.9246231914 0.366581738
0.1215018556 -0.1001384407 1.043716192 0.1089605093 0.9399254918 0.32351318
0.1165780574 -0.09713936597 1.042094827 0.104685016 0.9328691959 0.3433732688
0.1100955009 -0.08948085457 1.041224241 0.09688325971 0.9199931622 0.3796132207
0.1098251715 -0.1036702767 1.032653451 0.108982496 0.939961791 0.3234110177
0.177713871 0.0320760943 0.9336941838 -0.3673695326 -0.5111752748 0.7761916518
0.1676509976 0.04101246595 0.93048352 -0.2361090481 -0.5091297626 0.8217775226
0.1400820613 -0.002873965539 0.9099068642 0.321118325 -0.03230623156 0.9298787713
0.1412474811 0.003115174361 0.9090890884 0.3165488839 -0.1863444448 0.9174655676
0.1534162909 -0.004836336244 0.9074956775 0.04589611292 0.02176345326 0.9959581494
0.1469035298 -0.0087925978 0.9083741307 0.1642950922 0.1471854895 0.9653275013
0.1822270751 0.03482269123 0.9313901067 -0.3668975532 -0.4761388004 0.7880274057
0.1742785871 0.03547237813 0.9290101528 -0.2984626591 -0.5061626434 0.79980129
0.1790272593 0.02989980765 0.9280133843 -0.3489264548 -0.5123102665 0.7801648974
0.1911071688 0.01770057529 0.9246582389 -0.5146629214 -0.3433870971 0.7789407969
0.1797862053 0.02614272572 0.9234007001 -0.3670216799 -0.5106660128 0.7751309276
0.1856806278 0.02674498782 0.926633358 -0.4249627888 -0.4745459557 0.7694683671
0.1525353491 -0.07526322454 0.9633166194 0.5516543984 0.5599315166 0.6172855496
0.1179348528 -0.01633015275 0.9294812679 0.6887066364 0.08857556432 0.7161622047
0.1265066713 -0.007068381645 0.9184277654 0.6031566262 0.01871599816 0.7958285809
0.04418082535 -0.03649730608 0.9938455224 -0.0083516296 0.489022404 0.8070184588
0.05192700401 -0.024143558 0.9874523878 0.4588082135 0.4806896448 0.739741385
0.05305984244 -0.01654187776 0.9848058224 0.5690886378 0.2351302654 0.7787972689
0.04316015914 -0.02491749823 0.9884992242 0.4521125853 0.4353739321 0.7492138743
0.1194527149 0.00362630072 0.9239961505 0.6734803319 -0.1841088682 0.7098155022
0.1204870641 -0.00760652544 0.9222707152 0.675681591 0.00782373827 0.7364531159
0.1030742079 -0.1010396481 1.031050205 0.1055312827 0.934265852 0.3394422829
0.09783869237 -0.09430450946 1.030866146 0.0110177435 0.7388038039 0.5475988984
0.09132643789 -0.09378175437 1.028592229 -0.06604546309 0.576025188 0.6974080801
0.1051096618 -0.09391476959 1.033885956 0.09649109095 0.9193459153 0.3814348876
0.1108118147 -0.09251636267 1.036075234 0.09649109095 0.9193459153 0.3814348876
0.04674755037 -0.03773441166 0.9995928407 -0.189001441 0.4427956641 0.8438661695
0.04452965036 -0.029606672 0.9932783842 0.2506743073 0.5470972657 0.7532683611
0.05097671598 -0.03522134572 0.9951284528 0.04404558986 0.4626379609 0.8052084446
0.05214118585 -0.02940509841 0.9901607037 0.2592803538 0.4877561927 0.7708047032
0.1159548238 -0.02169749327 0.930411756 0.6904394031 0.08642204106 0.7169620395
0.1104544476 -0.01929904148 0.937648654 0.7277627587 0.05211528763 0.6834942102
0.1510737091 -0.06155552715 0.9547131658 0.5542961955 0.4804879129 0.6765967607
0.0836423561 -0.09268921614 1.027999997 -0.1725080609 0.3537023067 0.9193125963
0.0867138952 -0.09671111405 1.032157063 -0.02186414972 0.5456260443 0.7767077684
0.08861281723 -0.0917365104 1.034400582 0.06252809614 0.6531436443 0.6968191266
0.07466581464 -0.08557867259 1.039065242 -0.1725080609 0.3537023067 0.9193125963
0.0781974569 -0.09014292061 1.035299897 -0.1725080609 0.3537023067 0.9193125963
0.1907773614 -0.05085896328 0.9399260283 -0.2593766153 0.3536637425 0.8827495575
0.196242094 -0.04783927277 0.9395209551 -0.3114675581 0.3088397682 0.8822163939
0.1953444779 -0.06073781475 0.9452530742 -0.4265421033 0.4842067361 0.7560129166
0.1895714998 -0.06290502846 0.9615594745 -0.3259019554 0.5503752828 0.5873987675
0.1922006309 -0.06535187364 0.9679813981 -0.3255211115 0.5912969708 0.545991838
0.2034923136 -0.06646653265 0.9720414281 -0.5329752564 0.6261066198 0.510178864
0.1862587929 -0.0649946034 0.9664190412 -0.2112529278 0.5764195919 0.5613708496
0.1799203306 -0.06571395695 0.9675077796 -0.06486334652 0.5770598054 0.5611391068
0.1930671483 -0.06748986244 0.9734318852 -0.2957587242 0.624761641 0.5122140646
0.1753230542 -0.06763136387 0.9717918634 0.07237648219 0.5984635353 0.5398711562
0.1709269881 -0.06535001099 0.9653821588 0.1129777133 0.5569810867 0.5819619894
0.1819583774 -0.06406731904 0.9611465931 -0.1318736523 0.5530324578 0.5852615237
0.1550169885 -0.0679127425 0.9639886022 0.5254941583 0.5636335611 0.5764030218
0.1607725173 -0.06672216952 0.9672660828 0.3543133438 0.5608730316 0.5787097812
0.2223862261 -0.05162554234 0.9719938636 -0.7327927947 0.3185080588 0.5986648798
0.2152702957 -0.05880683661 0.9730935693 -0.6649287343 0.4689733684 0.5518081784
0.2109565735 -0.06266499311 0.9739553928 -0.6290434599 0.5487331152 0.5212796926
0.2130108774 -0.05262299627 0.9725190401 -0.7181606293 0.3492687941 0.5641253591
0.2081806809 -0.05808833614 0.9673267603 -0.6568433642 0.4752307534 0.5669305325
0.2128848284 -0.05595637858 0.9643759131 -0.6742476225 0.4118533134 0.6100935936
0.1287676394 -0.001293455949 0.9178725481 0.5653244853 -0.06901688129 0.8048231602
0.1154627055 0.01177221164 0.931294024 0.6716436744 -0.2715828717 0.6878136992
0.1153499186 0.0192640163 0.9308899641 0.6580689549 -0.2711669207 0.7016068697
0.1212636977 0.03254881874 0.9407496452 0.5889686942 -0.2163579613 0.7766389251
0.1201629266 0.0362338908 0.934954226 0.6005333662 -0.2321751863 0.761454761
0.1239781231 0.03762452677 0.9391202331 0.5734702945 -0.1890010834 0.7951536179
0.1130870953 0.03136306256 0.9320338964 0.6414061189 -0.2530848086 0.7235830426
0.1149504855 0.0307151787 0.9371318221 0.6436375976 -0.2528173923 0.7219575644
0.1593604237 0.02725294977 0.9232600331 -0.08524141461 -0.4680369198 0.8647108674
0.1721354872 0.0299034901 0.9298200607 -0.2934576869 -0.5028505325 0.7991176248
0.1661586463 0.02832316235 0.9246109724 -0.2484181523 -0.4990514815 0.8221784234
0.1591501981 0.006034197751 0.9079480767 -0.0827326104 -0.2180639654 0.9679825306
0.1480622739 0.004097043071 0.9079440236 0.1771114469 -0.1974144876 0.9552029371
0.1547597945 0.002273810795 0.9077724814 0.006072475109 -0.1613039672 0.9797465801
0.1470160037 -0.001907638391 0.9078815579 0.1801429391 -0.03850758076 0.9729141593
0.1589865685 -0.001871902961 0.9076036811 -0.06456747651 -0.02305668779 0.9886113405
0.166791603 0.0002837454085 0.9086831808 -0.2456466258 0.0004351896059 0.9604469538
0.1247020662 0.02157215215 0.9323325753 0.5638757348 -0.33156389 0.755815804
0.1236214414 0.03867223486 0.9242795706 0.5240959525 -0.2281605452 0.8063838482
0.1299697757 0.04214959964 0.9245924354 0.4546861649 -0.1845328659 0.8612146378
0.1309539825 0.04187868536 0.9337441325 0.4587952793 -0.161139369 0.8707088232
0.1342891902 0.03694144264 0.9349498153 0.409734726 -0.2342808545 0.8186209202
0.1482477635 0.03594292328 0.9331938624 0.1150905192 -0.3777112365 0.799687922
0.146293819 0.04282049835 0.930441916 0.1386995763 -0.3263487518 0.8623788357
0.1522961557 0.04040121287 0.9306319952 0.01508312207 -0.3923479617 0.8387103677
0.159539029 0.03919951245 0.9299325943 -0.1327305734 -0.4775433242 0.8193876147
0.1524303257 -0.07409782708 0.97033149 0.5873402357 0.5649125576 0.5792238712
0.1518654525 -0.06829101592 0.9699976444 0.5675576925 0.5663149357 0.5747300982
0.1656578034 -0.06861646473 0.9709291458 0.2875398695 0.5853671432 0.5562863946
0.1829024851 -0.07224928588 0.9707801342 -0.01409326773 0.605692625 0.5475843549
0.1873591542 -0.06778832525 0.9729405046 -0.1731889099 0.6167967916 0.5213013291
0.1648989618 -0.07826011628 0.966943562 0.4481292665 0.5738495588 0.6003038287
0.1601997763 -0.07250525802 0.9689245224 0.4587227106 0.5734741688 0.5814669728
0.1712968946 -0.07209309936 0.969948411 0.2232963741 0.589533627 0.5636275411
0.1321075857 -0.01914379187 0.9161193371 0.4397170842 0.2282514721 0.8629333973
0.1261028945 -0.02127836458 0.920786798 0.558858335 0.1942457706 0.7978516817
0.1239214987 -0.01494745724 0.9217169285 0.6408154964 0.1030708104 0.760093689
0.1159852445 -0.01071130764 0.9288994074 0.7144180536 0.01230952796 0.6973904371
0.115201585 -0.004956892226 0.9288395643 0.7304442525 -0.02719501965 0.6820058823
0.08948683739 -0.08786080033 1.030303597 -0.1725080609 0.3537023067 0.9193125963
0.09317289293 -0.0885463208 1.03830874 0.02644338459 0.6922054887 0.6229425669
0.08754052967 -0.08594417572 1.040183306 -0.05180836841 0.5832746625 0.708753109
0.08031009883 -0.08398587257 1.039870143 -0.1247516572 0.4541230798 0.823821187
0.1044431254 -0.08778707683 1.040207982 0.07220023125 0.8682677746 0.4300057292
0.09859939665 -0.08684256673 1.039991021 0.02905122004 0.7775353193 0.5162844062
0.1001450345 -0.08887129277 1.034734964 -0.01902801916 0.6764356494 0.6124213338
0.04867130518 -0.04351646826 1.000248551 -0.2712582648 0.4299016297 0.8610277176
0.208951205 -0.02860399708 0.9566028118 -0.5066901445 0.2432762533 0.7825614214
0.2084299326 -0.02932570502 0.9509559274 -0.4381491542 0.2349724323 0.8386348486
0.2055752128 -0.02018088661 0.9480260611 -0.3701486588 0.2604114413 0.8797923326
0.2056902796 -0.02622578479 0.9467301965 -0.374042362 0.2394372523 0.8858239055
0.2216978073 -0.04558359832 0.9725307822 -0.7666664124 0.2104022503 0.5975396037
0.2062061131 -0.04890053719 0.9580711126 -0.5916709304 0.3992437124 0.6691843867
0.2033713907 -0.05492395908 0.9549219012 -0.6658312082 0.4310225844 0.6082154512
0.2045975626 -0.04236715659 0.9521986842 -0.5287105441 0.3531778157 0.7337480187
0.2095823884 -0.05102201551 0.9645764232 -0.6730347276 0.3673078418 0.6173555255
0.2137889266 -0.04565340653 0.9689792991 -0.7176758647 0.2549242973 0.6202384233
0.2122975886 -0.04090734944 0.9644750953 -0.6460440755 0.241093412 0.679079771
0.2061778307 -0.03453589603 0.951792419 -0.4620777965 0.2901149988 0.802562356
0.2081333101 -0.04326303676 0.9588067532 -0.5770181417 0.3284626901 0.7028650641
0.1959505081 -0.008897846565 0.9297579527 -0.6180870533 0.2703186572 0.7163683772
0.2021067888 -0.01364291925 0.9401695728 -0.4820008874 0.2143106759 0.8157830834
0.1693718731 -0.01050115936 0.9109985232 -0.3418218791 0.333013624 0.865126431
0.1624227911 -0.01340486575 0.9087340236 -0.2345892191 0.3398410976 0.906958282
0.1589107066 -0.008124929853 0.9076851606 -0.1062303483 0.1554916203 0.9602462649
0.1950267851 0.01199208759 0.9258133769 -0.6192135215 -0.2035793662 0.736317873
0.1861100495 0.009662339464 0.9194515944 -0.5380967259 -0.1720112413 0.8101652265
0.1949467063 0.02043647505 0.9312165976 -0.519562602 -0.3356792033 0.7829002738
0.1899843961 0.02738691866 0.9356063604 -0.449721843 -0.4265144765 0.7807834744
0.1885408312 0.02161064558 0.9324458838 -0.5306075811 -0.3230965436 0.7252001166
0.1360329688 -0.02431951649 0.9156720638 0.3005689383 0.4538727403 0.832347095
0.1452570111 -0.02254346199 0.9118685126 0.1213974506 0.4427782297 0.8837500811
0.1372011304 -0.0155661488 0.9128462076 0.3295220435 0.2273012251 0.9089494944
0.1476391852 -0.06432393938 0.9583553076 0.5819817185 0.5094217062 0.6329696178
0.1532860249 -0.06862089038 0.9570343494 0.5553010702 0.5354148746 0.6348540783
0.1514437646 -0.07832740247 0.9748446345 0.5790199637 0.5653384924 0.5866037607
0.197592482 -0.05510902405 0.94339782 -0.4338414669 0.392077148 0.7980046868
0.2043618411 -0.04293977097 0.9406426549 -0.4264343977 0.2055033892 0.8727864623
0.2169848979 -0.04855018109 0.9612661004 -0.6099177599 0.2815991342 0.698587656
0.2196084112 -0.04923782125 0.9664109945 -0.6738687158 0.2819252312 0.6508197784
0.2124103159 -0.05147841573 0.9593068957 -0.6249299049 0.3327921331 0.6831881404
0.2082883567 -0.04916158691 0.9523028135 -0.5681281686 0.298339963 0.7442148924
0.2052959055 -0.04618191719 0.9458881617 -0.5151842833 0.2515147924 0.8077746034
0.1878562123 -0.06266981363 0.9427275062 -0.2695271969 0.4640523195 0.8377660513
0.1913907081 -0.05691193044 0.9424403906 -0.3269242644 0.4362927377 0.82972157
0.2051597536 -0.06283277273 0.963796556 -0.6054807901 0.5458500385 0.5762983561
0.2002625465 -0.0634823516 0.9560298324 -0.5526218414 0.5584824681 0.614880681
0.1322845668 0.02012757771 0.9258806705 0.4940753877 -0.3695202172 0.7853673697
0.1359077245 0.009751082398 0.9132357836 0.4116808176 -0.35097 0.8373381495
0.1294982731 0.01946492679 0.918417573 0.4737305939 -0.3600387871 0.7934684157
0.1311556697 0.0117013501 0.917293787 0.476216346 -0.3869855106 0.7874385118
0.1264554262 0.02433352917 0.9201500416 0.5030828118 -0.3300465345 0.7855296135
0.1314349771 0.02848768048 0.9186133742 0.4333289862 -0.3177797496 0.8318699598
0.1214247942 0.03125295416 0.9229460955 0.5549747348 -0.2839820683 0.7698307037
0.135174647 0.03535254672 0.9178782701 0.3746844828 -0.2888730168 0.877155304
0.1344958842 0.01789746992 0.9161983132 0.4124175608 -0.3793589175 0.8235628009
0.1292333007 0.03443562984 0.920163691 0.4511601925 -0.2822658718 0.8331720829
0.1428398788 0.01081102435 0.9110905528 0.3012433648 -0.372916609 0.8766140342
0.1399096102 0.02284825779 0.9150905609 0.3329238892 -0.3628100753 0.8657469749
0.1433873028 0.01763230935 0.9135562181 0.2952258289 -0.3961226344 0.8672085404
0.1378386617 0.02876869589 0.9163157344 0.3506886363 -0.3281786442 0.8728162646
0.1281668693 0.007575022522 0.9214082956 0.5524495244 -0.2481661439 0.7683578134
0.1289900839 0.01333181188 0.922980845 0.5264227986 -0.3627350926 0.7559850812
0.1256188899 0.01763583533 0.9280803204 0.5584286451 -0.3646642864 0.7444273829
0.1173061281 0.0081340326 0.9267435074 0.6755663157 -0.2418938875 0.6935924292
0.1179889292 0.01502120774 0.9266486168 0.6378032565 -0.3000489175 0.7077414989
0.1231320724 0.02016608417 0.9217922091 0.5620859265 -0.3246488273 0.7549697161
0.1160661057 0.03203176707 0.9257825613 0.6236070991 -0.2598944306 0.7359152436
0.1190120876 0.02487417124 0.9244319797 0.6029195189 -0.2905063927 0.7385089993
0.1177521795 0.002230388811 0.929295361 0.6739913821 -0.1750704795 0.6927983761
0.1132398322 -0.0008964795852 0.932896018 0.7209106684 -0.1197535917 0.6728132963
0.1225436181 0.01164820883 0.9271137118 0.6022367477 -0.3433617055 0.7120652795
0.1131912991 0.0057108826 0.9338966608 0.7062026858 -0.2199867964 0.6700415015
0.1485107839 0.0154873617 0.9122848511 0.196618855 -0.4099413753 0.8845123649
0.1449056268 0.03262656182 0.9164472818 0.2462259978 -0.3626011312 0.8972634077
0.1448500603 0.02694866806 0.9153156877 0.2582743168 -0.3792432547 0.8869772553
0.1370488852 0.01337587554 0.9192312956 0.4096879065 -0.3340881467 0.8238890171
0.1355473697 -0.001014091889 0.9139114022 0.4574956 -0.06978109479 0.8703956008
0.1450003535 0.01263672579 0.916277051 0.2830850482 -0.2779397368 0.8916082978
0.14300327 0.005404371768 0.9140629768 0.3031365275 -0.1499000043 0.9092462659
0.1204592288 0.01585629396 0.9322064519 0.6096524 -0.308237493 0.7239077091
0.1179853082 0.02501643822 0.9397832155 0.6083645821 -0.2830529809 0.7398658395
0.1003352106 0.007034068927 0.9457510114 0.7407053709 -0.1719366312 0.6489964724
0.1686382592 0.03455638885 0.9267652035 -0.2524755299 -0.5340975523 0.8046989441
0.1720111519 0.03082407825 0.9236226678 -0.2869932055 -0.5305678248 0.7945400476
0.1652026772 0.03461224213 0.9221217036 -0.1515396833 -0.5018072128 0.8352568746
0.1644870639 0.02177406661 0.9150838256 -0.1629495174 -0.453163892 0.8706448674
0.1602974832 0.02664341778 0.9156327248 -0.07546510547 -0.4305853546 0.8829838634
0.1539048702 0.03501993418 0.9171973467 0.05790222436 -0.4035941958 0.897464335
0.1549419016 0.01272682659 0.909132719 0.03268413618 -0.3706874847 0.9207591414
0.1526852399 0.02473360859 0.913287282 0.08841955662 -0.3878196776 0.9145592451
0.1570311636 0.01936049946 0.9106702209 -0.01581445523 -0.3707856536 0.9220926166
0.164141953 0.01506681554 0.9101996422 -0.156537652 -0.4029558301 0.9006662965
0.1562583596 0.0221938584 0.918273747 -0.005840702448 -0.4485071003 0.8897997141
0.1636070162 0.02405976132 0.9202452302 -0.1902236938 -0.4515766799 0.8572680354
0.1770222783 0.02074480057 0.9226794243 -0.3806318343 -0.4117523432 0.8209497333
0.1122217178 -0.007546495646 0.9340167046 0.7376794219 -0.02374096401 0.6727234125
0.1071726456 -0.01352564245 0.9409683347 0.7426165938 -0.0001528217399 0.6694914699
0.1132769212 -0.01382842194 0.9343571663 0.7282468677 0.0458025746 0.6826495528
0.1895554513 -0.0462204814 0.9443649054 -0.3200675249 0.262661159 0.8359581232
0.1982042342 -0.05141787976 0.9504764676 -0.542794466 0.3655132055 0.6922832727
0.1849307865 -0.05379318073 0.9394896626 -0.1779209971 0.3441002071 0.9193947911
0.1899709404 -0.05239276588 0.9479247928 -0.3371733725 0.3464098871 0.7858090997
0.1911749691 -0.03119731694 0.9305661321 -0.3690000176 0.3136722744 0.8377965689
0.1982502043 -0.03468804806 0.9338140488 -0.3564952016 0.2370582372 0.8833818436
0.1871401221 -0.02626823075 0.9266250134 -0.4266335368 0.4008783102 0.7749320269
0.1924162209 -0.03628421202 0.9343169332 -0.2899029255 0.2339685708 0.901935637
0.1854478419 -0.03081389517 0.9296733141 -0.337148279 0.3395218551 0.8315393925
0.1542775184 -0.05327281728 0.9429633021 0.4400793016 0.4260479808 0.7897365689
0.1374015659 -0.03701242432 0.931748569 0.4709770977 0.4402448237 0.7547832131
0.1252827644 -0.02991330251 0.9350117445 0.6242880225 0.2214752734 0.7107333541
0.1418425441 -0.0446764715 0.9398654103 0.5191636682 0.411806047 0.7318517566
0.1274209768 -0.02770243771 0.9280649424 0.5258371234 0.3343760967 0.745236814
0.1319273263 -0.03380822763 0.9332273006 0.5402828455 0.3413683772 0.734865427
0.1374099702 -0.04379022121 0.9442051649 0.6104984879 0.2950966358 0.7025393844
0.1809887439 -0.08367668837 0.966581583 0.2025015205 0.5732581615 0.6066631079
0.1873198152 -0.0794018507 0.9722514749 -0.03770333156 0.604675889 0.5590966344
0.1758940667 -0.08648588508 0.9692897201 0.3039780259 0.5756153464 0.6038466692
0.1944520921 -0.07512071729 0.9715174437 -0.2123032659 0.6134775281 0.5397127867
0.1677875519 -0.08816283941 0.9711585045 0.4406444132 0.5740736723 0.6159390807
0.1797582656 -0.08127421141 0.9721181989 0.1209221929 0.5961431861 0.5770158768
0.1754160821 -0.08029389381 0.9669874907 0.2606323659 0.586499393 0.5940243006
0.1675857008 -0.08430094272 0.9667182565 0.4565053284 0.5729788542 0.6178700328
0.1989613026 -0.07114337385 0.9737109542 -0.3789123893 0.6306452751 0.5161656141
0.1572113037 -0.08833987266 0.9738106728 0.5598111153 0.5703328848 0.6007001996
0.1494741738 -0.08356701583 0.9734475017 0.558889389 0.5722381473 0.6001551151
0.2024988681 -0.03681739792 0.9469711185 -0.4487618506 0.2950277328 0.8104132414
0.2062439919 -0.05658835173 0.9618789554 -0.6589434147 0.4561299682 0.5970395803
0.1064475849 0.01551516913 0.9430332184 0.6882479787 -0.2106968611 0.6936971545
0.1102767363 0.02228136733 0.9357375503 0.6659724116 -0.224273473 0.7099436522
0.1124336869 0.02156643942 0.9431772232 0.6385272741 -0.2694609165 0.7166137099
0.1528245658 0.04148901626 0.920391798 0.07655868679 -0.4272273481 0.8941107988
0.1597833335 0.03375962377 0.9198627472 -0.06842933595 -0.4688665569 0.8700059652
0.1815457493 0.01629428379 0.9191741347 -0.4354000688 -0.3756707311 0.8063083291
0.1848465353 0.02070434764 0.9224757552 -0.454739511 -0.4179616272 0.7819712758
0.1754852682 0.01624378562 0.9163205028 -0.3443565071 -0.405263871 0.8395882249
0.1704445481 0.02184818685 0.9174109101 -0.238960579 -0.5096194148 0.8242532611
0.1742225736 0.02509274147 0.9205297232 -0.3030460477 -0.5247612596 0.7930654883
0.1753477603 0.003968583886 0.9130354524 -0.4238099456 -0.08151461184 0.8989349604
0.1804799438 -0.0006329280441 0.915299654 -0.5021106601 0.07182057202 0.8505194187
0.1754513234 0.01085060555 0.914532423 -0.3809577525 -0.2643050849 0.8755500913
0.1804982722 0.007851647213 0.9159316421 -0.4651717544 -0.1698459834 0.8560774326
0.1700808406 0.00539502129 0.9104971886 -0.3175778985 -0.1223227456 0.9317829609
0.106975399 -0.004069624003 0.9411305189 0.7499293089 -0.07464872301 0.6570469141
0.1026529521 -0.0002299556945 0.9448871613 0.7501841784 -0.1142412648 0.6498303413
0.1158262342 0.01925550774 0.937772572 0.6409154534 -0.2864110172 0.7074025273
0.1138249561 0.01226885803 0.9365931153 0.679684639 -0.2405672818 0.6864649653
0.1064404771 0.005754156504 0.9415444136 0.7299085259 -0.1550946832 0.6641522646
0.178279534 -0.05062112585 0.9379006624 -0.03269906342 0.308926791 0.9454653263
0.1690103859 -0.04684463888 0.9345960021 0.02363013849 0.377355665 0.9104168415
0.1689041853 -0.04043898731 0.9310617447 -0.09616111964 0.4170889556 0.8845251203
0.159492895 -0.03128364682 0.9214658737 -0.1539696157 0.5973175764 0.7793869376
0.1285557598 0.02674729005 0.9342223406 0.5426533222 -0.2512800992 0.8003373146
0.1252390444 0.02987116389 0.9375761151 0.5726713538 -0.2215716243 0.7883429527
0.1374566108 0.03184888512 0.9335673451 0.3741726875 -0.2907145917 0.7995980382
0.142939806 0.03117261454 0.9319783449 0.2630318999 -0.3427571356 0.8023492098
0.1305092275 0.03197748587 0.9351004958 0.5207725167 -0.2260987759 0.7982763052
0.1501889974 0.02562137693 0.9229915142 0.1693258584 -0.3974826336 0.8888408542
0.1347743273 0.0257161092 0.929571569 0.4881453812 -0.2739322782 0.8253543377
0.1434129626 0.02240291797 0.9225087166 0.3337445557 -0.3622181416 0.8621294498
0.1381833702 0.01875219122 0.9214165211 0.3916511536 -0.4052373767 0.8161821365
0.1614640951 0.03284602985 0.9279770255 -0.1420064121 -0.5048910379 0.8233232498
0.1403637975 0.02706914768 0.9289724827 0.3655789495 -0.318221122 0.8293129802
0.1558399349 0.03203324229 0.9291793108 -0.005593834445 -0.4541759491 0.813752532
0.1502680779 0.02983743325 0.9285212159 0.1369988173 -0.4029237926 0.8262403011
0.201101616 -0.04082931951 0.9368367195 -0.2967055738 0.1671378911 0.9352432489
0.1848952919 -0.04654394835 0.9367876649 -0.1066747457 0.210079506 0.9683345556
0.1900464445 -0.04470486194 0.9367849827 -0.1662422121 0.194319278 0.9584722519
0.1867283434 -0.03619026765 0.9330162406 -0.2519293725 0.2590488791 0.8954679966
0.1778104007 -0.02176055498 0.9220597148 -0.440684855 0.5025650263 0.7138338685
0.1965893358 -0.02852894738 0.9317502379 -0.4183263183 0.289690733 0.8329437375
0.1917771548 -0.02358470298 0.9286487103 -0.4586859643 0.3632152379 0.7799050808
0.1845088899 -0.01957264356 0.9243296385 -0.4878122807 0.4603333175 0.7203031778
0.1851038337 0.002113355324 0.9178532362 -0.5718160272 0.03961566836 0.8091343045
0.1708022058 -0.03258064017 0.9272399545 -0.294141531 0.427911669 0.8162625432
0.1765914559 -0.03402252868 0.928818047 -0.2632003427 0.3569636941 0.8469296098
0.172459662 -0.02454425208 0.92274189 -0.409850508 0.5094129443 0.7321020365
0.182741195 -0.0410060063 0.9337987304 -0.14881064 0.2200901955 0.9388363957
0.179170832 -0.02846997604 0.9260696769 -0.3389038444 0.4067443609 0.7914196849
0.1567783356 -0.06100163609 0.9472641945 0.4642662704 0.4626160562 0.7537894845
0.1605438888 -0.05699862912 0.9431020021 0.3543930054 0.4283012748 0.8260242939
0.1625125855 -0.06316572428 0.9447218776 0.3491817415 0.4644832611 0.811047256
0.1723101288 -0.07875435054 0.9538938999 0.3122800887 0.5762184262 0.7475599051
0.1614954621 -0.08388407528 0.9680921435 0.5464516282 0.5670057535 0.6154911518
0.1639059335 -0.07776977867 0.9562672973 0.4884766638 0.5743447542 0.6554310322
0.1672534347 -0.08433018625 0.9597710371 0.4974789321 0.5560503006 0.6644750834
0.1619359702 -0.08115845919 0.9617531896 0.5234400034 0.5680884123 0.6326408982
0.1621015519 -0.09041192383 0.9697757363 0.5529925823 0.5642738938 0.6125690341
0.1681275517 -0.08995729685 0.9649367332 0.5428701043 0.5506023169 0.6338790059
0.1571198851 -0.07886723429 0.9636992216 0.5504991412 0.5712917447 0.6084733009
0.1553986073 -0.08387152106 0.9700474143 0.558889389 0.5722381473 0.6001551151
0.1972950846 -0.02424860187 0.9416629672 -0.3384783864 0.2674962878 0.901950717
0.2001050711 -0.02932603285 0.9420119524 -0.3316876888 0.2189244181 0.9170882702
0.2178999931 -0.04365105927 0.9640995264 -0.6571246386 0.2019668669 0.6796776056
0.2135715038 -0.04258710518 0.9552953839 -0.5544582605 0.1912661791 0.7592024803
0.2045401484 -0.03431772441 0.9412603974 -0.3366523385 0.1912807375 0.9154402018
0.2102427781 -0.03908920288 0.9504448771 -0.4739130437 0.1929334998 0.81606704
0.2080187201 -0.03988858312 0.9449566007 -0.4219607711 0.1824641228 0.8590845466
0.2119209468 -0.03423531726 0.9560291767 -0.5192208886 0.2248187512 0.779607594
0.2148469836 -0.03918526322 0.9599372149 -0.5858149529 0.2113192976 0.7308947444
0.1972443461 -0.01858790033 0.9326783419 -0.4805878401 0.3062576056 0.8027774692
0.1998437792 -0.02172524482 0.9367306828 -0.4282073379 0.2776266336 0.843193531
0.2008785605 -0.02744397335 0.936617136 -0.387578994 0.2388294637 0.8748049736
0.1928822994 -0.01392546482 0.9273997545 -0.5510514975 0.3654721379 0.7401170731
0.1871408522 -0.01302261557 0.9248641133 -0.5514758229 0.4519811869 0.6970971823
0.1755545139 -0.05567359924 0.9397827387 0.05033003539 0.347055614 0.9275586009
0.169614464 -0.05864903331 0.9413589835 0.1949239969 0.4157227576 0.8856903315
0.1819020659 -0.06268195063 0.9422791004 -0.1005728468 0.4361415803 0.876916945
0.1947238743 -0.05877629668 0.9542852044 -0.4404152632 0.477288276 0.6840121746
0.182010591 -0.05477457121 0.9449773431 -0.1221767366 0.35899508 0.863093257
0.168108061 -0.06352559477 0.9434979558 0.2503032088 0.4530876875 0.8517628312
0.1756702363 -0.0636247322 0.9580469728 0.03058390133 0.5243121982 0.6345286369
0.1808511764 -0.05861351267 0.9487873316 -0.08921764046 0.4282364249 0.7907142639
0.1592485309 -0.06651520729 0.9603924155 0.433814168 0.5419803262 0.6107626557
0.1645783931 -0.06464664638 0.9576974511 0.3046239614 0.515704751 0.6522238255
0.1957246661 -0.06194115803 0.9590198994 -0.4651863575 0.5434972048 0.596583426
0.1891082525 -0.05920238048 0.9518524408 -0.2956618965 0.4644398391 0.7285890579
0.1832748204 -0.06166338548 0.9556664228 -0.155017823 0.5023801327 0.6681249142
0.1708309352 -0.06005244702 0.9495434761 0.1574138701 0.4318469465 0.7879929543
0.1761952192 -0.06111228839 0.9529423714 0.02207034454 0.4703193605 0.7230668068
0.1691540033 -0.06272557378 0.9547251463 0.1942892224 0.4861502349 0.6993138194
0.160940811 -0.06086858734 0.9512411356 0.3833997846 0.4500684738 0.7480541468
0.1655673981 -0.05804266036 0.9464985132 0.272603333 0.4019343555 0.8250628114
0.1571550965 -0.06348169595 0.9555035233 0.4755594432 0.493006587 0.6806585193
0.1918390542 -0.06773258746 0.9500861764 -0.3736907244 0.5644907355 0.7072609663
0.1944194436 -0.0709072575 0.9609130025 -0.358571142 0.6213454008 0.6426687837
0.1967613995 -0.06407207996 0.9510541558 -0.5047823787 0.5586336851 0.6502261758
0.2003548145 -0.06655842066 0.9620177746 -0.5106210709 0.6034480333 0.5866107345
0.1958436668 -0.0675502643 0.956525743 -0.4340188205 0.5919017792 0.6426286697
0.1895800829 -0.07312037796 0.9573322535 -0.257042557 0.6214507818 0.696100831
0.1840112954 -0.0766357407 0.9552286863 -0.1033000201 0.6156539917 0.7363392711
0.1969903111 -0.07151760906 0.9664465189 -0.3706074953 0.6312661171 0.5949590206
0.1906954944 -0.07491762191 0.9629208446 -0.2047532648 0.6170967221 0.6424572468
0.1849178672 -0.07915981859 0.9620250463 -0.008274097927 0.5960288048 0.6603019834
0.1754922569 -0.08395630866 0.9574235678 0.2567727268 0.5731175542 0.728621006
0.1726440191 -0.08840848505 0.9606513381 0.4192353189 0.5494668484 0.6925156116
0.1818831116 -0.07293202728 0.947345078 -0.08341670781 0.5471855402 0.8158513904
0.1778356731 -0.07685563713 0.9517307281 0.1023278907 0.5891076326 0.7837601304
0.1600334793 -0.01901306957 0.9117427468 -0.2045857161 0.4603429437 0.8510133028
0.1624213904 -0.02412485518 0.916280508 -0.2683674693 0.5421922803 0.7905547023
0.1536393464 -0.02142562717 0.9126046896 -0.0759356916 0.4991921782 0.8505333066
0.1473064721 -0.01571228728 0.90965271 0.1190684289 0.3251799941 0.9285365343
0.1529511511 -0.01647945307 0.9096541405 -0.04503995925 0.3613386452 0.9260875583
0.1550536007 -0.02790470421 0.9176307917 -0.1021754593 0.5892338753 0.7912781835
0.1500014514 -0.02633332834 0.9152799845 0.007966216654 0.5294373631 0.832185626
0.1419949085 -0.0255693011 0.9160689116 0.179617539 0.4848347604 0.8332159519
0.1886747926 -0.007677318994 0.9216266274 -0.5980888605 0.3367990851 0.7220891714
0.194130972 -0.00571064325 0.9251813889 -0.6509853005 0.2711114287 0.7031767368
0.1842480451 -0.00610848004 0.9184720516 -0.581661284 0.2905235887 0.7537906766
0.1913265735 0.00178604247 0.9221428037 -0.6498503685 0.07498092949 0.7421585917
0.1451825649 -0.002627063775 0.9136232734 0.2151228338 0.009239866398 0.9216796756
0.153379485 -0.01551290881 0.9200126529 -0.02767968923 0.2679129839 0.8579986691
0.1629562974 -0.02058451436 0.9279989004 -0.2740841806 0.3865574002 0.7832704782
0.1497094184 0.008548567072 0.918106854 0.1493232995 -0.1842548698 0.8859120011
0.1489004344 0.002957697492 0.9171179533 0.1476656646 -0.08359556645 0.8924217224
0.1558126062 -0.0009841494029 0.9228674173 -0.03122985363 0.007210919634 0.8384950161
0.1498574167 -0.005343182478 0.917509079 0.09394475818 0.07157662511 0.8852095604
0.1495676041 0.01564051025 0.9183549285 0.1791689843 -0.3150362968 0.8867889047
0.1581272036 -0.0182656385 0.9239593744 -0.1507252604 0.3311161399 0.8209599257
0.1541362554 -0.008255105466 0.9210435748 -0.01855831407 0.136463955 0.8518428206
0.1468827724 -0.01161270868 0.9169840217 0.1490000188 0.1718939245 0.8722760677
0.1354887187 -0.007021192927 0.9126229286 0.4405020475 0.04102680832 0.8922522068
0.140292719 -0.00840521697 0.9156914949 0.3302405775 0.0823898986 0.8598166108
0.1421196014 -0.01505801547 0.9207301736 0.2410702258 0.1860343516 0.8160507679
0.1651951522 -0.0254935585 0.9309011102 -0.3455025554 0.4776427746 0.7504308224
0.1483720392 -0.015712386 0.9219070673 0.09807322919 0.2350009233 0.8126567006
0.1538517624 -0.02109561302 0.9264330864 -0.0625249967 0.3444143832 0.7778428793
0.132565096 -0.01147394907 0.9149807692 0.4709872603 0.08793145418 0.8703149557
0.2014759779 -0.007897779346 0.9387816787 -0.5408284664 0.1683563739 0.7705103755
0.1952626854 -0.01022753865 0.9351645708 -0.5375331044 0.2480653673 0.7709959149
0.1970419735 0.02517724037 0.9395685792 -0.4958488345 -0.3612037599 0.774729073
0.197173059 0.01615629159 0.94047755 -0.4693695307 -0.2239723951 0.7997505069
0.2001217306 0.006475204136 0.9427687526 -0.4153887331 -0.08358702809 0.8376735449
0.2034515142 -0.01356702391 0.9456026554 -0.3478733599 0.217272073 0.8931542635
0.1990757287 0.005280584097 0.9341474175 -0.6782851815 -0.01653720625 0.6732451916
0.201412186 -0.002395626856 0.9420556426 -0.445769906 0.0605853945 0.8241779208
0.1983060092 0.0128403753 0.9359348416 -0.6174674034 -0.1459648609 0.7063839436
0.2002354264 -0.001060827286 0.9358624816 -0.6320178509 0.07408055663 0.7064686418
0.1690388769 -0.07322827727 0.9494736195 0.3148489892 0.544713676 0.7739197612
0.1732984632 -0.07027424127 0.9462888241 0.1793482304 0.506272018 0.8407112956
0.1747706383 -0.06567557156 0.9437048435 0.1537879705 0.4514854252 0.8781679273
0.1629394442 -0.06856562942 0.9483641386 0.3963737488 0.5134158134 0.7564760447
0.1581438035 -0.0717670545 0.9552533031 0.5240271091 0.5549799204 0.643758595
0.1786109656 -0.01031363197 0.9164524674 -0.4929484129 0.3818641603 0.7703512907
0.1827216297 -0.01198401395 0.9207817316 -0.5380231738 0.4490624964 0.7115343809
0.1786269844 -0.01613299735 0.9200493693 -0.5055596828 0.5132822394 0.690202415
0.1739592999 -0.00812755432 0.9131028652 -0.4138130546 0.2654046118 0.8533177972
0.1716790795 -0.001042643213 0.911000669 -0.3588880599 0.04932096601 0.9241374135
0.173507303 -0.01445815433 0.9147356749 -0.4188016355 0.474259764 0.7732160687
0.1685114056 -0.02208364569 0.9189535379 -0.401366055 0.5351015925 0.7376607656
0.1737087369 -0.002460307442 0.9172219038 -0.4204784036 0.08044856787 0.8333497643
0.1626549959 0.008291277103 0.9185394049 -0.1741948575 -0.1606744826 0.8401244283
0.1687875539 -0.001863496262 0.9198336601 -0.3254393935 0.07701975107 0.8028787971
0.1660849452 0.01189377997 0.9147766829 -0.2264244258 -0.2579542994 0.893479228
0.1670091152 0.00424642954 0.9179284573 -0.2705437243 -0.07041377574 0.8389763832
0.1594277918 0.01635828055 0.9165420532 -0.08510953933 -0.3533008397 0.8814890981
0.1737232953 -0.009849105962 0.9224719405 -0.4378154278 0.2581951916 0.7465544939
0.1746525019 0.004662489519 0.9183970094 -0.3885940015 -0.1123436391 0.8124575615
0.1666831076 -0.01836424507 0.9133213162 -0.3338930011 0.4687902331 0.814561367
0.171076864 -0.02396428399 0.9292110801 -0.4545345306 0.5437321067 0.7020257115
0.1546212286 0.00764836045 0.9214740992 0.03294858709 -0.1439643949 0.8449268937
0.1671595871 -0.01680627093 0.9275660515 -0.3408252895 0.3839505315 0.7367428541
0.1622099578 -0.009899286553 0.9266324043 -0.2107414752 0.2048946023 0.7846787572
0.1678325683 -0.01146191824 0.9246300459 -0.3291257322 0.3204758465 0.727055192
0.1586182415 0.003710490651 0.9214632511 -0.06563637406 -0.02464937791 0.8063928485
0.1651442945 -0.005460067187 0.9232190847 -0.2546957433 0.1785638183 0.7575675249
0.1636218429 -0.02689708211 0.9221081138 -0.3616577089 0.5609456897 0.7383801937
0.1519798338 -0.0292091649 0.9285245538 -0.03437460214 0.4767281115 0.7845540643
0.1474398673 -0.02706978656 0.9263923764 0.04799932614 0.4851608574 0.766567409
0.1423612535 -0.02092069201 0.923613131 0.1958933026 0.3098397851 0.7869014144
0.1391584873 -0.0261405874 0.9237726331 0.235771656 0.4576533735 0.774309516
0.1335612386 -0.02437992021 0.9218015671 0.3725439012 0.3994493186 0.7855631113
0.1574500352 -0.02612304315 0.929020822 -0.1756220907 0.4800067544 0.7551708221
0.1670850515 -0.05110646039 0.9436597824 0.1690343767 0.3375522494 0.8758929372
0.1579831839 -0.0551806204 0.9476799965 0.3716191947 0.4284603894 0.7785628438
0.1941816956 -0.0343443267 0.9443443418 -0.4229264855 0.3314561546 0.8124825954
0.1993751824 -0.04304922745 0.9469134808 -0.4890423119 0.3191644251 0.7689121366
0.1903536916 -0.02949152142 0.9420440793 -0.3597376943 0.3113333881 0.8559017181
0.1883206069 -0.03542723507 0.9398353696 -0.2801692188 0.1818456203 0.9101685286
0.1932716072 -0.04135015979 0.9446893334 -0.412807703 0.2728886902 0.8072526455
0.2005018443 -0.0192402862 0.9442533851 -0.333922863 0.2743751407 0.9016635418
0.1669906974 -0.03627003357 0.9361543059 -0.2549199164 0.4588106275 0.8365184665
0.1618119478 -0.03786810488 0.9270010591 -0.06345268339 0.5257956982 0.8240052462
0.1628881544 -0.04656820372 0.933806777 0.108562246 0.4736339152 0.8454325199
0.160503462 -0.05033783987 0.938082099 0.2421943098 0.4521627724 0.8277743459
0.1511405855 -0.04832565412 0.9386509657 0.4101457 0.4369246364 0.7916440964
0.1425829381 -0.03291990608 0.9254848361 0.2758873999 0.4951491654 0.7796623707
0.1520014405 -0.03436691687 0.9252926111 0.08166719973 0.5487238169 0.7738534212
0.1563024074 -0.04670802876 0.9362633228 0.2505445182 0.4845749736 0.7855077386
0.1563333273 -0.04181784391 0.9316283464 0.1419665962 0.5218866467 0.7794929743
0.1501581967 -0.03983017057 0.9307707548 0.2463941872 0.4946432114 0.7820289731
0.1494443268 -0.02913011238 0.9207587242 0.02758167312 0.5709273815 0.769497335
0.1600566804 -0.05005911365 0.9439148307 0.2038978636 0.4499718845 0.8346936703
0.137407124 -0.03231345117 0.9283427596 0.384126991 0.4359721839 0.7929877639
0.1443926394 -0.03808186948 0.9347566366 0.3404078484 0.4215532541 0.8073197603
0.1227560267 -0.02528798394 0.9315243959 0.5945466161 0.2108726501 0.7264076471
0.1341147125 -0.02927901782 0.9242847562 0.3973450065 0.4586567283 0.7885053158
0.1511238664 -0.04225350544 0.9363898039 0.2658238709 0.4774626195 0.8311138749
0.1516440362 -0.05430668965 0.9480409622 0.4824257791 0.4318527579 0.7387862802
0.1392566711 -0.03738834709 0.9393554926 0.4510889947 0.3000945151 0.7704069614
0.1307369322 -0.03619791195 0.9406375885 0.6217161417 0.2253400832 0.70722121
0.1463977695 -0.04663924128 0.9440136552 0.4599141181 0.3752879202 0.7562618256
0.1469736695 -0.03446695209 0.9302988052 0.1893996298 0.4683668613 0.8104660511
0.1547364146 -0.03434597328 0.9319905043 -0.01253209636 0.4657329321 0.8155298233
0.160648331 -0.03357274458 0.9328318834 -0.1823139042 0.4627584815 0.8178194165
0.1626925319 -0.04039467126 0.9377757311 -0.07453014702 0.4718112051 0.8349200487
0.1629290581 -0.04573620111 0.9406020641 0.05388465524 0.45075804 0.8861166835
0.1926977336 -0.01889425516 0.9401606917 -0.3889322579 0.3206280768 0.8594491482
0.1901989579 -0.007607472595 0.9324471951 -0.5714559555 0.2483636439 0.7147772908
0.188626796 0.01565506123 0.931493938 -0.5964562297 -0.2048780322 0.6817047
0.1824495345 0.0157391876 0.9327980876 -0.4480766654 -0.2123055607 0.7509158254
0.1930509657 -0.001611814369 0.9315114021 -0.656258285 0.1346006542 0.669662118
0.1798580587 0.02100878954 0.9330557585 -0.3999644816 -0.3170737922 0.7685353756
0.1898303032 0.005722849164 0.9317882061 -0.5985864997 -0.01086197142 0.689846158
0.1951979399 0.008138902485 0.9305173159 -0.7342406511 -0.05274824053 0.6242775321
0.1863051206 -0.002718803938 0.9330018759 -0.4909836352 0.1497717649 0.7478584051
0.1856553108 -0.01292484719 0.9328261614 -0.4516440034 0.3390994668 0.7804681659
0.1840702295 -0.002387055662 0.9263537526 -0.4693126976 0.07432089746 0.7969334126
0.1813137978 0.01314728148 0.9242085814 -0.4531667531 -0.2475642115 0.8005204797
0.1824256629 0.006923488341 0.9249358177 -0.4603897333 -0.1198250502 0.7994530797
0.1814480126 0.01021557394 0.9314143062 -0.417417258 -0.1238852665 0.7808229923
0.1828025579 0.002943713684 0.931286931 -0.4314305186 0.01632334664 0.7823085189
0.1918712556 -0.01508463733 0.9353265166 -0.4643905461 0.3500759006 0.8051955104
0.1764599979 -0.015331503 0.9264419079 -0.475622952 0.3986586034 0.7128736973
0.1795834005 -0.007646255661 0.9252789617 -0.4757580757 0.2062894702 0.7533791065
0.1852618158 -0.02705637924 0.9391584396 -0.2731527388 0.3007788956 0.9073966146
0.1789345443 -0.04290090501 0.9396798611 -0.08063519746 0.2426286638 0.9582502842
0.180749774 -0.02317468449 0.9360197783 -0.4007386267 0.4293088913 0.8035554886
0.1864847839 -0.02087426744 0.9371982813 -0.3763875961 0.374176234 0.8403962851
0.1778026223 -0.02036788873 0.9294942617 -0.4680777192 0.5176075697 0.7115630507
0.1752988994 -0.02465979755 0.9335973263 -0.4297190607 0.4916596711 0.755110085
0.1737876683 -0.04613818973 0.9400262237 -0.01881775074 0.2887558043 0.9492239952
0.1806435287 -0.03364376351 0.9386940002 -0.1957282871 0.2931970358 0.9216913581
0.1713971049 -0.03930096328 0.9395872355 -0.08142294735 0.3821077943 0.9035761952
0.1729786694 -0.0306757763 0.9366977215 -0.2958586216 0.4573216438 0.8129976988
