# .PCD v0.7 - Point Cloud Data file format
VERSION 0.7
FIELDS x y z normal_x normal_y normal_z
SIZE 4 4 4 4 4 4
TYPE F F F F F F
COUNT 1 1 1 1 1 1
WIDTH 512
HEIGHT 1
VIEWPOINT 0 0 0 1 0 0 0
POINTS 512
DATA ascii
0.03876463324 0.1041396633 0.8502880335 0.4470258057 -0.2872965038 0.8444879651
0.05627541617 0.09639339149 0.843721807 0.001323502744 -0.2763972282 0.910602808
0.090999268 -0.0108874198 0.9138246775 -0.5509889126 0.6746271253 0.4860554039
0.09523501992 -0.005477983505 0.9122925997 -0.641485095 0.5548655391 0.5100970268
-0.05431807786 0.004876290914 0.9654447436 -0.2169189602 -0.278945744 0.9354867339
-0.05796040222 0.01657135971 0.9681088924 -0.2169189602 -0.278945744 0.9354867339
-0.04220417514 0.009607618675 0.967670083 -0.2076080292 -0.2672130764 0.9409115911
-0.05062387511 0.01449550223 0.9679874182 -0.2134007961 -0.2745125294 0.9375365376
-0.0474437736 0.005154967774 0.9660604596 -0.2123267055 -0.2731590569 0.9381623268
-0.05020927265 -0.001832844573 0.9639374018 -0.2280857861 -0.2472132146 0.9370594025
-0.04023322836 0.003610371845 0.9660106301 -0.2464507669 -0.1747114956 0.9429730773
0.093288064 -0.0115382392 0.9196345806 -0.5550735593 0.6853746772 0.4712792933
0.08893766254 -0.005995989311 0.9019245505 -0.5646151304 0.5784085989 0.5531533957
0.09412448853 0.006283577066 0.8905287981 -0.5133215189 0.3293823302 0.7753869891
0.0943621695 -0.003093824023 0.9067252874 -0.6131673455 0.5101402402 0.5655053854
0.09618451446 0.003037838498 0.8996648192 -0.5764612556 0.3875128031 0.6838196516
0.09045062214 -0.0006432235823 0.8956218958 -0.5314460993 0.4715330005 0.6571835876
0.003801936982 0.06830535829 0.8665024638 0.7398919463 -0.1948368698 0.6395722032
0.03846955299 -0.002518525347 0.9502069354 0.5736051798 -0.6180955172 0.3512515128
0.04120748863 0.008843592368 0.9465740919 0.7607464194 -0.5315819979 0.232152015
-0.04660526291 0.02269412577 0.965149343 -0.2154259086 -0.3007047772 0.9289335608
0.050379619 0.04085819423 0.8397971988 0.08021572977 0.3790438771 0.908082962
0.06704096496 0.0895287171 0.8427293301 -0.3089081347 -0.3601949513 0.8784285784
0.09988229722 0.01967368089 0.9042348862 -0.6523543 0.51011163 0.5476260185
0.102189593 0.009351872839 0.9141677022 -0.7054051757 0.4705113769 0.5247771144
0.09874033183 0.02312511951 0.8980779052 -0.645016253 0.5002559423 0.5662357211
0.1034644023 0.003600186203 0.9209346771 -0.7266278267 0.4637733996 0.5067560077
0.09528742731 -0.002867656993 0.9199286699 -0.6728497148 0.5332320929 0.5087839365
0.09908481687 0.01590938121 0.8979666829 -0.6963544488 0.4196873307 0.5797014236
0.1004944146 0.007725758012 0.9075238109 -0.7084888816 0.4376528859 0.5498791337
0.09872093052 0.00860719569 0.9013931155 -0.6739031076 0.4144279361 0.5955896974
0.1009688452 0.0008106852183 0.9137758613 -0.7013100386 0.458833307 0.5366867781
0.09870124608 0.00177790306 0.9067385793 -0.634098947 0.4161082804 0.6186571121
0.006743875332 -0.0187510848 0.9802356958 0.2207975388 0.5982186794 0.7696331739
0.02967906184 -0.02766491659 0.970228672 0.569611907 -0.076464504 0.3550727069
0.03735800833 -0.010248431 0.9302473664 0.5014305115 -0.1167178378 0.5747932196
0.03835461661 -0.003038462484 0.9335917234 0.407872051 -0.3382532299 0.5975663662
0.03575491905 -0.01949673146 0.9414440989 0.6531048417 -0.1717818826 0.4000071585
0.03733210638 -0.00816894602 0.9461553693 0.505001843 -0.5079445839 0.440892458
0.03602961451 -0.01573349535 0.9548969865 0.6282103062 -0.543856442 0.3018448353
0.0389309898 0.002217118163 0.9431872964 0.3543098867 -0.6565263867 0.5468832254
0.03925228119 0.003309413791 0.9355718493 0.323528409 -0.5121754408 0.6266817451
0.03681167215 -0.01291806716 0.9374656677 0.5533639193 -0.2199293375 0.4868686497
0.03498245403 -0.02228277922 0.9586251378 0.7270303369 -0.4908302128 0.217557162
0.03539230302 -0.02081843652 0.9494116306 0.6878006458 -0.3191262186 0.3151745796
0.03815374523 -0.003448580159 0.9402776957 0.4272537529 -0.4762727022 0.5316346288
0.03821744397 -0.004930934403 0.9267804027 0.4202968776 -0.1501330584 0.6473640203
0.03624467552 -0.01779860258 0.9300693274 0.6062006354 0.04245562106 0.519698143
0.06159696355 0.04808571562 0.8380638957 -0.1623467356 0.2354256958 0.9481568933
0.07002718747 0.04532442614 0.8412679434 -0.3089366555 0.3162228167 0.8922499418
0.04997480288 0.07590930909 0.8390000463 0.08015935868 -0.2260549217 0.9638078213
0.05338361859 0.09192279726 0.8395574689 0.04044750333 -0.2289895564 0.9665563703
0.04061246663 0.0765138194 0.8419154286 0.2233871073 -0.287688911 0.9232811332
0.04911690205 0.08357158303 0.839820385 0.1089981943 -0.2354388535 0.9576002955
0.0436417684 0.09050305933 0.8454132676 0.3129636049 -0.2825030684 0.9054068923
0.04817180336 0.09960082918 0.8428992629 0.2071518004 -0.247587502 0.919952929
0.03540780768 0.08668243885 0.8454743028 0.3657200634 -0.3130311072 0.8732226491
0.02974347025 0.07678419352 0.8457037807 0.3820974827 -0.3252423704 0.8616757393
0.03718389571 0.09809053689 0.8466613293 0.4162609875 -0.2925233841 0.8595903516
0.03211360425 0.09456910938 0.8496313691 0.4531382024 -0.3471124768 0.8163317442
0.02893395349 0.08749850839 0.8488235474 0.4430150986 -0.3507222831 0.8221248984
0.02523227036 0.08099846542 0.8493027091 0.4474232495 -0.3716323972 0.8112460971
0.0193826966 0.08000782132 0.8517477512 0.5804615617 -0.3716643155 0.7128394842
0.04873145744 0.01450880058 0.8830327392 0.3240044415 0.3005624413 0.8686454892
0.04846439511 0.02175825462 0.9448178411 0.3854759932 -0.6573060155 0.450415343
0.04461367801 0.01684484445 0.9413002729 0.2539567351 -0.6970793605 0.5785380602
0.09584875405 0.01501287147 0.909809649 -0.6504199505 0.532808423 0.5295808315
0.09304013103 0.01956446655 0.902282536 -0.6160177588 0.5599650741 0.5415732861
0.09378705919 0.02877949364 0.8959621787 -0.5711601973 0.5986761451 0.5546005368
0.09552771598 0.03516153246 0.8932808638 -0.5448078513 0.6223922968 0.5614829659
0.08723083138 -0.002691168105 0.9108746052 -0.5366495252 0.6045707464 0.5544858575
0.08555921912 0.006636338308 0.8897548914 -0.4511905313 0.4069892764 0.7731819153
0.08831896633 0.01596995816 0.8994472623 -0.547000289 0.638422966 0.5367683172
0.08828699589 0.02107206546 0.8940315843 -0.536352098 0.6157793403 0.56576401
0.08659280092 0.006391755305 0.8971920013 -0.4939205348 0.5079965591 0.6657910943
0.08649719507 0.01327726152 0.8895184398 -0.4774040282 0.4723583758 0.710310638
0.08676764369 0.002400809899 0.9024702907 -0.5083791614 0.540215373 0.6277210712
0.09548018873 0.003138914937 0.9190217257 -0.6953141093 0.5008921623 0.5090620518
0.09174326062 0.00487326365 0.9132197499 -0.6245266199 0.5787099004 0.5098923445
0.08922247589 0.01190016698 0.9042576551 -0.569601357 0.6273303628 0.5236697793
0.08859327435 0.006708161905 0.9080076218 -0.5644005537 0.6440585256 0.5114338994
0.08672785014 0.01882543787 0.8854358196 -0.4742384851 0.4306789935 0.7362680435
0.03853865713 0.0202615615 0.9424816966 0.5294902921 -0.5949099064 0.3685876429
0.03816599771 0.02652758919 0.9457913041 0.7439671159 -0.5134984255 0.1577310711
0.03987297416 0.01319786534 0.939289391 0.3374302387 -0.6587666273 0.5506775379
-0.007882369682 -0.01178854425 0.9792175889 0.05775655061 0.436552614 0.8526127338
-0.02403959818 0.005807220936 0.9659235477 -0.3321795166 -0.02938187495 0.9399558902
-0.01048111916 -0.005460493267 0.9756739736 -0.0774910301 0.2913932204 0.8738557696
0.001626660931 -0.01245654467 0.9769930243 0.09218245 0.466032654 0.8049446344
-0.05432576686 0.006337644532 0.9578461647 -0.2172118574 -0.2651145458 0.9388964176
-0.04829611629 0.004995541647 0.9591799974 -0.2173638046 -0.257938683 0.9406654239
-0.03473298624 0.0150114866 0.9684063792 -0.2131068408 -0.2467238605 0.9439646602
-0.04042701796 0.01878378913 0.9666019082 -0.2079548985 -0.2801935673 0.936770916
-0.03977469355 0.008046589792 0.9596492052 -0.2176495492 -0.2061472982 0.9535456896
-0.05380829796 0.02424990758 0.9649907947 -0.2169077247 -0.2800521255 0.9351414442
0.03736608475 0.03867635876 0.8436436653 0.306907475 0.3839547336 0.8661460876
0.05660454184 0.07983281463 0.8388615251 -0.07400487363 -0.2400546521 0.9661560655
0.05434457958 0.06935973465 0.8383000493 -0.03021886386 -0.2117393911 0.9754284024
0.0634258911 0.05705643073 0.8370735049 -0.1681345701 -0.02797467634 0.9780296683
0.06354181468 0.07149517536 0.8429048061 -0.2046514899 -0.2371202558 0.9452681541
0.05590194836 0.05462937057 0.8362627625 -0.03703330457 0.0141917346 0.9960287809
0.057614021 0.04296191782 0.8410708904 -0.06965121627 0.3203843236 0.9224811792
0.06575552374 0.05180004239 0.8413050175 -0.2524287999 0.1574884057 0.9013377428
0.06480648369 0.06251826137 0.8415408731 -0.2283326089 -0.1281785667 0.9280361533
0.03185502067 0.002875382314 0.9118877053 0.710218668 -0.06163949892 0.5328789353
0.0354565084 0.008581183851 0.9310222268 0.407816112 -0.6149545312 0.5855743885
0.06050047651 -0.0149222929 0.8917200565 0.03833067417 0.6330931187 0.7631838918
0.05543025583 -0.01945903897 0.8962338567 0.1423174292 0.6762779355 0.7163234353
0.07713668048 -0.01484680362 0.9109038711 -0.3131552637 0.6857073307 0.5342395306
0.08700652421 -0.007005566265 0.9170131087 -0.5447244644 0.6734674573 0.4813091755
0.05115713179 -0.01715070382 0.9115338326 0.3439583778 0.5082474351 0.6129921675
0.06269898266 -0.01542656217 0.9126926064 0.05847085267 0.5710874796 0.5648164153
0.08100443333 -0.009277265519 0.9158707857 -0.3957034051 0.6493908167 0.5012080669
0.05228100345 -0.0147645697 0.8918444514 0.3006730378 0.5372926593 0.7801598907
0.03022261336 0.003337113187 0.9177311659 0.7533142567 -0.4210507572 0.4455962479
0.02898439765 0.006441936363 0.9324877858 0.3435772061 -0.6510072947 0.611600697
0.03501664102 -0.02324100211 0.9342488647 0.6589707136 0.1331775188 0.4675842524
0.02963895351 -0.02454880252 0.9560261369 0.2765725553 0.6752520204 0.6492979527
0.001438024105 0.003347561928 0.9511700869 -0.05630084127 -0.310395956 0.8025434017
0.01357191056 0.001249446068 0.9362972379 0.2334848791 -0.5296241045 0.6698309779
0.01687100343 -0.003139200388 0.9238889217 0.4771513641 -0.6175317764 0.565238297
0.01169608999 0.003298907774 0.9423756599 0.1141925827 -0.4829458594 0.7213008404
0.00361680286 7.576652024e-06 0.9420078993 0.1236918867 -0.3717253208 0.7255441546
0.02201607451 0.00504844822 0.9374681115 0.2080530673 -0.643206358 0.6718380451
0.01306284498 -0.002148234751 0.9292850494 0.3718463778 -0.5462636352 0.6128551364
0.02081949636 0.001430906239 0.9305565357 0.3446226716 -0.6499351859 0.6163037419
-0.006377413403 0.001499170554 0.9537399411 -0.104779087 -0.1929088533 0.8306099772
0.02956602536 -0.01059802994 0.9646080136 0.467284143 0.2069984823 0.5403317213
0.02654311992 -0.01474689506 0.9685882926 0.3633069098 0.4048862755 0.6466073394
0.02804458141 -0.02122891136 0.9697870016 0.4848589003 0.1219648942 0.4892854989
0.03460926935 -0.01102912705 0.9607009292 0.7009236217 -0.2820605934 0.273052901
0.03365273401 -0.01884399913 0.9643774629 0.7212298512 -0.359969914 0.2271177173
0.03611713275 0.0002987447369 0.955273807 0.6770257354 -0.1806716323 0.3333333433
0.02129456028 -0.02776404656 0.9786002636 0.2816253006 0.5734345317 0.6903723478
0.003108741017 -0.01961921528 0.9713445306 0.05979251489 0.4398986995 0.8118879199
0.01626017876 -0.02002319321 0.9750572443 0.2408593893 0.6348164678 0.7340687513
-0.01632258855 -0.01275829505 0.9673694372 -0.1939765066 0.1733447313 0.9368413687
-0.0058146175 -0.01681368984 0.9692385197 -0.0577211231 0.3196491301 0.8579539657
-0.005316496827 -0.0186364986 0.9787532091 0.09124156088 0.4835378826 0.8578951359
0.01448838785 -0.02735521272 0.9802018404 0.2442035675 0.6518717408 0.7177692056
-0.03676929325 0.001089678262 0.9612436295 -0.2686288655 -0.09904819727 0.9512179494
-0.03036104329 0.00528690964 0.9630172849 -0.2960567772 -0.05346047133 0.9469316602
-0.02682581544 -0.01004778314 0.9655435681 -0.3165994585 0.06178305671 0.9461660385
0.01785365306 0.007063906174 0.9443691373 0.4956990182 -0.3861570358 0.3594300449
0.007490735501 0.005385070574 0.9499922395 0.1746452302 -0.3115235269 0.6027520299
-0.01906487904 -0.004616345745 0.964784205 -0.3062123954 0.05117347091 0.9481947422
-0.00510166632 -0.002751143416 0.9462963343 0.04432984814 -0.2293736339 0.771884203
-0.001642460469 -0.005176816136 0.9411325455 0.1480151713 -0.2882291079 0.7300215364
0.00533807883 -0.004913832527 0.9317547083 0.3271642625 -0.4260130227 0.6423007846
-0.009959876537 -0.004385429434 0.9525296688 -0.071887061 -0.128130421 0.8338474631
-0.0152316438 -0.0002210453968 0.9604937434 -0.2326295227 -0.04016003385 0.8973512053
0.06893674284 -0.01557762641 0.9131147861 -0.09812566638 0.6089330912 0.5386940837
0.05977069587 -0.01939983666 0.9068682194 0.1140439212 0.6129460931 0.634116292
0.09407762438 0.01184016652 0.8867387176 -0.5310636163 0.323698014 0.7697293162
0.07031331956 0.07561840862 0.8421034217 -0.3087740541 -0.280670166 0.8965945244
0.06569879502 0.08042818308 0.8408126831 -0.2275858819 -0.2678312361 0.9228959084
0.06082156673 0.08556453139 0.8394733667 -0.1421222389 -0.2547215223 0.9504082203
0.07428189367 0.06285917759 0.839212954 -0.3201926649 -0.2181899548 0.9213353992
0.08102976531 0.06014261395 0.8437085152 -0.4271544516 -0.1003575549 0.8855119348
0.06911227852 0.03099436499 0.8474602103 -0.3125319779 0.5523415208 0.7634441257
0.01609929278 0.04020115361 0.8567720652 0.5998077393 0.2301907688 0.7618197203
0.009245290421 0.04504976422 0.8585830331 0.6838358045 0.1498799622 0.7100383639
0.02676281333 0.0321643725 0.8582874537 0.4678626359 0.3506637514 0.7931087017
0.0253282506 0.02938001603 0.8651634455 0.5545508265 0.2827268839 0.7760931849
0.03720534965 0.01270487159 0.8831965923 0.5501060486 0.3022756577 0.7714229226
0.04007694125 0.01755249314 0.879922986 0.4847140908 0.2630335689 0.8315802217
0.03140540794 0.02327712066 0.8732061386 0.5441076756 0.2643120587 0.7933216095
0.03297702596 0.01722486876 0.8795540929 0.5782114863 0.2740607262 0.7682263851
0.02160078101 0.03347160667 0.8618037701 0.5779618025 0.2583503425 0.7738353014
0.031066183 0.03246454149 0.8645691872 0.3241514862 0.4214231968 0.7442048192
0.03932595626 0.02766849659 0.8628206849 0.202478528 0.5308148265 0.7746376991
0.03610441089 0.02964780852 0.8684288859 0.2414309233 0.4722389281 0.736461699
0.04587865248 0.02067436464 0.8785742521 0.1977305859 0.474968344 0.7639986277
0.04011706635 0.02416099608 0.8741385937 0.2833171487 0.4234333634 0.7687389255
0.003020914737 0.06070381775 0.8694626093 0.7456026077 -0.11019402 0.6485563517
0.04691012949 0.08334521949 0.8477713466 0.1959868222 -0.2622918487 0.9438554645
0.06504256278 0.03100142814 0.8604853153 -0.278378427 0.6429522634 0.6685630083
0.06543991715 0.03909960762 0.8459336162 -0.2546930909 0.4818572998 0.8088334203
0.06530750543 0.02478571236 0.8738748431 -0.3188047409 0.7488130927 0.5707530379
0.06816919148 0.03481376916 0.8544284105 -0.3205867112 0.5727802515 0.7138411403
0.03960921243 0.08533536643 0.850826323 0.3684384823 -0.3225702345 0.870752573
0.0486013703 0.03623332083 0.8454941511 0.09674613923 0.416993767 0.8887141943
0.04421595111 0.02853298374 0.9470945597 0.914572835 -0.4006516635 0.003820772981
0.02786452137 0.0100455936 0.9392847419 0.4044394195 -0.6392463446 0.4800358117
0.03384833038 0.02053211257 0.9468798637 0.8956185579 -0.4334162474 0.00825036969
-0.02771679498 0.007219084073 0.9726077914 -0.2106347382 -0.1093504354 0.9521755576
-0.01904705167 -0.004732359201 0.9764953256 -0.2043673545 0.07149144262 0.9635777473
-0.03162568435 0.002529028803 0.9687267542 -0.2519823611 -0.07447393984 0.9501377344
-0.02812875807 -0.004863121081 0.9693902731 -0.2676701844 0.03317630291 0.9547364712
-0.0239467416 -0.001092370832 0.964707613 -0.3392250538 0.02310417779 0.9404009581
-0.03318033367 -0.006152870599 0.9645087719 -0.3149825633 0.01940268837 0.9479973912
-0.02003674768 -0.009715209715 0.9730345607 -0.2502566278 0.1124507487 0.9589624405
-0.04322155565 0.0001661368296 0.9612004161 -0.2184709907 -0.2056538761 0.9535546303
-0.04948878288 0.01656142995 0.9607040286 -0.21686171 -0.2845848501 0.9337267876
-0.04575299472 0.01106805261 0.9591329098 -0.2175560892 -0.2488587648 0.9429037571
-0.06041822582 0.02462737076 0.9693664908 -0.2169189602 -0.278945744 0.9354867339
-0.05911296606 0.01054377574 0.963621974 -0.2169189602 -0.278945744 0.9354867339
0.02787944674 0.04819306731 0.8452318907 0.473395288 0.2014926076 0.851215601
0.03601406515 0.07456748188 0.8466816545 0.3268209398 -0.2461850941 0.8926964998
0.02362603694 0.04113923386 0.8522422314 0.5083389878 0.2599112988 0.8137772679
0.03382940963 0.0302588176 0.8536332846 0.3461163938 0.457698226 0.8181605339
0.03764687479 0.03235355392 0.8475747705 0.2793794274 0.4536193311 0.8371571302
0.02847517841 0.04107396305 0.8470031619 0.4268615544 0.3111344874 0.8446296453
0.03082021512 0.03524401411 0.8489447236 0.3746908903 0.3988500535 0.8360452652
0.03724693507 -0.01308961678 0.9203519225 0.5209573507 0.1568908691 0.6455065608
0.03462246805 -0.01914106123 0.914026618 0.6314399838 0.4409379363 0.6339459419
0.0626507923 0.0007453724975 0.9205650091 -0.08242753893 0.2219182402 0.5697833896
0.04789384827 0.002771341708 0.9166603684 0.2464915961 0.1649432331 0.615891695
0.03995736688 0.005222983658 0.9191864133 0.3857124746 -0.034635894 0.6445942521
0.03961353749 0.00343399588 0.9128590822 0.444167912 0.1917826235 0.640404284
0.05260103568 0.0003125149233 0.9117497802 0.1917112768 0.4079346657 0.5959874392
0.04061957821 0.007245449349 0.9265393615 0.3124930859 -0.2942053378 0.6485840678
0.05623831972 0.003128938843 0.9239736795 0.01891995221 0.01071554609 0.5941288471
0.04720263556 0.004810964689 0.9230824113 0.2081040889 -0.07893329114 0.6236267686
0.06560719013 -0.002111727372 0.9130221009 -0.08051864803 0.5373613834 0.5535185933
0.07431983948 -0.003298211843 0.9153602719 -0.2749833167 0.5698007941 0.5263234973
0.06427737325 0.002277658554 0.9269580245 -0.1672450155 0.01044847909 0.5697342753
0.08095446974 -0.003889862681 0.9199229479 -0.4421419799 0.4962716401 0.5083654523
0.04323461279 0.0007729888894 0.9286053777 0.2890682817 -0.2909755409 0.6467428207
0.04406640679 -0.01122924685 0.9175556302 0.422865957 0.1807513833 0.6414275765
0.07419589162 -0.002732116031 0.9217727184 -0.3151851892 0.3429086506 0.5332210064
0.04803085327 -0.005389520898 0.9224190712 0.2662639618 0.02179599926 0.6280879974
0.05284149572 0.005279928911 0.9315903187 0.0310900677 -0.3079107702 0.6125828028
0.05160110444 8.268240344e-05 0.9269934297 0.1225480959 -0.1294924617 0.6161153316
0.05899075791 -0.008063914254 0.9186922312 0.07042829692 0.300924778 0.5876299143
0.06731239706 -0.007275368087 0.9184349775 -0.1137847677 0.4052149653 0.5574472547
0.04623804986 0.006156057585 0.9331648946 0.1583460122 -0.4480148852 0.6368192434
0.05637936294 -0.003180937609 0.9234544635 0.06359685212 0.07229760289 0.5980775356
0.05423171818 -0.01166496519 0.9159648418 0.2154658288 0.3615654707 0.6042917371
0.07342500985 -0.009696130641 0.9155085087 -0.2113003731 0.5963721275 0.5347060561
0.02280083857 -0.01901739649 0.9455139041 0.3640055358 0.1286203712 0.5979303122
0.03022747487 -0.01925630867 0.9200209975 0.5640425682 0.1839459985 0.6206719875
0.02430651151 -0.01670820639 0.9215164185 0.5385136008 -0.1466324776 0.5970556736
0.0266156029 -0.02040216886 0.9383874536 0.4094847739 0.2382288128 0.6216116548
0.02907911688 -0.02262308076 0.9452682137 0.3603621721 0.4857907295 0.6380342841
0.03101330809 -0.02054491453 0.9259660244 0.5185113549 0.3179056346 0.6292077899
0.01936453022 -0.01520345733 0.9267854691 0.4851881564 -0.3635924757 0.580879271
0.02380487323 -0.01802459173 0.9315476418 0.4574830234 -0.02940501831 0.6037629843
0.02595672198 -0.02377973683 0.9628256559 0.2312019914 0.5791599154 0.6576356292
0.01789290644 -0.01508375909 0.9405881763 0.4472465515 -0.1254201829 0.6058419943
0.01800690033 -0.01902831905 0.9662992358 0.2822611034 0.4585880935 0.7066364884
0.01638988592 -0.01478804462 0.9472711086 0.4174895287 0.005836998112 0.6258897781
0.02083057538 -0.01969180256 0.9544657469 0.3335622549 0.2283451408 0.6717890501
0.01236252766 -0.01186566893 0.9339832664 0.4442269504 -0.3308734894 0.600137651
0.001048225793 -0.01465890277 0.9664723277 0.05360094458 0.3089676797 0.8095650077
0.01090214867 -0.01066889893 0.9272421598 0.4606958926 -0.4954417944 0.5858049393
0.006691946648 -0.01513480395 0.9633908868 0.1681652218 0.2864621878 0.7547487617
-0.008502978832 -0.01283034775 0.9645031691 -0.09633675963 0.1846725196 0.8751571774
0.009183424525 -0.01340924762 0.9484394789 0.3018797636 -0.0306740813 0.679135859
0.009819611907 -0.01251163799 0.9414129257 0.3556518257 -0.1841818541 0.6476899385
0.01501017716 -0.01603235491 0.9602262974 0.3285966218 0.2844178379 0.6791648865
0.004373577889 -0.01370085403 0.9559609294 0.1742971838 0.09915557504 0.7443713546
0.002931364113 -0.01102070231 0.9387836456 0.2549141943 -0.3011514843 0.6904206276
-0.001577598858 -0.01110427827 0.944501996 0.1434643716 -0.2095643133 0.7465341687
0.009397880174 -0.01635613851 0.9688869119 0.1804363877 0.4332931638 0.7548463941
-0.01297072601 -0.01097870152 0.9565864801 -0.1236799285 -0.03158972412 0.8793756962
-0.003376063891 -0.01262238994 0.9572081566 0.03523764759 0.06261091679 0.8083537817
-0.008031850681 -0.01044160035 0.9496030807 0.00298963394 -0.143239066 0.8152970672
0.05001833662 -0.02278872393 0.9014652967 0.3716100752 0.5840662122 0.7092989683
-0.01110088453 -0.01631286554 0.9762051702 -0.004389906302 0.3776597977 0.9109479189
0.08320581168 2.272515121e-05 0.8929538131 -0.4305659533 0.4741340876 0.7390741706
0.07973903418 -0.005918954499 0.8964528441 -0.4063740075 0.6142781377 0.6578087807
0.07134855539 0.005033613648 0.8825353384 -0.1530147195 0.4077582955 0.8755065799
0.0597163476 0.005793279503 0.8863483667 0.06669501215 0.4085658491 0.8128237724
0.08681817353 0.008923702873 0.8830956817 -0.3962454498 0.2939452231 0.8624647856
0.07960660756 0.009117506444 0.8812183738 -0.2953430414 0.305847466 0.8985084891
0.07935494184 0.05278560147 0.843424201 -0.4499228299 0.1612835974 0.8769097924
0.09330126643 0.03691179678 0.861340344 -0.6813946366 0.5057510734 0.5170888305
0.0937762931 0.03143989667 0.8737391233 -0.5961741805 0.5097777843 0.6014608145
0.09455718845 0.01906636916 0.8875595331 -0.5194781423 0.385198772 0.7469433546
0.06554316729 0.02477367595 0.8526374102 -0.2277754694 0.5419354439 0.7947509885
0.06431753933 0.01400445122 0.8680968881 -0.08877958357 0.4541072547 0.8555862308
0.054215312 0.008338443004 0.8748313189 0.1834378839 0.3763124943 0.9040148854
0.05051632971 0.01464626472 0.8650722504 0.1669973284 0.4321282506 0.8783444166
0.04681164026 0.01393974666 0.8699683547 0.2575430572 0.4054040909 0.8724067211
0.04154251888 0.02766778506 0.8508743048 0.1886751354 0.4997870922 0.8364242315
0.04813301563 0.02103983052 0.8561099768 0.1333769262 0.4764739871 0.8617247343
0.06339129806 0.002655614167 0.8799643517 0.01502653584 0.3952255249 0.9140697122
0.01636149362 0.07193847001 0.8516620994 0.6228165627 -0.2336174548 0.7402496934
0.01264107507 0.06692527235 0.8551021218 0.6883607507 -0.1402495205 0.701305449
0.02174938656 0.06572770327 0.8476028442 0.5432645082 -0.1176761761 0.8244779706
0.03204463422 0.06619337946 0.8463220596 0.3978978395 -0.1089040413 0.8775128722
0.0274236463 0.05644673482 0.8464269638 0.4888028204 0.04971123114 0.8499694467
0.02086154185 0.0507542491 0.8509494066 0.6039853692 0.1362372041 0.7817495465
0.02039069682 0.06037609279 0.8515840173 0.6098595262 -0.004105783533 0.7684342861
0.02632278018 0.06987965852 0.8507114053 0.4965038896 -0.1605545729 0.8094066978
0.01494269818 0.04997323453 0.8569279313 0.6451750398 0.122563161 0.7482868433
0.03577953205 0.07011856884 0.8415818214 0.2888724208 -0.2690647244 0.9152655602
0.03548100963 0.05529066175 0.8398339748 0.3641819954 0.06749152392 0.9286074638
0.08076961339 0.02910656296 0.8843836188 -0.4570216238 0.6569099426 0.5816116333
0.055485107 0.02272952162 0.8764514923 -0.1594480723 0.7151556015 0.6563931704
0.05025618896 0.03190548718 0.8507713675 0.04651260376 0.5278122425 0.8226544261
0.0481036976 0.02547532879 0.8675121069 0.01002569869 0.625459075 0.7127965689
0.04796233773 0.02775120735 0.86140728 0.04056925327 0.5852086544 0.7543478608
0.05442430452 0.02911989577 0.8590381145 -0.06885057688 0.6022431254 0.7599942684
0.04345152155 0.02915852331 0.8567523956 0.145795241 0.5324555039 0.7931098938
0.05722277984 0.02573074587 0.8686439991 -0.1648485512 0.6784844995 0.6904718876
0.05745331198 0.03226784989 0.8502283692 -0.07895135134 0.5815221667 0.7791616917
0.02414083481 0.09634975344 0.8539600968 0.5672256947 -0.3930489719 0.7198310494
0.01819263771 0.08737721294 0.8588780165 0.6311541796 -0.4186682701 0.6521574855
0.02784153819 0.1044658646 0.8546208143 0.532101512 -0.3872606754 0.7521496415
0.02206596918 0.09874756634 0.8641129136 0.5923604965 -0.419108361 0.6839348078
0.01464507915 0.0797213912 0.8567049503 0.6626578569 -0.3627884686 0.6527139544
-0.0003221139195 0.07138848305 0.8707540035 0.7385939956 -0.2657727301 0.6185292602
0.007624091115 0.07604831457 0.8643468022 0.7036867142 -0.3298597336 0.6252867579
0.05302751064 0.03060931526 0.8449025154 -0.01467846986 0.5695598125 0.7938212752
0.06272472441 0.03357156366 0.8432141542 -0.1949536502 0.4923893213 0.8361246586
0.05555314571 0.01302301791 0.8690986037 0.1118654683 0.4377117753 0.8691253066
0.04846049845 0.02520116232 0.8496928811 0.07677798718 0.5297187567 0.8362326622
0.05947870389 0.08109726757 0.8492520452 -0.1496430486 -0.2952912748 0.8930191398
0.02163911797 -0.01811115071 0.9729133844 0.2653128207 0.5955152512 0.7361405492
0.02018434368 -0.01157807559 0.9698469043 0.3645131886 0.4391135275 0.6038711071
0.01372801885 0.009235564619 0.9497371912 0.5396686792 -0.2847266793 0.2676665187
-0.004211204126 0.005930738524 0.9591614008 0.05167864636 -0.1201588511 0.6345925927
0.0268576704 0.01641115919 0.9466216564 0.8678408861 -0.4145476222 -0.004490751307
0.0145887835 0.01460524462 0.9530444145 0.5307320952 -0.2929528654 0.2594771087
-0.01027928758 0.005947690457 0.9630607963 -0.1162386835 -0.06046033651 0.7656781673
0.008048234507 0.0129349269 0.9561299682 0.3588353992 -0.2315787971 0.3937890828
-0.006226192228 -0.0008869551239 0.9706498981 -0.09845730662 0.1860916018 0.8275000453
0.01292333752 -0.00209667068 0.9663059711 0.3289288878 0.2017237693 0.5446946621
0.02064537071 -0.00246630027 0.9644818306 0.5023294687 0.2048504055 0.4289800227
-0.01372881886 0.00442185672 0.9693897963 -0.2226461321 0.05000019073 0.8698350191
0.01470949035 0.01031728648 0.9582262635 0.4808703363 -0.1335537434 0.3409259617
-0.00127104891 0.004935822915 0.9657667875 0.06703054905 0.02519861422 0.667432785
0.01345263887 -0.01109482255 0.9716780782 0.2605345845 0.4431384206 0.6638260484
0.008897097781 -0.00611081766 0.9698343277 0.2008795142 0.3131794035 0.6646008492
0.02400035597 0.01515967399 0.9527924657 0.7368034124 -0.2719159722 0.1268321723
0.002134937793 -0.003705717856 0.9701565504 0.06765565276 0.2544903755 0.7364571691
0.003599405289 0.00919749774 0.9618625641 0.2166131884 -0.09365533292 0.530798614
0.01597258076 0.004319477826 0.9615653753 0.4561118484 0.02656091191 0.4060765803
0.03537143394 0.01366367564 0.9489096999 0.8014544249 -0.3297215402 0.1678494364
0.02756553516 0.004607503768 0.957657516 0.6419762969 -0.01579701714 0.294236213
0.0365848057 0.008106042631 0.951395154 0.7148231864 -0.2090756297 0.2942414284
0.03145963326 -0.002647418063 0.9597927332 0.5332122445 0.1139873266 0.4780174196
0.02991975285 0.01040535141 0.9533262849 0.7391281128 -0.1850738078 0.1918241829
-0.05834758654 0.01712201908 0.9614771605 -0.2169189602 -0.278945744 0.9354867339
0.03552425653 0.06399364769 0.8393645287 0.3032616675 -0.1777971536 0.9344406128
0.03098612465 0.05957082286 0.842346251 0.3971091807 -0.03912718967 0.9053090811
0.08722299337 0.05628993735 0.8474043012 -0.5048849583 0.04216459766 0.8613568544
0.01894884929 -0.004509791266 0.9157035351 0.6537986994 -0.4349036217 0.5179926753
0.03583286703 -0.0144292647 0.9069757462 0.6211490035 0.4516329765 0.6404697895
0.03997328132 -0.02128612064 0.9104734659 0.60015589 0.4593125284 0.6547643542
0.04393141717 -0.02212005854 0.9054805636 0.5934644341 0.4632828236 0.6581222415
0.06321910769 -0.01747470349 0.8969702721 -0.05395336077 0.699449122 0.6501976252
0.07123913616 -0.0153213134 0.9003692865 -0.2402084321 0.698078692 0.5803308487
0.08090539277 -0.01193920523 0.9017738104 -0.4679222405 0.6965552568 0.5145212412
0.06640210003 -0.01777219027 0.904314518 -0.1004747748 0.7016248107 0.6094269156
0.0711517781 -0.01168702543 0.8927582502 -0.2030061185 0.669696331 0.6955685019
0.053684026 -0.002499528928 0.904296279 0.1820384413 0.5286502242 0.6211358905
0.0686616376 -0.004792722873 0.9075354338 -0.1489128321 0.6026200056 0.5758992434
0.07572227716 -0.006576394662 0.9071537256 -0.3071508408 0.6464237571 0.5657906532
0.06915710866 -0.007110031787 0.9015535116 -0.1669531316 0.6335654855 0.6101846099
0.06355891377 -0.006941502448 0.8984721899 -0.04543200135 0.6146728396 0.6380853653
0.04542618245 3.332702909e-05 0.9059563279 0.3685207069 0.4717389941 0.625826776
0.05771486089 -0.005171027966 0.899587214 0.086471349 0.5746768713 0.6417565942
0.06056488305 -0.00306688319 0.9071050882 0.03153445572 0.5564514399 0.5925928354
0.0420540534 -0.01003228035 0.8940534592 0.5593385696 0.4611420035 0.6822755933
0.04566723853 -0.01515500061 0.8965832591 0.5086340904 0.5113970637 0.6861823797
0.04208087921 -0.01700805314 0.9010333419 0.6036890745 0.4631439745 0.6469315886
0.02780897543 0.003857363714 0.9248660207 0.5432735085 -0.5440397859 0.531091094
0.0231145788 -0.0005332328728 0.92036134 0.6135918498 -0.5436999202 0.5056434274
0.07741905749 0.003220810555 0.8830917478 -0.2679995596 0.4320183694 0.8486286998
0.07498177886 -0.002727714134 0.8858715892 -0.1909203827 0.4842675924 0.8469695449
0.07981207967 -0.005391186569 0.8899450302 -0.3935903609 0.6046937108 0.6863712668
0.05588121712 -0.01019399893 0.8876509666 0.1941813082 0.5152225494 0.8309318423
0.06551449001 -0.009789341129 0.8876915574 -0.05398550257 0.579782784 0.8103060126
0.06125484407 -0.00329423137 0.883472085 0.05181975663 0.479950428 0.8672501445
0.05623443052 0.002348453738 0.8809710741 0.1791432351 0.3821672499 0.9002426863
0.06872458011 -0.002179558156 0.8836900592 -0.08187324554 0.4711130857 0.8744499683
0.08053125441 0.02191772126 0.8818100095 -0.3671848178 0.3965177536 0.7840073109
0.07713347673 0.01562385634 0.8798026443 -0.2878171802 0.2910619676 0.8910341263
0.08694535494 0.02546932362 0.8852336407 -0.487860024 0.5051930547 0.6711957455
0.07432862371 0.02606013231 0.883287847 -0.3508675098 0.6139841676 0.6537557244
0.0672473833 0.02508072741 0.8811851144 -0.306863457 0.7007886171 0.619528234
0.07577900589 0.03166066483 0.8516228199 -0.4061118364 0.6193996668 0.6422384977
0.0819259733 0.03567256406 0.8534329534 -0.4990622103 0.5495405793 0.6427176595
0.0615343675 0.01830453612 0.8629798889 -0.06445840001 0.6193546653 0.7153977156
0.05647382513 0.02620916814 0.8518726826 -0.03753171116 0.8350589275 0.5366553664
0.06019434705 0.0101783704 0.8737367392 0.05061525106 0.4263649881 0.8672640324
0.06748826802 0.009993198328 0.8807923198 -0.07329211384 0.3222362697 0.9171633124
0.06082053483 0.01419520099 0.8803272843 0.02934011631 0.2979101241 0.9195267558
0.0701655373 0.01593460329 0.8788261414 -0.2191318423 0.3485750854 0.8804551363
0.01118252054 0.05578801036 0.8567385674 0.7019170523 0.02387956902 0.7022973299
0.05867177621 0.06450799108 0.8407111764 -0.1135957092 -0.1554078609 0.952599287
0.05546529964 0.07511828095 0.8433890939 -0.04047094285 -0.2127141207 0.974362731
0.04986987263 0.05429478362 0.8392025828 0.06179789454 0.05677776411 0.9688881636
0.04500150681 0.06415029615 0.8404237032 0.1731524169 -0.0968156755 0.966465354
0.05371338502 0.04709037021 0.837518394 -0.005322972313 0.2554569244 0.9556491375
0.0426963456 0.05475509539 0.8383136988 0.2039528489 0.05952055007 0.9721369147
0.04382852837 0.04343187064 0.8397452235 0.2114431709 0.3453262746 0.912309289
0.03962605819 0.04995369166 0.8407238722 0.2695827186 0.1782564521 0.9265420437
0.09427405894 0.02765609324 0.8846482635 -0.527191937 0.5296624899 0.656663835
0.09375095367 0.03751161322 0.8691823483 -0.6386559606 0.5175052285 0.5502008796
0.09739220887 0.02481738292 0.8908703923 -0.6475901604 0.4749468267 0.5884832144
0.03765041754 0.09025876969 0.8546440005 0.4374322295 -0.3463817239 0.8228139877
0.0305798091 0.09239739925 0.8575606346 0.5108987093 -0.3991373777 0.7583957911
0.02871416695 0.1003322899 0.8615255356 0.5411882997 -0.3994782269 0.7380908132
0.0349907279 0.09960211068 0.8574993014 0.5033420324 -0.3561831415 0.7802009583
0.02767824382 0.08564277738 0.857840538 0.495221287 -0.3737781644 0.7628265619
0.01635347493 0.0758779645 0.8609694839 0.6362656951 -0.2740336061 0.6808402538
0.02251364663 0.07520812005 0.8551892042 0.5424506068 -0.252012074 0.7576773167
0.0152805727 0.08193144947 0.8667061925 0.6404745579 -0.3936571181 0.6310824752
0.0329355374 0.08005995303 0.8501784205 0.3715034425 -0.3314848542 0.8510007858
0.02349427529 0.08048155904 0.8585554361 0.5165233612 -0.3534360528 0.7369449139
0.02124285884 0.09139435738 0.86402601 0.6022297144 -0.4303669631 0.6679803729
0.01541749667 0.09005056322 0.8696238399 0.6547067165 -0.4333445132 0.6176393628
0.006700221915 0.08011699468 0.8768731356 0.7237499356 -0.3584316075 0.5886748433
0.008652247488 0.07979139686 0.8698451519 0.701097548 -0.3728139699 0.6022843122
0.01221641432 0.06201158836 0.8608729243 0.6887840629 -0.06354728341 0.6910035014
0.01149023324 0.07196752727 0.8667573929 0.693926096 -0.2394157946 0.6307440996
0.01151922159 0.0862198621 0.874927938 0.6926862001 -0.3966500163 0.599382937
0.0198264271 0.09719470888 0.871013999 0.6345156431 -0.4398166239 0.6350155473
0.006628041621 0.07249397039 0.8740586638 0.7276724577 -0.2548282146 0.6125491858
0.008620710112 0.05428986996 0.8640856147 0.7104430795 0.03410452232 0.6974295378
0.008771939203 0.06070292741 0.8661980629 0.7110660672 -0.06983544677 0.6688807607
0.05339077488 0.08305542916 0.8493691683 0.02845081314 -0.2870481908 0.9054731131
0.07616686821 0.06852848828 0.843178153 -0.3764009178 -0.2874991 0.8785958886
0.07637750357 0.07787442952 0.8456210494 -0.4145508409 -0.3489736319 0.8385643959
0.07335615158 0.08496133983 0.8450006247 -0.3768623769 -0.3791885674 0.84299016
0.03714404628 -0.007661277894 0.8980295658 0.6423550844 0.438886255 0.6277093887
0.03236097842 -0.007010627072 0.9042955637 0.6221729517 0.3325745761 0.6299090981
0.02379331738 -0.01171397697 0.9117459059 0.5769309998 -0.2628823221 0.5863956213
0.01683420502 -0.01045958139 0.917781055 0.5670840144 -0.5985505581 0.5492711663
0.02546162717 -0.002103778999 0.9106676579 0.7328644395 -0.04240476713 0.5418147445
0.03143308684 -0.01442331076 0.9115905762 0.6862183809 0.3840087056 0.599219799
0.03599663824 0.006089569069 0.894962728 0.6572785378 0.2484148443 0.6923284531
0.03378292546 -0.0004726243496 0.9013027549 0.6831872463 0.3323088288 0.6338500977
0.04345364496 0.0117436992 0.8863036036 0.4928982854 0.270724237 0.8233905435
0.08096098155 0.03043902665 0.8590505123 -0.4853438139 0.5758554339 0.6278915405
0.08770105243 0.03465153649 0.859202981 -0.6014149785 0.51494205 0.5801450014
0.08357143402 0.02795764618 0.8654910922 -0.4880672395 0.467071563 0.7020972371
0.08577954024 0.01898060739 0.8759539723 -0.4491244853 0.3524132073 0.7960194945
0.090251185 0.01403219625 0.8797508478 -0.4818369448 0.3325593472 0.7927824855
0.09181135893 0.03066174872 0.8645189404 -0.6301422715 0.4471268654 0.5923573375
0.09323649108 0.02251828648 0.8753789663 -0.5602808595 0.3746267855 0.7035964727
0.08404658735 0.04845338687 0.8473662138 -0.4649993777 0.1982287169 0.8598846793
0.08900450915 0.05054667965 0.8503103852 -0.5420429707 0.1808716059 0.7989122868
0.09398516268 0.04902274162 0.8575106859 -0.5918671489 0.2230627686 0.7395868301
0.09504830092 0.04699571058 0.8669336438 -0.5533519983 0.2891885638 0.7234324217
0.08954630047 0.04268215969 0.865092814 -0.5035523772 0.3593920171 0.7059811354
0.08828886598 0.04018264264 0.8532189131 -0.5851219296 0.4241515994 0.6419935822
0.07679177076 0.04230596498 0.8464183211 -0.4169194996 0.4058903158 0.7882311344
0.08127476275 0.03065460734 0.8746707439 -0.4673288465 0.6578439474 0.5739082098
0.08107184619 0.03606763855 0.8635857701 -0.4836930335 0.5344789624 0.6582090855
0.08342005312 0.03394925594 0.8696928024 -0.49418661 0.5896897316 0.6127720475
0.07008095086 0.02812133543 0.8709225059 -0.3755817711 0.6820884943 0.5957685709
0.07409107685 0.03155419976 0.8641033173 -0.4165275693 0.6389809251 0.6127374172
0.07301977277 0.05509884655 0.8440629244 -0.357188493 0.07111170143 0.8751962781
0.07868024707 0.05937890708 0.8515139222 -0.4834850729 0.06132189557 0.7930672169
0.06955278665 0.0655926168 0.8440938592 -0.3194147944 -0.1718702316 0.896560967
0.07023649663 0.07328250259 0.8487192988 -0.3940600753 -0.2440898716 0.8565590382
0.05509116128 0.01881919801 0.8604838252 0.04787625745 0.6045970321 0.7464956641
0.07011228055 0.01302052941 0.8713217378 -0.1949340105 0.4014663398 0.8704022765
0.0704196468 0.02095001005 0.8602686524 -0.2798667848 0.5273247361 0.7664054632
0.07234556973 0.0254397206 0.8558213711 -0.3509832025 0.6208674312 0.6676603556
0.07456948608 0.01735587977 0.8691375852 -0.2992693782 0.4570971131 0.7843706012
0.07938884199 0.01979282126 0.8720885515 -0.3727626503 0.4198406637 0.7970475554
0.07621035725 0.02222285233 0.8642128706 -0.3666331172 0.5368434191 0.7044470906
0.07868488878 0.08366762847 0.8488819003 -0.4298813641 -0.3871588111 0.8123039603
0.08601604402 0.07005702704 0.8482804894 -0.4895709753 -0.2797411382 0.8201057315
0.08926159889 0.06419558823 0.8484085798 -0.5098327994 -0.1815003455 0.8374636173
0.09139051288 0.07206150889 0.8534830213 -0.5320287943 -0.3098131418 0.7871095538
0.08046612889 0.06693352014 0.851495564 -0.4843121767 -0.1391364038 0.8072670698
0.08281724155 0.05344768241 0.8524205089 -0.5188602805 0.1781821549 0.7691435814
0.08751902729 0.0613482669 0.8536658287 -0.5303941369 -0.04587965831 0.7564373612
0.0380724147 -0.002807880519 0.8945946097 0.6560211182 0.3980681002 0.6371462345
0.04003027081 0.006443098653 0.88880229 0.5600364208 0.3062516749 0.7664577365
0.04309733585 6.796093999e-07 0.8883524537 0.5060548782 0.3777689934 0.7688428164
0.04441164434 -0.005895065144 0.8896323442 0.486563772 0.44619748 0.748557508
0.05719447136 -0.0001262934384 0.8885962963 0.1553432345 0.4561594725 0.7585898638
0.05060053989 0.001226270688 0.891037643 0.3028858602 0.4251247346 0.749640882
0.06843698025 -0.004846896511 0.8917194605 -0.148623392 0.5715097189 0.7016940713
0.05139686912 -0.00118140236 0.8975149393 0.2363518178 0.4869086742 0.6836536527
0.04151761532 0.001397420187 0.8995059133 0.4693948925 0.4261278212 0.6867524981
0.06404915452 -3.149736813e-06 0.8893450499 -0.02805886045 0.4949827194 0.7445229888
0.05165589973 0.008537839167 0.8863742352 0.2951100767 0.3430441618 0.8148162365
0.05103105679 -0.003842888167 0.8855008483 0.3060570657 0.4431833029 0.8310025334
0.04030724615 0.01510695741 0.8734596372 0.4190028608 0.3915236294 0.8109603524
0.03977137059 0.02068854123 0.8646191955 0.3309640884 0.4321343303 0.8327046633
0.06703236699 0.08679240197 0.8548961282 -0.267324239 -0.3356873989 0.8268981576
0.05723140389 0.08671162277 0.8532708883 0.00217039627 -0.3171257377 0.8494009376
0.04755774885 0.08750468493 0.8523945808 0.277792573 -0.3020516932 0.86633569
0.04539459571 0.0919682309 0.8567701578 0.279197216 -0.3545234799 0.8034638166
0.05532357842 0.09427592903 0.8603818417 0.01897187531 -0.3859734535 0.7627528906
0.0734327808 0.09241103381 0.8606103063 -0.3874354959 -0.3700205386 0.7768626213
0.04864097014 0.09849526733 0.8557530046 0.2375258058 -0.2954055965 0.8197590709
0.05954528973 0.09747436643 0.8555301428 -0.002198554575 -0.2791460752 0.8332105279
0.04165032506 0.09933771938 0.8556278944 0.3952028453 -0.3002560735 0.8148056865
0.06911782175 0.09381043166 0.8482286334 -0.2743616402 -0.3813693523 0.835347414
0.06588679552 0.09559252113 0.8567017913 -0.1691142619 -0.3095515072 0.8180286288
0.07734694332 0.09145694226 0.8541935086 -0.4666114748 -0.3944738209 0.7889184356
0.08888161927 0.07813688368 0.8562232256 -0.5233256221 -0.3608226776 0.7708287239
0.08857093751 0.08413179219 0.8602297902 -0.5274436474 -0.3665665686 0.7651981115
0.09078777581 0.09305272996 0.867515862 -0.5299001932 -0.3896788955 0.7528428435
0.08158887923 0.07906760275 0.8539093733 -0.4776819646 -0.3723028302 0.7943597436
0.07971187681 0.07409568131 0.851113081 -0.4678120613 -0.3114958405 0.8255478144
0.09402038157 0.06342224032 0.8528671265 -0.5325165987 -0.1767045856 0.8218115568
0.09479215741 0.05552615225 0.8557569981 -0.5150269866 0.03523822501 0.8348063231
0.09661075473 0.04030962661 0.8883342147 -0.5425724387 0.5063944459 0.5990973711
0.095084548 0.0588446334 0.8623393178 -0.5388871431 -0.03651882336 0.7594750524
0.09573924541 0.05005132034 0.8732939363 -0.5376288295 0.2179279625 0.6961475015
0.09032741934 0.03359173983 0.8868089318 -0.5386148691 0.5922304392 0.575499177
0.09419187903 0.0541170761 0.8674114943 -0.5399874449 0.08193314821 0.7201994061
0.09523304552 0.04431009293 0.8814533353 -0.5419170856 0.372847259 0.6350080371
0.08553551137 0.03081378527 0.8805745244 -0.5018979907 0.6545216441 0.5576609373
0.0867375955 0.03905919939 0.8720846772 -0.4999868572 0.4479407668 0.6162930131
0.0896917209 0.03711496294 0.8813096285 -0.5372864008 0.4842207134 0.6072898507
0.09081990272 0.04529095441 0.8727489114 -0.5346653461 0.2796241343 0.6653332114
0.08353878558 0.09118354321 0.863017261 -0.5079482794 -0.3926634789 0.7665201426
0.0699980408 0.08093650639 0.8516376019 -0.4296891391 -0.3337381184 0.8386110067
0.07580468059 0.08533997089 0.856362164 -0.472771138 -0.3571999669 0.8034431338
0.08221848309 0.08651190996 0.8578179479 -0.4995484054 -0.3955708146 0.770570755
