# .PCD v0.7 - Point Cloud Data file format
VERSION 0.7
FIELDS x y z normal_x normal_y normal_z
SIZE 4 4 4 4 4 4
TYPE F F F F F F
COUNT 1 1 1 1 1 1
WIDTH 512
HEIGHT 1
VIEWPOINT 0 0 0 1 0 0 0
POINTS 512
DATA ascii
0.2096648216 0.07044066489 0.6666462421 -0.5984605551 0.1659851223 0.7828636169
0.04608874768 0.04576721415 0.7188644409 0.6396664977 0.4653557539 0.6117266417
0.04667031765 0.03957668319 0.7208351493 0.4760828912 0.5812857747 0.6409048438
0.08915533125 0.1225758716 0.647531569 0.5059138536 -0.2096291184 0.8365323544
0.0983505547 0.1261150986 0.6446118355 0.466786921 -0.1981341392 0.8572873473
0.1047869697 0.1289362311 0.6428192854 0.4350658655 -0.1805455089 0.8765791655
0.1097287908 0.1317701638 0.6405414939 0.4077280462 -0.1642607749 0.8953871131
0.1145967841 0.1284405291 0.6412476897 0.4156974554 -0.1957021952 0.8823762536
0.1103825867 0.1254345775 0.6437320113 0.44072932 -0.1782209873 0.8727058172
0.09650550783 0.1192047 0.6468518972 0.516335845 -0.222270295 0.8243210316
0.1029755399 0.1189127341 0.6479592323 0.4941069782 -0.1707526743 0.8460053802
0.1062331274 0.1294400245 0.636919558 0.4435488284 -0.2228959352 0.8671037555
0.1371567994 0.1100007594 0.6427310705 0.009353402071 -0.2012570053 0.8496283889
0.1223710999 0.1225085109 0.6402118802 0.3271991909 -0.3673234284 0.8550865054
0.1596444696 0.09888776392 0.6477223635 -0.3781638443 0.02231840603 0.8574430346
0.1542365551 0.09802188724 0.6460031867 -0.3278688192 -0.01847725175 0.8483546972
0.1430551261 0.09962201864 0.6429457664 -0.1827757955 -0.1152547598 0.8364712
0.1647482514 0.09744358808 0.6490132809 -0.4530453086 0.06910922378 0.861413002
0.1561287344 0.09282633662 0.6457984447 -0.4121264219 0.01595259272 0.8403319716
0.1335713267 0.1147348359 0.6423695683 0.1070513129 -0.2477627397 0.8544175625
0.1621320695 0.09214098006 0.6474654675 -0.4879208803 0.06727582216 0.8470662832
0.1494893432 0.1046641693 0.6455795169 -0.1939777732 -0.08142352849 0.8554582596
0.2172865719 0.04975407198 0.6782512069 -0.7085723877 0.362799108 0.5902496576
0.2146011591 0.05704048648 0.6781548262 -0.677831471 0.3279391527 0.6293094754
0.2196566164 0.05487622321 0.672079742 -0.673015058 0.2942321301 0.6670644283
0.2151681036 0.06971103698 0.6704803109 -0.6072214842 0.213129133 0.7579356432
0.2182354629 0.06053419411 0.6710529327 -0.64696908 0.2602908015 0.7050929666
0.2104933113 0.0533949472 0.6731469035 -0.6653295159 0.2585791945 0.6872659326
0.2116269022 0.05899887905 0.6730521321 -0.6474312544 0.2494609356 0.7044873834
0.1727144122 0.09624987841 0.6489024162 -0.4486091137 0.03765013814 0.8877565861
0.2166631073 0.07429350168 0.6656425595 -0.5807434916 0.1812516004 0.7936528921
0.1416461021 0.1303705126 0.6352571845 0.0151502667 -0.5481516123 0.8306460977
0.1342573464 0.1271777749 0.6328532696 0.1336179078 -0.4756356478 0.8594927192
0.1265051812 0.1319946498 0.6373019814 0.2332193106 -0.3070144057 0.8852394819
0.1334442496 0.1309678108 0.6370814443 0.1355368048 -0.426068157 0.8550763726
0.1200059205 0.1338876486 0.6394271851 0.3235424161 -0.1912193 0.9067578316
0.1398522109 0.1074762717 0.6213589907 -0.03489975259 -0.2739557624 0.9544403553
0.1361809671 0.09797099978 0.6189611554 0.02032269724 -0.1518063843 0.9778525233
0.2062467933 0.06984934211 0.6626972556 -0.5880476236 0.1352113485 0.7962520123
0.05159716681 0.04142091423 0.7171373367 0.6457470059 0.462043792 0.6078867912
0.05666881427 0.03605047986 0.718259275 0.6091682911 0.4971912801 0.6113447547
0.05618883297 0.04979627579 0.7190164328 0.6257312894 0.4780084789 0.6139951944
0.05928621814 0.0411683023 0.7199664116 0.4931443036 0.5622731447 0.6422590613
0.04921866581 0.05270031095 0.7200000286 0.6337171793 0.4685962796 0.615483582
0.08816850185 0.07633867115 0.654016912 0.8257726431 0.1469257027 0.5164248347
0.08969856799 0.07131966203 0.6567168236 0.7781976461 0.2234342247 0.5566138625
0.0913869068 0.0645242855 0.6600500345 0.7102063894 0.3377159238 0.615100503
0.08915997297 0.09603133798 0.6456073523 0.7936939597 -0.04347380623 0.577637434
0.0873240009 0.1154981256 0.6500163078 0.5733823776 -0.1290635467 0.7844466567
0.09124827385 0.1016875878 0.651622653 0.6748821139 -0.09519722313 0.6828635931
0.08850903064 0.08600825816 0.6519432664 0.8384943008 0.007856223732 0.5123580694
0.0876178816 0.09792375565 0.6512162089 0.7329249978 -0.04387306049 0.6199573874
0.08851528913 0.1083565429 0.6508524418 0.6299010515 -0.1041688323 0.7265694737
0.09545686096 0.1103709564 0.6518827081 0.5672799945 -0.1763400882 0.7971884608
0.09706950188 0.07565615326 0.6394666433 0.7099207044 0.3024502695 0.6349630952
0.09795738012 0.0699320659 0.643052578 0.6977746487 0.3579439223 0.6168529391
0.1113789529 -0.01873096079 0.7504352331 0.1127167791 0.4598433375 0.8808172345
0.2077988237 0.01520754583 0.7059285045 -0.5767591 0.6539959311 0.4893043041
0.2131194919 0.01714973524 0.7026557326 -0.5754253864 0.6471514106 0.4994733036
0.2106344551 0.06495346874 0.6694865823 -0.6176260114 0.1971080154 0.7595551014
0.1403573304 0.1125748008 0.6230459213 -0.02891413122 -0.3471234441 0.9286690354
0.1119141355 0.1172285825 0.6429144144 0.4582057297 -0.3022967875 0.8297865391
0.1165192202 0.1177482679 0.6380167007 0.4496932328 -0.3333723843 0.8246438503
0.1780093014 0.1024121493 0.6497385502 -0.4617589712 0.03847200423 0.8822152019
0.1719014943 0.1124943793 0.6426318884 -0.5488368273 -0.03006957471 0.8220139742
0.1702788472 0.1014398858 0.6486880779 -0.4938762784 0.0721559301 0.8612016439
0.1997123808 0.04225856066 0.6544665694 -0.4467402399 0.3410649598 0.8052880764
0.1965511292 0.04589479044 0.6503034234 -0.5038256049 0.2672342956 0.816290915
0.2107180655 0.008844026364 0.7064160705 -0.5798485875 0.6546624303 0.4848331213
0.09662157297 0.06028540432 0.6506135464 0.6824561954 0.3602915108 0.6355093718
0.09417761117 0.06885133684 0.6498685479 0.7141696215 0.3406819999 0.6089518666
0.09265765548 0.06494206935 0.6530899405 0.7129520774 0.3361097574 0.6145721674
0.2139398605 0.02545733936 0.6956683993 -0.6246329546 0.6050293446 0.4856113195
0.1583465487 0.07310049236 0.6445341706 -0.3514934182 0.09923363477 0.9132026434
0.1585245728 0.06211225316 0.6441258192 0.0106991902 0.1665730327 0.9348109365
0.1683094352 0.06429397315 0.6415714622 -0.03724801168 0.06711553782 0.9723861217
0.1640284061 0.06808136404 0.6428446174 -0.172385633 0.08089619875 0.9469489455
0.04973109066 0.02106394991 0.7255818248 -0.2063270509 0.2800381184 0.9375541806
0.07648536563 0.008947059512 0.7350620031 -0.1690940261 0.3010217547 0.9309328198
0.09108276665 -1.980905836e-05 0.7418636084 -0.06101564318 0.3619320393 0.9117128253
0.1086937487 -0.009384165518 0.7484769821 0.06971963495 0.4356112182 0.8884636164
0.1051186547 -0.004153108224 0.7446987033 0.02400408126 0.4098470509 0.8965933919
0.08741699159 0.004353501834 0.7386224866 -0.09628933668 0.3420526683 0.9179856777
0.09829892963 -0.0006213803426 0.7423840165 -0.02310477011 0.3832976818 0.9049709439
0.08229373395 0.006767905783 0.7366405129 -0.131776616 0.322052896 0.9242965579
0.1141043156 -0.008609565906 0.7500756383 0.09408523142 0.4493430555 0.8841305971
0.09113305062 0.07535854727 0.6479058266 0.7660765648 0.2685089707 0.5797443986
0.08854830265 0.08090434223 0.6499039531 0.8541150093 0.09532737732 0.4980888069
0.09127605706 0.1150533259 0.6450981498 0.5429711938 -0.2058935612 0.8088331819
0.09591225535 0.1095670909 0.6394026875 0.5866199136 -0.2178387046 0.7709729671
0.09584835172 0.1211481988 0.6411393285 0.5082004666 -0.246766448 0.824016571
0.09676585346 0.1153369844 0.639331162 0.548799634 -0.2371816337 0.7949525118
0.09729678184 0.1036325321 0.637082696 0.6287123561 -0.2105427235 0.7400548458
0.09054502845 0.1079224795 0.6450574994 0.6353487968 -0.1494732201 0.7242574096
0.09054394811 0.1014651135 0.644298315 0.7150406241 -0.105779171 0.6516964436
0.09404017031 0.09826945513 0.6399624348 0.7042405009 -0.1455377638 0.6721202135
0.09600676596 0.09377829731 0.637206316 0.7314017415 -0.1496829391 0.6533474922
0.1036582664 0.07451583445 0.6321655512 0.6022672653 0.3131231368 0.7335441709
0.1322770566 -0.008484529331 0.7493520379 0.2410098165 0.05441725999 0.910723567
0.1196411401 -0.009770806879 0.7507956624 0.1458859742 0.3550235033 0.8885493279
0.1253409088 -0.008973720483 0.7505255342 0.1827449948 0.2385432422 0.8971415162
0.1265907735 -0.02181689255 0.7449455261 0.184299171 0.420634985 0.8565686345
0.1298028678 -0.01591629721 0.7465249896 0.2374656647 0.164204523 0.8883166313
0.2083891183 0.04723061621 0.6718170643 -0.6277742982 0.2597094476 0.7179924846
0.2033351958 0.03885820135 0.6723049879 -0.5357398391 0.4179413915 0.6708132625
0.2123745382 0.045688916 0.6786923409 -0.6908229589 0.3609796166 0.6017704606
0.2082770616 0.04167305306 0.6766167283 -0.619449079 0.4123233855 0.6157435179
0.1912782937 0.02929009683 0.6641928554 -0.3283517063 0.5066068769 0.7542919517
0.2193603516 0.04541716352 0.6737836599 -0.6816657782 0.3453859091 0.6327561736
0.2168648839 0.04129209742 0.6778960228 -0.6701990962 0.3924672604 0.6069524884
0.2161730528 0.03178426996 0.6893223524 -0.6487526298 0.5299707651 0.5211212039
0.2186241746 0.03774586692 0.6826665998 -0.662627697 0.4529623389 0.5675700903
0.1799796671 -0.01320440881 0.7279031277 0.4086977839 0.1091362759 0.8964465857
0.166454792 -0.01630676538 0.7343825698 0.3751567006 -0.02301731147 0.9196384549
0.1746141016 -0.01257506292 0.7295011282 0.3951153457 0.05562073737 0.9058381319
0.1838098913 -0.00923396647 0.7245095372 0.4177361727 0.1447479576 0.8901970387
0.1619648039 -0.0190668907 0.735688746 0.3643250167 -0.06569464505 0.9271279573
0.129544884 0.1136486903 0.6247306466 0.2132046968 -0.4236444235 0.8766568303
0.1320975721 0.1093602926 0.6220154166 0.1505312026 -0.3585042357 0.9141636491
0.126124382 0.1058014184 0.6211456656 0.2488706261 -0.3351072073 0.9067213535
0.1005706415 0.1135147661 0.6494554877 0.5332118273 -0.210042581 0.8171641231
0.1222365722 0.1288355291 0.634652853 0.2854074538 -0.3708702624 0.8692937493
0.1276210099 0.1250109971 0.6326575279 0.2080058306 -0.4554662108 0.8592633605
0.2125371248 0.07628411055 0.6683850884 -0.5782405734 0.1569856405 0.7933255434
0.1971725523 0.08874913305 0.652454257 -0.5357331038 -0.2551255524 0.7877663374
0.2012547553 0.08542726189 0.6564278603 -0.5468481779 -0.1473649144 0.7892199755
0.2072104365 0.0759280175 0.6632446647 -0.5610079169 0.08569154143 0.8075178266
0.204823792 0.08210168034 0.6608258486 -0.5569345951 -0.04024590179 0.7921412587
0.1659239829 0.1169725507 0.6327471137 -0.5921971798 -0.1497235894 0.7895590067
0.1581717581 0.1232368052 0.6336944103 -0.3816987872 -0.3310288787 0.8137776852
0.1590194553 0.1120475531 0.6427195668 -0.337474823 -0.1749942899 0.839851737
0.1468803436 0.1255588531 0.637411952 -0.08446713537 -0.4612048864 0.8310796618
0.162318185 0.1195158064 0.6359651089 -0.4953675866 -0.239008978 0.793856144
0.1615369022 0.1072678566 0.6452754736 -0.3741189539 -0.090466775 0.8502599001
0.1656623632 0.1130058765 0.6394785643 -0.5427610278 -0.1246785671 0.8083796501
0.1691960841 0.1197024062 0.6366677284 -0.6065507531 -0.1388537884 0.7807174921
0.1678106487 0.1065298244 0.6441921592 -0.533798039 -0.01364893559 0.8312095404
0.1562169492 0.1183871329 0.6284913421 -0.3027372956 -0.3024021387 0.8925920725
0.1492788047 0.1134472787 0.6432735324 -0.1427782029 -0.2126238793 0.8518098593
0.1282567978 0.1250525564 0.6388131976 0.2346760631 -0.4253360629 0.8471473455
0.1390818506 0.1156331003 0.6427859664 0.03416125104 -0.2431018203 0.8556592464
0.1515083313 0.1188688874 0.6405087113 -0.1709309667 -0.3305149376 0.8404984474
0.1420790106 0.1200452223 0.6404691339 -0.00882035587 -0.3408596516 0.8455575109
0.1551670581 0.1054673493 0.6468247175 -0.2569480538 -0.05319512263 0.8615088463
0.1365337223 0.1233916655 0.6391537786 0.09125565737 -0.4029899836 0.8438215852
0.1437947005 0.1113808602 0.6445892453 -0.0534061417 -0.1605682224 0.8596336842
0.1603579968 0.0848344788 0.6455789804 -0.5469505787 0.06888421625 0.8328325748
0.1565189213 0.09041692317 0.6248551011 -0.5139881372 0.2126871496 0.8166646957
0.2005639821 0.05449741706 0.6576673388 -0.5736935735 0.2161458731 0.781611979
0.1972368509 0.05224456266 0.6532588005 -0.5361249447 0.2296908051 0.8043185472
0.2038929015 0.05462421477 0.6622829437 -0.6093056798 0.2192888856 0.7558685541
0.2010968477 0.06382221729 0.6575111747 -0.5880408883 0.1436255425 0.7907203436
0.2062308192 0.06026155129 0.6649840474 -0.6393182278 0.1780663282 0.7457742095
0.130302459 0.09669302404 0.6191604137 0.1403668225 -0.1212548167 0.972440958
0.1179925203 0.09863343835 0.6226199269 0.3394834101 -0.1882181019 0.9130991101
0.1338137239 0.104118526 0.6199319959 0.08393469453 -0.2643972337 0.9592722654
0.1415308416 0.09408859909 0.6401651502 -0.1462503225 -0.08128805459 0.8213171363
0.1373909861 0.09318967164 0.6335377097 -0.04302987084 -0.07502839714 0.8711580634
0.1335398853 0.09961867332 0.6377130747 0.05359577388 -0.1529577523 0.8230787516
0.1243326887 0.1073636115 0.6368423104 0.2839729786 -0.2513655424 0.8072577715
0.132668227 0.09263816476 0.6266516447 0.07476397604 -0.07335139811 0.9218552113
0.1193369851 0.1079048738 0.6311590075 0.4086678922 -0.2625563443 0.846265018
0.1267342567 0.09622707218 0.624094069 0.2231233567 -0.1206049919 0.929892242
0.1264978051 0.103102468 0.6335743666 0.2295955718 -0.2000978738 0.8426952362
0.1416613162 0.09039431065 0.6350756288 -0.1498131901 -0.03857153654 0.8681383729
0.1302726716 0.09915427864 0.6328313947 0.1350788325 -0.1508424282 0.8592282534
0.1217880473 0.1032913774 0.6277589798 0.3471264243 -0.2069434375 0.8836474419
0.1480990797 0.08860520273 0.640845716 -0.3105935156 -0.01156652626 0.8320614696
0.1862121075 0.04743201286 0.6434062123 -0.2390666157 0.2774655819 0.918723464
0.2035953701 0.04740086198 0.6555973887 -0.5528574586 0.2503149807 0.7868235707
0.2184878439 0.05186589435 0.6651062369 -0.644934833 0.2204165906 0.7299175262
0.2118611187 0.05014773458 0.6605493426 -0.6023654342 0.2342392802 0.75622648
0.2038575858 0.05451279506 0.6524178386 -0.606821835 0.1679247469 0.7742708325
0.2133464366 0.05983046815 0.6572899818 -0.6234319806 0.1726681739 0.7609792948
0.2181006968 0.05933009833 0.6610181332 -0.637237072 0.187219128 0.7463341355
0.1991197616 0.05511700362 0.6486596465 -0.5928815007 0.1530179381 0.7891317606
0.208855167 0.06065669656 0.6536242366 -0.6097780466 0.1575621068 0.7757063508
0.2203835249 0.06462289393 0.6605806351 -0.6304016113 0.1762488335 0.7552374005
0.2228159308 0.04983014986 0.6693687439 -0.6851119399 0.2897126973 0.6668519974
0.2184923589 0.06636274606 0.6680130363 -0.6172766685 0.222146064 0.7478312254
0.2220982015 0.05624863878 0.6664314866 -0.6505538225 0.2516073585 0.7099128366
0.2209288329 0.07071175426 0.6630393863 -0.5905655622 0.1922461987 0.7813335657
0.06043462828 0.0280732438 0.722873807 0.01301033702 0.4531345963 0.834268868
0.06131933257 0.03297906369 0.7200118303 0.373360306 0.5598757267 0.6764888763
0.05583645776 0.02474469878 0.7238679528 -0.2063270509 0.2800381184 0.9375541806
0.06138356775 0.01953436621 0.7271381021 -0.2063270509 0.2800381184 0.9375541806
0.05528366938 0.01822332107 0.7276114821 -0.2060204297 0.2801450193 0.9375855923
0.04975892603 0.01541539282 0.7292628884 -0.2063270509 0.2800381184 0.9375541806
0.1650578827 0.02406047843 0.6617065668 0.07429047674 0.5698352456 0.8177369237
0.1754100323 0.02613218315 0.6581807733 0.0334832184 0.5682589412 0.8208566308
0.1949595958 0.04285621271 0.6584216952 -0.3024281263 0.3997003734 0.7878293395
0.1982812136 0.04696711153 0.6599075794 -0.4156187773 0.3350265324 0.7754997611
0.1902359128 0.04166829214 0.6486378908 -0.3409931064 0.3586664796 0.8322904706
0.1909100711 0.03837181255 0.6557417512 -0.1870227307 0.4634886384 0.8059094548
0.2032619715 0.04941838607 0.6655353904 -0.5187371969 0.2865575552 0.7476283908
0.2044851482 0.009662602097 0.709921658 -0.4404157996 0.7480368614 0.4729918242
0.1971483231 0.02423493192 0.6695223451 -0.3862046301 0.6143288612 0.6667896509
0.2047442496 0.02199241519 0.6812297702 -0.4594779611 0.6291915178 0.602086246
0.212180391 0.0211722143 0.6928337216 -0.5548067689 0.637766242 0.5229458213
0.2027306706 0.02443710528 0.6761242747 -0.4632049799 0.618588388 0.6120117903
0.2089838684 0.04222271591 0.6684231162 -0.6098975539 0.3819220662 0.6651626229
0.2113761157 0.03527208045 0.6795790195 -0.6180105805 0.4694334865 0.5926601887
0.1989072263 0.02949265391 0.6665911078 -0.4494589269 0.5680078268 0.6591780782
0.213028729 0.04372318834 0.6730387807 -0.6634497046 0.3548882008 0.6408097148
0.2078163177 0.02471746132 0.685443759 -0.5431248546 0.61515975 0.5456454158
0.1946550906 0.03175023571 0.6576162577 -0.4046894014 0.5457873344 0.7132054567
0.2051406652 0.03160371631 0.6739206314 -0.5313822031 0.5290043354 0.6201561689
0.2115193605 0.02628042176 0.6894658804 -0.5927206278 0.5879108906 0.5247533917
0.208400622 0.03697682172 0.6731644273 -0.5870578885 0.4522342682 0.6313930154
0.2103570253 0.03039031103 0.6832577586 -0.5909811258 0.5357154608 0.5654120445
0.1024323553 0.06794127077 0.6397182941 0.6481167674 0.3701174259 0.6590303779
0.05532123521 0.02973229624 0.7214745283 0.1215510219 0.5321699381 0.7836014032
0.04749644548 0.03411334753 0.7194834352 0.4167475998 0.4531633854 0.6875835657
0.04908944666 0.0276723206 0.7221906185 -0.05114623532 0.3131852448 0.87751472
0.05742443725 0.01030144468 0.7317786813 -0.195641011 0.2837637961 0.9386487603
0.06380418688 0.01493283641 0.7303115726 -0.2063270509 0.2800381184 0.9375541806
0.0689522773 0.009010548703 0.7338665128 -0.2041518092 0.2807965279 0.9377769828
0.09546206146 0.09200787544 0.6450058222 0.7435632944 -0.05043336749 0.6230957508
0.09511072189 0.08268985897 0.6399433613 0.7813670039 0.1064793617 0.6008746028
0.09195143729 0.08599844575 0.6430622339 0.8407438397 0.0287178345 0.5377619267
0.09983704984 0.09794703126 0.643787384 0.6398576498 -0.0965809375 0.7163687944
0.09945064783 0.08811505884 0.6407565475 0.6630280614 0.07952560484 0.6907565594
0.1364942789 -0.01257900707 0.7455381751 0.3183395267 -0.1899567395 0.9287499189
0.1422081739 -0.01272689551 0.7436118126 0.3183395267 -0.1899567395 0.9287499189
0.154201597 0.1067465842 0.6240911484 -0.3280569613 -0.1890499741 0.9191467762
0.1534288973 0.1140151098 0.6257145405 -0.1917410195 -0.3196742535 0.9270017147
0.1477992386 0.1101192757 0.6231330037 -0.1652960181 -0.2777208984 0.9436991215
0.161092326 0.1004844531 0.626524806 -0.5962582231 0.03921149671 0.7779231668
0.1591150761 0.1140337735 0.627568841 -0.4526895881 -0.2246322632 0.8452646732
0.1541315615 0.0992873311 0.6234078407 -0.4286763966 0.004264328163 0.880851984
0.145492956 0.1047676876 0.6209394336 -0.1679878384 -0.2096290588 0.9625521898
0.1440099329 0.09850465506 0.6201349497 -0.1385783702 -0.1234391853 0.9781700373
0.1859494001 0.06039283797 0.6409855485 -0.3433811963 0.07714739442 0.9280912876
0.1933853179 0.05606343225 0.6445162892 -0.5496322513 0.1256299168 0.8196998239
0.1881063133 0.05499150231 0.6423169971 -0.3777789474 0.1635263562 0.8966071606
0.192489773 0.06298074126 0.6429464817 -0.485999763 0.02459122241 0.8675000072
0.1550383717 -0.01147088967 0.7408067584 0.3415662646 -0.1379036903 0.9290007353
0.1575542092 -0.01640024781 0.7379699349 0.3547021151 -0.1029032543 0.9289811254
0.142140612 -0.008766574785 0.7488493919 0.3195423782 -0.1876207143 0.9287629128
0.1460822523 -0.01812880114 0.7448676825 0.3185527325 -0.1895427257 0.9287521839
0.1911192685 0.06613837928 0.6513032317 -0.358235687 0.08378876746 0.8707880378
0.1846099049 0.06243712455 0.6470341086 -0.2193359137 0.1148876697 0.9136821628
0.1801439524 0.05430719256 0.6434279084 -0.1123184264 0.2226230949 0.9426988959
0.1889013797 0.05981022492 0.6493705511 -0.3051982224 0.1790395081 0.8825954795
0.1959087402 0.06150747836 0.6534791589 -0.4423317611 0.1710924357 0.8400158286
0.1903192252 0.05313153192 0.6485242248 -0.2883088887 0.247305423 0.8882853985
0.1385985166 0.1031313315 0.6420561671 -0.07785066217 -0.1611422449 0.8355485201
0.1215930283 0.1137649193 0.6378058195 0.3493276834 -0.3103832304 0.8164224029
0.1301910132 0.1087894663 0.6400524974 0.1330164969 -0.237753436 0.8277699351
0.134879902 0.1179067418 0.6256861091 0.136769861 -0.4574034512 0.8780796528
0.1271461993 0.1186518669 0.6290115714 0.2339685708 -0.4531908333 0.8587425947
0.1160323843 0.1291031241 0.6352728009 0.3699027598 -0.3032376468 0.8752334118
0.1215103045 0.1175981686 0.6287508011 0.312261492 -0.3831546605 0.8622016907
0.1120012999 0.1232648194 0.6336237192 0.3959451318 -0.295907706 0.8610306382
0.1181701273 0.1241039112 0.6322797537 0.3461323678 -0.3322124183 0.8705195189
0.1843252182 0.07189677656 0.638133049 -0.2920241952 -0.09248545021 0.9509299397
0.1787697226 0.08479590714 0.6376791596 -0.3789982498 -0.1116931736 0.8801996708
0.173609674 0.09043361992 0.6347383261 -0.4751867354 -0.05163339525 0.8268187046
0.1838364303 0.09162338823 0.6469031572 -0.3841676414 -0.1434559226 0.9052033424
0.1789928526 0.09460523725 0.6475441456 -0.398306787 -0.0438157022 0.913190186
0.1698233485 0.1000999436 0.6332845688 -0.5518491268 -0.06591881812 0.7966076732
0.1781690866 0.09225255251 0.6392092109 -0.3845131397 -0.1829132289 0.8717194796
0.1743440926 0.0962645784 0.6365566254 -0.4615336657 -0.1337403804 0.8378371596
0.1647554189 0.1057850644 0.6298258305 -0.6541889906 -0.004721530713 0.7521976233
0.1697815508 0.08897220343 0.6455008388 -0.4372940958 -0.03446885943 0.885219872
0.1766439527 0.08831803501 0.6454735994 -0.3564942777 -0.1220399663 0.9039357901
0.1527292728 0.1239570454 0.6304945946 -0.1834313273 -0.4141061008 0.8882904649
0.1433761269 0.1174141392 0.6253506541 -0.09030544758 -0.3889300823 0.9112067819
0.1482509524 0.1196473464 0.6273023486 -0.1452842802 -0.3810484111 0.9123574495
0.1447657496 0.1256399155 0.6308198571 -0.07624248415 -0.5263200402 0.8439911604
0.1369154453 0.123278819 0.6292651296 0.1039211676 -0.4943352342 0.8589843512
0.1731807441 0.08553133905 0.6323766708 -0.4952910244 0.01876565255 0.8330235481
0.1673682481 0.08947451413 0.6311913133 -0.4282762706 0.008891562931 0.8192334771
0.1722865254 0.07805312425 0.6362278461 -0.08031783998 -0.1338205189 0.9449251294
0.1631748825 0.09323938936 0.628207624 -0.5475758314 0.09720926732 0.7807227373
0.1680874825 0.08304385841 0.6328924298 -0.2418466061 -0.03482197598 0.8915851712
0.09855753928 0.08494297415 0.6339972019 0.6897652745 0.07693831623 0.7150043249
0.09981295466 0.07936160266 0.6342523694 0.6632893682 0.2611248791 0.6958119869
0.1029195189 0.08130282164 0.6300485134 0.5915621519 0.2659897208 0.759147346
0.1047111526 0.09207143635 0.639981091 0.5421249866 0.02300275117 0.7800924182
0.1036962345 0.08354842663 0.6375747323 0.5800542235 0.1634486318 0.7441225648
0.1029350534 0.1031619161 0.6443829536 0.5564229488 -0.1545176953 0.7833403945
0.1085318699 0.07791517675 0.6337248087 0.4919396639 0.2469702363 0.797799468
0.1056915149 0.09723972529 0.6412905455 0.5116240382 -0.06277929246 0.8070371151
0.1017703265 0.09390289336 0.6304802299 0.6282618046 -0.1728405505 0.7539300919
0.1049370691 0.08883621544 0.6279120445 0.5563978553 0.005675344262 0.8204219937
0.1095236987 0.09804545343 0.6267556548 0.5128831267 -0.2428483963 0.8123861551
0.117379576 0.09196808934 0.6250928044 0.3545582294 0.03134417534 0.9085452557
0.1167784333 0.1029135436 0.6300566196 0.4226903021 -0.1530467719 0.8555266261
0.1075757593 0.1036512256 0.6386000514 0.485237807 -0.1689323485 0.831520617
0.1102511734 0.100027658 0.633867383 0.4517829716 -0.1127081215 0.8497992754
0.1115165576 0.09324584901 0.6247922778 0.438259393 -0.09182161838 0.8834130764
0.1149295419 0.08519915491 0.6240547895 0.3516244888 0.172552973 0.9187287688
0.1243112162 0.1106396839 0.6248208284 0.2922417819 -0.3939907551 0.8683919907
0.1005411223 0.1197103187 0.6365634203 0.5024238229 -0.2721703053 0.8191692829
0.1041352302 0.100402683 0.6307769418 0.5761111379 -0.2488427311 0.7698566914
0.1074591056 0.1109860092 0.6308318973 0.4750183821 -0.3020485044 0.8218545318
0.1036437377 0.1066539958 0.6322546601 0.5445456505 -0.2615276873 0.7889930606
0.1082219481 0.1046696454 0.6291820407 0.5038595796 -0.2912642658 0.8037747741
0.1128830314 0.1065005958 0.6267858744 0.4395187199 -0.3316656649 0.8320413232
0.1107965708 0.1105221733 0.6371732354 0.5034012198 -0.3079830408 0.8059975505
0.1072194651 0.1103105918 0.6419533491 0.5222602487 -0.2832517028 0.8030976653
0.1062613055 0.1166725308 0.6330624819 0.4633659422 -0.2933989763 0.8342685103
0.1172388494 0.1139163896 0.6285783648 0.3679438531 -0.3582029641 0.8512901664
0.112173669 0.1175738797 0.6316173673 0.4083405435 -0.3162358403 0.8503127694
0.1055563614 0.1239648685 0.6363174319 0.4550643265 -0.2612315118 0.8508906364
0.101225175 0.05980059132 0.6476872563 0.6480231285 0.3879620433 0.6543715596
0.102315858 0.06351828575 0.6434912086 0.6528633833 0.4050474167 0.6395807266
0.09453934431 0.06051627174 0.6567695737 0.6895311475 0.3535645306 0.6319024563
0.1250964403 0.05411348119 0.6413837075 0.474219054 0.4172949195 0.7585431337
0.1335257441 0.05174855143 0.6434444189 0.4119512439 0.406845808 0.7986159325
0.1242627427 0.06108255684 0.6332343221 0.3614968956 0.386346668 0.8443719745
0.1153344214 0.05802391469 0.637615025 0.5256519914 0.4238327742 0.7277542353
0.1202058718 0.05621581152 0.639326632 0.4974568486 0.4198898971 0.7450287342
0.1401767284 0.05251960829 0.6419594288 0.3162741959 0.3860791922 0.8653913736
0.1302253008 0.05559151247 0.6391963959 0.384844929 0.3970859051 0.8218144774
0.1375997365 0.06097789481 0.6412683725 0.1244870797 0.3389724493 0.8359889388
0.1500846744 0.04643502086 0.6489493251 0.2959332168 0.3884883523 0.8595579863
0.1438538432 0.04797390848 0.6472319365 0.3492679894 0.3978659511 0.8329985142
0.1527179927 0.05981626734 0.6444836259 -0.0673955828 0.3008863926 0.9070871472
0.1454411149 0.05792770907 0.6438416243 0.08441057056 0.3338083327 0.8665325046
0.1542871594 0.05264725164 0.6474251747 0.08387491852 0.3389472067 0.896230042
0.1452574879 0.06319401413 0.6418593526 -0.04081956297 0.3029640317 0.8792580366
0.1396441907 0.06442303956 0.6372980475 0.0362310037 0.316949755 0.8956910968
0.1292031556 0.0621734634 0.6378470659 0.2294251323 0.3589880466 0.8169257045
0.1712565869 0.05102779716 0.6414328814 0.03982145339 0.2755329013 0.95380795
0.155671522 0.04457270354 0.6499169469 0.2698974311 0.382420212 0.8804262877
0.1654891819 0.05107782781 0.6440981627 0.1245514229 0.2723298669 0.9394065142
0.1688515693 0.04527612776 0.6428847313 0.08978399634 0.3844409883 0.9159638286
0.1788526326 0.03111095726 0.6510108709 0.01918013394 0.5602811575 0.8262726665
0.1851208359 0.03226726875 0.6511226296 -0.06383862346 0.5337252021 0.8354675174
0.2010594606 0.04448463768 0.6647613049 -0.4422371984 0.3294247091 0.762732923
0.1995829642 0.03886942565 0.6670876145 -0.4691719115 0.3679541051 0.7504562736
0.186405614 0.02775573917 0.6583818197 -0.1588342935 0.563847661 0.7896192074
0.1905778497 0.03403580561 0.6512312293 -0.382942915 0.5138782263 0.7597506642
0.200884372 0.03674123809 0.6594849229 -0.472134918 0.4460653067 0.7237181664
0.2068140358 0.04160394147 0.6622015834 -0.5510599017 0.3596776426 0.7202205658
0.1526733637 0.06776603311 0.6424024105 -0.2316508144 0.2264943123 0.9183279276
0.1759873033 0.04707165807 0.6414421797 -0.02106790803 0.344943881 0.9301595688
0.1765624136 0.05405644327 0.6392883658 -0.07533341646 0.2246861756 0.9631649256
0.1713646054 0.05675187707 0.6382977366 0.05944626406 0.1735920012 0.9739873409
0.1656961888 0.05557557568 0.6399731636 0.1697013229 0.202731654 0.9615975618
0.1800997406 0.05937939137 0.6393908858 -0.201726988 0.1160159409 0.9567320943
0.1118256375 0.06741587818 0.6323525906 0.4682487249 0.3745601773 0.7954098582
0.1121824756 0.06167041138 0.6346594095 0.513800323 0.4106620252 0.748257637
0.1176231429 0.06430967897 0.6313099861 0.4005978405 0.3840635419 0.8274492025
0.09235928953 0.09077297151 0.650392592 0.7733654976 -0.05614153296 0.5743373036
0.09785608947 0.1037886515 0.6491487622 0.622505188 -0.1810973734 0.7292160392
0.09582617134 0.09736620635 0.6492385268 0.692581594 -0.1243053675 0.6544237137
0.1231087297 -0.01418864168 0.7452405691 0.1127167791 0.4598433375 0.8808172345
0.11744304 -0.01736616716 0.746961832 0.1127167791 0.4598433375 0.8808172345
0.1460937113 0.07917463034 0.6243830323 -0.3325940371 0.3789071739 0.8588375449
0.1481686682 0.08660534769 0.6219877601 -0.3343537748 0.2150547504 0.8974083662
0.1416050494 0.0917455852 0.6191908121 -0.08998072892 -0.01348963752 0.9942173958
0.16627267 0.06909966469 0.6367607117 -0.04357282072 0.07604081929 0.9838247299
0.1540260464 0.08098502457 0.6258643866 -0.3189090192 0.2624080181 0.8800996542
0.1657585204 0.06026447192 0.6371810436 0.1573538035 0.1322461516 0.9678909779
0.1614716351 0.06495410949 0.6341739893 0.03880768269 0.1864546686 0.9423654079
0.1550933719 0.0715553835 0.6298472285 -0.130328387 0.2679770291 0.9052426219
0.1599150002 0.07838851213 0.6297746301 -0.2594970763 0.167333886 0.9223483205
0.1647438109 0.07514838874 0.6314355731 -0.2177424878 0.1111799777 0.9383537173
0.1739351004 0.06927201152 0.6376643181 -0.02877872437 -0.06698661298 0.9913748503
0.1696791053 0.07311586291 0.6348103285 -0.1052623466 -0.007985227741 0.9649690986
0.1927703172 0.06942532212 0.6435049772 -0.4928198755 -0.05901937932 0.8658183813
0.1874898672 0.06615516543 0.6407188177 -0.3927269578 -0.02024272271 0.9139049649
0.1754334718 0.1005907729 0.6400434375 -0.5315028429 -0.0811637938 0.8330214024
0.1815667152 0.09956503659 0.6421625018 -0.5191932917 -0.1890533864 0.8198407888
0.1690941602 0.1111684442 0.6347357631 -0.6246471405 -0.09157076478 0.7717251182
0.1760893911 0.1092869788 0.6417199969 -0.555834651 -0.1079224497 0.8149440289
0.180240199 0.1047616005 0.6430078745 -0.5310686827 -0.1720556021 0.8186097145
0.1857304722 0.0970101282 0.6497937441 -0.4419555664 -0.07153143734 0.8890590668
0.1063954085 0.06416337192 0.6371093392 0.6009017229 0.3947896957 0.6937965751
0.1055927128 0.05899458006 0.6414108872 0.6097152829 0.4120227098 0.6759313345
0.158987388 0.02783241123 0.6589353085 0.09613993764 0.5629500151 0.8207930923
0.1696725935 0.02982429788 0.6533873677 0.06723780185 0.5738629103 0.815829277
0.1707062125 0.03772735223 0.6516214013 0.1276719868 0.4785151184 0.8508062959
0.1574575603 0.03883139417 0.6517151594 0.1900989562 0.4742058218 0.8499984741
0.1484735757 -0.01335595828 0.7409415841 0.3250691593 -0.1768871248 0.9288226366
0.1326963902 -0.02348694205 0.7438567877 0.2749309242 -0.00625043828 0.9084458351
0.1380945593 -0.01706095412 0.741026938 0.2477113456 0.0332394056 0.9122858047
0.1637344807 0.01841731556 0.6632243395 0.08056025952 0.5677873492 0.8191667199
0.1593048424 0.02217215113 0.662561357 0.09215078503 0.5679805875 0.8178669214
0.1642390937 0.02589053102 0.6557061076 0.09215078503 0.5679805875 0.8178669214
0.1739486605 0.0176746361 0.6646274328 0.05449477583 0.5788813829 0.8135617971
0.1865228862 0.0160418693 0.673584044 -0.2287610769 0.6002892852 0.73253721
0.191313237 0.01424517669 0.6811881065 -0.3064983785 0.6123784184 0.6772364378
0.1960638762 0.01334980782 0.6873163581 -0.3746540844 0.6228687763 0.6297415495
0.2017587423 0.01186579093 0.6953172088 -0.4604970217 0.6361384988 0.5694025159
0.2077927291 0.01232242119 0.700560689 -0.5309947729 0.6467681527 0.5222886205
0.2014864981 0.01417460106 0.7081353068 -0.4488384128 0.7297280431 0.5063372254
0.2054919899 0.01883371733 0.6973428726 -0.4864408374 0.6571987271 0.5464016795
0.2029484808 0.01943750866 0.6915664673 -0.4476433396 0.6372310519 0.5843963623
0.1925292015 0.01477400213 0.6932063699 -0.3186036646 0.6877093315 0.6129495502
0.1992313117 0.0167610608 0.6957418323 -0.4058485925 0.6740088463 0.5765495896
0.2000766695 0.01516864914 0.70259583 -0.4245721698 0.7064395547 0.5391386151
0.1982772946 0.02019606717 0.6782953143 -0.3637742102 0.6251956224 0.6525624394
0.187044695 0.01916550659 0.6689578891 -0.22050488 0.6013125181 0.7456789613
0.1842327565 0.02172658406 0.6617959738 -0.2040825188 0.6043673754 0.7685588002
0.188776046 0.02486214601 0.6664478183 -0.2801276445 0.5663204789 0.7335603237
0.1978413761 0.03168733791 0.6725593805 -0.436044991 0.5146512389 0.6624160409
0.2113796473 0.03562325239 0.6869050264 -0.638767302 0.5023212433 0.542247355
0.2069299668 0.02421732061 0.6916083694 -0.5229203701 0.6001517773 0.5601857305
0.2003538609 0.02247321792 0.6850255728 -0.4249758124 0.5985296965 0.6194319129
0.1928202808 0.01977405511 0.6781122088 -0.3093716204 0.6034542918 0.6857856512
0.2045186311 0.03625086322 0.6778453588 -0.548443377 0.4769530296 0.6093615294
0.2107822895 0.04002645239 0.6822219491 -0.6519845724 0.4580430388 0.557510078
0.1923724711 0.02536278032 0.6725526452 -0.3303710818 0.5481274724 0.7021832466
0.2107221186 0.02169860154 0.6985607147 -0.5623145103 0.6351842284 0.5183866024
0.1994139552 0.02891799435 0.6780899167 -0.4434288144 0.5335370898 0.6423999071
0.1963566393 0.006232771091 0.7142426968 -0.2017082125 0.647546649 0.5739607215
0.1903168708 -0.005931287538 0.7212003469 0.3150322139 0.3147385418 0.8013987541
0.2019783556 0.001715315622 0.7149388194 -0.2997547686 0.8362758756 0.4522487521
0.1839136928 0.01194424089 0.6836080551 -0.09027086943 0.6821170449 0.6690670252
0.1807150841 0.0135464808 0.6774964333 -0.03936703131 0.64696908 0.7185943723
0.1793118417 0.01733748987 0.6659572124 -0.08457744867 0.5899437666 0.795008719
0.1799070388 0.0154889999 0.6715415716 -0.06014066935 0.617371738 0.7583379745
0.1876772493 0.01255614962 0.6910018921 -0.1802481115 0.6954191923 0.6292539239
0.1936262846 0.007014953997 0.7035675645 -0.2393823862 0.7906316519 0.5132833719
0.1936445087 0.01309783291 0.7015864849 -0.3214252591 0.7204866409 0.5668209791
0.2032490373 0.008497913368 0.7037977576 -0.4768748581 0.6833091974 0.5102356076
0.1978492886 0.005656510126 0.7084233761 -0.3183307648 0.8063119054 0.4701911807
0.1950478554 0.009802875109 0.6954630613 -0.3206014633 0.7095271349 0.5690103769
0.1561400294 0.06093955413 0.6346880198 0.0899952054 0.2857563198 0.9232848287
0.1509113014 0.06271934509 0.6324785948 0.04178936407 0.3535838127 0.8994089961
0.1391398311 0.06667081267 0.6278815866 -0.05681696534 0.497587204 0.8470839858
0.1512704343 0.0592558682 0.6376193166 0.1216313168 0.3296763599 0.9082782865
0.1585193127 0.05516098812 0.6426744461 0.2128667086 0.2387327254 0.9429553747
0.1352874488 0.06996104121 0.6248393059 -0.1294614375 0.5413349867 0.8279035091
0.1460800916 0.06679665297 0.6291116476 -0.03611861169 0.3967456222 0.8772439361
0.1488346308 0.07226008922 0.6278532147 -0.1814795285 0.3601711988 0.8814942837
0.1357836425 0.08500495553 0.6197063327 0.06467846781 0.1250094622 0.9870973229
0.1420895308 0.08571137488 0.6206320524 -0.2153031826 0.1960088462 0.9248747826
0.1323476136 0.06847373396 0.6347099543 0.09206901491 0.2829225063 0.8752478361
0.1265558749 0.06694185734 0.6322657466 0.2127105296 0.3258927166 0.868752718
0.1225690395 0.07042813301 0.6265505552 0.270757854 0.3328266144 0.9012397528
0.1384613365 0.07203476131 0.6367400289 -0.05783346668 0.22130768 0.8924639225
0.148855865 0.073954992 0.6411096454 -0.2612551749 0.1524647921 0.9005574584
0.2049456984 0.06723441929 0.6523851752 -0.5814470649 0.0497879535 0.8060181141
0.2124316245 0.06552232057 0.6548888683 -0.5986488461 0.1238221154 0.7855157852
0.2001710087 0.06115607917 0.647872448 -0.5665973425 0.09573094547 0.8128304482
0.186663121 0.08144924045 0.6427870393 -0.3009276092 -0.2171815783 0.9227508903
0.1885855645 0.07399596274 0.6413646936 -0.3854728639 -0.115776509 0.9085792899
0.182795018 0.08748148382 0.6423625946 -0.2958972156 -0.2404238433 0.9108957052
0.1896636784 0.08744031191 0.6457178593 -0.4116937518 -0.2215258628 0.8811685443
0.1664931327 0.07286031544 0.6423472762 -0.1901732385 -0.01687175408 0.9483862519
0.1632506102 0.07811528444 0.6434009075 -0.3431884348 -0.00660763355 0.9134911895
0.1700378507 0.08149299026 0.6419565082 -0.2782084346 -0.1151972935 0.9222300053
0.1546886563 -0.02119926363 0.7373108864 0.3425346613 -0.1266787499 0.9290108681
0.1519341171 -0.01802424341 0.741197288 0.3290012181 -0.1696815938 0.9287890196
0.1505140066 -0.02606369741 0.740814209 0.3201037943 -0.1874099672 0.9286136627
0.1447075158 -0.02381577529 0.7406859398 0.3183395267 -0.1899567395 0.9287499189
0.1385309845 -0.02318690158 0.7423785925 0.3183395267 -0.1899567395 0.9287499189
0.1812856197 0.02575832419 0.6559975147 -0.00768935727 0.5733944178 0.8165972829
0.1701519787 0.02193938754 0.6589668393 0.06465542316 0.5738381743 0.8162782192
0.1959512383 -4.202956188e-05 0.7155128121 -0.04562725127 0.6192116737 0.5923002958
0.19070898 -0.01182028186 0.7222456336 0.430341959 0.1944153756 0.881480813
0.1990941316 -0.004077229649 0.7180972695 -0.1689932197 0.8061408401 0.4740205705
0.1618204564 0.04656916484 0.6445144415 0.187354669 0.3545930088 0.9122302532
0.1610119194 0.04128434882 0.6467369199 0.1665401459 0.4308543205 0.885086298
0.1343919933 0.05922010913 0.6342600584 0.2400535643 0.4042066038 0.8635244966
0.146381557 0.05119871348 0.6415362954 0.2723002434 0.3696659505 0.8845032454
0.1310637295 0.06606648117 0.6278976798 0.06862754375 0.483173728 0.8398214579
0.14302288 0.0550949797 0.6379476786 0.2052639425 0.4041099548 0.8722435236
0.1456915885 0.0606139414 0.6349108219 0.06839867681 0.410430789 0.8767385483
0.1767286211 0.03549383581 0.6474602818 0.03556385636 0.5370405316 0.8412339687
0.1764561534 0.04149115458 0.6442573071 0.01735066436 0.4367515743 0.8950964212
0.1844300181 0.04144255072 0.6457924843 -0.09706837684 0.3876038492 0.9080552459
0.1649596989 0.0324159041 0.6499912739 0.08884105086 0.5550322533 0.8268139958
0.1717229933 0.03822054341 0.6459209323 0.07649993896 0.5013716817 0.8575974107
0.1664040387 0.03997340053 0.6474337578 0.1420830786 0.467854172 0.8621938825
0.1362622827 0.07493860275 0.6313233376 -0.00413369108 0.2272965908 0.9201701283
0.145151034 0.07506345958 0.637239635 -0.1849444807 0.1723484397 0.911588192
0.1399486363 0.07683485001 0.6237328649 -0.1897455603 0.3899678886 0.8857098818
0.1292234361 0.07058513165 0.625092864 0.07695626467 0.4277842939 0.8745585084
0.1330309957 0.07535862923 0.6231944561 -0.06366129965 0.3941311538 0.9031059742
0.1459594369 0.0850975886 0.6359575391 -0.2723277509 0.05935611203 0.8730405569
0.1370283365 0.08699133992 0.6295096874 -0.06170545146 0.05589237437 0.9104213119
0.1305285245 0.08088769019 0.6259756088 0.07452681661 0.2050116062 0.9281900525
0.1390776485 0.08074822277 0.6319445968 -0.1204878837 0.1703048199 0.8935946226
0.1503061354 0.0805143863 0.6397984028 -0.3764284551 0.1252925098 0.8479905128
0.1557302773 0.08192565292 0.6431697607 -0.5058739185 0.08634570986 0.8309605718
0.1270395815 0.08158852905 0.6212986708 0.1820107996 0.2167526484 0.9558411837
0.1264835298 0.08746737242 0.620148778 0.1805865765 0.1151199043 0.9727374911
0.1207038164 0.08634372801 0.6221746802 0.2678813934 0.1418242604 0.9444460273
0.109259285 0.09502632916 0.6356229186 0.4436683059 -0.01338771451 0.8556571603
0.1129623428 0.08539935946 0.6294722557 0.3866226375 0.1434965134 0.8844991326
0.1145010889 0.08027693629 0.6273848414 0.3641831279 0.2202323526 0.8921026587
0.1114257425 0.09195011109 0.6309576631 0.407412827 0.05209806934 0.8825111389
0.1088302284 0.08719023317 0.6361891031 0.4668828249 0.09690693021 0.8258280158
0.1087207645 0.08027955145 0.6276918054 0.4894821346 0.2356950492 0.8335294127
0.1131587178 0.07276701182 0.6287438869 0.4063847065 0.3271212876 0.8507112265
0.1187596396 0.07515198737 0.6257336736 0.3069804907 0.2902733684 0.9040500522
0.1238457114 0.07739199698 0.6235771775 0.2325134128 0.2670990527 0.932707727
0.1756101549 0.07606446743 0.6404975057 -0.02954891138 -0.1998407543 0.9741362929
0.1782752424 0.06838949025 0.6420407295 -0.08534698933 -0.05866212025 0.9629175067
0.1848306358 0.07248798013 0.6452684999 -0.2483366281 -0.1122794598 0.9117301106
0.1879902035 0.0678852126 0.6472212672 -0.3163198531 -0.01759525016 0.8937520385
0.2003018111 0.06916189939 0.6568335891 -0.5688687563 0.07702053338 0.8033264875
0.1806050688 0.08046916127 0.6423397064 -0.1451040208 -0.234129414 0.9508331418
0.1933223605 0.08115295321 0.6533122659 -0.5217539072 -0.00373146357 0.840605855
0.1968120337 0.0749534443 0.6526582837 -0.5585586429 -0.04356419295 0.822866261
0.1904836446 0.08642534912 0.6512449384 -0.4941443205 -0.07346215844 0.8514960408
0.2007365078 0.07120534033 0.6491631866 -0.5387951136 -0.02094847709 0.8310520053
0.1941325963 0.07694019377 0.6467698812 -0.4877238274 -0.1300128698 0.8544854522
0.204069525 0.0760358721 0.6523922682 -0.5294074416 -0.04768457636 0.817322731
0.2103723884 0.07221508771 0.6553272605 -0.5772019029 0.04285115376 0.7919342518
0.2007014453 0.08042569458 0.6500372887 -0.484092921 -0.1319117397 0.8339908719
0.2159410715 0.07061618567 0.6571847796 -0.6002993584 0.09571648389 0.7741219997
0.195047155 0.08355302364 0.6471710205 -0.4338408411 -0.2085433304 0.861771524
0.2068140954 0.08174208552 0.6553413868 -0.5595735908 -0.08769135922 0.7856913805
0.2151643783 0.07555062324 0.6590852737 -0.5806476474 0.07285915315 0.7848798633
0.2026632726 0.07706470788 0.6584566236 -0.5613907576 -0.002198401839 0.8024119735
