# .PCD v0.7 - Point Cloud Data file format
VERSION 0.7
FIELDS x y z normal_x normal_y normal_z
SIZE 4 4 4 4 4 4
TYPE F F F F F F
COUNT 1 1 1 1 1 1
WIDTH 512
HEIGHT 1
VIEWPOINT 0 0 0 1 0 0 0
POINTS 512
DATA ascii
0.0276958365 -0.1761311591 1.198907971 0.3287597001 -0.06763570756 0.9416950941
0.02092666179 -0.1818824857 1.200331688 0.3474928737 -0.09861297905 0.9315347075
0.02660535835 -0.1840864867 1.200877309 0.3326311409 -0.07316875458 0.9392733574
-0.1373063922 -0.1411771625 1.076079607 -0.01217719261 0.1696359813 0.9849815369
-0.1416942179 -0.1439265907 1.076464653 -0.003802041989 0.1749481112 0.9844228625
-0.1446552575 -0.1358647197 1.074852824 0.00373921846 0.117618084 0.9929248691
-0.1468020678 -0.1415827274 1.075932384 0.007532861549 0.1384523958 0.9900991321
-0.007587327156 -0.222487241 1.202000022 -0.1498471797 -0.1875614822 0.9704815149
0.01186542306 -0.1968480647 1.202671528 0.3403797746 -0.1309735924 0.9298070669
0.01563997008 -0.2142223716 1.202161312 0.3043994009 -0.07571468502 0.9481522441
0.01007733401 -0.2062094957 1.202284098 0.2961884141 -0.08431004733 0.9487754107
-0.0541850552 -0.07788378745 1.075164437 -0.262493372 -0.3524538875 0.8975313902
-0.1438868344 -0.1295942664 1.074002028 0.07876581699 -0.007388578262 0.9882635474
-0.1385639757 -0.1328045577 1.074197173 0.01951144636 0.07687051594 0.9904981852
0.02628303319 -0.2049509585 1.192194104 0.2991517782 -0.06685180217 0.9516186118
0.03076767176 -0.1934026927 1.197858214 0.3178806603 -0.05075165257 0.9467634559
0.03089014068 -0.1891817153 1.194842339 0.3252375722 -0.06370051205 0.9433984756
0.01635483839 -0.2057646513 1.202418089 0.330722779 -0.1048958302 0.9364913702
0.02723962069 -0.1935236901 1.202134013 0.3228838146 -0.06321597099 0.9434501529
0.02180194668 -0.2089035064 1.202131629 0.316277802 -0.07088014483 0.9451963305
0.02098045871 -0.2013340443 1.202285409 0.3265154958 -0.08608801663 0.9398833513
0.02757441625 -0.2011747211 1.201952934 0.3133786917 -0.05052052066 0.9482380748
0.02562518604 -0.2058924139 1.200075865 0.3060531318 -0.05389066041 0.9503574371
0.02298805676 -0.2121449262 1.197206497 0.2952599823 -0.05854579434 0.9534927011
0.02263090387 -0.214886874 1.201624155 0.3066528738 -0.05778279528 0.9500135779
0.02835948765 -0.198883906 1.19628942 0.3093442619 -0.05374446511 0.949283421
0.02652544901 -0.1700887233 1.19569695 0.3351334631 -0.07916910946 0.9386063814
0.02324374765 -0.1744148135 1.195149422 0.3532048464 -0.1084571481 0.928584516
0.0298129674 -0.1735748351 1.191086292 0.3361886144 -0.08087915182 0.9380212426
0.0319744274 -0.1834338009 1.198463917 0.3228598535 -0.05707233399 0.9445958138
-0.0416649729 -0.2576335967 1.175501108 -0.1428664774 -0.563606739 0.8133826852
-0.03819544986 -0.2545852959 1.172379971 -0.1413778514 -0.5647013783 0.8128635287
0.000294357742 -0.2369455546 1.190930247 -0.04714614153 -0.4157164693 0.8944031
0.0106748268 -0.2292685062 1.197383404 0.135901168 -0.2307352573 0.9266064763
0.007426466793 -0.2289113402 1.189202428 0.05010025203 -0.3191149235 0.9105343223
0.006975605153 -0.2317032665 1.193755627 0.06981762499 -0.2983575463 0.9116169214
0.02047973871 -0.2197905928 1.197933674 0.2877643704 -0.07919250429 0.9496863484
0.01702980883 -0.2234431356 1.198060393 0.2389534414 -0.1280397177 0.9405595064
-0.0347709991 -0.2541861832 1.180326819 -0.1695739329 -0.5492492914 0.8180246353
-0.03439608216 -0.2489400655 1.182941198 -0.1628194749 -0.5501899719 0.8188333511
-0.03279043734 -0.2440935373 1.185131192 -0.1471938938 -0.5553229451 0.8184038997
0.02702983841 -0.200426057 1.189709306 0.3137792647 -0.05808932707 0.9475920796
-0.04672723636 -0.07727272809 1.074687362 -0.3485446274 -0.3375786245 0.8736570477
-0.02023334615 -0.08903154731 1.079800367 -0.4248272777 -0.1002423838 0.8954846263
-0.02465891466 -0.0934221521 1.077992678 -0.4335308075 -0.106786482 0.892850399
-0.01699528657 -0.08477091789 1.082330108 -0.4224599302 -0.08634902537 0.8972714543
-0.008437408134 -0.1038864031 1.088607311 -0.4757652283 -0.002845265903 0.8794151545
-0.007496625185 -0.09321898222 1.084844232 -0.4523116946 -0.005830357317 0.8916791677
0.00380655285 -0.2141394317 1.202000022 0.1937230229 -0.09821005911 0.9743805528
0.01437201537 -0.2208420932 1.202000022 0.2575241029 -0.09346296638 0.9590862393
0.01177728549 -0.2217642814 1.191695809 0.1719599664 -0.2067786306 0.9383952022
0.00630958518 -0.2251341641 1.194175005 0.149130404 -0.2385032624 0.9388865829
0.01807838306 -0.2169942111 1.189787507 0.2195802033 -0.1522720903 0.9435914159
0.0005020205863 -0.230537653 1.192550421 0.01206721645 -0.3297781646 0.922480166
0.001780224615 -0.2229192555 1.195725918 0.07524861395 -0.2159392536 0.9589416385
-0.01119402144 -0.2430555075 1.188863158 -0.1574973613 -0.4963065088 0.8520677686
-0.003856353229 -0.2394259274 1.193693876 -0.1036956906 -0.4313206971 0.8932086229
-0.02457340248 -0.2503205836 1.179874301 -0.1323848963 -0.5425504446 0.8290404677
-0.01607673615 -0.2449402362 1.180347085 -0.1665889621 -0.5556789041 0.8142484426
-0.01681935973 -0.2443140149 1.186197996 -0.1714953929 -0.540250659 0.8237676024
-0.02915492095 -0.2516795099 1.181528926 -0.1420657486 -0.5388656259 0.8299030662
-0.01644810662 -0.1150897443 1.089638352 -0.5039656758 0.06185727194 0.8598956466
-0.0206986852 -0.1173328906 1.083664179 -0.5243992209 0.06678269804 0.8472746015
0.005023864564 -0.201125443 1.20184195 0.2504173517 -0.1083792746 0.9582102299
-0.005971901584 -0.2156011909 1.202000022 -0.001120810979 -0.1437438577 0.9798672199
-0.1495435238 -0.1461585611 1.076907277 0.01295143366 0.1479903013 0.9888691306
-0.142863974 -0.15276362 1.076718688 -0.02368158102 0.1590532362 0.9858429432
-0.1346866935 -0.1739370376 1.079078436 -0.1122350469 0.2362350971 0.964032948
-0.05774442479 -0.2576307058 1.173102617 -0.1517439187 -0.5570785403 0.8164785504
-0.05667629838 -0.2574876249 1.167196631 -0.1517439187 -0.5570785403 0.8164785504
-0.06203047559 -0.2495455146 1.169701219 -0.1517439187 -0.5570785403 0.8164785504
-0.118844837 -0.1766942739 1.080499053 -0.1742975712 0.2997355163 0.9297341108
-0.1264530718 -0.1750153452 1.077789426 -0.118042618 0.2645711005 0.9546354413
-0.1161009297 -0.1801355928 1.084025025 -0.2012724727 0.3815782368 0.8952810764
-0.1264982224 -0.1792296469 1.081967831 -0.136432454 0.3676511049 0.9143058658
-0.006877345499 -0.2412614077 1.185826659 -0.14029181 -0.4789657295 0.8636812568
-0.00355069316 -0.2195710838 1.196779132 -0.02319789305 -0.1955141425 0.9750780463
-0.01254040562 -0.222223103 1.200218916 -0.1522504389 -0.2243766785 0.9577360749
-0.006175805815 -0.2234507352 1.194249272 -0.06467087567 -0.2592411041 0.9491469264
-0.009273634292 -0.2319315374 1.187206864 -0.1028657556 -0.3812943101 0.8920436502
-0.01109759137 -0.2280762345 1.191940308 -0.1365275234 -0.349326849 0.9135043621
-0.01224848907 -0.2400869876 1.180450201 -0.1396864206 -0.498706311 0.8371736407
-0.009188834578 -0.2360935956 1.184401393 -0.1088424921 -0.4352439642 0.8692166805
-0.004396080039 -0.2355315089 1.188397527 -0.08469109982 -0.4169283509 0.8913606405
-0.005939848255 -0.2281464934 1.190024853 -0.06035836414 -0.3150587976 0.9215038419
-0.016120838 -0.2336630672 1.190014005 -0.1823282391 -0.4410585165 0.8752293587
-0.01465698145 -0.2368892878 1.18509078 -0.1753299981 -0.4761816859 0.8545173407
0.0180848781 -0.1810956448 1.196105123 0.3544248939 -0.1166448891 0.9272267818
0.01103584468 -0.1933672726 1.198261261 0.3380748928 -0.1229559854 0.9326957464
-0.05284551904 -0.08219438791 1.069594741 -0.2644041181 -0.3464275599 0.896863699
-0.05771705881 -0.08411485702 1.067417383 -0.1848537922 -0.3540978432 0.9126517773
-0.05893692747 -0.08034790307 1.071614385 -0.1548781246 -0.3761482537 0.9065683484
-0.05942284688 -0.09148899466 1.064901352 -0.1654321253 -0.3400612772 0.9197829962
-0.06242485344 -0.08644620329 1.064293981 -0.07344969362 -0.35856089 0.9260674715
-0.04492017999 -0.1116738319 1.064026833 -0.4168493152 -0.1855151206 0.8869795799
-0.0709528029 -0.1094137281 1.061243176 0.1709464639 -0.2015756369 0.9596188068
-0.05036867782 -0.09187889099 1.0680902 -0.3466509879 -0.3134739101 0.8787041306
-0.07090676576 -0.09411289543 1.07169652 0.05267212912 -0.2931263447 0.8971093297
-0.08054315299 -0.09414035082 1.073990226 0.2351283878 -0.2940212786 0.890828371
-0.08179795742 -0.09192518145 1.079472423 0.2337899804 -0.3015570939 0.8744614124
-0.07253118604 -0.0921542868 1.076669812 0.06122219563 -0.2998421192 0.8822920322
-0.06272988766 -0.08729356527 1.076718926 -0.116918385 -0.3193013668 0.8951830864
-0.06721944362 -0.09012099355 1.076473951 -0.03675856814 -0.3078202009 0.8881355524
-0.05493000522 -0.08467625827 1.075781226 -0.2580972016 -0.3296850622 0.9053909183
-0.06002979726 -0.09361470491 1.07063663 -0.1600876153 -0.2929222882 0.8994213343
-0.07570829988 -0.0976767689 1.071383834 0.1598382145 -0.2698818445 0.8953653574
-0.08515603095 -0.09621282667 1.072597861 0.3376503885 -0.2835524082 0.8942803741
-0.03923975676 -0.08145271987 1.076425552 -0.370121628 -0.2928390205 0.880569458
-0.03420590237 -0.07815936208 1.078307986 -0.3679606915 -0.2594200075 0.8910114765
-0.04458509386 -0.08278860152 1.074452043 -0.3626523614 -0.3218554556 0.8744449615
-0.02147113159 -0.08252884448 1.083590746 -0.4052983522 -0.1012962386 0.9036227465
-0.02580883354 -0.07957607508 1.082801223 -0.3770713806 -0.1532226503 0.9087474346
-0.01071113814 -0.08697859198 1.084108233 -0.4267635047 -0.01516027376 0.9033275843
-0.008026218042 -0.09874074906 1.08823204 -0.460170418 0.003906485159 0.8875324726
-0.01732167974 -0.08282832801 1.087411523 -0.3842602074 -0.0210363213 0.9216469526
-0.01263346337 -0.09248046577 1.088648915 -0.4258187413 -0.006146196742 0.9027981758
-0.01659446955 -0.08764018118 1.089281797 -0.3973757625 -0.01401924808 0.9153752327
-0.04284784943 -0.1039111167 1.067270398 -0.4832354486 -0.211749956 0.8462944031
-0.03014295548 -0.1040025428 1.074566483 -0.4904928803 -0.02452177182 0.8653599024
-0.01814863086 -0.1042523906 1.081901312 -0.4822167158 0.01176438201 0.8757377863
-0.01537421346 -0.1110447273 1.086011648 -0.4814051986 0.01856325381 0.8761251569
-0.01628291793 -0.09381005913 1.08075428 -0.4533596337 -0.03961158916 0.8894301057
-0.01110513322 -0.09734509885 1.083396316 -0.4747104347 -0.005430707242 0.8799757957
-0.1289001107 -0.1284284443 1.073090434 0.04009751976 0.02638436854 0.9950288534
-0.1265664995 -0.133609429 1.074304581 0.004936939571 0.1548001915 0.9853025079
-0.1327017099 -0.1332394481 1.074016929 -0.002428288804 0.1084454507 0.9919248223
-0.1360795498 -0.1272565722 1.073357582 0.03579001501 -0.04190643132 0.9930824041
-0.1325335503 -0.1223457158 1.072399497 0.09062809497 -0.1060607582 0.9856932759
0.01395547204 -0.2155560702 1.193756938 0.2523076534 -0.1057127863 0.9602167606
0.009388916194 -0.2189391851 1.195976019 0.2356020212 -0.1401887983 0.9603009224
0.009640330449 -0.2263558209 1.201999903 0.1533398777 -0.1822800189 0.9636425376
0.004821123555 -0.2203343958 1.201999903 0.1693614125 -0.1536926925 0.9726620317
0.001723784371 -0.2315056026 1.202000022 -0.05893623456 -0.2364200801 0.9669039249
0.003827796318 -0.2265587896 1.201999903 0.09194193035 -0.201960668 0.9675502777
-0.001098325243 -0.2244214714 1.201999903 -0.008508042432 -0.193170175 0.9687869549
-0.003265645122 -0.2291939706 1.202000022 -0.1177017018 -0.2276113033 0.9622694254
-0.0005843337276 -0.2187195122 1.201999903 0.05734689534 -0.1681679785 0.9813075662
-0.02597791702 -0.1198833361 1.08330369 -0.5525354147 0.07039152831 0.8256518245
-0.03091086261 -0.1200358048 1.080262184 -0.5796352625 0.001875084476 0.807937026
-0.04112527147 -0.1191636026 1.073842287 -0.5602797866 -0.1314888149 0.8159343004
-0.04087293893 -0.1085506901 1.071771979 -0.5482185483 -0.1815980524 0.8145672083
-0.1402777731 -0.1511320919 1.082194209 -0.02657152154 0.167338267 0.9849210978
-0.1352584511 -0.1583746672 1.076923847 -0.05781347305 0.1755077392 0.981932044
-0.1371708363 -0.1493878067 1.07686162 -0.02840140276 0.1826189756 0.9821035266
-0.1443258673 -0.1590294987 1.078771114 -0.0488842167 0.1785780489 0.9797531366
-0.1433539689 -0.164586544 1.081559181 -0.08576611429 0.1987016499 0.973744452
-0.139279902 -0.1690199375 1.079906464 -0.09815425426 0.202007398 0.9729126692
-0.1397697628 -0.1614255607 1.077630639 -0.05881224945 0.1686698496 0.9821187854
-0.1373454183 -0.1744625121 1.086197495 -0.1373759359 0.2603739202 0.9508142471
-0.1270528883 -0.1812717915 1.08724165 -0.155689016 0.3644460738 0.9108908772
-0.122476466 -0.1849991083 1.090917468 -0.1732399762 0.4255088568 0.8863995671
-0.1315376908 -0.1785370559 1.086010098 -0.1446570307 0.2954981029 0.9365929961
-0.02717280947 -0.2477436513 1.174953938 -0.1602513641 -0.5620574355 0.8113507032
-0.03782506287 -0.2477887124 1.176742077 -0.1520822495 -0.557276547 0.8162746429
-0.02970493026 -0.2525856793 1.174842477 -0.1277512461 -0.5756482482 0.807444036
-0.1342127472 -0.1513770372 1.081547856 -0.02121993713 0.1630568355 0.9855997562
-0.1292793602 -0.1529385298 1.082305312 -0.01884808764 0.137110576 0.9895581007
-0.1122371256 -0.1577346325 1.087233901 -0.1217890158 0.1976791918 0.9650714397
-0.1189765707 -0.1686632782 1.087569952 -0.1751735359 0.2808437645 0.9255844951
-0.1134846136 -0.1672359407 1.088817477 -0.1972031444 0.2909480631 0.9249587059
-0.1084298119 -0.1629694104 1.089365005 -0.1916038543 0.2694993615 0.9373351336
-0.1187323853 -0.1592655331 1.0857265 -0.0943576321 0.1840922832 0.9665009975
-0.02115909755 -0.248203814 1.185513616 -0.1341100633 -0.5133216381 0.8470889926
-0.02727042697 -0.2437119484 1.186116219 -0.1367527992 -0.5501672029 0.8236761093
-0.0397278294 -0.2403019667 1.185160875 -0.1494763494 -0.5552224517 0.8180983663
-0.02530856058 -0.241342634 1.181688547 -0.1511009336 -0.5476124287 0.8224767447
-0.0294047147 -0.244333744 1.179195046 -0.1533933282 -0.5537883043 0.8181111217
-0.02199301124 -0.244994238 1.177543521 -0.1620972604 -0.5620840192 0.8108884692
0.02599058487 -0.1848319024 1.192497253 0.3309033513 -0.07242105901 0.9408631921
0.0310416501 -0.1783398241 1.189327836 0.3299155831 -0.07095072418 0.9413029552
0.02989142202 -0.1865083277 1.189847112 0.3260652721 -0.06521953642 0.9430170655
0.02844564989 -0.1926484108 1.189011812 0.3218905032 -0.05900533497 0.9448756576
0.02328027226 -0.1797477305 1.194136262 0.349072814 -0.1017604396 0.9308760166
0.01812877506 -0.1897968948 1.202010393 0.3540405631 -0.1093307137 0.9277052283
0.02127499506 -0.2029952705 1.189487934 0.3057876825 -0.07105853409 0.9490951896
0.01333218068 -0.1970854104 1.194912076 0.3189036548 -0.09808921814 0.94229877
0.01764832251 -0.2000273466 1.19203496 0.3121573329 -0.08325195312 0.9458834529
0.0175107792 -0.1940014362 1.193674684 0.3207570016 -0.08045066893 0.9433810115
-0.08878776431 -0.09469731897 1.078386784 0.3844019473 -0.2866421044 0.8765487075
-0.06867329031 -0.08247359842 1.077943444 -0.005771728698 -0.3615394235 0.8931202888
-0.08203557879 -0.08653402328 1.073359251 0.2325916141 -0.3851292431 0.8754065037
-0.07865002751 -0.08647096157 1.081377745 0.1758323908 -0.3294346035 0.879732132
-0.07423114032 -0.08397261798 1.074281812 0.09454267472 -0.3850690424 0.8856832981
-0.05907069519 -0.07929024845 1.078172326 -0.1725946963 -0.3696967661 0.9056010842
-0.06511896849 -0.08117615432 1.073437572 -0.05062230304 -0.4069814384 0.8968293667
-0.08308950812 -0.1122287884 1.064308763 0.3210621476 -0.1762449294 0.9295537472
-0.07620240748 -0.1106061116 1.061637759 0.2511754036 -0.167131722 0.9531156421
-0.08855319023 -0.08913256228 1.069069386 0.37015751 -0.2881812751 0.8816659451
-0.07914528251 -0.09833362699 1.065372229 0.3027533889 -0.2669122517 0.9122911096
-0.08500915021 -0.09590237588 1.067495584 0.3544300497 -0.2643656135 0.894548893
-0.07634793222 -0.1044061705 1.063352823 0.2598980963 -0.1927724183 0.945024848
-0.07687057555 -0.09041339904 1.064911604 0.2413886487 -0.341721952 0.9067077637
-0.07019589841 -0.08356663585 1.067873597 0.08335851133 -0.3983189464 0.8991219997
-0.07864899188 -0.08595845848 1.06829071 0.2006397396 -0.3930330873 0.8873473406
-0.07380991429 -0.1002011672 1.063364148 0.2035539746 -0.2402090877 0.9412478209
-0.06524249166 -0.1010326445 1.062355995 0.03471167386 -0.2844807506 0.9559055567
-0.07182841003 -0.09199144691 1.063799977 0.1401533484 -0.3356205225 0.9222162962
-0.07388669252 -0.08643134683 1.064077497 0.1727743 -0.3798777163 0.9047789574
-0.06636865437 -0.09021370113 1.063441873 0.009377009235 -0.3498830795 0.933475852
-0.05902336538 -0.09675581753 1.06468749 -0.1964253485 -0.32044819 0.9170665741
-0.06500518322 -0.09563563019 1.062986493 -0.02813792974 -0.3244926035 0.944073379
-0.05418289453 -0.09995791316 1.065411687 -0.3253044188 -0.2956753969 0.896291554
-0.05887050554 -0.1116315722 1.070090055 -0.2135696262 -0.2018362135 0.868984282
-0.06691972911 -0.1086065918 1.069959283 -0.03916321695 -0.2165299952 0.8790026307
-0.06156645715 -0.1071636826 1.067663193 -0.1661177278 -0.2368103713 0.8895520568
-0.04952460155 -0.1136292964 1.069197059 -0.4208779037 -0.1979505867 0.8648979068
-0.07490638644 -0.1061558947 1.070209503 0.1356352568 -0.2263183594 0.8861989975
-0.06774115562 -0.09955337644 1.069611549 -0.005477612372 -0.2628623843 0.8977815509
-0.06254452467 -0.09971734881 1.06843102 -0.1239888892 -0.26910761 0.9003666639
-0.07888445258 -0.1029768586 1.07006669 0.2247833312 -0.2422903329 0.8946326971
-0.0520394966 -0.1052046046 1.067270994 -0.3650445044 -0.2496560812 0.890460372
-0.04984426126 -0.1004258692 1.070672035 -0.3750134408 -0.2547539771 0.8828905821
-0.04733388498 -0.1072275713 1.071488976 -0.4347854853 -0.2158673555 0.8631598353
-0.02943249419 -0.1106589809 1.075599432 -0.5412825942 -0.007601439487 0.835777998
-0.03598503768 -0.1086526141 1.069935918 -0.4444525838 -0.07902720571 0.8849418759
-0.04035533965 -0.1106474176 1.06716609 -0.4279608428 -0.1274791956 0.8892070055
-0.03893454745 -0.117304638 1.06637609 -0.4378199875 -0.09838601947 0.8736860752
-0.04782902449 -0.1205343977 1.055541158 -0.3223749101 -0.2004612535 0.9214545488
-0.03282973543 -0.1169646457 1.072731853 -0.5232296586 -0.005849228241 0.8393784165
-0.04274291918 -0.1198243648 1.062052727 -0.4054298401 -0.1357660294 0.88590765
-0.05253054202 -0.121808134 1.06127727 -0.2990023494 -0.211853072 0.9187054038
-0.04547855258 -0.1212655157 1.06637454 -0.4556175768 -0.1667050868 0.8649516702
-0.129102692 -0.1706994772 1.077000022 -0.1007009298 0.2106547505 0.9716088772
-0.1323420256 -0.1631984115 1.077000022 -0.0782243982 0.1784411073 0.9802128077
-0.03931104764 -0.09201220423 1.074277163 -0.3892593384 -0.2526860535 0.8830804825
-0.04118395224 -0.08663235605 1.075223088 -0.3715852797 -0.2968183458 0.8794084787
-0.04421573877 -0.09910728037 1.06928885 -0.4306383431 -0.2524574995 0.8635678291
-0.03870972618 -0.1016668305 1.069861889 -0.4684760571 -0.1891089231 0.8592013121
-0.03284762055 -0.09788679332 1.074077368 -0.4396629333 -0.1544210017 0.8803478479
-0.040282581 -0.09769999236 1.073158145 -0.4508074224 -0.2128971666 0.8626559377
-0.04636284336 -0.09109835327 1.071178436 -0.3847132325 -0.3030825257 0.8713068366
-0.04667074233 -0.08884257078 1.076171994 -0.3390595913 -0.2732900083 0.8911587596
-0.04951813817 -0.08375773579 1.079314232 -0.288181603 -0.289304018 0.9019137621
-0.02751318365 -0.08989495039 1.082944155 -0.4062572122 -0.08781787008 0.9075949788
-0.02380323038 -0.08130326867 1.088670373 -0.3611191213 -0.03889458999 0.9307299852
-0.03612864017 -0.1122954935 1.076222062 -0.5532263517 -0.09679762274 0.8229042888
-0.03554979712 -0.106167987 1.075391531 -0.5154985785 -0.1010652333 0.8476080298
-0.03627071157 -0.1191025302 1.077318192 -0.5934022069 -0.08445423841 0.7974441051
-0.02696912363 -0.1138544753 1.082041144 -0.53768152 0.04079544172 0.8334149122
-0.03192277253 -0.1027598977 1.079746723 -0.477878809 -0.09445469826 0.8642029166
-0.03199066594 -0.113882497 1.079535961 -0.5496914983 -0.04066580161 0.8240828514
0.003229910973 -0.2137605846 1.197000146 0.1523983926 -0.09872659296 0.9729346633
0.005269750021 -0.2082880735 1.197000265 0.2457424998 -0.0621002838 0.9607025385
-0.0001332789252 -0.2105308473 1.200460434 0.1446383446 -0.0952424407 0.9806119204
0.0120035829 -0.2038456351 1.194209456 0.302832216 -0.05767610297 0.9509092569
0.008491586894 -0.2009322792 1.196527719 0.3118672371 -0.08838031441 0.9452353716
0.01949926838 -0.2111549675 1.190905333 0.2739192247 -0.07144451886 0.9586102366
0.02386190929 -0.2082805634 1.188471675 0.2921047211 -0.07031006366 0.9536297321
0.009077336639 -0.2129635513 1.195837855 0.2394520789 -0.05609026924 0.9689974189
-0.101905331 -0.1778564155 1.0868119 -0.3035359681 0.3848971128 0.8715256453
-0.09822130948 -0.1729953289 1.087762356 -0.2701178193 0.3742335439 0.8867841363
-0.1483956426 -0.1506246924 1.079054952 -0.01407570858 0.1602141112 0.985135138
-0.1458511055 -0.1547595859 1.082236171 -0.04263623804 0.1674189121 0.9829198718
-0.1287715286 -0.1739197522 1.090064526 -0.1850272119 0.318236649 0.9206255078
-0.1175778285 -0.1797802299 1.091259599 -0.2547462881 0.3953590095 0.8817641735
-0.137454614 -0.1688035578 1.088797331 -0.1335052401 0.254902482 0.9515370727
-0.1267579794 -0.1820489913 1.093653083 -0.1703078449 0.3715603948 0.9050377607
-0.1415958852 -0.1693253517 1.08498776 -0.1220738813 0.2188886553 0.9676539302
-0.1223935857 -0.1865723729 1.095755935 -0.1858375221 0.416865319 0.8865523934
-0.1340936124 -0.1741164327 1.090306759 -0.1436389089 0.2952438593 0.9361364841
-0.1281021088 -0.1601535082 1.084991217 -0.07380616665 0.1706828475 0.973520875
-0.1395216435 -0.1645725369 1.087005734 -0.1179818958 0.215149954 0.9663491845
-0.1320829988 -0.1641460657 1.08646965 -0.1156604439 0.2149562687 0.9601294398
-0.1193941087 -0.174237445 1.088979363 -0.2284212112 0.3415720165 0.9014655352
-0.1262468845 -0.165645346 1.086629391 -0.1336241215 0.2363226116 0.9471040964
-0.1301616579 -0.1694945097 1.088058829 -0.1739517599 0.2789563537 0.9342774153
-0.1053918228 -0.1878977567 1.098957062 -0.2763105929 0.4071112573 0.8701138496
-0.1024954244 -0.1781145036 1.095234156 -0.2459036112 0.3693175614 0.8939005733
-0.1054484323 -0.1843738705 1.090940714 -0.2987545431 0.3830507696 0.8740495443
-0.1270071417 -0.1624223292 1.077000022 -0.08776385337 0.2025722861 0.9743269682
-0.1312687248 -0.1500052363 1.076999903 -0.0415622443 0.2082229555 0.9758865833
-0.1300331503 -0.156463623 1.077000022 -0.0641258657 0.1998043805 0.9764220715
-0.1293702722 -0.1417278051 1.07681942 -0.01982125826 0.2319680154 0.9715087414
-0.1360184699 -0.1117883921 1.096144676 0.2530875802 -0.323132813 0.8558816314
-0.1349517554 -0.1215429455 1.090539098 0.1773282439 -0.174058795 0.8894408941
-0.1369170249 -0.1030199379 1.100984931 0.3217355907 -0.4582135975 0.8254724741
-0.1373996586 -0.1261990815 1.089944124 0.1364976615 -0.1025872305 0.9096870422
-0.1422158778 -0.1351990551 1.085443497 0.06730772555 0.01220546011 0.9455336332
-0.1350371689 -0.1436664164 1.081062675 -0.00271567679 0.1744130403 0.9706084728
-0.1382577568 -0.1324982792 1.086762667 0.08701316267 -0.0106096603 0.9329202771
-0.1373849362 -0.1383415014 1.083790541 0.04040846229 0.08243510872 0.9532389045
-0.1418267488 -0.1237575933 1.085762739 0.1243651211 -0.1021051332 0.9279222488
-0.143470332 -0.1322553158 1.080342412 0.05090965331 0.03177905083 0.9645401239
-0.1438589692 -0.1419328004 1.08175683 0.01292129513 0.1102997363 0.9721831083
-0.1401084363 -0.119348228 1.093002915 0.1891278923 -0.2147296667 0.8890469074
-0.1346951276 -0.1051511094 1.092994094 0.3232903779 -0.4637835026 0.8244329095
-0.1342488974 -0.1087033451 1.085767746 0.2949898839 -0.4418364465 0.8381491899
-0.1386434585 -0.1121599004 1.087211967 0.2563767135 -0.3304504156 0.8840013742
-0.1414883733 -0.1174079031 1.084939599 0.1970957667 -0.2209342569 0.9218379259
-0.1433401704 -0.1273509264 1.079145193 0.08761160076 -0.03191457316 0.9625650644
-0.1428370029 -0.122288011 1.076081991 0.1657149047 -0.1582088023 0.9623311758
-0.1399903595 -0.116184175 1.078696132 0.1868780106 -0.2579926848 0.9312602282
-0.1219640151 -0.1255939305 1.07193315 0.09331404418 -0.001154500293 0.9901093245
-0.1046824008 -0.1217029393 1.067752719 0.2519799471 -0.02803136967 0.9626958966
-0.1176103726 -0.1289864331 1.07185173 0.09967897832 0.08763904124 0.9763919115
-0.1240111664 -0.1691866368 1.078146696 -0.1302099973 0.2199163139 0.9619133472
-0.1154485717 -0.1715561748 1.081895828 -0.2079728544 0.2990813851 0.9199268818
-0.1106933057 -0.1746070832 1.083982468 -0.2502759099 0.3517240286 0.8948482871
-0.105984956 -0.1811307818 1.086553693 -0.2735863626 0.3955443799 0.8741320372
-0.1112996861 -0.1827841699 1.087754369 -0.2473005056 0.4016132951 0.878542304
-0.1151503474 -0.1832068712 1.095287085 -0.2680657208 0.397418201 0.8773639202
-0.1109497026 -0.1923158616 1.10326004 -0.2693527341 0.417101413 0.8679814935
-0.1165939718 -0.1851300597 1.089030981 -0.214955166 0.417991966 0.8802895546
-0.1137717739 -0.1905590147 1.094677091 -0.2472383231 0.4209784269 0.8725336194
-0.1105133668 -0.1869775057 1.092158914 -0.2662200928 0.4025695622 0.8746137023
-0.1213857308 -0.1823404878 1.085342526 -0.172079578 0.4271858335 0.886256516
0.00104163785 -0.2362156957 1.196555972 -0.04078415781 -0.3961031139 0.9157419801
-0.006645257585 -0.2353527397 1.19857955 -0.1478475779 -0.3332804441 0.9234214425
-0.02163355425 -0.2313345075 1.19393301 -0.1741597056 -0.4422318041 0.8747191429
-0.01297682244 -0.2394708544 1.193336606 -0.1584265083 -0.4661627114 0.8700302243
-0.02108865045 -0.2427347451 1.189127445 -0.1465228349 -0.5241612792 0.8377615213
-0.01204476785 -0.2328552604 1.197394252 -0.1594715118 -0.3625989556 0.9103096724
-0.01777985878 -0.227514863 1.197637677 -0.1647680998 -0.3346259594 0.9144437909
-0.008514070883 -0.2295730263 1.200649142 -0.1511569917 -0.267937243 0.9460075498
0.02049766295 -0.1859778166 1.194625616 0.3314568996 -0.07324499637 0.9406167865
0.02257523686 -0.1916101724 1.19247818 0.3259610236 -0.06506433338 0.9430634975
-0.08806014061 -0.08828293532 1.074436307 0.3310256898 -0.3582591116 0.8692582846
-0.0575967133 -0.1223220825 1.0609442 -0.200141415 -0.2294999212 0.9451174736
-0.06296541542 -0.1060135663 1.061778903 -0.0005206522765 -0.2552358508 0.9548217654
-0.04841209948 -0.1146129593 1.058437347 -0.3714593351 -0.2266729772 0.89531672
-0.05223722756 -0.1097209603 1.061139703 -0.3364576697 -0.2492479831 0.9059386849
-0.09336549789 -0.08946380019 1.07621491 0.400976181 -0.2886282504 0.8691541553
-0.08818092942 -0.1118540317 1.066052675 0.3355987668 -0.1611058116 0.9239988327
-0.1141586155 -0.1005682796 1.078685164 0.3178549707 -0.4504707754 0.8225445151
-0.1191218272 -0.1053685769 1.07820785 0.2706476748 -0.4381041825 0.8509382606
-0.1086117551 -0.09865625203 1.076621056 0.334944725 -0.396440804 0.8458355069
-0.03355772048 -0.08884520084 1.080102563 -0.3845618963 -0.2023918629 0.8965632915
-0.0433319509 -0.08298479021 1.080106974 -0.3068101406 -0.2890816927 0.9003943801
-0.03583299741 -0.08260552585 1.081559658 -0.3363361061 -0.2501052022 0.9011821151
-0.03405342996 -0.07979438454 1.085781693 -0.3145617843 -0.1547997892 0.9222047925
-0.0542320013 -0.07860702276 1.080310822 -0.231012851 -0.3413819671 0.9084668756
-0.03957395628 -0.07893786579 1.084857702 -0.2870092094 -0.1941293776 0.9214550257
-0.02838627622 -0.08514411002 1.084263921 -0.3753436506 -0.1243664995 0.9127860665
-0.02869900502 -0.08348850906 1.079032063 -0.3915318251 -0.1951330304 0.896959722
-0.03040140495 -0.0919379741 1.077143312 -0.4152052104 -0.1728767902 0.8880670667
-0.02931610681 -0.09631989151 1.080818415 -0.4286004305 -0.09693422914 0.8946220279
-0.02687193453 -0.1050408557 1.08222127 -0.4805904031 -0.001217574929 0.8653709292
-0.02108925581 -0.1108332425 1.082196951 -0.4902403653 0.02797983959 0.8708836436
-0.02192480303 -0.09853542596 1.07906425 -0.4697464406 -0.02382298373 0.8809803128
-0.01521399897 -0.1056883037 1.088686109 -0.4721806347 0.02875846252 0.8807563186
-0.02291892469 -0.09692806751 1.084226131 -0.441455245 -0.06360264122 0.8926950097
-0.00935954228 -0.1100276411 1.093331695 -0.4828435481 0.01544940099 0.8755348325
-0.02246823348 -0.08813170344 1.086789608 -0.3999367058 -0.03801899776 0.9138299227
-0.01711245812 -0.09554187208 1.089336514 -0.4323267341 -0.01246329583 0.899312675
-0.1379092038 -0.1568631679 1.08364141 -0.04451708123 0.1525640488 0.986074388
-0.04368124157 -0.2554847896 1.170360208 -0.1517439187 -0.5570785403 0.8164785504
-0.04436608404 -0.2526358068 1.179957271 -0.1608650684 -0.5526941419 0.817604959
-0.04313310608 -0.2479494512 1.176249862 -0.1517439187 -0.5570785403 0.8164785504
-0.05671815202 -0.2517407835 1.168319702 -0.1517439187 -0.5570785403 0.8164785504
-0.04768250883 -0.2505069673 1.171822071 -0.1517439187 -0.5570785403 0.8164785504
-0.05206158012 -0.2481340915 1.173417807 -0.1517439187 -0.5570785403 0.8164785504
-0.04321484268 -0.2431385964 1.18137145 -0.1517012566 -0.557007134 0.8165329695
-0.04972018674 -0.2457262278 1.178015471 -0.1517439187 -0.5570785403 0.8164785504
-0.04104995355 -0.2491663694 1.181554556 -0.1647938341 -0.5508056283 0.8180900812
-0.1256128997 -0.1033245102 1.084350705 0.3173370957 -0.5336567163 0.7806783915
-0.1296459734 -0.1027569547 1.088910818 0.3528596461 -0.5230723619 0.7749555707
-0.1211124063 -0.09967105836 1.087359667 0.3708869517 -0.5356526375 0.7581608295
-0.1293284744 -0.1010229439 1.095820189 0.3476141691 -0.4901231229 0.7975906134
-0.123876825 -0.1000780612 1.092254996 0.3612101972 -0.503367722 0.7831521034
-0.09808576107 -0.09427265823 1.085028052 0.3866257668 -0.3673180938 0.8371682763
-0.09187620133 -0.09117585421 1.083168626 0.4036558867 -0.3063285947 0.861471951
-0.1156291142 -0.09870456159 1.084102035 0.3651778102 -0.5182566643 0.7680020928
-0.1020788178 -0.09481760859 1.078619719 0.3785046339 -0.3518199027 0.8498741984
-0.09737554193 -0.0915139541 1.080708265 0.4064933062 -0.3209095597 0.8500081897
-0.1068064496 -0.09607665986 1.081361175 0.3811383545 -0.4131051302 0.8174212575
-0.1140537784 -0.1644082069 1.080330491 -0.1744958907 0.2862651348 0.9327027202
-0.119889766 -0.1658919603 1.078701973 -0.1412254125 0.2414781451 0.9533673525
-0.1137730926 -0.1583417803 1.078582525 -0.1371408105 0.2721473277 0.9469724894
-0.1194537207 -0.1559286118 1.077000022 -0.09189283103 0.2385663241 0.9655824304
-0.1251479238 -0.1470610201 1.077000022 -0.0414217785 0.2491584718 0.9665092826
-0.1250651032 -0.1523680091 1.077000022 -0.05945922062 0.235623613 0.9684816599
-0.1125774235 -0.1507696956 1.077000022 -0.09981742501 0.2667790651 0.9583777785
-0.1196203753 -0.1507780403 1.077000022 -0.07407124341 0.2515155375 0.9637337923
-0.1090803146 -0.1186537221 1.069395185 0.2470567077 -0.1541824043 0.9441870451
-0.1213116124 -0.1168587357 1.072284579 0.1945235282 -0.3038173616 0.920386672
-0.1172872409 -0.1197314709 1.070975065 0.1882222891 -0.1720725149 0.9480273128
-0.1142367125 -0.1244084612 1.084191084 0.1442157328 -0.03859826177 0.863922596
-0.1165873706 -0.1374213398 1.080290794 0.04060775414 0.2385237068 0.9571108222
-0.1179944724 -0.1309589446 1.08215189 0.100038223 0.07468493283 0.9223373532
-0.1129113734 -0.1323222667 1.081900239 0.07267009467 0.1579870731 0.9082837105
-0.1130914241 -0.1188593879 1.080408454 0.184837684 -0.1407415122 0.908447206
-0.115787752 -0.1136441231 1.085053444 0.2394591123 -0.2973839641 0.8376813531
-0.125594005 -0.1424982697 1.080058694 0.004121867474 0.2227378488 0.9742130041
-0.1228758544 -0.1248203292 1.084951282 0.1542512774 -0.05425411835 0.9031372666
-0.1245885938 -0.114225015 1.088400841 0.2454173416 -0.2957833707 0.8427956104
-0.131622076 -0.1088419408 1.091681719 0.2909277678 -0.3867444992 0.836656034
-0.1243427992 -0.1192922741 1.08689332 0.201741606 -0.1773172915 0.8739349842
-0.1216494814 -0.1084178165 1.089329958 0.2958926857 -0.4481402636 0.7942968011
-0.130492717 -0.1386329532 1.081855059 0.03920444101 0.1264034808 0.9545757771
-0.1295036674 -0.132380262 1.083738565 0.09158644825 0.03459767625 0.9329242706
-0.1322250515 -0.1155107841 1.089701891 0.2344288826 -0.2661072612 0.8669448495
-0.1297739893 -0.1261220276 1.085829973 0.1443699151 -0.06968604773 0.9094848037
-0.1238875315 -0.135560289 1.081779838 0.06322214007 0.1414803863 0.9525243044
-0.123542361 -0.1300909072 1.083512545 0.1091884822 0.05606080219 0.9328554273
-0.1108487248 -0.1267766505 1.070491672 0.1690334827 0.06270439178 0.9676232934
-0.1165804192 -0.1338354349 1.075203061 0.08157462627 0.2005622834 0.9719577432
-0.1198596433 -0.1103134602 1.075711846 0.2291891128 -0.3795231879 0.8944862485
-0.1287525743 -0.1160795763 1.073101163 0.1730227172 -0.3372918367 0.921613574
-0.1342232376 -0.1149745435 1.073906302 0.1657578796 -0.289349556 0.9344542027
-0.1311840117 -0.1096582115 1.081520081 0.2719910443 -0.4312244654 0.8511882424
-0.128726989 -0.1109639704 1.077078938 0.2218377888 -0.381105572 0.8882799149
-0.1353479773 -0.112374559 1.07953465 0.2347939014 -0.367598474 0.8822501302
-0.1138032824 -0.1742411107 1.090000033 -0.253465116 0.3606043458 0.8954380155
-0.1090992317 -0.1744049489 1.092971683 -0.2435015738 0.3486841321 0.9024560452
-0.1111976951 -0.1849191785 1.099307775 -0.2620845437 0.3899378479 0.8810442686
-0.1106835157 -0.1803395301 1.096266747 -0.2550315261 0.3732738495 0.8896651268
-0.1029675975 -0.1685029417 1.09229207 -0.2216063142 0.3114417493 0.9221039414
-0.1060770825 -0.181708172 1.098095775 -0.2504867017 0.3710462451 0.891041398
-0.02577854879 -0.2341608703 1.191712141 -0.1674051732 -0.494604826 0.8524484634
-0.03082222119 -0.2365872711 1.18836236 -0.1488892883 -0.5151100755 0.8435667753
-0.02091398835 -0.238747865 1.185488939 -0.1584375054 -0.5447668433 0.8228338957
-0.05775968358 -0.1167426035 1.056547284 -0.1148235798 -0.2308308184 0.9565765858
-0.06303064525 -0.1140818819 1.058626175 -0.008748460561 -0.2231987864 0.9696094394
-0.06770221889 -0.1178565398 1.059135199 0.08392011374 -0.1950250715 0.9696659446
-0.06250072271 -0.1219116971 1.057458282 -0.01442141831 -0.2013521045 0.9525423646
-0.0732626766 -0.117289871 1.059938431 0.2054579854 -0.1661749035 0.9595015049
-0.05523179471 -0.1214211062 1.055523038 -0.178181529 -0.2254466563 0.9527475834
-0.08989183605 -0.1213621572 1.064708591 0.3319156766 -0.1007010788 0.9364139438
-0.08628874272 -0.1171369627 1.064120412 0.3184790313 -0.1380759627 0.9367007017
-0.09731391072 -0.12089324 1.06613946 0.3074980974 -0.06583316624 0.9476334453
-0.0791566819 -0.108829543 1.071623683 0.2181940228 -0.2188857794 0.8814538717
-0.07175799459 -0.1113977432 1.071907043 0.0620964244 -0.202577576 0.8709229231
-0.05563193187 -0.1164949611 1.072508931 -0.2745222747 -0.1664416492 0.8479317427
-0.05976515263 -0.1213540807 1.066065073 -0.1406421363 -0.1845064014 0.919229269
-0.08611632138 -0.1139749736 1.071290374 0.3148401976 -0.2432257384 0.8950009942
-0.06688374281 -0.1177830175 1.070956111 -0.0563287735 -0.1976773143 0.8772222996
-0.061243359 -0.1190780774 1.070464969 -0.1608059406 -0.1846233606 0.8760151863
-0.07554121315 -0.117847912 1.067182899 0.1544286907 -0.2212161422 0.9252147675
-0.08072752506 -0.1148826033 1.071548223 0.2069297135 -0.2301915884 0.8864376545
-0.06576302648 -0.1205129176 1.065405369 -0.01638478227 -0.1993021667 0.9325603843
-0.04861177504 -0.1213114858 1.07083571 -0.4111531377 -0.1542514116 0.8583225608
-0.07226534933 -0.1219329834 1.061769009 0.1758445799 -0.1849523932 0.9570907354
-0.08126236498 -0.1182603389 1.065961838 0.3030306995 -0.2051149309 0.9254615307
-0.04878456146 -0.2560541928 1.168750048 -0.1517439187 -0.5570785403 0.8164785504
-0.05220953375 -0.2588435113 1.171731234 -0.1517439187 -0.5570785403 0.8164785504
-0.06447748095 -0.2537837923 1.173243761 -0.1517439187 -0.5570785403 0.8164785504
-0.05051975697 -0.2525445521 1.178842306 -0.1517439187 -0.5570785403 0.8164785504
-0.04969847202 -0.2577564716 1.177398205 -0.1517439187 -0.5570785403 0.8164785504
-0.05437478051 -0.2483557314 1.178640604 -0.1517439187 -0.5570785403 0.8164785504
-0.05949164927 -0.2486533225 1.176611304 -0.1517439187 -0.5570785403 0.8164785504
-0.1082885861 -0.1109100878 1.072518945 0.2674552798 -0.2607367635 0.9206321836
-0.1014672294 -0.1171165183 1.068106413 0.2934142351 -0.09280508757 0.9450547099
-0.09639494121 -0.1093660519 1.069345593 0.3307480514 -0.1997004896 0.9143455029
-0.09426464885 -0.1139960811 1.06708765 0.3194928169 -0.1292774826 0.9324416518
-0.0848948136 -0.1073156372 1.066686034 0.3623718321 -0.2150568366 0.9057308435
-0.1018916667 -0.112049289 1.070016623 0.3098148108 -0.1674518585 0.9251577258
-0.112649098 -0.1049071029 1.075633764 0.2875364423 -0.3687282801 0.8815166354
-0.1153003424 -0.1136757806 1.073788881 0.2132368982 -0.3016403615 0.9274809361
-0.1070394963 -0.1058355346 1.073840857 0.3001379669 -0.3137288392 0.8978782892
-0.09066836536 -0.09380977601 1.069604754 0.3777484 -0.2765034735 0.8827610016
-0.09638762474 -0.09929315001 1.071496964 0.3579146564 -0.2904324532 0.8865220547
-0.08622959256 -0.1021937802 1.06760478 0.3703621328 -0.2398379147 0.8964447975
-0.1012259051 -0.1010997295 1.073216796 0.3462401628 -0.3080091774 0.8859835863
-0.091380395 -0.1006626636 1.069580913 0.3641591072 -0.2656160891 0.8913341165
-0.09693887085 -0.0930589214 1.072015643 0.3672545254 -0.3087703586 0.876891613
-0.1159441471 -0.1537351608 1.085178733 -0.06976208836 0.1748421639 0.9757301211
-0.113687247 -0.1484670639 1.08424139 -0.05328060687 0.2174802721 0.9677968025
-0.1218515858 -0.1482652873 1.081998229 0.002448775573 0.1635158211 0.9836886525
-0.1219960377 -0.154135704 1.083677053 -0.03174709529 0.1319761425 0.9878758788
-0.1089013144 -0.153892383 1.08710885 -0.1177353263 0.2214813679 0.9620100856
-0.1084420606 -0.1417309642 1.081386209 -0.02232223563 0.3362995386 0.9380890131
-0.1080842242 -0.159755826 1.082444906 -0.192425549 0.2557678223 0.9442000389
-0.1070869416 -0.1659133136 1.083474159 -0.2361154854 0.3388848603 0.9032332897
-0.1029184386 -0.1693584919 1.086425066 -0.2654749155 0.320197612 0.9061979651
-0.1070833504 -0.1106106192 1.079299927 0.3196365237 -0.3436090648 0.8719422817
-0.1147556677 -0.1092857271 1.082137704 0.281147182 -0.3863104582 0.8694591522
-0.09659255296 -0.1078945622 1.077540159 0.3740797341 -0.2974652946 0.8708620667
-0.1013399437 -0.1100514457 1.078643322 0.3623630404 -0.3404187262 0.8532744646
-0.09817867726 -0.09940759093 1.082570672 0.3801144361 -0.3482916653 0.8469403982
-0.1139471531 -0.1027710214 1.088159084 0.3453042209 -0.5060175061 0.7810744643
-0.1072209477 -0.1005369127 1.086179972 0.3610166609 -0.4419047534 0.807603538
-0.09354592115 -0.09701365232 1.081640601 0.3918606341 -0.3075208962 0.8635366559
-0.1010957509 -0.103966929 1.081611037 0.3694204986 -0.3618732989 0.8424717784
-0.1091233268 -0.1070408747 1.08376658 0.3502275944 -0.4367758036 0.8116087317
-0.0908267051 -0.1029326618 1.077481151 0.3850916326 -0.2749681175 0.8801911473
-0.09089297801 -0.1122837588 1.072833538 0.3714407086 -0.2507574558 0.8937929273
-0.08829474449 -0.1077508256 1.072678804 0.3784497082 -0.2494188398 0.8909916282
-0.1091500297 -0.1555982679 1.079946876 -0.1458467841 0.2671686411 0.9501401186
-0.1055750847 -0.1506404281 1.078680277 -0.06522241235 0.342553705 0.9330488443
-0.1028846726 -0.1613097936 1.083333611 -0.1670414358 0.3058994114 0.9349007607
-0.09989878535 -0.1142488644 1.075220585 0.3215266466 -0.2345450222 0.9022980332
-0.1012178138 -0.1219952404 1.075208306 0.217677325 -0.03979553655 0.9252328873
-0.1123728007 -0.113020964 1.079191446 0.2453926653 -0.2766726017 0.9106404185
-0.1065142974 -0.1279275715 1.076540112 0.1068540439 0.1055431962 0.9468449354
-0.1095428392 -0.1221246645 1.077806234 0.155324623 -0.04391120002 0.9334574342
-0.09724876285 -0.1189229786 1.074134827 0.2840221524 -0.1139758304 0.9128825068
-0.1040953323 -0.1172276512 1.076370358 0.254657805 -0.162930727 0.9146015644
-0.1112329662 -0.1310566217 1.073643923 0.1455496252 0.1539910287 0.9658491015
-0.11229188 -0.1446986347 1.07688725 -0.06441203505 0.3116598129 0.9470914602
-0.1207931191 -0.143454805 1.077000022 -0.04577600211 0.2710422277 0.9608213305
-0.1246558204 -0.1381555498 1.075806499 -0.01457509957 0.2274744213 0.9726342559
-0.1101486012 -0.1399254352 1.074794173 0.01535606477 0.2366637886 0.9454298615
-0.107552655 -0.1353178918 1.072706699 0.1099261492 0.1574990451 0.945889771
-0.1017638743 -0.1278947741 1.068866849 0.2754575312 0.02652083896 0.9423980117
-0.1037340239 -0.1324483156 1.075208664 0.1001932472 0.1986724585 0.960501194
-0.09858717024 -0.1296932995 1.073083878 0.2586658001 0.05973960087 0.9592270851
-0.1044587567 -0.1409800202 1.074412227 0.06515292078 0.2799521983 0.9319251776
-0.1042679474 -0.1483869255 1.084633708 -0.07069724053 0.2641876042 0.9471244812
-0.1024136469 -0.1411944628 1.079963565 0.05720225722 0.1978264898 0.9527741075
-0.1068869233 -0.1372935623 1.078446746 0.04805966839 0.3014168143 0.9416351914
-0.09183309227 -0.1224057227 1.070555568 0.3071036041 -0.08607696742 0.9341807365
-0.0943531096 -0.1282713711 1.069623709 0.2764927149 0.01190321706 0.9555962086
-0.0776162222 -0.1233209893 1.06182611 0.273476243 -0.1414047033 0.9494532347
-0.08950944245 -0.1273176074 1.067904711 0.2666647732 -0.02234542184 0.9564902186
-0.08428631723 -0.1256358176 1.065317631 0.2682836354 -0.07308159024 0.9538093209
-0.09931874275 -0.1500085145 1.08314991 -0.0176687818 0.2083684355 0.9450790286
-0.1010258496 -0.1568398327 1.088132381 -0.1427934617 0.2454635054 0.9459940791
-0.09889043868 -0.1367079765 1.075199485 0.1780673712 0.1218190119 0.9568038583
-0.09924072027 -0.1555387527 1.082161307 -0.06587038934 0.2621999383 0.9348486662
-0.1035127491 -0.146170333 1.077560306 0.008512638509 0.3006759286 0.935867846
-0.09844308347 -0.1620690227 1.088187575 -0.164407745 0.2971957326 0.9274959564
-0.09861741215 -0.1448465735 1.079746127 0.06711146235 0.1758356541 0.947504282
