# .PCD v0.7 - Point Cloud Data file format
VERSION 0.7
FIELDS x y z normal_x normal_y normal_z
SIZE 4 4 4 4 4 4
TYPE F F F F F F
COUNT 1 1 1 1 1 1
WIDTH 512
HEIGHT 1
VIEWPOINT 0 0 0 1 0 0 0
POINTS 512
DATA ascii
-0.1898226291 0.04018618539 1.173586488 -0.1970586479 -0.3534589112 -0.9143403172
-0.04674740881 -0.016518455 1.275253177 -0.4423918426 0.3405506611 -0.825188458
-0.06678566337 -0.02734963782 1.287751913 -0.2913570106 0.5996825695 -0.7064295411
-0.06978333741 -0.03038902953 1.282398105 -0.3251039982 0.6078245044 -0.7052556276
-0.07531210035 -0.03376926109 1.28385222 -0.2989872694 0.670866847 -0.677069664
-0.09188315272 -0.03658312932 1.280646682 0.008933049627 0.7380412221 -0.6683217883
-0.09413990378 -0.03780000657 1.276023507 0.03337402269 0.7109092474 -0.7007735968
-0.09854403883 -0.03688427061 1.283484697 0.07135117054 0.7112672925 -0.692635119
-0.08855782449 -0.03519169614 1.285826802 -0.0269393269 0.7693486214 -0.6333325505
-0.102640368 -0.03682759777 1.28684783 0.1079053059 0.6964053512 -0.706723094
-0.1056183055 -0.0456700474 1.279002786 0.1474411786 0.6246876717 -0.7608556151
-0.1187799573 -0.05414293334 1.268276572 0.219783172 0.4000328779 -0.8878393769
-0.1883610189 0.04584703967 1.173000097 -0.1915519983 -0.3565020263 -0.9144132137
-0.06473918259 -0.04052828997 1.278479099 -0.3333701193 0.4901192486 -0.7810204029
-0.05953280255 -0.04201062024 1.275991559 -0.3491097689 0.3738681674 -0.8431553841
-0.05908459798 -0.02405585907 1.282755852 -0.3482474387 0.4938604236 -0.756504178
-0.0657518208 -0.03727141395 1.283701897 -0.2943302095 0.5079256892 -0.7674994469
-0.05913465843 -0.03637124225 1.278609991 -0.3437746167 0.402053833 -0.8208767176
-0.06112745777 -0.03232502937 1.281611085 -0.3303217888 0.4664203823 -0.7820811868
-0.07150817662 -0.03039199673 1.290736318 -0.2538695335 0.6576760411 -0.6807405949
-0.0552091375 -0.03240578249 1.27675581 -0.3742493391 0.3650647998 -0.8344831467
-0.05304704607 -0.02781265229 1.276553512 -0.3918363452 0.3628172874 -0.8292992115
-0.05193795264 -0.01984317973 1.278358102 -0.4027272761 0.4038978815 -0.7970988154
-0.05787752569 -0.02859231085 1.280228972 -0.3557015359 0.439180851 -0.790979147
-0.06946735084 -0.03433390334 1.287731409 -0.2677137554 0.5932766795 -0.719408989
-0.1292625368 -0.05228615925 1.258916497 0.2389923185 0.4599785805 -0.8551440239
-0.05419172347 0.0858694613 1.146093369 0.2276234925 -0.1383440048 -0.9631189704
-0.04573202133 0.0879894495 1.149318576 0.2296995968 -0.1986476779 -0.9503282905
-0.042395778 0.08658885211 1.145549297 0.2344845235 -0.2372849435 -0.9419031143
-0.04665958136 0.09099647403 1.145297289 0.226730898 -0.1739315689 -0.9577783346
-0.04932140186 0.08650356531 1.145644784 0.2316610962 -0.1958394051 -0.9510093331
-0.0706680268 -0.04204590246 1.278442144 -0.2842121422 0.6006701589 -0.728874445
-0.07185570896 -0.04595947638 1.27441287 -0.2545094788 0.6056547761 -0.7350458503
-0.07520070672 -0.04120073095 1.282746911 -0.217014581 0.6750257611 -0.6912911534
-0.07077689469 -0.03871522844 1.282674313 -0.2922810316 0.6140632033 -0.7151471972
-0.07707443088 -0.03310868517 1.294183254 -0.2118837684 0.7329108715 -0.6457595229
-0.08175138384 -0.03391772509 1.293255687 -0.1431258321 0.7457672954 -0.6463338137
-0.08027704805 -0.03410198539 1.286896348 -0.1684542447 0.7396541834 -0.6404191852
-0.02611079812 -0.02076573111 1.259000063 -0.3912763596 0.4024804235 -0.8270422816
-0.03110484779 -0.0178486295 1.259000063 -0.3949568272 0.3783098459 -0.8344320655
-0.03557441756 -0.02417314798 1.259000063 -0.4070400298 0.2989568114 -0.8586930037
-0.1244602352 0.08887533098 1.150036335 -0.3020936549 0.06539841741 -0.9506241679
-0.1329577714 0.08814746886 1.154713273 -0.2937188447 0.08826334029 -0.9510288835
-0.1283577383 0.08626199514 1.152490497 -0.3031232655 0.07367499173 -0.9497748613
-0.1208477169 0.09318329394 1.148131728 -0.2952897251 0.05172725022 -0.9536522031
-0.1426446438 0.1023391187 1.158648372 -0.250213623 0.1208945885 -0.9597255588
-0.1417915076 0.09704457223 1.158596873 -0.2634240687 0.117264621 -0.9565631747
-0.124575451 0.09786890447 1.149702549 -0.2803465426 0.06413951516 -0.9565392733
-0.1300249398 0.09458619356 1.152738452 -0.2819969952 0.0803905949 -0.9547564983
-0.1355478168 0.096773386 1.155412793 -0.2708833516 0.09789134562 -0.9562167525
-0.1416158378 -0.04481813684 1.260699034 0.2350904047 0.5052825809 -0.8264936805
-0.1357475966 -0.04932240769 1.259575129 0.2317621559 0.4741962552 -0.8476746678
-0.1320566982 -0.04947299138 1.264072418 0.2392172813 0.4958319068 -0.8316307664
-0.1369520277 -0.04693035409 1.263943791 0.2409212589 0.5288211107 -0.8096165061
-0.09568826854 -0.0486410372 1.278334618 0.02586741 0.6959563494 -0.7158264518
-0.09701305628 -0.04278095439 1.284671783 0.04715671018 0.6979242563 -0.7099786401
-0.09887882322 -0.04575229064 1.281225204 0.07119770348 0.6741125584 -0.728559494
-0.1050842106 -0.05095943436 1.274563313 0.1512979418 0.609828651 -0.7767413855
-0.1093528643 -0.04942246899 1.266299009 0.1647667587 0.5218842626 -0.829823792
-0.1209261194 -0.05223903805 1.261730552 0.2111955285 0.4710840583 -0.8526604772
-0.1128156334 -0.05467196926 1.269843936 0.1892466545 0.3857477605 -0.9012743235
-0.1057748795 -0.05508504808 1.27102685 0.1420673728 0.4725348651 -0.8615970612
-0.09986523539 -0.05360137299 1.272253871 0.08237592876 0.6166287065 -0.775144279
-0.09048041701 -0.05172977597 1.268000007 0.01927271113 0.4847857058 -0.8684135675
-0.09209405631 -0.04534235597 1.268000007 0.0272663068 0.55564183 -0.8266034126
-0.09437911958 -0.05646244064 1.268347979 0.0438420102 0.4785205722 -0.8722079396
-0.09272303432 0.08702686429 1.134091973 0.1385786533 0.1001228094 -0.9806672335
-0.09192664176 0.09230810404 1.134056807 0.09305179119 0.1139345169 -0.98160851
-0.08716035634 0.08878497034 1.134241939 0.2065545619 0.06862516701 -0.9676059484
-0.09780488908 0.08951895684 1.134133577 -0.04553823546 0.1095385849 -0.9812572002
-0.09664581716 0.09407196194 1.144256353 -0.02249128558 0.1289704591 -0.960075736
-0.09255871177 0.09184542298 1.140437245 0.0826954022 0.1265684217 -0.9721144438
-0.1083745435 0.08835817873 1.143568039 -0.1726066023 0.1058302 -0.9515971541
-0.09610905498 0.08815901726 1.138345718 0.06178714335 0.1147080734 -0.9737626314
-0.1149621829 0.08591956645 1.143923044 -0.2665828466 0.09474534541 -0.9451751709
-0.1038603708 0.0912720263 1.14452076 -0.1237902343 0.1165099815 -0.9533210397
-0.1002054811 0.08510772884 1.137089372 0.02259211242 0.1040064469 -0.9730750918
-0.08739950508 0.09585297853 1.142178059 0.1299953163 0.1404550225 -0.9726257324
-0.09961855412 0.0905816406 1.142116547 -0.03493729234 0.1180380136 -0.9623252153
-0.1044342667 0.08747185022 1.141098976 -0.08699797839 0.1066416129 -0.9604890347
-0.1017545909 0.0960175246 1.144828796 -0.1001646146 0.1019938439 -0.9588425756
-0.1110172868 0.09456648678 1.14480114 -0.2260991633 0.07134437561 -0.9541501403
-0.1160352379 0.09302712977 1.144747734 -0.2936356962 0.05851294845 -0.950801909
-0.04432694614 0.08115000278 1.145863056 0.2552367747 -0.2552212775 -0.9323294163
-0.07425566018 0.09872990102 1.144579887 0.2375948131 0.08214999735 -0.9653206468
-0.0692127347 0.0955619067 1.143585324 0.2553720772 0.01595114917 -0.9663832784
-0.06327871978 0.05897921696 1.147572875 0.3200098276 -0.2910738885 -0.9010623097
-0.06827770174 0.05754977092 1.145733714 0.3279722333 -0.2667932808 -0.905172348
-0.05509802327 -0.04272891209 1.272032857 -0.3651662767 0.3078699708 -0.8781248331
-0.08018027991 -0.04129909351 1.285529256 -0.1728226244 0.7178432345 -0.6719429493
-0.08088949323 -0.04748843238 1.278313279 -0.1440676898 0.7070420384 -0.6906901002
-0.08436343819 -0.05093796924 1.275466442 -0.1277308017 0.6974568367 -0.7044331431
-0.08592871577 -0.037324287 1.289706111 -0.08555645496 0.7464628816 -0.6576257348
-0.08406275511 -0.04351526871 1.283252597 -0.1220624149 0.7207865715 -0.6791369319
-0.09516121447 -0.03668672219 1.291551828 0.02497419901 0.7284802198 -0.6843211651
-0.0910051018 -0.04507889599 1.282182217 -0.03555162624 0.7099551558 -0.6992285252
-0.08973875642 -0.0485830307 1.278284669 -0.05449755862 0.7021638751 -0.7059788704
-0.09227641672 -0.03916787729 1.288657665 -0.01399913151 0.7248970866 -0.6853522658
-0.08832538873 -0.04097484052 1.286174655 -0.06177392602 0.7300015092 -0.6773123741
-0.02561272681 -0.01550993137 1.258999944 -0.3905269206 0.4074020088 -0.825537622
-0.03724258766 -0.01599917002 1.261296511 -0.4073140621 0.3717846274 -0.8323706985
-0.04377800226 -0.01979023777 1.264336228 -0.4254315495 0.3285380304 -0.8416770697
-0.04833254591 -0.02000292949 1.266863108 -0.4313297272 0.301292479 -0.8499985933
-0.02709752508 -0.01456226502 1.267250061 -0.3905269206 0.4074020088 -0.825537622
-0.02542683296 -0.006601706147 1.270654202 -0.3905269206 0.4074020088 -0.825537622
-0.03625077754 -0.01864169911 1.269039035 -0.4164244533 0.3727266788 -0.8278106451
-0.04224967584 -0.01315089501 1.274289489 -0.4376972616 0.3442436159 -0.8296777606
-0.03113610484 -0.008593221195 1.27115798 -0.4004617333 0.3940998614 -0.8264095783
-0.03305739164 -0.01427114196 1.269509792 -0.4061770141 0.3864474297 -0.826911211
-0.03589112312 -0.02939118259 1.260004759 -0.4098405838 0.2805650234 -0.8643160462
-0.0300225392 -0.02444938198 1.259000063 -0.399649173 0.347494185 -0.8438534737
-0.02688728273 -0.006530795712 1.262179971 -0.3905269206 0.4074020088 -0.825537622
-0.02788421512 -0.01067579258 1.258999944 -0.3905269206 0.4074020088 -0.825537622
-0.02554639429 -0.001740427804 1.268367171 -0.3905269206 0.4074020088 -0.825537622
-0.02307911403 -0.0009547721711 1.272638083 -0.3905269206 0.4074020088 -0.825537622
-0.0857430473 0.1016786918 1.140912414 0.1343742162 0.1608568132 -0.9757842422
-0.09096222371 0.1021750197 1.136878967 0.08004959673 0.1614864767 -0.9813768864
-0.09294290096 0.09766695648 1.134706855 0.05533641949 0.1509136409 -0.9856577516
-0.08565156907 0.09917081147 1.136100888 0.1647451073 0.1463382244 -0.9737551212
-0.0777073428 0.09617506713 1.139134645 0.2327762246 0.06477434188 -0.9677748084
-0.1903274208 0.03506777436 1.174821258 -0.220138818 -0.3538315892 -0.9090302587
-0.1849431396 0.03203686699 1.175982237 -0.2262021601 -0.3583087921 -0.9057593346
-0.1785143167 0.05861472711 1.169892073 -0.2699606717 -0.332975179 -0.9014236331
-0.1848303825 0.05580369756 1.17115891 -0.2237679511 -0.3503615856 -0.9070786238
-0.1843240559 0.06525495648 1.166267633 -0.2915477157 -0.3263558447 -0.8951715231
-0.1854958981 0.05419700965 1.165745139 -0.2609905601 -0.3315230012 -0.9055227041
-0.186801821 0.05117921531 1.171725631 -0.2045998871 -0.3528864086 -0.9122207761
-0.1847214252 0.05944500118 1.166263342 -0.2626484931 -0.325925231 -0.9067662954
-0.179894343 0.08626855165 1.159197807 -0.3695769012 -0.1662536711 -0.9082704186
-0.1761007309 0.08774281293 1.15661633 -0.3447602093 -0.1109330431 -0.9286084175
-0.147161305 0.07578059286 1.153646588 -0.298181206 -0.1611218601 -0.9254981875
-0.1414029151 0.07592003793 1.155002236 -0.3236848116 -0.09262694418 -0.9137055874
-0.155882746 0.07870583981 1.148073316 -0.2788619995 -0.1403906345 -0.9424228072
-0.1070400104 0.09879969805 1.135649443 -0.1278630048 0.09949728847 -0.9863616824
-0.1065679789 0.108108595 1.134353995 -0.09851456434 0.1235453039 -0.9871576428
-0.09838663042 0.1057744697 1.13568294 -0.007570070215 0.146542117 -0.9857328534
-0.09940573573 0.1006079614 1.13465929 -0.02912284806 0.1379470825 -0.988167882
-0.1133403257 0.09017682076 1.136589408 -0.2676906586 0.07345189899 -0.9531707764
-0.1053274721 0.09328235686 1.135006547 -0.1419449449 0.0836660862 -0.9828934669
-0.1049682349 0.08470657468 1.134497404 -0.2513912916 0.06534447521 -0.964928925
-0.1202456951 0.0932085067 1.137856007 -0.295776099 0.06657808274 -0.950299561
-0.1169867739 0.09818918258 1.138003945 -0.2248588055 0.09628438205 -0.9655840993
-0.1224746034 0.09682916105 1.139952898 -0.232233718 0.1100904644 -0.9631077051
-0.130949825 0.09352249652 1.142552257 -0.2625572681 0.1201024055 -0.9553776383
-0.1121162772 0.09669356048 1.137536407 -0.2619912922 0.08550421149 -0.9572267532
-0.1007460058 0.1018584967 1.141961217 -0.0591343753 0.1011061296 -0.9748516083
-0.09026972204 0.1034810469 1.142005682 0.07573826611 0.1423006505 -0.9756740332
-0.09573885798 0.1015100032 1.142935395 0.0004102667735 0.114762798 -0.973677218
-0.1055940688 0.105130367 1.138530254 -0.1039480865 0.1036319807 -0.9800809026
-0.1121102497 0.0990742743 1.143966556 -0.2330670208 0.05148109421 -0.962479949
-0.1067330465 0.1001281738 1.143202066 -0.1511591971 0.07352956384 -0.9682969451
-0.04646799713 -0.02609473094 1.270729542 -0.4189913273 0.3030621707 -0.8539839387
-0.04560393095 -0.03321856633 1.266337156 -0.3905764222 0.2541197836 -0.8837550879
-0.04807130247 -0.03792497888 1.267130136 -0.3876108229 0.2928605378 -0.8728436828
-0.0480450727 -0.0225337483 1.274184942 -0.4295282364 0.3234676123 -0.8420855403
-0.04929741845 -0.03408454731 1.27036953 -0.4030348957 0.3246919215 -0.8549453616
-0.05173907802 -0.03845430538 1.271088958 -0.3865714967 0.3177321553 -0.8651473522
-0.04105253518 -0.02328610048 1.268050909 -0.4337949753 0.3157088757 -0.8425260186
-0.04142618179 -0.03004959784 1.265019894 -0.4089767635 0.2817109525 -0.8657383919
-0.04377399385 -0.0198468715 1.271484375 -0.440207839 0.3196252286 -0.8381186724
-0.03340519592 -0.02488451451 1.264183164 -0.4034771323 0.3600049317 -0.8383008838
-0.07993590087 -0.03584089875 1.278666019 -0.2170533389 0.7095810175 -0.6623182893
-0.08853744715 0.06323643029 1.137188554 0.2302589864 -0.1332446337 -0.9538288116
-0.09156896919 0.06581136584 1.134555697 0.166507259 -0.145749554 -0.9710954428
-0.0837379545 0.05915777758 1.143450499 0.2786352634 -0.1683503836 -0.938949883
-0.102885887 0.07265674323 1.143007278 -0.04425772652 -0.01472660527 -0.9360901117
-0.1068026051 0.07644825429 1.143417597 -0.1122977957 0.005528445821 -0.9381630421
-0.1159511358 0.07720452547 1.143571973 -0.2763272822 0.09559394419 -0.934510231
-0.09268996119 0.06692391634 1.142349839 0.1354696006 -0.08929192275 -0.9350327253
-0.1125020236 0.07371108234 1.143195271 -0.2165078074 0.07857310772 -0.9325225949
-0.09542761743 0.07438080013 1.140272498 0.09777611494 -0.02315430529 -0.9506368637
-0.1052405909 0.0805464834 1.140879154 -0.07457496226 0.04764899239 -0.9526242018
-0.09662555903 0.07929058373 1.138004661 0.08598177135 0.03853387386 -0.9640747905
-0.09059733897 0.07156223804 1.139851928 0.1830944866 -0.05524482206 -0.9503455758
-0.1114419848 0.08122439682 1.143075705 -0.1906523108 0.05132496357 -0.9436638951
-0.09698672593 0.07759629935 1.132982731 0.04908024147 0.02022333629 -0.988022387
-0.1004880592 0.08144686371 1.133479714 -0.06441314518 0.08665128797 -0.9798710942
-0.1016471088 0.0717400834 1.131694794 -0.04258403927 -0.009380670264 -0.9906213284
-0.09651806951 0.07155003399 1.132444859 0.07441647351 -0.09156537056 -0.9913760424
-0.04093052447 -0.0127233183 1.268547535 -0.4136999846 0.3557159901 -0.8359366059
-0.04529283196 -0.01568419673 1.268649578 -0.4231624901 0.325812906 -0.8437452912
-0.03501384705 -0.009635408409 1.265670419 -0.3953512013 0.3934545815 -0.828993082
-0.03356665373 -0.01252189558 1.260068536 -0.39386186 0.397760421 -0.8279262781
-0.0303608831 -0.005480513908 1.267189264 -0.3905269206 0.4074020088 -0.825537622
-0.03698445857 -0.008957588114 1.272877574 -0.417876184 0.3707829416 -0.8279380798
-0.02905840054 -0.002307685791 1.272337198 -0.3923268914 0.4049919546 -0.8256955743
-0.05009357259 0.06421839446 1.148662329 0.3073104918 -0.3003200889 -0.902808845
-0.04510428384 0.06410324574 1.150052547 0.2987830043 -0.3013042808 -0.905233562
-0.04771728441 0.05991720781 1.152248025 0.3019736409 -0.3163440526 -0.8991084695
-0.04505566135 0.07443897426 1.146332979 0.2843199968 -0.2598960102 -0.9226467609
-0.08103150129 0.09179136157 1.136136651 0.2270306647 0.06715838611 -0.9684697986
-0.0824072659 0.08701650798 1.134951115 0.2671212852 0.03604066372 -0.9601371288
-0.05950045586 0.06990875304 1.148305178 0.2985419035 -0.2398086041 -0.9210031629
-0.05450406671 0.06486039609 1.152468681 0.3005413711 -0.3060980439 -0.903169632
-0.07403347641 0.07732865959 1.142359495 0.3302451968 -0.05333882198 -0.9396671057
-0.07435920835 0.08741072565 1.142583728 0.2794131935 0.01110710017 -0.9546733499
-0.07618249953 0.09253973514 1.143475413 0.2594501972 0.05911681801 -0.9580806494
-0.08058000356 0.09894752502 1.14475584 0.1926347017 0.137469396 -0.9680195451
-0.06865470111 0.08758111298 1.143565893 0.282515049 -0.03202101588 -0.9572573304
-0.07060824335 -0.03989256173 1.267691016 -0.2676178515 0.3925475478 -0.8666641712
-0.07497211546 -0.04387457669 1.267526031 -0.2121338993 0.4144695997 -0.8712386489
-0.07198511064 -0.03208340704 1.275791049 -0.3049747944 0.5643256307 -0.7376696467
-0.0674476549 -0.02984138951 1.27270925 -0.3450680971 0.4710109532 -0.7872968316
-0.07875905186 -0.0350702107 1.272238493 -0.1948033571 0.6472194791 -0.6999790668
-0.08352185041 -0.0387192741 1.271644831 -0.1395632923 0.668317318 -0.7130838037
-0.07385483384 -0.03451092541 1.268823862 -0.2509713769 0.4815758467 -0.8153233528
-0.06656076014 -0.03129805997 1.268000007 -0.3331812322 0.3904369175 -0.8486629128
-0.07985660434 -0.03997121379 1.268000007 -0.1811760366 0.5018714666 -0.838280499
-0.06296481937 -0.02757716924 1.269462705 -0.3814623952 0.3793691695 -0.8359916806
-0.064937599 -0.02801621705 1.276706934 -0.3614851236 0.4992913604 -0.7636091113
-0.0586244911 -0.02425261959 1.274287701 -0.3932358921 0.4175113142 -0.8020105362
-0.1189800948 -0.04092250764 1.265989542 0.2260762453 0.4033719003 -0.8860697746
-0.1268203408 -0.04817546904 1.260700345 0.235066399 0.4441703558 -0.8638717532
-0.1240169927 -0.04354638234 1.263079524 0.2288174182 0.4240208566 -0.8753523827
-0.1169506162 -0.04855591059 1.263754845 0.2019162923 0.5177973509 -0.8258704543
-0.1139791235 -0.04439870268 1.266226053 0.1999163032 0.4888464212 -0.8415445089
-0.07633767277 -0.05059435219 1.271068215 -0.1345022917 0.5464625359 -0.7989097834
-0.06687800586 -0.04694069549 1.273302197 -0.2507666051 0.4753637612 -0.8063956499
-0.06040235236 -0.04436990246 1.271089435 -0.3287153542 0.2935293913 -0.8964402676
-0.06929540634 -0.04778543487 1.267708421 -0.2185821384 0.3143387735 -0.9188711643
-0.0816301778 -0.04461974651 1.268000007 -0.1279764026 0.4851191938 -0.8604908586
-0.08193299174 -0.05003932863 1.268000007 -0.08313956857 0.4348828793 -0.8910999298
-0.09044530243 -0.03510964662 1.291904211 -0.02456622012 0.7491704822 -0.6599242687
-0.1032955647 -0.04860438034 1.268000007 0.1293026209 0.5698338151 -0.808342278
-0.0975105539 -0.05255094171 1.268000007 0.06591083854 0.5233475566 -0.8474592566
-0.09815055877 -0.04365724325 1.268000007 0.08329262584 0.5933944583 -0.7976742387
-0.05700607225 -0.02429054491 1.267787933 -0.4059972465 0.323320359 -0.8540487289
-0.05358333886 -0.02134942822 1.270503879 -0.4193791151 0.3310040832 -0.8445270658
-0.1377728134 0.06503599882 1.143871903 -0.3137766719 -0.1989915818 -0.9255989194
-0.1414553374 0.06593475491 1.146700859 -0.288562566 -0.2771140635 -0.9131327868
-0.151617229 0.07423840463 1.147732377 -0.2966382504 -0.19063963 -0.9356338978
-0.1473522633 0.07018945366 1.145602584 -0.3307258785 -0.2039675415 -0.9200912714
-0.184408918 0.04143307731 1.17375803 -0.215401724 -0.355461061 -0.9095253348
-0.1801491827 0.03718202561 1.174878716 -0.2214986831 -0.3562813103 -0.907710433
-0.1779351383 0.07152650505 1.162654161 -0.3513324559 -0.3128335476 -0.8813402057
-0.166930601 0.0820967108 1.151993752 -0.3347168267 -0.1483688056 -0.9255779982
-0.1700441241 0.08625309169 1.153551459 -0.3227761388 -0.0727262944 -0.9408308268
-0.1613983363 0.07867456973 1.149103403 -0.3368928432 -0.1722600311 -0.9176841974
-0.1537165046 0.08482374251 1.155689955 -0.2822423875 -0.1190008745 -0.9331726432
-0.1591145992 0.08200120926 1.154354692 -0.3076327741 -0.1501939595 -0.9298146963
-0.155345872 0.09381615371 1.157508969 -0.2814905345 0.000588143128 -0.9464321136
-0.1539825499 0.0768308118 1.153851271 -0.2902078331 -0.2234577388 -0.9216201305
-0.1511545926 0.09009191394 1.15721035 -0.2668337524 -0.0527148582 -0.9404622316
-0.1586844474 0.09020122886 1.156261325 -0.2987917662 -0.04319955781 -0.9416451454
-0.1495367587 0.09562396258 1.15866828 -0.2552180588 0.01804264635 -0.9482628703
-0.1664604098 0.07681611925 1.152653694 -0.3466840088 -0.2402361482 -0.9054989815
-0.1827243418 0.08241768926 1.16133523 -0.3791436851 -0.2399057299 -0.8931655288
-0.1825349778 0.07429459691 1.161948085 -0.3591569662 -0.3040988445 -0.8822798133
-0.1793797612 0.04616201669 1.167974472 -0.2324322015 -0.3591014445 -0.9034941196
-0.1806768328 0.05136673525 1.166678905 -0.2497270852 -0.3455280066 -0.9036352634
-0.1855147183 0.04828255251 1.167052984 -0.2426412702 -0.3444914818 -0.9058856368
-0.1858049333 0.04251182079 1.168368101 -0.2244405448 -0.356741935 -0.9064486623
-0.1784253418 0.04319385439 1.173205972 -0.2147819847 -0.3587318659 -0.9083817005
-0.1771190763 0.05159544945 1.173000097 -0.2344832122 -0.3448559046 -0.908816278
-0.1828411072 0.04691673443 1.173000216 -0.2176970541 -0.3533686697 -0.90968889
-0.1748752445 0.06139175221 1.167434216 -0.2960276306 -0.3342398107 -0.8923182487
-0.1698205769 0.06304854155 1.164034128 -0.3195447028 -0.3522208631 -0.8783318996
-0.1740578264 0.06763933599 1.163479209 -0.3364909291 -0.3287703395 -0.8806545138
-0.1755917966 0.07626477629 1.16111207 -0.3576478958 -0.2728582025 -0.8906879425
-0.1733020097 0.08046399057 1.160128474 -0.3397068083 -0.214151293 -0.9145246744
-0.1636322886 0.07484121621 1.157204032 -0.3172055185 -0.2607859671 -0.909507215
-0.1676675379 0.06786221266 1.161451697 -0.3302943408 -0.3239049315 -0.8833858967
-0.1681761742 0.073912099 1.159737587 -0.3291956186 -0.2704971433 -0.9010595679
-0.1677366793 0.080336079 1.15707922 -0.32931903 -0.197906971 -0.920879662
-0.1522838324 0.05749883503 1.155504942 -0.3468513489 -0.3926436007 -0.8508737087
-0.1516122967 0.06205189601 1.152358651 -0.3348995745 -0.3475765586 -0.8727115989
-0.1562316865 0.0658313483 1.152572513 -0.3477514684 -0.3250151575 -0.8753742576
-0.1460523754 0.06511434913 1.148759604 -0.2967016101 -0.3203258216 -0.8983876109
-0.1427777559 0.06084370613 1.148887157 -0.2948143184 -0.3420020044 -0.8918344975
-0.150616467 0.06880377978 1.148796678 -0.310675025 -0.2957239449 -0.9014829397
-0.1249189675 0.08058957011 1.14859426 -0.3223571181 0.1035268679 -0.9405020475
-0.1317618638 0.08188850433 1.154273033 -0.3098509014 0.08791892231 -0.946639955
-0.1208939552 0.08240904659 1.145562172 -0.3268169761 0.09832588583 -0.9396775365
-0.1215680018 0.07719044387 1.145483851 -0.3315790296 0.1265510768 -0.9345170259
-0.1294739991 0.0764304772 1.141526461 -0.3132598102 -0.003884961596 -0.9454908371
-0.1282475591 0.08137305081 1.140887022 -0.3136474192 0.001222059247 -0.9463267922
-0.08611554652 -0.03713915497 1.276796937 -0.08619333804 0.7569181323 -0.6445080638
-0.09298598021 -0.03940221295 1.271743059 0.02376475744 0.6608714461 -0.7452727556
-0.08561684191 -0.04150167108 1.26806736 -0.09940871596 0.5498691201 -0.8249425888
-0.08580882847 -0.05446611717 1.271115661 -0.06220828369 0.5599358082 -0.8051735163
-0.09323183447 -0.05357126519 1.272709846 0.00653121667 0.6461862326 -0.7522716522
-0.1092789546 0.0620184578 1.132419109 -0.1461910754 -0.03084433638 -0.980322957
-0.1019898802 0.05869869888 1.132155418 0.007153772283 -0.09422043711 -0.9864776731
-0.1018676609 0.06207901612 1.137671947 -0.04255332053 -0.05618121102 -0.9573212862
-0.09683896601 0.05935326219 1.136198282 0.07567495853 -0.1091113314 -0.968549192
-0.09086959064 0.05995760858 1.140635014 0.1574366242 -0.1281279922 -0.9490888715
-0.04079562426 -0.02923635021 1.259191275 -0.4169617891 0.2430745512 -0.8752472401
-0.0403906405 -0.02413820662 1.260899186 -0.4202589989 0.3043082058 -0.8517817855
-0.0851501897 0.08223429322 1.138410807 0.2226819396 0.04224490374 -0.9640683532
-0.07926704735 0.08550545573 1.142231703 0.2566426992 0.03497012705 -0.9548562169
-0.08780834079 0.09033172578 1.138988376 0.1684995592 0.1138346642 -0.9758102894
-0.08349131048 0.09131222218 1.141450524 0.1991789192 0.09836825728 -0.9679265022
-0.07340342551 0.07116075605 1.140626907 0.3312871754 -0.1195921078 -0.9278230667
-0.05207544565 0.09158632904 1.144885063 0.2251996696 -0.1262142211 -0.9649712443
-0.05905531719 0.08737574518 1.143256903 0.2401786596 -0.08932214975 -0.9650714993
-0.0731901601 0.08383590728 1.138131738 0.2875574529 -0.03659524024 -0.955719173
-0.07009148598 0.08047159761 1.140295029 0.2913284898 -0.08851790428 -0.9494175911
-0.06549610943 0.09132156521 1.14213109 0.2365244925 -0.03543644771 -0.9695647955
-0.06145744398 0.09381262213 1.143783808 0.2256698012 -0.05090888962 -0.9714819789
-0.07324670255 0.09386117011 1.139633775 0.2480691969 0.01329778973 -0.9678378105
-0.05672339723 0.09368693829 1.145660043 0.21860753 -0.07615911961 -0.9725215435
-0.07650845498 0.08891573548 1.137146115 0.2738254964 0.00628315378 -0.9610962868
-0.06405203044 0.07593213022 1.143830657 0.2898349762 -0.16688627 -0.9415649176
-0.05959774181 0.07980073243 1.144150853 0.2569382787 -0.1429515779 -0.9519895315
-0.05820193514 0.0751163587 1.147282362 0.2753745317 -0.2025040835 -0.9358634353
-0.05529617146 0.07883606851 1.147554994 0.2523778379 -0.1853394359 -0.9454018474
-0.04971214011 0.08035733551 1.149915814 0.2466899306 -0.2167687118 -0.9410037398
-0.05222146958 0.07503037155 1.150352836 0.2643641531 -0.2382731289 -0.9300106168
-0.04772360623 0.07614059001 1.152293324 0.2618039548 -0.2662050128 -0.9255744815
-0.05040516332 0.07682324201 1.145733118 0.2670828998 -0.2246199697 -0.9360394478
-0.04984191433 0.07118954509 1.147361994 0.2910721898 -0.2624645233 -0.9190346003
-0.05893584341 0.06216059253 1.146636128 0.3138352633 -0.2865196466 -0.9046334028
-0.05397948995 0.06839307398 1.146868706 0.295928359 -0.2654132843 -0.9164375663
-0.05410547182 0.06043747813 1.148621321 0.3097185791 -0.3091515899 -0.8990052938
-0.05739518628 0.056637045 1.148757577 0.3107014298 -0.3190946579 -0.8953021169
-0.06341677159 0.0687905103 1.144857049 0.3014290333 -0.2234714329 -0.9247119427
-0.07704950869 0.06726995111 1.143519521 0.3332724869 -0.1224065721 -0.9333945513
-0.07176028192 0.06400641054 1.1456002 0.3235435486 -0.2228386998 -0.9167057276
-0.07758650184 0.06018318608 1.145311594 0.316888839 -0.2027961016 -0.9254024029
-0.06695881486 0.06558159739 1.146273255 0.3186954558 -0.2668626606 -0.9072456956
-0.06792107224 0.07151014358 1.144284844 0.3178974986 -0.1824956238 -0.9258140922
-0.07925165445 0.06887762249 1.138683796 0.3097529113 -0.1224072501 -0.9380770922
-0.07748103142 0.07367881387 1.138647556 0.3265158534 -0.07720965892 -0.938020587
-0.03866828978 0.07131696492 1.148867965 0.2901859581 -0.2749820948 -0.9164261222
-0.0383794643 0.08290268481 1.146132231 0.245872885 -0.2557817698 -0.9347707033
-0.03934292495 0.07756832987 1.151835084 0.259721458 -0.2549528182 -0.9311602712
-0.1026932895 -0.03773012385 1.281280041 0.1095796824 0.6840981841 -0.7198895812
-0.09951841086 -0.03853799403 1.274099946 0.07855381072 0.6817191243 -0.7255242467
-0.1048366874 -0.03932028636 1.27153337 0.1249100938 0.6061889529 -0.7758821249
-0.1071448401 -0.04407068714 1.268000007 0.1653531194 0.5568930507 -0.8075006604
-0.1360070109 -0.04190767929 1.267730951 0.2428427786 0.5607792139 -0.7888484001
-0.1307500303 -0.03901929036 1.267423868 0.2398771048 0.5746655464 -0.7821471095
-0.126551047 -0.04888344556 1.26753962 0.2419105768 0.4933539629 -0.8329386711
-0.1289696246 -0.04389315844 1.267493486 0.2409893721 0.5349398255 -0.8068724275
-0.1317456216 -0.04476696998 1.25952363 0.2298936844 0.4578122497 -0.8577932119
-0.1246114448 -0.03903474659 1.267091036 0.2361879647 0.5454950333 -0.8013347387
-0.1157921925 -0.04365869239 1.2752707 0.1941472143 0.5742906928 -0.7843395472
-0.1197839081 -0.04322380573 1.271748185 0.2139459401 0.5582388639 -0.7940864563
-0.1191652343 -0.04966999963 1.271283269 0.219028756 0.4994964898 -0.8299578428
-0.11096856 -0.04432760179 1.278995872 0.1721055806 0.5686402321 -0.7868471742
-0.1137604564 -0.05099687353 1.274437666 0.1981711537 0.4444352686 -0.8606824875
-0.04831947014 -0.02792935818 1.263127208 -0.4172369242 0.2659353912 -0.8685769439
-0.05324444175 -0.02923882939 1.265218139 -0.4090998173 0.2946873903 -0.8625141382
-0.04550853744 -0.03569214419 1.26212275 -0.3969653249 0.264135927 -0.8772130609
-0.05567936972 -0.03876104206 1.264055729 -0.3487460911 0.2724849582 -0.8933727145
-0.06327907741 -0.03850317374 1.267504334 -0.3406012058 0.3171640038 -0.8822435737
-0.050626982 -0.03611590713 1.262414813 -0.374317199 0.2625972033 -0.8863124847
-0.05834576115 -0.03454318643 1.266220808 -0.3754253089 0.3171983063 -0.8682798147
-0.1599207819 0.08592479676 1.148314834 -0.2800365686 0.02790337428 -0.9587247372
-0.1577144861 0.092899777 1.148640037 -0.2697038352 0.02951026708 -0.9617013931
-0.1744382679 0.07216440141 1.158233523 -0.3617733419 -0.303773731 -0.8811169267
-0.1668659747 0.05836527422 1.164928913 -0.3066883981 -0.3707410097 -0.8760220408
-0.171981588 0.05392888188 1.170041561 -0.2635728419 -0.3563819528 -0.8954155445
-0.1721152216 0.05375630036 1.164995432 -0.3036365509 -0.3513408601 -0.8837943077
-0.1764649451 0.05682398751 1.165016294 -0.2936901748 -0.3451649249 -0.8891770244
-0.174817726 0.0495304279 1.167204738 -0.2535189986 -0.3612288833 -0.8958488107
-0.1782161444 0.06364712864 1.162997007 -0.3296099901 -0.3294991255 -0.8837774396
-0.1616445184 0.1015418395 1.153622627 -0.280305028 0.05646322668 -0.9581711888
-0.1459656805 0.08127246797 1.154996276 -0.2887415886 -0.0887497887 -0.9337735176
-0.1439569592 0.0871514529 1.156460881 -0.2801442742 -0.002241979353 -0.9429532886
-0.1401962489 0.08258634806 1.155249953 -0.2952183783 -0.0026490686 -0.9408957958
-0.137892887 0.08794166148 1.156577587 -0.2881343663 0.08209570497 -0.9497092366
-0.1517888904 0.1030399054 1.156505346 -0.2470071316 0.1053608954 -0.9623597264
-0.1509396434 0.09955869615 1.151165247 -0.2340775728 0.1010401174 -0.9659225941
-0.1535146981 0.09602028131 1.148696065 -0.2278575748 0.04688410833 -0.9718683958
-0.142917484 0.09532500058 1.146396518 -0.2079717368 0.1370241642 -0.9681626558
-0.144959718 0.0980187878 1.150242686 -0.1995781958 0.1425317079 -0.969289422
-0.1355820298 0.103268005 1.153689981 -0.2267329693 0.1111031249 -0.9667034745
-0.1398950666 0.1016501412 1.153072834 -0.2033386827 0.1344128549 -0.9690554738
-0.1470312923 0.1045988724 1.160420895 -0.2363743633 0.1365294904 -0.9619175792
-0.1268904656 0.1022654995 1.148591995 -0.2195133567 0.09175043553 -0.9703212976
-0.1213577986 0.1008983552 1.146658421 -0.2432482988 0.06833744049 -0.9662015438
-0.1130495965 0.1028799936 1.13881278 -0.170329079 0.1066393852 -0.9789792299
-0.1198046431 0.1023852304 1.14135921 -0.1712366194 0.1267392188 -0.9765492082
-0.1271082163 0.09746858478 1.142243028 -0.2114189565 0.1373268515 -0.9666154981
-0.1355902106 0.09469638765 1.145170689 -0.2373806238 0.1476904601 -0.9598662257
-0.1453953236 0.101154618 1.154808998 -0.1992921382 0.1533147991 -0.967810452
-0.1370682418 0.09922959656 1.14892745 -0.2065518796 0.1461968273 -0.9668644667
-0.1303397864 0.09999363124 1.145676255 -0.1960711181 0.1389196962 -0.9698799253
-0.1477263272 0.05583195388 1.153748631 -0.3252773881 -0.3709313869 -0.8688426018
-0.1544363499 0.05005750805 1.16016078 -0.3521313965 -0.3815863729 -0.8543589711
-0.1327940226 0.07203830779 1.142659545 -0.3102290928 -0.05940344557 -0.9438000917
-0.1182443723 0.06578498334 1.136403322 -0.2844476104 0.0122063607 -0.9551169276
-0.1382356882 0.05969648808 1.147071838 -0.295258373 -0.2989244461 -0.8986598849
-0.1339429766 0.06126164272 1.144502282 -0.2930600643 -0.2284378558 -0.9137177467
-0.1316365749 0.06550438702 1.141029358 -0.3073728979 -0.1246561036 -0.9394053221
-0.1257683486 0.06302648783 1.140356898 -0.2833368778 -0.1177639142 -0.9361038804
-0.1263339818 0.0910211727 1.139607787 -0.3069863915 0.0716336742 -0.9476385713
-0.1440418214 0.08780834079 1.145080209 -0.2312511951 0.08593732119 -0.9683791995
-0.1349905729 0.0839355737 1.14262414 -0.2821700573 0.01529394742 -0.9560915828
-0.1398800462 0.08512919396 1.143603206 -0.2593202889 0.04471809417 -0.9627491236
-0.1371290237 0.0796219334 1.144115567 -0.2785936296 -0.02741062082 -0.9569149017
-0.1315442026 0.08841565996 1.140764117 -0.2912141085 0.05570992082 -0.9536972642
-0.1386977434 0.07045713067 1.143269539 -0.2997327149 -0.1111650094 -0.9417447448
-0.1443927586 0.07794489712 1.146030664 -0.2572089136 -0.08810006082 -0.9555009007
-0.1514403671 0.08155923337 1.146692514 -0.2320035547 -0.05227278918 -0.9659759402
-0.1489044726 0.0939604938 1.146450758 -0.2049156427 0.09089911729 -0.9732158184
-0.1547240019 0.08618634194 1.146366835 -0.2124941498 0.02590036578 -0.9768055677
-0.1113876998 0.06682609767 1.133941174 -0.2084873766 0.01652608626 -0.9692217112
-0.1053099409 0.06663814187 1.131063223 -0.05929955468 -0.05287256092 -0.9910610914
-0.1084915251 0.07403943688 1.133550286 -0.2022526115 0.09166505933 -0.9701542258
-0.1124429405 0.0783123076 1.135805488 -0.303591907 0.1016616598 -0.9442161918
-0.1074304655 0.07950887829 1.133981228 -0.2367719859 0.0796418488 -0.9618185163
-0.1151140854 0.08222202957 1.13679409 -0.3368194699 0.09020383656 -0.9359920621
-0.1150127798 0.07410787791 1.136158347 -0.2981618941 0.1171059236 -0.9470450282
-0.1213379875 0.07936321944 1.13767159 -0.3287017941 0.0855609253 -0.9399926662
-0.1203428954 0.08515650779 1.137433529 -0.3182058036 0.07497920841 -0.9444256425
-0.04698107764 0.05838859081 1.157610416 0.3054200411 -0.3100276887 -0.8999469876
-0.05186099559 0.05731391534 1.15349102 0.3034122884 -0.3361322284 -0.8915109038
-0.01945064776 -0.007259001024 1.267957449 -0.3905269206 0.4074020088 -0.825537622
-0.02160949074 -0.01167858578 1.2601794 -0.3905269206 0.4074020088 -0.825537622
-0.01773019508 -0.003375898814 1.271283627 -0.3905269206 0.4074020088 -0.825537622
-0.02308987267 -0.01286096685 1.265432596 -0.3905269206 0.4074020088 -0.825537622
-0.08618821949 0.07680066675 1.134783745 0.286149323 -0.03106496483 -0.9537059665
-0.09229559451 0.08090855926 1.133666039 0.158701852 0.01962260343 -0.9806872606
-0.09015969187 0.07105080038 1.134323597 0.2028554529 -0.09187462181 -0.9667468071
-0.07890342921 0.08162549883 1.136072397 0.3079022765 -0.02081270702 -0.951014936
-0.08377300948 0.0714597255 1.136492491 0.3084184527 -0.07779797167 -0.9466699958
-0.08218873292 0.07495180517 1.139587522 0.2737661898 -0.03614860773 -0.9506829977
-0.08305048198 0.06638839841 1.140922666 0.2954800725 -0.1229864433 -0.9410310388
-0.1063881218 -0.0385603942 1.276498795 0.143299982 0.6408773661 -0.7516033053
-0.1100311056 -0.03764138743 1.281195045 0.157856971 0.6548697352 -0.7351338863
-0.1146540567 -0.03815644234 1.276203752 0.1851264983 0.6202512383 -0.757435441
-0.1211940199 -0.03855668381 1.270992517 0.2160306573 0.5908063054 -0.7742528915
-0.1155120879 -0.03896590695 1.269937158 0.213582471 0.5022287369 -0.8318101168
-0.1707379669 0.04207257554 1.173029304 -0.2341152728 -0.3519470394 -0.906257093
-0.1752259731 0.03941805288 1.175137281 -0.2355947047 -0.3541837633 -0.9049803019
-0.17273283 0.04845438525 1.172324896 -0.2425028384 -0.3505173624 -0.9042994976
-0.168602109 0.05025474727 1.169282198 -0.2686862051 -0.3676311076 -0.8894529939
-0.1363952607 -0.04157266393 1.261502743 0.2344273031 0.5190992951 -0.8193799257
-0.1438437253 -0.03905938938 1.267430902 0.2442765534 0.594130218 -0.7663068771
-0.162021637 0.09426315129 1.15070951 -0.30158481 0.03163361922 -0.9525913596
-0.1685274541 0.09668672085 1.15394187 -0.3158386946 0.01925770938 -0.9475688934
-0.1730402261 0.09286171943 1.154551506 -0.3378673792 -0.01695092022 -0.9396219254
-0.1634412855 0.0972757712 1.156871915 -0.2922614217 0.004118181765 -0.9476205111
-0.155726999 0.09962312132 1.160077333 -0.2680955231 0.05421941355 -0.9512649179
-0.1600835025 0.09524673223 1.160976529 -0.28578192 -0.006908088457 -0.9422929287
-0.1632979214 0.09132240713 1.158906937 -0.3058147132 -0.04847848788 -0.9384425282
-0.168166548 0.08850882202 1.160199642 -0.3189711571 -0.1014460847 -0.9303578734
-0.1654599607 0.08683881164 1.154906631 -0.3294130862 -0.08232749999 -0.9371799827
-0.1567738801 0.102878809 1.156422019 -0.2667252421 0.08603105694 -0.9589298964
-0.1647892892 0.05676591396 1.161020517 -0.3229332566 -0.3549546003 -0.876811564
-0.1645457447 0.05174093321 1.162914634 -0.3102585971 -0.3550325632 -0.8814408779
-0.1647844315 0.04657890275 1.165068984 -0.2981207967 -0.3543326855 -0.8861684799
-0.1656294614 0.0630851537 1.158866405 -0.3398363888 -0.3540047705 -0.8709592223
-0.1718565822 0.06793966889 1.158635259 -0.3639018238 -0.3269757628 -0.8720223904
-0.1615701914 0.0692942217 1.153701901 -0.3502169549 -0.3213000596 -0.8773210049
-0.1604529321 0.07343913615 1.150272012 -0.3495535851 -0.2667226493 -0.896245122
-0.1672438979 0.06993702799 1.155753613 -0.3584525585 -0.3237452507 -0.8747497797
-0.1591380835 0.05490101129 1.163683653 -0.3173164725 -0.3925665915 -0.8628359437
-0.1477160752 0.05165743083 1.161991715 -0.3464590013 -0.390068233 -0.8530372381
-0.144259721 0.06857253611 1.158346415 -0.3221914768 -0.1725064218 -0.896869719
-0.1390883476 0.06887809932 1.157950997 -0.3255304396 -0.122041814 -0.9057958126
-0.1493661404 0.05813201144 1.160691023 -0.3359097838 -0.3378427327 -0.8638372421
-0.1489398628 0.06435956061 1.159463048 -0.3257759809 -0.2630229294 -0.8793885708
-0.1549248099 0.06103897095 1.160492539 -0.3268909454 -0.3552277386 -0.8619710207
-0.1346825063 0.07841249555 1.155826569 -0.312811017 0.0266065523 -0.9355534911
-0.1588454247 0.06699626148 1.157609582 -0.3108623028 -0.3335314691 -0.8874947429
-0.1546293944 0.07032626867 1.15420568 -0.3080621362 -0.3077035844 -0.8979111314
-0.0986744985 0.06284854561 1.141198874 0.006156951655 -0.05729148164 -0.9408596754
-0.1082549989 0.06390252709 1.137006402 -0.1649491042 -0.006712705363 -0.9565240741
-0.1202009916 0.07097818702 1.137308359 -0.3264034092 0.09794579446 -0.9393462539
-0.1051772535 0.06570615619 1.142582417 -0.1069390103 0.009512751363 -0.929954052
-0.1158417687 0.06854442507 1.141479135 -0.2953637838 0.09308722615 -0.9288151264
-0.1005305126 0.06783148646 1.143513799 -0.01093341131 -0.01700582542 -0.9321632981
-0.1371243596 0.05833403766 1.152932167 -0.3410204053 -0.2229055762 -0.8825308084
-0.1328544319 0.06078504398 1.150281787 -0.3448090553 -0.1416812539 -0.892942369
-0.1439127326 0.05502643064 1.159880757 -0.3460429311 -0.3199670613 -0.8644145727
-0.1361049414 0.07262669504 1.156303763 -0.3220572174 -0.04965932667 -0.9190296531
-0.1405388713 0.0573708266 1.157399893 -0.3460969031 -0.2562361956 -0.874250114
-0.127384752 0.07425751537 1.149104357 -0.3309668899 0.0703850016 -0.9328642488
-0.1394445151 0.06276572496 1.157419086 -0.3369365036 -0.1888112128 -0.8895657659
-0.1277668625 0.06734654307 1.14820385 -0.3441211879 -0.003873187816 -0.9143634439
-0.1325725317 0.06571183354 1.15204072 -0.3406685591 -0.07745400816 -0.9048137069
-0.1314756721 0.07487769425 1.152728081 -0.3240437806 0.02804290317 -0.9299982786
-0.1243744716 0.07023978978 1.145804644 -0.3431140184 0.06561452895 -0.9256553054
-0.04135303944 0.07248665392 1.157243609 0.2740829289 -0.2734172344 -0.9210894108
-0.04001811147 0.0679352656 1.158696532 0.2888327837 -0.2801823318 -0.914740026
-0.04225067794 0.06099366769 1.156972766 0.3057555556 -0.3004841208 -0.9032682776
-0.1520403028 0.03108852915 1.168076515 -0.2757740319 -0.3683024347 -0.8866257071
-0.1544351429 0.03587958962 1.168343902 -0.3058587313 -0.3570212126 -0.8800688982
-0.1457502693 0.04229762405 1.161522388 -0.3483442962 -0.3553791344 -0.8669183254
-0.1464975476 0.03876317665 1.164578795 -0.362965852 -0.357811749 -0.8603005409
-0.1436258107 0.0510344021 1.155202627 -0.3248375058 -0.354937464 -0.8758653402
-0.1512733996 0.04050985351 1.164158583 -0.351213038 -0.3604548872 -0.8639829755
-0.1645560265 0.0274634473 1.175277472 -0.2291259915 -0.3551113307 -0.9062765837
-0.1561865509 0.02874403074 1.170848131 -0.242745623 -0.372636497 -0.8955845237
-0.172983408 0.04400270432 1.167163372 -0.2569384575 -0.3593803346 -0.8963651061
-0.1619232297 0.04240997136 1.16589582 -0.2997777462 -0.3549202979 -0.885353744
-0.156287238 0.04290596023 1.16395092 -0.3347289562 -0.3619531095 -0.8696559072
-0.1667537838 0.04226938635 1.170393825 -0.2501211464 -0.3617251217 -0.8976362348
-0.1613505334 0.03575624526 1.170631647 -0.2626826763 -0.3570236564 -0.8947458267
-0.151806742 0.04580159113 1.164203644 -0.3431767523 -0.3721088767 -0.8607437015
-0.1572348922 0.04878703132 1.165040493 -0.3231362104 -0.3764913678 -0.8668342829
-0.1637362838 0.02058138885 1.177023292 -0.2283542007 -0.3580902517 -0.9052712917
-0.1580685526 0.02427905425 1.173876166 -0.232972905 -0.3775063753 -0.8961569667
-0.1744495183 0.03430207074 1.176054716 -0.2348300219 -0.3578265309 -0.9037773609
-0.01825277135 -0.001070279162 1.266586661 -0.3905269206 0.4074020088 -0.825537622
-0.01922941953 -0.003120193491 1.261261106 -0.3905269206 0.4074020088 -0.825537622
-0.04055060819 0.06547022611 1.152811289 0.3002958298 -0.2954776883 -0.90672791
-0.0422007665 0.08160404861 1.153493881 0.2443961948 -0.2610176504 -0.933488667
-0.05056804419 0.06724599004 1.153995991 0.2914651632 -0.2986005843 -0.9082304835
-0.04492375255 0.06435982138 1.159344554 0.3017841876 -0.2895911634 -0.9080812931
-0.04612337053 0.07194604725 1.155053377 0.2762569487 -0.2824415267 -0.9176459908
-0.1779370606 0.03210060671 1.173486352 -0.2278083116 -0.3580900133 -0.9054038525
-0.1851415038 0.03692252561 1.170320511 -0.2189000994 -0.3595352471 -0.9070468545
-0.1728394032 0.03561559319 1.171020985 -0.2346524149 -0.3593172431 -0.9031201005
-0.1662922055 0.0328460969 1.172556639 -0.2394690067 -0.3581362665 -0.9023857117
-0.1775776595 0.02707106061 1.179029703 -0.2321918756 -0.3583115637 -0.904263556
-0.1693970263 0.02615281753 1.176645041 -0.2300822437 -0.3554459512 -0.9059286714
-0.173202306 0.02943959646 1.178106308 -0.2342129648 -0.3573979437 -0.9041068554
-0.1717941463 0.02382851951 1.180499554 -0.2333439887 -0.3566160202 -0.9046407938
