# .PCD v0.7 - Point Cloud Data file format
VERSION 0.7
FIELDS x y z normal_x normal_y normal_z
SIZE 4 4 4 4 4 4
TYPE F F F F F F
COUNT 1 1 1 1 1 1
WIDTH 512
HEIGHT 1
VIEWPOINT 0 0 0 1 0 0 0
POINTS 512
DATA ascii
-0.1045595855 -0.1319200993 1.038368464 0.3722929657 -0.1471032947 0.9158445597
-0.02141262218 -0.1285383999 1.005301595 -0.1506986171 -0.2335539162 0.9568170309
-0.01284006145 -0.09293475002 1.023923874 -0.3492822349 -0.4032616913 0.8446351886
0.08264807612 -0.184797883 1.126525879 0.005563125946 0.1023205221 0.9947358966
0.08197495341 -0.1898950487 1.129335046 0.005563125946 0.1023205221 0.9947358966
0.08075702935 -0.1996290386 1.133663177 0.005563125946 0.1023205221 0.9947358966
0.0768821463 -0.203181386 1.134495735 0.005563125946 0.1023205221 0.9947358966
0.07525479048 -0.1986274719 1.133907318 0.005563125946 0.1023205221 0.9947358966
-0.0153208496 -0.1329800636 1.010307789 -0.2401463985 -0.1994110197 0.930460155
-0.0315351449 -0.1380733103 1.008058786 0.168218568 -0.2634851336 0.901745379
-0.02591096982 -0.136085391 1.006010771 0.02766554803 -0.2242918909 0.9328594208
-0.02157598361 -0.1342749596 1.005397201 -0.08769202232 -0.2038699239 0.9521536231
-0.01580966637 -0.1289188564 1.006993771 -0.2457223088 -0.2168129832 0.9422523379
-0.01054421905 -0.1317466944 1.011749625 -0.3417203128 -0.2082500309 0.9103463888
-0.03465659544 -0.1374387294 1.003936768 0.1758051962 -0.2369031161 0.9337411523
-0.0387066938 -0.139582485 1.003987193 0.2675680816 -0.2383099496 0.916382134
-0.01977466978 -0.1012515724 1.015327215 -0.2759303451 -0.3811650574 0.8761044145
-0.02831782401 -0.09765975922 1.013914824 -0.1020482108 -0.4192332029 0.8974750042
-0.03165598959 -0.1018678322 1.012401223 -0.02705137618 -0.3802916408 0.9169164896
-0.0162802022 -0.08955129981 1.025483251 -0.351264894 -0.4138982892 0.8357147574
-0.01881578378 -0.09214003384 1.02205503 -0.2969251573 -0.4206906259 0.8511684537
-0.02031924203 -0.09691762179 1.018208385 -0.2696093023 -0.3971376121 0.8726688623
-0.1015979424 -0.1286061853 1.031957746 0.342571646 -0.1729863733 0.9227187037
-0.08902636915 -0.2049467564 1.029273152 -0.2382163256 0.1753061861 0.9548591971
-0.09045575559 -0.1991531104 1.029978514 -0.2102689892 0.1572184265 0.9632038474
-0.09159097821 -0.1881342679 1.032586813 -0.1609311104 0.1317846328 0.9768592715
-0.09285528213 -0.2020103335 1.033340454 -0.2328317761 0.1548782587 0.9599537849
-0.09775146842 -0.1896990985 1.033320189 -0.1849148273 0.08788901567 0.9758093953
-0.1029526442 -0.182407558 1.027384877 -0.1130561009 0.08753480017 0.9827916026
-0.1052705944 -0.1762704998 1.025643706 -0.06127706915 0.07067253441 0.9927936792
-0.09866046906 -0.1859512776 1.030470133 -0.1545549035 0.1038778648 0.9778994322
0.07905505598 -0.1921530813 1.133616209 0.005563125946 0.1023205221 0.9947358966
0.0731479302 -0.1909333318 1.133610249 -0.0141790919 0.1176316068 0.9927507043
-0.03241232783 -0.1275004447 1.005769849 0.1365323663 -0.2518384755 0.9489765167
-0.02673062682 -0.1296482086 1.004782438 -0.02761240862 -0.2370160818 0.9631979465
-0.005849231035 -0.2726690471 1.122386217 -0.2118802816 -0.1687843651 0.9626103044
0.004177753348 -0.2725246549 1.120358825 -0.2118802816 -0.1687843651 0.9626103044
-0.01370127872 -0.1123539209 1.012761354 -0.3326123059 -0.3071213067 0.8872858286
-0.01610917039 -0.1168721542 1.010245562 -0.2950681448 -0.2827034295 0.9084053636
-0.01523606852 -0.1058335006 1.014736295 -0.361972779 -0.3366587162 0.8691782951
-0.008207805455 -0.1115309447 1.014931917 -0.3654193282 -0.3170028329 0.8707458973
-0.01127766538 -0.117498368 1.011947274 -0.3230647445 -0.2825747728 0.8968419433
-0.1074727848 -0.1379325986 1.035240531 0.3510661423 -0.1828224063 0.9173097014
-0.1036303341 -0.1344695985 1.032996893 0.3617660999 -0.1501012295 0.9200075269
-0.111668773 -0.1490559727 1.036624074 0.2794738114 -0.1822508723 0.938220799
-0.1117260456 -0.15191634 1.041180968 0.2316425294 -0.1400454938 0.9577384591
-0.1106966957 -0.1448795199 1.032632232 0.3317240477 -0.2110166103 0.9192736149
-0.09661962092 -0.1261989027 1.03404057 0.2961262167 -0.1972731948 0.9339928031
-0.0427614674 -0.1087062508 1.022003174 0.1774177849 -0.2126279026 0.8778940439
-0.04717892408 -0.1145912111 1.01793921 0.3574029207 -0.1909557879 0.8980828524
-0.04148450866 -0.1112788469 1.017450809 0.2409898639 -0.2401327193 0.8974105716
-0.04521298781 -0.1050938889 1.019612432 0.2054519504 -0.2092228979 0.8928338289
-0.03039983101 -0.09963734448 1.022191763 -0.110618189 -0.3158518672 0.8713309765
-0.05452614278 -0.1158889458 1.021806717 0.4362749159 -0.1161515564 0.8848719001
-0.0378122814 -0.1030830815 1.021271706 0.05066071078 -0.2599665821 0.8800045252
-0.05091935024 -0.1111636758 1.020674706 0.3445078135 -0.1541211754 0.8895437717
-0.0370006673 -0.1025813892 1.01213789 0.09811458737 -0.3787304759 0.9157732129
-0.04286414757 -0.1018913314 1.014113665 0.1846422553 -0.3041301668 0.9134992361
-0.0351395458 -0.09923846275 1.019653797 -0.01355700847 -0.2979406416 0.8865953684
-0.03444916755 -0.09773314744 1.013579249 0.01495265774 -0.3868749738 0.9088699222
-0.02472675219 -0.09539011866 1.021563053 -0.2366930842 -0.3714668453 0.8711538315
0.07493877411 -0.1788225025 1.124674559 0.005563125946 0.1023205221 0.9947358966
0.07375081629 -0.178640902 1.129355431 0.005563125946 0.1023205221 0.9947358966
0.07588186115 -0.1732670665 1.121893406 0.005563125946 0.1023205221 0.9947358966
0.08020939678 -0.1761744469 1.121706724 0.005563125946 0.1023205221 0.9947358966
0.07261956483 -0.1854587197 1.131734967 -0.002949592425 0.1089225635 0.9938799143
0.07916756719 -0.1777030677 1.128238559 0.005563125946 0.1023205221 0.9947358966
0.0766486004 -0.1825495958 1.130803347 0.005563125946 0.1023205221 0.9947358966
-0.04210642353 -0.1359025985 1.004477024 0.35014382 -0.2499306947 0.8999456167
-0.04792160168 -0.1388523728 1.008940816 0.4410944581 -0.1828377545 0.8710811734
-0.0775609836 -0.2113801986 1.045887709 -0.3089995384 0.211992994 0.9266644716
-0.06824795157 -0.1890390813 1.033741593 -0.2982686162 0.2817060649 0.9104120135
-0.06634411216 -0.1926220506 1.036390424 -0.3498662114 0.2734290957 0.8949800134
-0.07454843819 -0.197308585 1.032604337 -0.2961128652 0.2449058592 0.9199613929
-0.05347448215 -0.1451517791 1.016432285 0.4084472954 -0.03917428851 0.8896951675
-0.06053203344 -0.152264297 1.022468448 0.285554111 0.09137520939 0.9219354391
-0.06438081712 -0.1607955694 1.02501142 0.1475266814 0.2139633745 0.9540253878
-0.05632314458 -0.1359167099 1.021203995 0.4622964561 -0.1042338014 0.8783863187
0.0008600945584 -0.1040965021 1.022225022 -0.4100467265 -0.3379403353 0.8441645503
0.001081265276 -0.09817781299 1.027375937 -0.3738788366 -0.4078261554 0.8321893215
-0.002661059611 -0.09696774185 1.024912596 -0.3889538348 -0.3841896653 0.8338707089
-0.002596755978 -0.1066710427 1.018824816 -0.4117739797 -0.3265126348 0.8495954275
0.009187844582 -0.09359078854 1.036770701 -0.3885798454 -0.355278939 0.8482483625
0.01645021886 -0.09218174964 1.040328026 -0.4177558124 -0.3019950986 0.8556330204
0.006343972869 -0.09383940697 1.03236711 -0.390904665 -0.3983382583 0.8290581703
0.01196113881 -0.08911066502 1.037285686 -0.4151115119 -0.3761993945 0.8276318908
0.01561153308 -0.1020644978 1.036913157 -0.4168482423 -0.3003813028 0.8569180369
0.0224668663 -0.1034260541 1.040963531 -0.4288761616 -0.2663039863 0.863031745
0.02035843208 -0.09884047508 1.040951848 -0.4241497815 -0.2724421918 0.8634889722
0.01946558058 -0.1078248844 1.037710905 -0.4248414636 -0.2864288688 0.8575530052
0.01359648071 -0.09612840414 1.037482619 -0.4108166695 -0.3069983125 0.857661128
-0.004031031393 -0.1115785688 1.01774931 -0.4203511775 -0.2969636023 0.8570148349
-0.05480255559 -0.1075745597 1.017434239 0.3881981373 -0.1466184407 0.9094797969
0.04190688208 -0.260327667 1.134423733 -0.0668438822 -0.07953453809 0.9944207072
0.05651520938 -0.246523872 1.131003261 0.01830307394 -0.07548879087 0.9963068366
0.04671709985 -0.2557278574 1.136022687 -0.04142464325 -0.07214397937 0.9960519075
0.0531850867 -0.2496300638 1.133537769 -0.002820418216 -0.07246543467 0.9965290427
0.03775693104 -0.2583571374 1.133519173 -0.07269478589 -0.08165555447 0.9940057993
0.05068450421 -0.2504274547 1.129578233 -0.008240534924 -0.08253379166 0.9947454929
0.04590180516 -0.2523204386 1.130741715 -0.02892954648 -0.08225506544 0.9945078492
-0.05687460676 -0.1991482675 1.05150795 -0.3745839596 0.2853021324 0.8819116354
-0.06029982865 -0.1989789903 1.055638194 -0.3551515043 0.2723959386 0.8939952254
0.001394079416 -0.2662966847 1.118235111 -0.2109448165 -0.1403751373 0.9673270583
-0.002224782715 -0.2709775567 1.118750095 -0.2116122693 -0.1606453657 0.9639616013
-0.01011625212 -0.2693567574 1.122436047 -0.211277321 -0.1504731476 0.9656504989
-0.02185161784 -0.1138612404 1.01056397 -0.208851859 -0.2936110795 0.9313644171
-0.01910129562 -0.1215081885 1.008129239 -0.2237915397 -0.2588898242 0.938558042
-0.02302735858 -0.1088238955 1.012107611 -0.2080332935 -0.3164049089 0.9239540696
-0.01858097129 -0.1106696352 1.012194037 -0.2813156247 -0.3107524812 0.9031808376
-0.02444121614 -0.1230009273 1.007308364 -0.1578004062 -0.2442003191 0.9560164213
-0.02868828364 -0.1125857905 1.010973573 -0.08031897992 -0.3204858005 0.9334775209
-0.03404761478 -0.1072636843 1.010815978 0.05498165265 -0.3701356053 0.9222639203
-0.03375413641 -0.1126667038 1.009436131 0.08023641258 -0.3376470506 0.9292405844
-0.03363133222 -0.1185139567 1.00802505 0.1146204546 -0.3032850921 0.9361780882
-0.02721478604 -0.1059110537 1.012757301 -0.1302415729 -0.3422219753 0.9229214191
-0.02640865371 -0.1175342202 1.011312366 -0.1043241024 -0.264590174 0.950225234
-0.1019836739 -0.1833590567 1.03318584 -0.1247697771 0.03216671944 0.9912945032
-0.1116185188 -0.1583831608 1.035134196 0.158858791 -0.07233336568 0.9811617136
-0.1106104776 -0.1682154685 1.025785804 0.04201234505 0.0159312766 0.9949447513
-0.1114152297 -0.1632607281 1.033248901 0.09852913767 -0.04064692929 0.9878889918
-0.1095911339 -0.1679386795 1.031099677 0.04425069317 0.0008012759499 0.9916008711
-0.09525660425 -0.178256169 1.033267617 -0.07268203795 0.09902895242 0.9892058969
-0.1007190123 -0.1760833412 1.028685808 -0.05729416013 0.08420163393 0.9928184152
-0.0901543349 -0.1823152602 1.033332944 -0.1076486334 0.1314361095 0.9840676188
-0.09117002785 -0.1752379686 1.032175899 -0.04186369479 0.126462549 0.988992393
0.06416799128 -0.216842562 1.1342628 0.0834653303 -0.03236928955 0.9958655834
0.05832142383 -0.2176935971 1.134760261 0.09430477768 -0.04558818787 0.9944016337
0.05235078558 -0.2167144269 1.13381958 0.1058052182 -0.06441622227 0.9921352863
0.06439678371 -0.2070923299 1.134100199 0.101121895 -0.006759763695 0.9947622418
0.06430856138 -0.211831212 1.134143949 0.09069764614 -0.01828918792 0.9955310225
0.05883435905 -0.2075689286 1.134609103 0.1096679568 -0.03498510644 0.9932746887
0.05928157642 -0.2120797038 1.133431792 0.1069988087 -0.03561057523 0.9932671785
-0.1060800627 -0.1403672844 1.03002584 0.3470513523 -0.1854645163 0.9185765386
-0.06603033841 -0.1627109349 1.029711485 0.1447304487 0.2497758418 0.9455716014
-0.06058799103 -0.1474725455 1.024418831 0.3679922521 0.03977696598 0.9014313221
-0.06531341374 -0.1553380638 1.027757883 0.2330847383 0.1670444012 0.93606323
-0.06544769555 -0.1460287869 1.025358081 0.3351076841 0.07146003842 0.9314201474
-0.06398379803 -0.1557205766 1.022911668 0.2140991241 0.1414988041 0.9528015852
-0.05356433243 -0.1506384462 1.014003873 0.2619387507 -0.02465666644 0.9275102615
-0.05660413951 -0.1525544673 1.016724706 0.2415217161 0.02912398241 0.935225904
-0.04821038991 -0.1462599635 1.008928776 0.3128628731 -0.1316698343 0.9131399989
-0.04491683468 -0.1426227242 1.006316662 0.3796078861 -0.1926398724 0.8954311013
-0.05963062868 -0.1567840576 1.02022171 0.1902651638 0.1139320433 0.9433099627
-0.05125046894 -0.1421553791 1.012086391 0.4586697519 -0.121615909 0.8685991764
-0.07987591624 -0.167764917 1.028933406 0.02260980196 0.1992432028 0.9766013026
-0.07191769034 -0.2071083188 1.040152788 -0.3162572086 0.2525151372 0.9124479294
-0.08035144955 -0.205969125 1.032033324 -0.285073638 0.2196759582 0.9298303723
-0.0699024573 -0.2025731653 1.037887216 -0.3505282104 0.2652595341 0.8969196677
-0.08453915268 -0.2074792534 1.02981782 -0.2580091357 0.2012552619 0.9433730245
-0.07393089682 -0.2034879178 1.035285234 -0.3274941742 0.248087436 0.9086744189
-0.06869023293 -0.1971844733 1.036437631 -0.3518218696 0.2637710571 0.8966351151
-0.06009799615 -0.202005282 1.041996956 -0.3628840446 0.2758387029 0.8899619579
-0.06162440032 -0.1937874258 1.037016392 -0.3446957469 0.2896010578 0.8925377727
-0.07628325373 -0.2095528841 1.039221525 -0.2878218889 0.2310508639 0.9275671244
-0.07033792138 -0.2102091908 1.044974566 -0.3118076324 0.2539989054 0.914695859
-0.08336299658 -0.2094617337 1.034523129 -0.2670339048 0.1995721459 0.941873908
-0.06562021375 -0.2025960237 1.053661823 -0.3424700499 0.2544533014 0.903583765
-0.05954230949 -0.1957947165 1.058745623 -0.3616219461 0.2719703019 0.8916092515
-0.06864692271 -0.207329765 1.049904346 -0.3291049302 0.249898538 0.9099338055
-0.08216229826 -0.1997237653 1.030255914 -0.2056567967 0.2131905705 0.9514241219
-0.07929749787 -0.1935757697 1.031927586 -0.1601912528 0.2251552194 0.9566624761
-0.07326629013 -0.1927702874 1.03196013 -0.2699796259 0.2602596581 0.9243755341
-0.08475346863 -0.1804321259 1.034384131 -0.08239971846 0.1858536154 0.9771196246
-0.07865200192 -0.186056599 1.040266633 -0.1678541005 0.1936795264 0.957708478
-0.07220108807 -0.1880794764 1.04661715 -0.2266637087 0.2223554552 0.9355872869
-0.06896095723 -0.1869496554 1.049878716 -0.2389540523 0.2479162216 0.9236021638
-0.06244731694 -0.1920028776 1.056190372 -0.3225352466 0.2612167597 0.9024922848
-0.07079599053 -0.1824648082 1.043718457 -0.1495321244 0.2508294284 0.939186573
-0.07725736499 -0.1807863265 1.041684985 -0.1333514303 0.2292558998 0.9509541988
-0.08024457097 -0.1778566092 1.037621856 -0.07915715873 0.2238852978 0.9632717967
-0.06460407376 -0.1887522936 1.052451968 -0.2665245831 0.2615026534 0.9129687548
-0.07613516599 -0.1764256954 1.035292387 -0.03525746241 0.2429459989 0.9637655616
-0.07223635167 -0.1789293289 1.038681149 -0.07735691965 0.2527770996 0.9519044161
0.00869110506 -0.09833520651 1.030027866 -0.3886184692 -0.3660711944 0.842473805
0.01826691255 -0.0996183753 1.032179236 -0.4216979742 -0.2886493802 0.8582588434
0.01205915678 -0.1019078791 1.02895689 -0.4196616411 -0.3108954728 0.8495202065
0.004682010971 -0.1022941098 1.026513696 -0.3880516589 -0.355253011 0.8485888839
-0.01926563308 -0.09689164907 1.023081899 -0.3300119638 -0.3754786551 0.8588829637
-0.03295025602 -0.1047795117 1.019250631 0.01842641085 -0.3020113707 0.8849788904
-0.03581368178 -0.1091056019 1.018326521 0.1157632321 -0.2693426609 0.8894039392
-0.01784917153 -0.1024429128 1.02318716 -0.3079409003 -0.3419196606 0.8537176847
-0.02609865367 -0.1046891436 1.020992279 -0.1207975596 -0.3138493598 0.8704199195
-0.03017037362 -0.1119454503 1.016270518 0.04926031828 -0.2886740565 0.9139392376
-0.0353227444 -0.1132828221 1.015734673 0.1602021456 -0.2645225525 0.9150642753
-0.00945112668 -0.1144505367 1.020772099 -0.3714076281 -0.2898235619 0.8745943904
-0.01244742144 -0.1081510261 1.022012472 -0.375831604 -0.3218516111 0.8631563783
-0.01718880609 -0.1122223213 1.017466068 -0.293269664 -0.3037198484 0.8971370459
-0.02550281771 -0.1124839559 1.014947414 -0.1157116815 -0.2982691526 0.9189799428
-0.02062784135 -0.1086512282 1.018431783 -0.2330853492 -0.3185178638 0.8908948898
-0.01136834174 -0.1039325744 1.017524838 -0.368429929 -0.3490335643 0.8607935309
-0.03190253675 -0.1236238629 1.010670781 0.1068524718 -0.2348548025 0.9468261003
-0.02270738408 -0.1267481893 1.010890603 -0.1036714241 -0.2153348774 0.9439467192
-0.03712425381 -0.1351644993 1.008201718 0.2891162932 -0.274877131 0.90601933
-0.02943842858 -0.1290381551 1.010236859 0.07954394072 -0.237383008 0.9292118549
-0.02540434897 -0.1327184886 1.009961605 -0.001095239772 -0.2335944474 0.9203348756
-0.03724806756 -0.1287010312 1.009447336 0.2645535767 -0.2603591084 0.9256770611
-0.02012101002 -0.1345216781 1.010188818 -0.1195509359 -0.2216804922 0.9179180861
-0.05355036631 -0.1285344064 1.019660592 0.4808161557 -0.1224507913 0.8652105331
-0.03809875995 -0.123271428 1.011545062 0.2459339052 -0.2325547934 0.9365196824
-0.04812265933 -0.1245519966 1.01647377 0.4337671399 -0.1569892913 0.8753758669
-0.04958609864 -0.1320451796 1.017277718 0.3924517334 -0.164648369 0.8947327137
-0.0416026786 -0.1270833164 1.013058186 0.2922249436 -0.215801537 0.9228811264
-0.04231644794 -0.1317207813 1.012149215 0.3276728094 -0.227617681 0.908207953
-0.04549681023 -0.1286637187 1.015373945 0.335808903 -0.1875679493 0.9115855098
-0.04545405135 -0.1350193322 1.013393998 0.3755799532 -0.2127835453 0.8932363987
-0.04138967022 -0.1393835098 1.009132504 0.3680709004 -0.2657529414 0.887594223
-0.0522098653 -0.1376771778 1.013811946 0.5052218437 -0.1194131896 0.8516275883
-0.03662921116 -0.1312310994 1.005141854 0.2405460179 -0.2462871522 0.9360027313
-0.04090421647 -0.1246190295 1.007571697 0.333221823 -0.232841894 0.9019309878
-0.03589738905 -0.1232948899 1.007136941 0.2112124115 -0.273263067 0.9323958755
-0.03858460486 -0.112524122 1.010120988 0.2021485865 -0.3210587502 0.9081401825
-0.03907243162 -0.1076181456 1.011459351 0.170230329 -0.3438895345 0.9137658477
-0.04335200787 -0.1098944619 1.01173079 0.2603780031 -0.295222789 0.9119207263
-0.04905773699 -0.1227920949 1.011072159 0.4123771787 -0.1653256118 0.8947774172
-0.05319995433 -0.1199130341 1.013709784 0.4166786075 -0.143794626 0.8962146044
-0.05783196166 -0.1153705642 1.016956091 0.4179515541 -0.1210738048 0.8993061185
-0.05152768269 -0.1130984724 1.014433861 0.3936153054 -0.1606633812 0.9045851231
-0.08440500498 -0.1238966063 1.025135756 0.3354397416 -0.1391288638 0.9284903407
-0.08919902891 -0.1275949925 1.027661681 0.2938306332 -0.1495112926 0.943416357
-0.06421694905 -0.1165124178 1.019469142 0.425591737 -0.0976312533 0.8989095688
-0.08317815512 -0.1244002432 1.029903412 0.3379712999 -0.1557982862 0.9267174602
-0.0772671923 -0.1209134832 1.024003983 0.3728630245 -0.1289391518 0.9155881405
-0.07114871591 -0.1194092184 1.023317695 0.3934624493 -0.1190078408 0.909107089
-0.09318979084 -0.1252227277 1.026806116 0.3163465858 -0.1581343114 0.9333990216
0.05780316517 -0.2393944561 1.135546803 0.0429357253 -0.06697167456 0.9949237704
0.06599576026 -0.2317939252 1.130743384 0.106895186 -0.0789129734 0.9910323024
0.06344264746 -0.2357014269 1.128089786 0.09414358437 -0.08773430437 0.9915758967
0.06953917444 -0.2249363065 1.133217096 0.1080252901 -0.06892225146 0.9917028546
0.05829354003 -0.2315936089 1.128872752 0.09921486676 -0.08071033657 0.9916632771
0.06197153404 -0.2279405594 1.131549954 0.1028580368 -0.07343941927 0.9919099212
0.001242326107 -0.2693615258 1.12498796 -0.2116149217 -0.1607256532 0.9639482498
-0.006836290471 -0.2671092451 1.12486589 -0.2111648768 -0.1470580846 0.9662175179
0.0005643427139 -0.2626602054 1.128100991 -0.2109146565 -0.1394595206 0.9674790502
0.04028433934 -0.2518300116 1.130266786 -0.0587407276 -0.0879529044 0.9908217192
0.0296664238 -0.2536152005 1.127262592 -0.1600282639 -0.1144262105 0.9743975401
0.03528048098 -0.2533868551 1.130082488 -0.09548787028 -0.09473480284 0.9864103794
0.04378028214 -0.2484877855 1.126515746 -0.06768234819 -0.1011554301 0.9834153652
0.0449632667 -0.2458222657 1.132166982 -0.02640160732 -0.07329828292 0.9942188263
0.05113839731 -0.245634228 1.126334548 -0.01862744987 -0.09325673431 0.9883865714
0.03753491864 -0.2501905262 1.126232624 -0.1146773398 -0.1098528281 0.9775626659
0.02319814451 -0.2594466805 1.1268543 -0.2068303376 -0.1431130916 0.9667641521
0.07906926423 -0.1814931184 1.12535131 0.005421355367 0.1024304703 0.9947216511
0.07533355802 -0.1900386661 1.129431367 -0.004825170152 0.1103771701 0.9936913252
0.0672153011 -0.191492334 1.132783294 -0.02652245946 0.1272045076 0.9915094972
0.0724946782 -0.1833591312 1.127300739 -0.0008838937501 0.1073205099 0.9940876365
0.07181949168 -0.2038395852 1.13422668 0.008853925392 0.09688816965 0.9941230416
0.06617035717 -0.1966227442 1.132560968 -0.02506295964 0.1260017753 0.9916330576
0.06778391451 -0.2016147077 1.133717656 0.05816543102 0.04413658381 0.9943276644
-0.09327334911 -0.1926153153 1.033714533 -0.2066783011 0.1364345998 0.9677633643
-0.08620671183 -0.1862562597 1.033999562 -0.12754637 0.1598550677 0.9783886075
-0.08166199178 -0.1856719553 1.033882618 -0.1096315533 0.1903355271 0.9742978215
-0.07764236629 -0.1884034723 1.033346653 -0.110551171 0.2303017527 0.9647197723
-0.0853227675 -0.1919551939 1.032163024 -0.1529383659 0.1724715531 0.9710267782
-0.08692388237 -0.1990276873 1.037407756 -0.2286873609 0.1770576835 0.9545541406
-0.08956884593 -0.2035510391 1.036884427 -0.2509745061 0.1653467119 0.9525155425
-0.08429050446 -0.2075766325 1.040836573 -0.2760484517 0.1874354035 0.9410495162
-0.06080401316 -0.1349126399 1.0235852 0.4330382645 -0.06296935678 0.8973422647
-0.06432576478 -0.138041079 1.024719954 0.3884350955 -0.006147526205 0.9203060269
-0.06003313512 -0.1404052824 1.022757053 0.4430740178 -0.03596295789 0.8938770294
-0.01664121263 -0.1172997952 1.015155911 -0.2792875767 -0.281472683 0.9103412032
-0.01384037267 -0.1228198186 1.013005018 -0.3299333155 -0.265925318 0.9044284821
-0.1122216508 -0.1574816108 1.043353438 0.1616754085 -0.1121685952 0.9785102606
-0.1091948226 -0.1662462056 1.036474705 0.06623113155 -0.03533229604 0.9867323637
-0.1062721163 -0.1739003956 1.032552123 -0.01793720573 0.01510501932 0.9915841222
-0.1102986932 -0.1628148407 1.039773226 0.1033608392 -0.07025418431 0.9828370214
-0.1044488996 -0.1783959121 1.031044126 -0.0676830858 0.03836733103 0.9935448766
-0.1010206267 -0.17847839 1.034545422 -0.07312008739 0.03272389248 0.9902706742
-0.1042895019 -0.170341149 1.037594318 0.01681129448 -0.0120221721 0.9863624573
-0.05822791532 -0.1910532266 1.03912437 -0.3417675793 0.2968405485 0.8911988139
-0.05825307965 -0.1948127002 1.0423913 -0.3625838161 0.2963603139 0.8829205632
-0.06233771518 -0.1891951114 1.035548806 -0.3420032263 0.2898713946 0.893410027
-0.1050455794 -0.1543273181 1.026437283 0.2315887958 -0.06976924837 0.9561193585
-0.1096747965 -0.1544260532 1.028310776 0.2247232944 -0.1116658226 0.9501495957
-0.1056061089 -0.1493494213 1.028849363 0.2920310199 -0.1258871555 0.938970387
-0.1108435318 -0.1593138576 1.027947068 0.1595599353 -0.0626533255 0.9712746739
-0.1112367809 -0.1503127068 1.031594038 0.2709263265 -0.1618633121 0.9387634993
-0.1013387144 -0.1633251756 1.024068832 0.07245738804 0.057660494 0.9935317039
-0.09021421522 -0.1569076329 1.026269555 0.1085630432 0.1060543805 0.9864360094
-0.09496702999 -0.1585066319 1.025731087 0.09656450152 0.06389277428 0.9903258681
-0.09074842185 -0.1619161516 1.025979042 0.07641669363 0.1354158521 0.984703064
-0.109604992 -0.1451585144 1.04217732 0.2989383042 -0.1154731959 0.9412899613
-0.1044995636 -0.1453605443 1.039549112 0.2876138985 -0.0659416616 0.9418742657
-0.1038878635 -0.152317062 1.039412022 0.2057305127 -0.04518507421 0.9641820192
-0.100403972 -0.1550587565 1.037685275 0.1677564681 -0.00581794139 0.972933352
-0.09585566819 -0.1582189649 1.035420299 0.1230490878 0.04468057305 0.9830139875
-0.1080245599 -0.1394821852 1.041216612 0.3620961308 -0.1124106497 0.9230614901
-0.09152821451 -0.1706542075 1.035799384 0.01159531344 0.134795323 0.9786861539
-0.101351209 -0.1628347188 1.037379384 0.08725345135 0.01466434728 0.9856138229
-0.09769982845 -0.1714120209 1.034777284 2.233726809e-05 0.06527113914 0.9899457693
-0.09922597557 -0.1667959839 1.038161755 0.05590649322 0.04306662083 0.9804989696
-0.09491475672 -0.1671414077 1.025133491 0.02759119868 0.1340886056 0.9867143035
-0.1050387695 -0.1704405993 1.023107648 0.0004015044542 0.08004467934 0.9945918322
-0.09995280951 -0.1687928587 1.024113655 0.01373269968 0.1073845997 0.9906228781
-0.09029690176 -0.1670407504 1.027335882 0.02698573656 0.1532971859 0.9843996167
-0.09497693926 -0.1724456251 1.030118465 -0.01934966817 0.1112040579 0.9917589426
-0.08517844975 -0.164237991 1.027256846 0.05042895675 0.1857961267 0.9793142676
-0.06976933032 -0.170071885 1.029838443 0.02582849376 0.2538096309 0.9590476751
-0.0654706955 -0.1834810078 1.033629298 -0.2713908851 0.2973627448 0.9105120301
-0.06069147214 -0.180164367 1.032204747 -0.2145361453 0.2920935452 0.9118397236
-0.06393124908 -0.1706388593 1.029671907 -0.01878063194 0.2775149345 0.9396899343
-0.06250467151 -0.1752775013 1.031187177 -0.1077366471 0.2887284458 0.9262581468
-0.0707526952 -0.1830329746 1.034013271 -0.1669996381 0.2696137428 0.9397325516
-0.06508183479 -0.1821671873 1.043326497 -0.1594774723 0.2794022858 0.9321604371
-0.06682945788 -0.179447636 1.039551497 -0.1112064868 0.2792792916 0.9422243237
-0.05899586901 -0.1909709424 1.051577926 -0.3393794298 0.2834331393 0.894220829
-0.06215431169 -0.1815529466 1.037009597 -0.1982361227 0.2992072701 0.9225179553
-0.06108532846 -0.1845375597 1.041262627 -0.2453117967 0.2946975231 0.9130114317
-0.06131403893 -0.1866221279 1.049445748 -0.2445614338 0.2845375836 0.9140968919
-0.05937295407 -0.1851746738 1.034238338 -0.3065364361 0.304402411 0.8992263675
-0.05855617672 -0.1906470209 1.046174169 -0.3512105346 0.295061022 0.887988627
0.0009733288316 -0.1144723222 1.025159359 -0.4337844849 -0.276907146 0.8568224907
0.007226916961 -0.1061059982 1.024373531 -0.4208052754 -0.2975176573 0.8561745286
0.02817087993 -0.1025050431 1.036319256 -0.4154198766 -0.2703563869 0.8684840798
0.02534032427 -0.1083283052 1.041000009 -0.4308316112 -0.2607872784 0.8637695909
0.03102578409 -0.1106457263 1.040302277 -0.4134131372 -0.2643880248 0.8713138103
0.02261129953 -0.09908073395 1.034578681 -0.4192477167 -0.2777388394 0.8643117547
0.01749346592 -0.1042550653 1.030173779 -0.4355975986 -0.2699094117 0.8585495949
0.02292264998 -0.1048622653 1.033964396 -0.4194248021 -0.2733013332 0.8655773997
0.009783817455 -0.1023181453 1.033022881 -0.4076669812 -0.3291680515 0.8511167169
0.01347731613 -0.1063925624 1.033925176 -0.4219053984 -0.297816962 0.8544061184
0.01395064313 -0.111619167 1.031778812 -0.4456296861 -0.2494353056 0.8577802181
0.0204719957 -0.1155056655 1.035216331 -0.4532824457 -0.2291108668 0.8611121178
0.02263066545 -0.1220861673 1.034719706 -0.4676728845 -0.1972617954 0.8611407876
0.02692307159 -0.1146298051 1.040518045 -0.441736728 -0.2483142465 0.8619279265
-0.01090973429 -0.09619270265 1.027312398 -0.3894290924 -0.3846851885 0.8359392881
-0.008458631113 -0.08921481669 1.027938843 -0.3669555783 -0.4305228293 0.8245522976
-0.007746032905 -0.09628667682 1.023312569 -0.3707382679 -0.3957878053 0.8384385109
-0.006893844344 -0.1010001302 1.020745039 -0.3834872544 -0.3721098602 0.8436787724
-0.01489131618 -0.09978131205 1.019008279 -0.3419774771 -0.3640150428 0.8655090332
0.002354868921 -0.105498597 1.029019952 -0.408206135 -0.3302192688 0.8491647243
-0.009185312316 -0.1028698608 1.025809765 -0.4027977586 -0.3527426124 0.8432888389
-0.004846546799 -0.1133852154 1.023783207 -0.4269964397 -0.2941199243 0.8540253043
-0.002404778264 -0.1019279584 1.029015541 -0.3915295303 -0.3682176769 0.8401380181
-0.007562706247 -0.1074832603 1.024802208 -0.4137710929 -0.3266223967 0.8480850458
0.001726578339 -0.09649128467 1.032261848 -0.3805735409 -0.3897143006 0.837759912
-0.003502474865 -0.09569620341 1.030841231 -0.3754722774 -0.4049598277 0.8332550526
-0.0052053486 -0.09082404524 1.032103539 -0.3738325834 -0.4260309935 0.8236522675
0.003304529935 -0.08877745271 1.0344733 -0.3656933308 -0.3937922418 0.8431184888
-0.0007593152113 -0.09212636948 1.033302546 -0.3737375736 -0.4136036038 0.8299483061
-0.00546971336 -0.1223016083 1.017238021 -0.4467921257 -0.2419495583 0.8609355688
-0.007723648101 -0.1183019653 1.015763998 -0.4030014277 -0.26587376 0.8724454641
-0.001789008849 -0.1225616783 1.021929979 -0.4614711702 -0.2389296293 0.8542503119
-0.01097733993 -0.1265793443 1.012225628 -0.3554669321 -0.2309582829 0.8990952373
-0.05548098683 -0.1344164163 1.015908599 0.5043254495 -0.09801288694 0.8568153977
-0.05977663025 -0.127461791 1.01757443 0.4680563807 -0.09229890257 0.8773487806
-0.05651544407 -0.1395240724 1.016409993 0.5049299002 -0.07926661521 0.8555775881
-0.06521882862 -0.1306975782 1.020293713 0.4023730159 -0.06685969234 0.9055287838
-0.05994581059 -0.132615149 1.017798662 0.4674901664 -0.08047703654 0.8756030798
-0.07053317875 -0.1299715936 1.022858262 0.3356963098 -0.05098956823 0.93557024
-0.06001811102 -0.1228458956 1.016641736 0.4262820184 -0.1163558364 0.895034492
-0.05207493529 -0.1279228032 1.011203408 0.4092706144 -0.1748916656 0.8919017315
-0.04517220333 -0.1317258626 1.006698489 0.3969576061 -0.2201964408 0.8894745708
-0.05660488084 -0.1255390644 1.014119029 0.4168965816 -0.1461839378 0.8934402466
-0.04822861403 -0.1192898154 1.016823173 0.4281181097 -0.1763890535 0.8815503716
-0.04349735007 -0.1210310161 1.015196085 0.3519388139 -0.1980468184 0.8981159925
-0.04585564137 -0.1272508055 1.008576393 0.4138260186 -0.1803480238 0.8916128874
-0.04776688293 -0.1058805734 1.014313579 0.2939832211 -0.2589638233 0.9152823091
-0.04576698318 -0.1196286082 1.010218263 0.375200212 -0.2069928944 0.9000198841
-0.04778132215 -0.1154631823 1.012120962 0.3700357974 -0.199221313 0.9038197994
-0.06547083706 -0.1489358246 1.020743728 0.3114017248 0.06504738331 0.9180781841
-0.07063229382 -0.1570162773 1.025137544 0.1494206041 0.1935640872 0.967936933
-0.06986001134 -0.1620194912 1.026298046 0.09828643501 0.228041321 0.9680141211
-0.0815294832 -0.154898718 1.026263714 0.1225359961 0.1537294984 0.9801092148
-0.07629073411 -0.1566419899 1.025331736 0.1123898625 0.1837124228 0.975928545
-0.07874880731 -0.127535969 1.028446078 0.3046006262 -0.1220658273 0.9433656931
-0.07302810997 -0.1230966225 1.026753426 0.3706228733 -0.1229488924 0.917586267
-0.06835587323 -0.122740604 1.024668694 0.378744781 -0.1031763032 0.9165226817
-0.06217066199 -0.120017685 1.022455096 0.4237935543 -0.09172448516 0.9001957178
-0.07422363758 -0.1277365685 1.026763439 0.3248060644 -0.1039234847 0.9373204112
-0.07240268588 -0.1336464137 1.026076674 0.3178872168 -0.05139857531 0.9439174533
-0.0662034899 -0.1316160858 1.025045395 0.3865357935 -0.05493479595 0.9184740186
-0.06417235732 -0.1267692596 1.024005413 0.4161462486 -0.07580992579 0.9045112729
-0.08237166703 -0.1309295595 1.027797222 0.2705525756 -0.1361601502 0.9523009658
0.06121725217 -0.238427937 1.131680131 0.07849756628 -0.07843767852 0.9925752878
0.06089759246 -0.2415650338 1.127333283 0.05308797956 -0.08486993611 0.9948681593
0.01390847564 -0.2644819915 1.129554391 -0.2115782499 -0.1596119255 0.964133203
0.006634733174 -0.2693694532 1.125089288 -0.2116393447 -0.1614676118 0.9638251066
0.009570895694 -0.2653488517 1.128113151 -0.2114515454 -0.1557643116 0.964771986
0.02858616598 -0.2630008459 1.131468773 -0.1423839629 -0.1428671777 0.977858901
0.01812026277 -0.2690928876 1.126390219 -0.1937659681 -0.162029013 0.9665848613
0.02413872816 -0.2664717436 1.128222942 -0.1590227783 -0.1490722746 0.9742081165
-0.004982549231 -0.2659315169 1.120084047 -0.2108597755 -0.1377925277 0.9677558541
0.002910974668 -0.2603763342 1.122454405 -0.2108597755 -0.1377925277 0.9677558541
-0.001875750953 -0.2630100846 1.122159004 -0.2108597755 -0.1377925277 0.9677558541
0.03079959936 -0.253670305 1.133290291 -0.1172714233 -0.07958070934 0.9888098836
0.03240719438 -0.259660244 1.13249588 -0.1146282181 -0.1177861542 0.9856981635
0.02192019857 -0.2631754577 1.130751848 -0.1894212961 -0.1508776695 0.9686700106
0.02359402366 -0.257981509 1.131889224 -0.1761656553 -0.1160707548 0.9751247764
-0.07175125927 -0.2004575878 1.046440959 -0.327811569 0.2300394475 0.9156282544
-0.06674418598 -0.1974960566 1.051260233 -0.3422555625 0.2464148998 0.9057694674
-0.07348705828 -0.2087968141 1.04871285 -0.3235776722 0.2252393663 0.918518126
-0.07114569843 -0.1942180395 1.046824098 -0.2897341549 0.2258388251 0.9233165383
-0.06780095398 -0.192647621 1.050603271 -0.2949413955 0.2362001985 0.9176687002
-0.07770390809 -0.1944062263 1.039933562 -0.2518019676 0.2013465464 0.9405130148
-0.08225187659 -0.1944627464 1.036828279 -0.201021567 0.1994220316 0.9552561641
-0.07843637466 -0.2062982172 1.043338656 -0.2771841884 0.2139147818 0.9341359735
-0.07992456853 -0.1984003782 1.038841486 -0.2492360026 0.2119671404 0.9416490793
-0.07659806311 -0.2015238702 1.041550636 -0.3034822345 0.2157474458 0.927066505
-0.0647617504 -0.2085028887 1.046405554 -0.3322966397 0.2702489495 0.903378129
-0.05863658339 -0.2036452442 1.048138857 -0.357711345 0.2726364136 0.8929443359
-0.05805386975 -0.1991750449 1.045822501 -0.3790213764 0.2914993167 0.8779480457
-0.09594663233 -0.1631490588 1.0353297 0.06206800044 0.08260430396 0.9825455546
-0.0908080712 -0.1652473807 1.032589078 0.02762814239 0.1450490355 0.9843082428
-0.0872342661 -0.1596403122 1.031033397 0.09118119627 0.1315562129 0.9869247079
-0.1036848798 -0.1583931148 1.039634943 0.1333559752 -0.02351311781 0.9797289968
-0.08782250434 -0.1691434681 1.032610416 -0.001511448296 0.180910036 0.9817236066
-0.0741360411 -0.167692259 1.029182315 0.04357778654 0.2307296842 0.9712077379
-0.08297317475 -0.1749964654 1.033686042 -0.02626880072 0.2192184478 0.975011766
-0.07577849925 -0.1718715131 1.032091141 0.01570053026 0.2415959239 0.9699624181
-0.08271055669 -0.1697043628 1.032300591 -0.0006284387782 0.2167648971 0.9757277369
-0.0666847378 -0.1747313887 1.033489347 -0.04948974773 0.2944642007 0.9538608193
0.006647878792 -0.1119229943 1.027405024 -0.4388962686 -0.2682895958 0.8563726544
0.007723489776 -0.1065955311 1.030012608 -0.4223540723 -0.3009290099 0.8533251882
0.01208983548 -0.1128140017 1.027408719 -0.4574386775 -0.2271958888 0.8594401479
0.01425745711 -0.1172600836 1.02916944 -0.4645458162 -0.2078361511 0.8606519103
0.009071991779 -0.1177817732 1.02732563 -0.4562359452 -0.2300755233 0.8590869904
0.01633569412 -0.1219496429 1.031182766 -0.4697909355 -0.1949960589 0.8608037233
0.02583586052 -0.1188088134 1.037170291 -0.4556188583 -0.2209888101 0.8615066409
0.03173535317 -0.1065327525 1.037366509 -0.4157963693 -0.2632257938 0.8704872131
0.0204307735 -0.1080831513 1.031607747 -0.4380748868 -0.2620311677 0.859747231
0.02382258512 -0.1113040894 1.034361362 -0.4361451268 -0.2572235763 0.8622089624
0.0143180145 -0.1076141894 1.027973771 -0.4487330914 -0.2580236495 0.8554238677
-0.05802738294 -0.1301202178 1.022577286 0.4539399445 -0.08737595379 0.8858219385
-0.05333250016 -0.1230881661 1.019633055 0.4928788841 -0.1186079979 0.8613144755
-0.05780157819 -0.1243567765 1.022338033 0.4539926052 -0.09302833676 0.8860139251
-0.101248607 -0.1392571628 1.02782774 0.3453715742 -0.1428534687 0.9259290695
-0.09854943305 -0.1436176896 1.027129889 0.3036233187 -0.0993776992 0.9449779987
-0.09367602319 -0.1522833556 1.027302504 0.1238023341 -0.02348417416 0.9914619923
-0.08868269622 -0.1477419138 1.026065111 0.1400938779 -0.02566144615 0.9894980192
-0.1068356857 -0.1656536609 1.023099065 0.06086369231 0.02278814465 0.9965410233
-0.09789838642 -0.1542596817 1.025698781 0.1369615346 -0.01836410537 0.9869067073
-0.103455916 -0.1588286161 1.023676157 0.1260356009 -0.004034016747 0.9860788584
-0.09948834032 -0.1499078572 1.027717113 0.2375793308 -0.09297810495 0.9639669657
-0.06833118945 -0.1388703883 1.022042394 0.349444598 -0.03770087659 0.9242064357
-0.07357672602 -0.1408468187 1.024352193 0.2617897689 -0.003322652075 0.9594715238
-0.06397911161 -0.1441723257 1.019721985 0.3724110126 -0.01139574405 0.9043909311
-0.07341402769 -0.1508582979 1.023767352 0.186145559 0.115823105 0.9641094208
-0.07184365392 -0.145890221 1.023268461 0.2489987165 0.03637757152 0.9543798566
-0.07845275849 -0.1481861025 1.024887085 0.1629422605 0.0639231503 0.9802468419
-0.08092746884 -0.1404660642 1.02548337 0.2060684264 -0.0299367141 0.9760825634
-0.06856587529 -0.1524044573 1.024989128 0.2356865406 0.1322025061 0.9603736401
-0.0702509582 -0.1652997881 1.030883789 0.09252078831 0.260160774 0.9565238953
-0.07757800817 -0.1599880606 1.03004837 0.1099305674 0.1754405648 0.9714727402
-0.08199436218 -0.1624952406 1.031033874 0.07865540683 0.1750527918 0.978936851
-0.09114075452 -0.1257629544 1.035419226 0.3354947269 -0.1717774123 0.9257876277
-0.085661605 -0.1291785389 1.030855894 0.2761814296 -0.1931600273 0.9397355318
-0.09993893653 -0.126207158 1.040812612 0.3645561934 -0.1700505316 0.9151642919
-0.09341804683 -0.1318495423 1.034339666 0.2905311584 -0.2004075199 0.9322764874
-0.09920403361 -0.1317283064 1.038079977 0.3371215463 -0.167809099 0.9231907129
-0.08395097405 -0.1451037079 1.029246926 0.1814787239 -0.02846755274 0.9677035213
-0.08591815829 -0.1502331197 1.030273318 0.1475476027 0.02218165249 0.9735955596
-0.08160039037 -0.1500451267 1.028108478 0.1611712426 0.0513998419 0.9786976576
-0.09076761454 -0.1365787238 1.032581568 0.2446174771 -0.1576811522 0.9439480305
-0.09940414131 -0.1399891376 1.03690052 0.2994225919 -0.09903665632 0.9350557327
-0.1035779417 -0.1377891898 1.038957357 0.3463666439 -0.1200468466 0.9245150089
-0.09055233002 -0.1472083926 1.032558441 0.1862877607 -0.02172900364 0.9615535736
-0.09152682871 -0.1545764804 1.033100843 0.1553458422 0.07444725931 0.9718800783
-0.09569749981 -0.1463528275 1.035108566 0.2342877388 -0.02382110432 0.9515715837
-0.08767405152 -0.1419615895 1.031086683 0.1898745298 -0.09398624301 0.9578484893
-0.100135684 -0.1447839737 1.037301898 0.2801092565 -0.03628110141 0.9416131973
-0.07671071589 -0.1357983649 1.02607131 0.2629095912 -0.0414093174 0.9619275331
-0.09077616036 -0.1328379363 1.027768016 0.289853245 -0.1591450572 0.9435917139
-0.09701535851 -0.1325216442 1.027777314 0.2969166338 -0.1708735526 0.9392906427
-0.101583235 -0.1341904253 1.027959704 0.3538650274 -0.1735090166 0.9186193943
-0.08637963235 -0.1418796629 1.025998712 0.1843434572 -0.07027954608 0.9767588377
-0.09165219963 -0.1428567022 1.025988936 0.2246046513 -0.07156201452 0.9687698483
-0.0965315178 -0.1377514154 1.027259588 0.2996967733 -0.1438538134 0.9404786229
0.03062592819 -0.2418306917 1.13364768 -0.08638196439 -0.08019966632 0.9880086184
0.02632949874 -0.2443289012 1.132189512 -0.1295857877 -0.1015366912 0.9797276258
0.0354719311 -0.2378845662 1.134533763 -0.03061035089 -0.07330584526 0.9947949052
0.02223903872 -0.2477204353 1.13082099 -0.1768662035 -0.1150225252 0.972530067
0.02269963175 -0.2517549098 1.128197193 -0.1975874156 -0.1209328547 0.9693756104
0.01369772851 -0.2546265721 1.130952358 -0.2027031034 -0.1148794144 0.9713375568
0.01694464125 -0.2506528199 1.130075455 -0.2284307927 -0.1287466735 0.9648855925
0.01987701282 -0.2554495633 1.132085323 -0.1805903912 -0.1007920131 0.976442337
0.01038864721 -0.2593505979 1.130625963 -0.201843068 -0.1288195252 0.9700091481
0.01654138044 -0.2604403198 1.130847692 -0.198960349 -0.1350880116 0.9692388177
0.006025213748 -0.2605912089 1.13006568 -0.2099502832 -0.1379714906 0.9678062797
0.01610046625 -0.254617095 1.126262665 -0.2171541005 -0.1352945715 0.9666660428
0.01071627624 -0.2560774088 1.124824047 -0.2123472095 -0.1372022331 0.9674983025
0.04880386963 -0.239373982 1.131992221 0.02298027836 -0.07283863425 0.9968030453
0.05382968113 -0.2384776026 1.129826546 0.04029877111 -0.07908117026 0.9959878325
0.04267237708 -0.2385930121 1.135101438 0.003245882224 -0.06868327409 0.9974306226
0.04837504402 -0.2471245229 1.137113452 -0.01180852018 -0.0651223138 0.9977294207
0.04700511694 -0.2420850694 1.135755539 0.005985289346 -0.06791872531 0.9974359274
0.05175291747 -0.2405875474 1.135699749 0.02276090905 -0.06732126325 0.9964280128
0.05925391987 -0.2320752442 1.134394646 0.06991881132 -0.06798731536 0.9939217567
0.05406745151 -0.2456761003 1.137001038 0.008808212355 -0.06478316337 0.9966626763
0.05324694142 -0.2266138494 1.134219885 0.06736234576 -0.0608394444 0.9951379299
0.04746103287 -0.2323856056 1.134082198 0.0405158028 -0.06773974746 0.9964392185
0.05918167531 -0.2242463976 1.133968949 0.08978240192 -0.0611593239 0.9936259389
-0.06453511864 -0.203821972 1.042229056 -0.3660775423 0.2734223306 0.8895096779
0.001465290086 -0.1138516739 1.019650578 -0.4449325204 -0.2627422512 0.8547222614
0.004780099262 -0.1245652512 1.023414254 -0.4818168879 -0.1810832322 0.857141912
-0.002378407633 -0.1187497824 1.018264771 -0.4466527998 -0.2503789961 0.8581058979
0.004296902101 -0.1168361306 1.021944165 -0.4593978524 -0.2316808701 0.855361402
0.009905508719 -0.1241237149 1.026494622 -0.4826303124 -0.1563295424 0.8611792326
0.0002113905502 -0.1267260015 1.020772696 -0.4587017894 -0.2003343552 0.8647343516
-0.006044713315 -0.1287575364 1.016716957 -0.4324135184 -0.2231623083 0.8732383251
0.01474137139 -0.2630876303 1.124399304 -0.21606493 -0.156357795 0.9635895491
0.0094058346 -0.2647397816 1.121960998 -0.2128196806 -0.1519952863 0.9650456905
0.01386934984 -0.2709944546 1.124089479 -0.2118620425 -0.1682305634 0.9627022147
0.05432830751 -0.22999686 1.131002665 0.07641712576 -0.07601441443 0.9937052727
0.04135807976 -0.2331445217 1.134092212 0.01588713005 -0.06667254865 0.9971867204
0.04404598847 -0.2278253734 1.134355903 0.05187750235 -0.07321860641 0.9945083261
0.04663464054 -0.2239695489 1.134134531 0.07787423581 -0.0753101036 0.993158102
0.05120035261 -0.2220947295 1.132671356 0.1042371914 -0.07365006953 0.9917964339
0.03290200233 -0.2461652905 1.134367943 -0.08165752888 -0.05493848398 0.9943273664
0.02791531198 -0.2482888699 1.129828453 -0.1405184567 -0.1023236513 0.9786350131
0.03732800111 -0.2423245311 1.134425402 -0.03497024998 -0.06077216566 0.9968472719
0.03760244325 -0.2516950071 1.134143591 -0.06763593853 -0.06297218055 0.9956001043
0.0425006412 -0.2451707125 1.136101484 -0.02732162364 -0.06281729043 0.9974327087
