# .PCD v0.7 - Point Cloud Data file format
VERSION 0.7
FIELDS x y z normal_x normal_y normal_z
SIZE 4 4 4 4 4 4
TYPE F F F F F F
COUNT 1 1 1 1 1 1
WIDTH 512
HEIGHT 1
VIEWPOINT 0 0 0 1 0 0 0
POINTS 512
DATA ascii
0.04523804411 -0.05429561809 0.913724184 0.7354291677 0.3950936794 0.4180561006
0.06016262248 -0.05018756166 0.9061914682 0.2764367163 0.5959266424 0.5165091157
0.05281975865 -0.05224755406 0.9031854272 0.4599850178 0.5267059207 0.5806638598
0.07131584734 -0.04708207399 0.9066995978 -0.02791585773 0.7189552188 0.4871315062
0.0584987849 -0.05060271546 0.9144328237 0.3742242754 0.5409091115 0.3813742697
0.08427380025 -0.04340591282 0.9190713763 -0.307312429 0.8099554181 0.255369246
0.06574518979 -0.04861596227 0.9094182253 0.1428195536 0.6444032192 0.4519424438
0.04920797795 -0.0532239899 0.9080717564 0.5903562307 0.464599818 0.5054511428
0.05821571872 -0.0507684797 0.8993929625 0.2873038054 0.6040293574 0.6341920495
0.0654900074 -0.04888967797 0.8999171257 0.09916115552 0.673478961 0.6046342254
-0.06164491922 -0.01446957979 0.9614136219 -0.06325786561 -0.1001490429 0.9929572344
-0.05596590787 -0.009451659396 0.9600057006 -0.06297858059 -0.1000258327 0.9929897189
0.04422114789 0.02971882373 0.8378984332 0.1766382754 -0.1158105806 0.9708262086
0.08919811994 0.06284870207 0.8629102111 -0.5348715782 -0.3032649755 0.7815030217
0.07765337825 0.07058119029 0.852938056 -0.3401148915 -0.2226759642 0.8986698389
0.03824577481 -0.0121947974 0.9457122087 -0.6129572988 0.6676729918 -0.3960689604
-0.01842808537 -0.04218620062 0.9617210031 -0.1390331089 -0.05945122987 0.9881983399
-0.0530318208 -0.02908411063 0.9579195976 -0.06898245215 -0.09601940215 0.9928361177
0.06888122857 -0.04736841097 0.8932855129 -0.02810807712 0.673537612 0.641754508
0.07369279861 -0.04615858942 0.8999640346 -0.1224216297 0.719981432 0.5423464775
0.07762365043 -0.04508493468 0.9047249556 -0.2043147385 0.755071044 0.4664120674
0.0789378956 -0.0432163924 0.8940124512 -0.3174182177 0.716298759 0.5344507694
0.06137651578 -0.05033664778 0.8916819692 0.1803954244 0.6372722983 0.7298855782
-0.04068937525 -0.0150385648 0.963083446 -0.06601104885 -0.09726342559 0.9928894639
-0.03982615843 -0.02136125788 0.9627246857 -0.08664285392 -0.07846905291 0.9922076464
0.05220524967 0.07698406279 0.8503234386 0.2446146458 -0.1561271846 0.9536864161
0.08785835654 0.05496288836 0.8510894775 -0.4680099487 -0.2485159039 0.8439489603
0.01717256755 0.05487672612 0.8677312136 0.588480413 -0.3055765927 0.7387283444
0.03721722215 0.03584446758 0.8408359885 0.2709900737 -0.2359247655 0.927585125
0.03505918011 0.04782246798 0.8461597562 0.2699073255 -0.4353037179 0.856344521
0.04589708894 0.06751542538 0.8460022211 0.3172559738 -0.2650566995 0.9049490094
0.04174973443 0.06131061539 0.8466194272 0.3075597882 -0.3393697143 0.8779822588
0.04015273228 0.05238270015 0.8451831937 0.2466608882 -0.3500037491 0.8939606547
0.04918969423 0.06066927686 0.8447117209 0.1891160458 -0.2300431281 0.9430969357
0.06931955367 0.07530779392 0.8499037027 -0.1736258566 -0.1832013428 0.9576241374
0.07110403478 0.07431589067 0.8556377888 -0.1829101592 -0.2168655843 0.923289597
0.05942064151 0.07593867183 0.8489019275 0.1097170487 -0.1799991578 0.9666788578
0.04958024621 0.07628670335 0.8586489558 0.2151676267 -0.1065113544 0.9455223083
0.04310944676 0.07293912023 0.8609734178 0.3029151559 -0.104664661 0.9229479432
0.03621476144 0.06940433383 0.8634485006 0.396237731 -0.1017804816 0.8990216255
-0.01510549616 -0.04140783474 0.9669827223 -0.1503950208 -0.08354048431 0.9850900173
-0.07064694166 0.02678083442 0.9135558009 -0.3723899126 0.6491648555 0.6631445289
-0.05908737332 -0.02025702037 0.9579737186 -0.06297858059 -0.1000258327 0.9929897189
-0.05168745667 -0.01675759628 0.9575518966 -0.06297858059 -0.1000258327 0.9929897189
-0.0467794314 -0.01026399434 0.9623000622 -0.06297858059 -0.1000258327 0.9929897189
-0.05249104276 -0.006093476899 0.9635853767 -0.06297858059 -0.1000258327 0.9929897189
-0.06495435536 0.03080533259 0.9077074528 -0.3583970368 0.6540721655 0.666097343
-0.04990928248 0.0481503047 0.8952948451 0.337636292 0.3918596804 0.8558316231
-0.03579772636 -0.04149837047 0.9591252208 -0.1187304035 -0.05867180601 0.9911599159
-0.04315269366 -0.03559050336 0.9587833285 -0.06398703158 -0.07446832955 0.9948784709
0.09156470001 -0.04161052406 0.9206626415 -0.4752852917 0.840705812 0.2543002963
0.06986877322 0.01787815802 0.8382251263 -0.2586293221 0.2253319323 0.9314603806
0.06831399351 0.02427682839 0.8367671371 -0.2131160051 0.02711866796 0.9690714478
0.04884690791 0.01203759573 0.8408999443 0.1280163378 0.3088471889 0.9406610131
0.05020512268 0.02464852855 0.8368404508 0.1159614623 0.017512694 0.9907814264
0.05526760593 0.03132875636 0.8365346193 0.04531151056 -0.1680447608 0.9766340852
0.05675411969 0.02416016906 0.8363034129 0.02528111078 0.03624898568 0.9941645265
0.05887012929 0.01706954278 0.8375333548 -0.03696404025 0.207363084 0.9700463414
0.05215638503 0.01786066964 0.8376959562 0.07923135906 0.1851638258 0.9744131565
0.03206801414 0.0153687764 0.844303906 0.4035028517 0.2230283916 0.8855507374
0.02705093287 0.04496277124 0.8474018574 0.4408631921 -0.355135262 0.8211769462
0.03364309296 0.04057829455 0.844060421 0.3072167039 -0.322393775 0.8869373202
0.02619452216 0.03804197162 0.8462131023 0.4887638092 -0.2037466466 0.8415881991
0.03517589346 0.02036813647 0.8409356475 0.3627252877 0.1100837141 0.9216877222
0.0237704441 0.009668767452 0.8503974676 0.4954047799 0.1920642704 0.8468472362
0.09811601788 0.04295128584 0.8567601442 -0.5354921222 -0.2466089129 0.8072585464
0.07622791827 0.02602741122 0.8394855261 -0.3699211776 -0.01064704917 0.927406311
0.05696849525 0.06707143039 0.8443881273 0.1276320964 -0.1541842371 0.9760898948
0.06454119086 0.07056605816 0.8450710177 -0.04846891388 -0.1676310599 0.9581797123
0.07148278505 0.0700897947 0.8453074694 -0.2482639849 -0.1699973792 0.9485095143
0.08466238528 0.0647572726 0.8523476124 -0.456297785 -0.2463615239 0.8483988047
0.09255663306 0.05676043406 0.8622627854 -0.5721087456 -0.2860566378 0.7683215141
0.06385243684 0.0353875421 0.8374206424 -0.09733586013 -0.1904233247 0.9747780561
0.06338790804 0.04439326748 0.8407276273 -0.07465585321 -0.1597689688 0.9815790057
0.05500334501 0.0472256504 0.8399641514 0.0849916786 -0.2027388215 0.9736461043
0.04964138567 0.03620253876 0.8383994699 0.1004997417 -0.2831338048 0.9499227405
0.06179733947 0.05092773959 0.8429191709 -0.0356374979 -0.1451048404 0.9852229357
0.05691633373 0.05921465158 0.8434090018 0.08358531445 -0.1548629999 0.9807488322
-0.0002508327016 0.05838676915 0.8665149212 0.4090189636 -0.1221208274 0.7786172628
-0.004205129575 0.06681337208 0.8614333272 0.2314607203 0.01034392789 0.8714687228
0.0103952866 0.04695577174 0.8621013761 0.6383994818 -0.3004212976 0.678266108
0.02558299527 0.0670113042 0.870418489 0.3307811022 0.1143654585 0.9316161275
0.02896639332 0.06396609545 0.8655900359 0.392001152 -0.120594576 0.8752697706
0.02247293852 0.06135798246 0.8681124449 0.4600357413 -0.1416009218 0.8323793411
0.014145419 0.06665337831 0.8580129147 0.3149750531 -0.003398678964 0.8426234126
0.009480301291 0.07415731251 0.8590358496 0.1634821892 0.1578521878 0.9166608453
0.02218250372 0.07415642589 0.8681708574 0.2507581711 0.2159475237 0.931997478
0.01441511605 0.07831799239 0.864997983 0.1680937856 0.2931569219 0.9253804088
0.01763854362 0.06960947067 0.8694534898 0.26080212 0.1474768668 0.9424357414
0.007857779972 0.08042113483 0.862724185 0.1076612547 0.3384346068 0.9220907092
0.06915074587 0.05927624926 0.8570702076 -0.1497066766 -0.2683680952 0.8631700277
0.05183700845 0.06430578977 0.8629763722 0.1130327359 -0.2248841822 0.8572270274
0.0588247031 0.06013121456 0.8578437567 0.04208053648 -0.2450289726 0.8776052594
0.04379628599 0.06009177491 0.857324183 0.3422080874 -0.2126147449 0.9093762636
0.03966364264 0.06368296593 0.8617981672 0.3658098876 -0.1993428618 0.8879158497
0.05085469037 0.06040631607 0.8579476476 0.1964041442 -0.2274805754 0.8919727802
0.08302142471 0.06338611245 0.8623874187 -0.4879962206 -0.2927795649 0.8033052683
0.05851532891 0.06904315948 0.8607527018 0.0213381853 -0.2207794189 0.8835750222
0.07049921155 0.06918503344 0.8599227667 -0.200420022 -0.2444078624 0.8703567386
0.07456637174 0.0642387867 0.8624392152 -0.3225893378 -0.2723148763 0.8211604953
0.06169432774 0.07375332713 0.8579147458 0.006396546029 -0.2084412128 0.9218974113
0.04285831377 0.05400158092 0.8533899784 0.2997448742 -0.3385245502 0.8851640224
0.0505676195 0.05554592609 0.8517631888 0.2753265798 -0.2368303239 0.9306871891
0.03124089725 0.07381980121 0.8660799265 0.3631943762 0.1098764986 0.923510313
-0.02199439518 -0.04434060305 0.9687106609 -0.1378489584 -0.07243094593 0.9875921607
-0.03066748753 -0.04388960078 0.9640924931 -0.1238324717 -0.060883753 0.9903356433
-0.04713576287 -0.03030762449 0.9568622112 -0.06459791958 -0.09433764964 0.9933246374
-0.0471550189 -0.02297905833 0.9567547441 -0.06297858059 -0.1000258327 0.9929897189
-0.04568607733 -0.01626063325 0.9580625296 -0.06297858059 -0.1000258327 0.9929897189
-0.06755253673 0.03752414137 0.9075130224 -0.1279972345 0.6919767261 0.6748632193
-0.07061036676 0.03351425752 0.9118079543 -0.3302474022 0.6614750028 0.6637192369
-0.02140095644 -0.03656951338 0.9583067298 -0.1451118588 -0.07233926654 0.9865353703
0.08543097228 -0.04142498598 0.8994948268 -0.4579812586 0.7499097586 0.4477692544
0.08906664699 -0.04144949839 0.9071176052 -0.4856386185 0.7625005841 0.3999899924
0.09476661682 -0.04071012884 0.910633862 -0.5503903627 0.7033656836 0.4270241261
0.1014776602 -0.03901419044 0.92115587 -0.628271699 0.6571702361 0.3948272765
0.09928778559 -0.03258709982 0.9193496108 -0.6928859353 0.5940203071 0.3943327665
0.09210570902 -0.03539633751 0.9193118811 -0.550121665 0.7566091418 0.291665107
0.07229870558 0.02012621611 0.853666544 -0.2741063535 0.2085040659 0.7454681993
0.0660873875 0.02850808389 0.8481256962 -0.127953589 -0.03705285117 0.8356403112
0.07343063504 0.02991866507 0.8471838236 -0.3056743443 -0.07328931242 0.8437572718
0.06422831863 0.02307304181 0.8518253565 -0.09311982244 0.1214333996 0.7809285522
0.05877299607 0.01095577516 0.8387158513 -0.08490055799 0.3192999065 0.9408192635
0.06147973239 0.0145488577 0.8541191816 -0.05403029919 0.342260927 0.745313406
0.06432443112 0.009553373791 0.8593215942 -0.1006252691 0.5009789467 0.6647868156
0.05672679096 0.01230008807 0.8484354615 0.0128294332 0.3513334095 0.8299760818
0.06024769321 0.00683809584 0.8546698093 -0.04409360513 0.5291178823 0.7337018847
0.05397455767 0.01560666692 0.8438355923 0.05632625148 0.2372888178 0.9006984234
0.06671610475 0.004181295633 0.8640283346 -0.1410159171 0.6647617817 0.5915658474
0.05680890381 0.03372474015 0.8424612284 0.03385996073 -0.2023977488 0.9291964769
0.05779281631 0.01946131699 0.8478200436 0.004739443772 0.1769848615 0.8423273563
0.05934065208 0.02689182945 0.8477690816 -0.01008530706 0.0006469950895 0.8462908864
0.05724931881 0.05481686071 0.852204442 0.1294227988 -0.2412482798 0.913615644
0.07648389786 0.05850487575 0.8591451049 -0.3157372177 -0.2695179284 0.8374752998
0.06582718343 0.0495001711 0.848667562 -0.1208318323 -0.3002181351 0.9034673572
0.07187124342 0.05340660363 0.8541494012 -0.2647076249 -0.2619963884 0.8534680605
0.08129703254 0.05332059041 0.8563124537 -0.5123574138 -0.2672625184 0.8109731078
0.05769765005 0.002939649858 0.8436902761 -0.04719031975 0.5815210342 0.7734983563
0.04334301874 -0.01284197811 0.874484241 0.4371082187 0.2488076836 0.8532624841
0.03874826059 -0.007990243845 0.8687361479 0.4525413811 0.2442421466 0.8539814353
0.03668560833 -0.0006659682258 0.8564715981 0.3684842288 0.3329630494 0.8413439393
0.04322524741 -0.000382002705 0.851123929 0.2194115669 0.4662677646 0.8222153187
0.03522738814 -0.003291733796 0.8624860048 0.4470284581 0.2580417991 0.8520624638
0.0467607975 -0.006767747924 0.8605383039 0.2544313073 0.4229964018 0.8283420205
0.03069595993 0.004406169523 0.8513354063 0.4107466638 0.3049197793 0.8454353809
0.07053736597 -0.04352888465 0.8865272999 0.03146061301 0.5048396587 0.856813848
0.01355291437 0.04281285778 0.8577004075 0.6597026587 -0.3016805649 0.6838484406
0.0281448476 0.05697209015 0.8605545759 0.4873584211 -0.3757628798 0.7798616886
0.008337455802 0.04419531301 0.8696930408 0.693924129 -0.3293236196 0.6395365596
0.01130870543 0.03439048678 0.8616181612 0.6991786957 -0.1823425144 0.6825537682
0.02315777726 0.0194194708 0.8494244218 0.5291469693 0.09485866874 0.836710155
0.0254080724 0.02602184005 0.8483691812 0.5053601861 -0.01371718012 0.8490816355
0.03099229001 0.03101567738 0.8475512862 0.4297456741 -0.08907216042 0.8682535887
0.03114083223 0.02557488531 0.8434522748 0.4242177606 0.02214269526 0.8990699649
0.01961071044 0.03734917194 0.8545536399 0.6127713323 -0.1768001616 0.7504849434
0.02266442403 0.04595237225 0.8587436676 0.5700211525 -0.2923359275 0.7341244221
0.02842823789 0.04935043305 0.8574672937 0.4863134623 -0.3355812728 0.7740148306
0.03573959693 0.05145047978 0.8550692201 0.379635334 -0.3803669512 0.8223568201
0.01825773716 0.0314395763 0.8520194292 0.6194445491 -0.08975608647 0.7718340755
0.02964468673 0.03915197775 0.8509999514 0.4627228677 -0.2134186327 0.828374505
0.03591534123 0.04358366877 0.8509999514 0.3726842105 -0.2975963354 0.8485809565
0.04030407965 0.01491408888 0.8414247036 0.2713189423 0.2536154389 0.9234458804
0.04670153931 0.05002397671 0.8426194787 0.163233012 -0.2729303539 0.9409600496
0.0398341231 0.04154796526 0.8423067331 0.1994055212 -0.3665580451 0.9063592553
0.05445829034 0.04216766357 0.8438929319 0.08304621279 -0.3450433612 0.9300219417
0.04522938281 0.02373008244 0.8422793746 0.1839929372 0.07353966683 0.9286578298
0.04471405223 0.0381007269 0.8450269699 0.1895189434 -0.2127924114 0.913959384
0.04337727651 0.04639013112 0.8498832583 0.2629797757 -0.3452695906 0.879160583
0.03729088604 0.02751196548 0.8433129191 0.3327189982 0.005647967104 0.9118418097
0.003789204871 0.05197841674 0.8695445061 0.5402245522 -0.2300492227 0.7150245905
0.01172759384 0.05522925407 0.8719232082 0.5450670719 -0.2325630635 0.7809326649
0.01023277175 0.05959578231 0.8585782051 0.4418227673 -0.1898302138 0.7735649347
0.003378911875 0.07634899765 0.8601513505 0.109500967 0.1909370124 0.9408160448
0.005561167374 0.06832589954 0.8595612645 0.2660063207 0.008106086403 0.8623521328
-0.008450252004 0.07358174771 0.8611853719 0.09856129438 0.1204103976 0.9363433123
0.006189181004 0.05422317982 0.8611500859 0.4961474836 -0.1839171648 0.7486789823
0.01508694794 0.05168534815 0.8570418358 0.5729427338 -0.3152754605 0.7127057314
0.00384131656 0.06131176651 0.8604673147 0.3628973961 -0.05729805306 0.8196243644
0.02163081802 0.04861221462 0.8519127369 0.4914736748 -0.3369189203 0.781121254
0.01724358089 0.05841530487 0.8569565415 0.4635024667 -0.1879676133 0.7691145539
0.01991279982 0.07304240018 0.8566044569 0.2084009945 0.1642827839 0.9190459251
0.02302310243 0.06701050699 0.8545358777 0.2705067992 -0.013551604 0.8797480464
0.05135050043 0.04901721701 0.8478332758 0.1762179583 -0.3272687495 0.9210864305
0.03031344526 0.07911480963 0.8630470037 0.3279470205 0.2010902166 0.9194915891
0.02263676561 0.07915829867 0.8632008433 0.2257476747 0.2746399343 0.9293708205
0.01618183032 0.0824463591 0.8591952324 0.1194999963 0.3875534236 0.9122146368
0.0371099636 0.07630850375 0.8623987436 0.3509804904 0.06955310702 0.9223805666
0.04353593662 0.08063221723 0.858951211 0.262930125 0.06231617182 0.9344105124
0.05840101466 0.08054111898 0.8543235064 0.1052964404 -0.1434672177 0.9733384848
0.03781434894 0.08041010052 0.8568646908 0.343981266 0.07032756507 0.9351264834
0.02251812257 0.0807178095 0.8569586277 0.1797271669 0.2790388167 0.9196240902
-0.02625434659 -0.02458143979 0.9599620104 -0.1218133196 -0.08893053979 0.9876728654
-0.02737692557 -0.03097181022 0.9642301202 -0.1452917308 -0.07272060961 0.9864861369
-0.02048582025 -0.03768136352 0.9685299993 -0.1482497007 -0.07899203151 0.9856769443
-0.02713381685 -0.03838099167 0.9660587907 -0.1388827711 -0.05913251266 0.9882394671
-0.0170672629 -0.0349917151 0.9625454545 -0.1503950208 -0.08354048431 0.9850900173
-0.05517083406 0.05852502212 0.8965228796 0.3030418754 0.434012562 0.8401789665
-0.0400646776 -0.02649291046 0.9564993978 -0.08204900473 -0.09344745427 0.9915029407
-0.03183414787 -0.03653267026 0.9586727023 -0.1335904449 -0.05871522799 0.9890385866
0.0647258386 -0.004167035222 0.8766813874 -0.05825456604 0.6023573875 0.7517011762
0.07513520122 -0.004972510971 0.8804616928 -0.1508446783 0.5548984408 0.7921869159
0.05779808015 0.002367347712 0.8622065783 0.00328575098 0.5853231549 0.7318107486
0.05393266678 0.005689786281 0.8558701277 0.05875816941 0.5081526637 0.7831110954
0.04913645983 0.008494244888 0.8509262204 0.1332144886 0.4044278264 0.8618764877
0.0598760359 -0.002390744165 0.8721935749 -0.01384832431 0.6088326573 0.738309145
0.04148310423 0.006561145652 0.8510236144 0.2541682422 0.3510962725 0.8925712705
0.04659632593 0.004484223668 0.8578865528 0.1855817586 0.3792607486 0.8962801099
0.03914668038 0.009530744515 0.8446215391 0.2817921638 0.3210556507 0.9005140066
0.04558131844 0.005651668645 0.8443112373 0.1702353954 0.3722069263 0.9098764062
0.04068858922 0.004213257227 0.8654578924 0.2797383666 0.3229556978 0.8615168333
0.0327662155 0.009931410663 0.8565109968 0.38917014 0.2446679473 0.8570465446
0.0308692269 0.01202878542 0.8505502939 0.4156774282 0.246473223 0.8612678647
0.04893642291 -0.0009847774636 0.8711305857 0.1663080305 0.4240471423 0.8712145686
0.08888211846 -0.03448499367 0.891695559 -0.538562417 0.5930724144 0.5752333999
0.08441504836 -0.0384991616 0.8886032104 -0.4813060164 0.6565997005 0.567299962
0.09962555766 -0.03578835353 0.9141542912 -0.6651412845 0.5505552292 0.492128551
0.09494974464 -0.03604607284 0.9055106044 -0.6092134714 0.5773616433 0.5206045508
0.0950813517 -0.03198960051 0.90020293 -0.6148985028 0.5358591676 0.5575641394
0.09483632445 -0.02639560215 0.8920627236 -0.6176607013 0.4808346033 0.6113493443
0.09086792171 -0.03850443661 0.9010267258 -0.5581229925 0.6232376695 0.5246355534
0.09827888012 0.04776345938 0.8607223034 -0.5528326035 -0.24002783 0.7963513136
0.09186953306 0.04552992061 0.856736362 -0.5372363925 -0.2437366992 0.8055118322
0.07309342176 -0.00422284659 0.8537631035 -0.2657201886 0.6096103787 0.7187597752
0.07894796878 -0.002210698789 0.8539118767 -0.3792416155 0.6915645003 0.5955098867
0.07182319462 -0.001390128629 0.869572103 -0.2049987614 0.8020111322 0.5478155017
0.08909207582 -0.003044566838 0.8799487948 -0.3353212774 0.6146675944 0.7066387534
0.03008712828 -0.03023233637 0.911164999 0.5337101817 0.3525235057 0.3501775265
0.02874324098 -0.02511546202 0.9233256578 -0.02719245292 0.471504271 0.03245917335
0.02746869437 -0.0359005034 0.9099568725 0.8925788403 0.2090241462 0.300093174
0.03271079436 -0.02996515483 0.9037568569 0.6765724421 0.3664098978 0.5972796679
0.0461633876 -0.01587066054 0.8853518963 0.3872534037 0.3309253454 0.8038954139
0.008043810725 0.03768033162 0.8665153384 0.6870385408 -0.2471392304 0.6710187197
0.01052128524 0.02881835029 0.8573083878 0.6793513298 -0.09974193573 0.722925365
0.03029761463 -0.008040981367 0.8767947555 0.6137422919 0.1231886297 0.7700327039
0.03408710286 -0.01276227087 0.8802560568 0.6000313759 0.1529189944 0.7757669687
0.0309687946 -0.007556532044 0.8705529571 0.5661064386 0.1942927539 0.7960557342
0.03835330158 -0.02198633738 0.8871908188 0.6169019938 0.2082971483 0.7580272555
0.02504198626 0.000535738247 0.867513299 0.5989028811 0.1070796996 0.7830252647
0.02138117701 0.005395696964 0.866044879 0.6220780611 0.05019750446 0.7732493281
0.02609682828 0.00380028761 0.8562528491 0.506260097 0.1985810399 0.8379890323
0.04020985588 -0.01732117124 0.8814278841 0.5405367613 0.2093244344 0.8099083304
0.036888998 -0.01106449962 0.8739637733 0.5186583996 0.2063733488 0.826040566
0.03518913686 0.005681491923 0.8680449724 0.3489648104 0.2363367379 0.8301849961
0.0308463648 0.008448254317 0.8625484705 0.4084983468 0.1914226413 0.8342823386
0.04832853377 -0.006084090564 0.8780596852 0.2418412715 0.3530221283 0.8578714132
0.0416123271 0.0005147051997 0.8731749654 0.2864913046 0.2979357541 0.8411768675
0.02263516001 0.01129524969 0.8627198339 0.5308367014 0.072032772 0.7968850136
0.03213810176 -0.001174503937 0.8709645867 0.5147379637 0.1219913438 0.8216537833
0.04117498919 -0.005259171128 0.8754968643 0.3826180398 0.2389360219 0.842361331
0.09222684801 0.03851329535 0.854170084 -0.534569025 -0.171660006 0.8225888014
0.08967016637 0.03026481159 0.8525412679 -0.5576904416 0.007637939882 0.8011707664
0.08632045239 0.03933157027 0.8525352478 -0.5240349174 -0.1570034921 0.8091177344
0.08755981177 0.03453439847 0.8477014303 -0.506964922 -0.1986376643 0.8366618156
0.07605200261 0.03295883536 0.8405435681 -0.3550928533 -0.150934875 0.9165975451
0.09961760044 0.03067137301 0.8559908867 -0.5817362666 -0.04182562232 0.8057334423
0.08249735087 0.004852185491 0.851264894 -0.4693509936 0.613560915 0.6280130744
0.07659648359 0.03909397498 0.8456639051 -0.3877138495 -0.2467112392 0.8850692511
0.08298955113 0.04795267805 0.8536254764 -0.5002002716 -0.2668057084 0.8209761381
0.0722489506 0.04774314165 0.8482471108 -0.2946854532 -0.3027623594 0.8854203224
0.07062578201 0.03675293922 0.8401526213 -0.2585888207 -0.1936029941 0.9376820922
0.07094343752 0.04288812727 0.8430418968 -0.2655789554 -0.2251051366 0.9263811707
0.07670746744 0.05347183719 0.8461757302 -0.3763600588 -0.2414508313 0.89372015
0.08097096533 0.06393380463 0.8470449448 -0.4056640565 -0.2326905727 0.8829030395
0.08148987591 0.04560325295 0.8473538756 -0.4371323586 -0.2999219298 0.8461280465
0.06810428947 0.0559203513 0.8444757462 -0.1488980204 -0.1676424742 0.9590650201
-0.002136171097 0.06868817657 0.8666501045 0.09484494478 0.08321069181 0.9757481813
0.009016947821 0.07453864813 0.8654029965 0.1541288197 0.248483181 0.9344787598
0.006193839479 0.06833227724 0.8685016632 0.1015938222 0.1859624833 0.9691877365
-0.002709688386 0.07671437413 0.862909019 0.06280645728 0.2349568605 0.9665872455
0.00942639634 0.06252017617 0.8718984127 0.1223598197 0.1287168264 0.9803615808
0.01597786695 0.06113208458 0.8718116283 0.380079031 -0.01822621003 0.8770403266
-0.002391244052 0.08447710425 0.8600057364 0.0126219606 0.291847229 0.9532181621
-0.01235608757 0.08327186108 0.8615412712 -0.001498161117 0.2412395626 0.9703986645
0.06459008157 0.06350144744 0.8434914947 -0.02349395677 -0.1276616901 0.9907793999
0.03125800565 0.07687837631 0.8552210331 0.2853524983 0.1171306297 0.9309568405
0.04467882216 0.07409694046 0.8485247493 0.3210085928 -0.1368461698 0.9233865142
0.02939311974 0.06831977516 0.8529317975 0.3058711588 -0.04486405104 0.885070622
0.03138775006 0.05583993345 0.8490973711 0.371424526 -0.4008299708 0.8121293187
0.03622568026 0.06710521132 0.8497964144 0.326913774 -0.1766892076 0.881136775
0.02796033397 0.06005345657 0.8515378833 0.343209058 -0.2403303683 0.8354432583
-0.03299141303 -0.02223456651 0.9629747868 -0.09416472167 -0.09300351143 0.9905557632
-0.03339757025 -0.0308424104 0.9624019265 -0.1206406131 -0.06376006454 0.9900405407
-0.05788815394 0.05247458071 0.8997324109 0.207092151 0.5627689362 0.7729009986
-0.05831624568 0.04276431724 0.9016072154 0.184280768 0.6569442153 0.7231273055
-0.04943968356 0.06108865514 0.8963299394 0.3291656077 0.4014186263 0.8545684218
0.08322864771 -0.006424495485 0.8806964159 -0.2548524141 0.5572968721 0.7740938663
0.05945842713 -0.0060918401 0.880043149 0.02611828968 0.4843736887 0.8626464009
0.08718740195 -0.0124948388 0.8801968694 -0.3456973732 0.4816592932 0.7995740175
0.07199214399 -0.01698742248 0.878667295 -0.1194061115 0.3810657561 0.8974134922
0.07836514711 -0.01425788924 0.8795477152 -0.2276945859 0.4320482612 0.8483705521
0.06775951385 -0.01124471612 0.8795444369 -0.08115220815 0.4413565099 0.8687449694
0.09972704202 -0.02844499052 0.9072173834 -0.6762912273 0.495690167 0.5349456668
0.09778106213 -0.02540129051 0.8997064233 -0.6565580368 0.4778430164 0.5727242231
0.1025212929 -0.02672105841 0.9158484936 -0.7160671949 0.5013113618 0.4847249389
0.0841742754 -0.03039911948 0.8946396708 -0.3460098803 0.4395554066 0.7208467722
0.09407763183 -0.02841313183 0.9131563902 -0.6489851475 0.5448274016 0.4455747008
0.08475460112 -0.03247693926 0.883683145 -0.2576442063 0.3949553072 0.8521805406
0.0857245177 -0.03328307718 0.9022446871 -0.3867826462 0.5542873144 0.5902947187
0.07937683165 -0.03579219058 0.8921613693 -0.1938172877 0.5198771954 0.7377097011
0.0894029811 -0.03139351308 0.907428503 -0.5014055371 0.5583703518 0.519187808
0.06138747931 -0.01307744905 0.8787379861 0.0478942506 0.3808524311 0.9083184004
0.05032990873 -0.001006368198 0.8472034931 0.07732461393 0.6031733155 0.79036659
0.0535916537 -0.01100601349 0.8596606255 0.1413704157 0.5052474737 0.8145671487
0.05233582482 -0.005254539195 0.8523384333 0.09646164626 0.5839809179 0.7817813158
0.06625715643 0.001528892899 0.8449403048 -0.2007335275 0.6236607432 0.7238858938
0.03292546049 -0.02427089959 0.9179708362 0.03780076653 0.4981665313 0.2213814557
0.04021891952 -0.005387217738 0.9447713494 -0.2230922133 0.7529368401 -0.49719733
0.0455971621 -0.001854360569 0.946660161 -0.3128944039 0.6846148968 -0.4134448767
0.03084146231 -0.01471941173 0.9429190159 -0.4847388268 0.7228879929 -0.4724265039
0.0264098607 -0.03356677666 0.9179340601 0.5218698382 0.2872004509 0.08837909997
0.01381346956 -0.02070232108 0.9463143349 -0.334012717 0.4884302616 -0.05115025118
0.001458242186 -0.02448864654 0.9488595128 -0.3435875475 0.2398865968 0.3805990815
-0.01147885714 -0.03422920778 0.9548094273 -0.2202566713 0.0122244684 0.8034777641
0.02304162085 -0.02559829131 0.9389221668 -0.6625557542 0.5641949177 -0.2515205145
0.01032187138 -0.02722321264 0.9442660809 -0.5057809353 0.3640458584 0.1302824616
0.01686539501 -0.02663063444 0.9415645003 -0.586866796 0.4661684334 -0.06475289166
-0.0010435445 -0.0315679051 0.9498963356 -0.3582337201 0.178219378 0.4851768613
-0.01818031259 -0.03009585664 0.9561159611 -0.1519983858 -0.0815211609 0.9812334776
0.01980605721 -0.01977580041 0.9447361827 -0.3645634949 0.5938332677 -0.241427362
-0.01025427878 -0.02758763917 0.9536666274 -0.1959574521 0.06056473777 0.7241593599
0.028967252 -0.02084104344 0.9399735332 -0.659484148 0.6366041899 -0.3772453666
0.04082610831 -0.05296245962 0.9070193172 0.6589443088 0.4401204586 0.5904323459
0.04777074978 -0.05170508474 0.8983248472 0.5267311335 0.5069956183 0.6808758974
0.05425069109 -0.01286095195 0.935497582 0.063558653 0.7474307418 -0.5595880151
0.05356667563 -0.01054309309 0.9089978933 0.104055658 0.6092282534 0.1474729925
0.04256291315 -0.02084906027 0.9071272016 0.3934620917 0.5044097304 0.3910984099
0.05437791348 -0.008758030832 0.8999926448 0.09051922709 0.5713199377 0.3692952693
0.04488280416 -0.01978653856 0.9174227118 0.324001044 0.5759273171 0.08007540554
0.03852704167 -0.02366205677 0.8978180289 0.5069643855 0.4229252338 0.7065970302
0.05159890652 -0.01373808086 0.9207203388 0.1455238461 0.6506634355 -0.1251593679
0.05481173471 -0.01015992556 0.9161916971 0.06535350531 0.6559379101 -0.06320185959
0.04587343708 -0.02012578025 0.9012903571 0.4125157595 0.3961166441 0.4128407836
0.04968089983 -0.01677472144 0.9138653874 0.2683063745 0.5235486031 0.04168140143
0.04876915365 -0.01633205451 0.8923158646 0.3596027792 0.3317697644 0.5947185159
0.05468862504 -0.01164892036 0.9263827801 0.06849043071 0.6943949461 -0.3338714838
0.05499412864 -0.0067026834 0.8848047256 0.09627261758 0.4891183972 0.7509331107
0.05529161543 -0.007150633726 0.89281106 0.07542525977 0.5398756266 0.539744854
0.05053377897 -0.0144867003 0.8983327746 0.2769087553 0.4184787869 0.4260776937
0.0518351905 -0.01157678664 0.8885017633 0.2300158441 0.4086777866 0.6746546626
0.04767056927 -0.015982721 0.9428932071 -0.3106858134 0.6936249733 -0.5347177386
0.05181463808 -0.0008876965148 0.9448483586 0.07332876325 0.8315044641 -0.5477358699
0.04702398553 -0.009625518695 0.9423710108 -0.529409349 0.5934445262 -0.351780951
0.0379777737 -0.01750491373 0.9381955862 -0.585347116 0.6376439929 -0.3942642212
0.0526048243 -0.006747131236 0.9415367842 0.04957793653 0.7935757637 -0.6035328507
0.05763754621 -0.04483826458 0.888079524 0.2625128925 0.530625701 0.8017863035
0.04942814261 -0.04040278494 0.8920334578 0.405438453 0.480871886 0.7604833245
0.04446528479 -0.03540802374 0.8946779966 0.4763163626 0.4425300956 0.7371576428
0.04861680791 -0.02534549683 0.9188967943 0.2950556576 0.6193509102 -0.01957060583
0.05125685781 -0.01784066111 0.9289030433 0.1698067337 0.6897066236 -0.3321007788
0.04083831981 -0.03730668873 0.8996512294 0.5671289563 0.4585301876 0.6264485717
0.04020521417 -0.02715819515 0.9093006849 0.4830421507 0.4963591993 0.3779289424
0.05544511229 -0.0442506969 0.9005345106 0.3235857487 0.567003727 0.5851475
0.07910843939 -0.04124887288 0.9134371281 -0.2136464417 0.7683776021 0.3614860773
0.04972819984 -0.03753355518 0.9063722491 0.3859367371 0.5643184781 0.3531820476
0.07260325551 -0.03825353086 0.9146989584 -0.09989736229 0.7350717783 0.2762590945
0.05709208921 -0.0291536618 0.9191263318 0.1505723149 0.6745761037 -0.002661349252
0.07896456867 -0.03636530042 0.9194574952 -0.2541529536 0.7959648371 0.1745760441
0.04917869344 -0.03171904385 0.9129536152 0.3444491029 0.5974362493 0.132152468
0.05790099874 -0.02172191441 0.9281439185 0.06501241028 0.7284914851 -0.292078197
0.04668271169 -0.04202939197 0.899892509 0.4927226603 0.5121052861 0.539953351
0.06022195518 -0.01766769029 0.933816731 -0.02212706022 0.7723147273 -0.4585584998
0.07488361001 -0.02986866795 0.9254212379 -0.2258729786 0.8063874841 -0.05652940273
0.05773715675 -0.04105444252 0.9054638743 0.2458115071 0.6031155586 0.4519212842
0.06426160038 -0.03108297475 0.9197432399 0.01392380614 0.7171558142 0.03872746602
0.05943704769 -0.03354859725 0.9149252772 0.1403917819 0.6643375754 0.1555814743
0.05220025405 -0.0227102749 0.9247028232 0.1967963874 0.6784402132 -0.2280117869
0.06822440028 -0.04072275758 0.9100553989 0.01700912416 0.6856473684 0.3912135363
0.06554547697 -0.02731804177 0.9246619344 -0.04823742062 0.7511706948 -0.1118884236
0.07154108584 -0.03347900137 0.9198582172 -0.1208123565 0.757582128 0.09755657613
0.00928034354 0.02182434872 0.8599836826 0.6531105638 -0.06826220453 0.7520033717
0.008958939463 0.02854602039 0.8640444279 0.6641974449 -0.1531862617 0.7150856256
-0.05771501362 0.04558283091 0.8955887556 0.3296288252 0.4380276799 0.8328435421
-0.06395953149 0.03915392607 0.9015874863 -0.004622651264 0.5643810034 0.7403235435
0.1009903327 0.02341511846 0.8555511236 -0.6410793066 0.1116314977 0.7475047112
0.08932902664 0.01712921262 0.8495307565 -0.5913902521 0.2611882687 0.7486553788
0.09450686723 0.02159619331 0.8518695235 -0.6510749459 0.172731787 0.7208901644
0.08243712038 0.02421399206 0.8439503908 -0.488283366 0.07987936586 0.8625438213
0.07118688524 0.009275598451 0.8607398272 -0.2388885766 0.520436883 0.6386538744
0.08453468233 0.01991025172 0.8518414497 -0.503788054 0.2150856555 0.7723911405
0.07891319692 0.02370316535 0.8503662348 -0.4042600691 0.1059852988 0.7948120832
0.0772709772 0.01359804999 0.8570153117 -0.3588691652 0.3963393271 0.6946155429
0.07987261564 -0.01190616842 0.8644518256 -0.3038235307 0.4999106824 0.75201267
0.08183187991 -0.01928906143 0.8746398687 -0.2589178681 0.3298777342 0.8886724114
0.07939498872 -0.006522251293 0.8590545058 -0.3286443055 0.5892522335 0.6848524809
0.07633715123 -0.01671642251 0.8702757955 -0.1966417134 0.4082517922 0.8510587811
0.07652316242 -0.02444064431 0.8774974942 -0.1473515928 0.2948004603 0.9409775138
0.1009022966 -0.02238334715 0.9092717171 -0.655626595 0.5179124475 0.5272328258
0.09916918725 -0.01899894327 0.9025307894 -0.6027590036 0.5248013735 0.5729426146
0.09713769704 -0.02017664537 0.8958581686 -0.5980701447 0.4860349894 0.6206259727
0.09335185587 -0.01522183511 0.8916283846 -0.5081909299 0.5331269503 0.6405668259
0.09374343604 -0.01967295073 0.9050930142 -0.5814450979 0.5782938004 0.5031078458
0.09323653579 -0.0130602587 0.8847411871 -0.473254025 0.5083752275 0.7109439373
0.08973559737 -0.006931165233 0.8847694397 -0.3554738462 0.5945264101 0.7013600469
0.05478054658 -0.01324710064 0.8786873817 0.2324856669 0.3036554456 0.913695097
0.04950840026 -0.01890512183 0.8752041459 0.3203063607 0.3160435259 0.875647068
0.04944562167 -0.01250476204 0.8656704426 0.2438573092 0.4063823223 0.8499014378
0.05262270942 -0.01735756733 0.8689270616 0.2245361954 0.3730863631 0.8822932839
0.07263988256 -0.0318313688 0.8805934787 -0.03605462983 0.3800141513 0.9179053903
0.05942582712 -0.01966217905 0.877443552 0.1966324002 0.2797362506 0.9343371987
0.06653863937 -0.01964905113 0.870306015 0.01973449811 0.3847166896 0.8869899511
0.06569907069 -0.02400222793 0.8753833771 0.08201789111 0.3216128647 0.9346988797
0.07129912823 -0.02744780853 0.8751344085 -0.04600787535 0.354316771 0.9207353592
0.07288523763 -0.02130866982 0.8725783229 -0.09611622989 0.3789084256 0.9042617679
0.07210018486 -0.01083974354 0.8583403826 -0.2061693966 0.5499374866 0.7689873576
0.07217612118 -0.01549740229 0.8637176752 -0.1609802991 0.4865785837 0.8187408447
0.0622988753 -0.005252117757 0.8516432047 -0.0585453175 0.6673355699 0.7097711563
0.05668149889 -0.002732462017 0.8483546972 0.006571528967 0.7246279716 0.6776960492
0.05839524418 -0.01479940303 0.8628731966 0.1010562703 0.5138293505 0.8073896766
0.05652238056 -0.02520478331 0.8730300069 0.2163784057 0.3762522042 0.8772847652
0.05899047479 -0.01962657273 0.8683293462 0.1371189058 0.4353761077 0.8530632854
0.06445771456 -0.01568218693 0.8652060628 0.01798820123 0.4651331604 0.8389720321
0.0658698827 -0.01175216772 0.8603496552 -0.05492566526 0.5263956785 0.7925111651
0.07248512655 0.0003279023513 0.84690696 -0.3132012486 0.6657677889 0.6749551296
0.03742465377 -0.05322634801 0.9130532146 0.8367851377 0.3455747664 0.411714375
0.02566407248 -0.03979898989 0.918177247 0.5974602103 0.2999168932 0.123982504
0.03294757754 -0.04635979608 0.9168844819 0.6646937728 0.3342699409 0.2435127944
0.03347225487 -0.04176429659 0.9230930805 0.24291192 0.4387244284 0.09409980476
0.02708969265 -0.02807021141 0.934104681 -0.4847867191 0.56848526 -0.2583642602
0.02885788865 -0.03698579967 0.9246855378 0.1479592472 0.4294760227 -0.001020512311
0.03123469278 -0.03243967518 0.9311385155 -0.3096377254 0.5484598279 -0.1524997056
0.03627504408 -0.03733824566 0.9264181256 -0.03723921999 0.5021510124 -0.01631295308
0.03267515078 -0.02388509922 0.9355612397 -0.6872778535 0.6126601696 -0.3413024843
0.02759075724 -0.04549727589 0.9122163653 0.9044917226 0.2544949949 0.3039138615
0.03865054622 -0.02223180048 0.9202657342 0.1140201539 0.5444569588 0.09310489893
0.03486261144 -0.02071834356 0.930480957 -0.403215915 0.5763776898 -0.1448870599
0.04468031228 -0.0181567166 0.9284501076 0.02378977835 0.6359371543 -0.223607704
0.04682717472 -0.01544482168 0.9361179471 -0.1859999597 0.6961795688 -0.4716354012
0.04046941176 -0.048792772 0.9183947444 0.5261933208 0.4063652456 0.2653774917
0.03799251467 -0.03191318363 0.929921031 -0.2736572325 0.5423430204 -0.1345111132
0.08066018671 -0.0325996317 0.9246152043 -0.3295348883 0.8333147168 0.02126883343
0.05359208956 -0.02102570049 0.9363618493 -0.3915531039 0.7215912342 -0.3965073228
0.06686002016 -0.02303487249 0.9315031171 -0.1933538467 0.7918421626 -0.2964743972
0.06024194881 -0.0269934833 0.9327093363 -0.5194044113 0.7358318567 -0.2045502812
0.06605245173 -0.04438389093 0.9199299216 -0.01023195777 0.6476851106 0.2280365974
0.06114572287 -0.03632369265 0.9259169698 -0.3216736913 0.6722944379 0.02875632048
0.0531485416 -0.03084574454 0.9303119779 -0.4695311785 0.6498504281 -0.118329756
0.05092027783 -0.03620395809 0.9267158508 -0.1873573661 0.5873678923 0.0004293926468
0.05178824812 -0.04264657944 0.9221438766 0.1033782214 0.5420401692 0.1520860642
0.06771820784 -0.03765552491 0.9245248437 -0.3490644991 0.716632545 0.07608037442
0.05885938555 -0.04286395386 0.9214972258 0.01681639999 0.5996697545 0.1747973561
0.04689518362 -0.04761918262 0.9190041423 0.403908819 0.4603199661 0.2552398443
0.04795304686 -0.0271203015 0.9332839847 -0.5734147429 0.6366300583 -0.2177523226
0.07378430665 -0.04566260055 0.9184938669 -0.05598454177 0.7021970749 0.2770248353
0.04222824797 -0.02545986511 0.9348469377 -0.5730597973 0.6020972133 -0.2705830336
0.07388713211 -0.03981857747 0.9225788116 -0.3318892419 0.7507914305 0.1416830122
0.04339341447 -0.03832168877 0.9257593155 0.01512271166 0.5068379641 0.03076084517
0.06980834901 -0.03177179396 0.9284488559 -0.5171989799 0.7742615342 -0.04597069323
0.04966517538 -0.04796581343 0.8932957053 0.4899440408 0.4931287467 0.7143115401
0.04013637826 -0.04719272256 0.9008827806 0.6012937427 0.4620115161 0.6491837502
0.03149437532 -0.03803524747 0.9036747217 0.7829141021 0.3121483028 0.5100022554
0.03411570564 -0.04414716363 0.9030945301 0.6265326142 0.4440315962 0.6274679303
0.01220539398 0.01556737162 0.8567143083 0.6078111529 0.008817925118 0.7893568277
0.01660413668 0.02277196757 0.8544872999 0.6131211519 -0.01726811193 0.7890026569
-0.05817818642 0.03451816738 0.9047212601 -0.05279283598 0.6653368473 0.6914596558
-0.05255660042 0.04150789604 0.897515595 0.309163332 0.4939701557 0.8017960787
0.07824228704 0.008058704436 0.8469166756 -0.4250605106 0.5274147987 0.7276901007
0.08255253732 0.01516999863 0.8462066054 -0.5073537827 0.2972282469 0.8045632243
0.07587969303 0.0138302967 0.8418164849 -0.4191474915 0.2831661403 0.8620951772
0.06366759539 0.006999114063 0.8412710428 -0.1791156083 0.4311888218 0.8574659228
0.07223144174 0.008182875812 0.8431802392 -0.3380744755 0.4266467094 0.8054444194
0.09181839228 0.01326077431 0.856113553 -0.6228290796 0.4253531098 0.6245071888
0.08671178669 0.005058183335 0.864612937 -0.4773601592 0.6598866582 0.5447580218
0.08108463138 8.534359949e-05 0.8727394342 -0.312843293 0.7386075854 0.5709350705
0.07901120931 0.002010429744 0.8666878343 -0.3422316909 0.7344109416 0.5410327911
0.09093464166 0.001797240111 0.8753494024 -0.4333112538 0.6626034379 0.5987142324
0.08521005511 0.01077390555 0.8557414412 -0.4969579577 0.4685031474 0.6906110644
0.0817752406 0.005866674706 0.8608379364 -0.4294256866 0.644032836 0.5689277649
0.08446633816 -0.001415326027 0.8578016758 -0.4589310586 0.6547830701 0.5811917186
0.08289542794 -0.01355564594 0.872851193 -0.3055057824 0.5064762235 0.7965560555
0.08391667902 -0.008729808033 0.8675903082 -0.3717316091 0.559476912 0.7115394473
0.08983045071 -0.003526820336 0.8665290475 -0.5565647483 0.5864537954 0.5677669048
0.09097475559 -0.01231664233 0.8741204143 -0.5654509664 0.5205229521 0.6203367114
0.08334868401 -0.02754171006 0.8875284195 -0.2918423414 0.3508943617 0.8271407485
0.08944177628 -0.02687410638 0.8979874849 -0.4536612928 0.4185890853 0.6744937301
0.08899585158 -0.0269272998 0.8830689788 -0.4219835997 0.4093070328 0.7687683105
0.08818182349 -0.02209912986 0.8872112036 -0.3670319319 0.3900634348 0.7933980823
0.09237755835 -0.02666528337 0.9037778378 -0.5408126712 0.4592160583 0.5882978439
0.08250686526 -0.02546602488 0.8804103732 -0.2073072195 0.2878654599 0.9338591099
0.08620180935 -0.01881044358 0.8802636266 -0.3098753095 0.3864664435 0.8591381907
0.05862523615 -0.03944292665 0.8838745952 0.2352163643 0.4597834349 0.8485285044
0.07505056262 -0.03560555354 0.8852952123 -0.08909019828 0.4511404335 0.8514962792
0.08589770645 -0.03882499412 0.9134098887 -0.3681278229 0.7792845368 0.3609890342
0.08078335226 -0.03714457899 0.8989564776 -0.2327825576 0.6107911468 0.6138172746
0.06532273442 -0.04218862951 0.8964247704 0.08670973033 0.5985441208 0.6575997472
0.07444184273 -0.03848651052 0.8992874026 -0.1141635254 0.6167727709 0.6030119658
0.06237024441 -0.04047435522 0.8889950514 0.1542492658 0.5072739124 0.7831882238
0.07040683925 -0.03839402646 0.8941572905 -0.02379455045 0.5579887629 0.6912791133
0.06530637294 -0.036529392 0.8817566037 0.09770516306 0.4125382304 0.9041505456
0.04721629992 -0.02431271039 0.8860395551 0.4531458914 0.2785474658 0.820967555
0.05196742341 -0.03140771016 0.8873369694 0.3587679565 0.3580876291 0.8141492605
0.05357217416 -0.02203641459 0.8807552457 0.3279824257 0.2690237164 0.8924641013
0.05551930144 -0.03402099013 0.8808291554 0.2868474722 0.3725683093 0.8804284334
0.06652989984 -0.03002546914 0.8790192604 0.07636503875 0.3556820452 0.9272516966
0.04700589553 -0.03463635966 0.8854032159 0.4672036767 0.3731093109 0.7959368825
0.03998085484 -0.03394474834 0.8887556791 0.5965994596 0.3688004911 0.709943831
0.03974247351 -0.04115531966 0.8940091133 0.5901601911 0.430226475 0.682484448
0.03562624753 -0.0313546136 0.8985766768 0.622449398 0.3893530965 0.678170085
0.03815876693 -0.02766477317 0.8920134902 0.6223590374 0.281403631 0.7244687676
0.08988384902 0.005076945759 0.8582431674 -0.5395394564 0.646184206 0.5348148346
0.09614780545 -0.0004771517415 0.8798316121 -0.4750736952 0.6088405252 0.6328264475
0.09420192987 -0.009193971753 0.8788864017 -0.5238080621 0.5247206688 0.6613661051
0.09351371974 0.002745863283 0.8640310764 -0.582806766 0.6111118197 0.5291841626
0.0928517729 -0.01771038398 0.8792091012 -0.5966605544 0.4788086712 0.6376408935
0.09462115169 0.00552924769 0.8705953956 -0.5577352643 0.5802869797 0.5714893341
0.09821585566 0.008985634893 0.866561234 -0.6043319106 0.4722563624 0.6046257019
0.1009535939 0.01733384281 0.8595127463 -0.6880807877 0.2786203623 0.6366494298
0.09925732762 0.01469788607 0.872181654 -0.5219893456 0.3269436359 0.6953302622
0.1003125831 0.02200307697 0.8678744435 -0.5467244983 0.1792544276 0.7277052999
0.0974349305 0.007895649411 0.8757557869 -0.4921092391 0.4774193466 0.6601208448
0.09527119249 0.02583544888 0.8572597504 -0.5922096372 0.1042453051 0.7157700062
0.09514895082 0.016495388 0.8622274399 -0.6018412709 0.3295845389 0.631285429
0.1020443812 0.03105007857 0.8627157807 -0.5808991194 -0.01394783426 0.7725165486
