# .PCD v0.7 - Point Cloud Data file format
VERSION 0.7
FIELDS x y z normal_x normal_y normal_z
SIZE 4 4 4 4 4 4
TYPE F F F F F F
COUNT 1 1 1 1 1 1
WIDTH 512
HEIGHT 1
VIEWPOINT 0 0 0 1 0 0 0
POINTS 512
DATA ascii
0.08858704567 -0.008446064778 0.8673175573 0.06065711752 0.5163384676 0.8542337418
0.09759462625 -0.002981674159 0.8686637282 0.06065711752 0.5163384676 0.8542337418
0.09435897321 -0.00634976197 0.8662996292 0.06065711752 0.5163384676 0.8542337418
0.09038734436 -0.0146692954 0.8672202229 0.06065711752 0.5163384676 0.8542337418
0.09691465646 -0.01931750774 0.8646721244 0.06065711752 0.5163384676 0.8542337418
0.03746213019 0.04804769903 0.8322777748 0.6087799072 0.4388372302 0.6430983543
0.05165135115 0.0348078683 0.8388592005 -0.2075404227 0.3749100566 0.8958487511
0.1031333432 -0.02017413452 0.8639701009 0.06065711752 0.5163384676 0.8542337418
0.09075505286 0.06007933617 0.7690278292 0.7712678313 0.2663065195 0.5780213475
0.08703697473 0.06497635692 0.7709591389 0.8012618423 0.2097149193 0.5587309003
0.04981073365 0.06019232422 0.8279291987 0.7007829547 0.3333745301 0.6306859255
0.05037728325 0.04976579174 0.8308125138 0.6414800882 0.3914509118 0.6382671595
0.1001288146 -0.00705560483 0.8653869629 0.06065711752 0.5163384676 0.8542337418
0.100396432 -0.01358486153 0.8640391827 0.06065711752 0.5163384676 0.8542337418
0.03821450472 0.0428246446 0.8342249393 0.3585680127 0.5247769356 0.7055643797
0.04464847222 0.04041326791 0.8352230787 0.1869233102 0.4786034226 0.763440609
0.03932699189 0.03745288774 0.8371510506 0.07576786727 0.4487019181 0.8009207249
0.129461959 -0.0182780996 0.8576744795 0.2994705737 0.8491583467 0.4320273995
0.132404685 -0.01283963304 0.8575196266 0.2504041493 0.8758482933 0.4106457233
0.1069829911 -0.0003542529012 0.8702117801 0.06065711752 0.5163384676 0.8542337418
0.1092157289 -0.003698550863 0.8659220934 0.1459425986 0.6031822562 0.7448851466
0.05105491355 0.04271946475 0.8336921334 0.3243884146 0.592253089 0.6980902553
0.1336341947 0.06979316473 0.7355848551 -0.01007365249 0.3530154228 0.9183718562
0.2126059979 0.05091167241 0.7842493653 -0.6375005245 0.1615892947 0.7454482913
0.1658985168 0.1171810776 0.7492080331 -0.5530433655 -0.4898906052 0.6100077033
0.110783264 0.1299002022 0.7461460233 0.2717751861 -0.1256210059 0.9492639899
0.1243847758 0.1194410324 0.7416759133 0.08412011713 -0.3870997429 0.9084427357
0.1222385392 0.1248047054 0.7447954416 0.05649673566 -0.4004034102 0.9042279124
0.1170538515 0.129648447 0.7466233373 0.1151265427 -0.2932448089 0.9298226237
0.1232331917 0.1309604794 0.7553006411 0.1118723229 -0.4779617786 0.8101782799
0.108917132 0.1305772066 0.7608879209 0.3679121137 -0.3222545683 0.7682598233
0.1300743222 0.1311670095 0.7544521093 0.004376220983 -0.5491021872 0.8137699366
0.09996171296 0.1292180121 0.7670194507 0.5510566831 -0.2241925001 0.7176320553
0.1186166704 0.130167678 0.7613281608 0.22982952 -0.4227247536 0.7581378222
0.1059205607 0.1283395439 0.765858233 0.45532763 -0.2906301022 0.7240137458
0.1059416234 0.1306824237 0.7552235126 0.5086132288 -0.1826521307 0.7979719043
0.110786289 0.1308259964 0.7522518039 0.4277257323 -0.2251185477 0.8195539117
0.1171742901 0.1308694333 0.7536078691 0.2518866062 -0.3653015196 0.8185742497
0.09733550251 0.1303957701 0.7615634799 0.6383888125 -0.1241471916 0.7536917329
0.1053764969 0.1264107823 0.7466759086 0.4575023949 -0.1216101646 0.8666604161
0.1159585714 -0.008737483993 0.8654262424 0.1875105947 0.645073235 0.6851413846
0.11726363 -0.01502501592 0.8632389903 0.2677280307 0.7266914845 0.5813322067
0.1061400995 -0.01509931032 0.862694025 0.08737617731 0.543545723 0.8199759722
0.1115651652 -0.0140479207 0.8615419269 0.2353610694 0.69423455 0.6302374601
0.1105509102 -0.02039500326 0.8622460961 0.2077009678 0.6660690904 0.6657018065
0.1062070578 -0.009252089076 0.8644152284 0.08552885801 0.54166466 0.8223444819
0.2036702633 0.04949746281 0.7851412296 -0.6354144216 0.1668044776 0.7471393943
0.2039849758 0.03872418031 0.7895089984 -0.6105004549 0.2811187506 0.7346534133
0.09123796225 0.1200871915 0.764711082 0.7359619737 -0.1193849742 0.6597285271
0.08982174098 0.1099270955 0.7634530067 0.7797592282 -0.1509638429 0.5993934274
0.08939035982 0.1267092824 0.770732522 0.718909502 -0.1384263784 0.6802501082
0.08740610629 0.1061428115 0.7676628828 0.7959494591 -0.1377942264 0.5793587565
0.08293171227 0.09710048139 0.7753238678 0.8242479563 -0.06407253444 0.5486337543
0.08734927326 0.1006365046 0.7656542659 0.817309618 -0.1472982913 0.5505512953
0.08416100591 0.1031847596 0.7746253014 0.8024505973 -0.07735551894 0.5760499835
0.0880658105 0.1172611862 0.770355463 0.7536621094 -0.1297151446 0.6354644895
0.04148292169 0.06939694285 0.8250904083 0.7007829547 0.3333745301 0.6306859255
0.04241545498 0.05205160007 0.8307288289 0.7007829547 0.3333745301 0.6306859255
0.04362040386 0.0631012693 0.8260735273 0.7007829547 0.3333745301 0.6306859255
0.04242284596 0.05709261075 0.8271151781 0.7007829547 0.3333745301 0.6306859255
0.1301248819 -0.006987583358 0.8603711128 0.3078198135 0.8434679508 0.4366598129
0.1231638938 -0.006200294476 0.8622425795 0.3379935622 0.7804167271 0.4986876845
0.1193337888 -0.003512796713 0.864584446 0.2430245578 0.6895987988 0.6209198236
0.1240898818 -0.01976111904 0.8605611324 0.3576344848 0.8158676028 0.4527673423
0.1138780117 -0.0007958727656 0.867383182 0.1327076852 0.5870009661 0.7621046901
0.1257401556 -0.01121397782 0.8583298326 0.3567410707 0.8164253235 0.4538285732
0.03971698508 0.02661850862 0.8430826068 -0.2248762995 0.36782673 0.9022938013
0.04071126506 0.0308075361 0.8392900825 -0.2248762995 0.36782673 0.9022938013
0.0512310639 0.02712870762 0.8392845392 -0.2248762995 0.36782673 0.9022938013
0.04546882585 0.03368320689 0.83791852 -0.2248762995 0.36782673 0.9022938013
0.0467485711 0.02874884009 0.8424429297 -0.2248762995 0.36782673 0.9022938013
0.1986732036 0.07293298841 0.7727524638 -0.6295431256 -0.09310238063 0.7665126324
0.2005723566 0.06728797406 0.7721149921 -0.636911273 -0.0463212505 0.7633178234
0.2012534738 0.05966333672 0.7697764635 -0.6472112536 0.01404158678 0.7596367002
0.209810093 0.05653723329 0.7753091455 -0.6499058008 0.05119626597 0.7553414702
0.2082006335 0.06262426078 0.7767383456 -0.6422582269 0.006324117538 0.7590529323
0.2144396156 0.05702938139 0.7809317112 -0.6500957608 0.07661082596 0.755885005
0.202565819 0.0711087361 0.77612257 -0.6322741508 -0.06066437438 0.7654215693
0.2071188986 0.07125171274 0.7827936411 -0.6258465052 -0.03271602839 0.7711296678
0.2039569765 0.07587216049 0.7814929485 -0.6153921485 -0.08629903942 0.7763255239
0.2111146599 0.06630463898 0.7844269872 -0.6371843815 0.02539493516 0.7654947042
0.1598087698 0.1192451119 0.7474658489 -0.3706493378 -0.5607081652 0.6818215847
0.1585474759 0.1144035682 0.7438753843 -0.2542189062 -0.4880042076 0.8234041333
0.1632338613 0.1116111353 0.7450937629 -0.3260187805 -0.3931206763 0.8370092511
0.1556326896 0.1109092683 0.73974967 -0.287589103 -0.4200516343 0.8446009159
0.1518723071 0.1187642217 0.7426739335 -0.1776076704 -0.6077407002 0.7702741027
0.1800898612 0.09612172842 0.7598270774 -0.6605631709 -0.05460351706 0.7368140221
0.1743922085 0.1082495824 0.7535355687 -0.7044820189 -0.2863185704 0.6130997539
0.1765782684 0.1032069027 0.7558541894 -0.6874614358 -0.1875790954 0.6646891832
0.1687127948 0.1126271412 0.7479711771 -0.5993260741 -0.3737961054 0.660800457
0.1696188301 0.1062262878 0.7465430498 -0.6672665477 -0.1620254219 0.7197957635
0.1758348495 0.05998408794 0.7573182583 -0.1891118139 -0.006742186844 0.9723363519
0.1272834688 0.07506691664 0.7335684299 0.1878847331 0.1907232106 0.9589519501
0.1337221414 0.07827587426 0.7322636843 0.05120204762 0.1604990959 0.9821349978
0.1282837391 0.1158834845 0.7401201129 0.08956148475 -0.4358307421 0.8864901066
0.1327291578 0.1106731519 0.737839818 0.1063952073 -0.4866349399 0.8636440635
0.1353996843 0.1298217177 0.7529315352 -0.05565082282 -0.5942969322 0.799947083
0.1421641558 0.1242606267 0.7459397912 -0.09548445046 -0.631074965 0.7662949562
0.1391354501 0.1323474199 0.7585215569 -0.09317737818 -0.6278601289 0.7702795863
0.1429968327 0.08551502973 0.7555420399 -0.2224234045 0.1457722336 0.7290908098
0.130115509 0.1140648499 0.7458961606 0.1988229603 -0.519331634 0.8104783297
0.1219726503 0.1045486331 0.7464315295 0.3269076347 -0.2980622649 0.8051163554
0.1388927549 0.1034949049 0.7503310442 -0.04366902635 -0.2729553282 0.7733312845
0.1327095926 0.102099739 0.7493344545 0.08282583952 -0.2406847328 0.7812774181
0.1265657097 0.09883906692 0.7487952113 0.1991192251 -0.1649820656 0.7853099108
0.1297199875 0.1065185815 0.7476269007 0.169525221 -0.3436610699 0.7956172824
0.1374191195 0.09338982403 0.7524451613 -0.06252060086 -0.03774987906 0.7550832629
0.124584198 0.1104893014 0.7455646992 0.3003124297 -0.4362776875 0.8127897382
0.1263884753 0.1290870309 0.7477397919 -0.01264994964 -0.5069625378 0.860729754
0.1392142326 0.1157952398 0.7396954298 -0.01074713282 -0.5629325509 0.8171919584
0.1337630153 0.1198717281 0.742326498 0.002825986361 -0.5315932035 0.8417497277
0.1437593848 0.1200846732 0.741353333 -0.09236712754 -0.6259742975 0.767125845
0.1363296956 0.1258548647 0.7455174327 -0.06698863208 -0.5846891999 0.8006020784
0.1983879805 0.07428214699 0.7791935802 -0.6122832298 -0.07364155352 0.7764915824
0.1984637529 0.06310236454 0.7795436382 -0.6235026121 0.04651738703 0.7662951946
0.1977599263 0.0591709204 0.7757484913 -0.6339058876 0.04476590082 0.7678185105
0.1983152777 0.08264730126 0.7793985009 -0.6033777595 -0.1545408815 0.7821461558
0.1965666562 0.07948153466 0.7747007012 -0.6166607141 -0.1423930228 0.7739030123
0.2009143233 0.05712164938 0.7824805975 -0.6314120293 0.134849146 0.75733459
0.2052934915 0.06450225413 0.782335341 -0.638841331 0.0406011045 0.7641386986
0.2077376395 0.05428735167 0.7852291465 -0.6432327032 0.1138341278 0.7517948747
0.2066785544 0.04484458268 0.7886274457 -0.6186811924 0.2271764576 0.7414540052
0.2095536292 0.03984092548 0.7878124118 -0.6098103523 0.2918392718 0.733461678
0.2133013457 0.05960495025 0.7857993245 -0.6395836473 0.09794270992 0.7575057745
0.1740157157 0.09778986871 0.7507487535 -0.6828171015 -0.0637428984 0.7197350264
0.1789185554 0.08968609571 0.7572137117 -0.612228334 0.01452047471 0.7808035016
0.1706891507 0.09713764489 0.7445739508 -0.7120773196 0.05941675231 0.6963739991
0.1772296429 0.09671322256 0.7554845214 -0.6723468304 -0.05140255019 0.7316399217
0.1864364296 0.09053753316 0.7688632607 -0.6107187271 -0.00735784648 0.7900292873
0.08863088489 0.09499598294 0.7590919733 0.8134943843 -0.2109607458 0.541356802
0.09529636055 0.05977749452 0.7598215342 0.6889775395 0.3209458292 0.6465388536
0.1953924 0.05497838557 0.7734773159 -0.6492183805 0.1369854808 0.7461795211
0.1967739016 0.05695049465 0.7682453394 -0.667350769 0.06995986402 0.7377598286
0.1920151711 0.06347560138 0.7640957832 -0.6443695426 -0.02770515531 0.7635274529
0.2103004158 0.0461531654 0.7775021791 -0.6297075748 0.2038494051 0.7479451299
0.2068710774 0.04063710198 0.7816590071 -0.6171631217 0.2844564021 0.7315194607
0.2137185931 0.05232561752 0.7775747776 -0.6511858702 0.1019664109 0.7510426044
0.2016310543 0.0530263409 0.7715585232 -0.6686359048 0.1226845384 0.7320970893
0.2126207203 0.0448234044 0.7818606496 -0.6259682178 0.2172691226 0.743604362
0.1583468169 0.07984367013 0.7384291887 -0.5640935898 0.3916408122 0.7248976827
0.1797484905 0.04261535779 0.7604448795 -0.3689914644 0.2719829679 0.8780514002
0.1142422333 0.0721302405 0.7393787503 0.3844408989 0.2406068891 0.8831316233
0.119178094 0.07331356406 0.7365753651 0.3155205548 0.2297938019 0.9174368978
0.1250039041 0.06595903635 0.7376443148 0.2109224051 0.285427779 0.9346036911
0.1311766356 0.09676729888 0.7322260141 0.1545097232 -0.2427463531 0.9479256868
0.1256455928 0.09739365429 0.7337484956 0.2680732906 -0.2735401988 0.9200181961
0.1307465434 0.1032697856 0.734577179 0.1739338636 -0.3757816553 0.9042149782
0.1330353767 0.0856314376 0.7309574485 0.06533239037 0.0580091998 0.9888799787
0.1249562427 0.08803088218 0.7329599261 0.2481561303 -0.03856508434 0.9574074149
0.1424691528 0.1105387509 0.7369009852 -0.03671880439 -0.5012825727 0.8564388752
0.09951866418 0.1028933004 0.7464936972 0.5912751555 -0.1978548318 0.7666086555
0.09961937368 0.1099448055 0.7472384572 0.612323463 -0.1396222115 0.7617661953
0.1015250832 0.1186355278 0.7470505834 0.5677701235 -0.08505047858 0.802190125
0.1885019392 0.07760952413 0.7655396461 -0.5508428812 -0.1255313307 0.8223709464
0.1920395792 0.07420426607 0.7696456313 -0.5712971091 -0.1288411915 0.8047167063
0.1936030686 0.06888882071 0.7706888318 -0.5920132995 -0.07934562862 0.7944469452
0.1887025535 0.06879353523 0.7653043866 -0.5380714536 -0.108139731 0.8292871118
0.1816329807 0.06733805686 0.7591867447 -0.3628169298 -0.1260890365 0.9209182858
0.1634669155 0.09817685187 0.7400844097 -0.5397160649 -0.07654765993 0.8090616465
0.1654200256 0.1037782505 0.741501987 -0.5276155472 -0.162955299 0.815913558
0.1078300923 0.07685194165 0.7412974238 0.5190902948 0.1921052188 0.8291249275
0.10463956 0.08732504398 0.741448462 0.5484163165 -0.09414549172 0.8171156049
0.091258578 0.06735680252 0.7627629638 0.7867725492 0.2394921631 0.5667490959
0.11294052 0.08060075343 0.7375622392 0.4400701821 0.1042304188 0.8862258196
0.1193400919 0.08058913052 0.7352266908 0.3409601748 0.08724435419 0.9266137481
0.1241898239 0.08255343884 0.7333950996 0.2468536943 0.08273874223 0.9624083042
0.09231166542 0.1134206727 0.7693608999 0.7279199958 -0.1339777708 0.6629388332
0.08181975037 0.09135197848 0.7767624259 0.8434059024 -0.04547284171 0.5251202583
0.09642744809 0.1142535731 0.7660003901 0.695309341 -0.162248984 0.6982052326
0.0869820416 0.1105150282 0.7736058235 0.7731120586 -0.09586312622 0.6128820777
0.08588717878 0.09424792975 0.7667151093 0.8363877535 -0.1410791427 0.5232753158
0.0900638625 0.09786422551 0.7696204782 0.7593957186 -0.1343374997 0.6161128879
0.0955645293 0.1074333414 0.765979588 0.7087209225 -0.1618192941 0.6781946421
0.08630565554 0.09134171903 0.7726206183 0.7978969216 -0.1044894084 0.5707269311
0.08019290119 0.08264354616 0.7788046598 0.8708936572 -0.02280122228 0.4908266664
0.09511175752 0.1125507057 0.7530199289 0.7300040126 -0.09661372006 0.6615589261
0.09134944528 0.1044938266 0.7577318549 0.781865418 -0.1517727673 0.5922426581
0.09581991285 0.1184525564 0.7544941902 0.7198143601 -0.07177888602 0.682728827
0.1256321669 0.1102967635 0.7388123274 0.2112557292 -0.4622282386 0.8606182933
0.1189765036 0.1142797694 0.741163969 0.2324362248 -0.3418764472 0.8962520957
0.1185209155 0.1075667441 0.7399716377 0.3445037901 -0.3226085901 0.8702864051
0.1115607247 0.1239650324 0.7443928719 0.2347068936 -0.206140548 0.932308495
0.1128720865 0.1188468039 0.7431457639 0.2929999828 -0.2247807384 0.9098328948
0.1497707665 0.1230863184 0.7469204664 -0.1581303179 -0.6453045011 0.7464733124
0.1438808143 0.1295430362 0.7558768392 -0.1251257956 -0.6443178654 0.7538943291
0.1444251984 0.1266321838 0.7510368228 -0.1207584143 -0.6512487531 0.748976469
0.1500691175 0.1257397085 0.751525104 -0.1660714298 -0.6377207637 0.7509540915
0.1449909657 0.1334871501 0.7614520192 -0.1436766386 -0.6623290181 0.7349351645
0.1446100622 0.1023951173 0.73466748 -0.1099523231 -0.298813045 0.9406548738
0.1379890144 0.1030455604 0.7338401079 0.03423718363 -0.3519622087 0.9258030653
0.1223001182 0.1009422615 0.7366113067 0.3382256627 -0.3115776181 0.8827575445
0.143364355 0.0876762867 0.7328805327 -0.1303713173 -0.001937155728 0.9848642945
0.1389599591 0.09299469739 0.7318854332 -0.03969784826 -0.1056324616 0.9816070795
0.1519169062 0.09189698845 0.7356266975 -0.3092976511 -0.06265369803 0.9407190084
0.1468892992 0.09303125739 0.733999908 -0.2100718319 -0.09079323709 0.9692507982
0.1946834177 0.0846722126 0.7762057781 -0.5965098143 -0.1169621944 0.7904835343
0.1895272434 0.08189014345 0.7686703801 -0.5555554628 -0.1355112791 0.8174143434
0.09511972219 0.1060473844 0.7524945736 0.7129188776 -0.1564768255 0.6711813807
0.09748326242 0.09795834124 0.7473348975 0.6519299746 -0.2209580541 0.7198265791
0.09367924929 0.09387650341 0.7517079115 0.7150604725 -0.2429054826 0.6468851566
0.156292215 0.06451857835 0.7462034822 -0.1869544238 0.3111444414 0.8458735943
0.1543823332 0.07430770993 0.7390031219 -0.4478283226 0.4283211827 0.7480941415
0.1546416283 0.06960814446 0.7421424389 -0.3253501654 0.3864126503 0.7899668813
0.1494852304 0.0689919591 0.7400486469 -0.331094116 0.4941492081 0.7554451227
0.1675063074 0.05037789792 0.7572991848 0.009705671109 0.1166368127 0.9808667898
0.1716407537 0.04678466916 0.7579169273 -0.1240183488 0.1857348531 0.9619547129
0.1723400354 0.05290311947 0.7572243214 -0.09708266705 0.08150348812 0.9822351336
0.1617051959 0.06417565048 0.7491667271 -0.1587697268 0.1976787001 0.8849593401
0.1618766338 0.07410960644 0.7430170178 -0.4454785585 0.3092750907 0.7780563235
0.1647355855 0.06047070771 0.7527341247 -0.07129988074 0.1198062524 0.9327156544
0.1676516235 0.06815274805 0.7484810352 -0.3473936617 0.1879065037 0.8591266274
0.1709168404 0.06400620937 0.7525224686 -0.2478235215 0.09292896092 0.9205207825
0.1511137038 0.01483294182 0.7814480066 0.1335797161 0.6505244374 0.7476459146
0.156268239 0.01206597779 0.7832309604 0.1221221611 0.6554684043 0.744676888
0.1546947211 0.008969716728 0.7893638015 0.1273615807 0.6532076001 0.7460346222
0.1982516795 0.04602938145 0.7820956111 -0.6274709702 0.2688086033 0.729790926
0.2006041259 0.04246189445 0.786165297 -0.6144183874 0.2710945606 0.7382488847
0.177378878 0.04774188995 0.7584150434 -0.2809443772 0.1803668141 0.9355046153
0.1781867594 0.05460037664 0.7580619454 -0.27582708 0.08061002195 0.9446587563
0.1828720272 0.0368428193 0.764166832 -0.4639807642 0.3824778497 0.7959628701
0.1542043537 0.0849711895 0.7366230488 -0.4980733693 0.2962941527 0.8033451438
0.1489827037 0.07440677285 0.7371025085 -0.4273703396 0.5119466186 0.7376807332
0.1455036998 0.08242245764 0.7341590524 -0.2038303614 0.1403572857 0.9389258027
0.1410975009 0.07570120692 0.7349462509 -0.1870707572 0.3547136486 0.8722014427
0.1389258504 0.08133933693 0.7325331569 -0.0437810272 0.1040036976 0.9861347675
0.138985008 0.07003778964 0.7361271977 -0.1588313133 0.4475508332 0.8346666098
0.1132268086 0.1114381477 0.7415700555 0.4250901341 -0.2203123868 0.8692715764
0.1062205583 0.1210071445 0.7448586226 0.4361691177 -0.1019238085 0.8913552165
0.1290701181 0.09245283902 0.7507568002 0.1120063663 -0.02077002078 0.7684159875
0.1162404343 0.1016333699 0.7451010346 0.4289395809 -0.2619585991 0.8136615157
0.1499463171 0.07420311868 0.7596244812 -0.430397898 0.4039267898 0.6943915486
0.1189268753 0.09571400285 0.7458806634 0.3303504288 -0.1725395024 0.803702414
0.1166500449 0.1102289706 0.7489942312 0.4740209579 -0.2292457372 0.805942595
0.1797644347 0.08119896054 0.7648970485 -0.5126441121 0.1343382895 0.8048513532
0.1754532605 0.09167425334 0.7514431477 -0.6511600614 0.03917735443 0.7463975549
0.1821967214 0.08016979694 0.7590948343 -0.5566717982 -0.1142239347 0.8091759086
0.1777735651 0.08585643023 0.7532296777 -0.612529397 -0.04243785143 0.7676382065
0.1791710705 0.07419895381 0.7618060708 -0.4710417986 0.06803810596 0.8378321528
0.1853585988 0.07219422609 0.7624375224 -0.5036267042 -0.1417913288 0.8474888802
0.1759975851 0.06995535642 0.7562470436 -0.2528537512 -0.08467774093 0.9407268763
0.16594854 0.0853054598 0.7427410483 -0.639049232 0.232101202 0.7156690359
0.1701456308 0.07352180034 0.7502572536 -0.3575978279 0.07178773731 0.866612196
0.1657437384 0.07834287733 0.7447213531 -0.4979450703 0.2148017883 0.7807910442
0.1737914979 0.08150179684 0.7506332994 -0.4948681295 0.01395761874 0.8160371184
0.1773835868 0.07656788826 0.7550494671 -0.390242219 -0.08329049498 0.8808974028
0.1703668982 0.08893510699 0.745742619 -0.6271340251 0.1040984765 0.738268137
0.1091653407 0.1169548035 0.761041522 0.4816749692 -0.2739016414 0.7398399711
0.102012001 0.1119658425 0.7612761259 0.6503137946 -0.1529477537 0.7321605682
0.1038797498 0.1224407703 0.7651939988 0.5261740685 -0.2563265562 0.7189500332
0.09648032486 0.122689575 0.7680092454 0.6495501995 -0.1814847291 0.7000220418
0.1122370884 0.1270040721 0.7633866072 0.3568478823 -0.3531806767 0.7387829423
0.116928041 0.1239245832 0.760774076 0.296712786 -0.3931949437 0.7517146468
0.09619860351 0.100075148 0.761323154 0.7158426642 -0.1103075892 0.6653468609
0.09892061353 0.1055296585 0.7611549497 0.6762295365 -0.1540508866 0.7099350095
0.08799706399 0.08786501735 0.7674664259 0.8115580678 -0.02474591322 0.5575572848
0.09176339209 0.0968804583 0.7643522024 0.749162674 -0.1238587126 0.6250951886
0.08473243564 0.08576124907 0.7724129558 0.8343859315 -0.0263313707 0.5311563015
0.08320914209 0.08059699833 0.7732787132 0.8650681973 0.03576007485 0.4982260168
0.08516377956 0.07545237988 0.7710875869 0.8401805758 0.1145902276 0.5253440142
0.09803780168 0.1235550344 0.7528753281 0.6870261431 -0.05181975663 0.7228643894
0.1828023344 0.09683874995 0.7670274973 -0.5195213556 -0.1276031435 0.795437336
0.1650962234 0.1219055653 0.7545887828 -0.2319604456 -0.5684648752 0.7832302451
0.1766617894 0.1060670689 0.7617619634 -0.4781551361 -0.2816534042 0.7538732886
0.1733650118 0.1108524203 0.7588692904 -0.4490346611 -0.3646587431 0.7364040613
0.1688176841 0.1171435043 0.7562062144 -0.3506672084 -0.4770747721 0.7486365438
0.1799928695 0.1018303037 0.7621193528 -0.620103538 -0.2017975748 0.7012874484
0.1725983471 0.08985686302 0.7625916004 -0.4369163513 0.2235915512 0.7705567479
0.1725924313 0.09916075319 0.7599669695 -0.3886092007 -0.06906027347 0.7879822254
0.1690108776 0.1068983749 0.7558166385 -0.3091350794 -0.2605735958 0.7964709997
0.1808363348 0.08790674061 0.7676730156 -0.5375456214 0.1654748172 0.7807292342
0.1787640601 0.09262000024 0.7652050257 -0.490336746 0.04723105952 0.7860836387
0.1753806472 0.08473215997 0.7643659711 -0.5126171112 0.3156437874 0.7747377157
0.1238024384 0.1244727001 0.757748127 0.1879187524 -0.4429539144 0.7746559381
0.1319519281 0.1261397153 0.7552211881 0.03829864413 -0.5535026193 0.7939192653
0.1402847469 0.1099853143 0.7512254715 -0.04574947059 -0.4250215888 0.7701650262
0.1474022269 0.09056801349 0.7564370632 -0.2946597934 0.0277393125 0.7241948843
0.1360593438 0.1125935465 0.7476170063 0.06294022501 -0.4849165976 0.7964803576
0.1500978768 0.08581854403 0.7585611939 -0.3775191009 0.1382152587 0.7070692182
0.1452696174 0.1084825844 0.7555733323 -0.1670769155 -0.3912324607 0.739291966
0.1456611007 0.09890372306 0.7553690076 -0.2180585712 -0.1669984907 0.7358326316
0.1657913178 0.1021737829 0.7565279007 -0.3057877719 -0.09156963229 0.7807600498
0.1519110352 0.1065768525 0.7569267154 -0.1911158115 -0.2410364151 0.7540060878
0.1590991318 0.1140219569 0.7536699176 -0.1980444789 -0.4625331461 0.7864775658
0.1495197415 0.1149322689 0.7546127439 -0.1303845644 -0.5002706647 0.7639390826
0.1670388579 0.09721656889 0.757922709 -0.3406978548 0.0620579794 0.7744328976
0.1601079404 0.1056537628 0.7561652064 -0.2497886419 -0.2043146491 0.7730158567
0.1493631154 0.1309298277 0.7600631118 -0.1593095809 -0.6450318098 0.7451431155
0.1459047049 0.123205997 0.75584203 -0.09901094437 -0.6461879015 0.7539804578
0.1547212303 0.1283003092 0.7579085231 -0.1851193458 -0.6244145036 0.7563292384
0.1592995077 0.1256262809 0.7558429241 -0.2049627155 -0.6061268449 0.7667472363
0.1581806093 0.1204174981 0.7536776662 -0.1747739911 -0.5936072469 0.7802217007
0.138670817 0.1258434355 0.7555204034 -0.04509181902 -0.6224063635 0.7781307101
0.1897673011 0.05302264914 0.7782713175 -0.5314565301 0.1964839101 0.7871897221
0.1716018468 0.05450447276 0.7659088969 -0.3816717863 0.1848102063 0.8341901898
0.1863934249 0.05363218859 0.7735122442 -0.5310910344 0.1803633422 0.7829418778
0.1647364497 0.05392610654 0.7696234584 -0.2315779328 0.2279080003 0.896142602
0.1590334028 0.05435857922 0.7659835219 -0.1818638146 0.2256097049 0.9121695161
0.1795869917 0.05361311883 0.773111105 -0.4278073311 0.1999567896 0.8228449225
0.1950037926 0.051178094 0.780240953 -0.5908375978 0.2115508914 0.7623297572
0.1746095717 0.04839153215 0.7707164288 -0.370438993 0.2720836103 0.8311615586
0.1928309202 0.04533281922 0.7755022645 -0.6030661464 0.2737256885 0.7392501831
0.1839538068 0.04911525548 0.7747091651 -0.4749807715 0.2499030232 0.796592772
0.1339024901 0.06475091726 0.7389024496 -0.09720502794 0.5449490547 0.808971107
0.1269704103 0.06126457453 0.7412496209 0.1088499501 0.4739070237 0.8132758737
0.1210745499 0.06317615509 0.740023911 0.2861450016 0.3212708831 0.9005116224
0.148915574 0.02170411497 0.7757226229 0.1928904802 0.6060499549 0.7688862681
0.1479526758 0.02513424493 0.7718669176 0.2152855098 0.5338389874 0.8100811839
0.1028149873 0.07781086117 0.7447376251 0.5957797766 0.1791549623 0.7689366937
0.09072386473 0.07522699237 0.7605585456 0.8116069436 0.1769987345 0.5530643463
0.09277202189 0.08650507778 0.7515452504 0.7507100701 -0.05741076544 0.6470570564
0.08897453547 0.08943705261 0.7569869161 0.8116335273 -0.1174613461 0.5630038381
0.08765559644 0.07084994763 0.7645576596 0.8108667135 0.1977354437 0.5479674339
0.0950441733 0.06610051543 0.7572417855 0.7082471251 0.3026122451 0.6325360537
0.08669431508 0.08075786382 0.7634113431 0.8419972658 0.08093424141 0.5280379057
0.09237910807 0.0753140226 0.7551733851 0.7698481083 0.2047177851 0.5998781323
0.09083788842 0.08208297938 0.7547212839 0.7894455791 0.05783900246 0.598760128
0.1906294674 0.0303401053 0.7831860781 -0.4799988866 0.4319164455 0.714104116
0.1819084883 0.02103192545 0.784209311 -0.2778403759 0.548144877 0.7284132242
0.1874210835 0.02661186643 0.7810958624 -0.459741503 0.5009647012 0.6872447729
0.1976392269 0.03752791137 0.7847018242 -0.5922931433 0.32285285 0.7284315825
0.1806262732 0.01459297631 0.787093997 -0.2837089896 0.6053770185 0.7101565003
0.1845440269 0.02128306031 0.779214859 -0.4546103179 0.5927814841 0.6459181309
0.192061007 0.02557138726 0.7868224978 -0.4701475203 0.4746629 0.7033599615
0.1790704727 0.01561302599 0.7804479599 -0.3502038717 0.6507909298 0.6579425335
0.1756556034 0.01010784134 0.7864485383 -0.2131587863 0.6653549075 0.7070401907
0.1863825768 0.01987835392 0.7875986099 -0.368748337 0.5369235873 0.7118341327
0.1980500966 0.03029233776 0.7898777723 -0.5176713467 0.3913713694 0.7274958491
0.1985947639 0.03093417361 0.784066081 -0.5505648255 0.4314091206 0.6915994883
0.2046551555 0.0347324945 0.7858633399 -0.580435276 0.3682320118 0.71217978
0.1979782134 0.03761158139 0.7781637907 -0.6068204045 0.3374563754 0.7132089138
0.1899758577 0.04672469571 0.7670692205 -0.6205676794 0.2027339637 0.7543947101
0.2031273544 0.04403027147 0.7746523619 -0.6284649372 0.243332848 0.7338159084
0.1962034851 0.04322899505 0.7716667056 -0.6259787679 0.2587903738 0.7299323082
0.2054936588 0.04987794161 0.7739009857 -0.6503210068 0.1632961184 0.7406294942
0.1042347401 0.1136037484 0.745375514 0.4897027612 -0.1484016329 0.846352458
0.1051360369 0.1006562859 0.7450306416 0.5449809432 -0.2510960102 0.7911470532
0.1097944826 0.1034057066 0.7432129383 0.479680568 -0.2360084206 0.8394160867
0.1065676436 0.108108446 0.7445637584 0.4934961796 -0.1975347996 0.8359203935
0.1102189645 0.08696457744 0.742356956 0.4979226589 -0.07290705293 0.8270115256
0.1046699882 0.09310042858 0.7452354431 0.5801851153 -0.2537361979 0.7607173324
0.1002770886 0.08935661614 0.7499406338 0.6591337323 -0.1455991864 0.6909432411
0.09839361161 0.07686649263 0.7493934631 0.6728835106 0.1685915291 0.7081202269
0.09860740602 0.08248730749 0.7504532337 0.6791315675 0.02965484187 0.6878558993
0.1132696792 0.09303154051 0.7380691171 0.4745306671 -0.2105657905 0.8528982401
0.1137848496 0.08645367622 0.73692137 0.4425648153 -0.03461125866 0.8921033144
0.1123436838 0.09807770699 0.7419527769 0.4790257215 -0.2809532583 0.8313022256
0.1171637625 0.09879418463 0.7383418679 0.4366299212 -0.285676837 0.8519428968
0.1192665026 0.08842872083 0.7348738313 0.3579281569 -0.07188269496 0.9202035666
0.1079171002 0.105256781 0.7504440546 0.5645908713 -0.2475283146 0.7827842832
0.1049815342 0.1080057099 0.7557319403 0.616563797 -0.1626026928 0.7681145668
0.1037399769 0.09840817004 0.7498984933 0.6067666411 -0.2257719189 0.7494849563
0.1005952507 0.09760288894 0.7546936274 0.6664494276 -0.1282049865 0.7032362223
0.1035713851 0.1028782725 0.753258884 0.6172338128 -0.1911195964 0.7539339662
0.09223732352 0.08608183265 0.7608036399 0.8050729036 0.05073910952 0.5684049129
0.09649192542 0.09289754927 0.7583370805 0.7357685566 -0.03521071747 0.6386374831
0.0929190591 0.1148865148 0.7593507171 0.7499269843 -0.1106236652 0.6423797607
0.09366173297 0.1241073683 0.7619354725 0.7136006951 -0.08961776644 0.6922648549
0.1527264416 0.08020526171 0.7600772977 -0.4528085589 0.2776375711 0.6948134899
0.144322902 0.1168328971 0.7543695569 -0.09210029989 -0.5718243122 0.7537370324
0.1597390473 0.08155415207 0.7593127489 -0.4689413309 0.3676089942 0.7164171934
0.1540634632 0.09092225879 0.7581198812 -0.3625176847 0.09195049107 0.7221287489
0.1508748233 0.09636551142 0.7574185133 -0.3011194468 -0.06641168892 0.7257369757
0.1563464403 0.08549570292 0.7588869333 -0.4201282561 0.2349907905 0.7161538005
0.1548437476 0.0999597609 0.7570675015 -0.2752439082 -0.06754432619 0.7454547882
0.1639027894 0.08848024905 0.7605136633 -0.3776133657 0.3157431185 0.7485868335
0.1593440473 0.09575670213 0.7592993975 -0.2994398177 0.09765507281 0.7519896626
0.1612479389 0.08843487501 0.7392901182 -0.5909353495 0.2132105678 0.7548737526
0.1653398126 0.09280557185 0.7415665388 -0.6885519028 0.1004236117 0.712161839
0.1584869325 0.1052151397 0.7386372089 -0.3198005557 -0.3059343696 0.8915829062
0.1584758908 0.09568096697 0.7379369736 -0.4590878785 -0.08302419633 0.8796379566
0.1524628699 0.1053468585 0.7374144197 -0.2365736663 -0.349581629 0.9025214314
0.1495314687 0.1100120544 0.7377412915 -0.1685183048 -0.4473310411 0.8722053766
0.1503784359 0.09810700268 0.7356207371 -0.2549236417 -0.1871961504 0.9395679832
0.09922751784 0.05964643136 0.7556172013 0.6542764902 0.3413404822 0.6745760441
0.1061240733 0.06371287256 0.7478082776 0.5854449272 0.319132179 0.7428289652
0.1010880247 0.06498891115 0.7511301041 0.6513820887 0.3199705184 0.685870409
0.1000917032 0.07101559639 0.7494521141 0.6572842002 0.2507594824 0.7071594
0.1569714993 0.04987139627 0.754135251 0.08307078481 0.2576833069 0.9139216542
0.1488754451 0.06402119249 0.7427304983 -0.2178716362 0.4777543247 0.7887904048
0.1617993414 0.05364838615 0.754204154 0.02000236139 0.1736269146 0.9488117695
0.158981666 0.05789897218 0.7513988018 -0.0254074242 0.2156258672 0.915982008
0.1070978269 0.05745613202 0.7523781657 0.6088198423 0.3488776088 0.706461966
0.1353111565 0.04410060123 0.7617707253 0.424469322 0.3246566653 0.8288344741
0.1170050427 0.05334924161 0.7555909753 0.5460867286 0.3314479291 0.7512494326
0.1236093268 0.04904866219 0.7580282688 0.5004416704 0.3419105113 0.7757717371
0.1469606459 0.04041913897 0.7652281523 0.3511208892 0.29080984 0.8861369491
0.1299514025 0.04444262013 0.7604297996 0.4547709525 0.3594899178 0.7978980541
0.1598153412 0.07443618774 0.7638478279 -0.4728268981 0.427280128 0.7642492056
0.167115882 0.08068621159 0.7622076273 -0.433198601 0.4659381807 0.7682956457
0.1555258483 0.07092523575 0.7631098628 -0.5167685747 0.4432244301 0.7257222533
0.1923104674 0.06176054105 0.7703276873 -0.5944129229 0.002425825922 0.7958461046
0.1822817773 0.06354230642 0.7662358284 -0.542327404 0.03078371473 0.8203904033
0.1750507951 0.06451428682 0.7640865445 -0.5144433379 0.06434646249 0.8306134939
0.1628053933 0.06358354539 0.7670475841 -0.5469105244 0.229256168 0.7863410115
0.1734595746 0.06182317808 0.7699036002 -0.5790671706 0.1894479692 0.7769752741
0.1870029122 0.06106851995 0.7720124125 -0.6118101478 0.08479715139 0.7737343907
0.181071505 0.06081551313 0.7712727189 -0.5937981606 0.1504095942 0.7766224146
0.1173046455 0.08739759773 0.7455570102 0.3302678168 -0.07495684922 0.8282304406
0.1253233701 0.07624944299 0.7503030896 0.1122639999 0.1383321136 0.8226982355
0.141200617 0.06754413992 0.7604564428 -0.3099889159 0.2858486176 0.7955018878
0.113560915 0.09191316366 0.7433022261 0.4315633774 -0.1603682637 0.8316507339
0.1142318249 0.07864587754 0.7430016994 0.404651016 0.1110276878 0.8461742401
0.1362962127 0.07501693815 0.7575907111 -0.1761934459 0.1419456303 0.7980904579
0.1197071671 0.07595510036 0.7465207577 0.2592538595 0.1555005312 0.8364172578
0.1315129995 0.0796174854 0.7546437383 -0.04759410769 0.05684507266 0.8038803935
0.1320323348 0.07267927378 0.7545995116 -0.06608361006 0.1984398216 0.8110747933
0.1222261712 0.08178527653 0.7485395074 0.1973317713 0.03066808544 0.823340714
0.145907566 0.06715939939 0.7635906935 -0.4336255491 0.2844393551 0.7847710848
0.1436439455 0.07725160569 0.7569268346 -0.2873430252 0.2948057353 0.7190505862
0.1445997804 0.07249867916 0.7601667047 -0.3557966053 0.2835951447 0.7520695925
0.1296111047 0.08646594733 0.750433743 0.05347473547 0.04380655289 0.7658898234
0.1371579766 0.08049429953 0.75461483 -0.1409609318 0.1718214005 0.7496188879
0.1224420443 0.08838438988 0.7490078807 0.1970065832 -0.1035608798 0.814298749
0.1557747126 0.06576105207 0.7648543119 -0.5138635635 0.2884376347 0.7941889763
0.1655596197 0.0741436258 0.7622905374 -0.4558144808 0.332595855 0.8120097518
0.1711617112 0.07367096841 0.761767745 -0.4532583952 0.2571771741 0.8259747624
0.1654966772 0.06643369049 0.7636793852 -0.5007401705 0.1860711426 0.8173587322
0.1496969461 0.06249583885 0.7657193542 -0.4425180256 0.3198983967 0.8126503229
0.1759488136 0.05763931945 0.766027987 -0.6026272178 0.1964180917 0.7490369678
0.1553246826 0.05927859992 0.7656828761 -0.3697092533 0.2752791941 0.8400619626
0.1849054098 0.05692643672 0.7677247524 -0.6462448239 0.1583751738 0.7386947274
0.1686921567 0.06064587459 0.7675170898 -0.5847038031 0.2407668084 0.7634387016
0.1134148687 0.06623993069 0.7422275543 0.4098302126 0.320335269 0.8439663649
0.1610363275 0.01040066499 0.7859349251 0.05528637022 0.6825846434 0.7280361652
0.1688802391 0.009829477407 0.7857734561 -0.0837823227 0.6812865138 0.7161314487
0.1560252458 0.01598333567 0.7784092426 0.1289035082 0.6525422335 0.7464341521
0.1878011823 0.02984168008 0.7764795423 -0.5123916268 0.4680940807 0.6991760731
0.1931188405 0.03858453035 0.7753787041 -0.6163201928 0.3243072927 0.7154458761
0.1919333637 0.03382104635 0.7790212035 -0.5576395988 0.3981156349 0.710806191
0.1789804995 0.01839189045 0.7757055163 -0.3312708437 0.652607739 0.6587252617
0.1727836728 0.015301493 0.7764058113 -0.08680666983 0.6775724888 0.727065742
0.1669891775 0.01545229089 0.7768639326 0.02463665418 0.681124866 0.7289766073
0.1898486763 0.05210022628 0.7654402256 -0.6390177011 0.1471596956 0.7529499531
0.1837683767 0.04679038003 0.7618229389 -0.5230448246 0.2279193401 0.8127052784
0.1841121614 0.05387183279 0.7604956627 -0.4931266904 0.1328001022 0.8532143831
0.1819872558 0.06065329909 0.7591085434 -0.4073925316 -0.01286420412 0.906934917
0.1868305057 0.06450468302 0.7617532015 -0.5071368217 -0.06500649452 0.8553058505
0.1887010634 0.05717859045 0.7630676031 -0.6147511601 0.0875101909 0.7788940072
0.1009333134 0.1289158463 0.7561861873 0.6188464165 -0.1072630212 0.7713541389
0.1119724512 0.1149759665 0.7568959594 0.4663943946 -0.2327581644 0.7819986939
0.1197754443 0.1177696958 0.7542194128 0.3157631755 -0.3147708178 0.8115885854
0.1345545053 0.120238997 0.7532699704 0.05960643664 -0.528513968 0.7928273082
0.1266611367 0.1185045689 0.7524901628 0.2027580887 -0.3804576397 0.8219121695
0.1113215163 0.111440517 0.7514688969 0.5401416421 -0.09430678934 0.8332035542
0.1502514929 0.0562546514 0.7485272288 -0.009208296426 0.3839453161 0.8370058537
0.1426153332 0.06656518579 0.7388753295 -0.2960977554 0.6204855442 0.7178491354
0.1459470242 0.05938912928 0.7454401851 -0.1019001156 0.4919888675 0.7823496461
0.1458091438 0.0477338396 0.7637315989 0.2682249844 0.2485034019 0.9107937217
0.133399725 0.05534693226 0.75875175 0.2116972655 0.3157244921 0.8755730987
0.1382719874 0.04993737116 0.7606874108 0.3219733238 0.2827573717 0.8771650791
0.1485680491 0.05251405761 0.7648911476 0.0452442579 0.251139611 0.9513471127
0.1258153617 0.05694440752 0.7556834817 0.2883391976 0.3485094011 0.8386001587
0.1329830289 0.06186172739 0.7588971853 -0.09144490212 0.3669855297 0.7708634138
0.1454568505 0.05711192638 0.7637706995 -0.09661058336 0.2882873416 0.901244998
0.138186723 0.05986474082 0.7609294653 -0.09283497185 0.3340256512 0.8255447745
0.1206004918 0.05796378106 0.7535930872 0.3383177519 0.3732741475 0.802485466
0.117825523 0.05542143434 0.7498989105 0.4252116084 0.3781996965 0.8190767765
0.1263204068 0.05126142129 0.7518385053 0.3680253029 0.3615540862 0.8555745482
0.1166281551 0.05894031003 0.7447832823 0.3787711561 0.3613257706 0.8508201838
0.1399288177 0.04069043696 0.7613828778 0.3498154879 0.3611813784 0.8638788462
0.1292275488 0.04831475019 0.7550594211 0.3743419051 0.363740772 0.8520228267
0.127981618 0.06311427802 0.7565204501 0.0269999709 0.3494027853 0.7661765218
0.1222925484 0.06502245367 0.753692627 0.1706040949 0.3164663315 0.7655516267
0.1108753383 0.05984279886 0.7474728227 0.4799178541 0.3997586668 0.7776715159
0.1360049993 0.0675535351 0.757240653 -0.1744609028 0.293402195 0.8044012785
0.1189992875 0.06889232993 0.7490688562 0.2644897103 0.2695870101 0.8025171161
0.1123565361 0.06720717251 0.7480068207 0.4288966656 0.2842613757 0.775363028
0.1382203996 0.0626084581 0.7420147061 -0.2062348723 0.6631954908 0.6954877377
0.1601468027 0.04446062446 0.7582888603 0.1802700311 0.1835248321 0.9603500962
0.1461838037 0.04332169518 0.7585092187 0.1629101932 0.4351647496 0.8300135136
0.1440228522 0.05404118821 0.7484614849 -0.06090072542 0.5397206545 0.7738224864
0.1518442631 0.04364098608 0.7564336658 0.1274784654 0.3691269159 0.8780342937
0.1498292238 0.04764755815 0.7530528307 0.0498923026 0.4227904379 0.8465514779
0.1508602649 0.03923056647 0.76114887 0.2289748192 0.3487344682 0.8848938942
0.1336610913 0.05416373163 0.7483414412 0.1302345097 0.4755601883 0.8048326969
0.1345556825 0.04931481183 0.7525165081 0.2493516058 0.4058355391 0.8444824219
0.1246321946 0.0568501465 0.7446444035 0.2850150168 0.3785428405 0.8611264825
0.1326301843 0.05884847045 0.7442807555 0.01946059801 0.5402759314 0.7680532932
0.1507876366 0.03398675472 0.765765667 0.2817312181 0.3988086283 0.8705633879
0.1478148699 0.03056711331 0.7682502866 0.2784946561 0.4388825297 0.8524566293
0.1598509699 0.03008380532 0.7640855908 0.1104644984 0.4929897189 0.8533189297
0.1533493102 0.02823650092 0.769472301 0.199144274 0.5371446013 0.8060969114
0.181855917 0.04024626315 0.7710760236 -0.373690635 0.3333626688 0.7672254443
0.1875678003 0.04208546132 0.7729049921 -0.4918249846 0.3101505637 0.7493376732
0.1608840674 0.04644497484 0.7670512199 -0.09245665371 0.305216372 0.8890360594
0.1602319926 0.04037872702 0.7661201358 0.03383059055 0.3570971191 0.8729465604
0.1705197692 0.03946717083 0.7684927583 -0.1331076175 0.3524470329 0.8217746019
0.1547674537 0.04199272022 0.76500386 0.1011565551 0.3500501513 0.9036941528
0.1522917449 0.04686131328 0.7650256157 0.05348789692 0.3120061457 0.930685699
0.1697899103 0.046340473 0.7691924572 -0.249905318 0.2954240739 0.8468990922
0.1655053794 0.04145151377 0.7675326467 -0.08083705604 0.3417409658 0.851578176
0.1745543927 0.04295180738 0.7699130774 -0.2711693347 0.3182590008 0.8138353229
0.1599525958 0.03862782568 0.7589994073 0.1645804048 0.2827760577 0.9434657097
0.1634036154 0.03388931975 0.7608959079 0.08195279539 0.39725703 0.9104706645
0.1735369712 0.04109740257 0.758623898 -0.2074793428 0.2859044373 0.9315541983
0.1667066067 0.03816762567 0.7588772178 0.03787524998 0.3066996634 0.942645967
0.1720453799 0.03591233864 0.7600104213 -0.1824299842 0.3696348369 0.9035062194
0.1864310354 0.04185379669 0.7659829855 -0.588424623 0.3036984503 0.7459359169
0.1722618341 0.03250331432 0.7671067119 -0.1857558191 0.447544992 0.7960304022
0.1668814272 0.03436735272 0.7663075328 -0.05634330958 0.4154070318 0.8198224306
0.1754610986 0.02700636163 0.767130971 -0.2571265399 0.5438330173 0.7895498872
0.1859647185 0.03319977969 0.7702254653 -0.5348380208 0.4283012748 0.7135142684
0.1820934713 0.0279818438 0.7700358033 -0.4465028048 0.5135247111 0.7228238583
0.1691074967 0.02798376419 0.76469028 -0.06514662504 0.5129283071 0.8333054781
0.1774417758 0.02315386198 0.7722260952 -0.3397129774 0.59255898 0.7076387405
0.159627229 0.02317794599 0.7728008032 0.03360489011 0.6194172502 0.7442311049
0.1617412567 0.01673228666 0.7786152363 0.06867600977 0.6588556767 0.7373048663
0.1712781191 0.02148306929 0.769084096 -0.07920312136 0.635397613 0.7546033263
0.1659400314 0.02364308573 0.7667162418 0.05751733109 0.6008077264 0.7919384241
0.1657941937 0.01898599043 0.7707079649 0.06447022408 0.6810638309 0.7292163968
0.1577883959 0.02521858923 0.7677556872 0.1302531511 0.6060071588 0.7833920121
0.1537469029 0.02216830477 0.7718249559 0.1330957115 0.6268805861 0.7666751742
