# .PCD v0.7 - Point Cloud Data file format
VERSION 0.7
FIELDS x y z normal_x normal_y normal_z
SIZE 4 4 4 4 4 4
TYPE F F F F F F
COUNT 1 1 1 1 1 1
WIDTH 512
HEIGHT 1
VIEWPOINT 0 0 0 1 0 0 0
POINTS 512
DATA ascii
-0.1800785512 0.003974169027 1.14320159 -0.1990425438 -0.8939395547 0.1906985492
-0.03976036981 -0.034437906 1.163815856 0.1729932576 0.1920708269 0.9659910202
-0.04271827638 -0.0300329905 1.165194511 0.1727673113 0.1923057437 0.9659875631
-0.0878848657 0.03682623059 1.058759928 -0.294654429 0.1154541075 0.9272278547
-0.08335480839 0.04544676095 1.055862188 -0.2895083129 -0.05527022853 0.9464592934
-0.06845909357 0.04425108433 1.055984259 -0.1831627041 -0.05944656208 0.9710522294
-0.07652671635 0.03983945772 1.057570815 -0.2254457176 0.03823942319 0.9511145353
-0.08530349284 0.04095887393 1.057363391 -0.2893621027 0.03287445381 0.9371667504
-0.08184553683 0.03141646832 1.060418129 -0.2366293669 0.2066532075 0.9307564497
-0.08019556105 0.03607505187 1.05886662 -0.2393523455 0.1158249006 0.9397477508
-0.1761500388 -0.0007343888865 1.140762448 0.5104689002 -0.8069025874 -0.00836185459
-0.1815087348 -0.0002078165708 1.140126705 -0.1429781467 -0.949539423 0.1833652407
-0.132279411 -0.08540574461 1.176588178 -0.07706612349 0.03593321145 0.996378243
-0.1265471876 -0.0852721557 1.175154209 -0.07706612349 0.03593321145 0.996378243
-0.1207929179 -0.08248893917 1.17810452 -0.07706612349 0.03593321145 0.996378243
-0.1158652529 -0.08018820733 1.180499434 -0.07706612349 0.03593321145 0.996378243
-0.06246745214 0.04079598561 1.061425209 -0.1584686488 -0.1165107936 0.9804335833
-0.07494042069 0.0331556499 1.061129451 -0.1996729821 0.09417425841 0.9495962858
-0.06966046244 0.03860640153 1.059147358 -0.1793513447 -0.01301421225 0.9656620026
-0.07138641179 0.04557098821 1.072328925 -0.07690513134 -0.05365657061 0.993052125
-0.06633404642 0.04695950449 1.068365693 -0.12466833 -0.07956741005 0.9866580963
-0.05836735293 0.04446106032 1.06381166 -0.151486814 -0.1010059491 0.9823254347
-0.06807006896 0.04179385677 1.071423173 -0.0597541593 -0.05124328658 0.9946055412
-0.06298580021 0.04229960218 1.067757249 -0.09859608114 -0.07362477481 0.9892645478
-0.07227826864 0.05297294632 1.07026279 -0.14758192 -0.08075862378 0.9848018289
-0.09279990941 -0.08463434875 1.180999994 0.02969502285 0.009168678895 0.999402225
-0.09127099067 -0.07732250541 1.180999994 0.03100686707 -0.002665173495 0.9994367957
-0.1783589423 -0.007102515083 1.127097011 0.4571311474 -0.4851091206 0.1933867186
-0.1791292578 -0.01818664186 1.097948551 0.07245787978 0.3512535095 0.8026784062
-0.1785209179 -0.009927003644 1.119169474 0.3502239585 -0.2565327287 0.3585335612
-0.1779472679 -0.006353548262 1.113749266 0.3256431222 -0.1775419563 0.4145714045
-0.1779023856 -0.007520629559 1.105387807 0.230440259 0.03659030423 0.5694743991
-0.1774274856 -0.00562437484 1.091072917 0.1160622984 0.3348786235 0.7893788815
-0.178246066 -0.01270513143 1.095902085 0.07424999028 0.347225517 0.7901000381
-0.1774953306 -0.004685566761 1.099415779 0.2082367539 0.1251803935 0.6374444962
-0.1785010397 -0.01308830641 1.106893063 0.1754603088 0.09938236326 0.6087807417
-0.1918352693 -0.02250674926 1.094012141 0.007429024205 0.435172677 0.9001808167
-0.1873203665 -0.01305602863 1.115857482 0.02921153791 -0.2713433504 0.5206549764
-0.1883643419 -0.01996296085 1.098892689 0.01862673089 0.2861939371 0.814814806
-0.1865700185 -0.01763054356 1.103911161 0.02338700928 0.1236432195 0.7257096171
-0.1874412447 -0.01591000147 1.108694553 0.02509323135 -0.03542656451 0.6444061995
-0.1817671359 -0.0122838486 1.115075469 0.03486644104 -0.2366727144 0.5263437629
-0.09352665395 0.02618661709 1.066984177 -0.358373791 0.2509735227 0.8938603401
-0.08755489439 0.02741976827 1.06972909 -0.2513241768 0.2133967578 0.9352326989
-0.08501150459 0.02688556723 1.065138936 -0.2314245701 0.2658873498 0.9312098026
-0.09318307042 0.02676847763 1.072950482 -0.3188423514 0.2072982341 0.9146867394
-0.0616996102 0.04584074765 1.058323264 -0.1628928632 -0.1073188111 0.9807850122
-0.06705478579 0.04902306572 1.060267568 -0.1619233489 -0.1002285331 0.9816222191
-0.06227304414 0.04781906307 1.064685225 -0.1619542092 -0.1004541516 0.9815955758
-0.07068935782 0.05185857415 1.064126134 -0.1609208882 -0.0928972289 0.9824878573
-0.1928610206 0.06021466106 1.07007575 0.2368022054 0.02439199947 0.9707686305
-0.1867788434 0.06088159606 1.071514606 0.2534281909 0.03271048516 0.9665222764
-0.1418495774 -0.09558147937 1.174439311 -0.07730556279 0.02614256181 0.9965649247
-0.1441920847 -0.08712067455 1.174296975 -0.07706612349 0.03593321145 0.996378243
-0.1369612068 -0.08664316684 1.175489306 -0.07706612349 0.03593321145 0.996378243
-0.2185371816 0.00536095025 1.078358293 0.1996152103 0.2985295653 0.9295807481
-0.05146573856 -0.03723862395 1.167671084 0.1719601601 0.1931449473 0.9659751654
-0.04556604475 -0.0396386236 1.169910789 0.1809384972 0.1838100851 0.9661125541
-0.04713785648 -0.03442433849 1.166242599 0.1713921875 0.1937354654 0.9659665227
-0.04194123298 -0.0413024649 1.165473223 0.183550328 0.181094557 0.9661525488
-0.0601156801 -0.06918314844 1.176856041 0.1422576308 0.1323325485 0.9789562821
-0.06334680319 -0.0743913725 1.175266147 0.1099344641 0.1353206187 0.9823164344
-0.06795871258 -0.07723427564 1.175463796 0.09827510267 0.1039720997 0.985596776
-0.07269929349 -0.08023534715 1.175979972 0.08453892171 0.07106791437 0.989413023
-0.08187707514 -0.0847575739 1.176933646 0.05584122613 0.01069965586 0.9972854257
-0.07590863854 0.0421493724 1.070925117 -0.02984692715 -0.03792289272 0.9982962608
-0.09223647416 -0.08121424168 1.177000046 0.0284424983 -0.002253836952 0.999346137
-0.09587146342 -0.08630246669 1.177000046 -0.008126906119 0.0283786729 0.9994433522
-0.08740542829 -0.08688022941 1.179837227 0.03778117895 -0.01086489949 0.9987508655
-0.09345258772 -0.09049870819 1.179646373 0.00504958909 0.003371867351 0.9993178844
-0.1184876263 -0.0941849798 1.177208066 -0.06468066573 0.007184450049 0.997588098
-0.1036021262 -0.09137615561 1.176682472 -0.03533259034 0.01410656795 0.9989311695
-0.1158374548 -0.08986694366 1.175976396 -0.0585616827 0.02059465647 0.9976251721
-0.1236023307 -0.09035416692 1.175895929 -0.07334157079 0.02011241764 0.9968878031
-0.1106900349 -0.09291718155 1.176887989 -0.04885280877 0.01017671824 0.9983274937
-0.1270301193 -0.09524911642 1.179620504 -0.07780149579 0.005864017177 0.9969516397
-0.1351331621 -0.09854524583 1.177074909 -0.07780149579 0.005864017177 0.9969516397
-0.1154679134 -0.09431234002 1.181403995 -0.07780149579 0.005864017177 0.9969516397
-0.1321932971 -0.09342261404 1.176076531 -0.07769671828 0.01014819089 0.9968699217
-0.1240613833 -0.08651039004 1.179907084 -0.07718586177 0.0310371574 0.9964715838
-0.07437262684 0.05659611151 1.067057371 -0.1906248182 -0.09368187189 0.9769179821
-0.09284814447 0.02620155551 1.060633898 -0.3122391999 0.2655772269 0.9060675502
-0.09019908309 0.03184271976 1.059949875 -0.2974630296 0.1994659901 0.9174822569
-0.09528954327 0.04299498349 1.05665493 -0.3652939796 0.005803919863 0.9226846099
-0.1002302468 0.02968450822 1.057992697 -0.3715746701 0.1743695587 0.902007103
-0.1056278124 0.02774364688 1.057085991 -0.4095289707 0.1723819524 0.8928492665
-0.09450013191 0.03636178747 1.058087468 -0.342674464 0.1082771346 0.9166505933
-0.1676344424 0.02341073938 1.062342286 0.4864240587 0.1120973229 0.8346267939
-0.1628091782 0.02522955649 1.059443712 0.4362576902 0.04392388836 0.856679976
-0.1428637505 0.05835499614 1.04588151 0.2338320911 -0.13709566 0.9577035904
-0.1941823959 0.04741617665 1.068050742 0.1940993518 0.07145655155 0.977563858
-0.1971091479 0.05450539663 1.067633033 0.2005338073 0.06141214445 0.9771599174
-0.1996635795 0.04737729579 1.067000031 0.1752660573 0.07865692675 0.9812050462
-0.198143214 0.0502349399 1.071251154 0.1900500208 0.08210153133 0.9771111012
-0.1930889189 0.05382730812 1.070708752 0.2173113227 0.07157897949 0.9726557136
-0.1999502629 0.04175688326 1.072654128 0.196363017 0.1386867911 0.9685343504
-0.2049217075 0.04525516927 1.071981788 0.1548464745 0.09888669848 0.9825108647
-0.2220625579 0.0394477956 1.074533343 0.2083954513 0.2060487568 0.9546969533
-0.2156142145 0.04103179276 1.076571703 0.1973715872 0.1843476295 0.9607965946
-0.2097200602 0.03711253405 1.075123429 0.1926394552 0.1885941327 0.9623125196
-0.2084810138 0.03211866692 1.073127031 0.2071560919 0.2103644907 0.9533536434
-0.2054749578 0.03551692516 1.070886135 0.1904423833 0.1653910726 0.9639988542
-0.2004974037 0.03377856314 1.070009947 0.1822147667 0.1666376293 0.9649574757
-0.2006634623 0.02743704803 1.073098183 0.1989156306 0.2343818545 0.9508636594
-0.176767543 0.05512798578 1.06409359 0.3838429153 -0.05877056718 0.9108628631
-0.1707648039 0.05760345981 1.060652018 0.4613966346 -0.1369933933 0.858758688
-0.1842457354 0.04710766301 1.067435145 0.2891358435 0.04642827064 0.9534186721
-0.1887343079 0.05004828796 1.066854954 0.2597432137 0.04678369686 0.9604714513
-0.1844151616 0.05308807641 1.06582737 0.3050751686 0.005023399368 0.9464608431
-0.1845183969 0.04302951694 1.070402384 0.2611775398 0.09921640158 0.9595552087
-0.1818238497 0.03843855113 1.070083499 0.2976590991 0.1016012058 0.948113203
-0.1789018065 -0.002828915836 1.136582494 0.4090671241 -0.8283617496 0.04232710972
-0.1787933409 -0.0002904804423 1.11464572 0.2734519243 -0.3068920076 0.3886636496
-0.1776885688 -0.003600519849 1.10858047 0.3065625131 -0.1014967412 0.4734941125
-0.1781712919 -0.001435102778 1.120795965 0.4379391372 -0.4051324725 0.2552030385
-0.1781792343 -0.001773221185 1.127350926 0.501434803 -0.55680269 0.1438668817
-0.1784303635 0.002186208265 1.085544467 0.1048924252 0.3969715238 0.8469671011
-0.178335622 0.0006185332895 1.102574229 0.2666341066 0.008114218712 0.5603858829
-0.1863029301 0.006432902999 1.08225131 0.1231588349 0.4123467207 0.8982022405
-0.1924518645 0.02029441483 1.074310064 0.1648490727 0.2877635658 0.9387118816
-0.1915586293 0.00921729207 1.081377268 0.150647074 0.3800691068 0.9068509936
-0.1931936294 0.01397290453 1.078567624 0.1626939774 0.3381831348 0.9206886888
-0.1820309013 0.0126979528 1.077679276 0.1322417855 0.361232698 0.9148094058
-0.1885243058 0.02285806276 1.072285533 0.178199932 0.2644471228 0.9445528388
-0.1864513457 0.01777105778 1.075096011 0.1522476077 0.3134862185 0.9301000834
-0.209057197 -0.002804512624 1.086599588 0.1270866096 0.3551255465 0.9254277945
-0.2060548663 -0.00913731847 1.088364244 0.09017159045 0.3678433001 0.9244822264
-0.212914899 -0.005621402059 1.090590477 0.1095626056 0.3523266315 0.9270561934
-0.2089120001 -0.01233511139 1.090807319 0.06671822071 0.3618217111 0.9288964272
-0.2139463425 0.0009046919295 1.087675333 0.1484083384 0.3425118327 0.9269984961
-0.2165415883 0.007655316032 1.087023973 0.1870605499 0.3227084279 0.927547276
-0.2104632407 0.01248334534 1.082619548 0.2190040648 0.3044556379 0.9263799191
-0.2169382423 -0.01283136569 1.083912134 0.08618284017 0.3310798109 0.9387639165
-0.2210984081 -0.008840813302 1.08246243 0.1334864646 0.3394397199 0.9309700727
-0.1384147555 0.06410764903 1.045499206 0.09808985889 -0.1310050339 0.9795589447
-0.2124435306 0.01907945052 1.080030799 0.2468391657 0.2949557006 0.9224182963
-0.2085078955 0.02424153313 1.077194571 0.2249241322 0.2564472258 0.9377257824
-0.2050258964 0.02894478664 1.075632691 0.1960795224 0.2202725261 0.9533089399
-0.2142077833 0.0321739316 1.074635267 0.2203515172 0.2270607054 0.9480750561
-0.2137178332 0.02606148459 1.076130152 0.2568863332 0.2576607168 0.9312700629
-0.2156434506 0.02127692103 1.076796055 0.2653587162 0.2640385926 0.9272078872
-0.2172459662 0.03623440862 1.077501178 0.2237110585 0.2224446088 0.9480460882
-0.04892673716 -0.05245705321 1.173000097 0.1857000887 0.17844899 0.9662567377
-0.05668677762 -0.06603991985 1.173000097 0.1482055336 0.1738033742 0.9732629061
-0.05330554396 -0.06021991372 1.174020648 0.1811605096 0.1625281721 0.9697589874
-0.04325798154 -0.04500508681 1.168880343 0.1860528141 0.1784926951 0.966190815
-0.0465550907 -0.04745255038 1.172827601 0.1860528141 0.1784926951 0.966190815
-0.04871025309 -0.04582647607 1.168382168 0.1794882268 0.1853179485 0.9660903811
-0.07590054721 -0.07458835095 1.177000046 0.06365739554 0.06339111179 0.9950597286
-0.08637807518 -0.08140826225 1.177000046 0.04702976719 0.0002485210425 0.9986261725
-0.09368560463 -0.07526644319 1.177000046 0.02713316865 0.004677207675 0.9993728995
-0.08572153747 -0.07717288285 1.180999994 0.0478925705 0.01066047046 0.9986538887
-0.07833634317 -0.08365553617 1.180496812 0.05497145653 0.01570053585 0.998249948
-0.07906273007 -0.07640272379 1.180999994 0.07197917253 0.01898498461 0.9970831275
-0.07873089612 0.02982833423 1.069873571 -0.1257424802 0.06653404236 0.9886447191
-0.07011307031 0.03693368658 1.071178198 -0.05571912974 -0.02639370412 0.9951562285
-0.07459540665 0.03341269121 1.071132541 -0.08362735808 0.02449903265 0.9929028153
-0.06810418516 0.03677490354 1.064904928 -0.1278590262 -0.07464784384 0.9848960638
-0.1073568612 -0.08776990324 1.176282048 -0.04550793767 0.0234080106 0.9982644916
-0.1141518652 -0.08276034147 1.176179528 -0.06516229361 0.03437984362 0.9971282482
-0.1819251925 -0.02122292109 1.091980815 -0.001715495484 0.4634186327 0.8855912089
-0.1800002903 0.000592049968 1.097154379 0.06973180175 0.08799436688 0.6964732409
-0.182297945 -0.002713625785 1.102053642 0.05452241749 -0.01466371678 0.6406566501
-0.1815508753 -0.000999484444 1.091281176 0.06340684742 0.2626183629 0.7870104909
-0.1827421486 -0.00376771274 1.108959675 0.04902493581 -0.1928385347 0.5466421247
-0.07690232247 0.03094183095 1.065317988 -0.169087708 0.08400565386 0.9664316177
-0.08162771165 0.03937694058 1.070538044 -0.1470223218 -0.02591660619 0.9840670824
-0.08838251233 0.03606984019 1.071952105 -0.2591391504 0.03407389671 0.952185154
-0.08513664454 0.0327042304 1.073300242 -0.1824965775 0.05340554193 0.9592493773
-0.09520653635 0.03151844069 1.074157476 -0.348430723 0.1160735264 0.9165151119
-0.09771315008 0.02705669217 1.076018572 -0.3662628829 0.1785364598 0.8986024261
-0.1735573262 0.02805472538 1.066686392 0.5630241036 0.09440986812 0.817253232
-0.1780994236 -0.013413826 1.090686917 0.01496493351 0.4745711684 0.8794555068
-0.1798392087 -0.01768799126 1.08676827 -0.02568990178 0.4864364266 0.8731153011
-0.1770985574 -0.01134745497 1.086324334 -0.003353896784 0.4907075465 0.8711608052
-0.1833094209 -0.009086365812 1.085651875 0.01162117906 0.473074764 0.8801790476
-0.1823572069 -0.001639752998 1.082002759 0.05726817995 0.4612165987 0.8843256831
-0.1825336814 0.05542651936 1.070600033 0.2598905265 0.06201563403 0.9635084271
-0.1791879684 0.04893092439 1.065906882 0.3405442536 0.004757428076 0.9369601607
-0.1622783989 0.06007491797 1.059947729 0.5219463706 -0.1346321106 0.8408687711
-0.1719392687 0.06127751246 1.064933419 0.413123399 -0.06720674783 0.8931568265
-0.1811763197 0.0619629696 1.069400191 0.3111669123 -0.007863655686 0.9408623576
-0.1777796 0.04173163697 1.069316626 0.3464449644 0.06428088993 0.9301367402
-0.168822512 0.04798031971 1.064895511 0.4296966195 -0.07305651158 0.8745369911
-0.1493254006 0.05400426313 1.054335594 0.3650033772 -0.1701627672 0.9124484658
-0.1451003999 0.06361686438 1.044776559 0.2580137253 -0.1645354182 0.9511112571
-0.1391933411 0.06615117937 1.051372528 0.08718091249 -0.1569299549 0.9561980367
-0.1468006223 0.06366956979 1.050502181 0.2774914503 -0.1751625836 0.9263617396
-0.1527326554 0.05962707847 1.057443738 0.3996781707 -0.1947699636 0.8850244284
-0.147938326 0.06258705258 1.055934072 0.2811917365 -0.1828729659 0.9078288674
-0.1449129134 0.05807707086 1.053231835 0.2591469288 -0.1654181182 0.9336739182
-0.1506282538 0.06124360114 1.046661496 0.3099531829 -0.183561042 0.9324569702
-0.1526044309 0.0509262979 1.04688704 0.3032751083 -0.1973097026 0.9319797754
-0.2179355472 0.04640081897 1.076810956 0.2048154473 0.1717077792 0.9606550932
-0.2221052498 0.04374441504 1.078208923 0.2113905549 0.197995916 0.9555376172
-0.2119580805 0.04920913652 1.074296474 0.1863689274 0.1296901107 0.971039474
-0.2081742585 0.05072452128 1.070690513 0.1654628962 0.1079737321 0.9795126915
-0.203492716 0.05336481333 1.067735791 0.1705870032 0.08120837063 0.9819552898
-0.2144635618 0.03774268925 1.071046114 0.2088402808 0.1868379712 0.9558444023
-0.2054349631 0.04055242985 1.068342805 0.176602751 0.1185895205 0.9742399454
-0.2098473758 0.04376291856 1.070100665 0.157176584 0.1333048046 0.9778420329
-0.2041938156 0.02128262259 1.075483441 0.219194591 0.2927770317 0.9298223257
-0.1641693413 0.05422360078 1.057353735 0.5360743403 -0.1944476515 0.8188828826
-0.1684622914 0.05273406208 1.059980631 0.4787098765 -0.1362441778 0.8574197292
-0.1675926149 0.04050794244 1.056801796 0.4971548915 -0.1268812716 0.850515306
-0.1707035005 0.04506023601 1.059824944 0.4514144063 -0.09040717781 0.8797461987
-0.1899338365 0.04409006983 1.070638299 0.1980052292 0.09310099483 0.9737634063
-0.1901389956 0.03917435184 1.070466995 0.1940606385 0.1062482893 0.9733181
-0.195596233 0.03964509815 1.071600676 0.1832893938 0.1254004687 0.9729712605
-0.1952246428 0.03148949519 1.071020842 0.1586375535 0.1647309065 0.9713397622
-0.1888500154 0.03151745722 1.070571184 0.2196667492 0.1636160463 0.9591320157
-0.1677778661 0.02559957653 1.055843472 0.5339262486 0.009406247176 0.8283100128
-0.1733502299 0.02563374303 1.060511351 0.4229575992 0.08132139593 0.8693765402
-0.189960584 0.02682233416 1.068144321 0.2276359797 0.177982375 0.9393321276
-0.1719632298 0.02930253744 1.055510759 0.437520504 -0.0365871191 0.8716512918
-0.1842620671 0.03004400432 1.063904643 0.2850098908 0.07685851306 0.9254649282
-0.180323258 0.0267087575 1.062164664 0.3349255621 0.09302951396 0.9027366638
-0.1936134547 0.03681558743 1.067017078 0.1914187819 0.07959304005 0.9674817324
-0.200015232 0.04108641297 1.067319393 0.1606045663 0.08715684712 0.9823787212
-0.1890773773 0.03438249975 1.066003084 0.2237288356 0.06644269824 0.9537020922
-0.1829711795 0.03527129441 1.059022784 0.3407756984 -0.005959541071 0.9125156403
-0.1765164882 0.03188152611 1.057482243 0.3880310953 -0.02562343143 0.8925139308
-0.1601139605 0.02991674282 1.046836734 0.4414383471 -0.1007230356 0.8908961415
-0.1678429842 0.03020474315 1.051920891 0.4990196526 -0.08915381134 0.8504725695
-0.1906866431 0.03964042664 1.062856078 0.269105196 0.01773275994 0.9376950264
-0.1666660011 0.03574775904 1.054201722 0.5225729346 -0.151405856 0.8279415965
-0.1822514236 0.04087521508 1.0628829 0.3373010755 -0.008119503036 0.9169890881
-0.1781450063 0.03940988705 1.060449123 0.3871959448 -0.04771686345 0.8925796747
-0.1719088852 0.03795515001 1.057740211 0.4556918144 -0.09542171657 0.8618943691
-0.1943893433 0.02488867752 1.071436048 0.1793605387 0.2472968251 0.951736033
-0.1991501004 0.0175337363 1.074533224 0.1928283423 0.3264668882 0.9245018959
-0.1990092844 0.02241875418 1.073312879 0.197793439 0.2777701318 0.9386310577
-0.2134706974 -0.009165502153 1.0815171 0.1042840332 0.3454451263 0.9322804809
-0.1625153571 0.0153620299 1.064455152 0.1022203639 0.2146105021 0.9354547858
-0.1582472175 0.01815219782 1.060765624 0.1202260479 0.1400617808 0.9434813857
-0.1544097662 0.02091391571 1.057281375 0.1464184374 0.06904818863 0.9485736489
-0.1727965325 0.010467452 1.071710706 0.1285756379 0.3601974547 0.9020821452
-0.1474518478 0.02326455154 1.05238831 0.08699864894 -0.02188107371 0.9811051488
-0.1605467796 0.02427497879 1.050628543 0.3709906638 -0.02665027045 0.8966485262
-0.1642269492 0.02196604013 1.054128647 0.3615046144 0.0407849513 0.8877538443
-0.1681556255 0.01662219875 1.062300563 0.2522268295 0.1891376078 0.894736886
-0.167315349 0.01392560545 1.066468 0.1433672756 0.2592496872 0.9152194858
-0.1565541774 0.02600228228 1.048029304 0.3544998765 -0.07918362319 0.9107493162
-0.1678100079 0.01969805732 1.058144212 0.3549135029 0.1140284091 0.8774585128
-0.1778978854 -0.006458064541 1.083810091 0.02737311088 0.477003932 0.8766975999
-0.1770505011 0.003863667836 1.078564286 0.101669006 0.4448750317 0.8893459439
-0.1770135313 -0.0008834195905 1.081140399 0.07104943693 0.4585224092 0.8840531707
-0.1831804961 0.006016395986 1.076831222 0.1080447808 0.4351783991 0.8937605023
-0.2216914296 0.002706772182 1.089999676 0.1530197114 0.3253733814 0.9327531457
-0.2153727263 -0.01058541238 1.089380145 0.0710471645 0.3211173713 0.9430761933
-0.2216871977 -0.002894369187 1.087473392 0.1438398957 0.3309245706 0.9323552251
-0.2202730924 0.02819558792 1.075118303 0.2502518296 0.2492332011 0.9354732633
-0.2241679132 0.03657537699 1.079914808 0.2423374355 0.240387395 0.9392752051
-0.2234124541 0.03100739047 1.079228997 0.2576933205 0.254904598 0.9314109087
-0.06564241648 -0.06177196652 1.178026557 0.1251894385 0.166682452 0.976696074
-0.06100305915 -0.05893217772 1.176090717 0.1507203579 0.1709236354 0.9722867012
-0.05994391441 -0.0576216504 1.171083212 0.1549324095 0.1833159029 0.9705150723
-0.06032015383 -0.04732270911 1.169221282 0.169831112 0.192598328 0.9664221406
-0.06519509852 -0.05553437397 1.173647285 0.16695261 0.1737150103 0.9696242213
-0.06421762705 -0.04997833446 1.170991182 0.1496587098 0.1722050905 0.9711860418
-0.0757221356 -0.06199303269 1.175364017 0.08945248276 0.08497299999 0.9884413481
-0.05588833615 -0.05043220147 1.173065424 0.1763827354 0.1876443923 0.966172576
-0.06197960675 -0.05202940851 1.175646782 0.1415037215 0.1882052422 0.9707701802
-0.0528080985 -0.04488125071 1.171558857 0.1751791537 0.1897981167 0.9660244584
-0.05719826743 -0.0433000885 1.168926358 0.1713921875 0.1937354654 0.9659665227
-0.0691254884 -0.07084351778 1.180468321 0.07866787165 0.1284160614 0.9875311852
-0.06832835823 -0.07598848641 1.180922866 0.07008372247 0.1048625857 0.9915449023
-0.09672000259 -0.0784901306 1.180999994 0.00388337695 0.007356501184 0.9993336797
-0.1007189378 -0.08197380602 1.181000113 -0.017639203 0.0147278076 0.9990268946
-0.1015649959 -0.08645677567 1.177000046 -0.03581955284 0.02168326639 0.998798728
-0.1068919748 -0.08205050975 1.177000046 -0.0531370528 0.03125139698 0.9978160858
-0.1084920466 -0.0934766382 1.181180358 -0.06073985994 0.01331757382 0.9979141951
-0.09835904837 -0.09215513617 1.179468751 -0.02540378459 0.01274863351 0.9995312691
-0.1116918027 -0.08510606736 1.181005239 -0.06842960417 0.02921188064 0.9971014857
-0.1054918766 -0.08530943096 1.181004643 -0.05181198567 0.01619977504 0.9984936714
-0.1879235208 -0.007880914025 1.09031558 0.03479981795 0.3640691638 0.847886622
-0.1844031513 -0.004801784642 1.093957543 0.04635678232 0.225638777 0.7659085989
-0.1896634847 -0.009721183218 1.096800447 0.02702142298 0.2122468501 0.7752149701
-0.187947914 -0.008369896561 1.102459192 0.03168479726 0.04153910652 0.6822029352
-0.1825151145 -0.004055553116 1.11946404 0.04668071494 -0.4747262597 0.40015769
-0.184285298 -0.005442949943 1.11344552 0.04191370681 -0.2938066423 0.498585999
-0.1884886771 -0.009153783321 1.109990001 0.02789182588 -0.1522627622 0.5842660666
-0.1822838485 -0.00406050263 1.125095606 0.04609508067 -0.627162993 0.3211037517
-0.1993321031 -0.01942963526 1.09856081 0.04359866679 0.2246018499 0.8259259462
-0.1938856095 -0.02058567479 1.098971486 0.0182085 0.2664872408 0.8197057843
-0.1921341121 -0.01729972474 1.105915308 0.0266636312 0.03645636886 0.6967232823
-0.1969815642 -0.01742916554 1.103392601 0.04399796203 0.07629001141 0.7405722737
-0.1923941821 -0.01116000395 1.105733871 0.03013205901 -0.02439675853 0.665666759
-0.1948999166 -0.01310226507 1.097794771 0.02370996028 0.2152848095 0.7966734171
-0.2028061897 -0.01529745758 1.093237996 0.04888723418 0.3208551109 0.8879753947
-0.1977246404 -0.0124079939 1.104017973 0.05010852963 0.003975725733 0.7060525417
-0.1893349439 -0.00781949237 1.1206429 0.04953261092 -0.4823491871 0.4239102006
-0.1930454522 -0.01210244559 1.113509893 0.04980440438 -0.2528403997 0.5570601821
-0.1845193356 -0.006079372484 1.130272627 0.04920881242 -0.7557771206 0.2652804255
-0.2042054385 -0.01502113231 1.088441014 0.06663742661 0.3739308715 0.9240752459
-0.1934297979 -0.01958621852 1.088177681 0.01090249419 0.427410841 0.9000629783
-0.1964837313 -0.01490421128 1.087000012 0.03663888946 0.4115642905 0.9073067904
-0.1853120476 -0.0213316083 1.087000012 -0.02686818875 0.4671941102 0.8818929791
-0.2014039606 -0.0216651056 1.093013167 0.04084115475 0.3907523453 0.9189397693
-0.1193395555 0.05744389445 1.058036089 -0.2435649037 -0.08994521201 0.9097836018
-0.1247999594 0.05862962082 1.056811452 -0.1331019253 -0.1498047113 0.9084906578
-0.1124617085 0.0623463057 1.059578657 -0.3974376619 -0.1601241976 0.88725245
-0.1213107705 0.06352620572 1.056074619 -0.2382772714 -0.1582066864 0.9211964011
-0.133453548 0.0631473884 1.051982641 -0.005105339922 -0.1487882435 0.9596487284
-0.1303143799 0.05999767408 1.054543138 -0.03657767922 -0.1584436595 0.9291039705
-0.139381364 0.06005697325 1.051329494 0.1344964355 -0.1506502032 0.9599869847
-0.1276871115 0.06443267316 1.053414464 -0.1256406307 -0.1508033127 0.9484011531
-0.1082738563 0.03712031618 1.062548995 -0.4180670083 0.1263158023 0.8987152576
-0.1075159386 0.03170643002 1.065861702 -0.4291504323 0.1488936543 0.8895907998
-0.1044555381 0.03338702396 1.071525693 -0.424164176 0.154579252 0.8870844245
-0.1077497005 0.0441637449 1.064398646 -0.4202798009 0.07337409258 0.8982471824
-0.1062204912 0.03958753496 1.06788373 -0.4229547679 0.1065176576 0.8926759362
-0.1041597053 0.04553763196 1.068109751 -0.4242080152 0.04550964758 0.8942787051
-0.1069378927 0.05567413941 1.06271255 -0.4235881269 -0.03461049497 0.9023539424
-0.1006988287 0.03204350546 1.075166464 -0.4251872301 0.1528429687 0.8835385442
-0.09281583875 0.05885320902 1.069108129 -0.4136725068 -0.1022860557 0.9042604566
-0.1049046144 0.05056318641 1.065775037 -0.4234906137 0.003992250189 0.8982558846
-0.1009873822 0.05721939355 1.06532836 -0.4193609059 -0.06491243094 0.9033188224
-0.09793712944 0.04866046086 1.070265532 -0.4194275737 0.0007393109263 0.8964709044
-0.09470617771 0.05314938352 1.070282102 -0.4162605107 -0.04740170762 0.8998607397
-0.0962112546 0.03949762508 1.073689699 -0.4024212062 0.06902721524 0.8975102901
-0.09452220052 0.04496470466 1.072583199 -0.4015106857 0.01729432307 0.901047647
-0.09093124419 0.04871214554 1.071016192 -0.3621137142 -0.03816884011 0.9204623699
-0.08931876719 0.04250963032 1.071098685 -0.3069159687 -0.008485742845 0.9410890937
-0.07307700813 0.04650081694 1.055409551 -0.2215117216 -0.09126026183 0.965339005
-0.09037026018 0.04745126516 1.055869818 -0.3418135643 -0.06424330175 0.9329532981
-0.1641422212 0.05071828142 1.062650084 0.4751015007 -0.1338764429 0.8484888077
-0.1718788147 0.05308502167 1.066493154 0.3596175015 -0.0214414224 0.9124453664
-0.1565211117 0.05504937842 1.058831215 0.4924111366 -0.1710145622 0.8516939282
-0.1681837589 0.05608458072 1.064929366 0.3820047379 -0.05808024853 0.9040127397
-0.1571647823 0.06116615608 1.060043573 0.4706112146 -0.2095757425 0.8566690087
-0.1068716496 0.02671984024 1.062175155 -0.4129213095 0.1895103157 0.8905723095
-0.1046836302 0.02598409727 1.067325234 -0.4215958714 0.199292779 0.884427309
-0.09942506999 0.02622234821 1.070034146 -0.4215124846 0.2195751518 0.8797569275
-0.09850993752 0.02699347772 1.063024044 -0.4163030684 0.2294735163 0.8796886206
-0.1281046569 0.03226019442 1.046572566 -0.2265188694 0.0252863653 0.9684766531
-0.1296187788 0.02478673495 1.047327518 -0.2009496242 0.01858398505 0.9703333974
-0.1544223875 0.03824573383 1.046949744 0.2909765244 -0.2073735446 0.9337216616
-0.160914734 0.03487817198 1.050261736 0.4601279795 -0.1836910248 0.8640761375
-0.1611187011 0.04535539821 1.053928018 0.4857752919 -0.2314458787 0.8315047026
-0.1635682434 0.0487100631 1.056540847 0.5521675944 -0.2305515558 0.7996019721
-0.1580063105 0.04111244902 1.050306082 0.3936439157 -0.2257740796 0.8811190724
-0.1547102481 0.05679807067 1.049334288 0.3671260476 -0.1921987534 0.9036297798
-0.1547573507 0.04593769461 1.048057318 0.3243655562 -0.2043483257 0.9198009968
-0.1563981175 0.05187051371 1.050239086 0.3817092776 -0.1982140839 0.8942486644
-0.1602118015 0.05729439855 1.054294229 0.481316179 -0.1933041662 0.8476774693
-0.1486740261 0.03739886731 1.055622458 0.2640966177 -0.1390773505 0.8920989037
-0.1553774327 0.04311878234 1.057794929 0.4469622374 -0.1838078052 0.8438875079
-0.1367317289 0.02697570436 1.051639318 -0.06330732256 -0.05840471759 0.9798766971
-0.1474317312 0.03205931932 1.053147674 0.2003847212 -0.1127117947 0.9357102513
-0.144783318 0.02776394412 1.051303744 0.1139522493 -0.08644174039 0.9712516069
-0.1538222134 0.03558708355 1.05601263 0.3586557508 -0.1212531254 0.8821370602
-0.1641459912 0.03314988688 1.060291886 0.5521449447 -0.04666185379 0.813231349
-0.1584064811 0.03337595984 1.057760477 0.4361039698 -0.07743098587 0.8553850651
-0.1546712518 0.0273817163 1.055284142 0.3145045936 -0.03924545273 0.9037387967
-0.1734101921 0.03354418278 1.066818953 0.5231059194 -0.002365596825 0.8508148789
-0.166775465 0.04077988863 1.063832879 0.5363559127 -0.1048215181 0.8294584155
-0.1615649611 0.04276809469 1.060458422 0.5694285035 -0.1506833583 0.8007149696
-0.1759994626 0.04465837777 1.065126538 0.3717510104 -0.01218695194 0.9252355099
-0.202297464 0.01129357144 1.081431985 0.195518136 0.3361914456 0.9186153412
-0.1989115626 0.00685740402 1.082025647 0.1490636766 0.3540213406 0.9200437069
-0.1924074739 0.004010666162 1.082514167 0.112463221 0.3862152696 0.912669301
-0.2061663121 0.005428574979 1.08249402 0.1489590853 0.3255469203 0.9334232211
-0.2102891952 0.0031813432 1.084616184 0.1498514712 0.3311735094 0.9312857985
-0.1972423494 0.01161868218 1.075698018 0.1668727249 0.3714797795 0.9119041562
-0.2018614262 0.01339643262 1.076659203 0.1914999485 0.3530417681 0.9131617546
-0.2083001137 0.01450605225 1.077006221 0.2275896966 0.3185024261 0.9155396223
-0.2126541585 -0.004041538574 1.078877091 0.1366866231 0.3573589921 0.9219031334
-0.1986132711 0.005874669179 1.07715404 0.1500839442 0.3968367279 0.9031832218
-0.206743449 -0.002275510924 1.078359723 0.1288238019 0.3819313347 0.9141096473
-0.2141859382 0.0145109864 1.077368975 0.2453067452 0.2882095277 0.9232366681
-0.2075776756 0.009456356056 1.077397823 0.1971068531 0.3388953507 0.9147771597
-0.2075724304 0.003216349054 1.07793653 0.162105903 0.3595300615 0.9149955511
-0.2135226876 0.005944168661 1.078068137 0.1952827275 0.3199133277 0.9226785302
-0.1884979606 0.008601807989 1.075441599 0.1372966915 0.4046821594 0.9032055736
-0.1862138361 0.01282934472 1.073477745 0.160471797 0.3769293725 0.9116604924
-0.1737536937 0.0210453067 1.066393256 0.5243420601 0.2024673223 0.8146653175
-0.1757707596 0.01704840735 1.068995953 0.4382408261 0.2822163105 0.8297681808
-0.1786156744 0.01321993582 1.072290421 0.2544130087 0.3583430052 0.8744316101
-0.1805896908 0.03140923008 1.070943475 0.2846606672 0.1789838672 0.9325786829
-0.1784143895 0.02232690901 1.072265506 0.2703157067 0.2896431983 0.9082642198
-0.1826081276 0.02643898129 1.071164489 0.2403277606 0.2278128564 0.936834693
-0.2218213081 0.001775349258 1.083994269 0.1857651323 0.3072780371 0.9310531616
-0.2219803184 0.009896289557 1.083486319 0.2278449088 0.2700381279 0.9337229133
-0.2215253264 0.01043160073 1.078104854 0.2158125043 0.2741546035 0.9340570569
-0.2217201293 0.01564778946 1.077477455 0.2386691421 0.257818222 0.9345300198
-0.2209862918 -0.004092705436 1.079874635 0.1521935314 0.3196986318 0.9327250123
-0.2222081572 0.01556530595 1.083134294 0.2532540262 0.2513079047 0.9341454506
-0.2226044536 0.02319606952 1.079898238 0.2659762502 0.2629068494 0.9272990823
-0.217155844 0.01469912659 1.082120776 0.2429645509 0.2526893318 0.9364467859
-0.0665070489 -0.07054559141 1.175266862 0.09516247362 0.1370559335 0.9847695231
-0.0724331513 -0.06576093286 1.176557541 0.07283779979 0.1431891173 0.9864982367
-0.06467501819 -0.06577156484 1.174364448 0.1204721034 0.1638396084 0.9780316353
-0.07041576505 -0.06115565449 1.175404906 0.1133754775 0.1460082382 0.9800826907
-0.0795687288 -0.0672621727 1.176878572 0.06539378315 0.05786955357 0.9948722124
-0.08339381218 -0.0717158094 1.180999994 0.06010246649 0.01623028889 0.9979797006
-0.07771677524 -0.07097563148 1.180999994 0.07581830025 0.0573903583 0.9937493801
-0.08048631251 -0.06409370154 1.180999994 0.06527405977 0.07969717681 0.9914818406
-0.07483623177 -0.06031454727 1.180568933 0.07457523048 0.1584824473 0.982993722
-0.1926881522 -0.007426600903 1.086145163 0.03083654121 0.4394496083 0.897537291
-0.1991506517 -0.01013064664 1.088282585 0.05420594662 0.4022731781 0.9118518829
-0.202701211 0.0004629485484 1.083141327 0.1103370413 0.3597557843 0.9244171977
-0.1936491579 -0.002851098543 1.083943248 0.05980677903 0.4220004082 0.9022871256
-0.2080227286 -0.008413996547 1.082975388 0.08260425925 0.3590586185 0.9284259081
-0.198381409 0.0009786478477 1.080316544 0.1084304452 0.3804112077 0.9180186391
-0.2025444508 -0.005293536931 1.082540035 0.07641620934 0.3835851848 0.9186019897
-0.1921399832 0.004639721941 1.077420235 0.1189308614 0.4234001935 0.897672236
-0.1888969243 -0.01315248758 1.085305333 -0.001759236678 0.4584407806 0.8875213265
-0.1873456538 -0.003284027101 1.0822438 0.04832105711 0.4498415589 0.8900980949
-0.1869525313 0.002155870898 1.078994989 0.08386603743 0.4381562173 0.8938423395
-0.08200788498 0.04730555043 1.070775032 -0.2086849213 -0.04822198302 0.975831151
-0.07824488729 0.05860866234 1.072273135 -0.1872929931 -0.08135210723 0.978531599
-0.08307912946 0.05357962474 1.071505904 -0.2430919856 -0.06760268658 0.9644603133
-0.08866084367 0.05541057885 1.070294499 -0.3544636369 -0.08975393325 0.9255191684
-0.07793787867 0.05098961294 1.071086407 -0.1447154731 -0.06247537211 0.9849582314
-0.08046226948 0.05230802298 1.063350439 -0.271397531 -0.1285350919 0.9517127872
-0.07984988391 0.04988693446 1.05630827 -0.2767709494 -0.103969492 0.9474053383
-0.09486921877 0.05296792835 1.056966305 -0.38571015 -0.09786447883 0.9159588814
-0.08458902687 0.0519381389 1.058017135 -0.3213553727 -0.1106959432 0.9328883886
-0.1070254967 0.06288804114 1.06197834 -0.4353959858 -0.1554054916 0.8861508369
-0.1025650203 0.06240010634 1.064458728 -0.4314617515 -0.1371050775 0.890553236
-0.1342048496 0.05724574253 1.0467664 0.02071025595 -0.05906936526 0.9935956597
-0.1295396686 0.0550410375 1.046956062 -0.1326922774 -0.02811928838 0.9786416292
-0.1236412153 0.06377708167 1.047000289 -0.2497946471 -0.04315944389 0.9661725163
-0.1313236654 0.06740558892 1.049224854 -0.0902659148 -0.1219535246 0.9859656692
-0.1324278265 0.06304101646 1.046495914 -0.06269895285 -0.09226732701 0.9865514636
-0.1264310926 0.04961205274 1.053642511 -0.144839853 -0.02088152058 0.9587942958
-0.1198564246 0.05255909264 1.056111217 -0.2644004524 -0.02479379624 0.9384038448
-0.1364161372 0.04860417172 1.051463127 0.06589496136 -0.05662487447 0.9680995941
-0.1354123205 0.05365438759 1.053922534 0.0863180086 -0.112519525 0.936250627
-0.1409966499 0.05093813688 1.051729202 0.1860772818 -0.1066347286 0.9549009204
-0.1145209223 0.05524527654 1.058247924 -0.3589499295 -0.03150979429 0.920016408
-0.1212396473 0.04313278198 1.054659128 -0.2277641892 0.05986517295 0.9549847841
-0.1279001385 0.04401766881 1.051826239 -0.1324679703 0.03233230487 0.9806182384
-0.1105638519 0.04722265154 1.059479952 -0.3961873949 0.05374553055 0.910453856
-0.1124074832 0.0358726047 1.059078574 -0.3965227306 0.1064020544 0.9049847126
-0.1179105118 0.03894490004 1.056448579 -0.2993667126 0.08140914887 0.9330230355
-0.111700654 0.04162102938 1.058772326 -0.3677453399 0.09832953662 0.9170337319
-0.1321529895 0.05080562457 1.04697752 -0.06823574752 -0.009348590858 0.9878765345
-0.1315449923 0.02826265804 1.051943779 -0.1578233242 -0.02648784965 0.9828213453
-0.1274808347 0.03415470943 1.052983522 -0.186682269 0.017004475 0.9693571329
-0.12194065 0.03655895591 1.055025458 -0.2550600171 0.05721252412 0.946623385
-0.1527504623 0.03278636932 1.046092629 0.25325948 -0.1619535834 0.947173059
-0.1473287344 0.03239677474 1.044938445 0.1344081014 -0.09907027334 0.9783731103
-0.1494271308 0.02701385505 1.045961499 0.2162796855 -0.103515625 0.9649228454
-0.1358939111 0.03033439815 1.046672344 -0.06443731487 -0.01863870956 0.9970690608
-0.1410691589 0.02804160491 1.046519637 0.02324984036 -0.06055574119 0.9915453196
-0.1475900561 0.03771088645 1.045724273 0.1446870118 -0.1290540397 0.973546803
-0.1405967325 0.04122459143 1.046312213 0.06407010555 -0.04099137709 0.994179368
-0.1412850171 0.0353369303 1.045358777 0.02580701746 -0.07141197473 0.9951372147
-0.1361498535 0.03681907058 1.046318054 -0.02365578711 -0.02742754295 0.9980984926
-0.1397521943 0.04446956888 1.050938845 0.1350273937 -0.04710381478 0.9714591503
-0.135616377 0.03528852388 1.051104903 -0.02740410343 -0.0371354036 0.9828898311
-0.1421284974 0.03819270432 1.052800894 0.1445454359 -0.08952651918 0.9449266195
-0.1509277672 0.04707400873 1.055242419 0.3982832432 -0.1447304785 0.8868134618
-0.1454814672 0.04681110755 1.051773787 0.294962436 -0.09376404434 0.9484676719
-0.1395172626 0.03251136094 1.053215504 0.03798209876 -0.0829193294 0.9472256899
-0.1585535705 0.04846009612 1.059777141 0.5509214997 -0.2137251645 0.8053309321
-0.1359716207 0.0456401743 1.046982646 0.02461730316 0.00800524652 0.9978259206
-0.1394317001 0.05039909855 1.046792626 0.1274974197 -0.05970950797 0.9785842896
-0.1501495987 0.04447310045 1.046910524 0.2589995265 -0.168439582 0.9474288821
-0.1467401385 0.04943034053 1.046763778 0.246910274 -0.1474612206 0.9545540214
-0.08839573711 -0.07097826153 1.177523136 0.04111063853 0.02176739834 0.9985592365
-0.09208574146 -0.07061520219 1.181000113 0.0250856746 0.02621412836 0.9991918206
-0.1002071202 -0.07646823674 1.177193522 0.002539536217 0.01257020887 0.9997378588
-0.1104108021 -0.07806025445 1.181000113 -0.05853905901 0.03357489035 0.9970175624
-0.09700524807 -0.07232815772 1.179540515 0.004078342579 0.03216785565 0.9988965392
-0.1027331203 -0.07408851385 1.180878758 -0.02327960543 0.03526496142 0.9977875948
-0.08610282093 0.05762443319 1.066293001 -0.3135476708 -0.130815804 0.9367989898
-0.08860827982 0.06271249056 1.067207694 -0.3378339112 -0.1278962642 0.9241699576
-0.08326852322 0.06310750544 1.072113395 -0.2812315822 -0.1474782974 0.942299664
-0.07702647895 0.0533304736 1.058815598 -0.2695918381 -0.1268080324 0.9445545077
-0.09044463933 0.05559176579 1.060604692 -0.3801026344 -0.1242515817 0.9123578072
-0.09360727668 0.06466221809 1.06585741 -0.4203687906 -0.1668660641 0.890637219
-0.09830697626 0.06513977796 1.062806249 -0.4386426508 -0.1574465036 0.8847134113
-0.1124371514 0.03017068841 1.04848063 -0.3450648189 0.04569272324 0.9360767603
-0.09963515401 0.04510558397 1.055476546 -0.3665240109 -0.01559143979 0.9295337796
-0.1038059443 0.03805847839 1.05234623 -0.3635393977 0.001304204226 0.929474771
-0.1032912657 0.03430325165 1.055736065 -0.3954308927 0.08274912089 0.9077119827
-0.1085493863 0.02943268605 1.053009868 -0.3826400638 0.1032235399 0.9128999114
-0.1158368438 0.06504403055 1.056937575 -0.3431707323 -0.1604696959 0.9098678231
-0.1087454706 0.06660289317 1.057037711 -0.4344864488 -0.1677139252 0.8840560317
-0.1258079559 0.06788055599 1.050201416 -0.1775343865 -0.1173131242 0.9642477632
-0.1159956381 0.06755414605 1.05029428 -0.3402829468 -0.08313027024 0.9301056862
-0.1204045042 0.06746458262 1.052935123 -0.2559724152 -0.1434927881 0.9370494485
-0.1249227971 0.02712539956 1.054611325 -0.2348477095 0.03622596338 0.957508564
-0.1241261736 0.02476076037 1.046739936 -0.2871339619 0.05308922753 0.955927968
-0.1251377612 0.04958987236 1.047000289 -0.2691682577 -0.008349321783 0.9628044367
-0.1309813112 0.0420640707 1.046822667 -0.1191259176 -0.003648072481 0.9837127328
-0.1230813414 0.0375688374 1.046601176 -0.2969335914 0.0263534952 0.9536827803
-0.09919919819 0.05785221606 1.057585716 -0.4115420878 -0.1196933314 0.902436316
-0.1029295176 0.06540743262 1.05951643 -0.4375789762 -0.1602491587 0.8845828772
-0.09647707641 0.06080173329 1.06080091 -0.424954474 -0.1348909438 0.8941866159
-0.1128392965 0.03607980534 1.050267577 -0.3473988771 0.03581270576 0.936229229
-0.1076648608 0.04341553897 1.0538342 -0.3513429761 0.01960198767 0.9357209206
-0.1127519384 0.04452153668 1.052223563 -0.3630536497 -0.003797472687 0.9314631224
-0.1178099066 0.02714597993 1.046403289 -0.3393442333 0.06063278392 0.9380534887
-0.1164005771 0.04155660421 1.050114512 -0.3555541933 0.00112297514 0.9336740971
-0.1190110072 0.03388056532 1.047227859 -0.3295799792 0.03543903306 0.9420206547
-0.1222540885 0.04374528676 1.047709823 -0.3014435768 0.000623667147 0.952629745
-0.1181489453 0.04692376032 1.049773693 -0.3381219506 -0.01268624887 0.9400516748
-0.1187146008 0.05803250149 1.048092961 -0.3213166296 -0.02472868375 0.946036756
-0.1227917746 0.05418238789 1.047000289 -0.2870334387 -0.01552555989 0.9574157
-0.1182180792 0.02741496824 1.054381013 -0.3459636271 0.1204681769 0.9262816906
-0.1127059832 0.02784380503 1.056971192 -0.3881545961 0.1861608326 0.9024128318
-0.1053282022 0.04777710512 1.054899812 -0.373216778 0.001387106953 0.9266999364
-0.1008464843 0.0515085645 1.055297136 -0.4059186578 -0.05053616688 0.9119557738
-0.1135648638 0.05653099716 1.050526738 -0.3609986603 -0.028939154 0.9308719635
-0.1140303686 0.05047983676 1.051190853 -0.3671862483 -0.02192748524 0.9292305112
-0.1176221892 0.06331457198 1.047958732 -0.3257110119 -0.032396961 0.9445415139
-0.1076822802 0.0586703755 1.052142739 -0.3723446131 -0.05160338804 0.924880743
-0.1053531617 0.06234264746 1.056097746 -0.415925175 -0.1351685822 0.8973859549
