# .PCD v0.7 - Point Cloud Data file format
VERSION 0.7
FIELDS x y z normal_x normal_y normal_z
SIZE 4 4 4 4 4 4
TYPE F F F F F F
COUNT 1 1 1 1 1 1
WIDTH 512
HEIGHT 1
VIEWPOINT 0 0 0 1 0 0 0
POINTS 512
DATA ascii
0.08316396922 0.03945479169 0.8438323736 -0.0131373154 0.1595572829 0.9789409041
0.1013539955 0.08905402571 0.8609528542 -0.3817102313 -0.235559836 0.8890321851
0.1059503853 0.09109950066 0.8642505407 -0.3963014781 -0.2484504282 0.8770062923
0.09968022257 0.09438902885 0.8547389507 -0.3612436652 -0.1632118225 0.9177905917
0.1181321666 0.00123812235 0.888243556 -0.3182155788 0.2658239603 0.9046557546
-0.02296597138 -0.002545650583 0.9670723677 -0.3305030763 -0.2901719809 0.8980912566
-0.0189080704 -0.003943308257 0.9706372023 -0.3305030763 -0.2901719809 0.8980912566
-0.01291286852 -0.00446505053 0.9737549424 -0.3301780224 -0.294472456 0.8967834711
-0.01393390726 0.001210250077 0.9753575921 -0.3300298452 -0.2964330018 0.8961872458
-0.008713840507 0.01242419519 0.9797927141 -0.3294119239 -0.3046083152 0.8937010169
0.08340357989 0.01883276179 0.9533648491 0.3631581664 -0.7242166996 0.4523097575
0.07763810456 0.04168887809 0.8439869285 0.09746471792 0.1086843163 0.9802720547
0.022263458 -0.02001444995 0.9829210639 -0.3930413425 -0.2512599528 0.884526372
0.113426201 -0.01371942461 0.8905459046 -0.2118000537 0.5237520933 0.8051561713
0.1127225608 -0.01080482267 0.8955652714 -0.2094633877 0.4542546868 0.819331944
0.1066749319 -0.01745680161 0.8984549046 -0.07769526541 0.5662871599 0.7862250209
0.1193841919 -0.004825582728 0.88883394 -0.3402669728 0.3253263831 0.874142766
0.1069257408 -0.0178004913 0.8920867443 -0.08128219843 0.5977781415 0.7953795791
-0.01815575361 0.001856143237 0.96597296 -0.3305030763 -0.2901719809 0.8980912566
0.1205799431 0.08376055211 0.8666290641 -0.5098437071 -0.3142958879 0.799061656
0.1144369394 0.08687215298 0.8625500798 -0.4656913579 -0.2665685713 0.8354455233
0.1060034633 0.08948970586 0.8561711907 -0.3990282714 -0.2100549787 0.8857556581
0.1005679667 0.08711980283 0.8501626253 -0.3412486315 -0.1963897347 0.9188346863
0.07356793433 0.01654508896 0.9526598454 0.7125615478 -0.6192748547 0.294033736
0.07720602304 0.02094382606 0.9542819858 0.6304751635 -0.6918535829 0.3358881176
0.07458347082 0.02511194721 0.8494032621 0.1462799311 0.4186830819 0.8794178367
0.120497711 0.01491032448 0.8739100695 -0.4272642136 0.3941961825 0.7567663193
0.1218861416 0.01194781158 0.8795479536 -0.4214850962 0.3871332109 0.7697716355
0.1256238222 0.02032396384 0.8696112633 -0.5573455095 0.5145612955 0.6289246082
0.1259072572 0.01066338271 0.8846709728 -0.4723062515 0.432015866 0.7289744616
0.04061522335 0.09035472572 0.8743308187 0.2173736095 0.4718356729 0.8347147703
0.03349071741 0.09221493453 0.8737245202 0.1804378331 0.4216800332 0.8740256429
0.0471056886 0.08815202117 0.8771099448 0.2667396069 0.384966433 0.8623622656
0.02586657181 0.09683781117 0.8626172543 0.2409599572 0.5469684005 0.8015852571
0.02751664445 0.09465266764 0.8730548024 0.1498853266 0.3965072632 0.8984861374
0.05563306808 0.03372941911 0.8524962068 0.4486940205 0.2229958475 0.8618721366
0.1087374687 0.07155635208 0.8508500457 -0.4055853188 -0.2624955773 0.8716465831
0.0815738067 0.05627467856 0.8475528359 0.009815955535 -0.0683138147 0.9842352271
0.0813029781 0.04719536379 0.8438380361 0.01206874754 0.03023050353 0.9912243485
0.07644154131 0.01933504827 0.851136148 0.1101584658 0.5787594318 0.7945364714
0.06725028157 0.02546711825 0.8507406116 0.2528077364 0.3920639157 0.8757765293
0.06106594577 0.02855000459 0.8522119522 0.337902844 0.3228433132 0.8824053407
0.09340421855 0.02796745859 0.84823066 -0.1714740992 0.3025057614 0.937184453
0.07896608859 0.0308883395 0.8462359309 0.05209708586 0.2686454952 0.9576126337
0.06488481164 -0.01274978276 0.9158758521 0.8360729814 0.4624389708 0.2659530342
0.06590203196 -0.008335286751 0.921156466 0.9177597761 0.1694393456 0.1812896132
0.04798456654 0.02920318767 0.8606370091 0.5611670613 0.179954648 0.8038897514
0.04846011102 0.03400592878 0.85704422 0.5720416307 0.1635800451 0.8011081219
0.07331665605 -0.0002080094855 0.9253655672 0.6952671409 -0.3846649826 0.3851257265
0.08037274331 0.006310615689 0.9011962414 0.4561936557 0.1221881658 0.6793820858
0.08362270892 0.008954269812 0.8958871961 0.3253800571 0.1577725261 0.8132762909
0.0782776624 0.004137168173 0.9122347236 0.5134503841 -0.1595419645 0.5909260511
0.07281859964 -0.0005919414689 0.9086127877 0.6748195887 0.1335808039 0.4870899618
0.07866448164 0.004038773943 0.8960635662 0.4201695621 0.2781688571 0.7630457878
0.080962345 0.005879006349 0.8912939429 0.3224100471 0.3315339684 0.8681403995
0.07393318415 -0.0002272601705 0.9019967318 0.5657642484 0.2509551048 0.6271243095
0.09579322487 0.01546964794 0.8863791823 -0.01563207246 0.4394803345 0.8127704859
0.1155736968 0.02160640433 0.887075305 -0.4095524251 0.6447809935 0.6245254278
0.1052425951 0.01848345809 0.8865148425 -0.2072757781 0.543407023 0.7197290659
0.1115206107 0.01584310085 0.8909043074 -0.2292268127 0.4085118175 0.7814257741
0.1016107723 0.009922524914 0.8878454566 -0.03798865527 0.2798332274 0.9103956819
0.1180719808 0.01406138577 0.8900386095 -0.3343462944 0.3948460221 0.7850032449
0.1237593964 0.02026558295 0.893216908 -0.4545990825 0.5173428059 0.6672147512
0.1178645641 0.01940213516 0.8927452564 -0.3507866263 0.4868811369 0.7024683356
0.1129169688 0.009601513855 0.887747705 -0.2297032028 0.3039859831 0.8736172318
-0.006989822723 0.007817145437 0.9751619697 -0.3295012712 -0.3034263551 0.8940604925
-0.01396075822 0.005042500794 0.9698398113 -0.3301388323 -0.294991225 0.8966256976
-0.01418229472 0.008546230383 0.9745932817 -0.3297201991 -0.3005297482 0.8949413896
-0.02166512609 0.005820856895 0.9728127718 -0.3303366601 -0.2923736274 0.8974217176
-0.002153821755 0.0003592880676 0.9737852216 -0.3298789561 -0.2984295487 0.8955800533
0.110280171 0.08150825649 0.8658233285 -0.4439998865 -0.3132860065 0.8392665386
0.1144781634 0.08807805181 0.8685182929 -0.4541487098 -0.2992235124 0.8359811306
0.1141061783 0.06714142859 0.8544549942 -0.4527226686 -0.3028060496 0.8372730613
0.1109250933 0.07574753463 0.8550140262 -0.4301415086 -0.2702016234 0.8540282249
0.1054912955 0.07864823192 0.8511343598 -0.3768706918 -0.2419228107 0.889452517
0.1150861531 0.07717257738 0.8594788909 -0.4754769802 -0.2833853066 0.8247988224
0.1184581518 0.07946898043 0.8635374904 -0.5123687983 -0.2924241424 0.8010606766
0.110715948 0.08185972273 0.8572967649 -0.4343416393 -0.2561442256 0.8525172472
0.03223484755 0.1009137183 0.8596899509 0.2520146966 0.5666518807 0.7836745381
0.04318506643 0.09763805568 0.8619143367 0.2873744369 0.586781621 0.7567813396
0.0458471626 0.09172285348 0.8707414865 0.2920363247 0.5886873603 0.7534618974
0.03501589596 0.09777919203 0.864798367 0.2685853839 0.5678986907 0.7768175602
0.05131261796 0.09341052175 0.8680043221 0.3543968201 0.5706267357 0.7392480969
0.06587385386 0.0897186771 0.8618278503 0.3454017639 -0.1057922989 0.9089067578
0.07356885076 0.09241320193 0.8605357409 0.1636354029 -0.08460720628 0.9214605689
0.08056309819 0.0934779197 0.8562692404 0.09034505486 -0.05124234408 0.9667210579
0.05452981219 0.08941853791 0.8711730242 0.3997138143 0.4227317274 0.789159596
0.05935534835 0.0872669965 0.8670867682 0.417080462 0.09465898573 0.8491005301
0.06434493512 0.09420665354 0.8569638133 0.3422725499 -0.02854729071 0.9148029089
0.0571708791 0.09655695409 0.8563715816 0.3190484047 0.1749500036 0.8601967692
0.04936967418 0.09634179622 0.8621450663 0.3614249825 0.5732467771 0.7247575521
0.05558733642 0.09407495707 0.8634294868 0.3874023855 0.3955607116 0.7766257524
0.0195254609 -0.007190133911 0.981326282 -0.3930413425 -0.2512599528 0.884526372
0.01831177063 -0.01262219343 0.9862452745 -0.3839736879 -0.2550714016 0.8872010112
0.02462805808 -0.02363157086 0.991687119 -0.392988205 -0.2512823045 0.884542048
0.02162215672 -0.01771963015 0.988519609 -0.3903602064 -0.2523869276 0.8853172064
0.01434020977 -0.01723156497 0.9833547473 -0.3864375651 -0.2376030236 0.8908119798
0.005718958564 -0.007765736897 0.9774590135 -0.3730703294 -0.2375335544 0.896256268
0.009527568705 -0.01443960983 0.9792850614 -0.3842232823 -0.2302412242 0.8936540484
0.01073574554 -0.005883689038 0.9831984043 -0.3652871251 -0.2592898309 0.8936725855
0.01293813903 -0.01149881259 0.9837058783 -0.3754337728 -0.2499135137 0.8920289874
0.006455223076 -0.0008854749613 0.9803643227 -0.3580219746 -0.2601320446 0.8963993192
0.0354533121 0.08401581645 0.8791680932 0.1937647313 0.2280706614 0.8956894875
0.03481289372 0.07437814772 0.8754931688 0.5050085187 -0.03138594329 0.7247153521
0.02749628201 0.08394636959 0.8753217459 0.2415950298 0.1569112241 0.8531472683
0.02282985114 0.087477386 0.8743140101 0.1556581259 0.2092668116 0.8903287649
0.02402628586 0.08054667711 0.8724671602 0.3699834049 0.03712177277 0.7759840488
0.01765381731 0.09224725515 0.8734943271 0.03310649842 0.2898160219 0.9464128017
0.03562285379 0.06893532723 0.8738685846 0.6950162053 -0.1915910095 0.6270779967
0.03926622868 0.07793518901 0.8783831 0.4579956532 -0.003815072123 0.7782405019
0.04119601101 0.08269532025 0.8807715178 0.3327411711 0.09538411349 0.8581638932
0.02039866708 0.1007710919 0.8655849695 0.1952393502 0.4844340086 0.8460469246
0.01845785044 0.09845591336 0.8704259396 0.1123874784 0.3885213137 0.9113111496
0.03218204901 0.08836476505 0.8787510991 0.09203904867 0.3094632626 0.9447835684
0.04849201068 0.09908237308 0.8558550477 0.2897254229 0.4374188483 0.7914510965
0.03697025776 0.09884883463 0.8573200107 0.2578884959 0.5765929222 0.7746843696
0.03991831094 0.09298224747 0.8578364253 0.3218132257 0.4594373107 0.769829452
0.04144578427 0.08563482016 0.8578289747 0.3985715806 0.179953739 0.7739421129
0.03204661235 0.08612394333 0.8652421236 0.523940146 0.283969909 0.6742500663
0.03069241159 0.09132613987 0.8629962802 0.3433741927 0.4647785723 0.7636543512
0.03733666986 0.08798968047 0.8618030548 0.4072545469 0.429972738 0.7431285381
0.02905649319 0.07326536626 0.872243464 0.5787786245 -0.1117366999 0.6722964048
0.02515321411 0.08967293799 0.8669883609 0.3777846694 0.2791232467 0.7643876076
0.02079361305 0.09447734058 0.8666372895 0.1969135404 0.3780985475 0.8640182018
0.0707724914 0.0310417451 0.8471485376 0.2072286457 0.3017396331 0.9258698821
0.06529217213 0.03322689608 0.8494385481 0.2900085747 0.2573035657 0.9103308916
0.03729025275 0.04323535785 0.8667904139 0.7228422165 0.01624424942 0.6840171814
0.03884691373 0.03383001313 0.8617987037 0.6648395061 0.09332571924 0.7394293547
0.04193185642 0.03862855583 0.8642607927 0.6787786484 0.06929971278 0.72377491
0.07851867378 0.08844273537 0.8608449101 0.07247984409 -0.2079036087 0.8991342187
0.09679399431 0.08428472281 0.8621221781 -0.2635312676 -0.2623827755 0.8678641915
0.09493288398 0.0920561254 0.8587546349 -0.3004689217 -0.1980404705 0.9140215516
0.08852615952 0.08870905638 0.8604238033 -0.1361465454 -0.217386663 0.8968843818
0.05552298576 0.08372843266 0.8701466918 0.4508855641 0.153815493 0.7953704
0.0509788096 0.08431793004 0.8752951026 0.4967668056 0.2482382655 0.7682231665
0.0623767972 0.08374296129 0.863109529 0.4147719741 -0.1761717498 0.8631396294
0.08528624475 0.03363047168 0.8452613354 -0.04449842125 0.2768978477 0.9546131492
0.09784245491 0.02189034224 0.8696210384 -0.2099668533 0.6417013407 0.7105840445
0.09762766212 0.02837436832 0.8595348001 -0.219155401 0.4530848563 0.8185351491
0.09161694348 0.02371495031 0.8586254716 -0.1288971901 0.5519743562 0.7959396839
0.09247151762 0.01788800023 0.8703157902 -0.1302082837 0.628297925 0.7575757504
0.09068396688 0.01991095766 0.8639991879 -0.1094266772 0.608769238 0.7736669183
0.09683643281 0.01742587984 0.8768776059 -0.1886039376 0.6627303958 0.7143291831
0.09136257321 0.02198290452 0.8500104547 -0.1800945848 0.5531886816 0.7781226635
0.08641657233 0.02477193996 0.8486884236 -0.08760716021 0.3958029747 0.8823705316
0.08491916955 0.01908908971 0.8508135676 -0.06568106264 0.6303223372 0.747087419
0.08379667997 0.01998257823 0.8623258471 0.01424482372 0.5050253868 0.8361414075
0.08777814358 0.01520080492 0.8777552843 0.04582476243 0.4528736472 0.8488052487
0.0850423798 0.01339752879 0.8829472661 0.1984859109 0.2896994948 0.9336354733
0.09350722283 0.01429299265 0.8810483217 -0.1066543609 0.6038678885 0.7630295753
0.08479655534 0.01810760051 0.8686795831 0.03827809542 0.4734064341 0.845700264
0.07946785539 0.0214070119 0.8581921458 0.09246089309 0.4329219162 0.8773303032
0.06626647711 0.03939443454 0.8471878767 0.2706745863 0.1506946236 0.9378169179
0.07127805054 0.04045930132 0.8445286155 0.1788530201 0.1371830106 0.9667795897
0.07453883439 0.03539650515 0.8443392515 0.1241055354 0.2328277528 0.9631412625
0.1083986089 0.06419088691 0.8490000367 -0.3843722343 -0.2732692063 0.8787777424
0.09972792864 0.07872475684 0.8483569622 -0.2863188982 -0.1966024935 0.9333831668
0.1003183573 0.07033091784 0.8481860757 -0.2626125216 -0.2187248319 0.9340769649
0.09861436486 0.05856064335 0.8464413285 -0.2288364172 -0.2343078852 0.9411625862
0.08153502643 0.08944518864 0.847953558 0.0838316977 -0.1797177047 0.9529106021
0.08574557304 0.09236331284 0.8514142036 -0.01340736449 -0.1212913841 0.9606582522
0.07300505787 0.05257507786 0.8436802626 0.1400728077 -0.1444994956 0.9721031189
0.1332493424 0.0230485145 0.9001239538 -0.5503221154 0.5488286018 0.6281529665
0.1302440614 0.0156319011 0.8956285119 -0.4849389195 0.4360148907 0.7279536724
0.06286859512 -0.01774490438 0.9265474677 0.7945207357 0.3591963947 0.1325226128
0.06201482192 -0.01232725289 0.9310695529 0.7395243645 0.1291889548 0.193893984
0.06228188798 -0.007746834774 0.9360564351 0.7089221478 -0.212090686 0.2662233114
0.06210514531 -0.003642505268 0.939788878 0.6768701673 -0.440844655 0.3189429641
0.06666472554 -0.002756881993 0.9364464283 0.7323684096 -0.5404438972 0.3163871169
0.06839089096 -0.007183404639 0.9314268827 0.7572596669 -0.2851197124 0.261541456
0.08050425351 0.01062276214 0.8857936263 0.2981982231 0.2778527141 0.9046704173
0.07224785537 0.01501719188 0.8786602616 0.3570846617 0.2618832886 0.8840373158
0.05924292281 0.02072612382 0.8681465983 0.4622880816 0.2425842136 0.8459219337
0.0675271526 0.0175406225 0.8745752573 0.3906422555 0.25270015 0.8722903728
0.0648169145 0.02222731523 0.8661723733 0.3419989645 0.2978518307 0.8852663636
0.05338852853 0.02579192817 0.8587878942 0.4626781344 0.2658622265 0.8297109008
0.07128829509 0.02011788636 0.8687610626 0.2811501026 0.3074618876 0.9023531079
0.08022603393 0.01686639525 0.8734375834 0.2066260725 0.3107091784 0.9240273237
0.07163588703 0.02364918776 0.8542766571 0.2063471228 0.3620126843 0.9031125307
0.06057201698 0.02483257093 0.8598814011 0.3544594049 0.3157124221 0.8763472438
0.0800691843 0.0153107103 0.8798220754 0.2396375239 0.2866557539 0.9236838222
0.0749463737 0.02069150656 0.8630390763 0.2132113725 0.3371270597 0.9111805558
0.08639084548 0.01177591737 0.8880817294 0.2112047523 0.2705765367 0.9390422106
-0.008383735083 -0.001985272625 0.9700744748 -0.3303642571 -0.292008549 0.8975327611
0.003523848951 0.003940218594 0.9809467196 -0.347932905 -0.2739943564 0.896468997
-0.008960179985 0.002113684546 0.9773335457 -0.333443433 -0.2935035229 0.8957895637
0.06550081074 0.001422137371 0.9425991774 0.7262586355 -0.6031150222 0.3298493624
-0.005804448854 -0.007501753513 0.9743536711 -0.3377210796 -0.2827041745 0.8976765871
-0.01016095933 -0.01002423186 0.9695361257 -0.3305030763 -0.2901719809 0.8980912566
-0.005817621015 -0.01407263987 0.971570611 -0.3305030763 -0.2901719809 0.8980912566
-0.01530885976 -0.0115091959 0.9677069783 -0.3305030763 -0.2901719809 0.8980912566
0.01854544878 -0.01453276351 0.9771997929 -0.3925718665 -0.2461413741 0.8860681057
-0.0008467698353 -0.00628398871 0.9726780057 -0.3474199772 -0.2753896415 0.8957787752
0.002631265437 -0.01444987208 0.9737888575 -0.374699682 -0.23259601 0.8965085745
0.01202052832 -0.006989883259 0.9767746925 -0.3863556683 -0.2556708753 0.8860820532
0.1266085505 0.005019930191 0.8876602054 -0.4886287451 0.4136576653 0.748031795
0.1186570898 0.007819200866 0.8875679374 -0.3244956434 0.29184708 0.8741342425
0.1235105991 0.01290294155 0.8906664252 -0.4288384616 0.3953481913 0.7725731134
0.1100167185 0.03364663944 0.8518686295 -0.3737556636 0.2443125099 0.8738713861
0.1197779924 0.03040242381 0.8545044065 -0.5359466672 0.4559313357 0.6627033353
0.1212961376 0.02645010874 0.858287096 -0.5599544644 0.5446345806 0.6022529602
0.1145372242 0.01808794029 0.8687188029 -0.4032419622 0.4451090395 0.7457569242
0.1148158088 0.02782652527 0.8567253947 -0.5226610899 0.6030291319 0.6008349061
0.1208695397 0.02149868384 0.8643907905 -0.4968701005 0.4659193754 0.676769495
0.1159834489 0.01162944827 0.8766392469 -0.3375966251 0.3313541412 0.8370979428
0.1093495339 0.01121185534 0.8759935498 -0.2427262515 0.3528101742 0.8567222953
0.1105140597 0.01522026025 0.87140733 -0.3105683029 0.4144152999 0.7957109213
0.1129427031 0.005278202239 0.8840381503 -0.2230540663 0.2410563678 0.9377602339
0.1026227474 0.07119576633 0.8570781946 -0.389615804 -0.2730073035 0.87887007
0.08874983341 0.07342264801 0.8534975052 -0.1419657916 -0.1513846368 0.9652260542
0.08535707742 0.07738559693 0.8574442267 -0.06131073087 -0.1946631074 0.9182412624
0.07633000612 0.0829936415 0.8618424535 0.1465480924 -0.2336629033 0.8808190823
0.09967115521 0.07834891975 0.8602870107 -0.3358317316 -0.2677929997 0.869816184
0.08820670098 0.08143244684 0.8614479303 -0.09453801811 -0.2524225712 0.8734178543
0.1045377403 0.08212784678 0.8623116612 -0.4105834365 -0.2831541598 0.85685426
0.08195540309 0.08223367482 0.8616454005 0.03224599734 -0.2425128073 0.8773595691
0.1041057035 0.05551294237 0.8469080925 -0.2959027886 -0.2033005506 0.9324846864
0.1211118102 0.06845790148 0.8616791964 -0.5113827586 -0.3133942187 0.8000798225
0.1212921664 0.07423501462 0.8643279672 -0.5321249366 -0.3106766939 0.7872837186
0.1178644747 0.05697856843 0.853012979 -0.4933455586 -0.1965790093 0.8444979191
0.1149601564 0.06211183965 0.8518993855 -0.4581862092 -0.2863194644 0.8408114314
0.1130849347 0.05511288345 0.8484364748 -0.4454900324 -0.1822253615 0.8762696981
0.03946299851 0.05156644806 0.8648193479 0.728597641 -0.03844795004 0.6817580462
0.03666749969 0.04910285026 0.8698744178 0.7582315803 -0.03216934204 0.6491546631
0.03723708913 0.05690943822 0.8725604415 0.7452344298 -0.1145688221 0.6484853029
0.04196549207 0.0718055144 0.8773242235 0.6782260537 -0.1926596314 0.7029637098
0.03507906199 0.06281813979 0.8719233274 0.7655546069 -0.2349808067 0.597442925
0.04673881084 0.03981208801 0.8562618494 0.6301144361 0.0978390947 0.7690998316
0.0652616173 0.07072360814 0.8481330276 0.3191766143 -0.2259129584 0.9112839699
0.06077215821 0.0623809211 0.8478764892 0.3367416859 -0.2754178643 0.8946600556
0.07084292173 0.07936438173 0.8489397764 0.2815265954 -0.1829461157 0.935731411
0.06550905854 0.0536936149 0.8479581475 0.2650762796 -0.1031515449 0.9376744032
0.07295444608 0.04659696296 0.8443561196 0.1741038114 0.01717576012 0.9783506989
0.0559008792 0.05910973996 0.8488155603 0.4372716844 -0.2305686325 0.8658078909
0.08860514313 0.06720425934 0.8521250486 -0.1109747738 -0.2124919742 0.9649825096
0.1017697528 0.06027066708 0.8510866165 -0.2862717509 -0.2711349428 0.9112269282
0.08692484349 0.04702030867 0.8429310322 -0.08972871304 0.008783682249 0.9897095561
0.09010818601 0.05388946831 0.8470661044 -0.1244400144 -0.03225036338 0.9819412827
0.08592686802 0.05960809812 0.8486949205 -0.07590908557 -0.09804543108 0.9838055968
0.09770809114 0.03539000824 0.8551276922 -0.2190247029 0.3014046848 0.8726486564
0.1004445553 0.0305385869 0.8646449447 -0.2504790723 0.4459163547 0.7830423713
0.1005746499 0.04578300193 0.8535936475 -0.2597973645 0.05238066986 0.8839249015
0.0997377038 0.0356008485 0.8602041006 -0.2416812032 0.3216246963 0.8264380097
0.1040308625 0.05012176186 0.8559890985 -0.3104606569 -0.06109151244 0.8540930748
0.1011669114 0.05125881732 0.8502776623 -0.271509558 -0.09235725552 0.9123487473
0.1028642878 0.02939447202 0.87034899 -0.281024754 0.4872123897 0.7276549339
0.1016959772 0.04123278335 0.859062314 -0.2724191248 0.1733070612 0.8320254683
0.1036080942 0.03659271821 0.8659315705 -0.2959395945 0.2969327271 0.7656287551
0.09262482077 0.05881083384 0.8454489112 -0.1409832537 -0.2130606622 0.965298593
0.1055878252 -0.005679582246 0.8869884014 -0.05966279283 0.3481070995 0.934360683
0.1065553427 0.0006906986819 0.8844708204 -0.1029242724 0.2983742356 0.9459168315
0.1137388051 -0.002963970415 0.8868573904 -0.2003924251 0.3221725523 0.9181345701
0.1073672399 0.0063478183 0.88620013 -0.1226936802 0.2375512123 0.9421209097
0.09556616843 0.008795634843 0.8877850175 0.06994979084 0.2629550397 0.9390897751
0.1103197336 -0.006872234866 0.8899985552 -0.1285238713 0.3805156648 0.9034669399
0.07697203755 0.01070117578 0.9504337311 0.3819510043 -0.7317457199 0.4921337962
0.08224954456 0.009087630548 0.9476702213 0.3724532127 -0.7033795118 0.4844000638
0.09039478749 0.01407380123 0.9513056278 0.008104491048 -0.7700591683 0.6186711788
0.07100613415 0.00831900537 0.9500591159 0.4089407921 -0.7463872433 0.4856676459
0.06784661859 0.01285476983 0.9534846544 0.5280457735 -0.7325993776 0.4264385998
0.07718987763 -0.01103869453 0.9266750216 0.6342781186 -0.1950827688 0.4161646664
0.0795089379 -0.02007904835 0.9206436276 0.5876221657 0.2360144556 0.4406515062
0.07639176399 -0.0161331892 0.9236969352 0.6411050558 0.07858857512 0.3835901618
0.07223526388 -0.02110329829 0.9214668274 0.7009116411 0.394900322 0.2773947418
0.07033640146 -0.01587354951 0.9250673056 0.7366701961 0.1536527872 0.2509514689
0.06419610232 -0.01775765605 0.9193591475 0.829069078 0.5139766335 0.1830003262
0.06523300707 -0.02297639474 0.9210827351 0.7867689133 0.5526823401 0.1654389799
0.07614408433 -0.02651482634 0.9169672728 0.6184654832 0.5885068774 0.3790391684
0.08774196357 -0.03027392551 0.9125377536 0.4396316707 0.6271390915 0.6068204641
0.1316525787 0.02553979121 0.8827213645 -0.6658593416 0.4185655117 0.562374413
0.1317466795 0.02946260385 0.8765639067 -0.7257948518 0.3198483288 0.5505721569
0.1310580224 0.01358883455 0.8872932196 -0.5681194067 0.5211902261 0.6330865026
0.131287232 0.01912941039 0.8830343485 -0.6262280345 0.4437376261 0.6055446863
0.1319494247 0.04278251529 0.868776679 -0.8476028442 0.1716791093 0.4801099598
0.124756746 0.02459032089 0.8858499527 -0.5921633244 0.5727912784 0.5533014536
0.1309999079 0.03772993386 0.8751006126 -0.772166729 0.2737998068 0.5118657351
0.1319465339 0.02607465349 0.8921787739 -0.6409261823 0.5027158856 0.5485131145
0.1321840435 0.03453209251 0.8814216256 -0.7451927066 0.3410886228 0.5123935342
0.1320363134 0.02985453047 0.8868121505 -0.6887746453 0.4260703921 0.5327855349
0.1196186468 0.02938195504 0.8748972416 -0.5814422369 0.5320545435 0.536475122
0.1211975813 0.02616688609 0.8801089525 -0.5788795352 0.5763680339 0.5403901935
0.1309617907 0.0364013426 0.8689562082 -0.7791921496 0.2633785009 0.5159728527
0.1283521056 0.03243181854 0.8649406433 -0.7059115171 0.3822085857 0.5402892232
0.126231119 0.02613688633 0.8638910651 -0.6192310452 0.5104652643 0.5763840675
0.1294336468 0.01933854446 0.877237916 -0.6060194373 0.4851063192 0.6086495519
0.1292655468 0.02449128777 0.873077333 -0.6491003633 0.4369293153 0.5814321041
0.1262471378 0.03173888475 0.8598917723 -0.668977797 0.452157259 0.5465505123
0.07187966257 0.001375376596 0.9375566244 0.7399104834 -0.5950360894 0.3104339838
0.06502818316 0.005505792331 0.9481095076 0.6523479819 -0.6526083946 0.3651015162
0.07774478942 0.008517240174 0.9439939857 0.7690716386 -0.5777788758 0.2689614594
0.07930275798 0.01576705463 0.9494644403 0.7972788215 -0.5592080355 0.2251569033
0.007820984349 -0.01986400038 0.9765007496 -0.3899306655 -0.2173446417 0.8947415948
0.01526525337 -0.02309383452 0.9831185341 -0.3912478387 -0.2317057401 0.8904160857
0.0202093441 -0.02370764315 0.9874011278 -0.392218709 -0.2422908545 0.8872278929
0.01416591834 -0.02273040637 0.9773748517 -0.3908831477 -0.2277294397 0.8916137218
0.02795337886 -0.009394850582 0.972823441 -0.2331431508 -0.3342052996 0.805003643
0.02321440168 -0.01037130225 0.9781630635 -0.3763440847 -0.2599214613 0.8762223125
0.054590635 0.0003078781592 0.9521638751 0.4181699753 -0.6720664501 0.4810838103
0.03806849569 -0.008171629161 0.9679666162 -0.0153802596 -0.4471672773 0.6967028975
0.03362238407 -0.01018699724 0.9720221162 -0.1306329817 -0.3873812556 0.7540219426
0.04059959948 -0.00501849968 0.9631646276 0.075142093 -0.4941247106 0.6516830921
0.02597900108 -0.01500307396 0.9797917008 -0.3331006169 -0.2823535204 0.8547158837
0.04911630973 -0.002803277224 0.957585454 0.2734469771 -0.5969930887 0.5530593991
0.1088054255 0.02790569142 0.8543553948 -0.4088995457 0.5780829787 0.6590160131
0.1100503728 0.02381575294 0.8603513837 -0.4157100618 0.5790778399 0.6590110064
0.1068328917 0.01757024229 0.8668554425 -0.291449815 0.5010633469 0.7499617934
0.09574078768 0.01845781133 0.8562816381 -0.2208964378 0.6496549249 0.696187079
0.1013392061 0.01948776841 0.8600928187 -0.2696591318 0.6098041534 0.6973879933
0.1015949473 0.01144109666 0.870780468 -0.1651767641 0.4408295155 0.8337705135
0.1041959226 0.007968645543 0.8776832819 -0.1357408613 0.3407187462 0.9008769393
0.09816271067 0.01466160826 0.8634403348 -0.186066851 0.5448127389 0.768153429
0.09831644595 0.02427984774 0.8527852893 -0.2969309092 0.686406672 0.6526924372
0.1040349752 0.0301865451 0.8517695069 -0.3422790468 0.4872450829 0.7443186641
0.09560392797 0.03403262794 0.846635282 -0.2027003765 0.2519389391 0.9453163743
0.1016053036 0.03432869539 0.8479748368 -0.2779747546 0.2193347365 0.9329675436
0.1012592167 0.06597134471 0.8534510732 -0.3170460463 -0.2662080526 0.9070489407
0.09495233744 0.06546895206 0.8520150781 -0.201058954 -0.2398297936 0.9415932894
0.09731433541 0.07014738023 0.8543219566 -0.2748835683 -0.2407732606 0.926363349
0.123906903 0.05981043354 0.860973835 -0.5240389109 -0.22857894 0.8142263293
0.114628002 0.07028520107 0.8624328971 -0.4961904585 -0.2723677754 0.8183943033
0.1155784205 0.05946984142 0.8587458134 -0.4644950628 -0.2081763148 0.850366354
0.1086503938 0.06665655971 0.8579793572 -0.4156123698 -0.2761846483 0.8606208563
0.106443949 0.07463265955 0.8610534668 -0.4297298491 -0.3059463799 0.8485589027
0.1065890864 0.06238850579 0.8540135622 -0.3676292002 -0.2872925401 0.8809376955
0.1146273464 0.06496623158 0.8612717986 -0.4813242257 -0.2239373028 0.8396196961
0.1110913083 0.05435172096 0.855548501 -0.3969972432 -0.1747484803 0.8542663455
0.1105265021 0.04826327413 0.8595979214 -0.3986533582 -0.001237910823 0.7955093384
0.115049839 0.03238403797 0.8715800643 -0.4632296562 0.4404773414 0.6444547176
0.1154290587 0.03789156303 0.8678857684 -0.4604082108 0.283759594 0.6975573897
0.1202206165 0.04325298592 0.8653373122 -0.5021017194 0.123221904 0.7508659363
0.1175544858 0.04809277877 0.8613802791 -0.4694819748 -0.009084976278 0.7964354753
0.1120904833 0.04285268858 0.8636860251 -0.4208850265 0.1492282897 0.7440482378
0.0457517989 0.05264100432 0.8568578362 0.6688744426 -0.03890926391 0.7386459708
0.05095855892 0.05585321039 0.858330071 0.5306358337 -0.1281792521 0.786616981
0.06696198881 0.08176359534 0.8601435423 0.3346429765 -0.232559219 0.891053915
0.07304542512 0.08039693534 0.8578989506 0.1981905252 -0.1693018377 0.9311060905
0.07501605898 0.07515686005 0.8559077382 0.1581310928 -0.2356997281 0.9196181893
0.0717940256 0.09366965294 0.8546934724 0.2729559839 -0.1022704169 0.9502357841
0.06816294789 0.07572038472 0.8572974205 0.2963812053 -0.2984880805 0.8868477941
0.06069073454 0.05113794655 0.8464741707 0.3459171951 -0.06476447731 0.9255675673
0.06033839285 0.03687728196 0.849760294 0.367423445 0.1872864962 0.8995919824
0.03904994205 0.07981607318 0.8630333543 0.5616766214 0.1895224005 0.6897730827
0.0373134762 0.07545050979 0.8669109344 0.7755527496 -0.01615557633 0.5717902184
0.04163869098 0.07251682878 0.861571908 0.5867829919 -0.01173893083 0.7200313807
0.03834602609 0.06503338367 0.8664634228 0.7775393128 -0.1687433869 0.5997534394
0.03780339658 0.05863083526 0.8668520451 0.7694942355 -0.143557325 0.6196790338
0.04655880854 0.06454991549 0.8560635448 0.5926660895 -0.266793251 0.757502079
0.04293821007 0.06369548291 0.8611480594 0.6815015674 -0.1890834868 0.701583147
0.04986033589 0.0648797527 0.863435328 0.5604203939 -0.1868769974 0.7687875032
0.04260676727 0.05647096038 0.8623859286 0.705612123 -0.07050384581 0.7006687522
0.04597932473 0.07700235397 0.8774451613 0.6202817559 -0.2122161537 0.7468841672
0.04856031016 0.06942899525 0.8685564995 0.5799483657 -0.1979396492 0.761877954
0.0543470718 0.06222070381 0.8571937084 0.479039818 -0.2174324393 0.8040451407
0.05511400104 0.06937406957 0.862796247 0.4569713771 -0.2627525926 0.8167284727
0.05395400152 0.07339715213 0.8673340678 0.474434793 -0.2724330425 0.8105315566
0.04342263937 0.06634027511 0.8703266978 0.6797125936 -0.1306245029 0.7161384225
0.06069305912 0.06647720933 0.8553940654 0.3553389907 -0.3029054701 0.8609282374
0.04665987566 0.07231676579 0.872744441 0.612529695 -0.1942812502 0.7484852076
0.1096004173 0.05023377389 0.8478562832 -0.3986454904 -0.05087316036 0.9042676687
0.09570689499 0.04973965511 0.8444642425 -0.1944129467 -0.05401434749 0.969424963
0.1041787043 0.04680080339 0.8468006849 -0.3233212233 0.04368348792 0.9389693737
0.1101942435 0.04318472743 0.8486113548 -0.3933137059 0.088658005 0.9137299061
0.1073433757 0.03763877973 0.848544836 -0.3480207622 0.1664550006 0.920866847
0.09684689343 0.04019506276 0.8456445336 -0.2119913101 0.1473421007 0.9610970616
0.09230671078 0.07808478177 0.8470785618 -0.1400316656 -0.1493563652 0.9733837843
0.09033559263 0.08356034011 0.8468888402 -0.1119858921 -0.1135010645 0.9818312526
0.09407038242 0.0685088858 0.8473557234 -0.1540298909 -0.2102762759 0.9628056884
0.08640249074 0.07846427709 0.8467860222 -0.03893201798 -0.1366452426 0.9871406555
0.08917488158 0.07314130664 0.847022593 -0.07849625498 -0.1734947115 0.977112174
0.09383431822 0.08972588181 0.8484842777 -0.2548069656 -0.1882212907 0.9398877621
0.07757400721 0.0844470486 0.8480118513 0.1900887638 -0.1392717808 0.9705066681
0.09540332854 -0.02678934112 0.9061173797 0.2119029909 0.6430568695 0.7142369747
0.09244088084 -0.0204218179 0.9143279791 0.2507013679 0.3887256086 0.7024301291
0.08683674037 -0.006985570304 0.9311914444 0.2120866477 -0.1972006559 0.6533454061
0.09269116074 -0.02593195066 0.9109300375 0.3195449114 0.5554209948 0.6951226592
0.08277764171 0.000304694724 0.9402406216 0.2319693118 -0.5318277478 0.6034550071
0.08730998635 -0.01285829209 0.9267604351 0.2836738825 -0.007228478789 0.6459600925
0.08126156777 -0.007274474017 0.9307632446 0.4374070168 -0.2834210992 0.5269061327
0.08851216733 -0.01658863947 0.9229059815 0.3018298149 0.1403713226 0.6559913754
0.08201186359 0.004401866812 0.9441497922 0.1927563846 -0.6807645559 0.6031330228
0.08544565737 -0.002396127442 0.9355992675 0.1889065355 -0.3736628592 0.6412300467
0.08659371734 -0.01617485099 0.9169074893 0.4202973545 0.161868453 0.5816277266
0.08585292101 -0.02177206986 0.9175009131 0.4844069481 0.2688122094 0.5715863705
0.07724183053 -0.0005053658388 0.8910931945 0.4022692442 0.4041611552 0.8211753964
0.07608056068 0.002569010481 0.8865321875 0.4076958001 0.3540598452 0.8384749889
0.05471347272 0.02244539931 0.8643552661 0.4965789318 0.2432704419 0.8301708698
0.0644672215 0.02032437734 0.8588528633 0.3215585053 0.4066099524 0.8041881323
0.06601350754 0.01186843961 0.8735262752 0.4261688292 0.3419904411 0.8211834431
0.07085327804 0.01729235612 0.8588167429 0.2375878245 0.4888341725 0.7935720682
0.06244067103 0.01535372809 0.8701450229 0.4442021549 0.3155713081 0.8225899339
0.06596784294 0.01709205285 0.8636355996 0.3425992131 0.3983470201 0.8080784678
0.07203891128 0.009271641262 0.872990191 0.3426689208 0.4224608839 0.8104980588
0.07726635039 0.003150212578 0.8798807263 0.3328221142 0.4499262571 0.8110300303
0.07507932186 0.01400313713 0.8612318039 0.2027747035 0.5292050838 0.7897970676
0.07089337707 0.006625436712 0.879062295 0.4093489647 0.3727901578 0.8204855323
0.07098512352 0.01369476411 0.865537405 0.2930522263 0.4518348873 0.8023100495
0.07649898529 0.01070396323 0.8662151694 0.2265836596 0.5187471509 0.7940887809
0.0671678111 -0.01375590917 0.908449173 0.6606595516 0.5321568251 0.4998799562
0.06833853573 -0.02389039472 0.914268434 0.715743959 0.6017490625 0.3378516138
0.06639310718 -0.01728994399 0.9129961729 0.7529824376 0.5283873081 0.3629075587
0.1118218899 0.02204330079 0.8805165887 -0.4396862388 0.677901566 0.5775058866
0.1192577332 0.05163835362 0.8532817364 -0.5225573778 -0.08119126409 0.8285568357
0.1224574149 0.0450893417 0.8549631238 -0.5721746683 0.08192279935 0.7721576691
0.123776719 0.0517773591 0.8578554392 -0.545396328 -0.08855418861 0.8175122738
0.121343255 0.03934054449 0.8537905812 -0.5728688836 0.2169795781 0.7586564422
0.1173003763 0.04421566054 0.8518421054 -0.5058197379 0.09494998306 0.8269964457
0.1137926802 0.03903514519 0.8503047228 -0.4422005117 0.1668851525 0.8670494556
0.1067977622 0.0270972345 0.8755891323 -0.3399070203 0.5583239794 0.6563776135
0.1058918163 0.04397073761 0.8625647426 -0.3348751366 0.1063343436 0.7840071917
0.1050484553 0.02095102146 0.8805783987 -0.3060486019 0.7118991613 0.6299412847
0.1052010134 0.05613170937 0.8531823754 -0.3305985332 -0.2196223885 0.8763568401
0.1132858917 0.02713141032 0.8747976422 -0.4512971342 0.5919387937 0.5940460563
0.1079401448 0.03275492042 0.8710515499 -0.3630429804 0.4144662023 0.6852249503
0.1259616017 0.04627219588 0.8645128012 -0.6176410913 0.04439871386 0.7088980079
0.1210023463 0.03439030796 0.8715015054 -0.5822012424 0.3899943829 0.5927195549
0.1256520301 0.03690545633 0.8569015861 -0.6408948898 0.2771258652 0.6947866678
0.1285306215 0.03962113708 0.8610652685 -0.7420321107 0.2306499779 0.5952544808
0.08050525934 0.07899786532 0.8482190371 0.09684163332 -0.1463154256 0.981680572
0.07602473348 0.0579354912 0.8445333242 0.09326479584 -0.2161942273 0.9701753259
0.08239619434 0.06925565004 0.8525286913 -0.008951383643 -0.2159525007 0.9671074152
0.07608881593 0.07017106563 0.8528865576 0.1140666232 -0.2509113848 0.945851624
0.07934635133 0.06428578496 0.8502864838 0.05123834684 -0.1781316251 0.9692327976
0.07147460431 0.05950284004 0.8486413956 0.1922267228 -0.1751208305 0.9487119317
0.06884890795 0.06444367766 0.8507298231 0.2255194783 -0.2666355073 0.9255761504
0.07409635931 0.06569401175 0.8469429016 0.1370230764 -0.2457795739 0.9577018023
0.07511180639 0.07448908687 0.8472916484 0.1723162383 -0.1997907758 0.9612249136
0.05630765483 0.0475146696 0.8481637239 0.4730731845 0.0431743674 0.8751773834
0.05182875693 0.05346754938 0.8508642912 0.5271330476 -0.08535304666 0.8409743905
0.04641057178 0.04606802016 0.8582750559 0.6182979941 0.05006902665 0.7694257498
0.05545139313 0.05521683022 0.8545920253 0.4561005533 -0.1170785204 0.8352156878
0.05225329101 0.04486844689 0.8512226343 0.5434654355 0.1019393653 0.832113564
0.06240096316 0.04444015026 0.846564889 0.3204157054 0.06707651913 0.9377474189
0.06171451882 0.05686723441 0.8505645394 0.3406361341 -0.1491142511 0.8952202201
0.05205624178 0.03889970481 0.8527824283 0.5323408842 0.1401120275 0.8298102617
0.09493222833 0.00417518476 0.881568253 0.05211895704 0.3068335652 0.943721652
0.09253361076 0.007363783196 0.868001163 -0.05821782351 0.5414159298 0.7992643118
0.08990599215 0.01691877842 0.8536629677 -0.1605723649 0.6944966912 0.6890522838
0.08806181699 0.01067874487 0.8633084297 -0.0515338406 0.6318789124 0.7368968725
0.09559785575 0.00729943905 0.8765292168 -0.009048767388 0.360353291 0.9044801593
0.09222635627 0.01440263167 0.8605523109 -0.121095866 0.5813246965 0.7607554793
0.09999147803 0.002679958241 0.8834016919 -0.01304265112 0.2888562679 0.952714622
0.06304159015 0.07682985812 0.8595879078 0.3875684738 -0.3091368973 0.8626493216
0.05177176744 0.07834385335 0.8722754121 0.5493266582 -0.2507091165 0.7829645276
0.05905967206 0.07422796637 0.862596333 0.4109288156 -0.2854527831 0.8474305868
0.04765994102 0.08137491345 0.8575327992 0.4008225799 -0.005550155416 0.7914488912
0.05272370949 0.09362018108 0.8547785282 0.2891118228 0.2832622826 0.8183775544
0.06670291722 0.09128062427 0.8508101702 0.2849793732 -0.06841149181 0.8963152766
0.05834215507 0.09090796858 0.8534522653 0.2966132164 0.09047224373 0.8516928554
0.05255737528 0.08548078686 0.8560641408 0.3313925266 0.05031236634 0.8266271353
0.06132454798 0.08221172541 0.8538485169 0.3381176293 -0.2225575596 0.877530992
0.05727729946 0.07808019221 0.8557265997 0.364180088 -0.2603664398 0.8603699207
0.07827689499 -0.03113242798 0.9105712175 0.4807419479 0.6255871654 0.6112855673
0.07368708402 -0.0106164841 0.8978067636 0.5136578679 0.4817415774 0.6819762588
0.06964270025 -0.01284434553 0.9035525918 0.5748564005 0.5317549109 0.6056980491
0.07026928663 -0.005845664069 0.9008811116 0.652371347 0.3661006093 0.6353796124
0.07399982959 -0.002604652662 0.8957517743 0.4897231758 0.3981060684 0.7566088438
0.06772056222 -0.006578029599 0.9070965052 0.7903968096 0.285503298 0.4946912527
0.06966730207 -0.003107910976 0.9152776599 0.8121017814 0.05782332644 0.3402464688
0.09576815367 -0.02118554525 0.9075375199 0.18382366 0.5011103749 0.7025741339
0.08418155462 -0.01112747099 0.9203659296 0.4426496923 -0.05555051938 0.5164170265
0.08376285434 -0.005506182555 0.9150013328 0.4139221907 -0.04108163714 0.5858460665
0.08788935095 -0.0003930952516 0.9006794691 0.2590760291 0.217678979 0.7799280882
0.08256870508 0.003146573668 0.9068984985 0.3880879581 -0.01995874755 0.6927300692
0.09029004723 -0.01386549417 0.912227571 0.2836615741 0.2123835087 0.6281775236
0.07314249128 -0.002272999147 0.9320470691 0.6981573701 -0.5517326593 0.3501256704
0.09436839819 -0.01138238516 0.9011796117 0.1485425681 0.4437714815 0.7786340714
0.07739825547 0.001722073066 0.9188215137 0.5473721027 -0.2969768047 0.5297192335
0.08691214025 0.004647519439 0.8965147138 0.2521597147 0.2156334221 0.834563911
0.08063619584 -0.007546357345 0.9236362576 0.5184625983 -0.2197680175 0.4683023095
0.09554223716 -0.01580377482 0.9042079449 0.1454619467 0.4617054462 0.7392899394
0.09082054347 -0.01024832763 0.9068086743 0.2431184202 0.2736938298 0.7007574439
0.08601340652 -0.004230888095 0.9090195894 0.3400217891 0.08570503443 0.6673442721
0.07900204509 -0.01208439562 0.8927644491 0.3687300384 0.5247399807 0.7613121867
0.0486657396 0.05806959048 0.8537775874 0.587395072 -0.1541556716 0.7878398299
0.04802574217 0.07184796035 0.8574045897 0.5241349339 -0.3393474519 0.779333055
0.05196290091 0.0675977394 0.8545744419 0.4794125557 -0.3309680521 0.8105190396
0.06150018051 0.07193214446 0.8521639705 0.382760942 -0.2696305811 0.8765128851
0.05635167658 0.07176597416 0.8546766043 0.4049388468 -0.3294925094 0.8504061699
0.07283598185 0.08494890481 0.8512166142 0.2870898545 -0.1898261607 0.9387728572
0.06625506282 0.07841770351 0.8518763781 0.3433326185 -0.2423154116 0.9000694156
0.07189673185 -0.02132268064 0.9073861837 0.6055381298 0.5843251944 0.5372952223
0.07352145761 -0.02761143632 0.9099398255 0.5654565096 0.605315268 0.5553332567
0.08119112998 -0.0251957681 0.9021641612 0.3885751069 0.6161459684 0.6752294898
0.0840312168 -0.03007381223 0.9077140689 0.419293493 0.6294014454 0.6496713758
0.08463231474 -0.01369730476 0.8907510638 0.2915527523 0.5259054303 0.7974893451
0.08251240849 -0.01861822233 0.8956236839 0.3369661272 0.5912306905 0.7298022509
0.07373263687 -0.01663577743 0.9010507464 0.5224517584 0.5717186332 0.6251544952
0.09272481501 -0.01588492282 0.8920584321 0.173104167 0.5811038017 0.7921903133
0.09935934842 -0.005245826207 0.8912489414 0.03834917396 0.3967362046 0.8952832222
0.0949729532 -0.007510865573 0.8960923553 0.1123043671 0.4727739692 0.8447532654
0.09184747934 0.004113855306 0.8901117444 0.1414666921 0.3302684724 0.916672051
0.1010905802 -0.01157971006 0.8944867253 0.02200893126 0.474108994 0.8563039899
0.0919495821 -0.0007394085987 0.8934942484 0.1484663635 0.4013863504 0.87785393
0.0973257944 0.0007742816233 0.8884572983 0.06006699055 0.3269465864 0.9294944406
0.1000076607 -0.01584506221 0.8983228207 0.04685523361 0.547943294 0.8136159778
0.09945699573 -0.01689613424 0.8923525214 0.05329159647 0.5906012654 0.8002729416
0.1026627943 -0.01222540718 0.8890602589 0.002567393705 0.4478848875 0.8904418349
0.09115260839 -0.02088475041 0.896535635 0.2168700844 0.6263225079 0.7448574305
0.09554965794 -0.02329401858 0.8992905617 0.171492666 0.6346083283 0.7411435246
0.1030022651 -0.0216999054 0.8974370956 0.00714906631 0.6243810058 0.7806871533
0.09040723741 -0.02500325814 0.9011826515 0.2806476355 0.6332579255 0.7125561237
0.0820800513 -0.004048756789 0.8881819844 0.3316802084 0.4229792356 0.8412204981
0.08676791936 -0.00758579094 0.8876860142 0.2357043028 0.4366403818 0.8612800837
0.09203015268 -0.00492688315 0.886267662 0.1355618984 0.3837225139 0.9074706435
0.09172776341 -0.01069592312 0.8886139989 0.1699637622 0.4441737831 0.8738482594
0.08911405504 -0.001405833405 0.8817245364 0.139190495 0.4455648661 0.858941257
0.08641603589 0.002912383061 0.8754787445 0.1171529889 0.5261985064 0.7996761203
0.08352851868 -0.0003920730087 0.8805075884 0.246105805 0.4620659351 0.8427090049
0.08099209517 0.004724582657 0.8733064532 0.2233845443 0.5053845048 0.8153707385
0.08296754211 0.008232345805 0.8669461012 0.1090878919 0.5807816386 0.7728149295
0.08168936521 0.01247279905 0.8599875569 0.07157675922 0.6189010143 0.7581009865
0.08069703728 0.0157259386 0.8546450138 0.04315300658 0.6478984952 0.74705863
