# .PCD v0.7 - Point Cloud Data file format
VERSION 0.7
FIELDS x y z normal_x normal_y normal_z
SIZE 4 4 4 4 4 4
TYPE F F F F F F
COUNT 1 1 1 1 1 1
WIDTH 512
HEIGHT 1
VIEWPOINT 0 0 0 1 0 0 0
POINTS 512
DATA ascii
-0.01821608655 -0.05409975722 1.062795877 0.6371676922 0.2203359157 0.7375763059
-0.01873735897 -0.04804987088 1.066116095 0.653546989 0.2205826789 0.723942697
-0.01176366676 -0.05675894767 1.062332392 0.6334451437 0.2202798277 0.7406749129
-0.007140514906 -0.06608235091 1.056708813 0.6034830809 0.2198284417 0.76561445
-0.2158663124 -0.09434110671 1.02150476 0.3615682125 0.3774449229 0.8523921371
-0.01093242597 -0.05848678946 1.068315387 0.6546930075 0.2205999494 0.7229887843
-0.0112986248 -0.06405235827 1.068652391 0.6546930075 0.2205999494 0.7229887843
-0.00680949958 -0.06210341305 1.061550498 0.6287370324 0.2202088982 0.7445937991
-0.007075980771 -0.06670223922 1.064961791 0.6380195022 0.2203487456 0.7368673086
-0.006113614421 -0.07247010618 1.063071251 0.5955615044 0.2197090983 0.7722081542
-0.02734469995 -0.1263913363 1.082510352 0.1736491919 0.04502408579 0.9833673239
-0.03232849762 -0.1298402995 1.085886478 0.1652581543 0.009263948537 0.9859313369
-0.2262799442 -0.0862005204 1.029539347 0.3726730049 0.3686970174 0.8515700698
-0.1131381392 0.001948072226 0.9847009182 -0.2466877103 -0.08951216191 0.9647817016
-0.1180982217 -0.001817743061 0.9812507629 -0.2355947495 -0.08151577413 0.9682153463
-0.1075750813 -0.0008429644513 0.9863786101 -0.2681753039 -0.06660186499 0.9609182477
-0.1126343533 -0.00449512247 0.9848996997 -0.2737183869 -0.06442334503 0.9596017003
-0.01106098201 -0.09659126401 1.080544949 0.5262255073 0.09701898694 0.8324201107
-0.01873668656 -0.1152544916 1.078237772 0.1972321272 0.09749958664 0.9743854403
-0.2154127508 -0.061694704 1.011578441 0.3697682619 0.2647066414 0.8902204633
-0.2220252305 -0.07075832039 1.015459538 0.3765394092 0.3130861819 0.8716234565
-0.217507422 -0.06725584716 1.014536142 0.3474171758 0.2913329899 0.8907766342
-0.2154629976 -0.07239954174 1.016016841 0.3639927506 0.3243851364 0.872358501
-0.2161718309 -0.0865393579 1.018346786 0.3664029539 0.3681707084 0.8541898131
-0.2216264158 -0.0759293437 1.017633319 0.3752462566 0.3418723047 0.8615394831
-0.2211033255 -0.08432847261 1.021178007 0.3733484149 0.3571166992 0.8560313582
-0.2207060903 -0.09051621705 1.023778915 0.3719311953 0.3683586419 0.851976335
-0.04368523508 -0.1332662702 1.087074995 0.1056504175 -0.02068977244 0.9937008619
-0.1674814671 -0.03925222158 0.9762290716 0.2282538265 -0.03131647781 0.967233777
-0.2084593326 -0.0652230829 1.011244774 0.2798968256 0.3119926155 0.9067709446
-0.1744205952 -0.04724949226 0.9795260429 0.4296675324 0.09296938777 0.8947789073
-0.1240171716 0.004568739329 0.9871408939 -0.2015681565 -0.1436866373 0.9685435295
-0.117486313 0.007760553155 0.9916404486 -0.2355107665 -0.1081467494 0.9655609727
-0.01345490851 -0.07929031551 1.064466476 0.5489658713 0.1619034857 0.8153419495
-0.02379871532 -0.08412061632 1.076693535 0.5591419339 0.1403815597 0.8169711828
-0.2077593654 -0.05968805403 1.008279324 0.3071753979 0.3019739091 0.9001125097
-0.1791811734 -0.03794694692 0.982249558 0.4918925166 0.04840992391 0.8602311611
-0.1782703251 -0.04348959029 0.9823911786 0.5049026608 0.1177299991 0.8503144383
-0.1856505573 -0.03583675995 0.9882045984 0.5731575489 0.04605469853 0.8049595356
-0.1826631576 -0.04338355362 0.9865425229 0.6052682996 0.1204033419 0.7833178639
-0.1821659803 -0.03331746906 0.9842669368 0.5254319906 -0.005180410109 0.8386794329
-0.1756434292 -0.03557400778 0.9774553776 0.3974078596 -0.0363442935 0.9126669168
-0.173025921 -0.04102196917 0.9770187736 0.3592291474 -0.01260196324 0.9310554266
-0.2033689618 -0.04926203564 1.007436156 0.3413839936 0.3216569722 0.8824958205
-0.1978372186 -0.04967748001 1.005705237 0.4018846154 0.3069422543 0.8569757938
-0.05362603068 -0.1293274611 1.087400794 0.04743699729 -0.01210300531 0.9972035885
-0.06064097583 -0.1425292492 1.089500427 -0.05532601476 -0.06836360693 0.9952644706
-0.05113941431 -0.1438038051 1.087116241 -0.06499851495 0.009502793662 0.9967755675
-0.05308073759 -0.1377817094 1.087000012 -0.03652892634 0.01688078791 0.9985531569
-0.01761780493 -0.06577541679 1.074716091 0.6242320538 0.2176405936 0.7462110519
-0.01557992771 -0.0573082231 1.072074294 0.6341001391 0.2201665193 0.7382181883
-0.1153626293 -0.003297907533 0.9911633134 -0.2606994808 -0.08452650905 0.9599704146
-0.1144096106 0.00233119633 0.9940786958 -0.2349416167 -0.09043938667 0.9665964246
-0.1059838533 -0.004968249705 0.9947559237 -0.2717329264 -0.05916790292 0.9600297809
-0.08669617772 -0.1604336202 1.073548317 0.1856475919 -0.4269477725 0.8850144744
-0.07954375446 -0.1581468433 1.076100707 0.1856475919 -0.4269477725 0.8850144744
-0.1385946125 -0.02070875838 0.977735579 -0.1270174831 -0.02017616294 0.9822485447
-0.1285398453 -0.006956860423 0.9780000448 -0.1844545305 -0.1027292088 0.9730173349
-0.1326704025 -0.01473753434 0.9780000448 -0.1692385674 -0.04430630058 0.9758371711
-0.16882433 -0.04227960855 0.9895832539 0.3242229521 0.06618602574 0.8868064284
-0.1712903529 -0.04655978829 0.9934582114 0.3307927251 0.1387025416 0.8727126718
-0.1787714511 -0.05615042523 1.003621101 0.3807772994 0.3156238794 0.827244997
-0.1751751602 -0.0396117717 0.9931389093 0.4623732567 0.07920514047 0.8395715952
-0.167259872 -0.05115336552 0.9925625324 0.2174338996 0.1672470421 0.9050070643
-0.1631307751 -0.04460570589 0.9863647819 0.2009515166 0.0536813736 0.9291003346
-0.157975167 -0.04833099619 0.9842100739 0.07499149442 0.06290302426 0.9686916471
-0.1774906665 -0.05034478009 0.9999275804 0.4090890884 0.2324970365 0.8317025304
-0.1738951653 -0.05509850383 0.9994363189 0.3021561205 0.2662842274 0.8610357642
-0.1759964824 -0.06175380945 1.004149675 0.2811175585 0.3662493527 0.8514297009
-0.1627449095 -0.05020987615 0.988702178 0.1443685591 0.1219503507 0.9363182783
-0.1512669623 -0.04793991148 0.9786126018 -0.05569050834 0.04571527988 0.9922541976
-0.1303377301 0.006392870098 0.9903337359 -0.149632439 -0.1569816023 0.970482111
-0.1359554231 0.00520522194 0.9891195297 -0.1099640578 -0.1790679842 0.9706037045
-0.1501983106 0.002286994131 0.9871562123 -0.01462583616 -0.2224232703 0.9724453092
-0.1546616256 -0.0004506576224 0.9853923917 0.03073033877 -0.209997192 0.9744648933
-0.1411852241 -0.03673902526 0.9780000448 -0.1757531166 0.06145477667 0.9823303819
-0.1372456849 -0.02825753018 0.9780001044 -0.1817135811 0.06717968732 0.9807729125
-0.2110463828 -0.07602247596 1.013765574 0.3161681294 0.3532755077 0.877774179
-0.2071820945 -0.06950740516 1.008295655 0.269441545 0.3253720403 0.9037718773
-0.01919573173 -0.07970757782 1.084445477 0.5604163408 0.1523330063 0.809730947
-0.01201146189 -0.08321340382 1.077174067 0.6192077398 0.1342441887 0.7704677582
-0.01203489024 -0.06955496222 1.070811629 0.6258916259 0.2107743174 0.7494529486
-0.02157265693 -0.06990582496 1.083090663 0.562431097 0.2037357241 0.7962685227
-0.009709011763 -0.07515577972 1.071653724 0.5830234289 0.1980369687 0.7873576283
-0.01716700755 -0.07037688792 1.0778054 0.5857537389 0.2054363042 0.7797603607
-0.01389458682 -0.07841039449 1.077956438 0.5939616561 0.1656350493 0.783005476
-0.01814129576 -0.0747878179 1.081775784 0.5529558063 0.1874685585 0.8088743687
-0.01259111799 -0.1025021374 1.078819036 0.4312765002 0.09414231032 0.8726373911
-0.01587207615 -0.1088036448 1.077796936 0.3179731369 0.08863533288 0.9247382283
-0.02492781542 -0.109970212 1.08381176 0.2046163082 0.1084649488 0.9726338387
-0.01972637884 -0.112361528 1.084010124 0.1960449666 0.1231197417 0.9727630019
-0.02186075412 -0.1042209193 1.082617044 0.2913994789 0.1107462421 0.9368596077
-0.03034498729 -0.113333106 1.085816383 0.1829583645 0.09166735411 0.9783366919
-0.03020826355 -0.1079964861 1.082442522 0.1993269473 0.1001965553 0.9714312553
-0.02631472424 -0.1012621298 1.079995036 0.3260926008 0.09589449316 0.9251452088
-0.02138832957 -0.1102795154 1.077958703 0.2488882095 0.09272359312 0.9553024769
-0.02006329969 -0.1044011489 1.077000022 0.3406921029 0.08931690454 0.9218709469
-0.1957115233 -0.04100849107 0.999127686 0.585351944 0.1652289331 0.7784382701
-0.1971986145 -0.04672441632 1.001015663 0.5190076828 0.2016732842 0.8079925776
-0.0647302568 -0.1537246257 1.082733989 0.05666473508 -0.2457530797 0.9472891688
-0.0703182444 -0.1541792601 1.080361843 0.09734671563 -0.2969450951 0.9217271805
-0.05769358948 -0.1518575698 1.08569622 -0.008095640689 -0.1556587666 0.9794316292
-0.06512018293 -0.1527055651 1.089900017 0.2142062783 -0.507050693 0.7887696624
-0.02079840377 -0.06695313752 1.069982886 0.6038447618 0.1939955354 0.771204412
-0.01642444544 -0.0702817589 1.065985799 0.5901334286 0.1964117438 0.7820193768
-0.02226334997 -0.05847011879 1.068835735 0.633712709 0.2084145099 0.7431582808
-0.01493423805 -0.06471911818 1.062364697 0.6084343195 0.2110753953 0.7635058761
-0.01757639088 -0.05939572304 1.063661575 0.6280806065 0.2164623737 0.7459920645
-0.0231274236 -0.07305401564 1.07476747 0.5841372609 0.1764368117 0.7915440202
-0.01965931244 -0.07409989089 1.070946097 0.5793198943 0.1811655313 0.7943202853
-0.01995674148 -0.07971917093 1.071568727 0.5685308576 0.1621195674 0.8056390285
-0.1065766513 0.004847129341 0.9861899018 -0.2594770193 -0.08472709358 0.9620038271
-0.1122589409 0.00649919454 0.9894456863 -0.2501958609 -0.09538047761 0.9634142518
-0.1272665113 -0.01387680974 0.9791063666 -0.2210654914 -0.01009834837 0.9714716077
-0.1252178252 -0.01829010062 0.9833957553 -0.238571018 0.01337542944 0.9692362547
-0.1162501201 -0.0183603745 0.9857778549 -0.314835906 -0.02862980776 0.9469065666
-0.1221741438 -0.02346652746 0.9844676256 -0.2774662375 0.0674957335 0.9557541013
-0.1182429269 -0.009043693542 0.9827908874 -0.2745365798 -0.07056841254 0.9581543207
-0.1235940531 -0.006744464394 0.9869499207 -0.2287702709 -0.06279363483 0.9698752165
-0.1207242683 -0.01513657998 0.9845117927 -0.271597892 -0.04588389397 0.9598863721
-0.1291391701 -0.01070790365 0.9849947691 -0.1836547852 -0.04700400308 0.9802340269
-0.1240386739 -0.001612417982 0.9887875915 -0.2144130021 -0.07986628264 0.9722015262
-0.1723928303 -0.01887730882 0.9776933789 0.2437056452 -0.164753288 0.9524640441
-0.164653942 -0.03002975509 0.9767730832 0.1294271946 -0.08903434128 0.984181881
-0.1699540466 -0.0305180829 0.9766089916 0.2467424423 -0.07607788593 0.9534958005
-0.1807425171 -0.06721421331 1.00961709 0.3015155792 0.4660300612 0.8303662539
-0.1884423196 -0.05631617084 1.003160357 0.4481780529 0.3572067618 0.8174776435
-0.2013914138 -0.05764350668 1.010210752 0.2443536222 0.3356352746 0.9086698294
-0.1968984902 -0.06496073306 1.010057926 0.229183346 0.3611505926 0.9020445943
-0.1907299012 -0.06712835282 1.010023952 0.2110278308 0.3884708285 0.8950988054
-0.1970240176 -0.05528388545 1.007450819 0.3487528265 0.3460331261 0.8657901883
-0.1915919185 -0.06050213799 1.009544373 0.2918987572 0.396012634 0.8649697304
-0.1689452678 -0.04954111576 0.9766718149 0.3058399558 0.04115494341 0.9435712099
-0.1602047086 -0.05054220185 0.977001965 0.1154078171 0.0261378251 0.9871590734
-0.1683870107 -0.05763162673 0.9830263853 0.4125782251 0.296202749 0.859310925
-0.1650499403 -0.05414923653 0.97869277 0.3045526743 0.132032305 0.9279646873
-0.163678959 -0.04495774955 0.974969089 0.1393788755 -0.005510896444 0.9885252714
-0.1562878489 -0.04512720928 0.9770190716 -0.01498722658 0.03406637907 0.9987903833
-0.1820166111 -0.02738596499 0.9832764864 0.4786368012 -0.07603181899 0.869497776
-0.1798825264 -0.03067582101 0.9910315871 0.5530978441 -0.003487041919 0.8209832907
-0.1907818764 -0.03579719365 0.9951425195 0.6246462464 0.08646331728 0.7663513422
-0.17728737 -0.02052270621 0.9838193059 0.3712164164 -0.121931985 0.9030590653
-0.1874826699 -0.03095176071 0.9915989041 0.5421852469 0.02344684489 0.8083640337
-0.1779512614 -0.01928172074 0.978090167 0.3749223053 -0.1417758167 0.9100852013
-0.1663621068 -0.02008670196 0.9778949618 0.1497427076 -0.1515495777 0.9697672129
-0.1584898382 -0.0206934493 0.9775500298 0.06529324502 -0.1379112452 0.9859361649
-0.1701245308 -0.018809475 0.9872067571 0.3210154176 -0.07798951119 0.9096115828
-0.1738648713 -0.02361040562 0.9888299704 0.4276896119 -0.04921133444 0.8711158633
-0.1724835187 -0.01574754715 0.9827107191 0.2869515717 -0.1482886523 0.9361994863
-0.1675436497 -0.01218229905 0.9851213694 0.2184650451 -0.1176391393 0.9488319159
-0.1462500542 -0.03959530592 0.9810782671 -0.1493145674 0.05249303952 0.9864107966
-0.1385552734 -0.01632132195 0.982306242 -0.09773477167 -0.05468007177 0.9910081625
-0.1439379007 -0.02153161168 0.9812598228 -0.08967854083 -0.04401293769 0.9918956757
-0.1558212787 -0.02650384046 0.9773111343 0.02437441051 -0.1043875515 0.9931618571
-0.1592808962 -0.03306754678 0.9766684175 0.04924105853 -0.06152443588 0.9923074245
-0.1527810693 -0.01973980665 0.9771997333 0.0254007075 -0.1322812438 0.990092814
-0.1498506367 -0.02738017403 0.9776428342 -0.05996173993 -0.05366165936 0.9933135509
-0.1961889565 -0.1055930778 1.020382285 0.06464029849 0.3203302026 0.9413260221
-0.2222426683 -0.09420051426 1.030893087 0.337456882 0.3628931046 0.8632337451
-0.2068028748 -0.1059586778 1.024014831 0.1901509166 0.313870132 0.915754199
-0.2162433863 -0.0992217809 1.028705001 0.263037324 0.333493799 0.8895691037
-0.2107319832 -0.09733463079 1.025651455 0.3006068766 0.3571632206 0.8818364143
-0.2068868577 -0.09720438719 1.019000053 0.2788112462 0.3663801551 0.8758563995
-0.1990073174 -0.09892777354 1.019000053 0.1773399413 0.3414159417 0.9093241692
-0.1830055565 -0.06177342683 1.006402254 0.3679822385 0.4062066078 0.8238451481
-0.179674685 -0.03637113422 0.9939594269 0.5585228205 0.06710987538 0.8127396703
-0.1814610809 -0.04407728463 0.997647047 0.5060437322 0.1730585396 0.8154825568
-0.1843407303 -0.0485826619 0.999597013 0.4879546463 0.2422830015 0.8156053424
-0.1926740259 -0.05264801532 1.003687263 0.449908644 0.3304407895 0.8289846778
-0.005062635522 -0.07215023786 1.057664752 0.5872284174 0.214923352 0.7798901796
-0.00875411462 -0.07700754702 1.061228037 0.5798413754 0.1820863336 0.7912763953
-0.01918596402 -0.08878602087 1.073760748 0.5169012547 0.1077518389 0.8468590975
-0.01538491156 -0.08349429071 1.068196177 0.5399788022 0.1386688799 0.8257407546
-0.01458720025 -0.09247881919 1.07317698 0.5230484009 0.09670722485 0.840816915
-0.007320037112 -0.07949629426 1.066304922 0.6066012383 0.164890185 0.7724880576
-0.01105240732 -0.0888454318 1.071451902 0.5360338688 0.1130918935 0.82427001
-0.008401572704 -0.08288452774 1.070483804 0.6193264723 0.1415196359 0.7668281198
-0.009241111577 -0.08849459887 1.076899648 0.6162490249 0.1128723174 0.777949214
-0.02258500457 -0.09087421 1.077372909 0.499743402 0.09451840818 0.8593853712
-0.026997298 -0.08803128451 1.080474973 0.4700411856 0.1048457846 0.8728098273
-0.04387658462 -0.126736939 1.086936831 0.1519162804 -0.01324306056 0.9880979657
-0.1002848968 -0.1614890546 1.089915395 0.1856475919 -0.4269477725 0.8850144744
-0.09748288244 0.00322742993 0.9924626946 -0.2715287209 -0.05581339821 0.9606730938
-0.106849432 0.005783985835 0.9920753241 -0.2577284873 -0.07937763631 0.9625138044
-0.1011988074 -0.0009489339427 0.9958955646 -0.2740221918 -0.05155574158 0.9603404999
-0.01521749515 -0.05043126643 1.070053935 0.6554921865 0.2156140357 0.7236465216
-0.02115778998 -0.05172328278 1.069557786 0.657263279 0.2045643032 0.725104332
-0.02445312776 -0.06165160984 1.077632904 0.5648203492 0.2042688727 0.7930586338
-0.02297776192 -0.05707434937 1.073796034 0.6378914714 0.1906874627 0.7427930236
-0.09612514824 -0.006294238847 0.9935889244 -0.278911978 -0.04534723237 0.9592034817
-0.09892971814 -0.0162982028 0.9894881845 -0.2753447294 -0.0278524179 0.9609069824
-0.09564208984 -0.0007116234046 0.9884198904 -0.2740142941 -0.04523177817 0.9605937004
-0.09694031626 -0.01044704206 0.9888718128 -0.2740003467 -0.03406364471 0.9610408545
-0.09061361849 0.00356948073 0.9892259836 -0.2740221918 -0.05155574158 0.9603404999
-0.1006806418 0.0003583015059 0.9877538085 -0.2740214169 -0.05093166605 0.9603654742
-0.102979742 -0.0107946014 0.988167882 -0.2740056515 -0.0383085683 0.960870862
-0.06671041995 -0.1445008963 1.088239431 0.03706033528 -0.214738667 0.9458972812
-0.06965973973 -0.1487684697 1.081903577 0.04042521864 -0.212207377 0.9354740977
-0.08072383702 -0.157656461 1.082017779 0.1856475919 -0.4269477725 0.8850144744
-0.08950746804 -0.160167858 1.083947062 0.1856475919 -0.4269477725 0.8850144744
-0.07862095535 -0.1519978642 1.083791852 0.1856475919 -0.4269477725 0.8850144744
-0.08611649275 -0.1543437093 1.084073067 0.1856475919 -0.4269477725 0.8850144744
-0.1553940624 -0.01736748032 0.9819698334 0.03847541288 -0.1440680027 0.9885004163
-0.1509989351 -0.01304327324 0.9826122522 0.0260815639 -0.1386850178 0.9893551469
-0.1628846526 -0.01677656919 0.9821229577 0.1247706562 -0.1483409852 0.9796538949
-0.1592940241 -0.00903201662 0.9838618636 0.09471479058 -0.1578626782 0.981615901
-0.159360826 -0.01385093853 0.979367137 0.09762313962 -0.1512953043 0.9804141521
-0.1680156291 -0.01314838231 0.9797433019 0.1908129752 -0.1664948612 0.9625483751
-0.14641352 -0.01709180698 0.9771844745 -0.02292178757 -0.1329592913 0.9901282191
-0.1385980546 -0.005977532826 0.9782295823 -0.06921269745 -0.2015753239 0.9750663638
-0.1479294598 -0.009215460159 0.9790430665 0.001203277032 -0.1920579523 0.9786804914
-0.1442946494 0.002879343927 0.9829063416 -0.03087491728 -0.259755373 0.965088129
-0.1482509524 -0.001460466068 0.9827851653 0.0002071660274 -0.2233692557 0.97267735
-0.1412719488 0.003827510169 0.9890542626 -0.07644250989 -0.1853549331 0.972786963
-0.1240441576 0.00774970511 0.9924323559 -0.1974299252 -0.1236306131 0.9714201689
-0.1419711858 -0.003487834474 0.9844634533 -0.02977638319 -0.1922673285 0.9781060219
-0.1306637824 -0.005004051607 0.9869482517 -0.1557602435 -0.08199550956 0.9813015461
-0.1340417564 -0.01294167805 0.9838136435 -0.1400150508 -0.04740900546 0.9876086712
-0.1393352598 -0.00851022359 0.9837114811 -0.07132645696 -0.1289847791 0.9828917384
-0.1514867842 -0.00663338555 0.9840016961 0.03336014971 -0.1666536629 0.9847232103
-0.1233144626 -0.003211149015 0.9805836678 -0.2222999632 -0.09001384676 0.9704399109
-0.1184248179 0.003398641478 0.9867616296 -0.2281329036 -0.1176254079 0.9659270644
-0.1292916387 0.003784164321 0.9855891466 -0.1504910588 -0.1872520596 0.9680948257
-0.1338334382 -0.003219766309 0.9790043235 -0.1074537635 -0.2025715709 0.9721164107
-0.1579823196 -0.04301239178 0.9836851358 0.05900721997 0.05914980918 0.9523952007
-0.204612568 -0.08416374028 1.019823194 0.281527698 0.339345634 0.8965573907
-0.2055509239 -0.07921765745 1.017189741 0.2818200886 0.3369718492 0.897081852
-0.2106040269 -0.08039277047 1.019012332 0.3318497241 0.3403422832 0.8780536652
-0.2137182653 -0.08863024414 1.026522994 0.3160672784 0.3533958197 0.8783762455
-0.2223594785 -0.07950200886 1.023653865 0.3455415666 0.3418161273 0.8734052777
-0.2093751132 -0.08552927524 1.022578716 0.294529289 0.3412208557 0.8915848732
-0.2081473917 -0.09184040874 1.024523377 0.3078133464 0.3485569656 0.884116888
-0.1648823768 -0.02377309464 0.9840818048 0.2056701034 -0.105630517 0.9405671358
-0.1754134446 -0.02758962288 0.9774777293 0.3513640165 -0.07343938947 0.9205235243
-0.1492456049 -0.0341588445 0.9810294509 -0.07624152303 0.001110171434 0.9903042316
-0.1666391194 -0.03037002496 0.9862055779 0.3028971553 -0.03315636888 0.9085578918
-0.1735222042 -0.03020454757 0.9894090891 0.4573077857 -0.02464298531 0.8535981774
-0.1620924473 -0.02852468938 0.9837362766 0.1820181012 -0.06362570077 0.9486347437
-0.1538825035 -0.0307891909 0.9810001254 0.01841721311 -0.04145456478 0.9953344464
-0.1456907988 -0.02781997807 0.9810003042 -0.1130238622 -0.007564132567 0.9907453656
-0.1584451497 -0.03433781117 0.9828430414 0.1020969525 -0.01243467443 0.9661927819
-0.1540234387 -0.0381369926 0.9812092185 -0.01782697067 0.01100471523 0.9938287735
-0.1634445786 -0.03485320508 0.9852814674 0.2196354568 0.001586442464 0.9250394702
-0.1683714688 -0.03640835732 0.9878131747 0.3315380812 0.02422498912 0.8823270202
-0.1999559999 -0.07874141634 1.010727644 0.1619893759 0.3794013262 0.9070195556
-0.2032255977 -0.07505615801 1.0083915 0.2396296412 0.3409932256 0.9075354338
-0.2059252858 -0.0810932219 1.011516333 0.2733262479 0.3542772233 0.8909007907
-0.2093310654 -0.09185391665 1.017224312 0.3076073825 0.3855066597 0.8640367389
-0.2040562481 -0.08663211763 1.014893293 0.2370042354 0.3837940395 0.8844109178
-0.1929871738 -0.04675360397 0.9972420931 0.5775117278 0.1986912787 0.775518477
-0.1896659434 -0.05363686755 0.9942210317 0.5242741704 0.2889058888 0.7787286639
-0.1822544038 -0.05305507034 0.9876167178 0.6339110136 0.2790499628 0.7196615338
-0.176814124 -0.05460199341 0.984203577 0.5654192567 0.226635173 0.7882691622
-0.1792752594 -0.04931873828 0.984275341 0.5577881932 0.2067126036 0.7921687365
-0.1783044934 -0.05882650986 0.9903129339 0.5112749934 0.3349934518 0.7841002941
-0.1725779474 -0.05977322906 0.9872860312 0.4125659168 0.3319047093 0.8414553404
-0.1824218631 -0.06777521223 0.9987947345 0.3056463599 0.4085806608 0.843246758
-0.181114763 -0.06245911494 0.9953677058 0.4496112764 0.3952700198 0.7879770398
-0.1871750802 -0.04440577328 0.996594727 0.6009941697 0.1770929545 0.7701684833
-0.1853674948 -0.04699730128 0.9899759889 0.6272010803 0.1864120811 0.7526919842
-0.1888300776 -0.04089426622 0.9922947288 0.6363277435 0.1257627308 0.7606058717
-0.04519699886 -0.1197179779 1.088891387 0.1216658279 0.04548864439 0.9901596904
-0.03874216974 -0.1219865903 1.086809635 0.1667529792 0.03135523945 0.9854131937
-0.02745715529 -0.0709855631 1.090386391 0.5009847879 0.1983512938 0.8423740864
-0.02695493028 -0.07595285773 1.085073113 0.494094193 0.1799666286 0.8494502306
-0.0246653799 -0.07865066826 1.077850223 0.5424823165 0.1696261615 0.8215825558
-0.02346902527 -0.06738364697 1.076301217 0.627050221 0.1836150885 0.7534387112
-0.02596850321 -0.07158856094 1.080373287 0.5026146173 0.206446752 0.8390933275
-0.03028361313 -0.1021498442 1.083841681 0.2770392001 0.07383204997 0.9535540938
-0.01807930693 -0.09719233215 1.077000022 0.4670405388 0.06604474783 0.879725337
-0.02205367945 -0.0972429812 1.08153367 0.4341879189 0.06913226098 0.8896923661
-0.02052013017 -0.09155802429 1.082757235 0.5018226504 0.08780990541 0.8563851714
-0.02390475944 -0.0814094469 1.087613225 0.5058848262 0.1435586661 0.8470136523
-0.0233666487 -0.08680610359 1.085276842 0.4897385538 0.1109725088 0.8601587415
-0.0174133908 -0.08609545231 1.083366513 0.5566299558 0.1196241304 0.8198831677
-0.01478180196 -0.09021428972 1.081027269 0.568688035 0.09878828377 0.8155994415
-0.0287038777 -0.07882571965 1.090076923 0.4640884995 0.1516001374 0.8666123152
-0.03052630834 -0.09292649478 1.085233569 0.3885312974 0.06527356058 0.9147775769
-0.1582576334 -0.0947156027 1.074281693 0.7064110041 -0.2339185178 0.09352171421
-0.1514695585 -0.09024807066 1.073545098 0.8172912598 0.3276581764 -0.1826065332
-0.161662668 -0.09260645509 1.078649282 0.6810417771 -0.3399325609 0.1335391551
-0.1634881794 -0.09893831611 1.074132204 0.6155464053 -0.6981528401 0.3239586055
-0.1931927204 -0.07590840012 1.014400601 0.226170063 0.3793699443 0.8952463865
-0.202942878 -0.07481968403 1.014358878 0.2539678514 0.338547647 0.9055869579
-0.1874800473 -0.07207335532 1.011954188 0.2051309794 0.4031964839 0.8904046416
-0.1980776042 -0.07144889981 1.012217522 0.2359384894 0.3588376939 0.9014918804
-0.1511141807 -0.08778901398 1.068538189 0.7872405648 0.5039221644 -0.2303479463
-0.1537000984 -0.08397873491 1.073248863 0.7320043445 0.6013379097 -0.261425823
-0.09865177423 -0.01120970305 0.9940342307 -0.2827318609 -0.04049715027 0.9583151937
-0.1117782369 -0.02567027323 0.9884630442 -0.310862124 0.04830979183 0.9476531148
-0.1050654799 -0.02111653797 0.9885910749 -0.3157871366 0.0565123558 0.9447617531
-0.1083416641 -0.01705545373 0.990481019 -0.3010746837 -0.0002425683488 0.9522000551
-0.1056829393 -0.01025828719 0.9936310053 -0.2861845195 -0.02780456282 0.9566063285
-0.1126849353 -0.01465124264 0.9882636666 -0.3082843125 -0.04335824028 0.9490808845
-0.1581598222 -0.1055701226 1.023819447 -0.3412466347 0.3775557876 0.8538032174
-0.1579696387 -0.1003232598 1.025939345 -0.1208963469 0.1779365242 0.5590578914
-0.1555788964 -0.1002025381 1.031544209 0.1049582139 0.1557050049 0.4004245698
-0.1499270052 -0.09960469604 1.044709325 0.6024884582 0.1259700954 0.07240667194
-0.1412252635 -0.04370001704 0.9814295769 -0.1712184399 0.06205155328 0.9809385538
-0.1472337395 -0.04660857096 0.9827675223 -0.1048368961 0.06754104793 0.9883986712
-0.1431244016 -0.03303017467 0.9811170697 -0.1679727286 0.02437183261 0.9851520658
-0.1396753937 -0.02544354461 0.9819465876 -0.1497365087 0.0064242566 0.9875237346
-0.1377510875 -0.03638248891 0.9826873541 -0.1947850883 0.05390367657 0.9789950848
-0.1220637858 -0.03223469853 0.9859594703 -0.2505999804 0.09771155566 0.9618654251
-0.1302164197 -0.02165930904 0.9836124182 -0.187886253 0.03236438707 0.9777017236
-0.1307179034 -0.02792362683 0.9840379953 -0.1880667657 0.05256287754 0.9782803655
-0.1281568855 -0.03331924602 0.9847553968 -0.2119144797 0.09339506179 0.9725065231
-0.134129554 -0.04139114171 0.9844505787 -0.2194644064 0.06520087272 0.9733872414
-0.1285969019 -0.03918037564 0.9861832857 -0.222359255 0.08623531461 0.9710435271
-0.08218515664 -0.1523075104 1.088405013 0.1932700723 -0.4415341318 0.873411417
-0.08635215461 -0.1583670378 1.090000033 0.2287167162 -0.5093647838 0.8194540143
-0.07634235173 -0.1558921486 1.090000033 0.2675011158 -0.5835825205 0.7604158521
-0.09201834351 -0.1608843505 1.089105368 0.204188019 -0.4624266922 0.8567919731
-0.07491151243 -0.1562426835 1.084176421 0.2372195721 -0.5256358385 0.8065108061
-0.0701905489 -0.15561001 1.087359071 0.2643225789 -0.5775000453 0.7652542591
-0.1438912898 -0.01418836042 0.9818144441 -0.01004901435 -0.1169332415 0.9922412038
-0.1388702393 0.001381893526 0.9822355509 -0.06632910669 -0.2408548445 0.9674802423
-0.1936123967 -0.1006726995 1.018678308 0.04873375967 0.32491377 0.9421803951
-0.1859374195 -0.06143040955 0.9978372455 0.4809834957 0.3981438279 0.7698914409
-0.2016281486 -0.06719403714 1.006485224 0.2441599667 0.342471689 0.9067751169
-0.1917369813 -0.06067110971 1.000728726 0.4069497585 0.3382271528 0.8305211663
-0.2007305473 -0.06147728115 1.004696131 0.3184935749 0.3217194676 0.8799489737
-0.1969835907 -0.05840784684 1.002509356 0.3910147548 0.3153244853 0.8484225869
-0.03415074944 -0.1170248315 1.087596297 0.1645810753 0.0716477409 0.983297348
-0.0275273677 -0.1194769219 1.085774899 0.1809362918 0.06122494116 0.9811101556
-0.03475090861 -0.1099887565 1.084899068 0.1702685803 0.0910300985 0.9809162617
-0.03883997351 -0.1124725044 1.087629914 0.1574178785 0.08361768723 0.9836816192
-0.02461281233 -0.1171244904 1.080249906 0.1804402173 0.08002833277 0.9799845219
-0.1664497852 -0.09504114836 1.079284072 0.4986665249 -0.5337105989 0.2263414413
-0.1487095058 -0.09699504822 1.06351018 0.8962410688 0.2710628808 -0.1742157936
-0.1535328031 -0.101095356 1.062923789 0.8918365836 -0.3373562396 0.1092667952
-0.1569227427 -0.09908750653 1.068417907 0.8195585012 -0.317709744 0.09971494973
-0.1506943852 -0.09409257025 1.068503857 0.9224451184 0.2313605994 -0.1722827703
-0.1694893539 -0.1248919293 1.046589255 -0.1754020452 0.08204952627 0.757776618
-0.1708937585 -0.1287738681 1.0432235 -0.2268134803 0.2418840528 0.8088704944
-0.1664473712 -0.1176627055 1.052501559 -0.09091555327 -0.2048273087 0.6626731157
-0.1453392655 -0.09950768948 1.056211591 0.9694821835 0.02438258193 -0.07150935382
-0.1535607576 -0.09888822585 1.056337953 0.8159320951 -0.2299204022 0.02966301143
-0.148492828 -0.09904495627 1.050047994 0.7015592456 0.0966841951 0.1003600657
-0.1551482081 -0.1020478606 1.043674469 0.4656365216 -0.2440021038 0.3415605426
-0.154064849 -0.09935658425 1.037375808 0.1823902428 0.1369370371 0.4745631814
-0.1483593881 -0.1041319966 1.053866029 0.8686672449 -0.2996483743 0.1103407517
-0.1549340189 -0.113566868 1.047692657 0.4297773838 -0.04098022357 0.3487433791
-0.1512805223 -0.1081022769 1.050366163 0.7063887119 -0.203689307 0.167150557
-0.1603419334 -0.1211754531 1.042989254 0.06659416109 0.1659642756 0.5572819114
-0.1631631702 -0.1104331613 1.058151841 -0.003811726347 -0.4851445854 0.5641865134
-0.1624135077 -0.1138220578 1.052522182 0.05488373339 -0.2878047228 0.5500931144
-0.1649983227 -0.1263671964 1.040405512 -0.2209217846 0.2751454115 0.7374162078
-0.1567842662 -0.1076156572 1.051435947 0.5915523767 -0.4303006828 0.2630305588
-0.1625054479 -0.1176955551 1.047631621 0.03468871489 -0.09190826118 0.5763785839
-0.1579608321 -0.08396941423 1.067235827 0.6372539997 0.4463746548 -0.1480960399
-0.1694683731 -0.08789849281 1.030595899 0.1894524843 0.265476048 0.631487608
-0.1658626199 -0.08497093618 1.044213295 0.3256474733 0.4055301845 0.3451082706
-0.1584750116 -0.08708467335 1.061896086 0.6243824363 0.2938191295 -0.04029909521
-0.1559612453 -0.09379521012 1.060366869 0.7405775189 -0.03863665462 -0.02273560688
-0.1634118408 -0.0861467272 1.04948175 0.4259026051 0.3451477587 0.2290314287
-0.1590550095 -0.08977995813 1.056904078 0.6078752279 0.1619733423 0.06097531319
-0.1620966643 -0.08298636973 1.057084084 0.4704983532 0.4990706146 0.07263945788
-0.1561278403 -0.1017221063 1.049924135 0.7532014251 -0.428030163 0.1838852167
-0.159509927 -0.09713315219 1.046389818 0.6076468825 -0.198919639 0.270446986
-0.1643666178 -0.09074774384 1.041057229 0.3991269469 0.12004105 0.3998208046
-0.1677025557 -0.08613506705 1.037679911 0.2553493679 0.350268811 0.4830575883
-0.1616008878 -0.09123327583 1.048062444 0.5102235079 0.09324795008 0.2479436994
-0.1634958684 -0.07794742286 1.065836668 0.4229278862 0.7505902052 -0.10474433
-0.1658331454 -0.08082761616 1.050073981 0.3185767829 0.6093382239 0.2284012586
-0.1700518131 -0.08021363616 1.046686172 0.1735742241 0.6468384862 0.3020794094
-0.166354984 -0.07833384722 1.060080171 0.3186707497 0.7356266975 0.01803891733
-0.1599166989 -0.1124831662 1.025907636 -0.3465005159 0.3938882649 0.8465836644
-0.1563819647 -0.1067041978 1.030365825 0.3786498606 -0.05522265658 -0.03539329395
-0.1601108015 -0.06550276279 0.9956030846 -0.05339540541 0.1929122359 0.9620656967
-0.1748870462 -0.07044842839 1.008287787 0.1763637662 0.4142283201 0.8635496497
-0.1692717671 -0.08208353072 1.011989355 -0.04945018888 0.3701277673 0.9052165747
-0.1695971787 -0.07141425461 1.005472183 0.06606736779 0.3430973887 0.8996744752
-0.1721359938 -0.07639016956 1.010253549 0.06325798482 0.3933371603 0.884038806
-0.1667740941 -0.06243278831 0.9979809523 0.1045314148 0.2770248353 0.9159818292
-0.1673921049 -0.06796476245 1.00186944 0.05956783146 0.3020441532 0.9135276675
-0.1668349504 -0.07630498707 1.002753377 0.0349166058 0.323058486 0.9058581591
-0.1631869376 -0.06133589521 0.9891744852 0.1507028937 0.2295477688 0.9196556211
-0.158123523 -0.06012957916 0.9902001023 -0.02309688181 0.1499582231 0.9712932706
-0.1601272374 -0.05451466516 0.9836078882 0.1498118341 0.1658258736 0.9407459497
-0.1665608585 -0.07109615952 0.9975858927 0.1134240478 0.3055560291 0.9001151919
-0.1653791666 -0.07986804843 1.007018447 -0.08188260347 0.3102050722 0.927194953
-0.1661218554 -0.0903327167 1.016736388 -0.1938095689 0.3543083668 0.9082823396
-0.1603799909 -0.09606211632 1.020471692 -0.287879169 0.3283827901 0.8936293721
-0.1771176755 -0.08120315522 1.009999394 0.01510651782 0.4040434957 0.89798522
-0.1754520237 -0.07747378945 1.005643249 0.07822588086 0.3859493136 0.8916550279
-0.1834287643 -0.07617743313 1.006541014 0.1281303763 0.4299654067 0.8832193017
-0.1717697084 -0.07402098924 1.001006722 0.1296695173 0.3566131294 0.8873539567
-0.1704106629 -0.06814051419 0.9944951534 0.233338654 0.3355340064 0.8764488697
-0.1776799113 -0.07262685895 1.001219988 0.1746171117 0.3882608712 0.8802265525
-0.1692923605 -0.06403079629 0.9898968935 0.305239737 0.3198115826 0.868950367
-0.1752015501 -0.06446661055 0.9920170307 0.3165410459 0.3555262685 0.8655254245
-0.1758510023 -0.06908337027 0.9970115423 0.2337856889 0.369620502 0.8743913174
-0.1904787123 -0.1042696685 1.027318597 0.05780818686 0.3517461419 0.9243911505
-0.1940826178 -0.0998929143 1.024799228 0.08290880919 0.3433202803 0.9303224683
-0.2018407136 -0.1105533913 1.024924636 0.06304170936 0.2614959776 0.9607770443
-0.2014347613 -0.1002545878 1.024563432 0.2229468226 0.3330554962 0.9033726454
-0.1767493337 -0.1166049093 1.044307947 -0.00944091659 0.03686198592 0.7870925665
-0.1811174452 -0.1235545352 1.038728952 -0.06051340327 0.3124217987 0.8805012107
-0.172854051 -0.1082536131 1.048423886 0.04085316882 -0.2151394337 0.7066542506
-0.1822589934 -0.1191208214 1.034777522 -0.06007796898 0.3662435114 0.9132087827
-0.1723497808 -0.1130350679 1.051295519 0.0344356522 -0.2306979001 0.6884586811
-0.1803526729 -0.1277768016 1.041875482 -0.06356596202 0.2800086439 0.8569272161
-0.1664049327 -0.1051873118 1.059530973 0.1003920585 -0.6010370851 0.5591952205
-0.1760900617 -0.1112023965 1.043413162 0.007868085057 -0.01739982516 0.7787740231
-0.1792570353 -0.1156439111 1.039130092 -0.02784372307 0.180648461 0.847289741
-0.1759877354 -0.1215166077 1.047723532 -0.01403978188 0.006641048938 0.7626779675
-0.169801712 -0.1064662784 1.053546786 0.06977377832 -0.3987613916 0.6373085976
-0.1732185185 -0.1185969934 1.051853418 0.0150608262 -0.1637273878 0.7014876008
-0.1634830534 -0.104188621 1.064718962 0.126505971 -0.7747382522 0.4918677211
-0.1677020639 -0.1129783094 1.058461189 0.04650306702 -0.4529598057 0.5997779965
-0.1772125363 -0.1280315965 1.047006488 -0.05340436101 0.1256504506 0.7945421934
-0.1779316813 -0.1092402264 1.033942819 -0.0969780907 0.2238563746 0.8983900547
-0.1883015335 -0.1184315532 1.028954268 -0.02416266687 0.3879109621 0.9197458625
-0.1929461658 -0.1126129478 1.027706146 0.004416906275 0.3150657415 0.9457783103
-0.1947132349 -0.1178447828 1.025961041 0.01081381552 0.348787576 0.9335745573
-0.1981252134 -0.0891937837 1.021468639 0.2012761831 0.3489305675 0.9077905416
-0.195062831 -0.09164550155 1.017158747 0.09993540496 0.3485087752 0.9274482131
-0.2009976506 -0.09317907691 1.018669486 0.2395685464 0.3547107279 0.8945432305
-0.1984899938 -0.07237420231 1.006283164 0.2128962278 0.3626832962 0.9062911272
-0.1960646808 -0.06658997387 1.004984736 0.257691443 0.3763893843 0.8894406557
-0.1880366504 -0.06883271784 1.002126336 0.3205676079 0.4185777605 0.8293172121
-0.1602071226 -0.08742523193 1.076232195 0.5138790607 0.4645492733 -0.2082663029
-0.1601114571 -0.1223589182 1.028811812 -0.2576704025 0.4186115265 0.8700729609
-0.1650709957 -0.1269516051 1.033707619 -0.3190792203 0.4177834988 0.8478031158
-0.1747009009 -0.1012147963 1.029028058 -0.07764652371 0.2142314464 0.8681009412
-0.174384594 -0.1038384214 1.033666849 -0.07615527511 0.1270779222 0.8470178246
-0.1698436588 -0.1029883549 1.045475721 0.004060304724 -0.2324115932 0.7063156962
-0.1734954268 -0.1065440401 1.040064692 -0.06483321637 -0.009808714502 0.8073884845
-0.1709305197 -0.08633121103 1.045194149 0.1296554357 0.6092694998 0.3723553121
-0.1739408374 -0.09124550968 1.030044198 -0.0007252933574 0.4731286466 0.7081654668
-0.1741418839 -0.08645616472 1.025948644 -0.002879130887 0.4628798664 0.7585987449
-0.1757429391 -0.09757541865 1.023016453 -0.0831149295 0.3923952579 0.8906530738
-0.171383217 -0.08215052634 1.039951205 0.1163482144 0.5876837969 0.4497803152
-0.1686406881 -0.08308394253 1.05701375 0.2282016873 0.7129366994 0.1142335013
-0.1751542985 -0.08927168697 1.021554112 -0.04821741581 0.4173561931 0.8651739955
-0.1726171374 -0.0854049921 1.034488559 0.06131764129 0.5321605802 0.5806406736
-0.1661674827 -0.09827429801 1.055139303 0.1029237062 -0.3357154429 0.506870389
-0.1688081473 -0.09481427073 1.048747778 0.09137820452 0.06378609687 0.4981049299
-0.169072479 -0.08702230453 1.05311799 0.1759174764 0.5290769935 0.2543494105
-0.1651927978 -0.07642457634 1.073060036 0.373363018 0.8378501534 -0.2442991585
-0.1670263261 -0.09300746769 1.055847287 0.1468350887 0.03078377992 0.368922621
-0.1634009928 -0.09538844228 1.06621635 0.1899546981 -0.3823543787 0.3036707342
-0.1644030958 -0.08888275176 1.067284822 0.2453379482 0.06586052477 0.1309584826
-0.166272074 -0.0852047354 1.063588142 0.2513128519 0.418823868 0.08466048539
-0.1654085368 -0.0914465636 1.062239647 0.196271047 -0.003726497758 0.2542279363
-0.1709540039 -0.0981990844 1.039384365 0.01067743078 0.03448090702 0.6931141615
-0.1722441465 -0.0921581313 1.039188981 0.05510854721 0.4781686664 0.5469171405
-0.164176181 -0.08265419304 1.072225213 0.3214397132 0.4042945504 -0.08116505295
-0.1834942698 -0.09501231462 1.021258593 -0.01583623886 0.3690361381 0.9239886403
-0.1813120991 -0.08814374357 1.019100547 -0.009187147021 0.3875781894 0.918294847
-0.1862265617 -0.0903339386 1.020036817 0.02653200924 0.3718624711 0.9234415889
-0.1899408102 -0.09516122192 1.021681786 0.04141799361 0.3537637889 0.9291650653
-0.1596124321 -0.09891853482 1.038393617 0.360342592 -0.146686703 0.4638995528
-0.1647605151 -0.09396238625 1.023841858 -0.1560055465 0.2716734707 0.8192207813
-0.1615247875 -0.09693155438 1.030445814 0.04469871894 0.08565636724 0.6636273265
-0.178364709 -0.1063154712 1.02848506 -0.1258811504 0.3244348168 0.9354454875
-0.1817085445 -0.1000814363 1.023748755 -0.05667765066 0.3542427123 0.9278600812
-0.1870802939 -0.1007401496 1.025102854 -0.01521541364 0.3335500062 0.9342895746
-0.1835214645 -0.1059593335 1.028760433 -0.07282663137 0.3181397617 0.9383991361
-0.1676506549 -0.1038673967 1.021894336 -0.180923596 0.3667996526 0.9101088643
-0.165464893 -0.09853942692 1.019494057 -0.1489076018 0.3555665016 0.9209706783
-0.1789059043 -0.07390225679 1.013373733 0.1005610153 0.4365163743 0.8867817521
-0.194103837 -0.08137720823 1.017561555 0.2239196301 0.374710381 0.896225512
-0.1808443815 -0.07821434736 1.016036868 0.06011297554 0.4193483591 0.9006127119
-0.1878307015 -0.07711040229 1.015031695 0.1777074039 0.3988206387 0.8941958547
-0.1784143448 -0.08326937258 1.017627597 -0.002843732946 0.4080486 0.9080452323
-0.1886330098 -0.08486329019 1.019264221 0.1157399863 0.3820577264 0.9043775797
-0.1812258065 -0.09253941476 1.014885902 -0.007800773252 0.3855645359 0.9187284708
-0.1749685407 -0.08792708069 1.013562679 -0.05513264984 0.3825508654 0.9134358764
-0.1802553535 -0.08573474735 1.011834979 0.02231670171 0.4009224772 0.9052410126
-0.194149226 -0.07843641192 1.008942366 0.1441067457 0.3907649517 0.9079209566
-0.1861905754 -0.08695214987 1.01166141 0.08337929845 0.4093184471 0.9048194289
-0.1893993318 -0.08253317326 1.009641051 0.1166331619 0.4016598165 0.9047474861
-0.1888232827 -0.07660137117 1.006745219 0.1600627154 0.4270921648 0.8879942298
-0.1752708554 -0.1007932723 1.017969131 -0.07095040381 0.3567914069 0.9304243922
-0.1732220352 -0.09480877966 1.016570568 -0.060331624 0.363353014 0.9269967675
-0.1808127612 -0.1041241959 1.018324256 -0.04726329446 0.3610018492 0.930472374
-0.191121757 -0.08855219185 1.014450192 0.06747663766 0.3821601868 0.9210062027
-0.187123701 -0.1036131606 1.018165112 0.02424044535 0.3302218318 0.9435281754
-0.1867246032 -0.09654911608 1.016175866 0.025447255 0.3746553063 0.9263173342
-0.1764883846 -0.1342279911 1.03851819 -0.1974686086 0.4056887329 0.8918141723
-0.1822724938 -0.1350040287 1.038246512 -0.09893850982 0.4310691655 0.89619416
-0.182837069 -0.1325926334 1.030953407 -0.07921316475 0.436876148 0.8947480917
-0.1830681264 -0.1130217835 1.031234503 -0.0457870923 0.368309319 0.9282343984
-0.1848454028 -0.1248702258 1.034152746 -0.05931913853 0.4067515731 0.9103236794
-0.1854125112 -0.1301947385 1.035702825 -0.06699055433 0.4233242571 0.9024768472
-0.1874775738 -0.128271535 1.029583812 -0.04121547565 0.4306218624 0.9010618329
-0.1685881317 -0.1247063205 1.027238369 -0.1910476983 0.4217742682 0.8824163079
-0.1774969101 -0.1291541606 1.0279181 -0.1202428564 0.4313724339 0.8897789717
-0.1711943895 -0.1298303604 1.033450842 -0.2185094953 0.4066458941 0.8869042993
-0.1678898633 -0.1306737363 1.037901521 -0.3476852477 0.417678684 0.8369989395
-0.09640574455 -0.1608775258 1.082292795 0.1856475919 -0.4269477725 0.8850144744
-0.09236858785 -0.1599651873 1.076233864 0.1856475919 -0.4269477725 0.8850144744
-0.09779689461 -0.1570459902 1.08908391 0.1856475919 -0.4269477725 0.8850144744
-0.1530478001 -0.1074862033 1.043580413 0.8749287724 -0.3479467034 -0.1470978558
-0.1572429836 -0.1156627983 1.031197906 -0.04024442658 0.2408053726 0.6217070818
-0.1558295935 -0.1135120541 1.036632419 0.3756140172 -0.009397111833 0.3031616509
-0.1562483013 -0.1128684431 1.042034984 0.5605503321 -0.1558600515 0.09485001862
-0.1600353569 -0.1200114936 1.033576727 -0.2485255152 0.3285197318 0.6864942312
-0.1709959507 -0.1095551029 1.022458792 -0.1740503013 0.3658246994 0.9096105099
-0.1654613316 -0.1138679981 1.02513051 -0.2508780956 0.3719199002 0.8930563331
-0.1896420866 -0.1117659807 1.0224998 -0.005694214255 0.33611992 0.9407370687
-0.1855116785 -0.1150479242 1.025064707 -0.02137606964 0.3907621503 0.9200677872
-0.1849662215 -0.1086940169 1.020549417 -0.03231473267 0.342657119 0.9377495646
-0.1850176156 -0.1242531985 1.025981307 -0.03784865141 0.4191423059 0.9062582254
-0.1794620007 -0.1232593581 1.025863886 -0.09736156464 0.4166787565 0.902128458
-0.1822927445 -0.1189370677 1.023239255 -0.05613187701 0.4010714889 0.9130991101
-0.1649878323 -0.1201189011 1.02686131 -0.2359661758 0.4015110731 0.8840910792
-0.1777789593 -0.1114813238 1.021793008 -0.09815064818 0.3741446733 0.9202259779
-0.1748082042 -0.1207253411 1.026748061 -0.1503874511 0.406922996 0.8994480968
-0.1707653552 -0.1154823676 1.024855375 -0.1904711276 0.381578058 0.9006835222
