# .PCD v0.7 - Point Cloud Data file format
VERSION 0.7
FIELDS x y z normal_x normal_y normal_z
SIZE 4 4 4 4 4 4
TYPE F F F F F F
COUNT 1 1 1 1 1 1
WIDTH 512
HEIGHT 1
VIEWPOINT 0 0 0 1 0 0 0
POINTS 512
DATA ascii
0.1695471853 0.04746422544 0.7879959941 -0.2741759419 0.2554476857 0.9156250358
0.1588440686 0.05272374675 0.7857015729 0.01286049932 0.04134656489 0.9936369658
0.1616674513 0.0469154641 0.7868324518 -0.07516384125 0.1757043749 0.9755384922
0.1008050144 -0.02517468669 0.9156253934 0.1186216846 0.5924555063 0.7913469672
0.09941760451 -0.03287500143 0.9186592698 0.1520483345 0.6086729169 0.7623850107
0.1010461599 -0.01993628964 0.914570868 0.1038467959 0.5852872133 0.8041484356
0.09639324248 -0.02066785842 0.9187503457 0.1038467959 0.5852872133 0.8041484356
0.09583093226 -0.02764511295 0.9210603237 0.1038467959 0.5852872133 0.8041484356
0.1667772382 0.0589685142 0.7860177159 -0.09525116533 -0.0345293656 0.9874787927
0.1719551682 0.06172322482 0.7867090106 -0.1910122335 -0.05805759877 0.9745072126
0.1735489219 0.05615662411 0.786937058 -0.2947324216 0.06694018841 0.9466201663
0.1179961711 0.07750428468 0.8117845654 0.7607699037 -0.2621513903 0.5929912329
0.1127126962 0.06548017263 0.813785851 0.8025740385 -0.2303371876 0.5498571992
0.1178134158 0.07232475281 0.8090052009 0.7535681129 -0.2702699602 0.5980343223
0.2105225474 0.04919721931 0.8277353644 -0.6013685465 0.1654477566 0.7785514593
0.1993469894 0.04762110487 0.8190422654 -0.5312575698 0.3117483854 0.7600831985
0.204828456 0.04811029881 0.8243129253 -0.5697346926 0.2584662735 0.7565187812
0.1251762062 0.09654151648 0.8107876778 0.5693609118 -0.03755491227 0.8001930714
0.05254618451 0.03703527153 0.8772466779 0.412809968 0.567961812 0.6970484853
0.04990287125 0.05032876134 0.8716108203 0.5217170715 0.4078884423 0.744940877
0.1092798337 -0.02442035265 0.9162210226 0.2838699222 0.6698246598 0.6351364851
0.1140387431 -0.02759031765 0.917391181 0.4255329967 0.7365563512 0.5031047463
0.1057980284 -0.02904734202 0.9191817045 0.2461095601 0.6520926952 0.6705872416
0.1629068553 0.06298354268 0.7861638069 0.01694182307 -0.1617162973 0.9761764407
0.1623682529 0.0563563183 0.7854403853 -0.02796228789 -0.009544625878 0.9892246723
0.06185406074 0.0231424775 0.8839086294 -0.0954881236 0.5004073381 0.8605082631
0.06186896935 0.01854478009 0.8867040277 -0.0954881236 0.5004073381 0.8605082631
0.05561899766 0.02152938582 0.8854613304 0.05333998799 0.5477647781 0.7994322181
0.05200778693 0.0222819373 0.8817921281 0.2297868729 0.6009375453 0.7158027291
0.05379455164 0.02870537341 0.8811471462 0.304195255 0.6275875568 0.6964861751
0.05594911054 0.01670580357 0.8885868192 -0.09380283952 0.5009436011 0.8598166704
0.05050694197 0.02658840828 0.8776940703 0.4221881628 0.6244007945 0.6480662823
0.05084921792 0.03185979649 0.8769118786 0.4323765337 0.5837022662 0.6697922349
0.04987680539 0.04127188772 0.8732273579 0.5209445953 0.4455567002 0.7085860968
0.05864766613 0.03550691158 0.8781058788 0.396446228 0.5921450853 0.6896796823
0.0565052703 0.04370162636 0.8745619655 0.4639435112 0.4923936427 0.7200747132
0.06439737976 0.03531902283 0.8783435822 0.3919183314 0.59883672 0.687640667
0.05793446302 0.05646637827 0.8616830111 0.5443671346 0.3822203279 0.7457942963
0.05635828525 0.04672220349 0.869772017 0.5710528493 0.3562618196 0.7393245697
0.06162187457 0.05256603658 0.8641238809 0.555177331 0.3716750741 0.7431960702
0.06373914331 0.04784922674 0.8676134944 0.5677443743 0.3593789935 0.7402040362
0.1760162562 0.08284622431 0.8028213978 -0.1539187282 -0.3197983205 0.8676337004
0.1822833717 0.0750798732 0.8049119115 -0.251149863 -0.1555122584 0.8397668004
0.180771172 0.08163367212 0.8033604026 -0.2069873661 -0.2951177955 0.8659195304
0.1744053662 0.08824744821 0.8015221953 -0.1138646528 -0.434758842 0.8889325857
0.1818739921 0.06329075992 0.8075267076 -0.29919222 0.09641652554 0.7905377746
0.06055968255 0.04209533706 0.8714832067 0.57487607 0.3525427878 0.7383976579
0.0639218986 0.03027478606 0.880278945 0.2641510665 0.583812952 0.7260648012
0.1068448201 0.05406629294 0.8238244653 0.8299663663 -0.1009238362 0.5475881696
0.1093750224 0.05676044151 0.8189012408 0.8326658607 -0.1234420836 0.5387621522
0.1547303349 0.021380594 0.8140718937 0.3624497652 0.3019239604 0.8665006757
0.1424135566 0.02958346345 0.8077451587 0.3919381499 0.2909143865 0.8288544416
0.1658790708 0.02466851659 0.8202793002 -0.2160259187 0.4748675823 0.8226578832
0.1501003802 0.02534367889 0.8118599057 0.3300630748 0.3078916669 0.845510006
0.1596598029 0.01850388385 0.8169823885 0.3349243104 0.303211838 0.8773583174
0.1255203038 0.03808973357 0.8022822738 0.6483689547 0.1112584472 0.7511569858
0.119044967 0.03860562667 0.8089573979 0.713337183 0.0604471229 0.6938940883
0.1159896031 0.04423686117 0.8104459643 0.7499607205 0.02033242024 0.6570590734
0.1113975197 0.04745155573 0.8184197545 0.7970494628 -0.05189079419 0.5949445367
0.162061125 0.07526596636 0.8024141788 0.04443970323 -0.1998973489 0.8769911528
0.1802524626 0.05736621469 0.8085771799 -0.2963095307 0.2170217633 0.7718663812
0.1762876958 0.07368021458 0.8047798872 -0.1896795779 -0.1278022379 0.833902657
0.1676966846 0.06747032702 0.8047683239 -0.06698991358 -0.0246965047 0.8373309374
0.1709056497 0.0628066659 0.8061532378 -0.1310252398 0.07966271788 0.8140396476
0.1768382937 0.06271749735 0.8070266843 -0.2271639705 0.09802229702 0.7978745103
0.1646338701 0.08112967014 0.8016260266 0.01813773997 -0.3126941919 0.888585031
0.1699620187 0.07517244667 0.8035723567 -0.08352877945 -0.1759630144 0.8555425406
0.1696084738 0.08419097215 0.8017383814 -0.05429907888 -0.3614613712 0.8849151134
0.1739590913 0.05607716367 0.8079241514 -0.1979329288 0.2258543223 0.7846532464
0.1439069659 0.04842267558 0.7878457904 0.2661705315 0.09234795719 0.9508814216
0.1411474496 0.04430399835 0.7898126245 0.3224875033 0.189270556 0.924403131
0.1513162255 0.05178184435 0.7861871719 0.1461579204 0.03813206032 0.9825930595
0.1489033401 0.04679185152 0.7869562507 0.1623839438 0.1333622336 0.9722546339
0.1684411913 0.02038775757 0.8224664927 -0.1565901339 0.4776218534 0.821608603
0.1689185053 0.007539508399 0.8238563538 0.3206934929 0.3682290018 0.8600738645
0.05877663568 0.05693682656 0.8670038581 0.5317825079 0.3921371996 0.7506235838
0.06075685099 0.05256865174 0.8703093529 0.5317825079 0.3921371996 0.7506235838
0.05560385436 0.05201425031 0.8708923459 0.5317825079 0.3921371996 0.7506235838
0.049512133 0.05506104976 0.8682846427 0.5317825079 0.3921371996 0.7506235838
0.05513750017 0.06078194454 0.8637958169 0.531534791 0.3924375772 0.7506382465
0.05252132192 0.05633576587 0.8637495041 0.5452418923 0.381062746 0.7458167672
0.05498220772 0.06160182506 0.8584371209 0.5307157636 0.3954294026 0.7491576672
0.111729905 0.07606288046 0.8271309137 0.7995137572 -0.2204177976 0.5583755374
0.1217578128 0.08974855393 0.8158457875 0.7001803517 -0.1654292345 0.6858654618
0.1164792851 0.08299978822 0.8216774464 0.7694008946 -0.2174078971 0.5956559181
0.1206079423 0.08496048301 0.8175396919 0.7334179878 -0.1934683919 0.6457613111
0.1162521616 0.07965674251 0.8172020316 0.7785670161 -0.2450912893 0.5773485303
0.1274529546 -0.03395998478 0.9183758497 0.439465493 0.7773019671 0.4501106441
0.1325574815 -0.03418580815 0.9170655608 0.4399526119 0.7744508386 0.4545878172
0.122579366 -0.03807302564 0.9170646667 0.44164294 0.7760724425 0.4500557184
0.125655666 -0.02752005309 0.9184259176 0.4447627962 0.7711811066 0.4554624259
0.1333494037 -0.04043119773 0.9177492261 0.4378823042 0.7776492238 0.4511276782
0.1274632961 -0.03985959664 0.91870296 0.4354788959 0.7817941904 0.4462394118
0.1160391346 -0.03985625878 0.9169251323 0.4494274557 0.7664299011 0.4585805535
0.10812442 -0.03387688845 0.9174128771 0.4251300693 0.7403624058 0.5195129514
0.1223542765 -0.03140427172 0.9169386029 0.4527836144 0.7624102235 0.4620976746
0.1169211045 -0.03290704265 0.9173460007 0.4591405392 0.7570547462 0.4647512734
0.1980738193 0.06106010824 0.8044199944 -0.6759730577 0.1556073725 0.7090578079
0.1978736669 0.05588757992 0.8057118058 -0.6316111684 0.274015516 0.7151869535
0.1818125546 0.06356401742 0.7900593281 -0.4396961927 -0.00818708539 0.8969836831
0.1793535352 0.05938230827 0.7886407971 -0.3646314442 0.03478505835 0.9242590666
0.06464716792 0.0398302637 0.8736953735 0.4832217991 0.4772693515 0.7112065554
0.1066026315 0.05939638615 0.8253873587 0.8261204362 -0.1405583024 0.5447953343
0.1551325321 0.08123167604 0.8002811074 0.1703508794 -0.3358858526 0.9155570865
0.1766373962 0.06516453624 0.7879021168 -0.2902408838 -0.09371647984 0.9410484433
0.1871524453 0.03962905705 0.8131224513 -0.4173820913 0.530757606 0.7321164012
0.1521602422 0.09804350138 0.7966190577 0.1886970401 -0.05809954926 0.9660949111
0.1586087346 0.09080694616 0.7947872281 0.08257606626 -0.2373276651 0.9374617338
0.1289512962 0.1000245586 0.8079507947 0.4713531435 0.01579042524 0.8693467975
0.1385347545 0.1005681604 0.8045147657 0.3414575756 -0.04106968641 0.9173941612
0.1319265217 0.09564016014 0.8104405403 0.5243333578 -0.1293711811 0.8067685366
0.1412669569 0.1007056907 0.799508214 0.2816056311 -0.05791433901 0.9508137703
0.1467251331 0.1007581502 0.7970474362 0.2383520454 -0.08740333468 0.9603681564
0.1203505844 0.0535614416 0.8036338687 0.7138254642 -0.028017167 0.6931133866
0.116152592 0.05346552655 0.809197247 0.7712319493 -0.05750624463 0.6224361658
0.1143633872 0.05950736627 0.8102921247 0.7785577774 -0.1254922748 0.6033855677
0.1628582329 0.02095457725 0.8081342578 0.09656375647 0.5210601687 0.8029344678
0.1576597542 0.02347191796 0.8101319075 0.1251578331 0.4628070891 0.8329889774
0.1420345157 0.03131597862 0.8016668558 0.3165234625 0.3963760436 0.7902844548
0.1566350311 0.02522325516 0.8054457307 0.08684589714 0.5252902508 0.7953210473
0.1565883607 0.02802828699 0.7961304784 -0.0269622691 0.6754029989 0.7167828083
0.1510657817 0.02987822518 0.7962194681 0.07860606164 0.6020755768 0.7276927829
0.131447196 0.0350853093 0.8010932207 0.509745121 0.2678416073 0.8049186468
0.1535502821 0.02739706077 0.8016864657 0.09891610593 0.545961082 0.7692657709
0.1669981033 0.01855223067 0.8159649372 0.02031722851 0.4899878204 0.8650431037
0.1487893015 0.02798019163 0.8051419854 0.2315263003 0.4280770421 0.8071895838
0.1140738651 0.07815901935 0.8232694268 0.7838881612 -0.2449402511 0.5704014897
0.1192970723 0.08250314742 0.8126701713 0.7343503237 -0.2212740183 0.6239238977
0.1244493946 0.09060592204 0.8094189167 0.5759726167 -0.09879078716 0.7784751654
0.1493782103 0.07798165828 0.7995779514 0.2526568472 -0.3170463145 0.9136378765
0.1202593222 0.05875524879 0.8028949499 0.7077378035 -0.09623900056 0.6917853951
0.1342374086 0.05069514737 0.791729629 0.4795182943 -0.000699405151 0.8735815883
0.1291469932 0.04039015248 0.7978670597 0.5621644855 0.157367155 0.8101757765
0.1254785657 0.04361870885 0.8005756736 0.6380363107 0.08202286065 0.7594932914
0.2235250622 0.02523024194 0.8370677829 -0.6522438526 0.1889986098 0.7328915596
0.222348541 0.03077457473 0.834553957 -0.6456762552 0.1762064397 0.7417887449
0.2139177769 0.04407633841 0.8312052488 -0.6245924234 0.1661870629 0.7622518539
0.2195949554 0.03566681594 0.8327201605 -0.6372271776 0.1685070693 0.7507935762
0.2164791226 0.03945364431 0.8292636871 -0.6238611937 0.1504506618 0.7657977343
0.228825897 0.01922446489 0.8370016813 -0.6611545682 0.1826005429 0.7267068624
0.2228986025 0.009806194343 0.8433367014 -0.633063674 0.3162333071 0.6986631751
0.2283072323 0.01037884038 0.8377466798 -0.6447721124 0.2381148785 0.7251819968
0.2214884758 0.01384519693 0.8300200105 -0.6229425669 0.2144762129 0.749950707
0.2106651366 0.03096573427 0.8192569613 -0.6078928709 0.06525220722 0.7912435532
0.2175124437 0.02636397071 0.8365932703 -0.6497075558 0.1982387751 0.7326282859
0.2159167677 0.03301139176 0.8345080018 -0.6403330564 0.1864920259 0.7436290383
0.2172371596 0.03443144262 0.8276125193 -0.6300097704 0.1130362675 0.7656055093
0.2198143899 0.0298822131 0.8292157054 -0.6393216252 0.1154894829 0.7566523552
0.2252176106 0.01930758916 0.8324946165 -0.6440448761 0.1420702338 0.7462791204
0.2211980373 0.02373226359 0.828917861 -0.6335789561 0.1112259328 0.7602604032
0.2170981914 0.02677342854 0.8248351216 -0.6174045205 0.07995877415 0.7784942985
0.2182203978 0.01749752276 0.8271571398 -0.6307765841 0.173951298 0.7528235316
0.2168039978 0.02178097889 0.8237939477 -0.6054292917 0.09642222524 0.7845774889
0.2212122977 0.01593857072 0.8404410481 -0.6636468768 0.2157055736 0.716270864
0.1872250289 0.02254037559 0.8102788329 -0.1030023769 0.245229587 0.9244378805
0.1837943196 0.02609042078 0.8060221076 -0.1856901646 0.3208521605 0.8702064753
0.1845579892 0.01784618385 0.811830163 0.05554107204 0.2680391669 0.9362564087
0.1919946969 0.02064161003 0.8132868409 -0.1101271883 0.1740027964 0.9656913877
0.1888101846 0.07008180767 0.8049297929 -0.3930973709 -0.02591855824 0.8186312318
0.1877421588 0.05542778969 0.8089538813 -0.4173823893 0.2739301622 0.7597602606
0.1872682869 0.04600995407 0.811450839 -0.438868314 0.4682712555 0.7217327952
0.1889657676 0.06041790918 0.8072226048 -0.4328990281 0.1784368157 0.7790294886
0.1907790452 0.07521795481 0.8028500676 -0.4286929071 -0.118749693 0.8378224373
0.192018345 0.06450551003 0.8049438 -0.5023230314 0.1159837469 0.7929585576
0.1886476427 0.08001837879 0.8025733829 -0.3521018922 -0.236059472 0.8593526483
0.1925574392 0.04558156803 0.8139404655 -0.4790785909 0.4557975531 0.7350186706
0.1908196807 0.05065571144 0.8106152415 -0.4782203734 0.3737774491 0.7451882958
0.1949495673 0.05325048417 0.8116520643 -0.5033553243 0.3050540686 0.7666953802
0.1976801306 0.06821523607 0.8051003814 -0.5959060788 0.001179867308 0.7888705134
0.1997170597 0.0655676499 0.8098787069 -0.5556302667 0.01534578949 0.8187281489
0.2022806108 0.05629901588 0.8153195977 -0.5522459149 0.1775865406 0.7985650301
0.2050755918 0.05282717943 0.8199058175 -0.5698156953 0.1813281775 0.7949244976
0.200638473 0.05935946852 0.8092487454 -0.6634763479 0.1299520582 0.7298346162
0.1907995343 0.08516158909 0.8000404239 -0.3025383651 -0.3423213661 0.8852704763
0.2029388696 0.04417178035 0.8153589368 -0.5394003391 0.1749677509 0.8175020814
0.2049781829 0.03975499049 0.8127348423 -0.6196884513 0.1644593328 0.7550512552
0.2012876123 0.04622912034 0.8103166223 -0.596042037 0.2210594714 0.7588303685
0.20748806 0.03538502008 0.815805316 -0.6085401177 0.1146801934 0.7764052749
0.1501857489 0.09011904895 0.7927428484 0.1983730346 -0.1848070174 0.9430732131
0.1472145915 0.09556796402 0.79258883 0.2477465868 -0.1069987044 0.9503378272
0.160099864 0.08449015766 0.791343689 0.09551097453 -0.3581175506 0.9072973132
0.1536109298 0.09358329326 0.7924723625 0.1581620723 -0.2017563432 0.9342165589
0.1631068736 0.07912265509 0.7904984951 0.07562337071 -0.4403411448 0.8921280503
0.157490015 0.07903836668 0.7904987931 0.1474486142 -0.3314155638 0.9185971618
0.1221657917 0.04884137213 0.8019881845 0.689494729 0.01769234054 0.7226063609
0.1188389361 0.04497828335 0.8053978086 0.7209483981 0.02514408901 0.6913462877
0.1149270907 0.0389566198 0.812856257 0.7454226017 0.03128621727 0.6655777097
0.1269118041 0.05344923586 0.8002139926 0.5938308239 -0.08247022331 0.7723065019
0.126003176 0.05832985044 0.800780654 0.6017976999 -0.1328134388 0.7604016662
0.1274949759 0.05612016469 0.7957382202 0.5794780254 -0.08434391767 0.807564199
0.1123999208 0.04928728193 0.8124493361 0.7884171009 -0.03927624598 0.6107640266
0.111559324 0.04284263775 0.814956665 0.7891925573 -0.01622935198 0.6102170348
0.1457794756 0.04059293121 0.7929885387 0.2128322124 0.2737892568 0.905411303
0.16123721 0.03035045788 0.8136444092 -0.1461132616 0.4309253097 0.8034801483
0.147337079 0.03195148706 0.8091499805 0.1583020538 0.3564524949 0.7979424
0.1470468193 0.0378883332 0.7995544076 0.1783091128 0.2936400175 0.8690233827
0.141780138 0.03709322587 0.8001075983 0.2904092073 0.2799678445 0.8500199914
0.1527967155 0.03604030609 0.8033220768 0.04964353144 0.3367503583 0.8570136428
0.1401091963 0.04044467211 0.7944828272 0.3343076706 0.2382359207 0.8874524236
0.1536355168 0.03328033164 0.807880044 0.0251153633 0.3688809872 0.8252270818
0.1523841172 0.03067819402 0.8118956089 0.04617089033 0.3906733692 0.7916077971
0.1614028364 0.02667956613 0.8175754547 -0.1348189861 0.4491620064 0.8127852678
0.1371230334 0.03365960345 0.8047320843 0.3862527013 0.2935458124 0.807199657
0.1643452048 0.05278111249 0.8025314212 -0.1420724839 0.2059562206 0.7414741516
0.1563539505 0.0668367371 0.8007512093 0.07488818467 -0.08544010669 0.8379145265
0.1498939097 0.07162871957 0.7980864048 0.2225793153 -0.259857744 0.8791983724
0.1538002193 0.07353061438 0.8005930781 0.1535044909 -0.1990535408 0.8810265064
0.1717894226 0.0120437555 0.8210000396 0.174019441 0.3522835672 0.8867363334
0.1727979928 0.01785585657 0.82099998 -0.09902971238 0.4466134608 0.8286815286
0.1776262075 0.01222101785 0.8213261366 -0.06851156801 0.4741964638 0.8272582889
0.1729482263 0.02534965239 0.8215333819 -0.3566429615 0.4998823702 0.7781922817
0.1957174689 0.01927490905 0.8299706578 -0.4619008005 0.3582146764 0.7555931807
0.1829491258 0.009769488126 0.8231300712 -0.06622724235 0.4413747489 0.8266378045
0.204906255 0.01586291753 0.8332186937 -0.4793371856 0.3013195395 0.7508150339
0.1844185591 0.02147546411 0.8256508112 -0.38844648 0.4287494719 0.7704873085
0.1893793046 0.0172193516 0.8270100355 -0.3349183798 0.3987285495 0.7788212299
0.2012504041 0.01126114931 0.830953002 -0.3170267344 0.3256712556 0.7796564102
0.1899554431 0.009837985039 0.8260428309 -0.149138242 0.3972244561 0.8109238148
0.2126236856 0.01524660457 0.8363141418 -0.5526272655 0.2528873086 0.73663342
0.1937091649 0.01252077613 0.8280356526 -0.2625494599 0.3728085756 0.7905424237
0.1775887161 0.02140667476 0.8228111267 -0.3075711131 0.4717883468 0.7858147025
0.1863722056 0.005688340403 0.8238810897 0.0005432791077 0.4209885895 0.8375614882
0.1695701182 -0.02041084506 0.842140913 0.2201672047 0.602914989 0.7666190863
0.1772415936 -0.02995189279 0.8458752632 0.2043955624 0.6074148417 0.7675312757
0.1716532111 -0.02685894258 0.844542563 0.2203534395 0.6028618217 0.7666082978
0.2202915102 0.000862602843 0.8465138674 -0.5869123936 0.4974426329 0.630522728
0.1166719571 0.05919640139 0.8162218332 0.7276332974 -0.1491542011 0.6323812604
0.1246035397 0.06728513539 0.810561955 0.608517468 -0.2065250278 0.726392746
0.1187198311 0.06746529043 0.8156172037 0.6949287653 -0.2165593058 0.646680057
0.1307239681 0.07191906124 0.8043311238 0.5146484375 -0.2525569797 0.8065502048
0.1248063445 0.06667900831 0.8045938611 0.5971641541 -0.2548301816 0.7475782037
0.1193265766 0.06171222776 0.8091934323 0.6801671982 -0.2148057967 0.6797795296
0.1112282053 0.07160943002 0.8234647512 0.7887214422 -0.2457761616 0.5630381107
0.1105577424 0.06540767848 0.8192302585 0.8094121218 -0.21479173 0.5460522771
0.1100494862 0.06860934198 0.8295972347 0.8127683997 -0.1992329359 0.5464578271
0.1103245467 0.06394755095 0.8251644969 0.8153062463 -0.1811041385 0.5473528504
0.1145966351 0.06967122108 0.8196955323 0.7559053898 -0.2372161299 0.5883360505
0.1270299852 0.07556853443 0.8104973435 0.5739952326 -0.2593292594 0.7488195896
0.1211681515 0.07425297797 0.8155277371 0.6614325643 -0.2532937527 0.6725261807
0.1150553599 0.07304356992 0.8145475984 0.7790828943 -0.264877975 0.5678604245
0.1197245792 0.06699670851 0.8054368496 0.6963318586 -0.2487821728 0.6661199927
0.1268234998 0.06600607932 0.7994872332 0.5789059997 -0.2535836995 0.7738414407
0.1246920824 0.08646277338 0.8134288192 0.697371006 -0.1712374091 0.6939954758
0.1354442388 0.08029631525 0.8053091764 0.4554741681 -0.2368339449 0.8416848779
0.1415807307 0.08029653877 0.8018812537 0.3300003111 -0.2121513784 0.9088965058
0.148309797 0.0656068027 0.7879116535 0.2864685953 -0.3419462442 0.8928210735
0.1529714316 0.06221418828 0.7858475447 0.1841376722 -0.2256954461 0.9457242489
0.154649362 0.05750537291 0.7854819894 0.1236765385 -0.0899521634 0.9801559448
0.1538136899 0.06746838242 0.7876098752 0.212086454 -0.3442997336 0.9109193087
0.1567097753 0.07285813242 0.7895834446 0.1849639118 -0.3668755591 0.9065309763
0.152188763 0.07920983434 0.7909703851 0.2171115428 -0.2821760476 0.9200675488
0.1484446526 0.08347316831 0.7920135856 0.2484786063 -0.2256590277 0.9263666868
0.151461482 0.07284794003 0.7904128432 0.2574191093 -0.3694878817 0.8858678937
0.2121080905 0.01148078497 0.822383523 -0.5558055043 0.2618932128 0.7830637097
0.2160762399 0.01308821701 0.8253715634 -0.5924658775 0.2321730405 0.7681523561
0.2058487684 0.006640309468 0.8186234832 -0.4802595079 0.3378115594 0.8073807359
0.2114863098 0.0327931866 0.8264864087 -0.5913028121 0.1200666502 0.792599082
0.2133456916 0.02821405604 0.8297781944 -0.6101278067 0.1448892951 0.7726274729
0.2178259343 0.01904410869 0.8379798532 -0.6581736207 0.2086021602 0.7222726941
0.2107487768 0.03845826909 0.8257383108 -0.5893839598 0.1182790771 0.7959101796
0.2114756256 0.04338302463 0.8244531751 -0.5880407691 0.134064123 0.7958319783
0.184749499 0.03188143671 0.8213627338 -0.4341718256 0.3704258502 0.7944951653
0.2044022977 0.03575962409 0.8213828206 -0.5375713706 0.1319027543 0.8187767267
0.1796182692 0.03020151332 0.82126683 -0.4088969231 0.4263075888 0.7878035307
0.1960178167 0.03923976421 0.8176392913 -0.4376525879 0.3553483486 0.8008118868
0.1836941391 0.03348350152 0.8148009777 -0.3585973978 0.511885345 0.7783084512
0.1915866286 0.03670486063 0.8208620548 -0.4517741203 0.3367558718 0.8024953604
0.2068539411 0.04126401246 0.8192943931 -0.553938508 0.1237195656 0.8187305331
0.2115015239 0.03569995239 0.8214398623 -0.6086161137 0.06926401705 0.7884065509
0.1421035081 0.0946437791 0.8070677519 0.3624035716 -0.1657511741 0.8686600327
0.1537491083 0.09557984024 0.8021354079 0.1669502258 -0.1884444356 0.9531337023
0.1521266103 0.09047245234 0.8026585579 0.1753183305 -0.1762357354 0.9479647875
0.1456837654 0.08948729932 0.8051739335 0.2794187963 -0.1599233299 0.9041927457
0.1479372084 0.09396711737 0.8047838211 0.2627179027 -0.1783358455 0.9098374844
0.1371769011 0.09310116619 0.8090770841 0.4402926862 -0.1534870714 0.8349112868
0.1320409477 0.08915434778 0.8084955812 0.5115314126 -0.1070606783 0.8314079046
0.1370766759 0.08769322187 0.8061905503 0.41964522 -0.1121522859 0.8716468215
0.155887112 0.0865604952 0.801004827 0.09186507016 -0.1736279279 0.9799827337
0.1606956124 0.08950650692 0.8014627695 0.0377841033 -0.2480991483 0.9664250016
0.1500699669 0.08496749401 0.80133605 0.1788288206 -0.1429101974 0.9638201594
0.1893692166 0.06085066497 0.7952218056 -0.6325086951 0.1561894119 0.7504879832
0.1851931214 0.05583881214 0.7927454114 -0.5548136234 0.2361168265 0.7924051881
0.1956367046 0.06266715378 0.80012393 -0.7043331861 0.1231845468 0.6968733072
0.1982309073 0.048344668 0.8067096472 -0.5783454776 0.2429652214 0.7547057271
0.2015756667 0.04991821945 0.8145083785 -0.5480508804 0.274063617 0.7848925591
0.1943584979 0.06946902722 0.7993705273 -0.5801799893 -0.01546949986 0.7913801074
0.1593344361 0.06812929362 0.7863954306 0.1032849029 -0.315472275 0.9375474453
0.1763894111 0.07365011424 0.7893868089 -0.2427244484 -0.2949322462 0.9172816873
0.166248396 0.07207418978 0.7875518799 -0.01158822328 -0.346441865 0.9325359464
0.1711044163 0.06829441339 0.7872132063 -0.1272954643 -0.2260657251 0.9542888999
0.1774903089 0.07927393913 0.7921923995 -0.2164425701 -0.3653278947 0.9005465508
0.1657573879 0.08277465403 0.7924507856 -0.03409799188 -0.4133339226 0.9091585279
0.1690368503 0.07842884958 0.7900063992 -0.07625647634 -0.3979427218 0.9105793238
0.1795281917 0.08630680293 0.7988288403 -0.1724665314 -0.4187856913 0.8861459494
0.1848776788 0.08658353239 0.8014593124 -0.2263786346 -0.3923087716 0.888761878
0.1812646389 0.08256741613 0.7956842184 -0.2279423773 -0.3862857819 0.8874628544
0.1732599735 0.08439406008 0.7947172523 -0.1151537672 -0.4546386898 0.8817107677
0.1670262516 0.08899820596 0.7963940501 -0.03476893902 -0.3503792584 0.9177649021
0.1594848484 0.09587068111 0.8014036417 0.05927242339 -0.2054841816 0.9742577076
0.1425687224 0.07480762899 0.8003131151 0.3197947145 -0.3087206483 0.8927409053
0.1388697922 0.06129633635 0.793101728 0.3822416663 -0.2195774615 0.8905028701
0.1441279054 0.0706429109 0.7969475985 0.3096933663 -0.2833279371 0.904640913
0.1322368085 0.06638316065 0.7985777855 0.4688674212 -0.2925432026 0.8236234188
0.1343200207 0.05510114878 0.7946235538 0.4712024927 -0.1101071611 0.8537047505
0.1390116215 0.04858264327 0.7927182913 0.382734865 0.02999015339 0.8963041306
0.139266476 0.05394044518 0.791973114 0.3912119567 -0.09887202829 0.8985573649
0.129414618 0.04714410007 0.7966141105 0.5685058832 0.03388116136 0.8132460713
0.1341378987 0.0433158651 0.7973391414 0.4731254578 0.1010750532 0.8466399312
0.1690612286 0.03873057663 0.8054683208 -0.2861930132 0.4444290698 0.7063353062
0.1658954024 0.04201608524 0.8021882176 -0.2089063972 0.3710782826 0.7228378654
0.1599429548 0.04173816368 0.8047101498 -0.08437785506 0.2447819561 0.8064889312
0.1710833162 0.03567558527 0.8088508248 -0.3386377692 0.4930015206 0.7035915256
0.1608276516 0.04486192018 0.8001862764 -0.09296017885 0.258004725 0.7689288855
0.1544193178 0.04462641105 0.8028156161 0.04131061956 0.1219212338 0.8584671617
0.1691937894 0.03208217025 0.8143694997 -0.3103950918 0.4592196345 0.758718729
0.1635333747 0.03527422249 0.8121153116 -0.1808461845 0.3328983784 0.810090661
0.1471398622 0.05200395361 0.7954595089 0.2184701562 -0.0457819961 0.897756815
0.1603837013 0.03676160425 0.8078197837 -0.1085218862 0.3050794899 0.8344720602
0.1501247138 0.04625441879 0.7950505018 0.1394702494 0.1146333292 0.8902946115
0.1640180498 0.03045576625 0.8082808256 -0.2031195164 0.4759816229 0.8233444691
0.161739558 0.03123224899 0.8036062717 -0.1510934383 0.4804942906 0.8396562338
0.1568419933 0.03564850241 0.7973507643 -0.03296839818 0.3936378956 0.8666450977
0.153214559 0.04106245562 0.7956759334 0.05943303928 0.2539865375 0.8803372383
0.1419767588 0.05640679225 0.7881765366 0.3529930413 -0.1144993454 0.9155406356
0.1444499344 0.06114919111 0.7874410152 0.3242625892 -0.2490481585 0.9032909274
0.147570923 0.06600467861 0.7954987288 0.2508417666 -0.2253414243 0.8782426119
0.1525655985 0.0550291501 0.7959221005 0.112643443 0.008458932862 0.833067894
0.1546780616 0.05035953224 0.7960944772 0.05411319062 0.1077684313 0.8139549494
0.1560555398 0.06046368554 0.7993807793 0.0543182902 -0.03021590225 0.8046822548
0.1596812159 0.04981901124 0.7990418673 -0.05381421 0.1807843447 0.7712398767
0.1449603587 0.06163938716 0.7928390503 0.2935948372 -0.1917842776 0.8994030356
0.1594209224 0.05654639006 0.8005055785 -0.0286494419 0.07369182259 0.7750877142
0.1516647935 0.06321109086 0.7973428965 0.1556679159 -0.1293416619 0.8427202702
0.1753579527 0.0378453508 0.8057956696 -0.4219889641 0.568073988 0.6349038482
0.1662901044 0.04757665098 0.8025662303 -0.2008399367 0.3007993698 0.7144450545
0.1481987983 0.05697739124 0.7867484689 0.2126990557 -0.1056993529 0.9599457979
0.1372268945 0.03591153398 0.7946467996 0.3937387764 0.288777411 0.8643990755
0.1430336535 0.03489498049 0.7916979194 0.2728987336 0.3328084052 0.8920538425
0.1374879926 0.03360334039 0.7992202044 0.3734446764 0.3742647171 0.7799829841
0.1805168092 0.04053767771 0.8092477918 -0.436183989 0.5517866611 0.6603877544
0.1624849141 0.06545435637 0.8038401008 -0.007566485088 -0.0001692142832 0.8326120973
0.1581044197 0.07136590034 0.802506566 0.09456206858 -0.1315438151 0.8729807734
0.1796648651 0.04732313752 0.8097780347 -0.3368219137 0.4181903899 0.7267891169
0.1753688157 0.05114499107 0.8081933856 -0.2645324171 0.3272261322 0.7458536625
0.1698935181 0.05218955874 0.8055941463 -0.2247296125 0.284329474 0.7322794199
0.1725012809 0.04706195369 0.8060497642 -0.3039532006 0.3925442398 0.6964088082
0.1649609953 0.05949125811 0.8042177558 -0.1019437537 0.1242856458 0.7829368711
0.1612585932 0.02283222787 0.8025972247 0.05155340582 0.5824730396 0.7660203576
0.1705582887 0.01303487085 0.8107870817 0.1893083304 0.4480704963 0.8370036483
0.168502152 0.01373709459 0.8157089353 0.2166927606 0.3851393461 0.8695983291
0.1663640141 0.01713946834 0.8085380197 0.1395904869 0.4888080955 0.8153508306
0.2177007496 0.001237954362 0.8373416662 -0.568903327 0.4299226701 0.6848791838
0.2119680047 -0.0002870015451 0.8322176933 -0.5370463729 0.448444277 0.6999017
0.2228958756 0.002945560496 0.8413366675 -0.5985774398 0.4024184942 0.6762673855
0.2177978307 0.007162514608 0.8297368884 -0.5632878542 0.3046136498 0.7575390339
0.204366833 -0.000351464143 0.824067831 -0.4866460562 0.4519352317 0.7387977839
0.2242946178 0.006824429147 0.8364382982 -0.610747993 0.2967080474 0.7228227258
0.2093801647 0.002603783039 0.8260338902 -0.5148601532 0.3945444226 0.7474523187
0.1781667173 -0.02523030154 0.843203485 0.1992559135 0.6088812351 0.7678285837
0.1747246683 -0.02195032313 0.8406139612 0.2085077167 0.6098080873 0.7645077705
0.1728484929 -0.01756697893 0.8377357125 0.2277289033 0.6059169173 0.7621195912
0.1785903275 -0.01867098548 0.8377461433 0.2077525407 0.6106714606 0.7637070417
0.183705315 -0.02088371478 0.8380020857 0.1938359439 0.6148738861 0.7643122673
0.1291864514 0.08832869679 0.8037881255 0.4906061888 -0.09746373445 0.8369243145
0.1211536229 0.07652186602 0.8073627353 0.6907054782 -0.2517947257 0.6556283236
0.1228256896 0.08228158206 0.8073263764 0.6321461797 -0.1808900833 0.7139997482
0.1280679852 0.09385472536 0.8063092828 0.4792805016 -0.03895201907 0.8653911948
0.2066223025 0.01224301104 0.8177383542 -0.4860681593 0.2619853616 0.8269481063
0.2062702477 0.02852958068 0.8173040152 -0.4653047323 0.03755497932 0.8796131015
0.1923841536 0.02511439659 0.8268568516 -0.4945275187 0.3469855487 0.7646574378
0.2148962319 0.02363693528 0.8329657912 -0.6270347834 0.171825856 0.7529637814
0.2006265372 0.02687622048 0.8272937536 -0.5374718904 0.2574594915 0.7727466822
0.1876113415 0.02585519105 0.825227499 -0.4654001892 0.3794063032 0.7694334984
0.2049482912 0.03079568967 0.8251814842 -0.5527421832 0.177481845 0.793081224
0.2091500312 0.02231861278 0.8327316046 -0.5973138213 0.2352324873 0.7468405366
0.2041642964 0.02119625732 0.8325116038 -0.5714741945 0.2900106311 0.7416430712
0.1808470935 0.02513828687 0.8242992163 -0.4283936918 0.4448385239 0.766710937
0.2083948106 0.02674808539 0.8291034698 -0.5822730064 0.1928075701 0.7707620263
0.1968685836 0.03301021829 0.8216726184 -0.5011101365 0.2217738181 0.8063260913
0.1917098016 0.0306959711 0.8223460317 -0.4771627486 0.2911677361 0.7947546244
0.2014225572 0.02186910994 0.8153159618 -0.3431647718 0.1252105087 0.9226109385
0.2032024711 0.01596319117 0.8162547946 -0.3576832712 0.21224913 0.9045243263
0.1961311251 0.01780764759 0.8143898845 -0.1734316945 0.1736572534 0.9627683759
0.2113094628 0.01772405207 0.8201862574 -0.592989862 0.1801138818 0.7818003297
0.2070291936 0.02003640123 0.8171945214 -0.4497953057 0.1288786083 0.8742881417
0.21076262 0.02462039702 0.8180075288 -0.5448613167 0.05054086447 0.8324254155
0.1966238767 0.028236866 0.8123873472 -0.3227953315 0.1473555267 0.9121661186
0.1965019107 0.03293019533 0.8107434511 -0.403865099 0.1968942583 0.8545044065
0.1999674439 0.03794227913 0.8119436502 -0.5041764379 0.1759031266 0.8142638206
0.1962186992 0.04239406064 0.8074951768 -0.5644135475 0.2953672409 0.7402889729
0.1751575321 0.03226177767 0.8121503592 -0.4338271916 0.583476603 0.6778638363
0.1728387624 0.02890263125 0.8176176548 -0.3947548866 0.538595438 0.738292098
0.1919110417 0.04974900559 0.8022642732 -0.6166313291 0.3920815587 0.6815161705
0.1865572929 0.05096440017 0.7959066033 -0.6044808626 0.3622241318 0.6996617913
0.1898933053 0.05497213826 0.7966612577 -0.6442924142 0.2584739923 0.7124121785
0.1802327931 0.05082421377 0.7905908823 -0.4757582843 0.2896178365 0.8276695013
0.1926026195 0.03668831289 0.807515502 -0.4154990911 0.2712131739 0.8231835365
0.1881277114 0.04638229311 0.8000915051 -0.5647972226 0.400703758 0.7059746981
0.1900926083 0.04246184975 0.8032506704 -0.5048961639 0.347388953 0.7533740997
0.1759222001 0.04806425422 0.7897411585 -0.4291783869 0.3268758953 0.8386517167
0.182506606 0.03814540058 0.7986724377 -0.4378317893 0.4053363502 0.7644197345
0.1892975569 0.03272807598 0.8057633042 -0.3451629877 0.2624151707 0.8619027138
0.1905540824 0.02753701061 0.8089909554 -0.2682129741 0.2128948718 0.9153935909
0.1863242239 0.03575194255 0.8023604751 -0.3950451314 0.3285830915 0.8137027025
0.1803621799 0.04531341046 0.7938968539 -0.5314140916 0.4618979096 0.706178546
0.1841248721 0.07668621093 0.7937642932 -0.3145153821 -0.2695245743 0.9082224965
0.1881088167 0.08118648082 0.7966105938 -0.3257502615 -0.2957425117 0.8967148066
0.1900489628 0.07552425563 0.7966144085 -0.4015188813 -0.1783300191 0.8941417933
0.1799993962 0.06860866398 0.7901937366 -0.3654148281 -0.1416353434 0.915223062
0.1862358451 0.06642101705 0.7935891151 -0.4831475317 -0.03959782049 0.8732981682
0.1873342693 0.07152956724 0.7948545814 -0.4179735482 -0.1365749538 0.8913727403
0.1356603801 0.07515358925 0.8025069237 0.4376945794 -0.2756567895 0.8533918262
0.1549743861 0.03174503148 0.7920129299 0.005048143212 0.5667413473 0.7804694176
0.1485414207 0.03839280084 0.7886054516 0.1877170205 0.2757733762 0.9393744469
0.1528401375 0.04221272841 0.787435174 0.08614984155 0.200592652 0.9699493647
0.1726523191 0.03849250078 0.7921248078 -0.4262827337 0.5248476267 0.7310439944
0.1749131083 0.04310735688 0.7913449407 -0.44458884 0.4531796575 0.7693520784
0.1675761491 0.04287376255 0.7890178561 -0.2560508251 0.3532258868 0.8892536163
0.1565960646 0.03875226155 0.78843081 0.008755227551 0.266107142 0.9551994801
0.1680509597 0.03645370156 0.7918574214 -0.3443941176 0.5292526484 0.7612195015
0.2148278505 0.004613171797 0.8425524235 -0.5225243568 0.4488553405 0.688649416
0.1931441873 -0.0006123121129 0.8266348839 -0.03788280487 0.4780842364 0.8254149556
0.204165414 3.948975063e-05 0.8332806826 -0.2663205266 0.4824876487 0.7696691751
0.1997937858 -0.0006255994085 0.8303515315 -0.1720800698 0.4846478701 0.7945739627
0.2101945579 0.006320037879 0.8388065696 -0.4396175444 0.393682301 0.7241845131
0.2012789547 0.006469649263 0.8324493766 -0.2580533624 0.3624520898 0.780498445
0.2172846943 0.01006335672 0.8421208858 -0.6098230481 0.3162072599 0.7017514706
0.2059714794 0.0073611564 0.8353579044 -0.3601008952 0.3531877697 0.7564736605
0.1993279606 -0.01238203794 0.8330542445 -0.06833796948 0.5847120285 0.744001627
0.2068803906 -0.003844575956 0.8316374421 -0.4730451405 0.5220080614 0.6910374165
0.2016841471 -0.007291093469 0.8294041157 -0.3171890378 0.544649303 0.7198726535
0.2063208818 -0.007496440783 0.835732758 -0.2905775905 0.5521529317 0.704421103
0.2127373964 -0.002331318799 0.8372889161 -0.5289527774 0.5165159702 0.6659656167
0.1931335479 -0.01222754084 0.8369890451 -0.000169873485 0.5825607777 0.7371890545
0.2009235919 -0.00842173025 0.8400663733 -0.1770483106 0.5671505332 0.7000961304
0.2045783103 -0.004349243362 0.8406509161 -0.2718699574 0.5221272707 0.7045760751
0.1642723083 -0.0171898827 0.8405854106 0.2541641593 0.5856298804 0.7693502307
0.1614161581 -0.01177914534 0.838642776 0.2685731649 0.5761558414 0.7718710303
0.1682844609 -0.01416462287 0.8367577195 0.2467070967 0.5930254459 0.7662239671
0.1328898668 0.08612240851 0.7998988628 0.4331733584 -0.1308077425 0.8633763194
0.1330820024 0.08053863049 0.799249053 0.4290855229 -0.2002030164 0.8569848537
0.1282832325 0.08106470853 0.8036826253 0.5395963192 -0.1975136101 0.792786479
0.135191083 0.09212913364 0.7984861732 0.3745830059 -0.0526516214 0.9100649953
0.1350952238 0.09910545498 0.7990683317 0.3566061258 -0.007819834165 0.9336027503
0.1326411515 0.09536320716 0.8022222519 0.3945788741 -0.01364098303 0.9185814857
0.1387010068 0.09488905221 0.7962694168 0.3115153313 -0.01891482063 0.9493726492
0.1436388791 0.1004296988 0.7926142812 0.296679914 -0.03418782726 0.953874588
0.1682487279 0.02542635798 0.7990450263 -0.1512967944 0.6015977263 0.7260403037
0.1714042276 0.01843895949 0.8060473204 0.01317038294 0.5012054443 0.7904919982
0.175489828 0.01639593765 0.8092401624 0.07381786406 0.4179990292 0.846011579
0.1809445471 0.01265591197 0.8143519163 0.1768023968 0.3001479506 0.9241733551
0.1747082025 0.01079340093 0.8136553168 0.1925383508 0.3938899636 0.8592895865
0.1629995108 0.02567217499 0.7974411249 -0.1124924496 0.6601171494 0.7004617453
0.1665767431 0.02037522756 0.8030669093 0.002466661856 0.5710466504 0.7550133467
0.161999017 0.03802043572 0.7893821001 -0.1546581388 0.3624952435 0.9049837589
0.16306898 0.03122526035 0.7930065393 -0.2425001115 0.6412031054 0.7048760056
0.1731759161 0.02515480481 0.8013857603 -0.1362287402 0.5084492564 0.7779449821
0.1774815619 0.02866981179 0.8007740974 -0.2201445103 0.4410251677 0.7989429235
0.1681660265 0.03005414456 0.7956620455 -0.2689573467 0.6219594479 0.6964956522
0.1810928136 0.02139962651 0.8075764179 -0.02866014279 0.3446239233 0.8813666701
0.1734971404 0.03281187639 0.7960461974 -0.3319981396 0.5322588086 0.7326077819
0.1856463104 0.0001958777721 0.8187786937 0.1711448133 0.4346105456 0.8816230893
0.1776888967 0.006055114791 0.8177400231 0.2726005912 0.3449138701 0.8966386318
0.1452651024 0.07268969715 0.7891545296 0.2935248017 -0.2441731989 0.916874826
0.1445988864 0.07849321514 0.7910799384 0.288041383 -0.2144526243 0.9233651161
0.141923964 0.0687674731 0.7922083735 0.3425142467 -0.3449470103 0.8712899685
0.1415938437 0.07374756783 0.7933782935 0.3400733471 -0.2584666908 0.8911372423
0.1411230415 0.08955373615 0.7963245511 0.3143507242 -0.05425980687 0.9438909888
0.1410742998 0.08423876017 0.7955578566 0.3274053037 -0.1107356548 0.9272827506
0.1800555289 -0.01171500236 0.8309653997 0.2084558457 0.5790008307 0.7842382193
0.1783452183 -0.004535789136 0.8257102966 0.2102748752 0.513467133 0.8269909024
0.1735559553 0.00357165793 0.8216984868 0.3404162824 0.3670695722 0.8653611541
0.1879300177 -0.004750822205 0.8244498968 0.09123443812 0.5110799074 0.8450047374
0.1880016774 -0.009635716677 0.8281548023 0.1079936922 0.5547543168 0.8142992854
0.1972481012 -0.01047918946 0.8283485174 -0.08164828271 0.568937242 0.7716707587
0.1945759207 -0.006274723914 0.8255836368 -0.02412734553 0.5328496695 0.8378329277
0.1974501312 -0.007783675566 0.8351876736 -0.1008163318 0.5459141731 0.7540370226
0.1924770325 -0.01020597573 0.8310745955 0.01977721974 0.564183712 0.7900770307
0.2088173926 -0.0006288066506 0.8405690789 -0.3725735843 0.4910140336 0.7066840529
0.1866598725 0.01219975948 0.8145499825 0.1129613966 0.2787154913 0.9506754875
0.1871765852 0.005100646522 0.8166387081 0.1303413063 0.3502439857 0.9246230721
0.1923382878 0.008536584675 0.8157554865 0.02016937546 0.3018074036 0.9487264752
0.1912407577 0.01394240931 0.8145297766 -0.001416026615 0.2214557976 0.9676938653
0.1961510777 0.001713319682 0.8181144595 -0.0843873322 0.3756356835 0.9047492743
0.1996595562 0.005362269934 0.8171025515 -0.2398860157 0.3441277444 0.8769471049
0.1984430254 -0.002803747309 0.8224711418 -0.2738916874 0.4676636457 0.7981184721
0.1976183802 0.01011728216 0.8158857226 -0.1793054491 0.2631552219 0.9242888093
0.2090348601 0.01171898004 0.8352296948 -0.4459242523 0.2766017616 0.7558321953
0.1957731396 0.006769151893 0.8281679153 -0.1424411684 0.3614847958 0.8109766245
0.1316428035 0.05991113558 0.7940399647 0.5041639209 -0.1780437082 0.8365892172
0.1366461664 0.07975987345 0.7952404022 0.3619959354 -0.1936951727 0.8934711814
0.1370024085 0.07143598795 0.7955009937 0.3812016249 -0.3471516371 0.8495187759
0.1328868866 0.07284644246 0.7982190251 0.4381299913 -0.2832375169 0.84084934
0.1346919537 0.06588688493 0.7938922644 0.4100156426 -0.3165272474 0.8532039523
0.1684492081 -0.006663633045 0.8307703137 0.3023492992 0.5350769758 0.7859982848
0.1665271372 -0.001264033373 0.8293683529 0.3456973732 0.4693086147 0.8088568449
0.1721740812 -0.004315514117 0.8266658187 0.3076989353 0.5121324658 0.7994972467
0.1681396067 0.003132377053 0.8262577653 0.3740465939 0.4183208346 0.8253129125
0.1846898198 -0.01512012538 0.8312534094 0.1856897175 0.6169367433 0.7646865845
0.1725733727 -0.01162872929 0.8321143389 0.2438203692 0.5919191241 0.7678704262
0.1834162325 -0.009838485159 0.8257533312 0.1871960312 0.5839898586 0.7881349325
0.1809856147 -0.002405120991 0.8217077255 0.2180985808 0.48533687 0.8401517272
0.1920777857 -0.003289937973 0.8205533624 0.03895418718 0.4446791112 0.8863508105
0.1917638034 -0.01744918153 0.8329943419 0.1538711637 0.6166502237 0.7717558742
0.1828686446 -0.02944540232 0.8444987535 0.1539714336 0.6180371046 0.7616029978
0.197277233 -0.01647593826 0.8358407021 0.007299344055 0.6182085872 0.7487311959
0.1978233606 -0.01904252917 0.8400661349 -0.1215516478 0.6437084675 0.7228640914
0.2157058567 -0.003895660862 0.8464210033 -0.5056146383 0.5674553514 0.6211304665
0.2017681599 -0.01462007407 0.8417090774 -0.2091476321 0.625813663 0.6921390891
0.2094419152 -0.00827595219 0.8443626165 -0.3728525937 0.5926146507 0.650274694
0.1897350252 -0.02554080263 0.8411726356 -0.0537266545 0.6609215736 0.7333239317
0.1889643669 -0.02103918232 0.837513566 0.08016871661 0.6444880962 0.7521230578
