# .PCD v0.7 - Point Cloud Data file format
VERSION 0.7
FIELDS x y z normal_x normal_y normal_z
SIZE 4 4 4 4 4 4
TYPE F F F F F F
COUNT 1 1 1 1 1 1
WIDTH 512
HEIGHT 1
VIEWPOINT 0 0 0 1 0 0 0
POINTS 512
DATA ascii
-0.09568556398 -0.02027398534 0.9952148795 0.1011948586 -0.185338065 0.9713099003
-0.101928927 -0.02558250166 0.993109107 0.09421864897 -0.06292156875 0.9911161065
-0.1044702604 -0.0974143222 1.002213717 0.06144044176 0.113281697 0.9915056229
-0.1025551707 -0.1016067043 1.003802896 0.05296217278 0.1352939904 0.9893752337
0.04181592539 -0.1667328328 1.091704011 0.1212735251 -0.01609497331 0.9921029806
0.04460070655 -0.1643090099 1.08897078 0.1276629567 -0.01559172198 0.9913739562
-0.0690317452 -0.08471678942 0.9996761084 0.1396417022 0.3077757955 0.9409297705
-0.06939338893 -0.08987308294 1.001000047 0.12488392 0.297221005 0.9465569854
-0.1135089993 -0.08643619716 1.002382994 0.03915314004 0.1175276861 0.9922786355
-0.1107037887 -0.09107360244 1.000841141 0.05014166608 0.1158192307 0.9919666648
-0.09890085459 -0.09627278149 1.000356078 0.05059495568 0.1227962002 0.9910241365
-0.1088007614 -0.09753873199 1.00402081 0.04708907753 0.1181375906 0.9918465018
-0.09461407363 -0.1019517705 1.004654646 0.02475827374 0.1317848265 0.9909436703
-0.09896472096 -0.09224253893 1.002970815 0.03963564336 0.1129020825 0.9927019477
-0.09519912302 -0.08619511873 1.001802802 0.04175310582 0.1043454036 0.9936294556
-0.02864097804 -0.1862767786 1.085431457 -0.1553946882 -0.1568868607 0.9749039412
-0.02032798901 -0.1905285269 1.082340479 -0.147681132 -0.2147206515 0.965352416
-0.02390239574 -0.1894083023 1.085249782 -0.1504696459 -0.1938132048 0.9688053727
-0.01674663275 -0.17616795 1.086603761 -0.1567119509 -0.1470104009 0.9765350223
-0.03258788213 -0.1869392246 1.080385804 -0.1526925713 -0.1771464646 0.9715579748
-0.04087237641 -0.1847522557 1.080696464 -0.1559039056 -0.1530689001 0.9755344391
-0.04016682878 -0.1844041198 1.07596314 -0.1548719704 -0.1608059555 0.9742566347
-0.03499383107 -0.1858725101 1.075923562 -0.1527131051 -0.1769924611 0.9715833664
-0.02691683173 -0.1884495765 1.078313351 -0.1497246921 -0.1993986666 0.9678829312
-0.04664551094 -0.1827506274 1.080480933 -0.1570914537 -0.1441649944 0.9770050049
-0.04591597244 -0.1824398637 1.075285196 -0.1570914537 -0.1441649944 0.9770050049
-0.04543838277 -0.1783719808 1.078588486 -0.1570914537 -0.1441649944 0.9770050049
-0.0435347259 -0.179854095 1.084239721 -0.1570914537 -0.1441649944 0.9770050049
-0.0357157588 -0.1819629669 1.084464669 -0.1570914537 -0.1441649944 0.9770050049
-0.0498270914 -0.1817063391 1.083938479 -0.1570914537 -0.1441649944 0.9770050049
-0.0387208052 -0.177617237 1.083214164 -0.1570914537 -0.1441649944 0.9770050049
-0.03384493664 -0.1772794276 1.083166599 -0.1570914537 -0.1441649944 0.9770050049
-0.03105331585 -0.1807937175 1.080403924 -0.1542931348 -0.1651458591 0.9735398889
-0.02335710637 -0.1845019907 1.080579996 -0.1512095481 -0.1882656962 0.9697215557
-0.02564592287 -0.1765548885 1.086047649 -0.1570041031 -0.14481996 0.9768968225
-0.03616545349 -0.1808059216 1.078290462 -0.1545773149 -0.1630151719 0.9738917947
-0.02228418365 -0.1895731688 1.076967359 -0.1475877315 -0.215420872 0.965236783
-0.02996560372 -0.1797056794 1.085552573 -0.1570914537 -0.1441649944 0.9770050049
-0.0718922168 -0.08022447675 0.9997240901 0.1770659834 0.3115134239 0.9331185818
0.05358737707 -0.1421565562 1.090000033 0.1301739216 0.01720401458 0.9913418889
0.04751887172 -0.1421611607 1.090000033 0.1301739216 0.01720401458 0.9913418889
0.04651300237 -0.1375841796 1.089807153 0.1301739216 0.01720401458 0.9913418889
0.01361346338 -0.1804949194 1.090432405 0.01211760845 -0.1380753666 0.9895499349
0.003569699824 -0.1694687307 1.092927337 -0.02277210727 -0.139017567 0.9888087511
-0.0103054801 -0.1766732782 1.087695599 -0.1225716099 -0.1467520893 0.9792080522
0.00369346654 -0.1781715751 1.089668751 -0.04081906006 -0.1513395309 0.9847524762
0.02579317428 -0.04447152466 0.989880085 -0.47089082 0.009611196816 0.8819295168
0.02715853043 -0.03597871214 0.9919993877 -0.4638173878 -0.02519319579 0.8845584989
0.0263710618 -0.02507101744 0.9918029904 -0.4565900266 -0.06075489894 0.8872446418
0.03110412695 -0.04468877614 0.9922217727 -0.4712846875 0.01154909283 0.8817831874
0.008381794207 -0.1819434464 1.09031415 -0.01634109393 -0.1618680805 0.9855890274
-0.001892062603 -0.1792803854 1.088914514 -0.07481170446 -0.1543496847 0.9820255041
-0.1057875007 -0.08972163498 0.9981465936 0.06025936455 0.1075420827 0.992300868
-0.008338668384 -0.01684403792 0.9764868021 -0.3552988172 -0.172694236 0.9165807962
-0.06852952391 -0.07823894918 0.9956555367 0.1816419512 0.326253444 0.9275055528
-0.0899881646 -0.01736933179 0.9974024296 0.1192998514 -0.267190516 0.9545460343
-0.1039865091 -0.0909511447 1.002759099 0.04544299468 0.1110661551 0.9927491546
-0.100805141 -0.08685081452 1.001864076 0.04470586404 0.1095570549 0.9929435849
-0.1078601629 -0.08767331392 1.002126217 0.04549259692 0.1174739227 0.9920249581
-0.1031121314 -0.08225123584 1.001827002 0.04685480148 0.1028018966 0.9934769273
-0.1068857387 -0.07514588535 1.001368284 0.07473950088 0.1103361771 0.9909549952
-0.1114706025 -0.07579061389 1.003041029 0.05685854331 0.08594425023 0.9945421815
-0.09854968637 -0.08039043844 1.001305342 0.06392573565 0.111908555 0.9912826419
-0.1131899655 -0.08056879044 1.002961397 0.04394222423 0.1026750877 0.9935252666
-0.07689721137 -0.08139934391 1.001000047 0.1620981097 0.278712213 0.9439153671
-0.07175832987 -0.09417375177 1.000499487 0.1060201675 0.2784116864 0.9539029598
-0.07605421543 -0.09666991234 1.000999928 0.07140833884 0.2556890249 0.9637429714
-0.07131505758 -0.0869904235 0.9955926538 0.1324013174 0.2872020602 0.9460921884
-0.08963572979 -0.08081898838 1.001127601 0.07884363085 0.183364138 0.9785990119
-0.08464608341 -0.08114892244 1.001000047 0.1033108458 0.2253219485 0.966668725
0.05939060077 -0.1265457124 1.084684253 0.1301739216 0.01720401458 0.9913418889
0.05019051582 -0.1345458329 1.088635206 0.1301739216 0.01720401458 0.9913418889
0.05448819697 -0.1291546822 1.086779952 0.1301739216 0.01720401458 0.9913418889
0.05818465352 -0.1346281767 1.088731766 0.1301739216 0.01720401458 0.9913418889
0.0569422394 -0.1386817247 1.086554646 0.1301739216 0.01720401458 0.9913418889
0.06205989793 -0.1338909864 1.085838556 0.1301739216 0.01720401458 0.9913418889
0.06150519848 -0.1386426985 1.088429809 0.1301739216 0.01720401458 0.9913418889
0.03602481633 -0.1535950154 1.089977622 0.1296440512 -0.02193092369 0.9911468029
0.04602188244 -0.1587410122 1.087000012 0.1298741251 -0.004937821534 0.9912315011
0.05113071203 -0.1575265378 1.088214874 0.1301489174 0.01535751112 0.9913327098
0.0377589725 -0.1457124799 1.090842724 0.1301739216 0.01720401458 0.9913418889
0.0411770083 -0.150883764 1.090472579 0.1301739216 0.01720401458 0.9913418889
0.04239955917 -0.1452623904 1.090324044 0.1301739216 0.01720401458 0.9913418889
-0.01544431318 -0.172269389 1.091408849 -0.1570914537 -0.1441649944 0.9770050049
-0.02160196751 -0.1752057225 1.087906957 -0.1570914537 -0.1441649944 0.9770050049
0.003708193777 -0.1744151264 1.093999982 -0.04104524106 -0.1658475101 0.9849085212
-0.001722878427 -0.1688284576 1.093993187 -0.07591256499 -0.128891021 0.9879801273
-0.01081925724 -0.1700985432 1.093581915 -0.1563798189 -0.1439536661 0.9771263003
-0.008867226541 -0.1742342561 1.093425155 -0.145610407 -0.1441880912 0.9786749482
0.02274072729 -0.01904761977 0.9905924797 -0.4148690701 -0.1416386515 0.8985579014
0.03355648741 -0.03341156989 0.9924613237 -0.4623444378 -0.02609884739 0.8853821754
0.03476542979 -0.03903536126 0.9920115471 -0.4651600718 -0.0004480661592 0.8852012157
0.03125407547 -0.02423919179 0.9939196706 -0.4519247413 -0.06995248795 0.8882393837
0.02776771784 -0.01851127669 0.9940003157 -0.4366481602 -0.102654025 0.8934907317
0.01940661483 -0.05348419026 0.9874663353 -0.3732491434 0.1724747568 0.9097049236
0.007724009454 -0.05183543637 0.9849559665 -0.3669301867 0.2014074624 0.9040281773
0.01335011981 -0.05203666165 0.9869564772 -0.3786884248 0.1633494198 0.9058402181
0.02593692206 -0.05058341101 0.991389811 -0.430323571 0.057536304 0.8982428312
0.01535562612 -0.04668376595 0.985093236 -0.3712394536 0.16113545 0.9112253785
0.01832697541 -0.1800676435 1.090641141 0.03983379528 -0.1073186547 0.9913998842
-0.01864376292 -0.1909840405 1.086922646 -0.1481620669 -0.2111146599 0.9659479856
-0.01373013388 -0.1839887947 1.090115786 -0.1496191919 -0.2001896203 0.9677522779
-0.01461441536 -0.1773653477 1.091190815 -0.1566556096 -0.1474328041 0.9764652848
-0.01819876209 -0.1815022826 1.089045405 -0.1554122716 -0.1567549706 0.9749256968
-0.02365857176 -0.1835463792 1.086594701 -0.1570914537 -0.1441649944 0.9770050049
-0.02318429016 -0.0287997853 0.9662079811 -0.1588033885 -0.1130907983 0.9701088667
-0.0200018771 -0.0349919349 0.9661738276 -0.2736442983 -0.02376860566 0.9524586201
-0.03278100491 -0.01024560072 0.9776173234 0.1766449362 -0.2864535749 0.9085565209
-0.01204411406 -0.01337708347 0.9771994352 -0.2408248037 -0.2197348177 0.9164110422
-0.01639311574 -0.01206765417 0.9744707346 -0.1808085442 -0.2605744302 0.9187273979
-0.02158710361 -0.0109737562 0.9732396007 -0.08930451423 -0.2900184691 0.9186399579
-0.02882918902 -0.009614087641 0.972237587 0.04526708275 -0.3242622316 0.9175124764
-0.02097900771 -0.01249091793 0.9793778062 -0.0414118804 -0.2294332385 0.9102144241
-0.1117602065 -0.04340301454 0.9924687743 0.2009187788 0.1264922321 0.9690257311
-0.112490505 -0.04979754239 0.9946166277 0.1906068921 0.1668617427 0.9655516148
-0.1141910255 -0.04690201208 0.9996293187 0.1905962527 0.1879374683 0.9634655118
-0.1132901758 -0.05578008294 0.9967828989 0.1785815507 0.1945548505 0.9639928937
-0.1147537231 -0.05189045891 1.001000047 0.1713056862 0.162538901 0.9700300097
-0.1151559725 -0.06068601087 1.001000047 0.1410600841 0.1225699186 0.9801102281
-0.1080909371 -0.06048512086 1.001000047 0.1615024507 0.1347801685 0.9755155444
-0.1137827262 -0.06449581683 0.9973926544 0.1272081882 0.1179054528 0.9843968153
0.01790104434 -0.01827961579 0.9890791774 -0.3913005888 -0.1726709008 0.9031577706
-0.105648689 -0.02910325117 0.9915712476 0.1354488283 -0.007353904657 0.9872197509
-0.02070841752 -0.04878340662 0.9666086435 -0.2803715765 0.1344379783 0.9480930567
-0.02419020794 -0.04057607055 0.9651606679 -0.160488531 0.008544803597 0.9804657698
-0.01908580586 -0.03989337757 0.9665808678 -0.3055065274 0.0260233134 0.9458109736
-0.0713448301 -0.07089804858 0.9943217635 0.2190099061 0.3326400816 0.9169589281
-0.06807410717 -0.07473878562 0.9926865697 0.1981067955 0.329040885 0.9231097698
-0.08704556525 -0.1020868421 1.003497362 0.02501007542 0.1710094512 0.9848524928
-0.08759620786 -0.09541113675 1.002107978 0.03584236652 0.1655880809 0.9852823019
-0.08736502379 -0.08936946839 1.001623273 0.05017352849 0.1816858798 0.9817297459
-0.09224373102 -0.0954419598 1.002807379 0.03321038932 0.1493406892 0.9877317548
-0.08489596844 -0.09492573887 0.998044312 0.06342148781 0.1998732537 0.9753167033
-0.07694061846 -0.09066908807 1.001052737 0.08834220469 0.2566947937 0.9607428908
-0.08222780377 -0.08635768294 1.001016617 0.07960935682 0.2251146883 0.9692376256
-0.08097738028 -0.09514831007 1.001376033 0.04961999506 0.2112612575 0.9751014113
-0.08072061092 -0.1012681648 1.001814127 0.04718599468 0.2228328884 0.9729931951
-0.09041576087 -0.08981602639 0.9980000854 0.07196887583 0.1813025326 0.9780005813
-0.09401530772 -0.07241587341 1.001000047 0.1373655498 0.1799747944 0.97286731
-0.09037911892 -0.07591363788 1.001000047 0.1181802899 0.2005767524 0.9712251425
-0.100616686 -0.06831810623 1.001400709 0.1537914276 0.1524630636 0.9746400714
-0.1085589081 -0.07006913424 1.001995683 0.1047341302 0.09751746058 0.9886122942
0.05609278753 -0.1488664895 1.090000033 0.1301739216 0.01720401458 0.9913418889
0.05900516734 -0.1445200443 1.089577079 0.1301739216 0.01720401458 0.9913418889
0.04582424089 -0.15315485 1.087000012 0.1301739216 0.01720401458 0.9913418889
0.05033068731 -0.1462478042 1.090000033 0.1301739216 0.01720401458 0.9913418889
0.04971693829 -0.1524206996 1.090000033 0.1301739216 0.01720401458 0.9913418889
-0.01677133329 -0.01576980203 0.9694820046 -0.2424082756 -0.2801365256 0.9241294861
-0.01889952831 -0.01979989186 0.9670245647 -0.2519681156 -0.2329337597 0.9288594127
-0.008536687121 -0.02478220686 0.9729101658 -0.356613785 -0.08942679316 0.923799634
0.03081218526 -0.02876047045 0.9891806841 -0.477455616 -0.04650713876 0.8773188591
0.02197518386 -0.1680174321 1.093201995 0.08230026066 -0.04287297279 0.9948328137
0.02229229361 -0.1744312644 1.091570735 0.06793487072 -0.05020557716 0.9958820939
-0.00353063317 -0.1768083572 1.093632698 -0.1161576435 -0.1481382698 0.9815158248
-0.004036560189 -0.1817146689 1.092162609 -0.1392329931 -0.1457315683 0.9788439274
-0.01146350056 -0.187095046 1.083706141 -0.1194638163 -0.1909986138 0.9724243879
0.00230704085 -0.1837777644 1.09141922 -0.05877354369 -0.1684201807 0.982614696
-0.01467353571 -0.1817661524 1.084394455 -0.1329557449 -0.1739797592 0.9741251469
-0.007790300995 -0.1812523603 1.087655663 -0.1002167389 -0.1681231558 0.9784914851
-0.0160303209 -0.1881352365 1.080354333 -0.1234211177 -0.2062711418 0.9693222046
-0.01861807331 -0.1841244549 1.081406832 -0.1464527994 -0.1875887513 0.9703248739
-0.009403505363 -0.1863307506 1.08809042 -0.1554193199 -0.1647400558 0.9733966589
-0.01409390755 -0.1887281686 1.088634014 -0.1496215314 -0.2024308443 0.9673230648
-0.02753551491 -0.01165034808 0.9670001268 0.01138114836 -0.2951189876 0.9451462626
-0.07919193059 -0.01784993708 1.000051141 0.2104744911 -0.3095526099 0.9249876142
-0.08369600773 -0.01690965705 0.9973233938 0.1702637225 -0.3134845793 0.931831181
-0.09042742848 -0.02219659463 0.9917521477 0.07734505087 -0.2151185572 0.9661029577
-0.09239178896 -0.0264341291 0.9893012643 0.03901709244 -0.1553263366 0.9840151072
-0.05689137056 -0.01731467806 0.9872543812 0.3645375967 -0.2874659002 0.8853253126
-0.04847896099 -0.01598814875 0.9815446734 0.3988337517 -0.2978726029 0.8641992807
-0.04192990065 -0.01109608263 0.9797537923 0.3083313107 -0.3001509309 0.9019238353
-0.06727080792 -0.01705745608 0.9948559403 0.2908332348 -0.3100489676 0.9024532437
-0.0706224218 -0.02088908479 0.9967806935 0.3142108619 -0.2964018881 0.899638772
-0.04652959481 -0.01092143916 0.9802005291 0.3698078394 -0.2992413938 0.8784080744
-0.0670998171 -0.02242443338 0.9938892722 0.3604209721 -0.2805963755 0.8894745708
-0.06323754787 -0.01514593046 0.9921182394 0.297049731 -0.3118408024 0.8994721174
-0.03776999563 -0.009425486438 0.9774096608 0.2742664516 -0.3052800596 0.9068953991
-0.02317917906 -0.009447111748 0.9670010805 -0.115663074 -0.350396812 0.928011775
-0.05664192885 -0.01820536889 0.9813752174 0.4931194782 -0.2787107229 0.8194160461
-0.05188040063 -0.01165453531 0.9824510813 0.3485108614 -0.3039142191 0.8836557865
-0.06277582794 -0.0157905817 0.9873079658 0.3579258025 -0.3021114767 0.8736240864
-0.05766689405 -0.01276653353 0.9857618809 0.3213848472 -0.3085398376 0.8920149803
-0.07580214739 -0.01686188579 0.996763289 0.2458110005 -0.3213915825 0.9140269756
-0.05964503437 -0.02453454211 0.981369257 0.5297129154 -0.2803555727 0.7946922779
-0.06938205659 -0.02505992167 0.9842610955 0.3738507628 -0.2879207134 0.8528159857
-0.06536277384 -0.02177329175 0.9832207561 0.4167032838 -0.2805499732 0.8425178528
-0.07605341077 -0.02473795414 0.9862765074 0.2622886896 -0.2921603322 0.8956816792
-0.07065971941 -0.0193078164 0.9867821932 0.3474696875 -0.299795866 0.8647230268
-0.06107125059 -0.01967891864 0.9825171232 0.4813477397 -0.2795268893 0.8196114302
-0.08481333405 -0.02433999069 0.9899793267 0.1358673275 -0.3085838854 0.9394627213
-0.07977361977 -0.02021681331 0.9901355505 0.2170556635 -0.31428352 0.9094447494
-0.07262560725 -0.01761744358 0.990529418 0.3180221319 -0.3101673126 0.8790867925
-0.05179517716 -0.0203390494 0.9820971489 0.4475058913 -0.2795420289 0.8462020159
-0.05838801339 -0.02835560963 0.9846628308 0.4785393178 -0.2312125415 0.8411835432
-0.05784174427 -0.02268909849 0.9862324595 0.4281804562 -0.2700944543 0.8579698801
-0.06317511946 -0.02286598831 0.9905555844 0.3930219114 -0.2749805152 0.8745545149
-0.0547872223 -0.02734191902 0.982062757 0.4937333167 -0.2341488302 0.8329131007
-0.09867023677 -0.04431799799 0.9902992249 0.2080267221 0.1170874834 0.9700965285
-0.1101285145 -0.03862161934 0.9903754592 0.2114132941 0.09151384979 0.9715408683
-0.1043729559 -0.04342276603 0.9909787774 0.2064963877 0.1167463437 0.9698113799
-0.1079138964 -0.0511880517 0.9941529632 0.1917515099 0.1696691811 0.9653276801
-0.1025580466 -0.03894786164 0.9891881943 0.2148741633 0.08646117896 0.9723656178
-0.09890109301 -0.03507106751 0.9890000224 0.1671466082 0.03892923892 0.9835309386
-0.1066498011 -0.03492611647 0.9890000224 0.2049630731 0.05966918916 0.9761407375
-0.1072624996 -0.08361273259 0.9980000257 0.05290828645 0.1185433269 0.9914655089
-0.1007858664 -0.06643505394 0.9965267181 0.1779613048 0.1582656354 0.9661143422
-0.08972789347 -0.06455081701 0.9920052886 0.2384980023 0.2510351837 0.9315989017
-0.0962055102 -0.06772530824 0.9946806431 0.183657378 0.1931945682 0.9550802708
-0.09972711653 -0.07241047919 0.9961734414 0.1261477172 0.1567507833 0.9725088477
-0.001561287092 -0.02125331759 0.9807701707 -0.3635971248 -0.09519196302 0.926233232
-0.001753984718 -0.01621262729 0.9810934067 -0.3797148466 -0.1715899855 0.9084270597
-0.005490697455 -0.02306731604 0.9776672721 -0.3593234718 -0.09782139212 0.9278036952
-0.03193413094 -0.02179840766 0.9667163491 0.1468112916 -0.2208718508 0.957266748
-0.02939336933 -0.01699231565 0.9668304324 0.05729265884 -0.2277865857 0.9659635425
-0.02902204357 -0.02633332089 0.9664325118 0.04397040978 -0.181738317 0.9719132781
-0.02646506764 -0.03202054277 0.9651646018 -0.04964213818 -0.09933514893 0.9906295538
-0.08221235126 -0.03217068315 0.9986418486 0.2577220798 -0.1357015669 0.9245098233
-0.08567810059 -0.03744719177 0.9975287318 0.2651822269 -0.05127316713 0.9286857843
-0.0916486159 -0.04887616262 0.9961566925 0.2835725546 0.09996588528 0.934227407
-0.08392694592 -0.04218976572 0.995912075 0.2784141302 0.01565888524 0.9240133762
-0.08665130287 -0.04680252448 0.9951499104 0.285380125 0.08307426423 0.9269645214
-0.09225429595 -0.05481784791 0.9941703081 0.296351403 0.1963378191 0.933436811
-0.09784527868 -0.04896719754 0.9920733571 0.2195077986 0.1468327641 0.962726295
-0.100738436 -0.05263929069 0.9942566752 0.2354271859 0.1740565151 0.9540798068
-0.1039058641 -0.06025532261 0.9965180159 0.2104662508 0.1489432901 0.9628682733
-0.1103010178 -0.06159761548 0.9964694381 0.1614201367 0.1400293112 0.9741759896
-0.09644134343 -0.05742623284 0.9954543114 0.2692212462 0.1827876419 0.9436505437
-0.09470909834 -0.03347112611 0.9930852056 0.2152996361 -0.02085606754 0.9694378376
-0.09425171465 -0.02820104919 0.9942106009 0.1760394275 -0.09569862485 0.9674343467
-0.08550322801 -0.02203517593 0.997726202 0.183850199 -0.2320937663 0.9439608455
-0.09906469285 -0.03441682085 0.9950677156 0.1903445423 0.001283296617 0.968510747
-0.1029694825 -0.03001230769 0.9958367348 0.1197275445 -0.02545796707 0.9797469974
-0.1054717451 -0.04057588428 0.9999341369 0.1883068681 0.08492857963 0.9574107528
-0.0981310159 -0.02560941316 0.9971601367 0.1231513545 -0.1212175265 0.9657052755
-0.09701965749 -0.02516593598 0.9917249084 0.1227283254 -0.12048354 0.9813578725
-0.1004829705 -0.03009273298 0.9890000224 0.1300550997 -0.0093765622 0.9896649718
-0.002554770559 -0.05196450278 0.9823759198 -0.3784019649 0.1597818285 0.9106959701
-0.07009266317 -0.06513042003 0.991597414 0.265486002 0.2982418537 0.91111058
-0.02525410242 -0.05056430772 0.9689438343 -0.1549650878 0.09263644367 0.9674738646
-0.03631249815 -0.05263212323 0.9695627689 0.04813285917 0.08987790346 0.9892026186
-0.06531213224 -0.07109977305 0.9877222776 0.1983693242 0.3052057922 0.9277848601
-0.04104644805 -0.05559326336 0.9725632668 0.07279098034 0.1253505051 0.9790232778
-0.05608556047 -0.06453421712 0.9810001254 0.1730733663 0.2236043215 0.94331038
-0.05504560098 -0.06038707495 0.9770008326 0.2603798211 0.1671512276 0.927287817
-0.04570807889 -0.05202675238 0.9689386487 0.2746794522 0.06533578038 0.934589684
-0.04940892756 -0.05458641797 0.9714070559 0.2891044021 0.09511426091 0.9277490973
-0.061125651 -0.06834635139 0.9846763015 0.1840247065 0.2687346041 0.9357019663
-0.04750482738 -0.05759125203 0.9743047357 0.1664974391 0.1404181719 0.9538931251
-0.05015347898 -0.06060441211 0.9772104621 0.1453386545 0.1783004105 0.9551811814
-0.06179522723 -0.0639609918 0.9811632037 0.2979652882 0.2210605145 0.9112417698
0.02271312848 -0.03487318382 0.9887009859 -0.4289228916 0.0249219276 0.8956721425
0.02337099612 -0.02964496426 0.9896709323 -0.4273906946 0.001416437677 0.8963751197
0.02136272937 -0.03951855749 0.9874663949 -0.4199325144 0.05966737121 0.8983528614
0.0239607282 -0.02387461439 0.9864747524 -0.4307325482 -0.1128534004 0.894233942
0.02320397273 -0.02736885287 0.9825450778 -0.4325328171 -0.09398305416 0.8960251808
0.01656664163 -0.04068711028 0.9850457907 -0.3659219146 0.1173637435 0.9147979617
0.01548416261 -0.02367656864 0.9870370626 -0.3759510815 -0.1195876449 0.9070922732
0.01851426996 -0.03028144129 0.9874193072 -0.3907064497 -0.01271382906 0.9056048989
0.02259765379 -0.0336926654 0.9803634882 -0.4378031492 -0.04789357632 0.8945282698
0.02396626584 -0.03760762513 0.983325243 -0.4458666444 -0.0009825212182 0.8892575502
0.02882135287 -0.04122861475 0.9885163307 -0.4660642743 0.004326905124 0.8836746812
0.03069516271 -0.04984084144 0.9917690158 -0.4256120324 0.05168023333 0.9025198817
0.02722769231 -0.03153967112 0.9841649532 -0.4583574235 -0.05479099974 0.8862785101
0.03113599867 -0.03400688246 0.9875898361 -0.4764008522 -0.03143300489 0.8783353567
0.02390658855 -0.1794697791 1.089842081 0.05924939364 -0.0554257296 0.9965069294
0.03193868697 -0.1678213626 1.090231061 0.1054171175 -0.03763558716 0.9932692051
0.03455802426 -0.1716126055 1.091641426 0.1094483063 -0.04280398786 0.9927645922
0.03064843081 -0.1748364568 1.092944622 0.09783108532 -0.04800225794 0.9936862588
0.02804393321 -0.1658242494 1.093359828 0.1119970679 -0.04024925083 0.9928228259
0.03639969975 -0.1587882936 1.089582205 0.1267830878 -0.03109572455 0.9914147258
0.03304409981 -0.1631414443 1.091995358 0.1246408373 -0.05248822272 0.9907889366
0.02831621282 -0.1605627388 1.092458487 0.1159142852 -0.03434637934 0.9926071763
0.03083477728 -0.1557554454 1.091342449 0.1243827641 -0.0356769152 0.991558373
0.04117713124 -0.1586523354 1.090606451 0.1287783831 -0.009897182696 0.9910146594
0.0188908875 -0.162496984 1.093507171 0.07414536178 -0.03701285273 0.9959683418
0.01727495342 -0.1583156437 1.093998432 0.09545792639 -0.03360987082 0.9948583245
0.02401027456 -0.1629418433 1.093679667 0.1072050706 -0.0353220515 0.9935867786
0.02472552285 -0.1570106745 1.092966437 0.1155613065 -0.04009776935 0.9924441576
0.008517661132 -0.1676891744 1.093951821 0.008534370922 -0.1065176874 0.9924755096
0.009453062899 -0.1739837229 1.093260884 -0.004112364724 -0.1160817668 0.9908998609
0.01684736088 -0.1693632603 1.09324789 0.05221226439 -0.0425590612 0.9973940253
-0.03482824937 -0.01255776267 0.9695273042 0.2076672465 -0.2580237091 0.9347498417
-0.03929804265 -0.01412102021 0.9712147117 0.2785580158 -0.2617106438 0.9061621428
-0.04242421687 -0.01224443503 0.9749139547 0.3620857 -0.282092005 0.8779323101
-0.05330745131 -0.0241577588 0.9775127172 0.5351755619 -0.2677987218 0.8010650873
-0.05113903806 -0.0163278617 0.9774952531 0.4848103821 -0.2823924422 0.8263147473
-0.03604189306 -0.01804364845 0.9675077796 0.2254928499 -0.2404828221 0.9352202415
-0.04609693214 -0.01765688136 0.9734967947 0.3948387504 -0.264911294 0.8636593223
-0.04307873175 -0.02666755579 0.968118608 0.3655527532 -0.2300217599 0.8971341252
-0.0427731052 -0.02122945525 0.970130384 0.3472037017 -0.2461638153 0.8919600248
-0.0504835695 -0.04485604167 0.9691790342 0.457703203 -0.04656443 0.8823851943
-0.058006946 -0.04613861442 0.974849999 0.50758183 -0.06958657503 0.8551803231
-0.07621917129 -0.02418081649 1.000048757 0.2473978251 -0.2606213391 0.917024374
-0.07987018675 -0.03608969599 0.9962868094 0.2646016181 -0.08275192976 0.9263088703
-0.08255095035 -0.05044047162 0.9904233217 0.280141443 0.1231093854 0.9447156191
-0.08754722774 -0.05267386883 0.99305439 0.2963901162 0.177737534 0.9283501506
-0.07948885113 -0.04307457432 0.9921280742 0.2670725882 0.009127611294 0.9423488975
-0.07253680378 -0.02779999748 0.9878196716 0.3166787326 -0.3091509044 0.8905495405
-0.06383915246 -0.02671122178 0.9834848046 0.4601934254 -0.2818766236 0.8290390372
-0.06982126832 -0.03562904522 0.9848923087 0.3546305895 -0.2069942504 0.8994914293
-0.06694694608 -0.03017074428 0.9845100045 0.4008800387 -0.250140816 0.8660247922
-0.0639706552 -0.03955156356 0.9808102846 0.4688984752 -0.1602063775 0.8565971851
-0.0650364235 -0.02812437341 0.9900673032 0.427816242 -0.2390508354 0.8662862182
-0.06006526574 -0.03413805366 0.9838098884 0.5191400647 -0.1911614388 0.8311471939
-0.06703206897 -0.04304885492 0.9896659851 0.3991336226 -0.01186473202 0.8931407928
-0.06697237492 -0.03572526202 0.9906240106 0.4022600353 -0.121039845 0.8857703805
-0.06963522732 -0.03939871863 0.9931657314 0.3394469619 -0.05076409131 0.9068378806
-0.06954904646 -0.02908364497 0.9948440194 0.3368353546 -0.1953415573 0.8998479247
-0.07347274572 -0.0358338505 0.9932924509 0.2681622207 -0.1087579504 0.935978353
-0.06785940379 -0.05262812227 0.9889371395 0.3775844574 0.1349420398 0.9090529084
-0.06955175102 -0.04777365923 0.99013412 0.3446961939 0.06426950544 0.917607367
-0.07388649881 -0.0316276215 0.9952635169 0.2586607933 -0.1665256172 0.9317520857
-0.06040678546 -0.04497559369 0.9826006293 0.4848653674 -0.02576524019 0.8567564487
-0.05881552026 -0.03932531551 0.9820142984 0.5195965171 -0.1164431721 0.8347233534
-0.05637181178 -0.04130635038 0.9787478447 0.5337363482 -0.1098345891 0.8335988522
-0.06449522823 -0.04716875404 0.9865145683 0.4405557513 0.03235274926 0.8775569201
-0.06346933544 -0.04090447724 0.985881865 0.4715729952 -0.0777811259 0.8604425788
-0.1102235615 -0.07117152959 0.9979242682 0.105858244 0.08944123238 0.9901779294
-0.1045293137 -0.07016652077 0.9979673028 0.1279100478 0.1232094094 0.982301712
-0.1078224182 -0.06638649106 0.9975328445 0.1424696892 0.1237890795 0.9808148146
-0.1145768687 -0.06969686598 1.001276493 0.105919838 0.08423087746 0.9905788302
-0.1125318259 -0.0831207782 0.9979480505 0.05637883395 0.1170953736 0.991222024
-0.1092327386 -0.07792779058 0.9980000854 0.07553649694 0.108240217 0.9908208251
-0.09895969182 -0.09200566262 0.9978855252 0.05933351815 0.1184191331 0.9905952215
-0.08628927171 -0.06767117232 0.9906080365 0.2348998189 0.2775541246 0.92393291
-0.09369653463 -0.07712748647 0.9939841628 0.1508739889 0.2044220865 0.9549118876
-0.09912274778 -0.0811330229 0.9959193468 0.1007211432 0.163038373 0.9727099538
-0.09762043506 -0.08735264838 0.996733129 0.08601034433 0.1439210176 0.9800623059
-0.1042070687 -0.07912454754 0.9979125261 0.06888162345 0.1186348349 0.9899978042
-0.09207643569 -0.07272669673 0.9928805232 0.1779735833 0.2286109626 0.9447599053
0.01966131479 -0.02940275706 0.9783325791 -0.4057298303 -0.1013331041 0.9071996212
0.01801957935 -0.02565542236 0.9810165763 -0.3798740804 -0.1354530156 0.9140898585
0.00956602674 -0.04762389883 0.9834820032 -0.3466485143 0.1892131716 0.9168792367
0.01166702993 -0.04096325487 0.982093811 -0.3168236613 0.1033344045 0.9408374429
0.01425739937 -0.03099617735 0.9852072597 -0.3554108143 -0.02435914613 0.9184510112
0.0145507101 -0.03600622341 0.9846372008 -0.3527866304 0.0449228175 0.9201273918
0.01491851918 -0.02799585648 0.9768635035 -0.3518868983 -0.1368234158 0.9257416129
0.004224770237 -0.02207220532 0.9824510813 -0.3592059612 -0.1161518991 0.9250047207
0.005146557931 -0.01686625741 0.9833089113 -0.3916577101 -0.2214817107 0.8929364681
0.01397795882 -0.01890755631 0.9864627123 -0.3800381422 -0.1984180361 0.9033734798
0.009888287634 -0.03128644451 0.9826123118 -0.3236849904 -0.02751149796 0.9380300641
0.01221348532 -0.02622351423 0.9847220182 -0.3453723788 -0.09316802025 0.9246126413
0.005558232777 -0.0274771899 0.9815419912 -0.3391771019 -0.07337919623 0.9338046312
0.006858318578 -0.03679292649 0.9811469913 -0.3175796866 0.03516155109 0.9433783293
-0.0004822195042 -0.0374815017 0.981226325 -0.3692198098 0.02549382113 0.9212940931
-0.003461014945 -0.04758193344 0.9810033441 -0.382348001 0.1219332665 0.9152451754
-0.0007849739632 -0.03105404973 0.9811136723 -0.3661971986 -0.01918820664 0.9244496822
-0.09261666238 -0.06272468716 0.9969967604 0.2659221888 0.2393072248 0.9335893989
-0.08574362844 -0.0654252544 0.9946884513 0.2645082176 0.2966418564 0.9166893363
-0.08951836824 -0.0662740618 0.9978427291 0.2487693727 0.2562116981 0.9332829714
-0.075979352 -0.07604949176 0.999108851 0.2065363377 0.3017181754 0.9301177859
-0.0772659108 -0.07145734876 0.9966879487 0.2224829346 0.3049833179 0.9249073863
-0.08138677478 -0.06851290166 0.9963219762 0.2352367342 0.2910685241 0.9259172678
-0.09577665478 -0.06619004905 0.9998621941 0.2055617571 0.197967723 0.9566751122
-0.08220607042 -0.07421855628 1.000167608 0.2085698694 0.2702141404 0.9383345842
-0.0892175436 -0.07108593732 1.000602365 0.1916086376 0.2237612009 0.9531615376
-0.1083033681 -0.04918330163 1.000550508 0.2229215056 0.1953342259 0.9548009038
-0.1003811434 -0.0591385141 0.9996606708 0.2137951702 0.1806376576 0.9587064981
-0.1024627388 -0.05490684137 0.9993216395 0.2289526314 0.1868012547 0.9541632533
-0.1048877686 -0.06506895274 1.001000047 0.1483203024 0.1227706 0.9803327918
-0.1073765829 -0.05467636883 1.001000047 0.1939249933 0.1725688577 0.9642640352
-0.112142317 -0.03936307877 0.995598495 0.1781419665 0.1251455843 0.9732835889
-0.1103809327 -0.04204991832 0.9991336465 0.1715895087 0.130744651 0.9693872929
-0.1065695286 -0.03553184494 0.9967050552 0.1392208487 0.05504734814 0.9789921045
-0.04963397607 -0.0357692726 0.9729856849 0.4913893938 -0.17575185 0.8515841365
-0.05283990875 -0.03875059262 0.9741345048 0.497292161 -0.1507012844 0.852914691
-0.05815023184 -0.0315916203 0.9795065522 0.54704386 -0.2235727459 0.8030481339
-0.003804446431 -0.02803805284 0.9787825942 -0.3687860668 -0.03209315985 0.9233634472
-0.006744350307 -0.03117932379 0.9766120911 -0.3719154894 -0.01120982412 0.920338273
-0.008535474539 -0.03577579185 0.9752435088 -0.3784359396 0.03240757063 0.9159200788
-0.01085027866 -0.03104153089 0.9736588001 -0.3685037196 -0.03415442258 0.9204568267
-0.0562396571 -0.05990454182 0.9825944901 0.2251071781 0.2047258019 0.9255519509
-0.04462877661 -0.05265685171 0.9739049673 0.1902475059 0.08965656161 0.9480385184
-0.05880217999 -0.06372062117 0.985547483 0.1781112403 0.2704073191 0.9317755103
-0.05159063265 -0.05566114187 0.9784886837 0.2442466915 0.1342713535 0.9277858138
-0.04739366472 -0.04850076139 0.9732270241 0.3436783254 0.01015144028 0.9129986167
-0.05982548371 -0.05059259757 0.9818944335 0.4171162546 0.07286379486 0.8981358409
-0.05182981491 -0.0464174971 0.9749493599 0.4433477819 -0.02113316208 0.8910884261
-0.06350334734 -0.05177754536 0.9848484397 0.425132215 0.09716624767 0.8905116916
-0.05661534518 -0.05426472425 0.9803259969 0.3610357642 0.1059261262 0.8989926577
-0.06107452139 -0.05740842596 0.9843818545 0.3367660046 0.1687080711 0.9029981494
-0.06638844311 -0.05859001353 0.9886372089 0.3387141228 0.2104763836 0.9070209861
-0.0658601597 -0.06390298158 0.9894376993 0.2731572092 0.2762985229 0.9082098603
-0.0327061452 -0.04825793579 0.9709468484 0.05719497427 0.03613964096 0.9309390187
-0.01900705881 -0.05037206039 0.9731330872 -0.2834688723 0.1095305979 0.9201171994
-0.0378722176 -0.04701026529 0.9711999297 0.1904927343 0.002920988249 0.9169998765
-0.02482774109 -0.04867682606 0.9731820226 -0.1366283 0.06840233505 0.9088907242
-0.04262477532 -0.04315369576 0.9733583927 0.3105266094 -0.06164871901 0.8745645285
-0.03231219202 -0.04356113821 0.9748333097 0.04590909183 -0.02141805738 0.8709833622
-0.03793979064 -0.04705448449 0.9655767679 0.1695330143 -0.02078591287 0.9720478058
-0.04459182546 -0.04535731673 0.9665581584 0.3079224825 -0.04488044605 0.9459545612
-0.03217670321 -0.0481833145 0.9659785032 0.0222355593 0.01776311547 0.9898073673
-0.03628175333 -0.04235272855 0.9646190405 0.1490558088 -0.07893443853 0.9844941497
-0.02779962867 -0.04386325553 0.9649034142 -0.09913605452 0.01707302593 0.9847598672
-0.03159590438 -0.03700355068 0.9643490911 0.06123752519 -0.08148831874 0.9884110689
-0.05037146807 -0.04884523898 0.9670811296 0.438129127 0.01256481372 0.8967710137
-0.04641342536 -0.03792069107 0.9685727358 0.4088878334 -0.1371234059 0.8962934613
-0.04007210582 -0.03835650161 0.9654771686 0.2411273271 -0.1087150648 0.9605351686
-0.07401735336 -0.06696350127 0.9881899953 0.248070538 0.337849617 0.9077455997
-0.08015021682 -0.06556986272 0.9889423847 0.267516613 0.3221673965 0.9078828096
-0.0727301091 -0.07629851997 0.9906584024 0.2020058185 0.3212464154 0.9219822884
-0.07503470778 -0.08397171646 0.9935763478 0.1542674899 0.298555851 0.9361824989
-0.07887046784 -0.08629442006 0.9967119694 0.1073801741 0.2691062391 0.9545677304
-0.07711483538 -0.07866264135 0.9929669499 0.1759363562 0.3068206012 0.9303223491
-0.086983338 -0.08550226688 0.9972028136 0.09616912156 0.2186967283 0.9664596915
-0.08171170205 -0.07760879397 0.9919733405 0.1872138679 0.2802754641 0.9313664436
-0.08206806332 -0.08283882588 0.9972177148 0.1071352437 0.2601451278 0.957736969
-0.08563428372 -0.07337302715 0.9915626645 0.2079019099 0.2629668415 0.931791842
-0.0876012817 -0.08132304251 0.9935162067 0.1543051302 0.2278770804 0.9487290382
-0.07658424228 -0.07124569267 0.9893449545 0.2427109778 0.3346758485 0.9084931016
-0.09269391745 -0.08309020847 0.9948762059 0.1312128156 0.1860400736 0.9627436399
-0.08129190654 -0.07206388563 0.9904418588 0.2263769656 0.2981253862 0.9201553464
-0.08358868212 -0.0458034724 0.987613976 0.2141223103 0.05412670225 0.9702910185
-0.07881667465 -0.05299103633 0.9860915542 0.3319834173 0.135838449 0.9192218184
-0.06984034926 -0.04587708414 0.9818492532 0.4128712118 -0.03194168583 0.8881791234
-0.08776912838 -0.04913163558 0.9885752201 0.2448087484 0.1491638124 0.9562472701
-0.08453416824 -0.05489110202 0.9888026118 0.2824772894 0.1939563602 0.9393377304
-0.09142512828 -0.04551452771 0.989415884 0.2226895541 0.119786121 0.9666631818
-0.084495157 -0.06069052964 0.9897903204 0.2795826793 0.2709664106 0.9191865325
-0.08849003166 -0.05711998045 0.9916042686 0.2856581211 0.219997108 0.9311413169
0.004649205599 -0.04229456559 0.9810000658 -0.3276620805 0.08982101083 0.9388611913
0.0008449716843 -0.04563289508 0.9810000658 -0.3530682027 0.1216610968 0.9261031747
-0.003295708448 -0.04124119878 0.9802865386 -0.3800248802 0.08010158688 0.9169272184
-0.003463110421 -0.0346573405 0.9789821506 -0.3798439801 0.04379655048 0.9173210263
0.002486311132 -0.05173900351 0.982804358 -0.3526926041 0.2250734717 0.9077351689
0.01614533737 -0.0332634896 0.9773158431 -0.3712418377 -0.02749110945 0.9266952276
0.02117731608 -0.04934094474 0.9849502444 -0.3730912507 0.136374712 0.9105407596
0.01871898025 -0.04414242879 0.9820094705 -0.3738093972 0.09237743914 0.9102705121
0.0204433538 -0.03829179332 0.9804480672 -0.4012709558 0.01174413227 0.9049515128
0.008255221881 -0.0290557947 0.9757668376 -0.3584752977 -0.09272474051 0.926908493
0.001906958525 -0.02877916209 0.9752657413 -0.3683252335 -0.06359007955 0.9255201817
0.008778892457 -0.02190601826 0.9799209237 -0.3725872636 -0.1805066168 0.9087465405
-0.001524324296 -0.02499780431 0.9754475355 -0.374429822 -0.08608181775 0.9220906496
0.005155554041 -0.02540223487 0.9761070609 -0.3622111082 -0.1178171188 0.9236820936
-0.07815293968 -0.0348399356 0.9878768325 0.1913805604 -0.2228327692 0.9486884475
-0.06884597242 -0.0410217084 0.9817823768 0.3745894134 -0.1506305486 0.8846977949
-0.08400196582 -0.03691185638 0.9881968498 0.09627873451 -0.1711284518 0.9690682888
-0.07406771183 -0.04449151084 0.9835734367 0.3402795494 -0.0305138249 0.9163728356
-0.07726494968 -0.04004777595 0.9851753712 0.2354263067 -0.1290618777 0.9318184853
-0.09330572933 -0.0315692015 0.9889897704 0.09765174985 -0.07407027483 0.9893043041
-0.08676476032 -0.04067099839 0.9884189367 0.1533633173 -0.02098532952 0.980825603
-0.08969995379 -0.0361266546 0.9887657762 0.126427561 -0.07144459337 0.9831095338
-0.09606944025 -0.03973402083 0.9924831986 0.2403991222 0.08495566249 0.961039722
-0.08669042587 -0.03101574443 0.9962027669 0.2395289689 -0.09579313546 0.9416272044
-0.09071817249 -0.03801294044 0.9945972562 0.2556037903 0.03404250741 0.9422261715
-0.08073046058 -0.02689784393 0.9985627532 0.2458400428 -0.1878248304 0.9259088039
-0.084547095 -0.03195936233 0.988758266 0.08752966672 -0.2505614161 0.9618838429
-0.07932689786 -0.02858206071 0.9887056351 0.2091649175 -0.2933116853 0.9286100268
-0.1007804424 -0.03998978436 0.9939492941 0.2223707289 0.09168216586 0.9674568772
-0.1022176892 -0.04721568152 0.9965499043 0.246794939 0.1874390543 0.9503282905
-0.04090437666 -0.01657456346 0.9757837653 0.3658370078 -0.292385757 0.8783073425
-0.03769914061 -0.02299853228 0.9669494033 0.2680096626 -0.2313727885 0.9283760786
-0.0445182398 -0.03283721954 0.9680798054 0.3911595643 -0.1935854256 0.8974968791
-0.03535121307 -0.02773684636 0.9664096832 0.2410370111 -0.214866206 0.9445026517
-0.04038356617 -0.03124528565 0.9661232233 0.3009551466 -0.1867537946 0.9274657965
-0.03643025085 -0.03495495394 0.9644856453 0.1808081716 -0.1184460521 0.9730210304
-0.07445558161 -0.054146979 0.9896331429 0.3530414402 0.1701970547 0.9172644615
-0.07455924898 -0.04959151521 0.9884006381 0.3023876548 0.09057556838 0.9426119924
-0.07641039044 -0.064164415 0.9925712943 0.2547106743 0.2983171046 0.9169653654
-0.07071737945 -0.05713884905 0.9896951318 0.3497464657 0.2014679313 0.9102720022
-0.07007039338 -0.05145107582 0.9839320183 0.3675518036 0.1037576348 0.9002968669
-0.07592705637 -0.06194412336 0.9877295494 0.2615641952 0.3039196134 0.9141879678
-0.07991108298 -0.05933692679 0.9880197048 0.2715420127 0.2597622573 0.9238905311
-0.06067850441 -0.04947480932 0.976290524 0.4306961 0.03155359626 0.8855974674
-0.06408431381 -0.05324307084 0.9783474803 0.3470408618 0.1429437846 0.9170303941
-0.07075706124 -0.05803914368 0.9841142297 0.2938940227 0.2380752861 0.9171051979
-0.05412881449 -0.05190114304 0.969815731 0.4180576801 0.06968622655 0.8974494934
-0.05893521383 -0.05501963198 0.974154532 0.3790701032 0.1353828758 0.8990736008
-0.06684909016 -0.06093032658 0.9824196696 0.3068124652 0.2594427466 0.9017608762
-0.07135462016 -0.06333446503 0.9859299064 0.274450928 0.3115655482 0.9037281871
-0.06251803041 -0.05800077692 0.9782760143 0.3435696065 0.1974263936 0.9001512527
0.005989876576 -0.03422414511 0.9759482145 -0.3615009785 0.002566082869 0.9320937395
5.640186646e-05 -0.03461050987 0.9752218127 -0.3654425442 0.01446475927 0.9304069877
0.01162773836 -0.03253286704 0.9764503241 -0.3561989367 -0.03838580847 0.9319182634
-0.04970259964 -0.02886145934 0.9737128615 0.4896582663 -0.2321888804 0.8361082077
-0.04768069834 -0.02086165361 0.9784852266 0.4758663774 -0.2716074586 0.8340443969
-0.05279031396 -0.03311241418 0.9775144458 0.5359049439 -0.2076056451 0.81719625
-0.04868738726 -0.02360450104 0.9729986191 0.4544882476 -0.2537374198 0.8496346474
-0.03447288275 -0.01518289838 0.9748481512 0.186501801 -0.276027292 0.9226335287
-0.0367529355 -0.02061641403 0.9724014401 0.2620217204 -0.2718690336 0.9221233726
-0.02126644552 -0.0148403598 0.9669890404 -0.1606461555 -0.3141454458 0.9335907102
-0.0253481809 -0.02254435234 0.9665852785 -0.07360201329 -0.2053226829 0.9724660516
-0.01601837203 -0.02414802648 0.971016109 -0.3128795326 -0.1466638446 0.934027791
-0.01135657541 -0.0208383128 0.9740917087 -0.3502345383 -0.1480940729 0.9232066274
-0.0286875274 -0.01347261574 0.9764710665 0.06816654652 -0.2555335164 0.9178006053
-0.01877816767 -0.01642811485 0.9758155942 -0.1478329748 -0.2095777094 0.9236240983
-0.02723294497 -0.0187165197 0.9725168347 -0.01730003953 -0.24365592 0.9451274872
-0.02188153006 -0.02025739662 0.972207129 -0.1333306879 -0.218897 0.9479686022
-0.007216702215 -0.04821750522 0.9765051007 -0.3624400795 0.1501432359 0.9192566276
-0.01315161213 -0.05026342347 0.9732132554 -0.3489967287 0.1529346704 0.9235509634
-0.01562774554 -0.03674357384 0.9723362327 -0.3211022019 -0.0257631354 0.9261404276
-0.01590522379 -0.03180659562 0.9726242423 -0.2606752217 -0.0737477541 0.9396166801
-0.01734214462 -0.04467580095 0.9675245285 -0.3339767754 0.07945922017 0.9388717413
-0.008536304347 -0.0454923287 0.972633481 -0.3269491196 0.1462173164 0.9331869483
-0.00409441255 -0.04361094907 0.9749100208 -0.3363696337 0.1407319754 0.9306752086
-0.0296287518 -0.03848957643 0.9741070867 -0.0003871916851 -0.05997183174 0.8695384264
-0.04442731291 -0.03096512705 0.9749672413 0.3919523954 -0.1946010292 0.8431114554
-0.0372315608 -0.03398302943 0.9744461179 0.2061471492 -0.1344705373 0.8577314019
-0.04219995067 -0.03680507839 0.9755935669 0.296402365 -0.1351662278 0.8340877891
-0.03731686994 -0.040924225 0.9752818942 0.1705056131 -0.0710330978 0.8538306355
-0.01648752764 -0.04595046863 0.9732652903 -0.343470484 0.0703220889 0.9017166495
-0.0215847902 -0.04517186433 0.9737753868 -0.2180652022 0.04065904766 0.8917423487
-0.01871478744 -0.04144372791 0.9730115533 -0.2701393962 0.01624634862 0.8974200487
-0.03013045527 -0.03092827275 0.9723626971 0.06251785159 -0.1452505738 0.9053377509
-0.03808807209 -0.0269287806 0.9730222821 0.2753517628 -0.2109702229 0.8857856393
-0.02584066615 -0.02851926908 0.9712831974 -0.05243192986 -0.1633603275 0.9321159124
-0.02451088279 -0.03282151744 0.9718793631 -0.09210836142 -0.1080230549 0.9195101261
-0.0204305239 -0.02885703184 0.9708307385 -0.2095388025 -0.1416185349 0.9454159737
-0.02032545581 -0.036325261 0.9720728993 -0.2144652605 -0.05278359354 0.9175996184
-0.02926254831 -0.02370988764 0.9707989097 0.04809224233 -0.2315665632 0.9409953356
-0.01051310543 -0.03982910514 0.9714308977 -0.3518499732 0.05598220974 0.9336051345
-0.01631843299 -0.02846598998 0.9680623412 -0.3532915711 -0.07525725663 0.9319707155
