# .PCD v0.7 - Point Cloud Data file format
VERSION 0.7
FIELDS x y z normal_x normal_y normal_z
SIZE 4 4 4 4 4 4
TYPE F F F F F F
COUNT 1 1 1 1 1 1
WIDTH 512
HEIGHT 1
VIEWPOINT 0 0 0 1 0 0 0
POINTS 512
DATA ascii
-0.074474819 -0.2153176069 1.050235987 0.9048854113 0.3489947319 -0.07058981061
-0.06951761246 -0.2205128968 1.053409219 0.994669497 0.08833884448 -0.02759539895
-0.0976504907 -0.1920085549 0.9959948063 0.2096680552 0.02222551033 0.9607489705
-0.08565036952 -0.1973407865 0.9865782261 0.3250442147 0.1500847936 0.9225543737
-0.09234365821 -0.193036437 0.9918823838 0.3025537729 0.06794903427 0.9345632195
-0.09541063756 -0.199287653 0.9908698201 0.1643323451 0.04659382254 0.9756603837
-0.0910641253 -0.2012578398 0.9889523983 0.142238006 0.1174502671 0.9725669026
-0.09887091815 -0.1961790025 0.9934186339 0.190054208 -0.006745635998 0.9741006494
0.003916466609 -0.1442480087 0.9807299376 -0.3599882424 -0.2911017835 0.8860847354
0.002898016246 -0.1321513206 0.9844602942 -0.3373960853 -0.3227228224 0.8841828704
0.0597749725 -0.2744293809 1.071377397 -0.1276468486 0.09901178628 0.9853977561
0.05508095026 -0.2789290547 1.067560792 -0.08983996511 0.05044106767 0.9933045506
0.06565672904 -0.2581604719 1.067341447 -0.01130814012 0.07643641531 0.9960759878
0.06259581447 -0.2671099603 1.069842458 -0.07929000258 0.09197576344 0.9895836711
0.06995517761 -0.2553123832 1.069981694 0.01122295111 0.08309786022 0.9945596457
0.06312579662 -0.2713309526 1.074691892 -0.1272002608 0.1189764366 0.9828287363
0.07964586467 -0.1978462487 1.072481871 0.415279597 -0.06796669215 0.9071512818
-0.08904667944 -0.1884892583 0.9876580834 0.4226548076 0.1347663254 0.8895611167
-0.09259328246 -0.1830629855 0.9888871312 0.4351765215 0.119365938 0.8830910325
-0.08824822307 -0.1797663569 0.9833123684 0.4859519899 0.2430317402 0.8386876583
-0.08699439466 -0.1847118586 0.9848128557 0.4819383919 0.2341886014 0.8438955545
-0.09577703476 -0.1792754978 0.9897964001 0.4360864162 0.08364696056 0.8903275132
-0.09978040308 -0.1765945405 0.9894123077 0.4286095798 0.008802163415 0.9006111026
-0.0715849176 -0.1680737585 0.966817975 0.4918637872 0.07821216434 0.865888834
-0.06812997162 -0.1675632894 0.9635987878 0.3902764022 0.01519153081 0.9084945917
-0.07986714691 -0.1568427831 0.9658011198 0.4525128901 -0.03748764843 0.8889402151
-0.07528279722 -0.1601637006 0.964333415 0.4085277915 -0.03546848521 0.9052855968
-0.05760882795 -0.1693578213 0.9595090747 0.1963785589 -0.08063621074 0.9725885987
-0.05410368368 -0.1729805917 0.9586657286 0.1694086194 -0.03416670486 0.9764261842
-0.0772369653 -0.2094429433 1.047031283 0.8190241456 0.5631654859 -0.1043721735
-0.05496792495 -0.1628468335 0.9647961855 0.1403442025 -0.1333813816 0.9651551843
0.02678813972 -0.2974747717 1.067782402 -0.1015248895 -0.006014179438 0.9948148131
-0.03808651119 -0.1682097912 0.9630288482 -0.06433510035 -0.1831757128 0.9800056815
-0.04141547158 -0.1514163017 0.9654422998 -0.05578701943 -0.2751147151 0.9575737715
-0.03887873888 -0.1557533592 0.9650585651 -0.07873509824 -0.2470956147 0.962893188
-0.045038715 -0.1547404379 0.9656642079 -0.02595705725 -0.2409266829 0.969859302
-0.04210847244 -0.1643868536 0.9641385078 -0.03651558608 -0.2026716769 0.9771222472
-0.04236356542 -0.1593444496 0.9652290344 -0.03392864019 -0.2346702814 0.970212996
-0.06396342814 -0.1830420345 0.9715911746 0.405782342 0.2284549326 0.8469737172
-0.05865885317 -0.1767224371 0.96868366 0.2815687358 0.07870557159 0.8929921389
-0.05515776947 -0.1713252515 0.9660534859 0.1911780834 -0.04714533314 0.9321903586
-0.05902618915 -0.1675690413 0.964464128 0.2246525884 -0.08729283512 0.95244807
-0.06269273907 -0.1736844927 0.9676072001 0.3225177824 0.05837602541 0.9073929787
-0.0300943125 -0.1422742158 0.9667599797 -0.2027971596 -0.36814484 0.9063825011
0.001412480138 -0.1368546188 0.98623842 -0.3382716775 -0.3230491281 0.8837972283
-0.003457167186 -0.1443171054 0.9822566509 -0.3553867638 -0.3061515093 0.8831487894
-0.006614856422 -0.1394239813 0.9826163054 -0.3468157649 -0.3146136105 0.8834735155
-0.1134161875 -0.1913753748 0.9962561131 0.1760150343 -0.08604145795 0.9753910303
-0.1174333766 -0.1957743466 0.9924739003 0.1203233078 -0.07392533869 0.9867624044
-0.1096748039 -0.1871800423 0.9996028543 0.2300094366 -0.09755031765 0.9643850327
0.08358415216 -0.2081042379 1.064053297 0.415279597 -0.06796669215 0.9071512818
0.08353115618 -0.2010204345 1.068728805 0.415279597 -0.06796669215 0.9071512818
0.07719606906 -0.2032899112 1.072824836 0.415279597 -0.06796669215 0.9071512818
0.07677672803 -0.2089346051 1.071829915 0.415279597 -0.06796669215 0.9071512818
0.08248432726 -0.2069993913 1.06949842 0.415279597 -0.06796669215 0.9071512818
0.08303935081 -0.2136120647 1.064941883 0.415279597 -0.06796669215 0.9071512818
-0.09623742104 -0.1864666045 0.9936092496 0.3594492972 0.01423771773 0.9267553687
-0.1004188657 -0.1854954958 0.9976652861 0.3222639859 -0.03758024797 0.9389975071
-0.08044072986 -0.1579854786 0.9718298316 0.4064756632 -0.01255380735 0.888856411
-0.08693152666 -0.1679411978 0.9758781791 0.5418859124 0.168131277 0.8149066567
-0.08419679105 -0.1612365991 0.9708553553 0.4916238487 0.05937014893 0.8590468764
-0.08529950678 -0.1727272272 0.9761354327 0.5389612913 0.2569175065 0.8004243374
-0.09516922385 -0.1756482124 0.9861266017 0.4808821678 0.1206696555 0.8623738289
-0.1034646183 -0.1793534756 0.9852827191 0.3930574656 0.01543094777 0.8983934522
-0.0942356661 -0.1729297489 0.9812893867 0.501106739 0.1393111199 0.8398455381
-0.09869430214 -0.1761544645 0.9829313755 0.4484842718 0.08421569318 0.8668972254
-0.1077209413 -0.1835487336 0.9862283468 0.3312878609 -0.03111671098 0.9248005152
-0.1020392627 -0.1857049763 0.9847534299 0.3181091249 -0.003529331181 0.9178382158
-0.1001328826 -0.2021566778 0.9873574376 0.1423137188 -0.02406216599 0.9867220521
-0.1071221232 -0.1827478558 0.9945700765 0.3032840192 -0.07191374898 0.9488840699
-0.1109231561 -0.1853769273 0.9923356175 0.2814607322 -0.09753343463 0.9544081688
-0.1034222096 -0.1791058034 0.9924433827 0.3560096025 -0.03693029284 0.9320997596
-0.1030777544 -0.1813041717 0.9984885454 0.3299722672 -0.0461939685 0.9375201464
-0.07302120328 -0.2099334002 1.050218821 0.8698485494 0.4735741615 -0.06432211399
-0.06893439591 -0.1451159567 0.9681674242 0.1747911125 -0.2481084615 0.9487836957
-0.04746665433 -0.1695881486 0.9605200291 0.05419878289 -0.1400645524 0.9860516787
-0.05233390257 -0.1674126834 0.9618769288 0.1180829704 -0.1585893631 0.9780719876
-0.04946708679 -0.1629339159 0.9624478817 0.04757470265 -0.1886788905 0.9785461426
-0.052253142 -0.1571200043 0.965192914 0.07718081027 -0.1941269785 0.9663134217
0.02130043879 -0.3007698059 1.0687958 -0.1015248895 -0.006014179438 0.9948148131
0.01766485348 -0.2977866828 1.070578098 -0.1015248895 -0.006014179438 0.9948148131
0.01917275228 -0.2933219075 1.070531249 -0.1015248895 -0.006014179438 0.9948148131
0.01027718093 -0.2996271253 1.070022464 -0.1015248895 -0.006014179438 0.9948148131
0.01243961137 -0.2951236665 1.069923759 -0.1015248895 -0.006014179438 0.9948148131
-0.07951644808 -0.2252169251 0.9885264039 -0.064607732 0.2723222971 0.9581967592
-0.07423409075 -0.2334676385 0.9907209873 -0.1088874117 0.3037810028 0.9461015463
-0.07923368365 -0.2330752015 0.9903785586 -0.06549488753 0.3046862781 0.9490376115
-0.07386289537 -0.2282208651 0.9887442589 -0.1105984524 0.3045972586 0.9459027052
-0.1141690686 -0.1902355999 0.9884918332 0.2135567218 -0.09457377344 0.9688863158
-0.01053563226 -0.1444850117 0.9799064994 -0.3606073558 -0.2919144928 0.8855597377
-0.01188074239 -0.1517645568 0.9758562446 -0.3678258061 -0.2649740577 0.8912174106
-0.06195983291 -0.1826985627 0.9625852704 0.3539111614 0.2007345706 0.9066161513
-0.06608724594 -0.1862590313 0.9675284624 0.3908549249 0.2620819509 0.8712080121
-0.07027305663 -0.1896230578 0.9717369676 0.415997982 0.3167406321 0.843342185
-0.08283796906 -0.2125027776 0.9864628911 0.05244074017 0.1974060535 0.9650903344
-0.07622704655 -0.2090255618 0.9848439097 0.09658890218 0.2699161172 0.9255253673
-0.08375371993 -0.1983597577 0.9813650846 0.3152849674 0.2243898958 0.8875849843
-0.08931591362 -0.2007535249 0.984112978 0.2404023707 0.1264357716 0.9346284866
-0.08415906876 -0.202745989 0.9841261506 0.1761859655 0.225999698 0.9413899183
-0.07776468247 -0.1953528374 0.9784094691 0.402672559 0.3260492384 0.8354791403
-0.06817544997 -0.2175859511 1.010119438 0.2429713309 0.2891465127 0.6314650774
-0.07379353791 -0.2111062258 1.035781026 0.6341436505 0.4978888929 0.1399145871
-0.0693340525 -0.2162538767 1.015610456 0.3272112012 0.3325444162 0.5264826417
-0.07304492593 -0.2118165493 1.025124669 0.4521555901 0.4573525786 0.3368023038
-0.06943205744 -0.2157501727 0.99759233 0.002674247138 0.3037264347 0.8531576395
-0.06451458484 -0.2225002795 1.026107788 0.5750427246 0.2106235772 0.3579131663
-0.07147954404 -0.2136517316 1.019379497 0.3683738112 0.4016599357 0.4482567608
-0.06601947546 -0.2208834141 1.038598418 0.7806149125 0.2764116824 0.1242702007
-0.0688508451 -0.2173720449 1.039914846 0.7693045735 0.3611929119 0.08743910491
-0.06334961951 -0.2243216038 1.043366075 0.8991089463 0.2070292234 0.04990588129
-0.06711740792 -0.2196834385 1.046749592 0.9133380651 0.3227185607 -0.0287301559
-0.07044548541 -0.2151480168 1.029008389 0.5539186001 0.3884674013 0.2781647742
-0.06735350192 -0.2188410461 1.020880699 0.4462184012 0.2841224074 0.4398465753
-0.06681294739 -0.219776392 1.033153534 0.6731188893 0.2899513245 0.2194994539
-0.06981310993 -0.2160465121 1.034115076 0.6533581018 0.3790253699 0.1883399934
-0.06606993824 -0.220328927 1.015370488 0.3631779253 0.2370513082 0.545746088
-0.07258993387 -0.2127370089 1.041749597 0.7560965419 0.4733237922 0.037051633
-0.04159131274 -0.1724090427 0.9609716535 -0.0001645671437 -0.1582820863 0.9855564237
-0.0471489653 -0.1753251851 0.9594410062 0.09388124943 -0.06455723196 0.9798159599
-0.05744358525 -0.180085808 0.9631147385 0.3000218272 0.09849137813 0.9212831259
-0.053032998 -0.1773305833 0.9611957669 0.2273664922 -0.007897391915 0.9526876211
-0.06022660062 -0.1822371036 0.9671878219 0.3556575775 0.1620407552 0.8852719665
-0.06939160079 -0.2236846536 0.9888849258 -0.1227599382 0.2831696272 0.9510447979
-0.003397305729 -0.1343968511 0.9845624566 -0.3340995312 -0.3240303695 0.8850491643
0.0003789645853 -0.1279000044 0.9830091596 -0.3329231441 -0.3210688233 0.8865309358
-0.01334797964 -0.1335704476 0.9768646359 -0.3495315611 -0.3240501285 0.878983438
-0.005454902072 -0.1287184656 0.981139183 -0.3333164752 -0.3135658801 0.8889605403
-0.009144602343 -0.1393292993 0.9762334824 -0.359501034 -0.3090420663 0.8801290393
-0.008268090896 -0.133151263 0.9784570336 -0.3480396867 -0.3236385584 0.8796933889
0.0001078056594 -0.1372204721 0.9797083139 -0.3523617387 -0.3052319288 0.8842212558
-0.004212238826 -0.138217926 0.9780818224 -0.3557182848 -0.3069788218 0.8823122978
-0.01740775257 -0.1282840222 0.9769708514 -0.3062002361 -0.3617053032 0.8799657822
-0.01399572287 -0.1254713386 0.9801967144 -0.3110769093 -0.3299836814 0.8908102512
0.05338107795 -0.2767022252 1.075383782 -0.1285471022 0.0879386887 0.986425817
0.0517738834 -0.2822334468 1.073139787 -0.1162013412 0.03734650835 0.992148757
0.058903981 -0.2763896585 1.078179598 -0.1369536668 0.1000271738 0.9834314585
0.0529454276 -0.2616710365 1.077224493 -0.1420501322 0.1325123161 0.9808151722
0.05913404748 -0.264778167 1.07705307 -0.1418894678 0.1401020586 0.9798515439
0.05650927499 -0.269238025 1.079774857 -0.1479316503 0.1280716062 0.9806221128
0.00188647327 -0.1506157517 0.9789811969 -0.3751846552 -0.2606327832 0.8895000219
-0.002637151862 -0.1517296731 0.9811860919 -0.3759168983 -0.2589852512 0.8896290064
0.06819462031 -0.2483826727 1.067918658 0.1648263335 0.02132133022 0.9642652273
0.05795925111 -0.2582837641 1.074529648 -0.127022177 0.1422146708 0.9800618291
0.06682395935 -0.2628199458 1.075001717 -0.05566347763 0.1045053974 0.9879894853
0.06568817049 -0.2555820942 1.073782444 0.03499431908 0.06419015676 0.9874756336
0.06413302571 -0.2665571272 1.077679992 -0.07519685477 0.1062963828 0.982352376
0.06380023807 -0.2716605663 1.079248428 -0.129685089 0.128142029 0.9806730151
0.07818219066 -0.2226933688 1.070396781 0.415279597 -0.06796669215 0.9071512818
0.08053424209 -0.2291619629 1.070047021 0.415279597 -0.06796669215 0.9071512818
0.07692537457 -0.2172105312 1.070309281 0.415279597 -0.06796669215 0.9071512818
0.07900360227 -0.2108983546 1.067020416 0.415279597 -0.06796669215 0.9071512818
0.08184175938 -0.219384551 1.065572143 0.415279597 -0.06796669215 0.9071512818
-0.0771246925 -0.1546147466 0.9709890485 0.360106945 -0.09433460236 0.8994439244
-0.078192994 -0.1662703305 0.9725084901 0.5102369785 0.1121334434 0.8499969244
-0.06658900529 -0.1788239032 0.9706055522 0.4191835821 0.1916873157 0.8646047115
-0.06960320473 -0.1715278774 0.9699476957 0.4311645627 0.1176490411 0.87681216
-0.07950408757 -0.1628635377 0.968177557 0.4987227023 0.06918192655 0.8549321294
-0.06952694058 -0.1734889597 0.9651601911 0.4412479103 0.1770035625 0.869353056
-0.0650363043 -0.171694845 0.9617676735 0.3374412954 0.06260281801 0.9224188328
-0.07529087365 -0.1718936116 0.9688869715 0.5106737018 0.2021964043 0.8335074186
-0.07979581505 -0.1721575856 0.9722349048 0.526212275 0.2271981984 0.816170752
-0.1125935093 -0.2013153434 0.9876251221 0.1036941633 -0.08297993988 0.9907138348
-0.1070206612 -0.2026271522 0.9877067804 0.1153425276 -0.06771167368 0.9904940128
-0.1071670279 -0.1972756982 0.9876785278 0.1565336585 -0.1005080268 0.9817683697
-0.1122379154 -0.1965956837 0.9874498844 0.1326813549 -0.09234022349 0.9865036607
-0.08693963289 -0.2095424384 0.9867613316 0.06497494876 0.1866997629 0.9786115289
-0.09423355013 -0.2110335231 0.9878564477 0.06586831063 0.1120985299 0.9888702631
-0.09037171304 -0.2060128897 0.9865418673 0.1095995381 0.1315822601 0.9810779691
-0.05936270952 -0.2298143059 1.022547126 0.4380864501 0.2212056518 0.471458137
-0.05879445001 -0.2295238972 1.037059784 0.7512241602 0.1871721298 0.1996721774
-0.05939359963 -0.2358399332 0.9954109192 -0.1172479019 0.285972774 0.9509750009
-0.05823776498 -0.2302903533 0.9945781827 -0.1182707623 0.2795239091 0.9527856708
-0.05851994455 -0.2427798808 0.9969744682 -0.1178321093 0.2947558761 0.948243618
-0.0437910147 -0.1480841339 0.968685329 -0.04792506993 -0.3089831769 0.9479705691
-0.03811013326 -0.1362113804 0.9703931212 -0.1128586605 -0.3815788925 0.9159108996
-0.03737923875 -0.1430878639 0.965904355 -0.09597823769 -0.3490920663 0.9318922758
-0.04272800311 -0.1436674893 0.9666782022 -0.06390756369 -0.3292761445 0.9414935708
-0.03707585856 -0.1317590028 0.9768473506 -0.1234884337 -0.4271402061 0.8953040242
-0.03698517382 -0.1270674169 0.9797964096 -0.1398329139 -0.4255698919 0.8930562139
-0.03183709085 -0.1330654025 0.977338016 -0.1686049402 -0.406547159 0.8943875432
-0.02868364565 -0.1300618649 0.9803119898 -0.2099431604 -0.3913448155 0.8912369609
-0.02518341504 -0.1341588944 0.9793618321 -0.2333830893 -0.3741226196 0.8902608752
-0.01181931887 -0.1374173462 0.9810003042 -0.338345319 -0.3036617339 0.8905137777
-0.02844611555 -0.151816681 0.969245553 -0.2210123837 -0.2717456818 0.9288452864
-0.03136665002 -0.1480412334 0.9703115821 -0.1747945249 -0.3106872737 0.9257572889
-0.03555351123 -0.1506685168 0.9686978459 -0.09798333794 -0.3049895763 0.9447140098
-0.03600895777 -0.1459539235 0.9706041813 -0.1017507836 -0.3407810926 0.9307364225
-0.03534384817 -0.1399599761 0.9729754925 -0.1184689179 -0.3852963746 0.9122599959
-0.04229595512 -0.1430361867 0.9715257287 -0.05625660717 -0.3615841866 0.9278758764
-0.03379571065 -0.1337128133 0.9727062583 -0.1500494927 -0.3991608918 0.903601706
-0.01514070202 -0.1304702908 0.9810000658 -0.3102633059 -0.3210463822 0.8939405084
-0.0188887585 -0.1239620969 0.9810001254 -0.2905424535 -0.3464585245 0.8910611868
-0.02492349595 -0.122872822 0.9809973836 -0.2549448907 -0.3805801868 0.8884637952
0.03628461063 -0.2917000055 1.067000031 -0.1022524163 0.002646329114 0.9946109056
0.0365717411 -0.2865050435 1.067000031 -0.1022618786 0.002758946968 0.9946082234
0.04464103654 -0.2848858833 1.067000031 -0.103745237 0.02041704394 0.994192481
0.0417564474 -0.2894611657 1.067156315 -0.1031869277 0.01377087459 0.9943489432
0.04500474408 -0.285084635 1.072207093 -0.1017575413 -0.003244670341 0.9947496057
-0.06406262517 -0.2238074839 1.050566792 0.9925417304 0.111390844 -0.0144477617
-0.06687989086 -0.2307888567 1.05120492 0.9988866448 0.03238301724 0.004507240374
0.04695481807 -0.2737279832 1.067000031 -0.08302722126 0.02268967219 0.994933784
0.05915565044 -0.262894839 1.067000031 -0.03102357686 0.0556281805 0.9962403178
0.05537985265 -0.2659081519 1.067000031 -0.04622035474 0.04542003572 0.9958703518
0.04240396246 -0.2715890706 1.067000031 -0.08608757704 0.01013694983 0.9950729609
0.04085052758 -0.2761640251 1.067000031 -0.1011570096 0.006081132218 0.994582653
0.05196494982 -0.2702394128 1.067000031 -0.06421023607 0.0362569429 0.9953730106
0.05630182847 -0.2745347321 1.067000031 -0.06726036966 0.04831689596 0.9950115681
0.04919471219 -0.280767709 1.067000031 -0.09734834731 0.02912652306 0.9942584038
0.05560426787 -0.2600767016 1.069723725 -0.07690882683 0.08559262753 0.9896165133
0.04602786154 -0.2660955191 1.069062948 -0.09987112135 0.04997504503 0.9905042648
0.03613008559 -0.2816647887 1.067000031 -0.1020194292 -0.0001272013033 0.9946762323
-0.05909623206 -0.2425814867 1.028205395 0.5525056124 0.09017556906 0.4309782982
-0.05721545964 -0.2396644652 1.019474268 0.3414135575 0.143435359 0.6011465788
-0.05603549257 -0.2429628074 1.00517571 0.00142627093 0.2428199202 0.8768135905
-0.05834694207 -0.2469716817 1.015177131 0.2437011302 0.1828169376 0.6816393733
-0.05644964054 -0.2405495942 1.012353778 0.1715690792 0.1917866915 0.7387073636
-0.05687180907 -0.2476606816 1.003208876 -0.0423392728 0.2628831267 0.9131500721
-0.05862563848 -0.2382148355 1.032276034 0.6468701959 0.05671989918 0.3537789881
-0.05733879283 -0.2453754544 1.010553122 0.1318703443 0.2109459639 0.771779716
-0.05781438947 -0.2390083522 1.024980903 0.4727829099 0.1060856134 0.4947534204
-0.06104924902 -0.2411372215 1.035403848 0.70591259 0.04149357229 0.3077111542
-0.05929059535 -0.2562366128 1.003467917 -0.03507697955 0.2743762136 0.9092928171
-0.06524730474 -0.2555943727 1.013809919 0.1478214115 0.2087984383 0.765199542
-0.06243596971 -0.2559496462 1.008827806 0.05909693241 0.240495652 0.8351618648
-0.06064535305 -0.2510922849 1.015502453 0.2368228585 0.1878819913 0.6891121268
-0.05926822498 -0.246069178 1.023129702 0.4328276515 0.1289810091 0.5285170078
-0.06381252408 -0.2591911554 1.00465107 -0.05483168736 0.2738876343 0.9289669394
-0.06571574509 -0.2576344609 0.9986230135 -0.09042710066 0.2962063551 0.9506895542
-0.07109217346 -0.2587401271 0.9980000257 -0.08310244232 0.2948866785 0.9518136382
-0.05722550303 -0.2512634993 0.9990083575 -0.1050918773 0.2932868004 0.9500983357
0.02707933635 -0.2784943283 1.067599535 -0.1015248895 -0.006014179438 0.9948148131
0.03238777071 -0.2763917148 1.067000031 -0.1015248895 -0.006014179438 0.9948148131
0.02601338923 -0.2920346856 1.067000031 -0.1015248895 -0.006014179438 0.9948148131
0.03141571209 -0.2931776941 1.067000031 -0.1015248895 -0.006014179438 0.9948148131
0.02459416538 -0.2820702493 1.070089698 -0.1015248895 -0.006014179438 0.9948148131
0.02998713218 -0.2835817933 1.070373416 -0.1015248895 -0.006014179438 0.9948148131
0.02597825602 -0.2885839641 1.070263863 -0.1015248895 -0.006014179438 0.9948148131
0.03092872351 -0.2894096971 1.070266366 -0.1015248895 -0.006014179438 0.9948148131
0.01989481598 -0.2879195213 1.070238471 -0.1015248895 -0.006014179438 0.9948148131
-0.09106368572 -0.2175090462 0.9889268279 0.02185767703 0.1752821505 0.9822466969
-0.08452481031 -0.2291393876 0.9888263941 -0.01461556461 0.2822755575 0.958396852
-0.09061664343 -0.2294452935 0.9888106585 0.02153835632 0.2856721878 0.9567257166
-0.09003479034 -0.240052402 0.9922942519 0.0258839801 0.328540951 0.9437240958
-0.09161540121 -0.2342885137 0.9898537993 0.02818134427 0.3206862211 0.9462643266
-0.08685173094 -0.2449449003 0.9944319725 0.0132400766 0.333663702 0.9422122836
-0.0848191455 -0.2376366705 0.9914827943 -0.00728989346 0.3203185797 0.9468455911
-0.07734584808 -0.258155942 1.000584483 -0.03576587513 0.3046914935 0.9505019188
-0.06387616694 -0.1886481196 0.977094233 0.3600088656 0.285813272 0.8482347727
-0.04666281119 -0.1670243442 0.9644848704 0.03060958348 -0.1728983968 0.9705612659
-0.04920478538 -0.1713008583 0.9659677744 0.09567433596 -0.104066059 0.9535866976
-0.0527841635 -0.1775924116 0.9679595232 0.1914162487 -0.006880465429 0.9299556017
-0.0567066893 -0.1813321561 0.9712684751 0.248111546 0.09655692428 0.9008903503
-0.06093976274 -0.1853445619 0.9748477936 0.3089375496 0.2081607729 0.8695004582
-0.07521628588 -0.1923147738 0.9828635454 0.4229181707 0.3106999993 0.8423110247
-0.0805349201 -0.1882338971 0.9836044908 0.4611695707 0.2910733223 0.8343378305
-0.07098779827 -0.1848103106 0.9777600765 0.454461664 0.3242797554 0.8190360665
-0.07296516746 -0.1746291071 0.9744288921 0.4725737572 0.2000781298 0.8437177539
-0.07093049586 -0.1803856194 0.9758411646 0.4582314491 0.2608307898 0.8352839351
-0.06866544485 -0.1900285929 0.9796496034 0.4277309477 0.3724017143 0.8189340234
-0.02273070998 -0.1463028789 0.9728567004 -0.3038049042 -0.2939605117 0.8993362784
-0.02936088666 -0.1426669657 0.9727780819 -0.2177322507 -0.3441906869 0.9042478204
-0.0737099871 -0.1923334152 0.9756979942 0.4496794343 0.3655514419 0.8132681251
-0.07256300002 -0.1773007363 0.9679809809 0.4978878796 0.2405961454 0.8326771855
-0.06199211627 -0.1770886332 0.9599232078 0.3123838007 0.109025158 0.9380388856
-0.06966903806 -0.1808498353 0.9663734436 0.4809712768 0.2336608618 0.8407569528
-0.06624408811 -0.1782229394 0.9633039832 0.3954781592 0.162681058 0.8902056813
-0.06948436052 -0.1943940967 0.9817923307 0.3705153465 0.3821722567 0.83561939
-0.08051470667 -0.1955400854 0.9849267602 0.3839125931 0.2085077912 0.8880576491
-0.07754979283 -0.2028279305 0.9859899282 0.1779999435 0.2513434291 0.9360985756
-0.0705505684 -0.2146763951 1.00454402 0.1140933335 0.3440688252 0.7224504352
-0.079009749 -0.2147617787 0.9892221093 -0.02858052775 0.2123739272 0.9732061625
-0.08118928224 -0.2065925151 0.9866189361 0.07583463192 0.2347001135 0.9665612578
-0.08477517217 -0.2190930843 0.9894768596 -0.0003668817517 0.2193349451 0.9728446603
-0.07738482952 -0.213248834 1.029503822 0.5418530703 0.4611842632 0.2190107703
-0.07923595607 -0.2131105363 1.035723805 0.653341651 0.493986398 0.0964461863
-0.07571447641 -0.215692997 1.012048364 0.2507410944 0.3735345602 0.5625841618
-0.07495996356 -0.2181531936 0.9972389936 0.007850247435 0.2999996543 0.8540031314
-0.08159533143 -0.2189932615 1.012713432 0.2977589965 0.3841452003 0.5488507152
-0.08152439445 -0.216685921 1.024283648 0.4834448993 0.4407707155 0.3212454021
-0.08637871593 -0.2234008163 1.004455566 0.1944610029 0.3496463299 0.7107729912
-0.07747707516 -0.2146390527 1.022680044 0.4326513708 0.4278509319 0.353241235
-0.08005142212 -0.2168949097 1.018829226 0.3866057992 0.412193507 0.4287092388
-0.08204208314 -0.2201732993 1.008018732 0.2249966264 0.3616913259 0.6411573887
-0.07254033536 -0.2176855505 0.9924197793 -0.08461715281 0.273352772 0.9490756989
-0.0821801126 -0.2216978222 1.000645399 0.1072389111 0.3257219493 0.7861918807
-0.07739086449 -0.2110329717 1.040836334 0.7241892815 0.5167405009 -0.003925372381
-0.08404193074 -0.2236713469 0.9961138964 0.0458420217 0.3058370352 0.8751305342
-0.07433336973 -0.2168681771 1.001934052 0.07950726151 0.3222303391 0.7617098093
-0.07885861397 -0.2213781476 0.9923843741 -0.04616511241 0.2810768485 0.9490728378
-0.07845492661 -0.2188260257 1.004213452 0.1416289657 0.338555038 0.7164130807
-0.08212962747 -0.2162218094 1.029532552 0.5715572238 0.4678976238 0.2182133645
-0.08402141929 -0.2243911922 1.013224959 0.3197944462 0.4021205008 0.5441700816
-0.08630413562 -0.2302448899 0.9996846914 0.1155391335 0.3442997634 0.8128736019
-0.08431934565 -0.2210405767 1.017764688 0.3954220712 0.4167189002 0.4511828125
-0.08946929127 -0.2270351946 0.9982711673 0.1138847247 0.3250846863 0.8329507113
-0.08459649235 -0.2271528095 1.007841229 0.2363455147 0.3806277514 0.6519155502
-0.07478393614 -0.2230914384 0.9884416461 -0.1000178382 0.2872545719 0.9520372748
-0.06289269775 -0.2251259834 0.9981911182 -0.03812673315 0.2712935209 0.8989242911
-0.06123357639 -0.2274030149 1.017333627 0.3482972682 0.2299673855 0.5544195175
-0.05999664217 -0.2294095755 1.000717878 -0.02490215003 0.2719348371 0.8800134063
-0.06411804259 -0.2232546508 1.003010631 0.08235382289 0.2571470737 0.7958839536
-0.06425872445 -0.2229888439 1.008659601 0.2052818984 0.2435165495 0.687967658
-0.06274292618 -0.2251995504 1.013113022 0.2792362273 0.2364750504 0.6190306544
-0.06047615781 -0.2284251899 1.027804732 0.561791718 0.2070199251 0.3644842207
-0.06260830164 -0.2251550555 1.037585378 0.801286757 0.1791190058 0.1588959396
-0.0661931932 -0.22023274 0.9964538217 -0.02873951755 0.267870903 0.8989341259
-0.05929867551 -0.2303254604 1.012971878 0.2276040465 0.24465096 0.6558675766
-0.06305085868 -0.224556163 1.031631231 0.6800549626 0.1921405792 0.2667810023
-0.05927292258 -0.2304233015 1.007021427 0.09984114766 0.2587303519 0.7683303952
-0.009135716595 -0.1547368765 0.9716486335 -0.3445709646 -0.2302336544 0.9091011882
-0.02521505393 -0.1459033042 0.9671490192 -0.2569253445 -0.322799623 0.9060409665
-0.01372378133 -0.1436437964 0.9730077386 -0.3465260565 -0.2832574844 0.8922692537
-0.01222941 -0.1482905447 0.9717093706 -0.341042906 -0.2585743964 0.90177387
-0.006967945956 -0.1502375454 0.9727474451 -0.3454783559 -0.2509877384 0.9028086662
-0.01367832348 -0.152367726 0.969628036 -0.3322226405 -0.2352758497 0.9118686914
-0.0003227483248 -0.1443725228 0.9772982001 -0.3647911549 -0.2872139812 0.8853868842
-0.005126771983 -0.1462953687 0.97491014 -0.3546459973 -0.2737764418 0.8927681446
-0.01897537149 -0.150486812 0.9688922763 -0.315677166 -0.2677065134 0.9064933658
-0.01763597503 -0.1454009712 0.971062243 -0.335362494 -0.276723206 0.8977339268
-0.01826110668 -0.1379776895 0.9739245176 -0.3401271999 -0.3310408592 0.8789545894
-0.06535990536 -0.2326057255 0.9927098155 -0.1150418147 0.2889047563 0.9503222704
-0.06251783669 -0.2268656939 0.9919963479 -0.1201425195 0.2821251452 0.9517050982
-0.06855800003 -0.2294059247 0.9899874926 -0.1185756922 0.2985311449 0.9468452334
-0.115937762 -0.217364043 0.9885845184 0.05691087618 0.08654954284 0.9897873998
-0.09449353069 -0.2458079606 0.9957876801 0.04942401126 0.3451454043 0.9369952679
-0.0952327773 -0.239842847 0.9929692745 0.05038037151 0.3335794806 0.9411318898
-0.09410185367 -0.2501345277 0.9979114532 0.0494459942 0.3533052206 0.9340330958
0.06145644188 -0.2521380782 1.071989417 -0.007721586619 0.08829709888 0.9856156707
0.06630991399 -0.2437216491 1.07095921 0.205721423 -0.000689088658 0.9706512094
-0.06945320964 -0.1628705263 0.9679363966 0.3638956845 -0.01459825318 0.9154419303
-0.07201153785 -0.1585810781 0.9694423079 0.3566993773 -0.05465555191 0.9088997841
-0.07456258684 -0.1631748229 0.9706054926 0.4646994174 0.05041800812 0.8740224242
-0.06771822274 -0.1563072354 0.9676243663 0.2524939775 -0.1348382384 0.9417139292
-0.06504096091 -0.1492655277 0.9665253162 0.153636694 -0.233024925 0.9591069221
-0.05856360495 -0.1559575796 0.9649627805 0.1305645853 -0.2036894709 0.966370523
-0.06346610188 -0.1575329304 0.9647967815 0.1861403286 -0.167411685 0.9660336375
-0.06374593079 -0.1627847105 0.9615807533 0.2272983789 -0.1057186127 0.9651272297
-0.0715046227 -0.1561166793 0.9644914865 0.2929976583 -0.1159117892 0.9379474521
-0.06906548142 -0.1621951759 0.9622414112 0.3126557171 -0.06884366274 0.9392461777
-0.07199486345 -0.1500935853 0.9664388299 0.2393718362 -0.1780459583 0.947052896
-0.1133221909 -0.2074181437 0.9923761487 0.07342141122 0.01034329645 0.9912930727
-0.111312218 -0.2010169327 0.99523592 0.1289560795 -0.02039330825 0.9813265204
-0.1075021774 -0.1937395334 0.9991251826 0.2074367106 -0.04455794021 0.9671605825
-0.1137482896 -0.196124211 0.9957598448 0.131432578 -0.07196573168 0.9810940623
-0.1073610261 -0.1997142583 0.99729985 0.1758997142 -0.001610373147 0.9727126956
-0.09883525968 -0.211364761 0.9910225868 0.06934081763 0.09989380836 0.9861081839
-0.1062153876 -0.2054827362 0.9955770969 0.1476616859 0.04447296634 0.9773076177
-0.102173157 -0.1952103823 0.9975680113 0.1839657128 -0.0184070617 0.9683290124
-0.1065623015 -0.2138163149 0.9929291606 0.1008074358 0.101357758 0.9856985211
-0.1017625928 -0.2068213522 0.9935638309 0.11338 0.06263932586 0.9803572297
-0.09620403498 -0.2058773339 0.9889217615 0.1161054671 0.05192799866 0.9872478247
-0.09913094342 -0.2027281225 0.9935473204 0.126318723 0.0373271592 0.9780296087
-0.1035127491 -0.1909230053 0.9993473291 0.2182632238 -0.05131372809 0.9636650085
-0.103798151 -0.2186444402 0.9917649627 0.07137846947 0.1492691487 0.9839360714
-0.09864842892 -0.2231424749 0.9919677973 0.05244107917 0.2130498737 0.9712527394
-0.1124412343 -0.2147018313 0.9921459556 0.07848321646 0.08977865428 0.9849092364
-0.1114470512 -0.2254892737 0.992313683 0.09805233777 0.2138622999 0.9712405205
-0.05550831184 -0.1512973309 0.9650294185 0.07348549366 -0.2563478351 0.9631286263
-0.04833445325 -0.1435450912 0.9664030075 -0.01424617413 -0.3222249448 0.943932116
-0.05676248297 -0.2357463837 1.013870478 0.203141138 0.194323644 0.7051642537
-0.05831995979 -0.231138289 1.031668782 0.6239913106 0.1835781783 0.319226563
-0.05721443892 -0.2347458452 1.019035339 0.3257505298 0.1803992689 0.5972480178
-0.05582473427 -0.2372896671 1.003864765 -0.03538346663 0.2636367977 0.8980892301
-0.06306584179 -0.2438354492 1.031448126 0.5981403589 0.07309622318 0.3964391053
-0.06480353326 -0.251756072 1.01954186 0.2932119966 0.1648629457 0.646207571
-0.06154587865 -0.2368023545 1.042004704 0.8685017824 -0.008267768659 0.1749845892
0.04889677837 -0.2638731301 1.073022723 -0.1253514886 0.09005509317 0.986176908
-0.06400728971 -0.2376163304 0.9949181676 -0.1129141822 0.2878100872 0.9509701133
-0.06379879266 -0.2426542342 0.9964271188 -0.111567229 0.2966604829 0.948402822
-0.06870029867 -0.2360377312 0.9921201468 -0.1142453626 0.3036136031 0.9458675385
-0.0850430876 -0.2355879694 0.9959285259 0.0360488221 0.3361010551 0.9057418704
-0.08270158619 -0.238942042 1.009637117 0.1677690893 0.3896752596 0.7313994765
-0.08125375956 -0.224691689 1.022693515 0.4315454066 0.446246475 0.3897232711
-0.08381424844 -0.2347775102 1.003844142 0.1338892877 0.3679091632 0.777415812
-0.0836795792 -0.2418496013 1.002702594 0.06463005394 0.3611107469 0.86594522
-0.08025547862 -0.2218906432 1.029725194 0.5349610448 0.4751640558 0.2547760904
-0.08321617544 -0.2324171513 1.00824821 0.2034658343 0.386213541 0.6867944002
-0.0823032558 -0.2297703475 1.014702439 0.2989906371 0.4127808213 0.5621651411
-0.08134292811 -0.2304555029 1.020518541 0.3607257903 0.43574512 0.4807688892
-0.07905463129 -0.2183493227 1.037362337 0.6583175659 0.4904253781 0.1047916263
-0.07303089648 -0.2244756669 1.050287485 0.9466077685 0.1078768075 0.01285333745
-0.0797495544 -0.2271359265 1.028227806 0.5020568371 0.4076898694 0.3362134993
-0.0770675838 -0.2304875702 1.033480167 0.622328341 0.2290275991 0.3097935617
-0.08166188002 -0.2341880053 1.01688087 0.2939634025 0.4089019895 0.5746703744
-0.07565692812 -0.2284304202 1.039318442 0.7350834012 0.1861055642 0.2070432901
-0.07700428367 -0.218805179 1.043073654 0.7775570154 0.3819894493 0.03559773043
-0.07532478869 -0.2192824483 1.047668338 0.8738840818 0.2917783856 -0.01866550557
-0.07841300219 -0.2241024077 1.034632444 0.6229395866 0.3815147281 0.2136367708
-0.07478502393 -0.2247458994 1.044869661 0.8360405564 0.1918235123 0.08740773797
-0.06986200064 -0.2350238264 1.041261196 0.8089468479 0.08795420825 0.1874867827
-0.07325942814 -0.2341114581 1.036545038 0.7038906813 0.1397666335 0.274000138
-0.08081042767 -0.2409140468 1.013639331 0.2519247234 0.2863697112 0.6998373866
-0.07226324826 -0.2296054363 1.044643879 0.8527973294 0.1075747758 0.1223764718
-0.07570762187 -0.2349240035 1.031078339 0.5918177962 0.1823377311 0.3752220571
-0.07750279456 -0.2357772887 1.026707649 0.5032688379 0.2144704312 0.4562541842
-0.07823505998 -0.2385319471 1.021538854 0.407607615 0.2361479849 0.5529601574
-0.06862775981 -0.2334117591 1.045709014 0.8951972127 0.06221010908 0.1046529412
-0.08104670048 -0.244393304 1.008087277 0.1502032578 0.3033056855 0.804471314
-0.07422655076 -0.2430456579 1.015043139 0.2427278757 0.2088368237 0.6898742318
-0.07617004961 -0.2453649193 1.006477356 0.05956977606 0.2541816533 0.8528519273
-0.08446664363 -0.2461411655 1.000863791 0.01332737133 0.3521638811 0.9357364178
-0.08892954886 -0.249261871 0.9992922544 0.02948577516 0.3557168543 0.9339696765
-0.0993924737 -0.2447161674 0.9980408549 0.07337981462 0.3353419304 0.9390345812
-0.09358339012 -0.2219329476 0.9886816144 0.03020389564 0.2315145582 0.970736444
-0.06375367194 -0.2215885669 0.9908584356 -0.1203991398 0.2777683139 0.9530613422
-0.06750940531 -0.2144593596 0.9883255363 -0.06145137176 0.293309927 0.9382978678
-0.07154832035 -0.2125486583 0.989916265 -0.02103723399 0.2714010477 0.9573071003
-0.07114762068 -0.2002583444 0.9843170047 0.2381640524 0.3388826847 0.88291502
-0.06743688136 -0.2042267323 0.9833958745 0.145338729 0.316834271 0.8894311786
-0.06706833094 -0.197697714 0.9790261984 0.2637011707 0.3060409129 0.8665912747
-0.06733655185 -0.2101644129 0.9854406714 0.0184688177 0.2906931639 0.9213266969
-0.07458217442 -0.1999066621 0.9801242948 0.3031800985 0.3393352032 0.8539492488
-0.07403504103 -0.2044046223 0.9824649692 0.1958245039 0.3148803711 0.8850812912
-0.02668691799 -0.1378978789 0.9764238 -0.2183605433 -0.3743391931 0.8917686343
-0.01705796272 -0.1399441212 0.9791867733 -0.3049137294 -0.3308337331 0.8863400817
-0.0221283529 -0.1384331137 0.9780943394 -0.2539836466 -0.3577209413 0.88949579
-0.02024899796 -0.1427529603 0.9753555059 -0.3192891181 -0.3132519424 0.8857491612
-0.02618984878 -0.1388062686 0.9692260623 -0.2563812435 -0.3650779426 0.8926084042
-0.02238856256 -0.1339985728 0.9726427794 -0.2782967687 -0.3640037775 0.8868914843
-0.02714912593 -0.133109957 0.9727786779 -0.2333921194 -0.376034826 0.8966017962
-0.02270901203 -0.1271549016 0.9774925709 -0.2608843446 -0.3734247088 0.8898884058
-0.0302632954 -0.1363665909 0.9701988697 -0.2107510418 -0.386780858 0.8974263072
-0.08027688414 -0.1820261925 0.97533077 0.5298062563 0.2710470855 0.8031972051
-0.08385197073 -0.1787438244 0.979503274 0.5054525733 0.2665951848 0.8201140165
-0.0772639066 -0.1773272604 0.9737215042 0.5426186919 0.2661897242 0.7964863777
-0.07253095508 -0.1848962307 0.9706026912 0.4889256656 0.2874991298 0.8210459948
-0.07636613399 -0.1872911304 0.97496593 0.4907186329 0.3180170357 0.8081514239
-0.1027543247 -0.1954158098 0.9874596 0.2089337111 -0.09322125465 0.9702543616
-0.09823456407 -0.192442134 0.985291183 0.2854974866 -0.007751657162 0.9299128056
-0.09350468963 -0.1930489987 0.9853633046 0.3264504671 0.01262012683 0.9278199077
-0.0908100903 -0.1869502217 0.9813470244 0.4176614583 0.1439234614 0.8570941687
-0.08323021233 -0.1855645478 0.978772223 0.4988955259 0.259759903 0.8137674928
-0.08519232273 -0.1903806478 0.9809791446 0.4212216139 0.1883423775 0.857821703
-0.09020056576 -0.1764800996 0.9791449904 0.5027902126 0.1951177716 0.8237771392
-0.09575711936 -0.1833118498 0.9822404385 0.3862873614 0.08327304572 0.8790177703
-0.114814125 -0.2120909095 0.9875079989 0.05773419887 0.02243898436 0.9963182807
-0.1198465079 -0.206393376 0.9888850451 0.04019745439 -0.04113154858 0.9977983832
-0.119395867 -0.2011511028 0.9908789992 0.06029415876 -0.06588057429 0.995773077
-0.02523016185 -0.1608696133 0.9663255811 -0.2405693978 -0.1906019151 0.9501574039
-0.01416325755 -0.1555441171 0.9735915065 -0.3418269157 -0.2317245603 0.9069615006
-0.006859060843 -0.1538954973 0.9774227738 -0.3894800246 -0.2346042097 0.8905180693
-0.01870476641 -0.1569112986 0.966432333 -0.3167176247 -0.2052318454 0.9259829521
-0.02422774024 -0.154468596 0.9690364003 -0.2928734124 -0.2348431498 0.9250503182
-0.03158754855 -0.1631376892 0.9653742313 -0.1650286019 -0.1859178543 0.9671192169
-0.03377177566 -0.1557711214 0.9669852853 -0.1196637601 -0.2599746585 0.955643177
-0.1078005806 -0.2282743603 0.9925408363 0.07934710383 0.2445293814 0.9653214216
-0.09634816647 -0.2327035815 0.9896549582 0.04682780802 0.3175984025 0.946987927
-0.102208592 -0.2288349867 0.9909175038 0.06166903302 0.2604942322 0.9624590278
-0.09788244218 -0.2267258465 0.9890000224 0.0527291894 0.2646250129 0.9619987011
0.07217402011 -0.2417982519 1.070000052 0.1824923009 0.02812517434 0.9727070332
0.07605814934 -0.2320986539 1.067105174 0.3782927096 -0.04978612065 0.9222393632
0.07110922784 -0.2324553877 1.070102334 0.415279597 -0.06796669215 0.9071512818
0.07450480759 -0.2271484882 1.070243478 0.415279597 -0.06796669215 0.9071512818
0.07643672824 -0.2389309853 1.067080975 0.3328804076 -0.0274640955 0.9407644868
0.08102286607 -0.2249224037 1.067103028 0.415279597 -0.06796669215 0.9071512818
-0.05890043825 -0.1492959857 0.9680659771 0.1009073406 -0.264300555 0.9520741701
-0.04977913946 -0.1516822726 0.9669154882 0.01315371692 -0.2615547776 0.9611696601
-0.06311997026 -0.141805768 0.9668669105 0.09917286038 -0.2947010398 0.9500541687
-0.05387600139 -0.1430124789 0.9664453268 0.02780560032 -0.3118547201 0.947284162
-0.1034647748 -0.2117209285 0.9884155393 0.07722984999 0.05289968103 0.994977355
-0.1102850065 -0.2067918926 0.9877206087 0.08604831249 -0.04353416339 0.993837297
-0.09774299711 -0.2173443288 0.9887166619 0.04303178564 0.1514352262 0.9861041903
-0.1118673831 -0.2208016068 0.9889256954 0.07639280707 0.1505950242 0.9853644967
-0.1069220304 -0.222818777 0.9889919162 0.07634276152 0.1896073073 0.9781976342
0.04762333259 -0.2668303847 1.078989387 -0.14091824 0.1038642526 0.983900547
0.0471669808 -0.2765031457 1.07573092 -0.1217474118 0.05060788244 0.9891204834
0.05105993152 -0.271217972 1.077236772 -0.1377741098 0.1053074002 0.9842859507
0.05149075016 -0.2850512564 1.067485929 -0.1059408858 0.03572135419 0.9937058091
-0.08933261782 -0.2421840429 0.9978749752 0.03508047387 0.3415385187 0.9387392402
-0.08870247006 -0.2331813872 0.9937713146 0.01785209402 0.3115178943 0.9497455359
-0.1017160267 -0.2399537265 0.9964041114 0.06730411202 0.3208374381 0.9444695711
-0.09502603114 -0.2343372554 0.9942699671 0.04650005326 0.3089748323 0.949364841
-0.1001831219 -0.2338736057 0.9941784143 0.04219351709 0.3027370274 0.9519447088
-0.04678726569 -0.1409137398 0.9716004133 -0.03616118431 -0.3693754077 0.9279936552
-0.05193151161 -0.1407456845 0.9714006782 0.006659825332 -0.3693937957 0.9286443591
-0.05699757487 -0.1396468282 0.9676399827 0.04254291952 -0.3295729458 0.9400542974
-0.06455937773 -0.1460002512 0.9705732465 0.1532433778 -0.2755803466 0.9382214546
-0.05790624022 -0.1403277963 0.9727783203 0.07400308549 -0.3577261567 0.9220053554
-0.0594766736 -0.1445287615 0.970859766 0.1006986946 -0.3108785152 0.9346469045
-0.04485731572 -0.135874629 0.972473681 -0.05447125435 -0.3993478417 0.9131795764
-0.04180460051 -0.1305042654 0.9774994254 -0.08626618236 -0.4361380935 0.8953866363
-0.05040290579 -0.1364741921 0.9743662477 -0.0006185878883 -0.4120073318 0.9103776217
0.037327528 -0.2728949785 1.074077725 -0.1205784306 0.04505391791 0.9896607399
0.04453340173 -0.270822525 1.07632637 -0.1243354157 0.06887028366 0.9884909391
0.04039344937 -0.2770264447 1.072857976 -0.1039340943 0.02266520076 0.9941395521
0.0350798741 -0.2783871293 1.071449518 -0.1027010679 0.007987122051 0.9944851398
0.04014088213 -0.2833144665 1.071997643 -0.102020666 -0.0001124736882 0.9946758747
-0.08171538264 -0.2489441633 0.9959656 -0.02354730107 0.3213744462 0.9456695318
-0.07755480707 -0.2438201755 0.9942723513 -0.07406494021 0.2984905541 0.950904429
-0.07892454416 -0.238641575 0.9923373461 -0.06462671608 0.3017222583 0.9503266215
-0.07571078837 -0.2482534498 0.996088028 -0.0895485431 0.2950071394 0.9510613084
-0.08136686683 -0.2550916672 0.9980000257 -0.02212568186 0.3257495463 0.9439701438
-0.07418678701 -0.2529332638 0.9973136187 -0.08034334332 0.2949290574 0.9520426393
-0.06754609942 -0.2470230609 0.99549371 -0.09731432796 0.2983454466 0.949352324
-0.06665372103 -0.2529246509 0.9979001284 -0.08900645375 0.2940742075 0.951587975
-0.06762421131 -0.2414521277 0.9935989976 -0.1069953442 0.3026666343 0.9469760656
-0.08125285804 -0.2502251565 1.001000881 -0.006873121019 0.3355291188 0.9409717917
-0.06893786043 -0.2613177001 1.003827095 -0.07799261063 0.2798174322 0.9568181634
-0.06694213301 -0.2396330684 1.038679361 0.7300531864 0.08290854096 0.250724107
-0.07024229318 -0.2457055748 1.02228415 0.3866159618 0.1691624373 0.5571988225
-0.07173734903 -0.2482002079 1.01525259 0.2405466735 0.205951333 0.6878051162
-0.07025177032 -0.2563702464 1.005795836 -0.009614904411 0.2643663287 0.9000781775
-0.06658020616 -0.2477912009 1.026851416 0.4401518703 0.1521457434 0.5005510449
-0.06911680847 -0.2521077394 1.014791489 0.1892040819 0.2153130472 0.7248434424
-0.06682018936 -0.2592813373 1.008510709 0.003920147195 0.2568290532 0.8791229129
-0.0625147447 -0.2334790379 1.047405601 0.9868801236 -0.02946124598 0.06611846387
-0.07661218196 -0.2471087724 1.002124786 -0.03721504286 0.2737053335 0.9367456436
-0.07081572711 -0.2397654504 1.028177023 0.5199121833 0.135700047 0.4410918951
-0.06927912682 -0.2390345633 1.03364265 0.6366132498 0.1070038155 0.3370177448
-0.07339399308 -0.248606801 1.009983063 0.129996866 0.2332560122 0.7868381143
-0.0741064325 -0.2504623532 1.005651832 0.03722951189 0.256401211 0.869173646
-0.07216109335 -0.2410280257 1.022653699 0.4018633664 0.164864853 0.5462059379
