# .PCD v0.7 - Point Cloud Data file format
VERSION 0.7
FIELDS x y z normal_x normal_y normal_z
SIZE 4 4 4 4 4 4
TYPE F F F F F F
COUNT 1 1 1 1 1 1
WIDTH 512
HEIGHT 1
VIEWPOINT 0 0 0 1 0 0 0
POINTS 512
DATA ascii
-0.1652664542 -0.02986212447 0.9651247263 -0.08119759709 -0.5938828588 0.7989740968
-0.1709577292 -0.03014126979 0.9773207307 0.01150619704 -0.591468215 0.8052832484
-0.2351191044 -0.1257263124 0.9796977043 0.1761092991 0.2786287963 0.941381216
-0.2198681235 -0.12994349 0.9758248329 0.1179260463 0.3448507786 0.925090909
-0.2221288085 -0.1358938068 0.9754750729 0.1048853546 0.2997555733 0.9426672459
-0.2270810902 -0.139237389 0.9760705233 0.1082497835 0.2529656291 0.9588242173
-0.2281428874 -0.1296730191 0.9776426554 0.1428467333 0.2980952859 0.9385818839
-0.2143738717 -0.1261564791 0.9751750827 0.1144488007 0.3971772492 0.9069870114
-0.1631877273 -0.03554797173 0.9589079618 -0.1145622954 -0.56755656 0.8097457886
-0.06194525212 -0.06003402174 1.041339159 0.3323108256 0.3012259007 0.8937433362
-0.08966971934 -0.1844152808 1.060500622 0.09299275279 -0.0363913551 0.9950014949
-0.0871944651 -0.187981531 1.057263851 0.09299275279 -0.0363913551 0.9950014949
-0.2136241794 -0.1659631431 0.9819524884 -0.100565955 0.2530199289 0.9603129029
-0.207197547 -0.1714745611 0.9835160971 -0.1934174746 0.1708345562 0.9594423771
-0.2368493676 -0.1453952044 0.9734194279 0.1793894917 0.2077766657 0.9614753127
-0.241129145 -0.1383257061 0.9736969471 0.2217873931 0.2335035354 0.9460645318
-0.2264119089 -0.1526736021 0.9763551354 0.01610703208 0.2858183086 0.9547021985
-0.1708895862 -0.03100810014 0.9667250514 -0.0006123150815 -0.6085243821 0.7877981067
-0.1811414212 -0.0348963514 0.9630118608 0.1418511569 -0.6307666302 0.7600444555
-0.2249629796 -0.09182074666 0.9527969956 0.4344752133 0.1862470657 0.8669874668
-0.1752476096 -0.03309333697 0.9616343975 0.05799366534 -0.6244071722 0.7707027793
-0.2211418897 -0.08755023032 0.9478779435 0.4669772685 0.05448489264 0.8783053756
-0.03895968199 -0.107797347 1.058659554 0.4099917114 0.1393294483 0.8993381262
-0.05388542637 -0.09654182941 1.064416409 0.3596436083 0.2097691149 0.9064813256
-0.04973351955 -0.09683654457 1.060880542 0.3685813248 0.2136796862 0.9008976221
-0.0444317311 -0.1008564979 1.058911085 0.3862945139 0.1887566745 0.8983832598
-0.04915552959 -0.102151148 1.064072728 0.3789440691 0.1709243953 0.9068009257
-0.05330647901 -0.09135831892 1.06027317 0.3518560529 0.2532120049 0.8990841508
-0.04040516913 -0.1014053151 1.050917268 0.4090496302 0.1690549552 0.8950567245
-0.04335385934 -0.09270687401 1.050325632 0.3811254799 0.2471254021 0.8869664073
-0.05412855372 -0.06876616925 1.045148611 0.3388385773 0.3041046858 0.8902739286
-0.04728639871 -0.07680814713 1.047711968 0.3571929932 0.3063372672 0.8823512197
-0.06211836636 -0.06540357322 1.043831468 0.3251793981 0.2889560461 0.9003862143
-0.05683416501 -0.07312989235 1.048071027 0.331502825 0.2998356819 0.8944959641
-0.06327556819 -0.07160530984 1.046672583 0.3235225976 0.2861055136 0.9019294977
-0.1861605793 -0.1528919488 1.040120482 0.5973485112 0.7190517783 -0.1469006538
-0.181783095 -0.1642626673 1.021226764 0.2347798049 0.4493993819 0.3023636043
-0.1831700057 -0.1602008194 1.027930856 0.3634220362 0.5459500551 0.142723158
-0.1827235818 -0.1571193337 1.032634377 0.4536022842 0.6211075783 0.02878225408
-0.1842729598 -0.1719252616 1.009882808 0.01735767722 0.2607498169 0.5790951252
-0.1879416555 -0.1559140384 1.035850525 0.5155511498 0.6436308026 -0.04158176854
-0.1822226197 -0.1778913289 1.000032425 -0.1716585904 0.1189521924 0.8136396408
-0.1901849061 -0.160366416 1.029462457 0.3931574225 0.5330001712 0.1154035926
-0.1880717576 -0.1652768105 1.019146681 0.2008902431 0.3891002536 0.3538906872
-0.1867055744 -0.1659077853 1.013319016 0.1012037918 0.3162267804 0.4770696759
-0.181119591 -0.1811193973 0.9945287704 -0.2767890096 0.03990380839 0.9441419244
-0.1853569895 -0.1544665545 1.046919346 0.6392641664 0.7382736206 -0.2120127529
-0.1802314967 -0.1514855176 1.041545987 0.6174658537 0.7650552988 -0.1815451533
-0.1774196625 -0.1755912453 0.9984300733 -0.2011092454 0.09875624627 0.8598874807
-0.1791946441 -0.1688139439 1.012183309 0.0617008172 0.3163724542 0.5212578773
-0.177907303 -0.1606293619 1.023647904 0.2818856835 0.49543643 0.2468436807
-0.1792715788 -0.1728418469 1.005706668 -0.06242820248 0.2146636546 0.6781318188
-0.1787965149 -0.1538528651 1.036071777 0.5195769668 0.6914126873 -0.05702182278
-0.1951970905 -0.1834736317 0.9844183922 -0.2692865729 0.1296462119 0.9542232752
-0.2138342559 -0.1538122594 0.9745399952 -0.09772267193 0.3114733994 0.9447135925
-0.2202245146 -0.1491173506 0.9747102261 6.608060357e-05 0.2712910473 0.9578295946
-0.2352698296 -0.1597779691 0.9806197286 0.06021726131 0.2394514531 0.9662038088
-0.2387963235 -0.1547581106 0.9762289524 0.1333079934 0.2286807895 0.9609590173
-0.2314731479 -0.1540221721 0.9810000658 0.05848999694 0.2412873656 0.9669513702
-0.2352830172 -0.1459014118 0.9810000658 0.1043279544 0.2282935977 0.9647629857
-0.2331336886 -0.140873462 0.9799104333 0.1130307093 0.2528063059 0.9578880668
-0.2350449264 -0.1345952153 0.979852438 0.1428817362 0.2539362311 0.9540101886
-0.2401069552 -0.1479569077 0.9783860445 0.1441829354 0.2110137045 0.9645298719
-0.2418508232 -0.1409790963 0.9784511328 0.1704125702 0.2275565565 0.9570742846
-0.242875874 -0.1295147985 0.9805388451 0.1851502359 0.2506704628 0.949215591
-0.2340211719 -0.1518930644 0.9746775031 0.1024353877 0.2524523139 0.9560875297
-0.1774082482 -0.03404720128 0.9729219675 0.05763034895 -0.5733828545 0.8144524097
-0.1850595474 -0.03966748714 0.965613246 0.1259326488 -0.5485036373 0.8234214187
-0.1815419495 -0.03626535088 0.9688075185 0.09590907395 -0.5757442713 0.8071367741
-0.2267353684 -0.09227189422 0.9593112469 0.3051398993 0.2644625604 0.8930951953
-0.2201212347 -0.08179806918 0.9541396499 0.2540912628 0.0553660728 0.9457573891
-0.2234259248 -0.08736075461 0.9568684101 0.2820053101 0.1640743613 0.9179666042
-0.21641545 -0.07622811943 0.9479475617 0.2446164936 -0.04110755399 0.9448592663
-0.2046955675 -0.05957208574 0.9516931772 0.0963947773 -0.2930502892 0.9446581602
-0.1738032848 -0.04792424291 0.9485696554 0.05883724988 -0.3942394257 0.908323288
-0.1812697947 -0.04736371711 0.9514268041 0.09433206171 -0.4289936721 0.8741976023
-0.1810166985 -0.04174623638 0.9546869993 0.1178515628 -0.5267697573 0.8190208673
-0.1840169579 -0.05323390663 0.9489253163 0.08244159818 -0.3353569806 0.9225844741
-0.174998343 -0.04209349677 0.9525685906 0.06687558442 -0.4858827591 0.847925663
-0.1685476005 -0.04199206084 0.9528062344 -0.00216786447 -0.4593284726 0.8680562377
-0.1795601547 -0.03681337088 0.9575411081 0.1188931465 -0.6024378538 0.7755721211
-0.1575897038 -0.04712728038 0.9484991431 -0.3148488104 -0.2102755308 0.9229955673
-0.1529400051 -0.04611682519 0.9530052543 -0.3832113445 -0.1994636953 0.8798841834
-0.1480754465 -0.05029421672 0.9585951567 -0.4970884025 -0.09456876665 0.8363230824
-0.06077541038 -0.1022026464 1.062968612 0.3554830551 0.1635335386 0.9200750589
-0.1681639254 -0.1624461561 1.001441956 -0.0983716771 0.2367880791 0.7084543109
-0.1712625027 -0.1491848528 1.016036391 0.1946012825 0.4919982553 0.3523794711
-0.1743736714 -0.1531536877 0.9970273972 -0.2547126114 0.1900420189 0.8792792559
-0.1708581746 -0.1578313708 1.000662088 -0.1411241442 0.2353360355 0.7527365685
-0.1710034609 -0.1541134268 1.007376552 0.005794386379 0.3472952247 0.577611506
-0.1692172885 -0.1487068981 1.024381995 0.3983022571 0.6216731668 0.1150531471
-0.1684311926 -0.1580049098 1.010698795 0.1005073711 0.3828538954 0.4753838181
-0.1679492891 -0.1677752882 0.9982037544 -0.1801116019 0.1475678533 0.8230232
-0.1693163812 -0.1460676938 1.029686213 0.5135028362 0.7072036266 -0.02084601484
-0.1680262685 -0.1728016138 0.9958544374 -0.2475962192 0.06695151329 0.9235058427
-0.1690870672 -0.16560179 1.007336974 -0.003315024776 0.2633802593 0.6238758564
-0.1728575677 -0.153621763 1.027564168 0.404596597 0.603153944 0.1046975479
-0.1713478118 -0.1601565331 1.017449737 0.1945454478 0.4273741245 0.3704690337
-0.1729621142 -0.1575074494 1.023233771 0.3025170267 0.5161458254 0.2307973355
-0.1759842783 -0.1493605375 1.037758589 0.5903434753 0.7552102804 -0.1368596405
-0.1691364199 -0.1540450752 1.020821571 0.3084900379 0.5284525156 0.2373551577
-0.1718188524 -0.1700039953 1.004267931 -0.09231977165 0.1853551567 0.7296495438
-0.1754289269 -0.1644039452 1.015197396 0.1194547936 0.3604370356 0.4575638771
-0.1772498041 -0.1576780379 1.028330207 0.3709894121 0.5683900118 0.1343949288
-0.1682018042 -0.1689711958 0.9896639585 -0.3333362639 0.0549394004 0.9394930005
-0.1723152846 -0.1764718145 0.9908568859 -0.2984474003 0.04072647542 0.9525747895
-0.1666776389 -0.163839817 0.987639308 -0.3627545834 0.07194752991 0.928509593
-0.1707467437 -0.1601483375 0.992331326 -0.3161257505 0.112611562 0.9405982494
-0.1678424627 -0.1583834887 0.9867414236 -0.375302285 0.08116021007 0.9227230549
-0.05178533867 -0.1503166705 1.058454156 0.1065272912 0.008918424137 0.9937979579
-0.1758915484 -0.1410962939 1.041234374 0.609252274 0.7792006135 -0.1457293928
-0.1793479174 -0.1457647085 1.043341994 0.6191948652 0.763784945 -0.1783107817
-0.199040994 -0.180354476 0.9877282381 -0.2623498738 0.1035936326 0.9589680433
-0.1983708739 -0.1769942939 0.9821462035 -0.2438353896 0.1353843659 0.958756566
-0.1904789358 -0.1821021587 0.9891856313 -0.2756627202 0.08462078869 0.9563392997
-0.1889565438 -0.1845017523 0.9836089611 -0.2717042565 0.1144656092 0.9545298219
-0.1802713871 -0.1797060519 0.9820135832 -0.2921104431 0.1059709862 0.9479067922
-0.179716453 -0.1838250756 0.9872319698 -0.2837993205 0.05015047267 0.9565655589
-0.1721718758 -0.171736896 0.9866738319 -0.3377247155 0.06355387717 0.9372287393
-0.2231812477 -0.1625367999 0.9812316298 -0.02804300003 0.2803781033 0.9579917789
-0.229991734 -0.163496092 0.9821466208 -0.002107576001 0.2856637836 0.9576901197
-0.2078106254 -0.1594168842 0.9765644073 -0.1292360723 0.2712678313 0.9526501298
-0.2224505991 -0.1579475552 0.9770298004 -0.04183916003 0.3116863966 0.9489246011
-0.1543924809 -0.03781151026 0.9617879391 -0.2376028597 -0.4285136759 0.8506215811
-0.1526071578 -0.03363467008 0.9571244121 -0.2771997452 -0.4517743587 0.8403433561
-0.1492488533 -0.03860911727 0.9582587481 -0.3198161423 -0.3424457014 0.8709840775
-0.147635743 -0.04635443166 0.9629388452 -0.3269841671 -0.2260332108 0.9065617323
-0.1659031659 -0.031951271 0.9715886116 -0.0656022504 -0.5608868003 0.8141312003
-0.159476608 -0.03458225727 0.9647835493 -0.1629152149 -0.5127019882 0.8278653622
-0.1606081575 -0.03697613254 0.9702888727 -0.1394584775 -0.4418022931 0.8469572663
-0.1561674774 -0.03955349699 0.9667313695 -0.2050204575 -0.3874081969 0.8621644378
-0.1715409458 -0.05466992036 0.946835041 -0.0198237095 -0.2198492885 0.961158216
-0.1703307331 -0.05999710411 0.9472667575 -0.1266679615 -0.1150597185 0.9583542347
-0.1658228487 -0.05320708454 0.9466402531 -0.2111638635 -0.2157346159 0.9461997747
-0.1761723608 -0.06025258824 0.9584522247 -0.06513947248 -0.2084630877 0.9158141613
-0.1706635654 -0.06965088099 0.9570735097 -0.2001877725 -0.04142686352 0.9634000659
-0.1674103588 -0.07092467695 0.9639980197 -0.2504466176 -0.118016243 0.9045982957
-0.1711992025 -0.06466414034 0.9645781517 -0.1589657515 -0.2245642096 0.8760039806
-0.1786390841 -0.05436129123 0.962115109 0.006939705461 -0.3522195518 0.8603061438
-0.173425138 -0.05239660665 0.9633990526 -0.02594171092 -0.4465656281 0.8138946891
-0.173184976 -0.05865623057 0.9641795754 -0.08559437841 -0.328525424 0.848301053
-0.1825470775 -0.04772342741 0.9627481699 0.1028844863 -0.4662191272 0.8293558955
-0.1744533926 -0.04590255395 0.9625833631 0.04328858107 -0.5630612969 0.7817845345
-0.2005523145 -0.05496061593 0.9529590011 0.08010241389 -0.3465213478 0.9343652129
-0.1919134706 -0.05519935861 0.9504126906 0.07376399636 -0.3117704391 0.9458134174
-0.1920762807 -0.04470548406 0.9604848027 0.1091310084 -0.4849117398 0.8642343283
-0.1938286573 -0.05063860863 0.9567454457 0.06970287114 -0.4170009196 0.8997328877
-0.1871071309 -0.06592579186 0.9518142343 -0.03484227508 -0.2166931033 0.9730892777
-0.1915493309 -0.06204026937 0.9528381824 0.01592950895 -0.2973519564 0.9469091892
-0.212616384 -0.08227626234 0.9519438148 0.2798958421 -0.04408487305 0.9560931325
-0.2135905325 -0.08779168129 0.9525237679 0.3709247112 0.02714656852 0.9219508171
-0.2181782275 -0.09132489562 0.955899477 0.3417952359 0.1327200234 0.9077470303
-0.1954127997 -0.07319018245 0.9513297081 0.05734446272 -0.1927549988 0.9678076506
-0.2002827078 -0.08030783385 0.9516750574 0.162139371 -0.1248232275 0.9628620148
-0.2058508843 -0.08336956799 0.9520198703 0.2599515617 -0.09759244323 0.9522351027
-0.2040736079 -0.0696984604 0.9514991641 0.1127866954 -0.1894357502 0.962551713
-0.2091698647 -0.07310830802 0.9516281486 0.163854152 -0.1294836104 0.966478765
-0.2046085745 -0.0764451772 0.9517562389 0.1843568236 -0.1468347013 0.9569824934
-0.1696692407 -0.06941018999 0.9479550123 -0.2697522938 0.03781380877 0.9592462778
-0.1880847216 -0.04718542472 0.9556008577 0.1276912987 -0.4295224249 0.883259058
-0.1883302778 -0.04045889527 0.9607832432 0.1305052936 -0.5627838373 0.8120196462
-0.1872599274 -0.05630524829 0.9562212229 0.03224918619 -0.3393315375 0.9165691137
-0.1821028739 -0.05844277889 0.955085814 0.004129178356 -0.2495100796 0.9328145981
-0.177749306 -0.06233565137 0.9533395171 -0.06518808752 -0.1226750761 0.9682679176
-0.2005508095 -0.0610309951 0.9485639334 0.07616897672 -0.2614408135 0.9604446888
-0.1911013275 -0.05956956744 0.9469314814 0.06880351901 -0.2518919706 0.9647823572
-0.1950116605 -0.06398726255 0.9473820925 0.04713792354 -0.2091070265 0.9759482145
-0.2106800228 -0.06924699992 0.9473181963 0.08072333038 -0.1118281186 0.9900131226
-0.2008327544 -0.06699447334 0.9469215274 0.06304129213 -0.1925506145 0.9784667492
-0.2003718913 -0.07422528416 0.9444393516 0.0807730332 -0.1536186188 0.9836557508
-0.1685743928 -0.03792080283 0.9580863714 0.006795893423 -0.5776629448 0.8104653955
-0.1583523005 -0.03919813037 0.952370286 -0.1668980271 -0.4025525749 0.8874828815
-0.1637008935 -0.04696006328 0.9466472864 -0.1069169566 -0.3015200198 0.9447779655
-0.1534142345 -0.03694872931 0.9519058466 -0.2788767815 -0.3769218028 0.8742882013
-0.1857346147 -0.06199195981 0.946657896 0.04412973672 -0.203950569 0.9765437841
-0.1753850728 -0.07261048257 0.9476137161 -0.1558372676 -0.09833564609 0.9795641303
-0.1849626005 -0.06828384846 0.9470496178 -0.021956807 -0.1559381634 0.9848752618
-0.1912677437 -0.07317341119 0.9458640814 7.252766954e-05 -0.1465012729 0.9873502851
-0.1789335608 -0.06200874969 0.9474637508 -0.03503908217 -0.09637521952 0.9846143126
-0.1892144233 -0.08278597891 0.9444783926 -0.009678917937 -0.1794827133 0.9806540012
-0.1949295998 -0.09606280178 0.9391804338 0.13916412 -0.1041635796 0.9819467068
-0.213760674 -0.09992305189 0.9478877187 0.4653253257 0.2194272727 0.8552742004
-0.2065140307 -0.09794932604 0.9427229166 0.3159092367 0.03848480061 0.9318645
-0.215656355 -0.09362356365 0.9458726645 0.4242084324 0.08516158909 0.8889659643
-0.2100947499 -0.08963212371 0.9445313215 0.3283796608 -0.0600517951 0.9314353466
-0.2146864682 -0.08451273292 0.9470275044 0.371366173 -0.08298429102 0.9220770597
-0.1511226594 -0.05789216235 0.9554278851 -0.483858496 -0.003795157652 0.8487303257
-0.1566163152 -0.05256365985 0.9504582882 -0.3758563101 -0.1065064818 0.8975090384
-0.1504523605 -0.06354614347 0.9563860893 -0.5287038088 0.08850364387 0.8271246552
-0.1587674618 -0.05879198387 0.9517651796 -0.3996197283 -0.01845114864 0.8803629875
-0.1455291808 -0.05588965118 0.962084651 -0.5808591843 0.01949149184 0.8133140802
-0.06077122688 -0.0938231498 1.061663508 0.3460533917 0.2140961438 0.9130582809
-0.05842882767 -0.08784452826 1.061216235 0.3384392262 0.2626002431 0.9027580023
-0.05474862084 -0.08394493163 1.056852341 0.3439553678 0.2812384665 0.8951789141
-0.06019886956 -0.09195303172 1.067715645 0.3417931199 0.2263602018 0.9112464786
-0.05043195933 -0.08683094382 1.055437326 0.3531261683 0.2818712294 0.8909349442
-0.05572110042 -0.1015715227 1.054129601 0.3846146166 0.1793252379 0.904538393
-0.04572835192 -0.09803786129 1.051170588 0.3838281631 0.2051749378 0.8990921974
-0.1602764428 -0.08140125871 0.9604873657 -0.4165296555 -0.008735775948 0.9078911543
-0.1631731093 -0.0828415677 0.9543802142 -0.402928412 -0.02895310521 0.9122615457
-0.05574291199 -0.1046056673 1.066641569 0.3489031494 0.1477879286 0.9220989347
-0.04956188798 -0.109594956 1.063500762 0.3657310605 0.1177138984 0.9201198816
-0.04940177873 -0.1148404256 1.061980724 0.3543865681 0.08189100772 0.9292496443
-0.08015268296 -0.1804790497 1.057262778 0.09299275279 -0.0363913551 0.9950014949
-0.07043694705 -0.1725866795 1.059026718 0.09512981027 -0.03474984318 0.9948073626
-0.05470924824 -0.1543150842 1.061349392 0.1095914543 -0.006856903434 0.9932107925
-0.2168610543 -0.1509952396 0.9786113501 -0.05383402854 0.248343423 0.9532389045
-0.2100686729 -0.1539612114 0.9805644155 -0.1500918716 0.2571540773 0.9420398474
-0.204688549 -0.155183062 0.9815629721 -0.2183250487 0.2621943355 0.9337971807
-0.2153620422 -0.1579351872 0.9815006852 -0.1072293967 0.260561645 0.9495215416
-0.1753540486 -0.1492296904 1.00804317 0.003092456842 0.3829555809 0.5777251124
-0.1751792133 -0.1508593261 1.002312899 -0.1327696294 0.2843947113 0.7363083959
-0.1833021045 -0.1478483826 1.047231674 0.6305659413 0.7512596846 -0.1852706224
-0.1832399964 -0.1374935508 1.044529319 0.5827282071 0.7965099216 -0.1569697112
-0.1864588261 -0.1429592818 1.046355605 0.5959884524 0.7784097195 -0.1861199141
-0.2403717339 -0.1183945015 0.9763621092 0.2303234339 0.2888527215 0.9253025651
-0.2341683805 -0.1068316698 0.9671393037 0.3093897402 0.3518368304 0.877509892
-0.2316578925 -0.1020976603 0.9634299874 0.3405374885 0.3767770827 0.8587488532
-0.2412328273 -0.1237259358 0.9805867076 0.199310571 0.2631264031 0.9435171485
-0.2370069921 -0.1123583168 0.9722795486 0.2592662573 0.3130973279 0.9084262848
-0.2268792093 -0.1447011679 0.9747131467 0.09836316854 0.2287793607 0.9679199457
-0.2312953472 -0.1417506188 0.9729933739 0.1597905308 0.2080878019 0.9644883275
-0.1818128079 -0.07966724783 0.9463967085 -0.1137132347 -0.1571159661 0.9784616232
-0.1722561419 -0.07833130658 0.9477433562 -0.2535786331 -0.09687656164 0.9578979015
-0.1600488126 -0.07131625712 0.953006506 -0.4730410874 0.09032731503 0.8686748743
-0.2006455213 -0.1352065653 0.967938602 -0.06104081497 0.312571317 0.901247263
-0.2031615674 -0.1426621675 0.9730761647 -0.187415123 0.2777405381 0.9318145514
-0.1974346787 -0.1373048127 0.9736111164 -0.2535205483 0.235752359 0.9127488136
-0.197529912 -0.1290736794 0.964840591 0.001033777255 0.3233363926 0.8768767118
-0.2170529962 -0.1348909438 0.9709485769 0.01579493843 0.2624645233 0.9606288075
-0.2201952189 -0.1433704793 0.9737504721 0.01836185157 0.2483352274 0.9636417627
-0.2109539509 -0.1445825845 0.9735267162 -0.1163243949 0.2777187824 0.9517557621
-0.2145081162 -0.1401828676 0.9723293781 -0.05568565056 0.2772487402 0.9587106109
-0.1521070749 -0.07081259787 0.9639227986 -0.5037764311 0.06154023111 0.8547641039
-0.1472801715 -0.06365740299 0.9612755775 -0.5687962174 0.1202733517 0.8135063052
-0.1560961306 -0.07653777301 0.9555485249 -0.4771536291 0.07061699778 0.8709504008
-0.1523463428 -0.07186730951 0.9568240047 -0.5242958665 0.1057118773 0.8393708467
-0.2068146914 -0.07560209185 0.9445118904 0.1398561448 -0.1409260184 0.9773212075
-0.2071150243 -0.08361200988 0.9439510703 0.2359663695 -0.1176741421 0.9569798112
-0.2022385895 -0.08808691055 0.94156003 0.1879650503 -0.1146368682 0.970955193
-0.1622887999 -0.07977007329 0.9657705426 -0.3810990453 -0.02071183361 0.9186300039
-0.1768610179 -0.06803317368 0.9540830255 -0.1315777451 -0.09336055815 0.9766231775
-0.1538392007 -0.04733441025 0.9625489116 -0.3636104465 -0.3252751827 0.8653689027
-0.156562835 -0.07701984048 0.9660772085 -0.4425367713 0.007323123515 0.8933858275
-0.1523589194 -0.06463184208 0.963429451 -0.467435956 0.02769634873 0.8783859611
-0.1609410495 -0.04263909906 0.9691456556 -0.2198824435 -0.3212750852 0.8530262709
-0.1525998116 -0.05286364257 0.9621958137 -0.4100522101 -0.09399582446 0.8925881982
-0.1686980426 -0.04180946574 0.9662921429 -0.05697276816 -0.4626270235 0.8110223413
-0.1748142391 -0.03996261582 0.9644834399 0.07408668101 -0.6119035482 0.7744712234
-0.1587322503 -0.04751016572 0.9661629796 -0.2746906281 -0.2039671242 0.8680381179
-0.1714572906 -0.03757199273 0.9693670869 0.007425539661 -0.549484849 0.7977466583
-0.1638923287 -0.04719350487 0.9632180929 -0.1660418361 -0.3227917254 0.8360288143
-0.1666253656 -0.05990028754 0.9641798139 -0.1780285388 -0.2946309447 0.8440829515
-0.1613845974 -0.07333013415 0.9659157395 -0.3481736183 -0.08503455669 0.8938138485
-0.1601483673 -0.06199583039 0.9639256001 -0.3112528622 -0.137764737 0.8783249855
-0.1627201438 -0.06791259348 0.9651432633 -0.2942134142 -0.1525036544 0.8773958087
-0.16111736 -0.05422034487 0.9627289176 -0.2516735494 -0.2138039321 0.8591966033
-0.1546472162 -0.05900910497 0.9629209638 -0.3990789354 -0.03811359033 0.8984615803
-0.05893117189 -0.09294266999 1.053723216 0.3555851877 0.2283594608 0.9036619663
-0.06066184118 -0.09783832729 1.05573082 0.3687788546 0.1918546706 0.9058321118
-0.06040805951 -0.1035343707 1.056476712 0.3867914379 0.1560567617 0.9067456722
-0.06174904853 -0.08182597905 1.054060221 0.3258969784 0.2822573185 0.9022646546
-0.0486256592 -0.0873830542 1.048872948 0.3582150042 0.2808824182 0.8895183206
-0.05410354957 -0.08844529837 1.050745368 0.3463893533 0.2744948268 0.8960949779
-0.05322504789 -0.09456571192 1.051732063 0.3651480675 0.2296272963 0.9020451307
-0.06172769889 -0.07771092653 1.050199151 0.3249056041 0.2884849906 0.9006412029
-0.0538171716 -0.07987973839 1.047735691 0.3393649757 0.2987210751 0.89174968
-0.04581896961 -0.08201511204 1.046982169 0.356902957 0.3057232499 0.8826573491
-0.05889122188 -0.1610962003 1.062979102 0.1167282388 -0.03670688346 0.9924805164
-0.07122505456 -0.1488223821 1.062735081 0.09992237389 -0.0007513486198 0.9948877692
-0.06410256028 -0.151349321 1.060248733 0.1057135388 -0.008777234703 0.9939920306
-0.05505881086 -0.1162644252 1.063076019 0.288205415 0.08358170092 0.9469897747
-0.06087610126 -0.09877439588 1.069718122 0.3362792432 0.1853657663 0.9210687876
-0.06104361266 -0.1113896593 1.066077828 0.2518517077 0.1212852821 0.9516505003
-0.06057723984 -0.1210574806 1.061935663 0.2029203922 0.07001730055 0.9714872241
-0.04830658808 -0.1364612579 1.059900999 0.1243705377 0.0618804656 0.9901511669
-0.1872024685 -0.1513251215 1.010428905 -0.03391015902 0.3914136589 0.5587205291
-0.2034502327 -0.1363784671 1.033558011 0.3504573703 0.8736212254 -0.06383343786
-0.1942885518 -0.1506144851 1.026653647 0.2428160161 0.5976362228 0.1631109118
-0.1939211488 -0.1461702883 1.021077156 0.1442993879 0.5900925398 0.2793675065
-0.1859854758 -0.1487533003 1.004795671 -0.1320367306 0.3578885198 0.6842240691
-0.197335273 -0.1461978853 1.029285312 0.2845778465 0.6891921759 0.08085427433
-0.2013621032 -0.1416699737 1.034147382 0.3643701971 0.8092806935 -0.05584248155
-0.1996489614 -0.1480798125 1.036816835 0.4146396518 0.7550411224 -0.09348558635
-0.1907636672 -0.1490079612 1.016511679 0.06834635139 0.4964306653 0.4017810225
-0.1997684538 -0.1402513832 1.028830409 0.2724869847 0.7640104294 0.06685508788
-0.2009659559 -0.1508016884 1.042848229 0.5196778178 0.7913635373 -0.2279917151
-0.1889936477 -0.1520271152 1.023144007 0.255486995 0.5067616105 0.2654284239
-0.192577228 -0.1521445662 1.035273075 0.494710952 0.6391379237 -0.02249171212
-0.1828829944 -0.148379758 0.9870060086 -0.306207329 0.1925343573 0.9318624735
-0.1853860468 -0.1458094567 0.9804583788 -0.3146307468 0.1852248609 0.9295163155
-0.1729621291 -0.1537676752 0.9877095819 -0.3508984745 0.1222706884 0.9261946082
-0.18664442 -0.1651149392 0.984723568 -0.2896321416 0.1120789796 0.9480835199
-0.1985234469 -0.159953773 0.9783918858 -0.2105617821 0.2346654683 0.9422787428
-0.1915291846 -0.1765239984 0.977888763 -0.2361065596 0.1805012673 0.9510509968
-0.194377929 -0.1665379256 0.9791058898 -0.2307287157 0.1982527822 0.9461971521
-0.1991182715 -0.1658137739 0.976370573 -0.1962925345 0.2459418029 0.9451944232
-0.2053333521 -0.1642090529 0.9779809713 -0.1328220665 0.2357421964 0.9623821378
-0.1984328926 -0.1714189798 0.9777157903 -0.1823876947 0.2079410255 0.957550168
-0.170424208 -0.0854222998 0.953556478 -0.2872827053 -0.08501957357 0.9413995743
-0.1665222496 -0.08458732069 0.9589384794 -0.305372566 -0.06718533486 0.9353992343
-0.1710026115 -0.08731488883 0.9475896358 -0.2968524694 -0.116552785 0.9393379688
-0.1763161868 -0.08964843303 0.9455164075 -0.1969657838 -0.1606853604 0.9595789909
-0.1801622808 -0.08514872193 0.9459539652 -0.2022456974 -0.1775454134 0.9523565173
-0.1764790267 -0.07757541537 0.9548568726 -0.2330482751 -0.08642911166 0.9548739791
-0.1821843833 -0.07568357885 0.9521337748 -0.1541482508 -0.1152331233 0.9726312757
-0.1681044847 -0.07875352353 0.9617371559 -0.3163066804 -0.04705490172 0.9343990684
-0.1705116183 -0.08004558086 0.956818819 -0.3255788982 -0.05540902168 0.9345828295
-0.1865604371 -0.07921417058 0.9517499804 -0.07933114469 -0.09691103548 0.9619807601
-0.1927508712 -0.07908748835 0.9520008564 0.03937795386 -0.1050672233 0.9702317119
-0.1902876198 -0.08465043455 0.9516281486 -0.01541600469 -0.06343597174 0.941476047
-0.1953599751 -0.0865419805 0.951636672 0.09082549065 -0.03900309652 0.9382283688
-0.1781199723 -0.08388195187 0.9511292577 -0.2406622916 -0.044652652 0.9295097589
-0.2018200159 -0.08833609521 0.9516977668 0.224618569 -0.01563497633 0.9370923042
-0.1767749935 -0.08933537453 0.9510821104 -0.2172543406 0.04116304219 0.9075168967
-0.1889168173 -0.1061944589 0.9492762685 0.1686937511 0.2037256658 0.8802669048
-0.1816753447 -0.09669560939 0.9478866458 -0.03304444999 0.01714564674 0.9246550798
-0.1918056607 -0.09720297903 0.951466918 0.1233756021 0.1572369486 0.888858974
-0.193401292 -0.1044539511 0.9516749978 0.213203609 0.2694213986 0.8615916371
-0.1870610565 -0.09200964868 0.951308012 -0.007134298794 0.07973413914 0.9050227404
-0.2050579041 -0.0981002301 0.9515283704 0.3743372262 0.1608014852 0.8976842165
-0.1836829036 -0.08664976805 0.951148212 -0.1139292866 -0.001454421668 0.9231240749
-0.196882993 -0.09287064523 0.9513590932 0.1805022955 0.08544242382 0.9107862711
-0.1998557299 -0.1020519212 0.9516251683 0.3117402792 0.2267392874 0.8771499395
-0.164739728 -0.05888032913 0.948312223 -0.2844510972 -0.09208834916 0.9310652614
-0.1596970409 -0.06532206386 0.952720046 -0.4369759262 0.09687265754 0.877153933
-0.1970326006 -0.1243539751 0.9615094662 0.1048153862 0.3588555455 0.8585999012
-0.2050446123 -0.1267163455 0.9713562727 0.06227373704 0.3948263526 0.8902840018
-0.19651784 -0.1193392947 0.9558389187 0.2541739047 0.4069303274 0.8355545998
-0.2027255595 -0.1263369471 0.9620605707 0.1870147288 0.421340555 0.8597207665
-0.2059293389 -0.1309401989 0.966748476 0.1141715273 0.416836977 0.8765587807
-0.2092837095 -0.1355364323 0.9702976346 0.001611749874 0.3513968587 0.9173058867
-0.2033288032 -0.1091897041 0.9457714558 0.4200150073 0.2817345858 0.8493442535
-0.197197482 -0.1119652763 0.9459481239 0.3934597373 0.3534021378 0.8429713249
-0.2015217543 -0.1042400897 0.9419896603 0.3033206463 0.1034534946 0.9361678362
-0.2169098854 -0.1205259934 0.9634733796 0.3453509808 0.4538709819 0.8184484243
-0.2153130025 -0.1257981956 0.9659998417 0.2539600432 0.4643852711 0.8465662003
-0.2120783627 -0.1218619272 0.9607592821 0.322809279 0.4402117431 0.8304129243
-0.2055396885 -0.1218940392 0.9583534002 0.3109087646 0.4299770892 0.8351370096
-0.2047924548 -0.1184350997 0.9536932707 0.3790857792 0.4075015187 0.8203331232
-0.2168383896 -0.1137035266 0.9588075876 0.3963618577 0.4450311661 0.8019888401
-0.2106461823 -0.1142064556 0.9543607831 0.422147572 0.4174592197 0.8025089502
-0.1998168081 -0.1159110218 0.9508482218 0.396560967 0.4128513634 0.8147972226
-0.2354311794 -0.1186583638 0.9681451917 0.2677144706 0.3871043026 0.875076592
-0.2380859703 -0.1244391203 0.9700994492 0.2605422139 0.333835721 0.898293376
-0.242062822 -0.1320612878 0.9739183187 0.2403510362 0.2551994324 0.9352615476
-0.2353341132 -0.1212720722 0.9758291245 0.2185073793 0.3135240376 0.9216927886
-0.2314724326 -0.119356513 0.9718433619 0.2357448637 0.355902046 0.90281564
-0.2328393459 -0.1122183129 0.968626678 0.2658160925 0.3536230922 0.8947035074
-0.195488438 -0.08078640699 0.9433396459 0.06618646532 -0.131308198 0.9870551825
-0.1963181943 -0.09059882909 0.9404240847 0.1264236122 -0.1109064594 0.9835263491
-0.1888724267 -0.1034159884 0.9414769411 0.1168233827 -0.1297290772 0.9781653881
-0.1959134936 -0.1031982303 0.9390043616 0.2273657173 -0.003319199895 0.9641973972
-0.1945643574 -0.1070835441 0.942653358 0.2717702091 0.1296949089 0.9159163833
-0.06419665366 -0.1636321098 1.057304621 0.1103313714 -0.02307322249 0.9934262633
-0.07003942877 -0.1671466231 1.058337331 0.1009129584 -0.03030769154 0.9942819476
-0.07307169586 -0.1618966609 1.061311483 0.09299275279 -0.0363913551 0.9950014949
-0.06876284629 -0.1579163671 1.060444593 0.1009196416 -0.03030255809 0.9942813516
-0.06110953912 -0.1567050368 1.058448672 0.114015162 -0.02024362795 0.9930915833
-0.05739106983 -0.1169684529 1.056528449 0.3256943822 0.0977011621 0.9363068938
-0.05826114863 -0.1102561951 1.055572748 0.3862190843 0.13654612 0.9120084047
-0.0505236052 -0.105406709 1.053732395 0.4055508673 0.152031675 0.901135087
-0.05203517899 -0.1124335751 1.055757046 0.398367703 0.08838227391 0.9122428298
-0.06837806106 -0.1428600103 1.061638117 0.1363918334 0.01005402952 0.9875464439
-0.06462759525 -0.1319311112 1.059339643 0.2196090817 0.01837620698 0.9703882933
-0.06485662609 -0.1382621229 1.062813401 0.1449639797 0.02265898697 0.9886412024
-0.1878044903 -0.1345134228 1.042073607 0.5308009386 0.8293377161 -0.1514291763
-0.1832147241 -0.1351048499 1.038901329 0.5351384282 0.8273158669 -0.1249463111
-0.1929610968 -0.1320962608 1.039461374 0.5059970617 0.8476489186 -0.1325901896
-0.1988938898 -0.1311423331 1.038319707 0.502687037 0.8527120948 -0.1256162375
-0.1737645268 -0.1405210197 1.035185099 0.5867032409 0.7955510616 -0.1319354624
-0.1922698915 -0.1304240823 1.034217834 0.4331865311 0.8896974325 -0.1128831208
-0.1791476607 -0.1378415972 1.033950806 0.5325346589 0.8286930323 -0.125535816
-0.1792256236 -0.1440371126 1.017439961 0.1852549314 0.5597900748 0.3221419454
-0.1730302572 -0.1448784322 1.024404287 0.3791227639 0.6427459121 0.1285007149
-0.1831282377 -0.1373046935 1.029445767 0.4081378579 0.7765287757 -0.002208219608
-0.1917169541 -0.1334320158 1.026943684 0.2899144292 0.7788981199 0.07148948312
-0.1799080223 -0.1482904553 1.005186439 -0.0778413862 0.3621704578 0.6562104821
-0.1873980761 -0.1335450113 1.03305006 0.45140028 0.8572627902 -0.0975734368
-0.1867699772 -0.1378766596 1.022533178 0.2348560691 0.6815127134 0.1883629709
-0.1771488488 -0.1405631602 1.029701352 0.4591652453 0.7504917383 -0.01305094082
-0.1812926829 -0.1453200579 1.010983586 0.0335951522 0.4642982781 0.4992700517
-0.1932651401 -0.1481389105 1.045174599 0.6171914935 0.7622120976 -0.1907542497
-0.1948548406 -0.1532206088 1.046030402 0.6091154218 0.7542680502 -0.2348169088
-0.1954978704 -0.1429034621 1.043058753 0.5497822165 0.8085334897 -0.1917959899
-0.1933861077 -0.1435257941 1.014424086 0.03867030144 0.5558652878 0.4161976278
-0.1995061338 -0.1436353177 1.013178706 0.07949943841 0.6056694388 0.3656786978
-0.1905052662 -0.1456074864 1.009468198 -0.04351855069 0.4687379897 0.5435923934
-0.199520126 -0.1470378041 1.004336834 -0.02083478309 0.5042173862 0.5308132172
-0.1948070824 -0.1505990028 0.9958248734 -0.1598872691 0.3570335507 0.7467861772
-0.1973995566 -0.1407017261 1.0211308 0.1509271264 0.6749767661 0.2424110919
-0.1933488846 -0.1409603357 0.9773323536 -0.3206188083 0.2064368278 0.9242982864
-0.1885785908 -0.1477704644 0.9858836532 -0.30281955 0.2260282338 0.9123843312
-0.191492036 -0.1385424882 1.009338498 0.0376865603 0.558660686 0.4176619947
-0.1899636388 -0.1416945159 1.001772165 -0.07621484995 0.4485234916 0.5832288265
-0.1891711503 -0.14569664 0.9912065864 -0.2260161638 0.3011875153 0.8008056879
-0.1950592846 -0.1337320358 1.019854903 0.2059446126 0.7186855078 0.1728954017
-0.191275239 -0.1369004846 1.015582681 0.1147056967 0.6303950548 0.3089327812
-0.1878439486 -0.1441293657 0.9974529743 -0.1532884389 0.373519212 0.6969687939
-0.1878622323 -0.1407606602 1.013143778 0.03203531727 0.5350371003 0.4410184324
-0.1830634624 -0.1483140886 0.9997594953 -0.2015968412 0.2987253666 0.7888079882
-0.1991843432 -0.1348974109 1.01564157 0.1879577786 0.6296909451 0.282099545
-0.2008796185 -0.1328923106 1.020683646 0.2722342312 0.6891521215 0.1873842329
-0.1976194084 -0.1313313842 1.025732994 0.3096024692 0.784406662 0.06493338943
-0.1973824352 -0.1377681345 1.00826931 0.0711530596 0.5378749967 0.4243554473
-0.2011195719 -0.1482242346 0.9799567461 -0.2319560945 0.2363417596 0.9369492531
-0.2076404691 -0.1475187838 0.977261126 -0.1602243036 0.2560321391 0.9466000199
-0.2007847428 -0.1388719976 0.9787274003 -0.1350049376 0.2990012169 0.9173841476
-0.2030939758 -0.132215932 0.9752963781 -0.09580246359 0.3289646506 0.9077487588
-0.1792594641 -0.1500991583 0.9821230769 -0.3364882767 0.1514647752 0.9266658425
-0.1849817634 -0.1521222889 0.9834331274 -0.306651026 0.207588464 0.9287048578
-0.1812642366 -0.1508934349 0.9924070239 -0.3028872013 0.1993175447 0.9316636324
-0.1843004078 -0.1592135578 0.9856207371 -0.3060282469 0.1617819071 0.9361663461
-0.1762465984 -0.1737680733 0.982562542 -0.319426626 0.1043763533 0.9390435815
-0.1840993464 -0.1754084826 0.9821810722 -0.2853392363 0.1141762957 0.950517714
-0.1793959439 -0.1664353758 0.9859446883 -0.3188953102 0.08537075669 0.9432425499
-0.1726594567 -0.1628845483 0.987087667 -0.3515478671 0.07158328593 0.9331949949
-0.1762503982 -0.1588382274 0.98677212 -0.3128455579 0.1321873814 0.9396573305
-0.2034289986 -0.151297912 0.975748837 -0.2007223368 0.2868064642 0.9355410933
-0.1981792897 -0.1538307965 0.9787105322 -0.2475793213 0.2428123653 0.9339202046
-0.1651913375 -0.07809758186 0.9505323768 -0.3729184866 0.002658246784 0.926379621
-0.2199500501 -0.09616364539 0.9502069354 0.491232723 0.1995860189 0.8408741951
-0.2280042768 -0.1026944295 0.9585847259 0.4201714694 0.3505668938 0.8287065625
-0.219588533 -0.1084782481 0.9572300911 0.4220427275 0.401799649 0.8080591559
-0.2304665893 -0.1075022072 0.9620773196 0.3647627532 0.4180808663 0.8292014599
-0.2104797661 -0.1048517674 0.948494494 0.4656087458 0.2851168215 0.83573246
-0.2063604742 -0.1124556959 0.9499393702 0.4511491656 0.389496237 0.801518321
-0.2188529074 -0.09805046022 0.9566725492 0.4179128706 0.2270360589 0.8563390374
-0.2339243144 -0.1339409798 0.9725096226 0.2005209476 0.218987301 0.9532397389
-0.2279895246 -0.1338166147 0.9714303017 0.1789903194 0.2199836373 0.9570710659
-0.2274334431 -0.1241114512 0.9677714705 0.2417278737 0.3563542366 0.8966338038
-0.2294499427 -0.1172995344 0.965656817 0.2700079679 0.4175761044 0.8637974262
-0.2322316617 -0.1286980361 0.9702993035 0.2228293419 0.28359586 0.9245964885
-0.2224642485 -0.1212633103 0.965405643 0.270249933 0.3980003595 0.8733195662
-0.2247296274 -0.114460893 0.9627366662 0.3215785623 0.4390235543 0.8352032304
-0.1858293265 -0.09784786403 0.9418706298 0.03048589453 -0.135204345 0.9879183769
-0.1930054426 -0.1113096029 0.9502207041 0.2732006609 0.3115049899 0.8540068269
-0.1851878017 -0.1013795361 0.9468877912 0.07338882238 0.04207350314 0.9230943322
-0.1818419248 -0.09058347344 0.9439871311 -0.06707322598 -0.1715726554 0.9813185334
-0.1906460077 -0.09331552684 0.9410724044 0.06534615904 -0.1388687193 0.9806612134
-0.07668814808 -0.1700356156 1.060633659 0.09299275279 -0.0363913551 0.9950014949
-0.08064343035 -0.1749075204 1.061672449 0.09299275279 -0.0363913551 0.9950014949
-0.07630212605 -0.1752059311 1.058042049 0.09299275279 -0.0363913551 0.9950014949
-0.04535514116 -0.1096896008 1.053986669 0.3997175992 0.1156479716 0.9070409536
-0.04241236672 -0.1153456569 1.053752899 0.3030876517 0.1101748571 0.939362824
-0.04438071698 -0.1204557568 1.054930806 0.2503731549 0.09421057999 0.9590446353
-0.05343340337 -0.1221016198 1.056679368 0.2273248285 0.08389142156 0.9688336253
-0.04239797592 -0.1150189713 1.060000062 0.3824901283 0.08686649054 0.917974174
-0.04473797977 -0.1258049458 1.058573723 0.2217925489 0.08340521902 0.9642426968
-0.04605742171 -0.1316803843 1.056540012 0.1643024236 0.07285316288 0.9832905531
-0.05193328857 -0.1304895878 1.060383677 0.1530314982 0.06168143824 0.9856343269
-0.06005233154 -0.1310755312 1.062008977 0.1697667241 0.03728061542 0.9846453667
-0.05535795912 -0.1379132271 1.057308912 0.1615899801 0.028626699 0.9819887877
-0.05906680226 -0.1271016151 1.057296634 0.2504481077 0.02778986283 0.963919282
-0.1947350949 -0.1480623484 0.9843127131 -0.2869416177 0.2350741923 0.8916395307
-0.2090077549 -0.1422061622 1.01595819 0.1232640669 0.6835167408 0.1880443543
-0.2030446082 -0.1418033689 1.007403374 -0.003700785339 0.5446926951 0.3823133707
-0.1989627779 -0.1463482231 0.993652761 -0.1657552421 0.3675569892 0.6839469671
-0.2071028352 -0.1457482278 1.007213593 0.0254831817 0.5766448379 0.3785302937
-0.2022752613 -0.1511380225 0.9909269214 -0.1664061546 0.3668978214 0.7357829809
-0.2089532465 -0.1393371522 1.020572543 0.166770041 0.731053412 0.08957224339
-0.2054350972 -0.1483422518 1.0007658 -0.04574029148 0.4974873364 0.5224013925
-0.2099998742 -0.1379864365 1.02762866 0.2665892541 0.8289602399 -0.03834303841
-0.2124536932 -0.1361623257 1.032515883 0.3173853755 0.8910564184 -0.1620529145
-0.2041404247 -0.1394027025 1.013186932 0.08870436996 0.616460979 0.2721604109
-0.1985343248 -0.1428037733 0.9989420772 -0.09189363569 0.4212566614 0.5861169696
-0.204637602 -0.1323490739 1.026139736 0.3314326704 0.7651311755 0.05638899282
-0.2078879625 -0.1426865458 1.038926363 0.431612879 0.8633503914 -0.2331592441
-0.2022504658 -0.1455148309 1.041971207 0.4874970317 0.8350155354 -0.2380861044
-0.197098583 -0.1370985955 1.041348577 0.4446281195 0.8705598712 -0.2058600336
-0.2040028721 -0.128612265 1.035525918 0.4888547063 0.8649244905 -0.09998621792
-0.1930263191 -0.1638879031 0.9863317013 -0.3121875525 0.1179489717 0.9420308471
-0.1857122332 -0.1601482034 0.9908845425 -0.2986115813 0.1343108118 0.9425489902
-0.1826674789 -0.1648681313 0.9917843342 -0.2840224802 0.08369496465 0.9525341392
-0.1824056655 -0.1695103943 0.9973914623 -0.181234628 0.1059555486 0.83879143
-0.1847452372 -0.1684101373 1.005841851 -0.0342361778 0.216683805 0.6462109685
-0.1817399859 -0.1620201468 0.9966731071 -0.2160126418 0.1422938406 0.8692147732
-0.1873716712 -0.1588421464 1.016737938 0.1652131826 0.3851065636 0.4014980793
-0.1812879592 -0.155883953 0.9965401888 -0.2474987656 0.1853832901 0.8874129653
-0.1888899058 -0.1584120989 1.022048593 0.2680469453 0.4463882446 0.2766979337
-0.1847448796 -0.1593182385 1.007611752 -0.01274202019 0.2817034423 0.6166102886
-0.1834465563 -0.1616200507 1.0026232 -0.1004118994 0.2103613913 0.7291865945
-0.1831530184 -0.1554277688 1.003047228 -0.1211645976 0.2599576712 0.7343227863
-0.1849534214 -0.1757760048 0.9912855029 -0.2815856636 0.04742714763 0.9577730894
-0.1909261793 -0.1730923951 0.9889566898 -0.2746986449 0.07650656253 0.9575256109
-0.1871509254 -0.1689986587 0.9892155528 -0.2864243686 0.06519331783 0.9549639821
-0.1971084177 -0.1702609211 0.9854879975 -0.2983771563 0.1082277521 0.9478868246
-0.1885942817 -0.1544941366 0.9886219501 -0.3207016885 0.2066452056 0.9236745238
-0.1899140775 -0.1592592299 0.983143568 -0.2904112637 0.1550949514 0.9405643344
-0.2020368427 -0.1653330624 0.9836702943 -0.2106670439 0.1826908439 0.9558256269
-0.1938423663 -0.1550536305 0.9849879742 -0.3192498684 0.2278661579 0.9190472364
-0.194330126 -0.1482190192 0.9787070751 -0.2835122943 0.2380755246 0.9283894897
-0.2090241313 -0.1044980735 0.9595954418 0.3067623675 0.2168769985 0.8992515802
-0.211123392 -0.1119725183 0.9647420645 0.3125999272 0.3374029994 0.8600568175
-0.2086363286 -0.116598852 0.967708528 0.1806714088 0.3324963748 0.9022651315
-0.2099649757 -0.1234936267 0.9724208713 0.1642985642 0.4309123456 0.8767797947
-0.201161623 -0.1192786694 0.9602146745 0.2642045021 0.434474051 0.8497452736
-0.2050330937 -0.1146285832 0.9620742798 0.2439202219 0.3438161612 0.8815060258
-0.201943323 -0.1091439575 0.9546974897 0.3330853581 0.3145461977 0.8650225997
-0.2052442729 -0.1226345375 0.9674683809 0.177266866 0.4301479757 0.8752764463
-0.2196700424 -0.1119931117 0.9650904536 0.3625767529 0.4293060899 0.8196744323
-0.2243108153 -0.1067569852 0.961866498 0.3646400869 0.4309293628 0.8208944798
-0.2187707275 -0.1174512357 0.9688274264 0.2943429053 0.4778083563 0.826369226
-0.2156033665 -0.1213272363 0.9712641239 0.2839287817 0.4879835248 0.8244701624
-0.2107356042 -0.09900089353 0.9559522271 0.3715564907 0.1771214902 0.8923223019
-0.2140469849 -0.1076472402 0.9619073868 0.3592848182 0.3143079877 0.8543097973
-0.2258841395 -0.1224523336 0.9747825265 0.2432157248 0.390280664 0.8795924783
-0.2201911807 -0.1294057965 0.9686024785 0.2089735419 0.3553690612 0.9004774094
-0.05818672851 -0.1398488283 1.061602473 0.1376172304 0.03572155163 0.9893841147
-0.05244273692 -0.1419306695 1.06054008 0.1125737056 0.04175153002 0.9924429059
-0.06263206154 -0.1455051601 1.061173201 0.102932632 0.02086967789 0.9943976998
-0.05619682744 -0.1462836415 1.060460329 0.1093764678 0.03386415541 0.9931682348
