# .PCD v0.7 - Point Cloud Data file format
VERSION 0.7
FIELDS x y z normal_x normal_y normal_z
SIZE 4 4 4 4 4 4
TYPE F F F F F F
COUNT 1 1 1 1 1 1
WIDTH 512
HEIGHT 1
VIEWPOINT 0 0 0 1 0 0 0
POINTS 512
DATA ascii
-0.03723155707 -0.1844051629 1.073102355 0.4329111874 -0.1999354213 0.8789845109
-0.04150662571 -0.1872423589 1.073108435 0.4329111874 -0.1999354213 0.8789845109
-0.03334322572 -0.1802439839 1.0767169 0.4329111874 -0.1999354213 0.8789845109
-0.02804551274 -0.1731480956 1.080065012 0.4329111874 -0.1999354213 0.8789845109
-0.03232485801 -0.1707289666 1.076925993 0.4329111874 -0.1999354213 0.8789845109
-0.02666047215 -0.1685224026 1.076687336 0.4329111874 -0.1999354213 0.8789845109
-0.1215762943 -0.07969835401 0.9706506133 -0.02038108371 -0.1018466875 0.9916655421
-0.1163596213 -0.07812387496 0.9720959663 -0.1096464396 -0.1026739106 0.9873439074
-0.1180740222 -0.08299320936 0.9704278111 -0.08539267629 -0.08271146566 0.9913136959
-0.1991872936 -0.07450936735 1.003701687 0.3169026971 0.002664870583 0.9478651881
-0.04516092315 -0.1811991036 1.077049375 0.4329111874 -0.1999354213 0.8789845109
-0.03820065781 -0.1756382138 1.077000022 0.4329111874 -0.1999354213 0.8789845109
-0.04518073797 -0.1985629499 1.073817372 0.4114234447 -0.1673447937 0.8954278231
-0.04293677583 -0.191664055 1.071485519 0.4328015149 -0.1997690648 0.8790684342
-0.04612946883 -0.187240839 1.076292038 0.4254131615 -0.1885631233 0.8847222924
-0.04058664665 -0.197760731 1.076812625 0.4271578491 -0.1957667172 0.8825587034
-0.04493330419 -0.2031497359 1.077108979 0.4137569368 -0.1860567778 0.8908839822
-0.06857156008 -0.08854647726 0.9895793796 -0.3333920538 0.09270115197 0.9379516244
-0.0722822994 -0.09302527457 0.9897263646 -0.3316050172 0.1144097894 0.9361733198
-0.06601994485 -0.09366299957 0.9922151566 -0.3279853761 0.09279413521 0.9400189519
-0.1007284448 -0.08947688341 0.9767683148 -0.3122407198 -0.004640512634 0.9447663426
-0.1053610593 -0.08750118315 0.9754509926 -0.2555092275 -0.02675539628 0.9594116807
-0.1117578894 -0.08804567903 0.9733866453 -0.1815954745 -0.03925587982 0.9741516113
-0.1089506894 -0.09102217108 0.9766625166 -0.2395731062 -0.001480173785 0.9598150849
-0.09765721858 -0.07610464841 0.9797295332 -0.3507506847 -0.0530019328 0.9347467422
-0.1066589504 -0.07546681166 0.9762619138 -0.296569109 -0.0828569904 0.947118938
-0.1126136705 -0.07527770847 0.9742802978 -0.1720388085 -0.1066550985 0.9757599831
-0.1056344211 -0.08288733661 0.9784127474 -0.3034833372 -0.03490408137 0.9470104575
-0.1004612371 -0.08359146863 0.977476716 -0.3363000154 -0.02884675935 0.9406568408
-0.1084704027 -0.0801467523 0.9750466943 -0.2521682084 -0.06846183538 0.95918715
-0.113076292 -0.08324746042 0.9729367495 -0.1574462652 -0.07323247939 0.9814112782
-0.1839977801 -0.1281656325 1.011830688 -0.06992901117 0.08532781154 0.9936298132
-0.09870579094 -0.05389948934 0.9835677743 -0.2324244529 -0.1484247595 0.958548665
-0.07900254428 -0.06104750186 0.9889593124 -0.2838003933 -0.04346508533 0.9568535089
-0.07431531698 -0.05767583847 0.9902915359 -0.280595243 -0.01684540324 0.95866853
-0.08461731672 -0.06325403601 0.9875384569 -0.2889170945 -0.07261568308 0.9544914961
-0.02809655666 -0.1794200242 1.076914191 0.4329111874 -0.1999354213 0.8789845109
-0.03238459304 -0.1851105839 1.072590828 0.4329111874 -0.1999354213 0.8789845109
-0.02723705955 -0.1742556244 1.075461984 0.4329111874 -0.1999354213 0.8789845109
-0.03748326376 -0.193609491 1.06916213 0.4329111874 -0.1999354213 0.8789845109
-0.2017771602 -0.1127474234 1.009571791 -0.1224379763 -0.003855628427 0.9924503565
-0.2037460357 -0.1170231849 1.003683448 -0.1201965064 -0.003386591095 0.99273175
-0.201293081 -0.1183907688 1.009508491 -0.1185598522 -0.003044114681 0.9929372072
-0.2041412592 -0.1122766882 1.003414989 -0.1230561212 -0.004159541335 0.9923712611
-0.1899141371 -0.05986107141 1.008165598 0.2608166337 -0.1139625162 0.9555129409
-0.1856695116 -0.05823135749 1.006546021 0.2360218465 -0.146379739 0.9576563239
-0.1803353578 -0.05609643832 1.00435102 0.2022818178 -0.1886355877 0.9608424902
-0.1931551099 -0.06535942852 1.00547719 0.2823006809 -0.06859765202 0.9564261436
-0.1874876469 -0.06392995268 1.003739238 0.2599040568 -0.101337336 0.9591460228
-0.1886045933 -0.119499132 1.003607869 -0.03826114908 0.07959612459 0.9926046133
-0.1814744622 -0.1161925271 1.006777883 0.01913599297 0.1438441724 0.9883255959
-0.1942484826 -0.1175669804 1.001098633 -0.05605552718 0.06154806539 0.9913847446
-0.2004483193 -0.117201291 0.9983421564 -0.08627524972 0.02905360237 0.9918237329
-0.1649266928 -0.08835436404 0.99693501 0.09126830846 0.1040287316 0.9898992181
-0.1589610875 -0.100891903 1.065626025 -0.9219145775 -0.2153957635 0.300259918
-0.1784098446 -0.1218926683 1.00694561 0.0258508753 0.1213248372 0.9901033044
-0.2054484934 -0.118338123 0.9963521957 -0.1166752726 -0.003998852335 0.9931589961
-0.190501824 -0.1297328919 1.01103425 -0.09055987746 0.05344138294 0.993344605
-0.1887666583 -0.12235751 1.012692928 -0.02493993193 0.07970929146 0.9942744374
-0.1923602372 -0.1177904382 1.012625098 -0.07802283019 0.03935176879 0.9939825535
-0.18596448 -0.1178787872 1.012336612 0.01466734894 0.08611766249 0.9947955608
-0.1942425072 -0.1239213273 1.012127757 -0.100184463 0.02284849249 0.994356811
-0.2019030899 -0.1068431959 1.010293245 -0.1262130588 -0.004277700558 0.99197191
-0.1976480931 -0.1149146631 1.011460662 -0.1152447462 0.00751711661 0.9932321906
-0.2002365291 -0.1245116889 1.010937452 -0.1079066396 0.01757691428 0.9938258529
-0.2010552436 -0.1243271008 1.004310489 -0.1066721007 0.02163061686 0.9932907224
-0.1949629784 -0.1279615313 1.008883715 -0.09100202471 0.05600888655 0.9933042526
-0.1670246422 -0.1347515583 1.007986784 0.03572708741 0.152963981 0.9871721864
-0.1722607315 -0.134410888 1.009158969 0.0009503567126 0.1192792132 0.9919607043
-0.1877762973 -0.1245005652 1.004666448 -0.0498649776 0.06679815054 0.9942772985
-0.1927774698 -0.1229743958 1.002744436 -0.06737806648 0.04881633073 0.9939587712
-0.1825850457 -0.1295245588 1.006910563 -0.03898682073 0.07796745002 0.9944751263
-0.1973925978 -0.1234182864 1.00110507 -0.08747048676 0.02818615735 0.9935933948
-0.181711778 -0.1335484087 1.011422992 -0.06166459247 0.08190264553 0.9938688874
-0.03682863712 -0.1734824777 1.082157493 0.4329111874 -0.1999354213 0.8789845109
-0.03244411945 -0.1684654802 1.081264496 0.4329111874 -0.1999354213 0.8789845109
-0.03107747994 -0.177118957 1.08136034 0.4329111874 -0.1999354213 0.8789845109
-0.04124531522 -0.1848830879 1.083887219 0.4329111874 -0.1999354213 0.8789845109
-0.0937910378 -0.09338971972 0.9848355651 -0.3250730038 0.07234926522 0.9421797991
-0.100085102 -0.0933341682 0.9826484323 -0.3304147422 0.04788110405 0.9422473311
-0.08807723969 -0.08538067341 0.985172689 -0.3308999836 0.06033531949 0.9413524866
-0.09243058413 -0.08773837984 0.9842406511 -0.3311556876 0.05419975892 0.9416908622
-0.0956351459 -0.09141805023 0.9782851934 -0.3639884293 0.02031465992 0.9310202003
-0.09846896678 -0.08882869035 0.9817149043 -0.3360747993 0.02405307814 0.9413173199
-0.09178822488 -0.08186014742 0.9824516177 -0.3421886861 0.008152245544 0.9385598302
-0.09507913142 -0.08654237539 0.9789127707 -0.3505466282 0.003554867581 0.9358350039
-0.0837623775 -0.08316740394 0.9823323488 -0.3203449845 0.0453350246 0.9456725717
-0.1644382477 -0.06136571243 0.9982441664 0.303663224 -0.1863687187 0.9164075851
-0.1590569019 -0.05875086784 0.9973333478 0.4019650221 -0.1989694983 0.8776557446
-0.1740418971 -0.0579587929 1.003637433 0.2030439377 -0.1950038821 0.9588963985
-0.1698108315 -0.06402701885 0.9991297722 0.2050515264 -0.1735929549 0.9552638531
-0.169603318 -0.05671571195 1.002459764 0.2756578028 -0.2018749565 0.9299515486
-0.16348961 -0.05724830925 1.002566099 0.2856286466 -0.1789197922 0.935530901
-0.07183181494 -0.2216848135 1.089699388 0.09057115763 -0.1770632714 0.9794285893
-0.07634817064 -0.2222691029 1.087000012 0.06287352741 -0.1811432689 0.9786306024
-0.06659582257 -0.2193595171 1.089074612 0.1568675935 -0.1306975335 0.9756171703
-0.08561477065 -0.2243691534 1.088893056 0.02870398387 -0.2152247429 0.9759875536
-0.09310189635 -0.2275080532 1.08433795 -0.001498508267 -0.2214538604 0.9748399854
-0.08432200551 -0.2177319676 1.090000033 0.02587925829 -0.1941516846 0.9803676605
-0.07990710437 -0.2216821313 1.090000033 0.04837100953 -0.2009308338 0.9780680537
-0.09745495766 -0.2305954099 1.078581929 -0.02224332094 -0.2210511863 0.9749533534
-0.08788830787 -0.2272097766 1.083098173 0.00899766665 -0.2082746178 0.9773602486
-0.08194930851 -0.2243442982 1.085039735 0.03005116619 -0.199664399 0.9789822698
-0.139223963 -0.2216233164 1.082322717 -0.07959612459 -0.252525419 0.9642463923
-0.1109538153 -0.05111648515 0.9761377573 -0.06188628823 -0.1972839385 0.9778423905
-0.1059290171 -0.04803320393 0.9790257812 -0.1166510582 -0.1992071122 0.9724069834
-0.121442385 -0.05071064085 0.9764438272 0.1241699234 -0.239113003 0.9590682983
-0.1165963411 -0.0516005531 0.9758471251 0.01460577361 -0.2170166224 0.9725114703
-0.1400868893 -0.07734981924 0.9773152471 0.5353990197 -0.1406967044 0.8279001713
-0.1482884139 -0.08501593024 0.9869331717 0.3534713984 0.004456519149 0.9065858126
-0.1459467262 -0.0812022835 0.9834470153 0.4488743246 -0.07842078805 0.861320734
-0.1401105374 -0.08470600843 0.9806138277 0.3753418624 0.06281255931 0.9165151119
-0.1463587284 -0.08117349446 0.9901129603 0.4192697108 -0.0279297065 0.88629812
-0.1502175182 -0.08860961348 0.9902797341 0.2628023624 0.08714162558 0.9508225918
-0.148486957 -0.07514685392 0.9962069392 0.5263080001 -0.1446525902 0.8342869878
-0.1505329311 -0.08369402587 0.9935666919 0.3554511964 -0.001721229171 0.9083235264
-0.1569606066 -0.08437564224 0.9940494895 0.3266895413 0.001047682948 0.9370217323
-0.1514065713 -0.07549060881 0.9873685837 0.395567596 -0.1517529488 0.8707796931
-0.1451325715 -0.07631843537 0.9815173149 0.5013566017 -0.1570349783 0.8330138326
-0.1583023965 -0.07658249885 0.992046833 0.2418122143 -0.1050599143 0.9388118386
-0.1569979489 -0.08180765808 0.9896872044 0.2619096339 -0.007171723992 0.9305597544
-0.1643295884 -0.07697441429 0.9969542623 0.1271639466 -0.0761564374 0.9841329455
-0.1626996398 -0.08355791122 0.9939925075 0.1522278637 0.04722678661 0.9738376737
-0.1505445689 -0.08029943705 0.9866794944 0.4315573871 -0.07545664907 0.8814872503
-0.1550226659 -0.07299727947 0.9905538559 0.3835021555 -0.1748027653 0.8671429157
-0.1629423648 -0.07039388269 0.9941571951 0.2708749175 -0.1673386544 0.919641912
-0.1264373362 -0.0803636983 0.9868030548 0.09930708259 -0.08990117908 0.902799964
-0.1156764105 -0.08560235798 0.9837467074 -0.1019030511 -0.03730685636 0.9253299236
-0.1045710444 -0.09150154889 0.9810228944 -0.3091472983 0.02066655457 0.9460934997
-0.1218855083 -0.07970383763 0.982998848 0.01182420831 -0.08921770006 0.9268451929
-0.1133559123 -0.08257266879 0.9794553518 -0.1487227827 -0.05715368688 0.9511821866
-0.1374394894 -0.07900032401 0.9934147596 0.3083209693 -0.1137356907 0.8596121073
-0.1100595519 -0.08728004247 0.98122859 -0.2077999264 -0.01777802035 0.9424235821
-0.1307502389 -0.07824581861 0.9880120754 0.1799356788 -0.1111175567 0.8938622475
-0.1383208334 -0.07480125874 0.990372777 0.321691215 -0.1463121623 0.8767954707
-0.1283932924 -0.08514476568 0.9766885638 0.2717276812 0.05224779621 0.9100338221
-0.1287444979 -0.08396721631 0.9837397337 0.2119712085 -0.01132062823 0.8942660093
-0.1319398284 -0.08162461221 0.9917730093 0.2057222277 -0.08702269942 0.8714801073
-0.1391373724 -0.08011799306 0.984593153 0.4336883426 -0.03115914762 0.87450248
-0.1230777353 -0.08647692204 0.9805196524 0.117459707 0.02417028323 0.9109656215
-0.1348707527 -0.08250848949 0.9788107872 0.3946855962 0.02563923039 0.8942964673
-0.1195138395 -0.08687986434 0.9863747358 -0.01744418032 -0.02409121208 0.9045235515
-0.1360329837 -0.08068434894 0.9882495403 0.3300048709 -0.06026583537 0.8719956875
-0.1429337859 -0.07784941792 0.9906871319 0.4593065679 -0.09019631147 0.8548497558
-0.122751765 -0.08730493486 0.9691720605 0.004968903493 -0.04327375442 0.981395781
-0.122313112 -0.08728800714 0.974334836 0.07577653229 0.0139307389 0.9434344172
-0.1143628806 -0.08982040733 0.9778665304 -0.08767376095 0.02824362554 0.939730525
-0.1176468804 -0.08889795095 0.9724879265 -0.08314156532 -0.02218093537 0.9710515141
-0.1305912435 -0.07710665464 0.9727579951 0.2841312587 -0.1615070254 0.9189662337
-0.1260668933 -0.08183268458 0.9699005485 0.1034303159 -0.1112369522 0.9663600922
-0.1334774643 -0.08197446913 0.9740458727 0.3858346045 -0.004819973372 0.9061217308
-0.1295377463 -0.08488044143 0.9715031385 0.2306990325 0.002182831755 0.9435185194
-0.2008008659 -0.07350103557 1.00999999 0.3262332082 0.04369307309 0.9431885481
-0.2018108219 -0.06687603891 1.009533763 0.3268781006 0.0008736358723 0.9449460506
-0.2031944394 -0.07024974376 1.005944014 0.3275147676 0.002385343658 0.944796741
-0.1888225675 -0.1085868925 1.000849366 0.05816291273 0.1295922697 0.9688943624
-0.1845234632 -0.111247696 1.0041219 0.048501838 0.1488081664 0.9775164723
-0.1802499294 -0.1069592014 1.004570961 0.1139641479 0.1889802217 0.9656988382
-0.1933592558 -0.1126249954 1.000164628 -0.005760532338 0.08850987256 0.9799268246
-0.1478832215 -0.05704724044 0.9927168489 0.5621457696 -0.2536954582 0.7852771878
-0.1453909129 -0.06012877822 0.9890478849 0.5786709785 -0.2524619401 0.7734766603
-0.1931666732 -0.07700709999 1.001644254 0.3117008805 0.02651949786 0.9485566616
-0.1834860593 -0.08045656979 0.9985066056 0.3051471114 0.06904854625 0.94900316
-0.2046869248 -0.1212188974 1.000379205 -0.1176832765 -0.002660560887 0.9930455089
-0.196596697 -0.1042606607 1.01022017 -0.06130955368 -0.002949064597 0.9973009229
-0.04148926958 -0.1968625784 1.083279014 0.4242768288 -0.1930930465 0.8844500184
-0.03950192034 -0.198006317 1.068837404 0.4329111874 -0.1999354213 0.8789845109
-0.03631212935 -0.1922858059 1.078192234 0.4329111874 -0.1999354213 0.8789845109
-0.03426381201 -0.1905559599 1.073773742 0.4329111874 -0.1999354213 0.8789845109
-0.03773742169 -0.1886644214 1.08310318 0.4329111874 -0.1999354213 0.8789845109
-0.03598310426 -0.1829524785 1.082567453 0.4329111874 -0.1999354213 0.8789845109
-0.03039204143 -0.1821516007 1.080542922 0.4329111874 -0.1999354213 0.8789845109
-0.06989311427 -0.05708206818 0.9882833362 -0.2742524445 -0.02737707645 0.9609305859
-0.07253849506 -0.06143960357 0.9872092009 -0.2713373005 -0.01621378399 0.9620736837
-0.06569932401 -0.06336127967 0.9915447831 -0.259313494 0.02213012055 0.9646927118
-0.1669745445 -0.1108283922 1.011280775 0.1299942136 0.1958891749 0.9144768715
-0.1644546241 -0.1073564813 1.027927995 -0.2241857648 0.1166597754 0.7050389051
-0.1664308012 -0.110988982 1.017132878 0.01249935851 0.1651019752 0.8492896557
-0.1661419868 -0.1062182337 1.008177757 0.1693156213 0.2218295783 0.9213938117
-0.1650782824 -0.104020983 1.013387203 0.05284106359 0.1993967295 0.84906739
-0.1652222127 -0.1076834947 1.021042347 -0.08332073689 0.1517876536 0.7848910093
-0.163912788 -0.1071841493 1.03293395 -0.3262625635 0.09098280221 0.6473860145
-0.162690118 -0.1020350978 1.032404661 -0.341709137 0.1046786457 0.6219103336
-0.162793085 -0.1043937579 1.037231445 -0.4273146987 0.07455433905 0.5817455053
-0.1594732702 -0.09910627455 1.057390451 -0.8617098331 -0.01908679493 0.3215082288
-0.161093086 -0.1020506024 1.051322937 -0.7178475857 -0.01957568526 0.4107277095
-0.1648109108 -0.1028744951 1.018260121 -0.04049854353 0.131073609 0.7915893197
-0.1630099416 -0.09978529066 1.04651773 -0.5884690285 -0.1703894734 0.4696074426
-0.1637493372 -0.1004181877 1.040543795 -0.4647673666 -0.1394751519 0.5409002304
-0.170024246 -0.1041005105 1.011244893 0.1104085892 0.1720711589 0.8834887743
-0.168475464 -0.1013836861 1.035678387 -0.3576578796 -0.1143647805 0.6070740819
-0.1671515852 -0.1020737514 1.027658582 -0.2066384107 -0.02127208747 0.6942717433
-0.1732541174 -0.1048273221 1.007682204 0.1829457879 0.2153532505 0.9295818806
-0.1710833907 -0.1036758125 1.016438723 0.01289231051 0.1118836924 0.8274060488
-0.1672737598 -0.112390399 1.026950002 -0.1610400379 0.08804567903 0.7629965544
-0.1652658433 -0.1056216508 1.041836262 -0.4604274035 -0.1608522087 0.5620264411
-0.1663077623 -0.1091472879 1.037050128 -0.3661847115 -0.01130493265 0.6372801661
-0.1649423093 -0.1045582443 1.050252438 -0.6338179111 -0.1591939181 0.4701916873
-0.1791550517 -0.1119227186 1.027495027 -0.2357352972 0.03197992593 0.7987011075
-0.1797761023 -0.1130072922 1.022872806 -0.1428358108 0.05598008633 0.8541878462
-0.1704503149 -0.1139820069 1.020474672 -0.04318346828 0.1186147705 0.8498156071
-0.1716715246 -0.109721452 1.037981749 -0.4141094983 0.009124134667 0.651935041
-0.1765335202 -0.1101754382 1.035229445 -0.382748276 4.988104411e-05 0.7004151344
-0.1696817428 -0.1085017547 1.043409228 -0.5164712667 -0.01250081882 0.5824490786
-0.1684891284 -0.1058622822 1.054601431 -0.7430779934 -0.07223353535 0.4491630197
-0.1745093614 -0.1114454642 1.030305743 -0.269465059 0.03958518803 0.7502908111
-0.17084378 -0.115884617 1.012489915 0.1209231988 0.1636086851 0.9433335662
-0.1758767515 -0.1141719669 1.018720508 -0.03560777754 0.1007247344 0.8887150884
-0.1648796797 -0.1032174453 1.063769102 -0.9146983027 -0.1386536658 0.3268970549
-0.1666696519 -0.1042427123 1.059315562 -0.8315420151 -0.1200947762 0.3846656382
-0.1723290384 -0.1176485792 1.006599784 0.1366354972 0.1727140248 0.9736927748
-0.06186438724 -0.2159884572 1.088385582 0.1986911297 -0.07835752517 0.971826911
-0.04876022413 -0.2052607089 1.081319094 0.3834298551 -0.1481529176 0.9089723825
-0.05174261332 -0.208264783 1.084516644 0.3408434391 -0.1066691428 0.9279560447
-0.05833260342 -0.2126277238 1.086450219 0.26576671 -0.04153155908 0.9621452689
-0.08477587253 -0.2197929472 1.085078359 0.02064198069 -0.1959284842 0.9800001979
-0.08959141374 -0.213201955 1.085416555 -0.007903103717 -0.174363181 0.9843348265
-0.09025296569 -0.2188432813 1.083675265 -0.004045347683 -0.1902778745 0.9812625647
-0.09331685305 -0.2187892497 1.090000033 0.009111544117 -0.2124646157 0.9769586325
-0.08642288297 -0.2129585445 1.090000033 0.01494462322 -0.1889483184 0.9816840887
-0.09324534237 -0.2088873684 1.090000033 -0.005590951536 -0.2184733897 0.9756304026
-0.0494152233 -0.1926527768 1.079133153 0.3936833143 -0.1523865163 0.9048518538
-0.04676413909 -0.1978913993 1.083490252 0.4175379872 -0.1843335778 0.888070941
-0.0563178435 -0.2015127093 1.085984707 0.314818114 -0.1052336469 0.9420413971
-0.05993966386 -0.1943106353 1.086547613 0.3212281168 -0.09823869169 0.9376298785
-0.049532298 -0.1896926016 1.084940672 0.4192979336 -0.1825544834 0.8891255856
-0.04211253673 -0.1913370639 1.083792329 0.42695871 -0.1930692196 0.8832760453
-0.04282224551 -0.1795309633 1.083630443 0.4315612018 -0.1983782202 0.8799577951
-0.04642652348 -0.1826144755 1.081738234 0.4272148907 -0.1933647245 0.8830913305
-0.05411662534 -0.1890542954 1.083126187 0.3737662435 -0.1450882852 0.9106457233
-0.05209867284 -0.1962803304 1.085293293 0.3739486635 -0.1512786895 0.9124398232
-0.0596806705 -0.2069185227 1.084422112 0.2408693731 -0.01490120776 0.9610915184
-0.05529770628 -0.2031294554 1.080989003 0.2837786973 -0.04403146356 0.942912519
-0.0594172664 -0.2006739527 1.082439423 0.2922866344 -0.06941282749 0.9453710914
-0.06537332386 -0.2005674541 1.085509062 0.2401907146 -0.03018612787 0.9646083117
-0.05199287459 -0.1983977109 1.080327868 0.3652270734 -0.122756809 0.9211271405
-0.113894321 -0.224805519 1.084312081 -0.0473530367 -0.2461602092 0.9679726362
-0.1217964962 -0.2243720591 1.084320784 -0.07218360156 -0.2562653422 0.9637578726
-0.1037453115 -0.2306172699 1.080574036 -0.02998223528 -0.2380659282 0.970456183
-0.112189129 -0.229832083 1.086523533 -0.0407169573 -0.2591182888 0.9647207856
-0.1162937358 -0.2297129631 1.089771032 -0.04696350172 -0.2649407983 0.9629878998
-0.1270973086 -0.2257772088 1.086341619 -0.06800347567 -0.2615009844 0.9626218081
-0.1261635125 -0.2204717398 1.089504123 -0.07070884109 -0.2500694692 0.9654092193
-0.122228913 -0.2276490629 1.088623643 -0.05555073544 -0.2627772391 0.963034451
-0.1211319938 -0.2210990936 1.091564059 -0.06242551655 -0.2492575794 0.9661120772
-0.1012795717 -0.2294704914 1.085451841 -0.02056022361 -0.2420772165 0.9699018002
-0.1060437337 -0.2283536643 1.090160966 -0.0245754607 -0.2534067333 0.9667608142
-0.09784147143 -0.2252243161 1.090128303 -0.009727443568 -0.2404078394 0.9704234004
-0.09253825247 -0.2244418114 1.089378834 0.00274648238 -0.2285788059 0.9733532667
-0.1204424873 -0.2160751522 1.08594811 -0.07378322631 -0.2390113324 0.9681496024
-0.1158040836 -0.2201354206 1.085350037 -0.06327676773 -0.2448806167 0.9673776031
-0.1289247125 -0.2189563662 1.084657669 -0.07903718948 -0.2429078519 0.9667603374
-0.1333732456 -0.2221269608 1.084408879 -0.07971917838 -0.254642874 0.9636929035
-0.130998835 -0.2144953758 1.09013319 -0.07866321504 -0.23647286 0.96844244
-0.1362046897 -0.2157586962 1.087810636 -0.07875128835 -0.2379884124 0.9680463076
-0.1412056088 -0.2157530785 1.086188316 -0.07864041626 -0.2360806167 0.96854496
-0.1493586004 -0.2190757841 1.083612919 -0.07897082716 -0.241765976 0.9670588374
-0.1495777518 -0.2182900608 1.078455448 -0.07880887389 -0.23897928 0.9677872658
-0.1457869858 -0.2227999419 1.081613183 -0.0797913298 -0.2558843195 0.9633683562
-0.1443876922 -0.2167600691 1.082102299 -0.0786351487 -0.2359899729 0.9685686827
-0.1561355442 -0.07809593529 1.000494003 0.2873122692 -0.03478269652 0.9490602612
-0.1550987363 -0.08239661902 0.9987887144 0.3143639565 -0.0162361227 0.9254470468
-0.1993123144 -0.1040263325 1.001751781 0.1008285582 0.08550166339 0.9643434286
-0.1994860768 -0.09300873429 1.005221963 0.249768883 0.1123038754 0.9463248253
-0.2048821598 -0.1079802811 0.9993878007 0.02077573538 0.02618518658 0.9762757421
-0.2045486569 -0.09809871018 1.002597332 0.1566700339 0.05454177409 0.9596401453
-0.1971016377 -0.0997383967 1.00355494 0.1695553958 0.1160362363 0.9551197886
-0.2050292343 -0.08726572245 1.006198764 0.2996207774 0.07645142078 0.9436074495
-0.2052332759 -0.103002511 1.00104475 0.08562012762 0.03491249308 0.969189167
-0.1983281523 -0.09845042974 1.010136008 0.09732699394 0.07129510492 0.9709888101
-0.1764630973 -0.1144536287 1.006778479 0.1053022593 0.1733155549 0.9783530235
-0.1769819856 -0.1025956646 1.00307858 0.1419392824 0.1912647188 0.9654531479
-0.1742188036 -0.1106144041 1.005164266 0.1446931213 0.1787058413 0.972591579
-0.1690250337 -0.1068596318 1.003441334 0.2087697238 0.1934750378 0.9583678842
-0.1677746624 -0.1113440245 1.005024195 0.2130713165 0.1971194148 0.9567793012
-0.1519225091 -0.05751344934 0.9971177578 0.4922059476 -0.2025642842 0.8372160792
-0.1531516761 -0.06234823167 0.99988693 0.4016900659 -0.1727248579 0.8816138506
-0.1570293456 -0.06051448733 1.003757954 0.3593699336 -0.122184895 0.9230233431
-0.1635484248 -0.06602504849 1.002127528 0.2612420022 -0.1490654945 0.9534426332
-0.1511208415 -0.07164345682 0.9989811778 0.4893919528 -0.1613072306 0.850420773
-0.1553949118 -0.06946075708 1.002383828 0.3379204273 -0.1097457856 0.9318005443
-0.07022860646 -0.09658616781 0.9929226041 -0.3302968442 0.1107902005 0.9372151494
-0.07715326548 -0.09799520671 0.9910213947 -0.3302366734 0.1178327873 0.9363158941
-0.08084077388 -0.09585629404 0.9891510606 -0.3265444636 0.1101285815 0.9384686351
-0.06398919225 -0.07660121471 0.98784554 -0.2817103267 0.05717774853 0.9573494196
-0.05650161207 -0.07534523308 0.9899224043 -0.2688896656 0.05230406299 0.9617497921
-0.05817312375 -0.08463221043 0.9944374561 -0.2798188329 0.05760936812 0.9579238892
-0.06072636321 -0.0885310322 0.9939007163 -0.2949079275 0.06982420385 0.9523239732
-0.05915911868 -0.07970371097 0.9895305037 -0.2867839336 0.06168353185 0.9554406404
-0.06415500492 -0.08495372534 0.99004215 -0.3183261454 0.07535264641 0.9445055723
-0.1675085425 -0.0613258332 1.003321528 0.2395386547 -0.1634208858 0.9565259814
-0.1827037632 -0.06056037173 1.003094673 0.2186083198 -0.1577041447 0.9614353776
-0.1774000376 -0.06480844319 1.00111413 0.2000384331 -0.1897334754 0.9597063065
-0.181037873 -0.07536344975 0.9982187748 0.2661266625 -0.04358705506 0.9624669552
-0.1989831477 -0.07987312227 1.003928304 0.3262896538 0.05660873652 0.9428884387
-0.1903849244 -0.08256901801 1.001183987 0.31728369 0.08407044411 0.9444726706
-0.2043552399 -0.081510216 1.006828189 0.3342148364 0.06737349927 0.9396725297
-0.1964815408 -0.07032354176 1.007470012 0.3085722327 -0.01599242724 0.9502461553
-0.1968925297 -0.06482956558 1.008610725 0.2910712361 -0.0524764806 0.9546588659
-0.1892791241 -0.06888283044 1.003997564 0.2858095169 -0.05699167028 0.9546776414
-0.1964467466 -0.08151974529 1.007809639 0.345621407 0.0950294435 0.9330415726
-0.1693899482 -0.08566597849 0.9966121316 0.148173824 0.1004314274 0.9822698236
-0.1864114553 -0.1118118837 1.011344314 0.04566912353 0.0856827274 0.9946320057
-0.1912810057 -0.1116451547 1.011658192 -0.02736180648 0.03634255379 0.9962241054
-0.1901091784 -0.1058173403 1.010033488 0.03643297777 0.06099104509 0.9930104613
-0.1897306442 -0.09890506417 1.008802056 0.2095687985 0.1454359293 0.9614554048
-0.1694511473 -0.1028217897 1.047405601 -0.599352777 -0.273774147 0.5038931966
-0.1825573742 -0.112171635 1.018896818 -0.07779797912 0.01908264309 0.9005173445
-0.181365937 -0.1068688929 1.020445824 -0.1200473458 -0.003497345839 0.8576207161
-0.1650921851 -0.09923620522 1.056775808 -0.7722632885 -0.37074247 0.3712499142
-0.1832225919 -0.09582736343 1.010508299 0.1682981104 0.1545648724 0.8933532238
-0.1745119244 -0.09656541049 1.032312155 -0.2682534754 -0.08947534859 0.641024828
-0.1775085777 -0.1026516259 1.028023839 -0.2405662835 -0.0718908757 0.7384089828
-0.1834723502 -0.1052818 1.014684558 -0.002259528264 0.06236882508 0.9163975716
-0.1806360632 -0.100873448 1.019428611 -0.0545902811 0.0315702334 0.8264806867
-0.1726313084 -0.09737121314 1.037347078 -0.3749938011 -0.1489302963 0.5876264572
-0.1842151582 -0.101753436 1.011069298 0.101921618 0.119456403 0.9321329594
-0.1682932228 -0.09766901284 1.048170567 -0.5910574794 -0.2697369754 0.4618453979
-0.1794233471 -0.09897001088 1.01104033 0.1454334557 0.1607489586 0.8875405192
-0.1727711856 -0.09979724884 1.028083682 -0.1985635757 -0.03191202506 0.6928084493
-0.1756103337 -0.1002189592 1.018589377 -0.0109689394 0.07789431512 0.802202642
-0.1749610901 -0.1028836668 1.0128479 0.0914510414 0.1510679871 0.8708517551
-0.1756537855 -0.09837790579 1.023738384 -0.1053318232 0.01381227095 0.7412047982
-0.1715174615 -0.1026122272 1.023675799 -0.1234497279 0.02642796561 0.7463100553
-0.09638365358 -0.08113583177 0.9781715274 -0.3517961502 -0.02688247524 0.9354445934
-0.0845734328 -0.07856558263 0.98147434 -0.3214266896 0.01170873363 0.9458373189
-0.09099463373 -0.07691664994 0.9796462655 -0.3364014626 -0.01845411025 0.9404621124
-0.08532523364 -0.05291142687 0.9847114682 -0.2362750024 -0.1128903255 0.9616940618
-0.07850563526 -0.05661200359 0.9862689972 -0.2780809104 -0.06688949466 0.9570849538
-0.09330384433 -0.06506668776 0.9799923897 -0.3138973713 -0.0734321326 0.9449514747
-0.09698931873 -0.04958935082 0.9815190434 -0.187854588 -0.1745525897 0.9655392766
-0.09333159775 -0.05878097191 0.9810879827 -0.2655951083 -0.1091010794 0.9533901811
-0.08219601959 -0.06063979492 0.9843767285 -0.2986677885 -0.05771408975 0.9521255493
-0.07674372196 -0.06390507519 0.9857593775 -0.2772661746 -0.02019402012 0.9599875212
-0.08810398728 -0.06435987353 0.9818196297 -0.3128450513 -0.05842394754 0.9473974109
-0.09338341653 -0.05413503945 0.9851664305 -0.2644279599 -0.1179285496 0.955295682
-0.08115331829 -0.0725818947 0.9826154709 -0.3048975766 0.006153783295 0.9510003328
-0.08010460436 -0.06743050367 0.9840366244 -0.2876456976 -0.01377518382 0.9566099644
-0.08616585284 -0.07191756368 0.9810919166 -0.3159019947 -0.01415129099 0.9470142126
-0.09384213388 -0.06972081214 0.9790045023 -0.3294216096 -0.05063664168 0.9419744015
-0.1034805179 -0.06006496772 0.9768307209 -0.199632898 -0.1452248842 0.9612590671
-0.09833633155 -0.06651028246 0.9779967666 -0.3066469729 -0.08467829227 0.9442777634
-0.1054559723 -0.05382036418 0.9770863056 -0.1326698661 -0.1894706935 0.9722859263
-0.1011994481 -0.0539511703 0.9790218472 -0.1855174601 -0.1683471501 0.96445328
-0.1015256345 -0.07433024049 0.9773557782 -0.3436251581 -0.06689233333 0.9366443753
-0.05986935645 -0.07031662017 0.9887881279 -0.2701306641 0.03717359155 0.9618325233
-0.06443971395 -0.05848455057 0.9895118475 -0.2660311759 0.0008744987426 0.9637085795
-0.06704078615 -0.06668440253 0.9880174398 -0.2766954303 0.03139089048 0.9604168534
-0.06697627157 -0.07207882404 0.9871382713 -0.2739609182 0.04430924356 0.9606259465
-0.1665626019 -0.1283642054 1.008282661 0.07970813662 0.1627513617 0.9825862646
-0.1795119494 -0.1169237867 1.011557341 0.07836022973 0.1142825782 0.988161087
-0.1672978997 -0.1201668456 1.006427765 0.1579730213 0.1958652288 0.9659045339
-0.1764115244 -0.1283296198 1.011255503 0.008208318613 0.1112661883 0.9891391993
-0.1722649783 -0.1259604692 1.010714889 0.05660501495 0.1277790666 0.9862300158
-0.1798121333 -0.1237899885 1.011263967 -0.01097092126 0.1038907841 0.9900615811
-0.1750838906 -0.1198761016 1.010951877 0.07962995023 0.1216115206 0.988032043
-0.08220204711 -0.2126190066 1.087000012 0.04547979683 -0.1390091926 0.983666122
-0.07913354039 -0.2088550329 1.087000012 0.08268766105 -0.08082786202 0.9848418236
-0.07570311427 -0.2048887759 1.088067532 0.1199048385 -0.03334125131 0.9863916636
-0.08387390524 -0.2076855749 1.089437485 0.0375703685 -0.1558265239 0.9849838614
-0.07548514754 -0.2166683674 1.090000033 0.06849901378 -0.1623814404 0.9840970635
-0.06679821014 -0.2134947181 1.087000012 0.1959334016 -0.07011433691 0.9717065096
-0.07561133802 -0.2126386166 1.087000012 0.09733355045 -0.1065568328 0.9814755917
-0.06456558406 -0.204679355 1.088389516 0.2226543427 -0.02050560713 0.9709358215
-0.06205116212 -0.2090525925 1.088321209 0.2212613225 -0.01296086144 0.9714273214
-0.07095068693 -0.2064247578 1.089588642 0.137282595 -0.01286915876 0.9871626496
-0.0696317926 -0.2015336752 1.087947845 0.1843492538 -0.03238416836 0.9774164557
-0.1085558534 -0.216930449 1.085886478 -0.0270311702 -0.2533749938 0.966655612
-0.1012030467 -0.2266738266 1.079927087 -0.02202696167 -0.2327564061 0.9721032381
-0.1050831527 -0.2221394032 1.082623005 -0.02804023027 -0.2411593199 0.9696999788
-0.1076276004 -0.2268092334 1.081495404 -0.03940023109 -0.2358294874 0.9707657695
-0.09540382773 -0.2143964916 1.085265279 -0.01352646854 -0.1979059875 0.9791294336
-0.0964032039 -0.2205483466 1.082258463 -0.01720162295 -0.206456691 0.9775878191
-0.1142401248 -0.2155820429 1.086223125 -0.06288842857 -0.2441976517 0.9673835635
-0.08900094032 -0.2087114304 1.087137938 -0.009162846953 -0.1653055549 0.9860835671
-0.1347450167 -0.04992097989 0.9861193895 0.4849131703 -0.4090131819 0.7716398239
-0.1394942254 -0.0534966737 0.9882130027 0.5268710852 -0.3408044577 0.774271369
-0.1433608681 -0.05553013459 0.9899641871 0.5668336749 -0.2978496552 0.7647275329
-0.1274082363 -0.05274815857 0.9791522026 0.290484488 -0.2755004168 0.8991575241
-0.1084661707 -0.05168516189 0.9815509319 -0.07700654119 -0.2232731879 0.9503130317
-0.1228192672 -0.04992449656 0.9833031893 0.2051030695 -0.325736016 0.8960641026
-0.1141101792 -0.05222645029 0.9822576046 0.03124144301 -0.260817498 0.9282667637
-0.1179015562 -0.04811054468 0.9800395966 0.08240558952 -0.2805548608 0.9363021255
-0.1089044809 -0.06153821573 0.9759249091 -0.156393379 -0.1544218659 0.9718557596
-0.1127421185 -0.06468900293 0.9752929807 -0.1191748306 -0.1499728709 0.9790969491
-0.1103744358 -0.05675925687 0.975494206 -0.09318608791 -0.1864652932 0.9773685336
-0.121617645 -0.06350559741 0.9751058817 0.1143177599 -0.2314587235 0.9579917789
-0.1178649366 -0.05858261138 0.9749590158 0.0360780172 -0.2135439366 0.9695295095
-0.1236657128 -0.0549268201 0.9759429693 0.1992720664 -0.2656493485 0.9427958131
-0.1245272905 -0.06878454238 0.9741623998 0.1368878037 -0.207268253 0.9638700485
-0.1241539717 -0.0747769177 0.9724861979 0.04642928019 -0.1283883154 0.9902744293
-0.1150679737 -0.07030551136 0.974194169 -0.1023201719 -0.1349073797 0.9843219519
-0.1637635529 -0.09073571861 1.002093434 0.1563533694 0.1344477087 0.9624755383
-0.1611771286 -0.0794570595 1.001573682 0.2441734374 -0.02619215101 0.9497482181
-0.162053287 -0.0955504477 1.000669718 0.1548030823 0.1697840691 0.9705497622
-0.1651652157 -0.09936543554 1.002382398 0.1724575162 0.1965148449 0.9609206319
-0.1578177512 -0.08718191087 0.9990279675 0.2086919844 0.06209376827 0.9687162042
-0.1825889498 -0.09531926364 1.0053792 0.2508273423 0.2125152349 0.943345964
-0.1729989797 -0.09612064809 1.003417611 0.181080088 0.2223083228 0.954711318
-0.1720835418 -0.1010369733 1.004713297 0.1765004843 0.2257887274 0.9562920332
-0.1688457131 -0.09190915525 0.9982361794 0.1496606171 0.1608202159 0.9727201462
-0.1729883254 -0.06664625555 1.002328873 0.186486572 -0.1624099165 0.9675146341
-0.1650420725 -0.08490309119 1.001722336 0.1786324978 0.04106046632 0.9605534077
-0.1642645001 -0.07412930578 1.001146317 0.2477644086 -0.1202587634 0.951187849
-0.16911906 -0.07975819707 1.001418471 0.1699364483 -0.04043153673 0.9664524794
-0.1687219888 -0.0884033069 1.001887202 0.1240369007 0.09003708512 0.9715870619
-0.1715524346 -0.07128794491 1.001208544 0.18829 -0.15292871 0.9679812193
-0.184531197 -0.07297421247 1.002191186 0.2757755518 -0.05208959803 0.9570340514
-0.1792798191 -0.07052173465 1.001551628 0.1864729226 -0.1310158968 0.9713331461
-0.183295399 -0.06731147319 1.002259493 0.2387358248 -0.1072261184 0.963270545
-0.1489415765 -0.06636102498 0.9957553148 0.5461755991 -0.2145676017 0.8070585132
-0.1474378556 -0.06511770934 0.9880418777 0.5382880569 -0.2502906322 0.7858597636
-0.1542457044 -0.06202061847 0.9937844276 0.4387717545 -0.2047316581 0.8534085751
-0.1502035856 -0.06230661273 0.9912942052 0.5085145235 -0.227786541 0.8144483566
-0.159134388 -0.06380315125 0.9955360889 0.3398172259 -0.182324484 0.8989572525
-0.1433452517 -0.06481533498 0.9917650223 0.5307133198 -0.2364168465 0.8102321625
-0.1457334459 -0.06972442567 0.9859047532 0.5704148412 -0.2335588038 0.7753821611
-0.1503094733 -0.06974138319 0.9883627295 0.4857153594 -0.2121985257 0.8182953596
-0.15628618 -0.0670126304 0.9921891093 0.372345984 -0.2017433196 0.8703968525
-0.07418602705 -0.08061680198 0.9884978533 -0.311178267 0.04935829714 0.9472535849
-0.07164826989 -0.0694816485 0.9897063971 -0.265822053 -0.000873050245 0.9613224864
-0.07633260638 -0.07225716859 0.9885860682 -0.2884936929 -0.004257384688 0.9543164372
-0.07088082284 -0.07589874417 0.9894607067 -0.2857049406 0.03682826832 0.9551405311
-0.0615324527 -0.07580767572 0.9921267629 -0.2704956532 0.059276063 0.9595858455
-0.0692166537 -0.08302460611 0.9900328517 -0.3155159354 0.06972557306 0.9456850886
-0.08054324985 -0.07647744566 0.987573266 -0.310567975 0.009508268908 0.9473874569
-0.08245785534 -0.08650425076 0.9877349138 -0.3288494349 0.08402910829 0.9405231476
-0.07699535787 -0.0854768306 0.988060534 -0.3274640143 0.07559867203 0.9417729378
-0.07995805889 -0.09133233875 0.9867639542 -0.3319266438 0.09944583476 0.9374384284
-0.08599196374 -0.0905566439 0.9834980965 -0.3369476199 0.07229100913 0.9384433031
-0.07784166187 -0.08151078224 0.9849528074 -0.3151111007 0.05407774821 0.9471867681
-0.07522965223 -0.07671231031 0.9846469164 -0.3012694716 0.04348612949 0.9523920417
-0.2004090995 -0.07966355234 1.00999999 0.3329721093 0.07412564754 0.9399194717
-0.197899431 -0.09331022948 1.01000011 0.2637348473 0.1025313661 0.9563646913
-0.1873045415 -0.09461195022 1.006790519 0.2700924575 0.1897938848 0.9430345893
-0.1938873529 -0.08848322183 1.008139253 0.3229366541 0.1289141625 0.9358546734
-0.2030199319 -0.09181827307 1.01000011 0.213303715 0.04550024867 0.9718269706
-0.200636819 -0.08651540428 1.01000011 0.3277215958 0.08489262313 0.9400754571
-0.09304840863 -0.06328441948 0.9847695827 -0.3134561479 -0.08677171916 0.9453238845
-0.08867262304 -0.05865189433 0.9868683815 -0.2882418334 -0.08742758632 0.9532719851
-0.1022790894 -0.06928517669 0.9790853858 -0.3255273104 -0.08605257422 0.9413571954
-0.08759185672 -0.07968498021 0.9857147336 -0.3299274445 0.03310637549 0.9408557415
-0.09037639201 -0.07562757283 0.9844084978 -0.3344239593 -0.008318100125 0.9395594001
-0.09224780649 -0.06860907376 0.9846522212 -0.3257519603 -0.05179158598 0.9419997334
-0.08670382947 -0.07179228216 0.9864786863 -0.3092470169 -0.02475346997 0.9475377202
-0.05781401694 -0.06713568419 0.9931631088 -0.2474837601 0.0524779968 0.9673634768
-0.1021561176 -0.2143695056 1.091320634 0.002981142839 -0.2484524697 0.9684758782
-0.1000048891 -0.2095089555 1.090007067 -0.01968434826 -0.2307701707 0.9725965261
-0.112241976 -0.2131930441 1.090359569 -0.03504095972 -0.2491005361 0.9675455093
-0.1076806188 -0.2117435783 1.089583397 -0.03110347688 -0.2420484126 0.969481349
-0.09860943258 -0.2200037241 1.090641618 -0.0006154694711 -0.2453535497 0.96934551
-0.09751707315 -0.2151775658 1.090513587 0.007402873132 -0.2189609408 0.9753323197
-0.1152650341 -0.2180610746 1.091633081 -0.04131118208 -0.2470335811 0.9674773812
-0.1064244807 -0.2172099203 1.091426969 -0.007925543934 -0.254177928 0.9668716788
-0.1139897332 -0.2244779319 1.090971708 -0.03789439797 -0.2514109612 0.9669212699
-0.1244752109 -0.2135346979 1.09218955 -0.07530840486 -0.2373078614 0.9684337378
-0.1188378185 -0.2139026374 1.092074037 -0.05399943888 -0.2420497984 0.9680181742
-0.1058186889 -0.2224148363 1.090283036 -0.01238934789 -0.2644468844 0.9642342925
-0.1017715707 -0.06206221879 0.9810001254 -0.2746555507 -0.1124339998 0.9461961389
-0.1069883555 -0.06238751113 0.9810001254 -0.1580604613 -0.1453657299 0.9310523272
-0.1083876938 -0.05734008551 0.9810001254 -0.08950651437 -0.1939084083 0.9445702434
-0.1125900894 -0.06014782563 0.9810001254 -0.01406524424 -0.2007494271 0.9236550927
-0.1183141544 -0.06075793132 0.9810000658 0.1120294482 -0.2349254489 0.9061718583
-0.1179828867 -0.05465104431 0.9818851948 0.1158699542 -0.271838665 0.9150297642
-0.1256310344 -0.05923382938 0.9811969399 0.2826121449 -0.2946358621 0.888833344
-0.1168898568 -0.06523750722 0.979919672 0.03824362904 -0.2031782866 0.9061739445
-0.1223685443 -0.06497379392 0.979901135 0.1649364382 -0.2426603884 0.8925397992
-0.1112097576 -0.0694334954 0.9786974788 -0.1316801757 -0.1463571191 0.9201032519
-0.1304015368 -0.05189862847 0.9838080406 0.3722077012 -0.3477208614 0.8554662466
-0.1200471148 -0.0692654103 0.9769931436 0.06032262743 -0.1933350414 0.9343622923
-0.1388269365 -0.06041002646 0.9877515435 0.5133284926 -0.2750506997 0.8093717694
-0.1333364844 -0.07436570525 0.9866754413 0.2317952067 -0.1452333033 0.8988860846
-0.1223977432 -0.07427358627 0.9790410995 0.02808330022 -0.1340930611 0.9465241432
-0.1426715255 -0.07199399173 0.9925906062 0.4436745346 -0.1859979928 0.8508603573
-0.1280720085 -0.06419162452 0.9805213213 0.2909852266 -0.2690922618 0.8913375139
-0.1183443815 -0.07499293983 0.9763966799 -0.05909797922 -0.1203530356 0.9664434195
-0.1326328516 -0.06305546314 0.9834168553 0.3941529095 -0.2887205184 0.8679414392
-0.1292358935 -0.07300822437 0.9834896922 0.1759643406 -0.1579333544 0.9127640128
-0.1333383322 -0.06880866736 0.9853162766 0.3180843294 -0.2161238939 0.8821596503
-0.137616232 -0.06963493675 0.9884953499 0.3854855597 -0.2103998661 0.8659069538
-0.1877068728 -0.08971017599 0.9985034466 0.2210239321 0.07551260293 0.9561218619
-0.1945455372 -0.1006144732 0.9975303411 0.08977182955 0.0440181084 0.9705885053
-0.199872449 -0.108156994 0.9983692765 0.01701216958 0.04104032367 0.9768710136
-0.1918337792 -0.09251391888 1.004256368 0.2588489354 0.142081663 0.9450565577
-0.2023620307 -0.1129332632 0.9966608882 -0.05576537549 0.01129746437 0.9863654971
-0.1936569065 -0.09653554857 1.002125621 0.1893172115 0.1084285229 0.9547557235
-0.1913910657 -0.08710090071 1.004028797 0.3084717691 0.1298321038 0.9410681129
-0.1806579679 -0.08479016274 1.003458142 0.2123266906 0.04625941813 0.9577711821
-0.1854050905 -0.08593645692 1.003236651 0.3014095724 0.1277434975 0.9420126081
-0.1683163196 -0.0948650986 1.002067566 0.1465908885 0.2097700983 0.963409245
-0.1759554744 -0.08608849347 1.001252532 0.2209186703 0.1079041362 0.9549360275
-0.1750150025 -0.07944466919 1.001212597 0.1657582223 -0.03153701872 0.9695942402
-0.179515332 -0.0835525021 0.997954011 0.2772716284 0.1039785892 0.9530797005
-0.1906888932 -0.09526702017 0.9973914027 0.1473929584 0.05393444747 0.9647866488
-0.1837738752 -0.09404503554 0.9998362064 0.2043367475 0.1432138532 0.9525027275
-0.1919869781 -0.1071438417 0.9969367981 0.01630165242 0.07249697298 0.9797270894
-0.1754769683 -0.0930981636 0.9982461333 0.1933293343 0.1697467268 0.9607445002
-0.1826017797 -0.1004003659 0.9993315935 0.1409688592 0.1625191867 0.957852006
-0.1873979717 -0.1040361896 0.9985125661 0.08414286375 0.124668099 0.966272831
-0.1784892082 -0.09691876173 0.9986528754 0.1637748331 0.1680667996 0.9601376653
-0.1731091738 -0.08228792995 0.9973031878 0.1644880772 0.04436926544 0.9815087318
-0.1756017357 -0.07314472646 0.9979999065 0.1921874583 -0.09954003245 0.9736258984
-0.1710977107 -0.07511937618 0.9979038239 0.1475652307 -0.104478769 0.9831905365
-0.1289765537 -0.07241147757 0.9740678072 0.2517240942 -0.1750879735 0.9251015186
-0.1296569854 -0.06745850295 0.9756128788 0.3364399076 -0.2289809734 0.8951242566
-0.1265233904 -0.06337044388 0.975677371 0.2599332929 -0.2541205883 0.9229716659
-0.134292379 -0.07255393267 0.9750702977 0.455688715 -0.2107063383 0.8643445373
-0.1329956502 -0.05741962418 0.9813888073 0.4517930746 -0.2904063463 0.8332068324
-0.1295569092 -0.05859512836 0.9781443477 0.3628967106 -0.2689172029 0.877966702
-0.1370483786 -0.0651723519 0.980820179 0.5420743823 -0.2429124415 0.8015172482
-0.1419324726 -0.07016705722 0.9818387628 0.5750167966 -0.2222392559 0.7839059234
-0.1380613744 -0.07036847621 0.9785939455 0.5279065967 -0.2140964866 0.8183926344
