# .PCD v0.7 - Point Cloud Data file format
VERSION 0.7
FIELDS x y z normal_x normal_y normal_z
SIZE 4 4 4 4 4 4
TYPE F F F F F F
COUNT 1 1 1 1 1 1
WIDTH 512
HEIGHT 1
VIEWPOINT 0 0 0 1 0 0 0
POINTS 512
DATA ascii
-0.007265968714 -0.200113371 1.211373448 -0.135938108 -0.0198857151 0.9905164242
0.006884505507 -0.1919998825 1.208832383 -0.1359410286 -0.01995457336 0.990514636
-0.00298776594 -0.1905560195 1.212435722 -0.1359827667 -0.02093881369 0.9904896021
-0.003236088436 -0.2032602578 1.209243655 -0.1359052956 -0.01911233366 0.9905360937
0.005270789843 -0.1871617585 1.210607171 -0.1359762102 -0.0207841564 0.990493536
-0.002242466202 -0.1961179972 1.210758686 -0.1359460056 -0.02007217705 0.9905116558
-0.08455694467 -0.08643122762 1.072069526 -0.001700296765 -0.3406261802 0.936702311
-0.0807639882 -0.08281257749 1.072322249 -0.06153631583 -0.3321105838 0.9144374728
-0.09128353 -0.08922950923 1.067554832 0.2141646445 -0.246446833 0.9436497092
0.004559554625 -0.201893121 1.206108809 -0.1358945519 -0.01885883324 0.990542531
-0.09399937093 -0.1031475216 1.069217086 0.3443417847 -0.09391662478 0.9286894202
-0.07844563574 -0.1118004397 1.067486882 -0.1560202539 0.001252286369 0.985070467
-0.07173474878 -0.1151978895 1.070597887 -0.2617267966 0.03262554482 0.9545926452
-0.1350512356 -0.1027057022 1.083282471 0.0625513941 -0.3022664189 0.9423186779
-0.1464715749 -0.1243517995 1.089947939 0.05280329287 0.04473930225 0.972987473
-0.1465568393 -0.1303231716 1.089463592 0.03134576231 0.1245866492 0.9792430401
-0.1523149759 -0.1078340486 1.089583158 0.06873583049 -0.1459028274 0.9718591571
-0.1520797312 -0.1169126257 1.088949203 0.03871899098 -0.02632100694 0.980398953
-0.1568233967 -0.1160880104 1.087682724 0.007715367246 -0.01370166801 0.9921882153
-0.1488080472 -0.1114757806 1.090000033 0.07131107897 -0.1267335415 0.9636072516
-0.1438261569 -0.120093897 1.090000033 0.05178607628 -0.06720920652 0.9523931146
-0.1482669115 -0.1032029241 1.090000033 0.07708372921 -0.2721619308 0.9466350675
0.003695284249 -0.1782184541 1.205076098 -0.1359904855 -0.02112077735 0.9904849529
0.008422009647 -0.178559348 1.207785487 -0.1359904855 -0.02112077735 0.9904849529
-0.09058088809 -0.2523127496 1.165798783 -0.41565606 0.1429139078 0.8982236385
-0.08833584189 -0.2491391748 1.172154307 -0.41565606 0.1429139078 0.8982236385
-0.08077185601 -0.2547340393 1.175160289 -0.41565606 0.1429139078 0.8982236385
-0.08542894572 -0.2534626722 1.172716856 -0.41565606 0.1429139078 0.8982236385
-0.09100552648 -0.2514429986 1.177514553 -0.41565606 0.1429139078 0.8982236385
-0.03822555393 -0.2469004095 1.19744277 -0.3186367154 0.09762816876 0.9424482584
-0.03295077011 -0.2440891266 1.200900793 -0.2984207571 0.09417187423 0.9493626356
-0.03560223058 -0.2400662005 1.19594419 -0.2797448635 0.107075803 0.9535901546
-0.02809913643 -0.2379733622 1.199928999 -0.3134416044 0.09467832744 0.944722712
-0.07463805377 -0.07937105745 1.075384736 -0.2137992829 -0.377138406 0.8939628601
-0.05477770045 -0.09511291236 1.077244639 -0.3897483349 -0.1887922287 0.9010767937
-0.03441078216 -0.09142677486 1.07945919 -0.3803845942 -0.1415218264 0.9135446548
-0.05382678658 -0.1009862497 1.077458262 -0.4266708493 -0.1156495884 0.896622479
-0.04946005717 -0.1017745137 1.080004215 -0.4293617904 -0.06707525253 0.8987540603
-0.04141201451 -0.09624648839 1.079400063 -0.4039797783 -0.1098710671 0.906540513
-0.0463686958 -0.09772241861 1.078308821 -0.4112292826 -0.1200719103 0.902810812
-0.0138180498 -0.2255458534 1.199632287 -0.2674212754 0.09152935445 0.9573122263
-0.1087996811 -0.137942642 1.076503396 0.1939190775 0.06296857446 0.9607205987
-0.1144183055 -0.143311426 1.08033967 0.1216676831 0.1132526696 0.9701523185
-0.1205932498 -0.148468107 1.084281683 0.04108012468 0.1639032364 0.9805378914
-0.1068411171 -0.1328359246 1.073973656 0.2139617056 0.02537553757 0.9575195909
-0.1309484988 -0.1798519194 1.086592436 -0.008770100772 0.4412654042 0.8907082081
-0.1447141171 -0.1769448519 1.085609913 0.08760263771 0.4029075503 0.9071743488
-0.1355546415 -0.1784598827 1.08619523 0.02125439793 0.4210375547 0.8999916315
-0.1293632686 -0.1826506406 1.092152953 -0.0902422294 0.5470513105 0.8260829449
-0.1398024261 -0.1814020276 1.087369561 0.05727958679 0.4866592884 0.8636821508
-0.0281063579 -0.1058330163 1.09148705 -0.4657045603 0.04811893404 0.8806493878
-0.02837572992 -0.09891798347 1.088652968 -0.4532104433 -0.01069519762 0.8892092109
-0.02878831699 -0.1114057004 1.090823293 -0.4806341827 0.09832659364 0.8696277142
-0.02721922658 -0.09936617315 1.093603134 -0.4322353601 -0.005876033101 0.9010728598
-0.1192170158 -0.1115626469 1.075858116 0.1862240434 -0.1118386462 0.9716831446
-0.09979657829 -0.1048524156 1.071787953 0.3669911623 -0.07419703901 0.9207904339
-0.1128737777 -0.1106305867 1.074471593 0.2580555975 -0.1013819724 0.9536171556
-0.1085705608 -0.1060774773 1.073708653 0.2669820189 -0.08856711537 0.9458528757
-0.104959704 -0.1209256575 1.069821 0.2730284929 -0.06017778441 0.9525974393
-0.1172586605 -0.1192525849 1.074607849 0.1749424487 -0.03908808157 0.9706219435
-0.1091206744 -0.1233333722 1.071170807 0.1860107332 0.01347691659 0.9638376236
-0.115205884 -0.1240173131 1.073580742 0.1146920249 0.06056128442 0.9744463563
-0.1057432219 -0.1037358344 1.081553459 0.4154729247 -0.09645572305 0.9008712769
-0.1016513929 -0.1003864184 1.080687404 0.4374872446 -0.07374746352 0.8911684155
-0.0491845794 -0.089395836 1.080150247 -0.3734804392 -0.2138510495 0.9003410339
-0.04423850402 -0.08671841025 1.081574082 -0.366119355 -0.2166692019 0.9017399549
-0.03917884082 -0.08592306823 1.082021475 -0.3638589382 -0.2042687684 0.9050931334
-0.04772284254 -0.08094121516 1.084549665 -0.3505268693 -0.2749449611 0.8931753039
-0.04123409465 -0.09056267142 1.079598784 -0.3764808178 -0.1753626168 0.9080001712
-0.04371871799 -0.07773926109 1.090994596 -0.3550296426 -0.2652085423 0.8946400285
-0.03190588951 -0.08788982034 1.082993031 -0.3768547773 -0.1537343711 0.9120825529
-0.03563296795 -0.08490329981 1.086664677 -0.3774647713 -0.1818421334 0.9050778151
-0.03920113668 -0.08206506073 1.089043975 -0.3735827208 -0.2133650333 0.8989173174
-0.03393170238 -0.08669763058 1.091045618 -0.3990918696 -0.140909344 0.9050866365
-0.03023239784 -0.09208390117 1.090453625 -0.4017572999 -0.08464089781 0.9092981219
-0.1142898202 -0.1054804549 1.075586915 0.2087640613 -0.111486949 0.9593456984
-0.103690736 -0.1016504616 1.074130297 0.3341554105 -0.111668922 0.9257858992
-0.1029706374 -0.09695612639 1.075854063 0.3585717976 -0.1501296312 0.9157844186
-0.1103667319 -0.1011426523 1.076248169 0.2656452656 -0.1368753165 0.9418389201
-0.09777829051 -0.09671206027 1.073300004 0.3783843815 -0.1446237862 0.9110727906
-0.009375149384 -0.1901316643 1.211843729 -0.1359904855 -0.02112077735 0.9904849529
-0.002535672858 -0.1800217181 1.205670238 -0.1359904855 -0.02112077735 0.9904849529
-0.0006547683151 -0.1835241616 1.209384441 -0.1359904855 -0.02112077735 0.9904849529
-0.001375365071 -0.1847389638 1.204164743 -0.1359904855 -0.02112077735 0.9904849529
-0.08302544802 -0.2476357371 1.184604645 -0.41565606 0.1429139078 0.8982236385
-0.08638434112 -0.2479682118 1.179157257 -0.41565606 0.1429139078 0.8982236385
-0.02471982129 -0.2339402735 1.199169159 -0.3214627802 0.09130720049 0.9424605966
-0.01833658293 -0.2330223471 1.201434851 -0.3163406253 0.08581960946 0.9447388649
-0.01250738557 -0.2279696018 1.207753778 -0.2334639132 0.05483911559 0.9691632986
-0.01519558392 -0.2309398353 1.204610467 -0.2781414986 0.07146988064 0.9560834169
-0.02216859907 -0.2371993661 1.204919219 -0.27654773 0.07868933678 0.9562577605
-0.07814319432 -0.1044306383 1.068979144 -0.1856110096 -0.06596013159 0.9775697589
-0.07854574174 -0.08939420432 1.07278192 -0.1124093458 -0.2861544788 0.9298416972
-0.08062946796 -0.09672352672 1.069859266 -0.08257656544 -0.1598854512 0.9612224698
-0.08578385413 -0.09412260354 1.067298889 0.08408207446 -0.1897118092 0.9577871561
-0.05022785068 -0.09912274778 1.08631146 -0.4232453406 -0.06362366676 0.888253808
-0.0441958122 -0.1027500555 1.089127302 -0.4541131556 0.05065736175 0.8761454821
-0.05312134698 -0.09201328456 1.087099075 -0.3823032379 -0.1838270426 0.8951407671
-0.04654894397 -0.09760452062 1.089514494 -0.4239137769 -0.03935055435 0.8816184998
-0.04852651432 -0.1042878255 1.085456133 -0.4521121681 0.0190462973 0.8840065002
-0.05403811857 -0.0867568627 1.087916732 -0.3544745445 -0.2603470981 0.8941654563
-0.06509690732 -0.1108130664 1.074390411 -0.3918791115 -0.0162942335 0.9181115031
-0.06643544883 -0.1061751097 1.074505687 -0.3797376454 -0.06319669634 0.919154644
-0.07491716743 -0.1080907285 1.069442153 -0.2357654274 -0.02984356135 0.9640976787
-0.06975327432 -0.1099219397 1.071948528 -0.3169910908 -0.01864573359 0.9403994679
-0.07619833946 -0.1075202674 1.075008631 -0.1433659494 -0.02473464236 0.9253429174
-0.07860649377 -0.1030463427 1.077112794 -0.06008116901 -0.07424941659 0.8992930651
-0.08058457077 -0.1100859195 1.074162602 -0.04760299996 0.01497675292 0.9395180941
-0.09082444012 -0.1013138816 1.078633308 0.2530198693 -0.07127924263 0.8877115846
-0.07169794291 -0.1055811718 1.075573921 -0.2452406883 -0.05707398057 0.9147863388
-0.08339493722 -0.1010815352 1.077642441 0.05608426034 -0.08911530674 0.8971419334
-0.07409713417 -0.09910490364 1.07518816 -0.2227603346 -0.1332458258 0.9296414256
-0.09698476642 -0.09909334034 1.079430938 0.406152755 -0.08650402725 0.882807374
-0.09067190439 -0.1186278164 1.067000031 0.1514455974 -0.03580660746 0.9638233781
-0.09845237434 -0.1089814901 1.069010854 0.2674954832 -0.09046061337 0.9587572217
-0.1039219052 -0.1115946546 1.070725799 0.2721264362 -0.07694845647 0.9564292431
-0.08746107668 -0.1110119596 1.067000151 0.1021778733 -0.02858139947 0.9823181033
-0.02986406907 -0.0984666869 1.098989964 -0.4298962355 -0.04085277766 0.896140635
-0.02949866652 -0.09478767961 1.094736576 -0.4099142849 -0.04881400988 0.9076527953
-0.1631039977 -0.1525081694 1.088500381 -0.01600809768 0.1332811117 0.9897803068
-0.005185166374 -0.2187136859 1.208438993 -0.1736633331 0.01738503017 0.9837338328
-0.008830738254 -0.2230178416 1.207947731 -0.1964998394 0.0384786278 0.9796145558
-0.002951872302 -0.2149872929 1.205733061 -0.1603340656 0.00557055464 0.9862012267
-0.002813001163 -0.2087896615 1.208359838 -0.1429528147 -0.009645130485 0.9894250631
-0.007031797431 -0.2081414014 1.210891485 -0.1532256454 0.002425112529 0.9877749681
-0.02031944133 -0.2280267924 1.204302788 -0.2790777087 0.07043200731 0.9560869336
-0.08202009648 -0.246919021 1.174163222 -0.41565606 0.1429139078 0.8982236385
-0.07953231782 -0.2426969856 1.177455902 -0.41565606 0.1429139078 0.8982236385
-0.077638641 -0.2441168875 1.185935259 -0.41565606 0.1429139078 0.8982236385
-0.155237928 -0.1632518768 1.086592436 -0.006520253606 0.1306666136 0.9889422655
-0.1535706222 -0.1685299426 1.086058855 0.01168675069 0.2200990319 0.9644891024
-0.162515983 -0.160274148 1.089754939 -0.02440815046 0.1174895763 0.9919983745
-0.03804327175 -0.1080212519 1.085429907 -0.462305516 0.1293452233 0.8654218316
-0.04119275138 -0.1043414548 1.083248615 -0.4433130324 0.03987449035 0.8823410869
-0.03425659984 -0.09739990532 1.081950188 -0.4104438722 -0.03631063923 0.8975144625
-0.04379146174 -0.109992981 1.084972382 -0.4707739949 0.1238203496 0.8660240173
-0.03873899952 -0.09978669137 1.081938028 -0.4212637842 -0.02519652992 0.8950243592
-0.03280960023 -0.109330073 1.087446928 -0.4669370353 0.1073454246 0.868660152
-0.03335364908 -0.1029746905 1.084521651 -0.4373135567 0.04384061694 0.8817414641
-0.02929947339 -0.09591434151 1.082828283 -0.4082951546 -0.06793150306 0.9023301601
-0.02723553963 -0.1122060567 1.101856112 -0.4768042266 0.07099977881 0.8759450912
-0.02784811892 -0.1117775068 1.096712589 -0.4768561125 0.0823796764 0.8740167022
-0.02890411019 -0.1039745957 1.100219011 -0.4501033425 0.006004646886 0.8889909387
-0.03835024312 -0.09364306927 1.094879508 -0.4279486239 -0.04455589876 0.887879312
-0.03538581729 -0.08965742588 1.098116636 -0.4088677764 -0.1160493046 0.8966362476
-0.03451136872 -0.09817444533 1.096977592 -0.4381504655 -0.01998731866 0.8879441023
-0.03518969566 -0.1051496416 1.094927073 -0.4643549621 0.0696548 0.8788871765
-0.040014036 -0.1018807665 1.091766477 -0.4602712691 0.06809808314 0.8759840131
0.0005351924337 -0.2031493783 1.197000027 -0.1476226747 -0.01204410195 0.9883349538
-0.001949619036 -0.2082472295 1.197000027 -0.1828705668 0.02069755085 0.9780904651
-0.008029725403 -0.2137754411 1.197000027 -0.2107015848 0.0440454036 0.9717848897
-0.01158113498 -0.2191958725 1.197000027 -0.2453885823 0.07559338212 0.9621824622
-0.007768599782 -0.2178456038 1.200504541 -0.2091496885 0.04813143238 0.9736216068
-0.005291655194 -0.1967544854 1.201705694 -0.1399791688 -0.01807034202 0.9897918701
-0.01021781284 -0.2039239258 1.200062275 -0.1627945602 -0.0006217495538 0.9858272076
-0.004190686624 -0.2024801373 1.198774219 -0.1516268998 -0.009162478149 0.9877678156
-0.0007852343842 -0.1978655756 1.199756503 -0.1366354227 -0.02062754892 0.9903728962
-0.01158655901 -0.2104257643 1.19757545 -0.1794402152 0.01210840233 0.9829346538
-0.1463397592 -0.1084651202 1.081255078 0.0330224596 -0.2867916226 0.9524962902
-0.1459670067 -0.1032899767 1.0837816 0.06372588128 -0.3051909804 0.9464609027
-0.1448485404 -0.09775102884 1.088813782 0.09887547791 -0.3510325253 0.9303453565
-0.1507797837 -0.09831799567 1.089589596 0.09226650745 -0.2858887613 0.9533439279
-0.153067261 -0.1036090255 1.085633397 0.09100290388 -0.256301105 0.961849153
-0.1399463266 -0.1108635738 1.08056736 0.0119489748 -0.311180383 0.9451121092
-0.1361604333 -0.1125937253 1.077733874 0.04708918184 -0.2045982778 0.9725310206
-0.1310660541 -0.1080054343 1.080045342 0.048660703 -0.2466220558 0.9565347433
-0.1507011801 -0.1157401055 1.07741189 0.01599570923 -0.2205293328 0.9740505219
-0.1109323576 -0.09930464625 1.083006501 0.3092153072 -0.01386213303 0.9466118813
-0.1260667443 -0.1061649621 1.078991055 0.1003863439 -0.1572588682 0.9759015441
-0.128478542 -0.1018633544 1.082193732 0.1189132929 -0.2050277144 0.9553037882
-0.1160510555 -0.09681010246 1.083732128 0.2714571953 -0.02441821061 0.9460775852
-0.1202131286 -0.1011537984 1.084801078 0.205556795 -0.126159668 0.9519414902
-0.1260630786 -0.09709759802 1.085222721 0.1836591214 -0.1822014302 0.9369114637
-0.1134281456 -0.1037867889 1.084091544 0.2453732789 -0.04343253374 0.9646295905
-0.1320453882 -0.09805714339 1.086197257 0.1257154644 -0.2832205594 0.9332386851
-0.1142248213 -0.1000571102 1.079507828 0.2479715943 -0.05836984143 0.9545692205
-0.1203940883 -0.1051369011 1.078489304 0.1570183933 -0.07413630188 0.9771041274
-0.1079964712 -0.09425215423 1.081590056 0.3562735617 -0.05555684865 0.9263373017
-0.04880335554 -0.08444535732 1.092105031 -0.3610857427 -0.2326469868 0.8955354691
-0.04120378569 -0.08034261316 1.096158981 -0.3749297857 -0.2133763283 0.9015871286
-0.04484742135 -0.0887157172 1.092670202 -0.3936133087 -0.1380902082 0.8907213807
-0.0425436683 -0.09504883736 1.092071533 -0.4277589619 -0.03227461874 0.8831359744
-0.04823230579 -0.0917441994 1.090574861 -0.3921946883 -0.1308253855 0.8865326643
-0.03999959305 -0.08599095047 1.095282078 -0.4020192623 -0.1272169501 0.894715488
-0.1045870706 -0.09092337638 1.079615831 0.351480037 -0.1527179182 0.9181668162
-0.09209859371 -0.08672447503 1.074859381 0.2032171935 -0.2574679255 0.9057200551
-0.09925606102 -0.08955645561 1.075468421 0.3625050187 -0.2101736665 0.9071728587
-0.08524349332 -0.08291147649 1.077053905 -0.001849425375 -0.3105314672 0.8979782462
-0.143162474 -0.1361648589 1.082086444 0.03315347806 0.1635185331 0.9847288728
-0.1445629448 -0.1311475933 1.079884648 0.02750297636 0.1402850747 0.9885957837
-0.1447983235 -0.1406395584 1.084757328 0.03725722432 0.1870548874 0.9807505608
-0.1514095217 -0.1757781059 1.097904801 0.005713845603 0.3414080143 0.9044486284
-0.1573813111 -0.169113934 1.09287107 -0.02302993275 0.2149196863 0.9579694867
-0.1618986577 -0.166041702 1.089884043 -0.035629116 0.1893229485 0.9791980982
-0.1491145641 -0.1851209104 1.103744388 0.05247023329 0.5064663887 0.8478916287
-0.1465279013 -0.1890241653 1.107549429 0.06184536219 0.5524032712 0.8224256635
-0.1552902162 -0.1759306043 1.094187737 0.03420699388 0.3963899612 0.9088980556
-0.1466931552 -0.1851359904 1.095474839 0.1046712324 0.5167403817 0.8449112177
-0.1514911652 -0.1817155778 1.099575162 0.04970897734 0.4636780322 0.8715897799
-0.1505273134 -0.1803876013 1.093096614 0.07909965515 0.4577847123 0.8768302798
-0.0855641216 -0.2526884675 1.178912759 -0.41565606 0.1429139078 0.8982236385
-0.08120304346 -0.252366513 1.183403969 -0.4154076278 0.1324733347 0.8996906877
-0.073113814 -0.2430273741 1.192733169 -0.4156508446 0.142694205 0.8982544541
-0.07403105497 -0.2497849315 1.189628243 -0.4150929153 0.1192483455 0.9015490413
-0.04898023605 -0.07695555687 1.08817029 -0.3358644843 -0.310262084 0.8892680407
-0.08238183707 -0.09516254067 1.07752943 -0.0007556594792 -0.1539974511 0.9197256565
-0.08081426471 -0.0915716067 1.082168937 0.02680154331 -0.1686937511 0.8926619887
-0.08756262809 -0.09645089507 1.078288317 0.1445831358 -0.1307275891 0.9062710404
-0.07178070396 -0.08844921738 1.082178116 -0.2070468664 -0.2113633454 0.9076029658
-0.07459364086 -0.09137573093 1.079202771 -0.1778992414 -0.1934029907 0.9219577909
-0.07517880946 -0.08721737564 1.08583498 -0.06530787796 -0.2010673881 0.8785778284
-0.06519056857 -0.08341196924 1.086382031 -0.3159804344 -0.2490906715 0.891663909
-0.09421831369 -0.08966203034 1.082044363 0.2204947472 -0.1895466894 0.9010314941
-0.08518805355 -0.0900754258 1.083835483 0.120799154 -0.1750043184 0.8833528757
-0.09999675304 -0.09387040138 1.080444336 0.3733207285 -0.1449188292 0.8964241147
-0.08937127888 -0.09406419098 1.08258152 0.2501889467 -0.1313360184 0.8766640425
-0.05877523124 -0.07901277393 1.089931846 -0.37605685 -0.2888461351 0.8796670437
-0.05335113779 -0.07875358313 1.09126842 -0.3378209472 -0.3083525896 0.8892291784
-0.07004140317 -0.08167226613 1.087706923 -0.2274478674 -0.2606919408 0.8860040307
-0.07590790838 -0.08072309196 1.080273747 -0.1720487475 -0.3230825067 0.8917267919
-0.08143633604 -0.08283935487 1.081020117 -0.06522686034 -0.2887123823 0.8968070149
-0.0896756351 -0.08505167812 1.079708219 0.07689348608 -0.2666277587 0.9044761658
-0.07420706004 -0.08199868351 1.08500433 -0.1699629724 -0.2740373611 0.8899636865
-0.05933933705 -0.09785927832 1.076539874 -0.391244024 -0.1645462066 0.9036875963
-0.06344515085 -0.1014232039 1.075554252 -0.3805071414 -0.1178981215 0.9137331247
-0.06859517843 -0.09794207662 1.075538158 -0.3470265567 -0.1696890891 0.9165651202
-0.05683866888 -0.09852789342 1.081286907 -0.4118267596 -0.138225764 0.8915168643
-0.08661323786 -0.1062996909 1.067000031 0.07777465135 -0.04763917625 0.9913732409
-0.0833202377 -0.1006441265 1.067000031 -0.01655002125 -0.1108959168 0.9728595018
-0.0909062326 -0.09767165035 1.067000031 0.2184454948 -0.166582182 0.9550964832
-0.09720567614 -0.1254934072 1.074906111 0.3101921976 0.07119939476 0.9404584765
-0.1109013855 -0.1344483048 1.082874417 0.1837383807 0.02586149983 0.9588314891
-0.1046783626 -0.127045393 1.079500556 0.2790419459 -0.0106962109 0.9434001446
-0.1058451235 -0.1355729401 1.079604506 0.1801291257 0.1185585335 0.9614613652
-0.1001241952 -0.1260068268 1.069488525 0.2976468801 -0.03094115481 0.9463174343
-0.100052081 -0.129379943 1.073560953 0.2810437977 0.0614288114 0.9468070865
-0.1021210104 -0.1333276629 1.076344013 0.2523789704 0.1083467901 0.9503859878
-0.1156692132 -0.1500308514 1.083704591 0.1105367988 0.1706317812 0.9722210765
-0.1102090105 -0.140782848 1.081900001 0.1316077858 0.1367006898 0.9690443873
-0.09956768155 -0.1137819737 1.069034576 0.323443532 -0.02108514123 0.9424436688
-0.09394908696 -0.1127602682 1.067225456 0.3518005013 0.01035879925 0.935223937
-0.1085607335 -0.1166646034 1.071720481 0.2773245871 -0.07980329543 0.9543187618
-0.1523254514 -0.1261339933 1.087758541 0.01203709003 0.09185579419 0.9855717421
-0.1524646431 -0.1325993985 1.086309791 0.004592432175 0.16590859 0.9818429947
-0.1600293815 -0.1114854366 1.087095261 0.001656537992 -0.05958200246 0.9955636263
-0.161170423 -0.1280948818 1.085309386 0.001111308462 0.1249858961 0.9849293232
-0.1591858119 -0.1221968457 1.085806847 -0.001689985278 0.05908794329 0.9888762832
-0.161954686 -0.1181038618 1.086240172 0.001750606578 0.01514413115 0.9913078547
-0.1552429795 -0.1374202073 1.087147832 0.01317144092 0.2016751915 0.9791629314
-0.1452267766 -0.1389660835 1.0895015 0.02686983906 0.2102622092 0.9771317244
-0.1642501056 -0.1328243017 1.083706498 -0.003388180165 0.1718726158 0.982809186
-0.1645812988 -0.1222777814 1.082334757 -0.05502279103 0.03483456373 0.9918460846
-0.1674901545 -0.1226440668 1.075606585 -0.05709593371 0.01394216809 0.9976210594
-0.1530525833 -0.1710485667 1.095750213 8.548891492e-05 0.2674045861 0.9301273823
-0.006830561906 -0.1888317317 1.205110192 -0.1359904855 -0.02112077735 0.9904849529
-0.01098084822 -0.1937956214 1.208751559 -0.1359904855 -0.02112077735 0.9904849529
-0.02226890624 -0.229505524 1.197000027 -0.310478121 0.1050870344 0.9444810748
-0.01875311509 -0.222495392 1.197000027 -0.2652404606 0.07662130892 0.9589893818
-0.01777707413 -0.2170192301 1.197000146 -0.2087829113 0.03554384783 0.9766258597
-0.02419975027 -0.2162932158 1.197000265 -0.2712334096 0.02372510545 0.9615332484
-0.01365842856 -0.1977649629 1.207224011 -0.1380161196 -0.01920294762 0.9901815057
-0.01358578261 -0.2090452462 1.20985961 -0.1683236212 0.009897314012 0.9848943949
-0.0144218374 -0.216293782 1.207414389 -0.1842812151 0.02519647777 0.9821525216
-0.0139038479 -0.2031323314 1.210919499 -0.1556656063 -0.002291771816 0.9871674776
-0.01691644639 -0.2105998397 1.206389308 -0.1728779078 0.01409554668 0.9844212532
-0.01380366273 -0.1981852949 1.212148666 -0.1449437141 -0.01259637438 0.9890559316
-0.00818187464 -0.2151077092 1.210810542 -0.1731138527 0.0214693509 0.9841893315
-0.01799762435 -0.2235699594 1.204657435 -0.2588386238 0.06082641333 0.9614410996
-0.02043768391 -0.2076562345 1.202531695 -0.1698858887 0.008841986768 0.9852113724
-0.01877167076 -0.2116325498 1.198052049 -0.2243157625 0.01354776789 0.972594142
-0.0157870315 -0.2073583752 1.199174643 -0.2066383064 0.00405926723 0.9759776592
-0.01057752129 -0.1993750334 1.202569842 -0.1469038725 -0.01078817621 0.9888499379
-0.01606309973 -0.2037713379 1.202741027 -0.1577201039 -0.0005475549842 0.9872294068
-0.1187652349 -0.1689512283 1.092601895 -0.02919654362 0.3197294176 0.9444226623
-0.1199105904 -0.1704292148 1.087445378 -0.0348563455 0.3121469915 0.9396779537
-0.03938142583 -0.2420506328 1.199629068 -0.2904766202 0.09891301394 0.9507502913
-0.1259644181 -0.1494232267 1.089231849 0.02120176516 0.1741140485 0.9841128588
-0.1293200552 -0.1444706917 1.088403463 0.0188800469 0.1782281548 0.9832230806
-0.1209789068 -0.1544677168 1.089627862 0.02073929459 0.164695397 0.9860095382
-0.1342131048 -0.1438978165 1.089594364 0.02673668973 0.1937288791 0.9802738428
-0.1236060634 -0.1558722556 1.0849576 0.01875739731 0.1474759132 0.9885480404
-0.05883025751 -0.1091335565 1.076721549 -0.433693558 -0.03861344606 0.8968467712
-0.0703561157 -0.1219237596 1.073060751 -0.3094494343 0.1164463609 0.9413673878
-0.06695555151 -0.116633445 1.073499918 -0.3591688871 0.04456506297 0.9296995997
-0.06204626337 -0.115505226 1.075164795 -0.4099591374 0.03597594053 0.9106788635
0.01042097528 -0.1874619871 1.204451561 -0.1359904855 -0.02112077735 0.9904849529
0.004047506023 -0.2017408609 1.200525284 -0.135948956 -0.02014156803 0.9905098677
0.002387979068 -0.2064053714 1.203051448 -0.1358981282 -0.01894342899 0.9905403852
0.00661560148 -0.1961417049 1.202616453 -0.1359603703 -0.0204106383 0.9905030727
0.001834012219 -0.1928236037 1.199713349 -0.1359904855 -0.02112077735 0.9904849529
0.002787214005 -0.1870537251 1.202527881 -0.1359904855 -0.02112077735 0.9904849529
0.004942666274 -0.1968167871 1.197276235 -0.1359904855 -0.02112077735 0.9904849529
-0.003714717226 -0.1920028329 1.20248127 -0.1359904855 -0.02112077735 0.9904849529
-0.001573781134 -0.2103409469 1.201226592 -0.1602998078 0.004336609039 0.986210227
-0.1298408508 -0.1175364926 1.076520205 0.04649275541 -0.08983054757 0.9865398407
-0.1241485849 -0.11668358 1.076321483 0.0644440949 -0.05777975917 0.9918581843
-0.1224535108 -0.1326107532 1.089289427 0.1314266026 0.0874812305 0.977021277
-0.1339053959 -0.1362331808 1.089671731 0.07284573466 0.1608182788 0.9768261313
-0.1173341498 -0.1303132027 1.089204907 0.1632029861 0.05136345327 0.9766504169
-0.1227053329 -0.1273508966 1.08997786 0.1741389483 0.06284752488 0.973410666
-0.1238100678 -0.1393338591 1.088533163 0.07262129337 0.1271066368 0.981249094
-0.1515596509 -0.1416872144 1.085282803 0.001459229621 0.2010535002 0.9783463478
-0.1506758928 -0.1312014908 1.080422282 0.004966108128 0.1478596777 0.9872499704
-0.1486537009 -0.135331884 1.08241725 0.01814515144 0.165599972 0.9842979312
-0.1574267149 -0.1520844996 1.086927414 -0.007265963126 0.1277418584 0.9900673032
-0.1624618024 -0.1476422697 1.086889267 -0.0109503055 0.1745132357 0.9840274453
-0.1592694819 -0.1385907531 1.083383799 -0.03083481826 0.1600894481 0.9818522334
-0.1625893712 -0.1426476091 1.085663438 -0.02093237266 0.1768608987 0.9822684526
-0.1666254699 -0.126939401 1.078016877 -0.0419892855 0.06263004988 0.9933408499
-0.1610095352 -0.1303881407 1.080433488 -0.03242374584 0.1118863672 0.9882538319
-0.1540392041 -0.1745201647 1.086082458 0.05015623569 0.3895994127 0.9185624123
-0.1442386061 -0.1891104877 1.10254693 0.0857269913 0.5609377027 0.8204356432
-0.1428890377 -0.1941032857 1.11208868 0.06407955289 0.6057333946 0.7928220034
-0.05966963246 -0.2536502481 1.189484119 -0.3827834427 0.09420432895 0.9181922078
-0.05299383402 -0.251201123 1.193836927 -0.3522164226 0.07461848855 0.9324373007
-0.04692510515 -0.2496891916 1.195321918 -0.329274267 0.08764758706 0.9392172098
-0.06025737524 -0.2493170798 1.193000078 -0.3896012902 0.1042629257 0.9138870835
-0.07343693823 -0.2547182739 1.182587028 -0.415140003 0.1212276965 0.901270926
-0.07655037194 -0.2530439198 1.179148555 -0.4153835475 0.1314619035 0.8998328447
-0.07857237756 -0.2485412359 1.177472472 -0.4155961275 0.1403955817 0.8985774517
-0.06651650369 -0.08861040324 1.076910615 -0.394241035 -0.243373245 0.8855672479
-0.07155300677 -0.09339541942 1.075154305 -0.3018659353 -0.2044975907 0.9266111851
-0.07176635414 -0.08730662614 1.075702786 -0.2828295827 -0.2972288728 0.9028128982
-0.06371147186 -0.08371863514 1.078671813 -0.3739723563 -0.2726672888 0.8843485713
-0.06230888143 -0.0776233077 1.080568314 -0.2868192494 -0.3502532542 0.8894209266
-0.06837210059 -0.08194933832 1.077234507 -0.3252240717 -0.3149901927 0.8862230182
-0.05363455042 -0.07675029337 1.085024595 -0.3133541048 -0.3306281567 0.8890426755
-0.07772664726 -0.1222370937 1.072280884 -0.1731739044 0.07048537582 0.9689667821
-0.09513904899 -0.1223840415 1.068428397 0.2786361873 -0.05598333478 0.9534801841
-0.09826727957 -0.1215030327 1.078109622 0.2372749001 -0.09688213468 0.9561759233
-0.09327004105 -0.1093661711 1.076946139 0.3028596342 -0.05223000795 0.9257096648
-0.08251377195 -0.1161986291 1.073308468 -0.0001487078407 0.008582435548 0.9663416147
-0.07804334164 -0.1148560196 1.07247138 -0.1255562901 0.04042978957 0.964664042
-0.08824290335 -0.1081145182 1.07596314 0.1618024111 -0.01682239026 0.9249690771
-0.08542913198 -0.1223215908 1.070300579 0.01924499683 0.01725847833 0.9589920044
-0.0838843286 -0.1170737445 1.067535281 -0.0179550834 0.003178796964 0.9757027626
-0.09661962837 -0.1055376604 1.078481913 0.3852826953 -0.06935406476 0.9045501947
-0.09189546853 -0.117205292 1.075856924 0.2160275131 -0.05874842778 0.9581052065
-0.1010363549 -0.115885593 1.079992533 0.3057768047 -0.1293082237 0.9303296208
-0.08952216059 -0.1217857227 1.074595094 0.1453266591 -0.0504045561 0.9804385304
-0.1020467356 -0.1096865833 1.080718398 0.383400172 -0.1228579804 0.905659914
-0.1187869608 -0.1114495918 1.087845922 0.2085555643 -0.1345953047 0.9592018723
-0.1141984761 -0.1150797978 1.088148594 0.239556253 -0.07885762304 0.9672091007
-0.1266360432 -0.1079420373 1.088401914 0.1594692618 -0.2320958823 0.9452369213
-0.1216541529 -0.1075523496 1.087009549 0.1868071705 -0.1681246758 0.9543597698
-0.1108274311 -0.1214180738 1.085671902 0.2921079099 -0.08084587753 0.9482055902
-0.1078985333 -0.1184866875 1.082561016 0.3510724902 -0.1553863436 0.9222181439
-0.1126717255 -0.109146148 1.085321546 0.2560745478 -0.06816952676 0.9620819688
-0.1374079734 -0.1008428857 1.088280559 0.09657833725 -0.3380790651 0.9298787117
-0.131963253 -0.1035202816 1.087971807 0.1243576631 -0.2927053571 0.9365031719
-0.1432494968 -0.1594121009 1.09091115 0.02408652566 0.1327131987 0.9830924869
-0.1424238533 -0.1696116477 1.095045924 0.01354305632 0.2732075155 0.9345901012
-0.1500022411 -0.165895775 1.094751716 0.01725884341 0.229957372 0.9421587586
-0.1484616101 -0.1615332514 1.092682362 0.02199976332 0.1680292338 0.9653924704
-0.1438668668 -0.1829646826 1.10426414 0.0458477959 0.5129877329 0.8349974751
-0.1465569735 -0.1781895459 1.101489663 0.03407629579 0.4305475056 0.8662779927
-0.1476339549 -0.1704754531 1.097388029 0.02772799693 0.3083140552 0.9124416709
-0.1439946145 -0.1643879265 1.094673753 0.04011619091 0.2268866152 0.9428713918
-0.1541107297 -0.159747988 1.091104627 -0.0003964419884 0.1216589659 0.9832932949
-0.1554531902 -0.1641721725 1.093228817 -0.004351995885 0.1851988733 0.9594372511
-0.1493617296 -0.1532022059 1.090000033 0.01481063012 0.1137207076 0.991738379
-0.1463861465 -0.1689327657 1.085807085 0.04216667265 0.2365685403 0.9639974833
-0.1490970105 -0.1731012762 1.085324645 0.06134323403 0.3406019211 0.934038341
-0.04239147902 -0.2424022555 1.194858432 -0.2609224916 0.0960854739 0.9604204297
-0.04397770017 -0.2301324606 1.19654274 -0.2314495593 0.06106839329 0.9696609974
-0.0481936112 -0.2338804603 1.195316911 -0.2843297124 0.08303308487 0.9520814419
-0.0484623611 -0.239463225 1.194116354 -0.2923175693 0.09862451255 0.9498965144
-0.02779243328 -0.2231172621 1.197000027 -0.3111655414 0.04900096729 0.9484403133
-0.022753058 -0.2171390653 1.201832294 -0.2455716729 0.04048571363 0.9649090171
-0.02545664646 -0.2121866941 1.200502753 -0.2233954668 0.003233860247 0.9722638726
-0.1329695135 -0.1865524948 1.098227859 -0.03231265396 0.5671412945 0.8171753883
-0.1413787901 -0.185452044 1.094439268 0.07531493157 0.5286207199 0.8407792449
-0.1385379881 -0.1879124194 1.099273205 0.05038787052 0.5533246994 0.8274810314
-0.1363655925 -0.1850273907 1.094858885 0.005237813573 0.545535624 0.8294627666
-0.1454586536 -0.183386445 1.090388417 0.1125758439 0.5045663118 0.8538758159
-0.1378114372 -0.1917394996 1.108659148 0.02394044213 0.6011298299 0.7986080647
-0.1265392303 -0.1833343357 1.099686503 -0.002913924167 0.4905229211 0.864664793
-0.133481279 -0.1882848442 1.103993297 0.01683417708 0.5651561022 0.8219840527
-0.05436531082 -0.108832784 1.080840707 -0.4449772537 -0.002949974267 0.8946422338
-0.03341762722 -0.1174805835 1.091607809 -0.5010616183 0.1280840635 0.8553058505
-0.03295922279 -0.1145560965 1.09846139 -0.4857316017 0.09452053905 0.8679476976
-0.04028088972 -0.1179175079 1.092886925 -0.4982070327 0.1286438704 0.8565784693
-0.04233385995 -0.1120575666 1.090059519 -0.4891708493 0.1352916062 0.8613479137
-0.03531078994 -0.1105102226 1.095718384 -0.4802942276 0.1032798588 0.8702917695
-0.04123043641 -0.1070751101 1.090067744 -0.4790434837 0.1282274872 0.8682970405
-0.1554512084 -0.1090014577 1.082375646 0.05958035216 -0.2039195299 0.9735925198
-0.160801962 -0.1140416935 1.079625368 0.0166929625 -0.1182132363 0.982057929
-0.1651439965 -0.1180390269 1.07877481 -0.03357822821 -0.02891384996 0.9959716797
-0.1596314907 -0.1188647076 1.07626605 -0.01670566574 -0.1044902056 0.9881118536
-0.1554594636 -0.1138715446 1.079618692 0.01347842347 -0.1635796279 0.9856906533
-0.1505595446 -0.1259814352 1.078672409 0.01002432872 0.1054108068 0.9922719598
-0.1511367261 -0.1207525134 1.077000022 0.006815014873 -0.09831813723 0.9892531037
-0.160918951 -0.1235921904 1.076429844 -0.03082673065 0.01345972903 0.9978379607
-0.1570249349 -0.1276586801 1.079660892 -0.0148494672 0.07654305547 0.9919742942
-0.1275837123 -0.1408922523 1.083053112 -0.01703688689 0.1803214848 0.9826364517
-0.1337661445 -0.1417729855 1.083378673 0.02457409352 0.1894545853 0.9806059599
-0.1326020211 -0.1324836612 1.080168009 -0.0261446517 0.160871461 0.9855097532
-0.1357481629 -0.1374385357 1.081861377 0.01490552071 0.1721162796 0.9834826589
-0.132887274 -0.1277888864 1.078172922 -0.007694548462 0.1353014559 0.9899106622
-0.1276821941 -0.1336697936 1.080498219 -0.03506734222 0.1694012284 0.9842582941
-0.1274380833 -0.1277304739 1.077938914 -0.01079530269 0.1369479746 0.9898725748
-0.1383226961 -0.1274711937 1.078244925 -0.003055724548 0.1315992177 0.9903043509
-0.1180035919 -0.1381794363 1.079640269 0.06286580116 0.1045232341 0.9752148986
-0.1155211926 -0.1344560236 1.077454209 0.09353737533 0.08606485277 0.9699103236
-0.1227021962 -0.1408510655 1.082184672 0.0003801898856 0.1464526206 0.9820724726
-0.1051605791 -0.1272998005 1.071382999 0.2300395072 -0.004369669128 0.953868866
-0.1191386729 -0.1292950511 1.077352643 0.06675782055 0.1158827692 0.9735104442
-0.1230558231 -0.1254684776 1.07661128 0.01368977036 0.1195890605 0.9889800549
-0.1215393171 -0.1332923025 1.079465628 0.02290028892 0.1475022435 0.9745514393
-0.1134477705 -0.1288175136 1.075986028 0.1546444744 0.08256395906 0.959068954
-0.1172193438 -0.1397092342 1.087617636 0.08974766731 0.09183973819 0.9810212255
-0.1146128178 -0.1342915744 1.086205959 0.1593401879 0.02682725154 0.9679635167
-0.1100940034 -0.1273833513 1.082941771 0.2643429041 -0.08041700721 0.944383204
-0.1138050705 -0.1239376962 1.088620663 0.235547334 -0.01240474731 0.9672086835
-0.1183961704 -0.1452286988 1.087244511 0.03896856681 0.1279540211 0.985750556
-0.1213502288 -0.1728166044 1.095117688 -0.02561745979 0.3790282905 0.9181653261
-0.1247181445 -0.176005289 1.097225904 -0.01473681349 0.4251556993 0.8937857151
-0.05780982971 -0.2432254851 1.193023801 -0.3713872731 0.1098591536 0.9216833115
-0.05567520857 -0.2383576632 1.193310022 -0.3549663723 0.1054755449 0.9287897944
-0.06018653512 -0.2396830469 1.189537168 -0.3675405979 0.119305633 0.9217289686
-0.07069354504 -0.2413497716 1.182707071 -0.3941157162 0.132448107 0.9087469578
-0.06488662213 -0.2405096292 1.186486244 -0.3796205819 0.1253384501 0.9158281088
-0.07348424196 -0.2421278805 1.18725729 -0.4087213874 0.1323372573 0.9025232196
-0.06873421371 -0.2411037236 1.190678716 -0.3950091898 0.1114236265 0.9110249281
-0.06069310009 -0.09242302924 1.076999903 -0.3933188915 -0.2158302367 0.8932971954
-0.05675293133 -0.08997917175 1.078937054 -0.3811361492 -0.2276060134 0.8946676254
-0.05399953574 -0.082076177 1.082570553 -0.3630172312 -0.2741626203 0.8890714049
-0.05877123028 -0.08642105758 1.084786654 -0.3681173921 -0.2779612541 0.886610806
-0.06205501407 -0.08950612694 1.081936479 -0.3888794482 -0.2537667155 0.8849031329
-0.06690238416 -0.07828523964 1.081588268 -0.2931472361 -0.35083884 0.8860914111
-0.05871969089 -0.07713227719 1.085344315 -0.2963665128 -0.3507963419 0.8878065348
-0.1224574 -0.1151024923 1.08943224 0.1869990528 -0.1565523744 0.9580757022
-0.1335792094 -0.1115510911 1.086010814 0.05119923875 -0.2284613401 0.9600346684
-0.1428152174 -0.1032557413 1.088436484 0.05021811649 -0.3395913541 0.935113728
-0.1362064183 -0.1058968306 1.089946628 0.1198140606 -0.2917571962 0.9365853667
-0.1397241056 -0.1296640933 1.087092161 0.005535904784 0.05854612961 0.9767957926
-0.1372769773 -0.1187221259 1.084248424 -0.018481832 -0.1273745745 0.9740821719
-0.1434314102 -0.1094194576 1.089202762 0.0522829257 -0.2399695665 0.9401366115
-0.1392234415 -0.1089058593 1.085404992 0.005833167583 -0.2712977231 0.955734849
-0.1399821043 -0.115238823 1.08646214 0.01245173905 -0.1673225015 0.9598322511
-0.1385083944 -0.1234309077 1.085631847 -0.006171529647 -0.04638051614 0.9745648503
-0.1297395527 -0.1122939438 1.076839685 0.07200344652 -0.1418919861 0.9846328497
-0.1421644092 -0.1159764007 1.076973796 0.02967891283 -0.2144841254 0.9743186831
-0.1247642785 -0.1116351113 1.076690197 0.08638607711 -0.1096936539 0.9892200828
-0.1387087703 -0.1496752352 1.090000033 0.03309748322 0.1458894908 0.9870605469
-0.128957957 -0.1536986083 1.090000033 0.0274967961 0.1511135399 0.9872428775
-0.1321668178 -0.1499660611 1.090000033 0.02864510939 0.1668021381 0.984536767
-0.1397790015 -0.143493399 1.090000033 0.03205627948 0.1868042499 0.9807339907
-0.1303095222 -0.1526530236 1.084995866 0.02096469514 0.1515981853 0.9877411723
-0.1263887584 -0.1455096602 1.084491372 -0.00805139821 0.164661929 0.9858438969
-0.1285159886 -0.1749014556 1.086425662 -0.03179502115 0.3716180027 0.9194396734
-0.1325940192 -0.1703058183 1.086089969 0.004663355649 0.2821224332 0.9505749941
-0.123395592 -0.1761178374 1.086809635 -0.06805600226 0.3958282471 0.9097162485
-0.1196453869 -0.1656510085 1.086986542 -0.008442838676 0.234516263 0.9664034247
-0.1234053299 -0.1608160883 1.08598125 -0.007278865203 0.164932847 0.9857230783
-0.03959305212 -0.2322430313 1.198501348 -0.235092327 0.06295606494 0.9692492485
-0.03456435725 -0.2369107455 1.200902224 -0.269813627 0.07659793645 0.9591613412
-0.04227931425 -0.2359667867 1.195092082 -0.2551527023 0.1060503349 0.9610283375
-0.03834268823 -0.225364387 1.196932197 -0.252591908 0.03999359161 0.9651933312
-0.03147416562 -0.2257252932 1.199307799 -0.2999608815 0.02696232684 0.9524806738
-0.03039431758 -0.2331161201 1.201421261 -0.3009634316 0.06609492749 0.9508702159
-0.0312898159 -0.2191770226 1.197739005 -0.3009189665 -0.001129521639 0.9530439377
-0.0257504303 -0.225883022 1.200869799 -0.3092061579 0.06066791713 0.9481318593
-0.03299286962 -0.2296863347 1.196699619 -0.2992230356 0.08344893157 0.9502163529
-0.1244915053 -0.1815105677 1.091683269 -0.1048313081 0.5115848184 0.8481772542
-0.1202623174 -0.1777605265 1.093769908 -0.04750644043 0.4346501231 0.8952310681
-0.06286305189 -0.2434691042 1.193000197 -0.3947960138 0.1175816879 0.9104173183
-0.06947153062 -0.2524548173 1.185630202 -0.4121415317 0.1008861437 0.9052355289
-0.06399174035 -0.2512283921 1.188824415 -0.3987423778 0.1051929593 0.9105705023
-0.07135666162 -0.2469305545 1.183161139 -0.4065759182 0.1236979514 0.904717505
-0.06671561301 -0.2498186827 1.192999959 -0.4148116708 0.1074292436 0.9032098651
-0.1396111995 -0.1355796903 1.089545012 0.04607659951 0.1640653014 0.9756516814
-0.1255110353 -0.1228268221 1.088255405 0.1323250979 -0.04366914183 0.9710404277
-0.1322481632 -0.1278322339 1.088408232 0.08355587721 0.0361039117 0.9735102057
-0.1198956743 -0.1200444624 1.088719606 0.182629019 -0.08527392149 0.9686415195
-0.1319234818 -0.1232041419 1.086532831 0.05542615429 -0.04630132765 0.9744657278
-0.1293880045 -0.1168298945 1.084563017 0.04258014634 -0.1567396373 0.9746361375
-0.1440595388 -0.1227731183 1.076946378 0.01444423664 0.04642995447 0.9895127416
-0.1347891539 -0.1220880523 1.076822519 0.005951122846 -0.01446509175 0.9843768477
-0.1341042519 -0.1630305946 1.090912461 -0.0177185107 0.1557874382 0.9864655733
-0.1347839981 -0.1566276103 1.090103865 0.02652479522 0.1197136268 0.9914835691
-0.1206890643 -0.1597258151 1.090793371 0.002396160737 0.1949731112 0.9785615206
-0.1259740144 -0.1636566371 1.091436863 -0.02295043506 0.2063612491 0.9757763147
-0.1381243169 -0.1682533771 1.092551231 -0.0266252812 0.2102318257 0.9669713974
-0.1270652711 -0.1684641391 1.09341085 -0.03548656031 0.2768973708 0.9517833591
-0.1320666224 -0.1675044894 1.092211246 -0.04050189257 0.2144791484 0.971105814
-0.132047981 -0.1752106696 1.097064734 -0.01559881028 0.3710358143 0.9054514766
-0.1322163343 -0.182499513 1.101633191 0.007884413935 0.5175171494 0.8437674046
-0.1377763301 -0.1851191372 1.103607774 0.02432812564 0.5400015116 0.8286600113
-0.1369359791 -0.1731161922 1.095832467 -0.01739580557 0.2981029153 0.9306642413
-0.1374543458 -0.177322045 1.098640084 -0.00173789449 0.3828378618 0.8948430419
-0.1501456648 -0.157562986 1.086824536 0.009522798471 0.09931102395 0.9944408536
-0.1471682787 -0.1635231674 1.086397648 0.01117096934 0.1385683566 0.9899459481
-0.1362695694 -0.152401045 1.085643172 0.02376169525 0.1458266228 0.9881904721
-0.1376387775 -0.145287931 1.085242987 0.04399428517 0.199320659 0.9788064361
-0.1428858638 -0.1458215117 1.086462617 0.04169277847 0.1968479156 0.9790270925
-0.1426524818 -0.1507128924 1.086336255 0.03812795877 0.143457517 0.9873090386
-0.1546737701 -0.1455263048 1.086707473 -0.01728484966 0.2154017538 0.9758477807
-0.1490022242 -0.1472462118 1.086885333 0.01687196828 0.1883056909 0.9801855683
-0.03971668705 -0.1162423119 1.08779633 -0.4946169555 0.1721857488 0.8507831097
-0.1326493323 -0.1593317091 1.086419582 -0.001228549518 0.1700706482 0.9849854112
-0.1413461119 -0.1697520614 1.085820675 0.05060902238 0.2962054014 0.9489207864
-0.1286383122 -0.1653799862 1.086505175 -0.01681227237 0.1988209188 0.9771360755
-0.1401536763 -0.1642540693 1.086542726 0.007192720659 0.1822169423 0.9815793037
-0.1389718652 -0.1564792246 1.086203456 0.01690287329 0.1241393238 0.9918385744
-0.0483568497 -0.1145822182 1.086216331 -0.4868907928 0.07828066498 0.8675664663
-0.04855469614 -0.1206412539 1.086974859 -0.5049815774 0.1021938771 0.856906116
-0.05296776444 -0.1142225638 1.081874251 -0.4529730976 0.04461801425 0.8897103071
-0.04282488301 -0.1212586313 1.088387847 -0.5033982396 0.12808007 0.8536059856
-0.05680277199 -0.1172059253 1.079382896 -0.4242112935 0.07945781201 0.8996829987
-0.05418580398 -0.1213130802 1.082599521 -0.4575703144 0.1156575009 0.8782386184
-0.0642799437 -0.1212880611 1.074383974 -0.3739972115 0.1282686442 0.9172711372
