# .PCD v0.7 - Point Cloud Data file format
VERSION 0.7
FIELDS x y z normal_x normal_y normal_z
SIZE 4 4 4 4 4 4
TYPE F F F F F F
COUNT 1 1 1 1 1 1
WIDTH 512
HEIGHT 1
VIEWPOINT 0 0 0 1 0 0 0
POINTS 512
DATA ascii
0.1793422401 0.07166913897 0.6228673458 -0.6234775782 -0.03412827477 0.7639145851
0.1898340881 0.07095926255 0.6355938911 -0.7323591709 -0.009082222357 0.6771339774
0.172338903 0.07141277194 0.6143448353 -0.5525398254 -0.04152522981 0.8200893402
0.1836816519 0.08002646267 0.6329106092 -0.6640792489 -0.0610868372 0.7390158772
0.1794166267 0.07792018354 0.6265756488 -0.6216160655 -0.0582440123 0.7709107995
0.1897809803 0.07968506217 0.6366029382 -0.6948804855 -0.06200436875 0.7144304514
0.1859883219 0.07542961836 0.6312673688 -0.6785191298 -0.05788320675 0.7228862643
0.1451587677 -0.007234632969 0.7182894945 -0.0409145914 0.9392458797 0.3407977819
0.1507320404 -0.00641610194 0.7145614028 -0.0409145914 0.9392458797 0.3407977819
0.1310782433 -0.002086782129 0.7172766924 -0.0409145914 0.9392458797 0.3407977819
0.1233250499 0.1253595948 0.6031352878 -0.3102260232 -0.3253100514 0.8836454749
0.1187539622 0.1291031539 0.6037430763 -0.1737063527 -0.4559882581 0.8553085327
0.1199582741 0.1220900714 0.5999600291 -0.2215965092 -0.3387815356 0.9077726603
0.1312486976 0.1003645062 0.6205801368 -0.4923140705 0.2400491834 0.7539405227
0.1280665845 0.1107347459 0.6157884598 -0.3773133159 -0.002467412734 0.7883338332
0.1325414181 0.1069747508 0.6189316511 -0.4001936018 0.08439993113 0.8315984011
0.1249058545 0.1146885455 0.6131371856 -0.3445014954 -0.09430700541 0.7687636018
0.1308048368 0.0945808664 0.6223133802 -0.569021523 0.3760144711 0.6975261569
0.1068100184 0.1281658262 0.6093446016 0.07126373798 -0.4703312516 0.8304581046
0.09519203752 0.1236962005 0.6120952964 0.204085812 -0.4100534916 0.7838695049
0.1099155992 0.1159171239 0.6139168739 -0.1018370613 -0.1773281544 0.7544551492
0.1044431254 0.1232726201 0.611477375 0.05756028742 -0.3664755225 0.7947615385
0.1150681749 0.1169454828 0.6130735278 -0.1705071777 -0.1821271926 0.7688405514
0.1196097508 0.120136641 0.6114282012 -0.2076494992 -0.2388919741 0.7965533733
0.1256692261 0.09636645019 0.6202985048 -0.5440763235 0.3298379183 0.6491082907
0.1178422943 0.1252096891 0.6095753312 -0.1285600215 -0.362005204 0.8273199797
0.124886103 0.104862988 0.6170104742 -0.4450761974 0.1316062361 0.7038565278
0.1121681705 0.1083015501 0.6167323589 -0.2144060731 0.006021786015 0.7076764107
0.1045524478 0.1174162179 0.6137802005 -0.004061366431 -0.2314151227 0.7563888431
0.1177129075 0.1051573679 0.6175031066 -0.331810385 0.09859953076 0.6951867938
0.112980701 0.1221957579 0.6111778617 -0.08468487859 -0.3104862273 0.8003000617
0.1219567433 0.1107094139 0.6149508953 -0.3402123451 -0.01353997458 0.7379937768
0.1033861637 0.08833357692 0.5927517414 -0.02736725099 0.1613360345 0.9834263325
0.1003545299 0.09339579195 0.5917509794 0.01965386234 0.08725514263 0.9883799553
0.03159821033 0.01017307583 0.7104358673 -0.05245770141 0.4002829194 0.9148889184
0.1253290027 0.1198913231 0.6018560529 -0.4150997698 -0.2397601306 0.8713435531
0.1122595072 0.1099377424 0.5942376852 -0.1473938525 -0.2111073136 0.9533755183
0.1050552353 0.1070395559 0.5926831365 -0.02083370648 -0.176210165 0.9790380597
0.1180368438 0.1167577356 0.5974626541 -0.2213957906 -0.2857432067 0.9309707284
0.139210552 0.1208356246 0.6124167442 -0.6364780068 -0.192805782 0.7393053174
0.1396418959 0.1079404727 0.6210391521 -0.4829794168 0.07508347929 0.8447915912
0.1432145834 0.117116265 0.6187669635 -0.5463721156 -0.1228911728 0.802929759
0.1517941058 0.1090353355 0.6274221539 -0.4329938889 -0.01634468324 0.8907030821
0.1492494643 0.1145136803 0.623411119 -0.4937996864 -0.107495144 0.8454021811
0.1388619989 0.1125360131 0.6184431911 -0.527338028 -0.009212190285 0.8126718998
0.1468192637 0.1084622815 0.6248676181 -0.4523557723 0.02349656262 0.8726885319
0.05951129273 0.1030431166 0.6207842827 0.6980862617 -0.0915883854 0.6685741544
0.07180418074 0.1105827987 0.614726007 0.5787347555 -0.2539846599 0.7601752877
0.07540746033 0.1170116365 0.6158545017 0.492823571 -0.3413383961 0.7972138524
0.07535014302 0.09939732403 0.6004045606 0.5867162943 -0.1402260065 0.7867054343
0.1268657744 0.08209791034 0.6220898628 -0.6020419598 0.3128847778 0.7092403769
0.1253380924 0.07447682321 0.6218348145 -0.5706748366 0.1817175895 0.7939130068
0.1435919255 0.08139584959 0.623090148 -0.6575949192 0.1821557283 0.6687169075
0.1358322948 0.07846248895 0.6225566864 -0.6206725836 0.182116285 0.7218541503
0.1522803009 0.07840324193 0.6235537529 -0.6774610281 0.06531367451 0.675354898
0.1321842968 0.08829584718 0.6225447059 -0.641675055 0.3908856213 0.6287013292
0.1468847543 0.07461216301 0.6231455207 -0.6457955837 0.03267304972 0.7307559848
0.1542608142 0.07212065905 0.6220781803 -0.5694451928 -0.03206534311 0.755857408
0.1592688709 0.07313767076 0.6238427758 -0.6821919084 -0.08136900514 0.7111251354
0.1385010034 0.071011886 0.6192302704 -0.3917434812 0.100997068 0.8382207751
0.1318543106 0.07367376238 0.6220765114 -0.5817715526 0.1240639836 0.7855741382
0.1414973587 0.06763388216 0.6151303649 -0.121666126 0.1136016101 0.9227697253
0.1465390176 0.07014671713 0.6188325286 -0.3612417579 0.04824109003 0.8361609578
0.0928318724 0.132071346 0.6085773706 0.2588474452 -0.5109226108 0.8003367782
0.09723577648 0.1207289025 0.5983197689 0.2071024776 -0.5058530569 0.8366649151
0.1005792394 0.115517728 0.5944957733 0.1387288123 -0.4012656212 0.8972331285
0.07326355577 0.08503559977 0.6020147204 0.5675078034 0.2006933689 0.7976813316
0.07519045472 0.07988259941 0.6028500795 0.5360742807 0.2906813025 0.7849190235
0.136201188 -0.01001061685 0.7144009471 -0.0409145914 0.9392458797 0.3407977819
0.142996788 -0.01069699414 0.715143919 -0.0409145914 0.9392458797 0.3407977819
0.116776675 0.0861370191 0.6133558154 -0.4557200968 0.3359384537 0.7136654258
0.1010905951 0.08798283339 0.6020408273 -0.06802026927 0.2142813653 0.8636112809
0.1114062369 0.08780279011 0.6104724407 -0.3286072612 0.2819878459 0.7513927817
0.105007492 0.09011209756 0.6073479652 -0.1789214313 0.2138455808 0.7920709252
0.09541460872 0.09053597599 0.5997528434 0.06201268733 0.1478321105 0.8930509686
0.07392069697 0.1052818596 0.609888792 0.544739306 -0.1688733548 0.7894394994
0.07855225354 0.1024931744 0.6046345234 0.4495925307 -0.1130299494 0.8499032259
0.07836150378 0.108952485 0.608756423 0.4784541428 -0.2261306196 0.8137834072
0.1630498022 0.03458406031 0.6345360279 -0.4223929048 0.5985541344 0.6614993811
0.1775497645 0.05135261267 0.6425969005 -0.6276457906 0.2980950475 0.6998761892
0.1797928065 0.04551706091 0.641582787 -0.6072499752 0.3365257382 0.6939210296
0.1682033092 0.03713497892 0.6382794976 -0.4815194905 0.5136991739 0.6721305251
0.1728359461 0.04497718811 0.6405957341 -0.5587171316 0.3990799487 0.6869674325
0.1733222753 0.03934327886 0.6394073367 -0.5280929208 0.4500111938 0.6797173619
0.1410769671 0.1027911827 0.6239295006 -0.4294542074 0.1585775614 0.883001864
0.1830941588 0.06320026517 0.641397655 -0.6607005596 0.1408551633 0.7260832787
0.1850398183 0.07452555001 0.6388013363 -0.684474349 -0.01322233211 0.7228759527
0.1882299185 0.06322044879 0.6384697556 -0.7161440849 0.1042334437 0.680732429
0.09121056646 -0.01706873812 0.7255214453 0.0359907411 0.3035276532 0.9519694448
0.09512752295 -0.007876352407 0.7273520827 0.03530355543 0.3138873577 0.9483416677
0.103800483 -0.001095166313 0.7267540097 0.04911532626 0.3015702665 0.9520754814
0.08598525822 -0.01130905561 0.7286352515 0.01781043038 0.329487443 0.9436126351
0.09921560436 -0.01547527127 0.7251737714 0.05033859238 0.3004793823 0.9524062276
0.08780297637 -0.005850767717 0.7291650772 0.01728809252 0.3294708431 0.9436344504
0.0969229266 -0.002615156351 0.7263444662 0.02849512734 0.306019038 0.9512124658
0.1130971387 0.09639959037 0.5933515429 -0.1847599894 0.04532977194 0.9785277843
0.1087219343 0.09944868833 0.5920668244 -0.1302790046 0.001688946155 0.9834091067
0.1083540693 0.08568596095 0.5944033265 -0.1779508442 0.2573466897 0.9171416759
0.1118635908 0.09042185545 0.5942460299 -0.2001197487 0.1634100378 0.9431193471
0.1173011363 0.08977298439 0.5965752006 -0.4372276068 0.274307996 0.8155479431
0.1288887858 0.1100058556 0.6003494859 -0.5775942802 -0.08114793897 0.7848504186
0.1081916168 0.1164223403 0.5952088833 -0.02742563747 -0.3504582644 0.9310625792
0.1086711287 0.1219762191 0.5978018045 0.01428102423 -0.4534619451 0.8825967908
0.1088240743 0.1276856661 0.6009233594 0.01756770909 -0.5324137807 0.8424674273
0.1145938113 0.1237021163 0.6000603437 -0.112641491 -0.4435630143 0.8872702718
0.1289671212 0.1232212409 0.6054964662 -0.5119092464 -0.2546979189 0.8012878895
0.1307599545 0.1167277768 0.6040503979 -0.6022876501 -0.1690521389 0.7642794847
0.1280580163 0.1265858114 0.6095117927 -0.3224051297 -0.3434578478 0.8273293376
0.1337603778 0.1243880838 0.6111436486 -0.5409097672 -0.2467807531 0.7618024349
0.1354912668 0.1179660857 0.6145300269 -0.5368533134 -0.112661317 0.7855737805
0.1296952069 0.120610714 0.6126649976 -0.3197819889 -0.2184059918 0.8490608335
0.1236921623 0.1297952086 0.6068230271 -0.1926624477 -0.4409181476 0.8653740883
0.1469195932 0.07042006403 0.6114891171 0.04000707716 -0.04197598249 0.9728539586
0.1573084295 0.07006087899 0.6087352037 -0.2487618476 -0.02254128829 0.918410778
0.1518524587 0.07201535255 0.6102288961 -0.09680838883 -0.08365023136 0.9452720881
0.08372949809 0.1157251373 0.6011779904 0.4190358818 -0.3628566265 0.8306096196
0.08475527912 0.123175472 0.6037741899 0.3584335446 -0.4231796861 0.8261176348
0.08949311823 0.1192882583 0.6015377045 0.2920800745 -0.4507384896 0.8397063017
0.08002713323 0.1224221885 0.6059892178 0.4646239281 -0.3815747797 0.7984802127
0.05860580131 0.1135250926 0.620960772 0.6105041504 -0.1886292547 0.7422630787
0.05692691728 0.09170489013 0.6188679338 0.8137271404 0.03134966269 0.5759106278
0.06299031526 0.1176536307 0.6216699481 0.5478519797 -0.2505498528 0.7970671058
0.07118939608 0.1201031506 0.6200603247 0.491781801 -0.3211939633 0.7970998287
0.08505021036 0.132784903 0.6134786606 0.3767642081 -0.4834132791 0.7873378396
0.07994060963 0.1284651011 0.6169043183 0.4078769386 -0.4154534638 0.7970253229
0.07806421816 0.1220389605 0.6174637675 0.4406611919 -0.3762806654 0.8045127392
0.1024983078 0.131590575 0.6109831333 0.1379494965 -0.5059332252 0.8218937516
0.09560871124 0.131827414 0.613135159 0.2425784767 -0.5081220269 0.8085336685
0.1137783751 0.1315918118 0.6037054658 -0.06649142504 -0.5511567593 0.8295768499
0.1040984616 0.1312334388 0.6050910354 0.06631712615 -0.5399175882 0.821918726
0.08563427627 0.1271219403 0.6155250072 0.3811199665 -0.4510346353 0.8002167344
0.06901476532 0.1146710292 0.618904829 0.5344982147 -0.2771213055 0.794847548
0.06659959257 0.1096885949 0.6177207828 0.6039569378 -0.2122303843 0.7619408965
0.09142256528 0.1090107635 0.6125336885 0.195320338 -0.1747612208 0.769004941
0.08690518141 0.1091869771 0.6090196371 0.3018213511 -0.2014318258 0.8128675818
0.08307787031 0.1137516573 0.6098190546 0.4058649838 -0.298650533 0.8132520914
0.09639698267 0.09618727863 0.6056008339 0.03853858635 0.06805183738 0.8259007335
0.09176581353 0.09623590112 0.6018853188 0.1473092437 0.04294086248 0.8719679713
0.08553954959 0.1000414863 0.6000893116 0.3052427769 -0.05403051153 0.9027480483
0.1137180701 0.09284055978 0.6167901158 -0.3781753182 0.2154575288 0.6799657941
0.09895000607 0.098491624 0.6096429825 -0.01413118839 0.04249705374 0.7810881734
0.102081418 0.1020099297 0.6151927114 -0.07656926662 -0.0005406911368 0.7203599811
0.09050416201 0.1012845933 0.6051801443 0.1926924437 -0.0490016751 0.8425754905
0.09439018369 0.1030222028 0.6098189354 0.1069858819 -0.05798715726 0.7891072035
0.09676132351 0.1052777395 0.6136717796 0.05842901394 -0.08367080986 0.7465263009
0.08383092284 0.1050395742 0.6029782295 0.3609509468 -0.1474621296 0.8782622814
0.1060191169 0.09804475307 0.6149955988 -0.1813265383 0.08712498099 0.7138741612
0.08793708682 0.1153113171 0.6141631007 0.3107446134 -0.2816508114 0.7622365355
0.08239471912 0.1190057099 0.6126896739 0.4468073845 -0.3952754736 0.7838864326
0.1040161848 0.1082960889 0.613997817 -0.02226799726 -0.07838870585 0.7157737017
0.1073062867 0.1022361517 0.6179989576 -0.1664662361 0.07907629758 0.6895691156
0.111832127 0.09792986512 0.6185725927 -0.297582984 0.1554172486 0.6715540886
0.1216823831 0.09304776043 0.6207870841 -0.5124368668 0.3447585702 0.6365341544
0.1265525073 0.08897469193 0.6215250492 -0.6447211504 0.4298030138 0.6176718473
0.08917661756 0.1248208433 0.6101897955 0.3493831456 -0.4899121523 0.7961108088
0.1026652381 0.1200339422 0.5965544581 0.1201178432 -0.46363011 0.8716862798
0.09629230946 0.1252859086 0.6017734408 0.2250188589 -0.514349401 0.8213979602
0.1016754508 0.1255954206 0.6007704735 0.1539834887 -0.5281714201 0.8305857778
0.09867885709 0.1293616742 0.6048412323 0.1947880834 -0.5233314633 0.8170919418
0.08888895065 0.1277665645 0.604475677 0.3148558438 -0.4772895575 0.8103123903
0.0836892575 0.1304114908 0.6069759727 0.3768386543 -0.4486979842 0.8018403649
0.09088473022 0.1193283647 0.6089344025 0.3232905269 -0.4083068371 0.7761390209
0.09859418869 0.1177174821 0.6128586531 0.1149453521 -0.2807990015 0.7563824058
0.09922213107 0.1123488173 0.6118192077 0.1081340834 -0.2041068971 0.7381789088
0.07616270334 0.06504297256 0.6119382381 0.570276916 0.4366661906 0.6937859654
0.06160840392 0.09239810705 0.6132603288 0.7610740066 -0.0004468231054 0.6417096853
0.1060926542 0.0659390837 0.6044259667 0.1468036771 0.3621594608 0.9038006663
0.119853355 0.05939654633 0.6125462651 0.245043382 0.2910836935 0.9144569039
0.1091149747 0.07173813879 0.602188766 -0.2044499367 0.5584076643 0.7573974729
0.1035763696 0.07101536542 0.6007852554 -0.07106965035 0.4887537062 0.8220967054
0.1123603433 0.06492632627 0.6070315242 0.09019002318 0.3873831034 0.8682160974
0.09694877267 0.06992895156 0.5992287993 0.09994950891 0.3989186585 0.9040706158
0.1257904023 0.07223231345 0.606431365 -0.1105592474 0.283769697 0.8515933752
0.1327471286 0.06653244048 0.6109692454 0.1370879412 0.1334884167 0.9472151399
0.1248672605 0.07943579555 0.6036173701 -0.3262445629 0.295332104 0.790256381
0.1189540848 0.08477123082 0.5997585058 -0.5522823334 0.4284155667 0.7028512955
0.125025034 0.08475782722 0.6011297107 -0.5011800528 0.3067221642 0.747215271
0.1313374341 0.07239522785 0.6081159711 -0.06035207585 0.1707893014 0.8895093203
0.1387415379 0.06805789471 0.6102982163 0.03374069184 0.1381308436 0.9461377263
0.01776078157 0.0574965924 0.6937081814 0.6265312433 0.5259159207 0.5725874305
0.02366551757 0.05227354169 0.69205755 0.6038172245 0.5462349057 0.5729845166
0.02431224659 0.0469302088 0.6928539872 0.4956635535 0.6429846287 0.5748754144
0.01703357324 0.04833485186 0.6928258538 0.5169143081 0.6239746213 0.574503839
0.01758659258 0.04268220067 0.693500042 0.4248407185 0.6974570751 0.5750716925
0.0296361763 0.02244722284 0.7039715052 -0.05245770141 0.4002829194 0.9148889184
0.02334423363 0.02079302073 0.7050542831 0.1161092743 0.5587776303 0.7769517303
0.01993725635 0.02609175257 0.7018922567 0.2349909544 0.6705558896 0.6796716452
0.02628924511 0.0158236064 0.7078541517 0.01673179679 0.4653382003 0.8582716584
0.1033484563 0.06628548354 0.6219345331 -0.1300147623 0.2026326358 0.7950549722
0.08557361364 0.06365710497 0.6156070232 0.3299552798 0.3995202482 0.7347077727
0.09084311128 0.06422960758 0.6161625981 0.2044883519 0.3601890802 0.7546485662
0.1009603143 0.06520504504 0.6164388657 -0.02988013253 0.2960722148 0.7941614985
0.0882222876 0.06546896696 0.6217426658 0.2136012614 0.3078638315 0.7298589945
0.1082118675 0.0682753399 0.6224443913 -0.2577344775 0.1966125816 0.7995553017
0.09745925665 0.06743811071 0.6222352982 -0.01086586714 0.2673895359 0.7556576729
0.1130787134 0.07165630162 0.6232908368 -0.3992442787 0.2133957893 0.7908163667
0.1196802631 0.07181597501 0.6232905388 -0.5372225046 0.1680529267 0.8230984211
0.1315293163 0.02985127643 0.6339508295 0.0895473212 0.6337233782 0.7663881183
0.131843254 0.03275698796 0.6290225387 0.08283928037 0.6358862519 0.7672347426
0.1260914505 -0.01081206743 0.7135682106 -0.0409145914 0.9392458797 0.3407977819
0.1292686015 -0.006243228447 0.7145527005 -0.0409145914 0.9392458797 0.3407977819
0.09407818317 0.09424179047 0.5922899246 0.1619849652 0.03005651571 0.9839479923
0.08832749724 0.09025559574 0.5944660902 0.270421505 0.09638289362 0.949411869
0.09423496574 0.08791317791 0.5935103893 0.133875668 0.1517727524 0.9737157822
0.08495417237 0.08134495467 0.5971876979 0.3462104797 0.2578715384 0.8964852095
0.07897724211 0.08042754978 0.5986599326 0.4844346344 0.2548960149 0.8347904682
0.07860454172 0.0947598964 0.597876966 0.4940961599 0.0175315477 0.8659064174
0.09243218601 0.08243358135 0.6013743877 0.1516873091 0.1882307082 0.8999271989
0.1030251831 0.0791952312 0.6092581153 -0.1245233193 0.1906648576 0.8704754114
0.1091577932 0.07714823633 0.6142905354 -0.2853197753 0.191047743 0.8493939638
0.09248067439 0.07959413528 0.5963229537 0.1776863337 0.3068856299 0.926147759
0.07627914846 0.09155337512 0.6037291884 0.5028032064 0.06665491313 0.828333199
0.06926158816 0.1000383347 0.6113719344 0.6252002716 -0.08596086502 0.754224956
0.08234716207 0.08763559163 0.597697854 0.4010329545 0.133905232 0.894080162
0.1561329514 0.06659621745 0.6179503798 -0.3171450198 0.05727735534 0.8305533528
0.1652003676 0.07085580379 0.6231597662 -0.6457484365 -0.07527140528 0.7107365131
0.1570848972 0.06074217334 0.6178826094 -0.3615999222 0.2300150841 0.799654603
0.1482128799 0.06394850463 0.6110342741 0.04772549495 0.1249178946 0.9858307242
0.1626586467 0.06505022943 0.6079627872 -0.2054009289 0.07675039768 0.9633911848
0.1773983985 0.06592060626 0.6224095821 -0.4770360887 0.06232359633 0.814406693
0.166887477 0.06786240637 0.6095064878 -0.3782310486 0.01907155663 0.899728775
0.1859312952 0.05698443577 0.6390858889 -0.7157680392 0.2227153182 0.657397151
0.1719331294 0.06132084876 0.6170608997 -0.3567619026 0.141164124 0.8654492497
0.1667924076 0.05921841413 0.6121108532 -0.2537829578 0.1802096367 0.916675508
0.1791700721 0.06169370189 0.6264559627 -0.5362888575 0.151768297 0.7621869445
0.1835675985 0.06341934204 0.6307587624 -0.6253532767 0.1202141196 0.7174893022
0.1745752841 0.0595989041 0.622233808 -0.4471263885 0.1921331137 0.8053768873
0.1831142306 0.05915790424 0.6341454387 -0.6707196832 0.2269745469 0.672929883
0.165024206 0.05725687742 0.6182197928 -0.5166988969 0.2982120216 0.7561277151
0.1094652489 0.08089398593 0.5963983536 -0.2847054601 0.388646543 0.8531720638
0.114054054 0.08446026593 0.5966483355 -0.4513737559 0.4298095405 0.7782476544
0.1039265394 0.07644630224 0.5965132713 -0.09425671399 0.3568486869 0.9239097834
0.09845925868 0.08345267177 0.5943527222 0.03892651573 0.2344153076 0.96500808
0.09802600741 0.07697691023 0.5966628194 0.05977471918 0.3517124951 0.9258591533
0.09317544103 0.07360566407 0.5982692242 0.1788542122 0.3789441884 0.9036870599
0.08996049315 0.0653950572 0.6053417325 0.297909826 0.4743895829 0.8130570054
0.101008594 0.05915946141 0.6145191193 0.4041883945 0.3813823164 0.8128231168
0.1013300866 0.06382208318 0.607383132 0.249892965 0.4056541324 0.866758585
0.1067505553 0.05857634544 0.6152272224 0.3730739653 0.3478457034 0.8422966599
0.1130074486 0.06675416231 0.6202112436 -0.3264901638 0.1716130376 0.8362276554
0.1147945896 0.0573614575 0.6181996465 0.3129778504 0.2839963138 0.8685744405
0.0945128873 0.0613049306 0.6135156751 0.3467413485 0.4055142403 0.7800789475
0.1204963401 0.06466817111 0.6217719316 -0.2942191362 0.1353150308 0.870613575
0.08309163153 0.06247200817 0.6105956435 0.4405886531 0.4882828295 0.733103931
0.1085528582 0.06319725513 0.6179969907 -0.004925287794 0.2584931552 0.8287950754
0.09804159403 0.06629256159 0.6038251519 0.2016447335 0.423242718 0.8758431673
0.1098689511 0.0609604381 0.6115106344 0.2692097127 0.3415091336 0.8888872266
0.1695933342 0.07668750733 0.6160226464 -0.5363162756 -0.1129899547 0.818955183
0.1737270355 0.07632048428 0.6197822094 -0.5724591613 -0.07058255374 0.8036903739
0.1665514559 0.08090663701 0.6174689531 -0.5212781429 -0.2138411254 0.8032501936
0.1716538817 0.08043926954 0.6220943332 -0.565849185 -0.1612427533 0.7845057845
0.1760853678 0.08248709142 0.6287292242 -0.6117411256 -0.1588346213 0.7514882684
0.140351668 -0.005635675974 0.7222753167 -0.03910892084 0.9267526269 0.3527458906
0.1248365864 -0.0001350141538 0.7184452415 -0.03941547498 0.9288736582 0.3507174253
0.1345591247 -0.003606458427 0.7213295102 -0.03325352073 0.8862397075 0.3914910257
0.1035550311 -0.007322584745 0.7202672958 0.05156549439 0.2993852496 0.9527378678
0.1550560445 0.08860483766 0.6166847348 -0.1482636034 -0.3360104859 0.9165905714
0.12830773 0.1038000211 0.5983174443 -0.5950284004 0.04162370414 0.7842959762
0.1221667975 0.1050472111 0.5965217352 -0.4623104632 -0.03178099543 0.8701472878
0.1223711297 0.1103919894 0.5971983671 -0.372623235 -0.1489478052 0.901224792
0.1172626391 0.1086682975 0.5950550437 -0.2491958886 -0.1590914279 0.9515823722
0.07919517905 0.1107249334 0.6023591757 0.5000043511 -0.3197841346 0.8047504425
0.07406862825 0.107264325 0.6031256318 0.5694031119 -0.2673602104 0.7739568949
0.0724182874 0.1127410233 0.6058471203 0.5327838063 -0.3009311855 0.7871783376
0.06551672518 0.1178660691 0.6101277471 0.5497398376 -0.2757064402 0.7866100073
0.06648619473 0.1088212058 0.6088160872 0.6150112152 -0.2080356628 0.7488259673
0.06231016666 0.1130969599 0.6126123071 0.6108535528 -0.2048665732 0.7489769459
0.07126317173 0.1012559012 0.6044341922 0.6403713226 -0.1900624335 0.7355114222
0.07216963917 0.1243599281 0.6101391315 0.4800115228 -0.3696647882 0.7949060202
0.07762349397 0.1163792461 0.6050141454 0.490478456 -0.3438663483 0.7997928858
0.0760371536 0.1298457086 0.6095029712 0.4614135027 -0.3978977799 0.7925993204
0.07079998404 0.09379986674 0.6036189198 0.6402125955 -0.01092548855 0.7597494721
0.05962066352 0.1182615459 0.616186738 0.5837498903 -0.225735724 0.7616378665
0.06118542328 0.1067813486 0.6136679649 0.6667652726 -0.1419316977 0.7088349462
0.06216016784 0.09834489226 0.6126748919 0.725037396 -0.08256343007 0.67218256
0.09348259121 0.1160599068 0.5974388123 0.2604147494 -0.4450646043 0.8556183577
0.09187194705 0.1093845293 0.5946728587 0.3079506159 -0.336172998 0.8784742355
0.0999795571 0.09921224415 0.5917581916 0.0572276935 -0.04056776688 0.9773902297
0.1005938873 0.1101525649 0.593190968 0.1040338278 -0.2761115432 0.9484988451
0.09623823315 0.1062850058 0.5927234292 0.1789440513 -0.2245066464 0.9552285075
0.08874779195 0.1047068462 0.5947219133 0.3493424058 -0.243124634 0.8947966099
0.09255064279 0.1000467539 0.5930534005 0.2113601416 -0.09313646704 0.9642356634
0.08610966802 0.09600903094 0.5948691964 0.2912138999 0.003713550512 0.9532164335
0.07081266493 0.08883368969 0.6064496636 0.6090165377 0.1315162033 0.7587231994
0.06808141619 0.08797093481 0.6110742688 0.658931911 0.1554884911 0.6946530938
0.06714563817 0.09414586425 0.6126016378 0.66683954 0.03668155894 0.7055812478
0.0676279068 0.08398991823 0.6076831818 0.6682990193 0.2385920882 0.7018963695
0.1063695699 0.07208254933 0.6182809472 -0.2062183022 0.2635423839 0.7814127803
0.1044085994 0.07412318885 0.6133944988 -0.1589530855 0.2704235017 0.823761642
0.09712065756 0.07483487576 0.6078181267 0.03300195932 0.3085032105 0.8392554522
0.08427044004 0.07001395524 0.6091114283 0.3858651221 0.3867022991 0.7411254644
0.0926149711 0.07561188191 0.6037535071 0.1508767754 0.3314322233 0.8557928205
0.09506452084 0.07111171633 0.6134301424 0.09646128863 0.326387167 0.7626073956
0.08986400813 0.07116372883 0.6102856994 0.2345167249 0.3543894589 0.7642517686
0.06254002452 0.09811964631 0.6187610626 0.7030983567 -0.06633066386 0.6804353595
0.05742738768 0.08641599119 0.6219426394 0.7929748893 0.08861916512 0.5939243436
0.06551300734 0.102269195 0.6156961918 0.6775068641 -0.1292678267 0.714953959
0.06108590961 0.08604019135 0.616692543 0.7388051748 0.1712784022 0.638510704
0.1387038678 0.03982945532 0.6213545203 0.0464926213 0.5495557785 0.8277149796
0.1352757365 0.04529709741 0.619186759 0.1264840961 0.4368433058 0.8890194297
0.1537271589 0.04387150705 0.6199834943 -0.1037709862 0.5286875963 0.8419418335
0.1464202702 0.04305290058 0.6179971099 -0.027448982 0.5143350959 0.8549813032
0.1525162756 0.0570541285 0.6162576079 -0.2160383165 0.3008351028 0.8488386273
0.1503758878 0.05403985828 0.6122214794 -0.02444660291 0.3104201555 0.939493835
0.146624893 0.04940728471 0.6149492264 0.006824058946 0.4008153379 0.907908082
0.1561733335 0.05141761526 0.6135479808 -0.1120913252 0.3728016615 0.9038414955
0.153967157 0.05851583928 0.6099581718 -0.05037064105 0.2158685476 0.9657594562
0.1141650379 0.07680139691 0.6009939909 -0.3999878466 0.517572403 0.7246299982
0.1166214719 0.07534091175 0.6197599769 -0.4788429737 0.2000737488 0.820323348
0.1149734929 0.08045753092 0.6148605347 -0.4220549166 0.2602063715 0.7898420095
0.1080167517 0.08111497015 0.608299613 -0.2421773672 0.2298290581 0.8615236282
0.1220541224 0.085229747 0.6178690195 -0.5895859599 0.3649742603 0.6648249626
0.1026327014 0.08153320849 0.6032829881 -0.1032228768 0.2050898224 0.9178670049
0.1196328923 0.08035060763 0.6190299988 -0.5415784121 0.2850770354 0.7386421561
0.02573190629 0.03883388266 0.6952870488 0.3620856106 0.7281154394 0.5789109468
0.04129031673 0.02421076782 0.7081317902 -0.05992504209 0.3968075514 0.9147638679
0.1255924106 0.04844983295 0.6225323081 0.3238081038 0.3648061156 0.8616631627
0.1243839413 0.05383521318 0.6211752892 0.2361463308 0.2702699304 0.8970496655
0.1300607026 0.04494446516 0.6218972206 0.2444711924 0.436380744 0.8589100838
0.1296078861 0.05094324425 0.6192741394 0.2495110482 0.3207907677 0.9045162201
0.1273302287 0.04128970206 0.6255030632 0.2586541772 0.5099535584 0.8107056022
0.13282758 0.03862175345 0.624397397 0.1205307841 0.5725660324 0.8061906099
0.1580871344 0.02879812941 0.6345826983 -0.2422537208 0.64219594 0.7111410499
0.1696705073 0.06263200194 0.6289960742 -0.6826511621 0.1808883399 0.6808326244
0.1732047647 0.06339994073 0.6344627738 -0.6956067681 0.1685939729 0.6803068519
0.1686791927 0.06901860237 0.6271144152 -0.7014077306 -0.0148695372 0.6864382029
0.1655107141 0.06174866855 0.6225607395 -0.6674720049 0.194739297 0.6814684272
0.1718243212 0.06827289611 0.6320182681 -0.7062823176 0.02078775689 0.6860203147
0.1745115966 0.07324942946 0.634912312 -0.6797059178 -0.02239537239 0.7242126465
0.1770233065 0.06545345485 0.6399260163 -0.6949070096 0.154632315 0.6935891509
0.1789838225 0.07230854779 0.6408002973 -0.6570041776 0.04329878092 0.7457286716
0.1587480903 0.04696324468 0.6185607314 -0.1968795359 0.4436957836 0.8525730968
0.1746821404 0.05307327956 0.6307263374 -0.5976353288 0.3378232121 0.6951575279
0.1699982882 0.05159539357 0.6274290681 -0.5604388118 0.3718441725 0.7118512392
0.1655612588 0.04748024046 0.625202775 -0.4721690416 0.4291636944 0.749617517
0.1848187596 0.04945220053 0.64267838 -0.6636294723 0.260001719 0.7007046938
0.1793611348 0.05369441211 0.6347907186 -0.6406897306 0.2989422977 0.6828325391
0.1779592335 0.04870852455 0.6364631057 -0.5944339633 0.3207468987 0.7184827924
0.1585635245 0.05541642755 0.6196911931 -0.453807205 0.348864764 0.7456283569
0.1504763812 0.05194995925 0.6196060777 -0.2539235651 0.3742892742 0.7914101481
0.142312929 0.04953826219 0.6182774901 -0.02041302621 0.3854771852 0.8623313308
0.1620936096 0.05297308043 0.6142651439 -0.2962090075 0.3116966784 0.87063694
0.1628335267 0.0581086874 0.608615756 -0.1983343661 0.2021363825 0.9449471235
0.1797480285 0.05925215036 0.6430295706 -0.6627891064 0.2039853483 0.7147946358
0.03593729436 0.0161388237 0.7081843615 -0.05245770141 0.4002829194 0.9148889184
0.0513757579 0.01725237817 0.7129826546 -0.05911302939 0.3721548021 0.9251775146
0.06635110825 0.005692776758 0.7179659009 -0.03027026542 0.3472995758 0.9355967641
0.04192636907 0.01843998954 0.708717525 -0.05347388238 0.3962270319 0.9163703322
0.05501430854 0.01257518679 0.7162011862 -0.04515246302 0.373696208 0.9253486991
0.06712017953 0.001551474095 0.7222058773 -0.01561375521 0.3607825041 0.9315276742
0.08418093622 -0.006544773467 0.7245784402 -0.001942994772 0.3164631128 0.9482747316
0.08108387142 -0.00770046562 0.7293964028 0.004990960471 0.3403371572 0.9401861429
0.07148353755 0.0008629641379 0.7195343375 -0.01699927077 0.3400159478 0.9388361573
0.04686333984 0.01440737024 0.7114262581 -0.04326057807 0.3906976283 0.9189347029
0.07675689459 -0.0009536969592 0.722215414 -0.01571617089 0.3292605579 0.9429634809
0.07814919204 -0.004313923419 0.7265659571 -0.00473880861 0.3392747343 0.9400237799
0.06145947799 0.01012569573 0.7167747617 -0.04230254516 0.3551898003 0.9322081208
0.1301180869 0.06581805646 0.6177225113 -0.1923460513 0.1264686882 0.9454850554
0.1251287609 0.06709714979 0.6198313236 -0.3172339499 0.1371620595 0.9161906242
0.1587882191 0.09245187044 0.6220552921 -0.4721357822 -0.2844681442 0.8085653782
0.1535669863 0.1028164402 0.625341773 -0.3776139319 -0.04428746924 0.9183719158
0.1408128738 0.09792468697 0.6207974553 -0.4830030203 0.1553645134 0.8521506786
0.1526228338 0.09264950454 0.6203372478 -0.3588301241 -0.1594978571 0.8732661605
0.1364415884 0.0911166966 0.6216570735 -0.5402588844 0.2472186387 0.700129807
0.1461066604 0.09461404383 0.6207223535 -0.4221787155 0.0257009957 0.845587492
0.1473558992 0.1020398736 0.6238144636 -0.4004867077 0.06074146554 0.9064440727
0.1721994728 0.08912758529 0.6286250353 -0.5935477614 -0.2496093661 0.742431283
0.1705189198 0.07418902963 0.6292197108 -0.6886624098 -0.1015442684 0.7122041583
0.1633672267 0.0849121958 0.6223243475 -0.5545238853 -0.328510344 0.7497444153
0.1676490903 0.08086589724 0.6270130873 -0.602855444 -0.2194682062 0.7421042919
0.1724042445 0.07981174439 0.6330320239 -0.6101949811 -0.1372707337 0.7551147342
0.1790468693 0.07806819677 0.6394839883 -0.6501057744 -0.01265972946 0.7594704628
0.1234013438 -0.004995696712 0.7141048908 -0.02931161784 0.8589660525 0.4175745845
0.08960815519 -0.009100467898 0.7237144709 0.01279934216 0.3076422513 0.9511514306
0.09548491985 -0.008022964001 0.7218307257 0.04760125279 0.300229609 0.952575624
0.09426210076 -0.01317429356 0.7216379046 0.04127747566 0.3015765548 0.9523168802
0.141795069 0.08520685136 0.6054962277 -0.3464322388 0.01216470916 0.8264866471
0.145142138 0.08794696629 0.6020699143 -0.618473053 0.09988896549 0.7524704933
0.1468297392 0.07612898946 0.6104008555 -0.04334866256 -0.1273976862 0.9417684674
0.1504229307 0.08625939488 0.6098411083 -0.3071329296 -0.1554837823 0.8660567403
0.1546456069 0.08146064728 0.6070527434 -0.4351319075 -0.06515535712 0.8440489769
0.1408738345 0.09154405445 0.6012317538 -0.6447238922 0.1277212501 0.7280142903
0.1620868444 0.07444307208 0.6059938073 -0.4986328781 -0.03196503222 0.8538062572
0.1367924809 0.09500464797 0.6007720232 -0.6536400318 0.1435249597 0.7095602751
0.1570508927 0.08660079539 0.6211066246 -0.4167577922 -0.2175757289 0.8163515925
0.1489963084 0.08389835805 0.6225934029 -0.5928096771 0.06950145215 0.6995633245
0.1583071351 0.08019179851 0.6229148507 -0.5951152444 -0.08776030689 0.7255794406
0.1478976011 0.08907063305 0.6211412549 -0.4498661757 -0.03296703473 0.7720433474
0.1412702799 0.08805674314 0.6220033169 -0.5582718253 0.1723205298 0.6952514648
0.1430996507 0.09176041931 0.6070896387 -0.4039745629 -0.06450162083 0.8088999987
0.1470711082 0.091766119 0.6105166674 -0.2781300247 -0.1863425672 0.8718429208
0.1592697054 0.08076622337 0.6141638756 -0.2178982794 -0.2394807041 0.935569346
0.1633295268 0.08480220288 0.6156989932 -0.4772400558 -0.2510613799 0.82012707
0.1646630913 0.07800188661 0.6113577485 -0.4948768318 -0.1586134583 0.8378166556
0.1215367466 0.09438288957 0.5973912477 -0.5099278092 0.2062985152 0.7897552848
0.11539267 0.1035393625 0.5937958956 -0.2384565622 -0.07567242533 0.9632355571
0.1189648286 0.09943146259 0.5953987241 -0.3492524922 0.03078518063 0.9173986912
0.08420557529 0.1080426276 0.5979144573 0.4308567643 -0.3224663734 0.8407428861
0.08195242286 0.1024877802 0.5971769094 0.4635811448 -0.2281072885 0.8436695337
0.07032228261 0.1298814714 0.611785531 0.4797585011 -0.3608652353 0.7965039015
0.06190362945 0.1241497174 0.6170554757 0.5253877044 -0.2939313054 0.7964980006
0.07449764758 0.1286087036 0.6153202653 0.4545917809 -0.3868928254 0.7895006537
0.06822495162 0.1265486032 0.6154266 0.4936739802 -0.3409537375 0.7954406738
0.07242552936 0.07618885487 0.6068065763 0.5968276262 0.3631757796 0.7122588754
0.06313786656 0.0812100023 0.6150832176 0.7008628249 0.271181047 0.6590428352
0.05766591802 0.07939141244 0.6239387393 0.7353724837 0.2382816672 0.623978734
0.06154941767 0.07547261566 0.6199753284 0.6995957494 0.2960834205 0.6485907435
0.06138524786 0.06883209199 0.6277135611 0.673065722 0.3277664185 0.6624570489
0.05951343849 0.07377677411 0.6253346801 0.6882660389 0.3160050213 0.6526926756
0.06463635713 0.0647264123 0.6269553304 0.6512878537 0.3624163568 0.6660314798
0.141154021 0.04466717318 0.6199955344 0.0750311017 0.458057344 0.8717995286
0.1525876373 0.03914745525 0.6247377992 -0.07775764167 0.5847616196 0.7984310389
0.1464929432 0.03656585142 0.6231634021 -0.03047678992 0.6156493425 0.7853478789
0.1625010073 0.05190884694 0.6232555509 -0.5177135468 0.4132127166 0.6999149323
0.1599895358 0.04691993073 0.6247297525 -0.3801406026 0.483168751 0.7235703468
0.1683121026 0.05658776313 0.6294252276 -0.6089361906 0.3274253905 0.6879960895
0.1660555154 0.05663652718 0.6244255304 -0.6352342367 0.340061456 0.6809877157
0.1648520529 0.0492826663 0.6320589781 -0.4051146209 0.4285900295 0.7232798338
0.1689289659 0.05394617841 0.6344602108 -0.5147979259 0.3530995846 0.7063049078
0.1722656041 0.05711442232 0.6373304725 -0.5831118822 0.2985033393 0.6964569092
0.1625613272 0.04395636544 0.6325579286 -0.3000304699 0.4926527143 0.747651577
0.1701454073 0.04918409139 0.6386311054 -0.4700359404 0.3761112988 0.7284388542
0.1180381402 0.06549063325 0.6078082323 -0.04175949469 0.4438822567 0.8167369366
0.1354471296 0.05070678145 0.6162195206 0.1656737775 0.314235568 0.9294381142
0.1267595589 0.05931254476 0.6196506023 -0.1593273282 0.2063431591 0.9351452589
0.1312714219 0.05719233304 0.6182303429 -0.08804971725 0.2488796264 0.9341879487
0.1271081865 0.06680148095 0.6088004708 -0.01967991889 0.27736637 0.8772426844
0.1188094914 0.07093006372 0.6046091318 -0.2584851682 0.4524052441 0.7767105699
0.1275654733 0.06132738292 0.6101396084 0.008291361853 0.3245367706 0.8811873794
0.1318473965 0.05713195354 0.6127072573 0.1277154982 0.2598106563 0.9296431541
0.1355393827 0.06083303317 0.6130639911 0.1897521466 0.1474204361 0.9669081569
0.1439421028 0.05436359718 0.6136534214 0.05507947877 0.3195192516 0.9434916377
0.1423095465 0.05978893489 0.6136168838 0.02357928827 0.220594272 0.9625121951
0.02798897028 0.02913661301 0.7007941008 0.09098643064 0.535155952 0.797509551
0.03434236348 0.0293718148 0.7021436095 -0.02329404466 0.42918697 0.8884165883
0.03580353782 0.02431666106 0.7071918249 -0.05711119995 0.401088655 0.9095852971
0.01965508237 0.03546812013 0.696161449 0.3455968201 0.7317039371 0.5861148834
0.02505577914 0.03274616227 0.6983630657 0.3041906059 0.7264005542 0.6145100594
0.1352247894 0.02611085586 0.636212647 0.05065744743 0.6469726562 0.7605933547
0.1486659199 0.02092225477 0.6411433816 -0.01594466344 0.6532155871 0.7568697929
0.153598249 0.02384402975 0.6387330294 -0.1222527474 0.6480702162 0.7338634729
0.1427836567 0.02114057913 0.6417574286 0.009082214907 0.6613773704 0.749876976
0.1365188807 0.03051097691 0.6321896911 0.06444686651 0.6424431205 0.7605737448
0.147506237 0.03284140676 0.6288220286 -0.01866049133 0.6482002735 0.7574982643
0.08674064279 0.07362355292 0.5996192694 0.3100121021 0.3969032168 0.8599759936
0.08559433371 0.06887516379 0.6025421023 0.3371235132 0.4529088736 0.8209946156
0.07868371904 0.07457071543 0.6032792926 0.4825616777 0.375774771 0.78263098
0.07910927385 0.06918337196 0.6064785719 0.505787313 0.4303041399 0.7407773137
0.1666028798 0.09125623107 0.6302266717 -0.5098869205 -0.1162801683 0.8262429237
0.1595728248 0.09815553576 0.6268633604 -0.4262207448 -0.126976341 0.8753237724
0.1663537323 0.08724337071 0.6260462403 -0.536816299 -0.2829075456 0.7727118731
0.1531898975 0.1089391187 0.6211721301 -0.5563573837 -0.1908412874 0.8008066416
0.1582318842 0.1053621098 0.6249350905 -0.5185621381 -0.195123598 0.8278446198
0.1577429175 0.1082532182 0.629952848 -0.4268895388 -0.06696490943 0.8991382122
0.1623028964 0.1033330262 0.6313735843 -0.4710239172 -0.07707788795 0.8703218102
0.1702922136 0.09516400099 0.6351260543 -0.534390986 -0.05686207488 0.8321077228
0.165907681 0.09665145725 0.6271290183 -0.5464189649 -0.236936897 0.7909248471
0.1795543283 0.08656731248 0.6344966888 -0.6499096751 -0.1151660532 0.7391325235
0.1747756153 0.09024593979 0.6342411637 -0.6009733677 -0.1186971515 0.7818374634
0.1824248731 0.08310914785 0.638666749 -0.6513783336 -0.06558378786 0.7534605861
0.1277906895 -0.004822841845 0.7220689654 -0.00581967365 0.6964276433 0.5730205774
0.1158605218 4.872701538e-05 0.7233530283 0.04400229827 0.3517142832 0.9026922584
0.1095969155 -0.00584531296 0.7230188251 0.05156549439 0.2993852496 0.9527378678
0.1049931273 -0.009691922925 0.7245845795 0.05156549439 0.2993852496 0.9527378678
0.1097628623 -0.000372013601 0.7250493169 0.05156549439 0.2993852496 0.9527378678
0.1324106902 0.08715064824 0.6037182808 -0.4017233253 0.1453787237 0.7913666964
0.1311302185 0.09698088467 0.5997655392 -0.6615359783 0.2001907676 0.6907447577
0.1288358867 0.09057936072 0.6013137102 -0.5441619158 0.2370477915 0.7379742861
0.1415452063 0.07883381844 0.6097027659 -0.04854371026 -0.08772296458 0.9235874414
0.139704138 0.0736021772 0.6089810729 -0.07911469042 0.1018315032 0.9186094999
0.13150765 0.08140803128 0.604218781 -0.357872963 0.2532597184 0.8127300143
0.1341079324 0.07673603296 0.6057981253 -0.2525380254 0.2278852761 0.8515431285
0.06855145097 0.07194248587 0.6146275401 0.6513031721 0.3692885339 0.6619563699
0.06784687936 0.07614970952 0.6115676761 0.6660384536 0.3384256363 0.66379565
0.07423981279 0.0708283186 0.6097534299 0.5960333943 0.4008767605 0.6935055852
0.09798710048 0.07109361142 0.6180871129 -0.01200698223 0.2944264114 0.7506251931
0.07828621566 0.06930588186 0.6157338619 0.4528709948 0.3711315393 0.6928949952
0.09000197798 0.07022248209 0.6156184673 0.1956709474 0.3357114792 0.7311170101
0.08425469697 0.07001617551 0.6181906462 0.2898677289 0.3361565769 0.7059054375
0.07930493355 0.06638740003 0.6206134558 0.4105937183 0.3634316623 0.6911111474
0.07257974893 0.06369186193 0.6211543083 0.5791575313 0.3986232281 0.6727073789
0.06742399186 0.06677506119 0.6208534837 0.6419715285 0.3909422159 0.6595422029
0.1604573578 0.03886225447 0.6261541247 -0.3423238993 0.5886688828 0.7264288664
0.1580973566 0.03403071314 0.6298039556 -0.2102506906 0.6280645132 0.7367581725
0.1674543023 0.04059880599 0.6316943169 -0.4471129179 0.5125913024 0.704295814
0.1712970287 0.04617008194 0.6315534115 -0.5152262449 0.3880146444 0.7431116104
0.1484089941 0.02486720309 0.6362890005 -0.02103596181 0.6548757553 0.7544384599
0.1525157988 0.03053243086 0.6313579679 -0.06876257062 0.6459274888 0.7584308982
0.1429211497 0.03036654554 0.6302837133 0.02044770494 0.6576136351 0.752513051
0.1422982812 0.02499651723 0.6361740232 0.01847308315 0.6581302285 0.7524260283
0.1366011947 0.02364711091 0.6406808496 0.03994783759 0.6507047415 0.7582550049
0.1556405723 0.09726382792 0.620621562 -0.152324602 -0.2466186434 0.9508658051
0.1412687153 0.1139956713 0.6125102639 -0.5876960754 -0.1375865638 0.7760670781
0.1532523036 0.1027116403 0.6194952726 -0.3168157637 -0.2328251898 0.8831361532
0.1464876831 0.1127287522 0.6156287193 -0.5812612772 -0.1977820098 0.7710405588
0.1462951452 0.1004755273 0.6161362529 -0.3919152915 -0.04482708499 0.8945245147
0.132967338 0.1043834537 0.6012513041 -0.6594848633 0.02200703695 0.7303932309
0.1507390589 0.09450402856 0.6157137156 -0.1388764679 -0.2968792915 0.9118033648
0.1403972358 0.09864984453 0.6066917181 -0.4375223517 -0.07679988444 0.8078022003
0.1378643513 0.1165221483 0.6089619994 -0.6627527475 -0.1463933736 0.7271065712
0.1392257512 0.1039585173 0.6091383696 -0.5553101897 -0.001051672967 0.810094595
0.1437022537 0.107927762 0.6147244573 -0.5071858168 -0.07414321601 0.8358837962
0.1373812556 0.1090354323 0.607578814 -0.6203770041 -0.05261537433 0.7628398538
0.1336124837 0.1118519679 0.6040168405 -0.690264225 -0.07644998282 0.714887321
0.1016362831 -0.01959037594 0.7193151712 0.05156549439 0.2993852496 0.9527378678
0.1332829744 -0.008602365851 0.7197582722 -0.04017487168 0.9341278672 0.3456925154
0.1253675371 -0.008819090202 0.7199519277 0.005659811199 0.6170021892 0.6489802599
0.1155711487 -0.004936805926 0.720616281 0.04323288426 0.3570377529 0.897601068
0.1198562086 -0.01089929324 0.7183892131 0.0289437715 0.4559027553 0.8030501008
0.1021618769 -0.01336209103 0.7183929086 0.05156549439 0.2993852496 0.9527378678
0.1124069095 -0.01213992573 0.7184751034 0.05156549439 0.2993852496 0.9527378678
0.1071402505 -0.01821912639 0.7180755734 0.05156549439 0.2993852496 0.9527378678
