# .PCD v0.7 - Point Cloud Data file format
VERSION 0.7
FIELDS x y z normal_x normal_y normal_z
SIZE 4 4 4 4 4 4
TYPE F F F F F F
COUNT 1 1 1 1 1 1
WIDTH 512
HEIGHT 1
VIEWPOINT 0 0 0 1 0 0 0
POINTS 512
DATA ascii
-0.01937054656 -0.05574949086 1.076545835 0.3125433326 0.1810985357 0.9324709773
-0.02734092623 -0.06252609193 1.082187176 0.3204908371 0.1796046346 0.9300144315
-0.08291057497 -0.1408863515 1.100695968 0.1438660473 0.01377830654 0.9895012379
-0.1625785232 -0.09422409534 1.056280017 -0.5562342405 0.2060435414 0.4139222503
-0.1592779011 -0.08505816758 1.069254518 -0.89781636 0.09718650579 0.1410963088
-0.1668765247 -0.1008415669 1.051668286 -0.3940417171 0.2664846778 0.5449448228
-0.1678461581 -0.1056954488 1.044733047 -0.2134940624 0.3203548193 0.688531518
-0.1686999053 -0.09362349659 1.065289736 -0.7174479961 0.1840825975 0.2901237607
-0.1608981341 -0.08888114244 1.065120697 -0.7785633802 0.1362641156 0.2365263849
-0.1628934443 -0.08463360369 1.074070811 -0.9843871593 0.08712613583 0.07490969449
-0.1648265123 -0.08877916634 1.069267273 -0.8487701416 0.1323591024 0.1835686266
-0.1667265594 -0.09583029896 1.059690595 -0.5947583318 0.2102700025 0.3859381676
-0.1688424349 -0.08755702525 1.075329661 -0.9658792019 0.115803495 0.09353704751
-0.1688727438 -0.1103158966 1.03823638 -0.04337117448 0.3715615273 0.823902905
-0.01948481798 -0.0755251199 1.077792406 0.3190177381 0.1725238562 0.9318271875
-0.01892652921 -0.06512890756 1.075450182 0.3303920031 0.1776904315 0.9269638062
-0.189024806 -0.04943240806 1.035147667 -0.6605782509 -0.1953750998 0.7184651494
-0.1765929461 -0.06366374344 1.068474174 -0.8655003309 -0.28453812 0.3230930269
-0.1806655377 -0.05683767796 1.05248034 -0.7691838741 -0.246045053 0.5032792091
-0.1841028333 -0.05427255109 1.046735048 -0.7346707582 -0.2274602652 0.5762162209
-0.1775712222 -0.06112745032 1.063178062 -0.8395791054 -0.2719308138 0.3764432669
-0.2291098684 -0.07670424879 1.02196157 0.2837105989 0.2699727118 0.9184138179
-0.05057937652 -0.1242671534 1.092236757 0.1261621267 0.02334283106 0.9913060069
-0.04516528547 -0.1159534752 1.091975212 0.06303011626 0.06776538491 0.9956014752
-0.06181919947 -0.1348510832 1.090486526 0.1438660473 0.01377830654 0.9895012379
-0.07603747398 -0.1398397982 1.096053123 0.1438660473 0.01377830654 0.9895012379
-0.07090896368 -0.135782361 1.09713769 0.1438660473 0.01377830654 0.9895012379
-0.06470594555 -0.1308666915 1.095951676 0.1438660473 0.01377830654 0.9895012379
-0.08043630421 -0.1435196251 1.094643474 0.1438660473 0.01377830654 0.9895012379
-0.1705133766 -0.08682645857 1.081238151 -0.9393624663 0.1131242588 0.06765819341
-0.1764799803 -0.07712557912 1.082036376 -0.9198439717 -0.2857836187 0.2632071376
-0.1781005263 -0.08766950667 1.084350109 -0.9059693217 0.1649919301 0.06318364292
-0.02719552629 -0.07052128017 1.079563618 0.3144678473 0.1807367802 0.931876123
-0.02167830989 -0.07034229487 1.075783491 0.3248870969 0.1787782609 0.9286555648
-0.02270949632 -0.08192285895 1.081527114 0.3086248338 0.1656362116 0.9366311431
-0.02531354502 -0.07679960132 1.078705311 0.3268022239 0.164716363 0.9302710295
-0.03372074291 -0.09104508907 1.086181045 0.2879031599 0.109751232 0.9508898258
-0.03392431885 -0.08549296111 1.085693717 0.311255306 0.1224747822 0.9422296882
-0.0279044807 -0.08591806889 1.083982587 0.312853694 0.1412536502 0.9388906956
-0.04293853417 -0.124972105 1.087513447 0.07169944048 0.06278517842 0.9947357178
-0.05406956375 -0.1316737533 1.090531588 0.1438660473 0.01377830654 0.9895012379
-0.03567557037 -0.1134962365 1.090311885 0.02946419828 0.1365277022 0.9891564846
-0.2067126185 -0.03071781434 1.001656532 0.4828677773 0.2295165658 0.8400973082
-0.2214953601 -0.04346269742 1.014209151 0.3961529434 0.1134914085 0.9078458548
-0.2108260542 -0.03643276542 1.006392002 0.4411540329 0.2162417173 0.8632146716
-0.2106636465 -0.04003822803 1.013043046 0.1034332514 0.5622995496 0.8176500797
-0.2148449719 -0.03864046186 1.009989619 0.3676573634 0.2345050424 0.868983984
-0.199828878 -0.03781148046 1.005082726 0.2998274565 0.4065338373 0.826788187
-0.2000633776 -0.04102255031 1.013422012 0.01739045046 0.3362561166 0.8049475551
-0.2006780207 -0.04372256249 1.020526767 -0.220546186 0.2855153382 0.7867430449
-0.204168126 -0.03920025751 1.009631276 0.1730979979 0.4609209597 0.8189669847
-0.2161832601 -0.04276413843 1.014960647 0.2027592957 0.3341996968 0.8597769737
-0.2088699043 -0.04445866868 1.018731236 -0.09402000904 0.2544598281 0.8082476258
-0.1983728558 -0.04832536727 1.025849342 -0.5646217465 0.03661696613 0.7354525328
-0.2228640914 -0.05050290376 1.021203756 0.1831083 0.09433183819 0.8826895356
-0.2075057328 -0.04926217347 1.024378777 -0.2895176113 0.0193489641 0.7931086421
-0.2199296504 -0.04668428749 1.018558979 0.2056037486 0.07326500118 0.8862143159
-0.2112685889 -0.05150938407 1.027229548 -0.1708992422 0.07187326252 0.8296364546
-0.2237930894 -0.05670055747 1.02320683 0.2440158427 0.1272889972 0.8979401588
-0.2027529627 -0.05030829087 1.02851069 -0.4293535054 0.02655797079 0.7794840336
-0.2172046602 -0.0521886535 1.025607347 -0.02272780985 0.09002617002 0.8528755903
-0.1734898239 -0.04297620431 0.9796088338 0.4227278531 -0.04578507692 0.9006174207
-0.2319648117 -0.0732864365 1.018992066 0.3239564598 0.2433617562 0.9136940241
-0.02097328193 -0.05381522328 1.0716995 0.3204270005 0.1796166301 0.9300341606
-0.02211760916 -0.04283105209 1.067891955 0.313508749 0.1809170544 0.9321725368
-0.0230451636 -0.06046784669 1.074567556 0.3155510724 0.1805331707 0.9315412641
-0.02017924935 -0.04729571939 1.071056008 0.314846009 0.1806657016 0.9317592382
-0.02898660675 -0.05834821984 1.076510549 0.3116679788 0.1812630743 0.9327415228
-0.02540364489 -0.06468863785 1.076950669 0.3116679788 0.1812630743 0.9327415228
-0.02685641497 -0.05166579783 1.074727774 0.3116679788 0.1812630743 0.9327415228
-0.03550275415 -0.05576463789 1.084481955 0.3116679788 0.1812630743 0.9327415228
-0.03370160982 -0.05013755709 1.078729868 0.3116679788 0.1812630743 0.9327415228
-0.03112473153 -0.04629147053 1.074571609 0.3116679788 0.1812630743 0.9327415228
-0.0277079381 -0.05588046461 1.081935763 0.3116679788 0.1812630743 0.9327415228
-0.05603296682 -0.121701926 1.088453174 0.1185424849 0.03074917197 0.9914001822
-0.05767421052 -0.127883032 1.088341475 0.1425156295 0.01468330342 0.9896025062
-0.03515931219 -0.06271556765 1.086039543 0.3116679788 0.1812630743 0.9327415228
-0.07220860571 -0.1314652711 1.090194464 0.1438660473 0.01377830654 0.9895012379
-0.07355923951 -0.1377294511 1.091029286 0.1438660473 0.01377830654 0.9895012379
-0.06390823424 -0.121513851 1.090014815 0.1438660473 0.01377830654 0.9895012379
-0.0750900954 -0.1318437159 1.096729875 0.1438660473 0.01377830654 0.9895012379
-0.06832785904 -0.1354843676 1.089007497 0.1438660473 0.01377830654 0.9895012379
-0.1814424992 -0.08158134669 1.084042549 -0.9263845086 -0.2393224537 0.2884206176
-0.1757124215 -0.08193652332 1.080195546 -0.9450375438 -0.1735285223 0.2237739712
-0.1584934145 -0.07787444443 1.073707104 -0.9545858502 -0.2363747656 0.1752137095
-0.1664083898 -0.0756996125 1.08130765 -0.9457194209 -0.2463668287 0.1936999857
-0.1628881246 -0.07984609157 1.077302337 -0.971732676 -0.08962538093 0.1341248155
-0.02725013159 -0.09640938044 1.086017847 0.2853674889 0.1114399135 0.9486466646
-0.03301355243 -0.09655030817 1.086608052 0.2493339777 0.1079825461 0.9589381814
-0.02898091078 -0.1015205979 1.088486791 0.207950592 0.1204691604 0.9662503004
-0.2316288054 -0.05355073884 1.02165103 0.3664560318 0.1394938529 0.9197432995
-0.2320450693 -0.06110501289 1.019975066 0.3482598364 0.1675103754 0.9218994975
-0.2114358693 -0.07071200013 1.021128058 0.0790322423 0.244691059 0.8981768489
-0.1984178424 -0.05906387046 1.02874434 -0.3330821991 -0.008975376375 0.8227803111
-0.1953903735 -0.0537584722 1.030470967 -0.5048286915 -0.00352611579 0.7843298316
-0.2181321084 -0.06194408983 1.022647977 0.1581706852 0.1693804562 0.8939088583
-0.2031935453 -0.0558176972 1.027626753 -0.3069699407 0.0891944021 0.8139305115
-0.2106791586 -0.06327585876 1.023685336 -0.02546882443 0.1734629571 0.8690735698
-0.2116557658 -0.05771155655 1.025326133 -0.06087882444 0.1187780574 0.8538228869
-0.2240455598 -0.06725981086 1.021282196 0.2941359282 0.2137863189 0.9271499515
-0.22392869 -0.0732794106 1.022111416 0.266366303 0.2374638319 0.9294663072
-0.2323121727 -0.06729273498 1.019895315 0.3339514732 0.2041081488 0.9195405841
-0.2015845776 -0.03045378998 0.9982475638 0.5083631873 0.2708643377 0.8171582818
-0.1754984558 -0.03049401753 0.9788781404 0.3636258543 -0.06150537729 0.9265322089
-0.1786727458 -0.02578208409 0.9811038971 0.4145622551 -0.02170967683 0.9014469981
-0.16578345 -0.02683231048 0.9779974818 0.1558762938 -0.1130837724 0.9804582596
-0.1763680428 -0.0150401406 0.9811081886 0.27538535 -0.1481093913 0.9437198043
-0.1711210161 -0.02601693571 0.9787647724 0.2488029003 -0.1062267721 0.9561881423
-0.1564496905 -0.006993318442 0.9817919731 0.06112952903 -0.149162814 0.9818717837
-0.1480285227 -0.005641930271 0.9798058867 -0.007548872847 -0.1557067633 0.9849585295
-0.1672395468 0.002733565168 0.9863429666 0.140468061 -0.2397992015 0.9585872889
-0.1731823087 -0.01137008239 0.98551929 0.2439988554 -0.1485160738 0.9543704391
-0.1609205157 -0.0008848350262 0.985427618 0.08498775214 -0.220487833 0.9698347449
-0.1539400965 -0.002160903998 0.9812682271 0.05920679867 -0.1859618872 0.9758124948
-0.145186305 -0.0006011511432 0.9792520404 -0.01268223394 -0.1944417655 0.9787544012
-0.1820917279 -0.007369951345 0.989107132 0.3544293642 -0.07585277408 0.9054304361
-0.1802832633 -0.004462633282 0.9847036004 0.3137462735 -0.1687553972 0.9276329875
-0.1901534051 -0.01427176688 0.9906963706 0.4684866071 0.00463354541 0.8679801226
-0.1863455176 -0.009880865924 0.9851792455 0.4037739635 -0.08789665252 0.9003505707
-0.1824778318 -0.01347895805 0.9833872914 0.3900732398 -0.1020525917 0.9080401063
-0.1963472664 -0.039682962 1.009065628 0.1723940969 0.284121722 0.8057984114
-0.1926012337 -0.04306347296 1.013107061 0.09514763206 0.2426652461 0.7522553205
-0.1903631836 -0.04767593741 1.030419707 -0.5330893397 -0.1228271499 0.7415039539
-0.1934205294 -0.04348749667 1.018907905 -0.1491385698 0.09884996712 0.7734951377
-0.1929413378 -0.04575217888 1.025051117 -0.3847112954 0.03009150736 0.764013052
-0.1891548336 -0.04908468947 1.020108581 -0.3550116718 -0.02279371955 0.6502416134
-0.1772416979 -0.0457094796 0.984064281 0.5348302722 0.09286869317 0.8330591917
-0.1586711109 -0.03264238313 0.9784532189 0.09641023725 -0.1558647603 0.9778168797
-0.1576385647 -0.03846685588 0.9771952629 0.1276299506 -0.1833792627 0.9680517316
-0.153613016 -0.0299112536 0.980448842 0.01183216646 -0.1192042008 0.9836863875
-0.1424627304 -0.03049928695 0.9844203591 -0.1507289261 0.001406829106 0.987323463
-0.148095578 -0.031879168 0.9823031425 -0.06629690528 -0.06043961644 0.9858010411
-0.03856060654 -0.09732441604 1.087000012 0.223850444 0.1043097004 0.9667095542
-0.04368258268 -0.09845806658 1.088751078 0.1993972659 0.09347829223 0.9690164924
-0.1362549663 -0.02929925546 0.9869365096 -0.2006350011 0.02463225648 0.9784549475
-0.06717973202 -0.1253694743 1.088158965 0.1438660473 0.01377830654 0.9895012379
-0.07813879102 -0.1363001317 1.099510193 0.1438660473 0.01377830654 0.9895012379
-0.0608750917 -0.126835227 1.094109893 0.1438660473 0.01377830654 0.9895012379
-0.06327670068 -0.1296031326 1.088814378 0.1438660473 0.01377830654 0.9895012379
-0.1638561487 -0.07313650101 1.076625586 -0.9415502548 -0.2770853341 0.1881638616
-0.1674264669 -0.06925462931 1.077396989 -0.9326580167 -0.3031485677 0.1937402636
-0.137400046 0.02061547153 0.9933192134 -0.09143981338 -0.3216847479 0.9408940077
-0.1974423975 -0.02134206891 0.9945563674 0.5193423629 0.1497217715 0.8365072012
-0.1950954795 -0.01832236163 0.9908162951 0.5049322844 0.1231615469 0.850704968
-0.1966726631 -0.0266123917 0.9965696931 0.5555055737 0.2319096178 0.7910735011
-0.2094641477 -0.04238829762 1.007493138 0.299644053 0.3612636924 0.871448338
-0.2130889893 -0.04534414783 1.010584712 0.2116281837 0.4067588151 0.8828858733
-0.2179875523 -0.04860208184 1.011951447 0.3002699912 0.2078627348 0.9184587002
-0.2276356369 -0.04870139807 1.016894221 0.3118394017 0.1358494312 0.9348121881
-0.212212652 -0.05279060826 1.007694721 0.2152202874 0.3307096064 0.9175589681
-0.2261845171 -0.05793402344 1.015711188 0.3006607592 0.2072179317 0.9249193072
-0.2222090513 -0.05482605845 1.013474703 0.2757544219 0.2331907004 0.9245260358
-0.1653485745 -0.009529045783 0.983427465 0.1340476424 -0.1577816755 0.977827549
-0.1493579745 0.002662925515 0.9814408422 0.02652610652 -0.2604130507 0.9632335305
-0.1301880032 -0.01596588828 0.9862679839 -0.2314664274 0.03041839972 0.9694334865
-0.1276554763 -0.02168411389 0.9856854677 -0.2495950013 0.06107576191 0.9630131125
-0.1335662305 -0.01056472026 0.9815380573 -0.1532626152 -0.07044073939 0.9703435302
-0.1247499362 -0.01556922868 0.9869923592 -0.3048458993 0.05200934783 0.950430572
-0.1879574358 -0.04705962166 1.005643249 0.2974491417 0.3772308826 0.6840116978
-0.187733084 -0.05094702542 1.009733677 -0.08245962113 0.1949058622 0.6865113974
-0.1837206632 -0.05301280692 1.002730846 -0.05889995769 0.1116380692 0.7280212045
-0.184601292 -0.04794413224 0.998783648 0.4023962021 0.3473088741 0.7186920643
-0.1681015939 -0.03399887681 0.977355361 0.2485285848 -0.09791089594 0.95982337
-0.1696825922 -0.03949097916 0.9767668247 0.278835237 -0.1026211083 0.949229002
-0.1459964812 -0.02576030418 0.9835881591 -0.1117147207 -0.04302109405 0.9912393093
-0.1519386023 -0.02508020215 0.9822407365 -0.04748337716 -0.08732935041 0.9929456115
-0.1812304556 -0.04675973579 0.9935795665 0.5141680837 0.3437358439 0.7513508201
-0.1793994904 -0.04939111322 0.9884297848 0.54818362 0.294131279 0.772354126
-0.1617249101 -0.0379139185 0.9856765866 0.1588269174 -0.004665290006 0.9279434681
-0.1674911827 -0.04108069837 0.9873102903 0.2746118009 0.09563599527 0.8764443398
-0.1757736057 -0.04506909475 0.9903702736 0.4300172925 0.2424398363 0.8017567396
-0.1702191085 -0.04526253045 0.9846659303 0.3816167116 0.1299848557 0.8555127978
-0.1638632119 -0.04186535254 0.9821158051 0.2490613312 -0.01023069769 0.9141410589
-0.1529540867 -0.03583557531 0.981338799 0.0157396514 -0.113907367 0.982822597
-0.03536258638 -0.1031962708 1.087000012 0.1196119264 0.1395228207 0.9818059206
-0.03344522417 -0.1093084589 1.087000012 0.05060681701 0.1548570842 0.9849761724
-0.03762927279 -0.07037053257 1.088283062 0.303271085 0.1623006463 0.9379741549
-0.03915366903 -0.08306863159 1.086915612 0.2880922556 0.1280228645 0.9474330544
-0.0401080735 -0.09111403674 1.086890697 0.2818691432 0.09707258642 0.9539660215
-0.03771068156 -0.07637953013 1.088074565 0.3025169969 0.1395520419 0.9417509437
-0.03211025894 -0.07167297602 1.086873174 0.309879154 0.1706497371 0.935246408
-0.03219280392 -0.08023362607 1.085713863 0.3116320372 0.1447888017 0.9387648106
-0.03034573048 -0.07545004785 1.081956863 0.3118099868 0.1783703417 0.9331579804
-0.03339683264 -0.06240593269 1.079986811 0.3116679788 0.1812630743 0.9327415228
-0.03221974894 -0.06958078593 1.081617475 0.3116679788 0.1812630743 0.9327415228
-0.1107698083 0.01034469064 0.9881708622 -0.3113425076 -0.2467162609 0.9170508385
-0.1163532659 0.01410336979 0.9859691858 -0.3307582736 -0.290959388 0.8976578116
-0.1843678504 -0.06306304783 1.016550183 -0.4003805816 0.0009993118001 0.784982264
-0.1807798743 -0.05443123356 0.9975474477 0.09507589042 0.1202663854 0.7697142363
-0.1816748083 -0.06431211531 1.011800766 -0.1397613883 0.07000856847 0.8333280683
-0.1788057238 -0.06456301361 1.005411744 0.1534392834 0.1463944316 0.8764773607
-0.1777901202 -0.05572678149 0.9921627045 0.3857201338 0.1971204132 0.822681129
-0.1795646995 -0.07338497043 1.018043995 -0.05208580196 0.1025986969 0.9338492155
-0.1867441535 -0.05798939243 1.015851617 -0.5731698871 -0.04935324565 0.7115874887
-0.1824260503 -0.05973204225 1.007916212 -0.1515414268 0.06198831275 0.7870931625
-0.1875775158 -0.05595690012 1.022461534 -0.6327363253 -0.1956982762 0.6584457159
-0.1820322573 -0.06807535142 1.019681931 -0.2318006307 0.006850695238 0.8487477303
-0.1865074933 -0.05805203319 1.029271245 -0.4391533732 -0.1183462217 0.8159271479
-0.184546873 -0.06232329458 1.023588896 -0.3739407063 -0.0814434588 0.7980042696
-0.1727098823 -0.102966018 1.052214622 -0.3847418129 0.2880926132 0.5518376231
-0.174015969 -0.1073328704 1.045304179 -0.2171739936 0.3373226821 0.6828181744
-0.1708524823 -0.09927151352 1.057840347 -0.5199165344 0.2464490831 0.4469865263
-0.1950969547 -0.1112626493 1.028741956 -0.03835951537 0.3136208355 0.9487366676
-0.1900297403 -0.1082086489 1.029869437 -0.01656477898 0.3322755694 0.9419387579
-0.1633444577 -0.08915813267 1.045669436 -0.3485579193 0.1505302638 0.5893485546
-0.1673022062 -0.09189591557 1.028673291 0.008038886823 0.326960355 0.8318796158
-0.1636865735 -0.08364502341 1.049419999 -0.4445085824 0.05348943174 0.5182443857
-0.1645202637 -0.09025732428 1.040149331 -0.227248013 0.1939736605 0.678143084
-0.1661144048 -0.09105677158 1.033706188 -0.09576584399 0.2678857148 0.7636446953
-0.1669572443 -0.08507553488 1.036400318 -0.1797765493 0.2016859055 0.6897668242
-0.1705579013 -0.08449553698 1.024119854 0.06000542641 0.3294097781 0.8385246396
-0.1656375825 -0.08304587752 1.043037295 -0.3214125633 0.1180132106 0.5935512781
-0.1625070125 -0.08172374964 1.055454254 -0.5736752152 -0.02306070551 0.4302521348
-0.1821351647 -0.06933344156 1.026228547 -0.1891163588 0.09755466133 0.8659007549
-0.1756908894 -0.08392949402 1.020791411 0.1259962469 0.3658514321 0.9149597883
-0.1747335643 -0.06863280386 1.071207881 -0.8875876069 -0.275418818 0.2923983335
-0.178771764 -0.06544456631 1.059920192 -0.8021159768 -0.2439994961 0.440344274
-0.1728448719 -0.07233114541 1.074861169 -0.9182570577 -0.2742823362 0.2462387532
-0.1827976704 -0.06196936965 1.048818469 -0.6994763017 -0.2036344856 0.5848454833
-0.187547192 -0.05475451425 1.038130522 -0.6233913898 -0.1974138319 0.7226344943
-0.1861802489 -0.06373211741 1.035485983 -0.4387219548 -0.04358541965 0.7559714317
-0.1839210391 -0.06616530567 1.041397691 -0.5048061609 -0.0690644905 0.6798664927
-0.1789917797 -0.06962561607 1.055828691 -0.7043256164 -0.1663416624 0.4942632318
-0.1770867109 -0.07084012032 1.061507821 -0.785112977 -0.2067074478 0.4212317765
-0.1846693307 -0.07855458558 1.02850163 -0.08795304596 0.2369239032 0.844640553
-0.1809878796 -0.0669689402 1.051025629 -0.6611089706 -0.155259341 0.5561439395
-0.18709369 -0.06657599658 1.029922843 -0.2974308431 0.05302971974 0.8272280097
-0.1781865954 -0.07738152891 1.052225351 -0.5216821432 -0.02008331008 0.5400015712
-0.1752460003 -0.07257197052 1.066532254 -0.8464580774 -0.2331185639 0.3565731347
-0.1756465286 -0.07618419081 1.062132239 -0.7137070894 -0.1374189407 0.4128352404
-0.1819291413 -0.08162654191 1.035571933 -0.1644940525 0.2087420821 0.7536088824
-0.1810038686 -0.07776062936 1.042023778 -0.3371038437 0.0886599645 0.6710093617
-0.1800548434 -0.07559717447 1.04714787 -0.4602158368 0.006122956052 0.6053458452
-0.1834905744 -0.07423722744 1.036217332 -0.2896630168 0.09764628112 0.7458387613
-0.1821796894 -0.07188108563 1.042771101 -0.4407934248 -0.002105418127 0.661824882
-0.17308034 -0.07980634272 1.03662765 -0.23096852 0.1827366352 0.6983960867
-0.1807499826 -0.06517486274 1.037250161 -0.459346801 -0.0371401906 0.7105711102
-0.1657135338 -0.07689851522 1.0576998 -0.6684502363 -0.08489738405 0.4045262635
-0.1759189367 -0.0716015324 1.040421963 -0.4235204458 0.02260806225 0.656494379
-0.1786087006 -0.07478609681 1.030016065 -0.1815791577 0.1802550852 0.799108088
-0.1785411239 -0.07945714146 1.024207592 -0.003671986051 0.3104173839 0.8745641112
-0.1740115732 -0.08457947522 1.028335452 -0.005060495343 0.3409376442 0.8088353872
-0.1709617376 -0.07175345719 1.051907659 -0.6362486482 -0.09795829654 0.4938260317
-0.1808958799 -0.06930242479 1.031633019 -0.2930717766 0.08305632323 0.7840998173
-0.1737560332 -0.07108205557 1.046181798 -0.5390206575 -0.04653299227 0.5757749677
-0.1667206138 -0.07229690999 1.061205983 -0.8022359014 -0.1894361377 0.3615341485
-0.1627577394 -0.07779129595 1.063523412 -0.7642269731 -0.1341405511 0.3208786547
-0.1710288823 -0.07773432136 1.044108391 -0.4016769826 0.07257374376 0.5955621004
-0.1793049574 -0.06254420429 1.044015765 -0.6249450445 -0.1477994919 0.6186525822
-0.1836270243 -0.05816837773 1.039422989 -0.603797853 -0.1624715179 0.6898859739
-0.1755657941 -0.06519308686 1.049441457 -0.6872627139 -0.1671980023 0.5381144285
-0.1721867621 -0.06664451212 1.055548549 -0.7800706029 -0.211330533 0.4496561289
-0.1676353663 -0.07961461693 1.049701691 -0.4785154164 0.04018354043 0.5137560368
-0.1762367934 -0.06236137077 1.054945469 -0.7728633881 -0.2389344573 0.4762120247
-0.1698202193 -0.06673144549 1.072520018 -0.8994293809 -0.2973442674 0.2489330024
-0.1690520942 -0.06822056323 1.065912843 -0.8652418852 -0.2583121955 0.3179178834
-0.1622592807 -0.0743220374 1.071215272 -0.9238837361 -0.2498628795 0.2242082357
-0.1118955016 -0.01570092514 0.9898818135 -0.316044718 -0.01418493874 0.9465941787
-0.1128211617 -0.01054626517 0.9889062643 -0.3493629098 -0.0311096739 0.935115695
-0.1174943745 -0.01418913715 0.9887744188 -0.3150219023 0.03315449879 0.9474572539
-0.1155394539 -0.005399836693 0.9926761985 -0.334204495 -0.1011166126 0.9329988956
-0.1938179284 -0.0611362569 1.031180263 -0.4261342287 -0.05693523958 0.8238605261
-0.2060388774 -0.07128597796 1.024076462 -0.04104176164 0.1684850007 0.8919647932
-0.2079369724 -0.07790611684 1.022729278 0.04888942093 0.2568217814 0.9229427576
-0.2020094097 -0.07701928914 1.025979757 -0.1137896776 0.1901582032 0.9062348604
-0.2043832242 -0.06554229558 1.025250077 -0.1193019971 0.0917576775 0.8650684357
-0.2043426484 -0.08220115304 1.024466634 -0.02089396492 0.2674941421 0.9323586822
-0.1889630556 -0.04907336831 1.014717102 -0.1979796439 0.07997123152 0.6374238729
-0.1906718612 -0.05595340207 1.032759666 -0.5244253874 -0.1353111118 0.7970570326
-0.1929542869 -0.06628776342 1.02976346 -0.3474297523 0.01906112581 0.8477028012
-0.1948625147 -0.0772266835 1.026588321 -0.1615003645 0.1826415956 0.9010244012
-0.1958390623 -0.07159237564 1.028237224 -0.2517843544 0.0977018699 0.8746677637
-0.1959030479 -0.08434946835 1.024519563 -0.04099933803 0.2892260849 0.9356300235
-0.1840300709 -0.08362734318 1.040070653 -0.2596592903 0.1635575294 0.7113518715
-0.1831391305 -0.0844058916 1.029342532 -0.01364317443 0.3105338216 0.8337996006
-0.1814409345 -0.08274354786 1.045563698 -0.3544343114 0.1043106541 0.6358490586
-0.1882725358 -0.07248470932 1.027392387 -0.1847296357 0.1488616318 0.8668464422
-0.1894662976 -0.07875429839 1.025614023 -0.08348885924 0.2399042994 0.8980590701
-0.1856483519 -0.08433184028 1.023365021 0.08029742539 0.3643530905 0.9137881398
-0.1089105085 -0.009497622959 0.9939639568 -0.2911209762 -0.06257122755 0.9515524507
-0.1063222438 -0.004276552703 0.9990342855 -0.260359019 -0.1185943931 0.9562309384
-0.1140655279 0.01375995204 0.9930306673 -0.2984190881 -0.2523100972 0.9167650938
-0.1090800092 0.007458945736 0.994509697 -0.2624553442 -0.1941455007 0.942984581
-0.1113686338 0.002079065889 0.9955732226 -0.2975166142 -0.1648013592 0.9399142265
-0.1780056804 -0.03705915809 0.9825207591 0.4946408868 0.06922737509 0.8632137775
-0.194678247 -0.03159765527 0.9940870404 0.5255722404 0.2016675174 0.8205574751
-0.1925258189 -0.025864264 0.9912263155 0.5219231844 0.1407137066 0.8359428644
-0.192938447 -0.03907426447 1.002271533 0.4918180704 0.4274733663 0.7433396578
-0.2090968341 -0.04783006385 1.005841494 0.2701557279 0.3306680322 0.8967748284
-0.2169676274 -0.05728958175 1.011307478 0.2525081933 0.2834171355 0.920835793
-0.2281852216 -0.06334125996 1.017022014 0.3167608678 0.2093632221 0.9222311378
-0.1746122986 -0.005500975531 0.9838668704 0.2042954564 -0.2140793949 0.9548905492
-0.1658139676 -0.01523965783 0.9830862284 0.1142388731 -0.1444728673 0.9825538993
-0.1709004492 -0.001509175636 0.9847723842 0.1931823045 -0.1965519488 0.9608283639
-0.1670345813 -0.02026356012 0.9802441597 0.1480285674 -0.138941735 0.9779524803
-0.1601482183 -0.01624536142 0.9821780324 0.05302700028 -0.1140261739 0.9896991253
-0.1560784727 -0.02138539404 0.9818354845 0.0005183827016 -0.1080814004 0.9932857752
-0.1612886786 -0.0265723411 0.9821594954 0.1138860285 -0.1171215996 0.9826241732
-0.1718248874 -0.01813128404 0.9842162132 0.2401705086 -0.1201806143 0.9615386128
-0.1738751531 -0.0380836837 0.9939166903 0.3119874597 0.2022591829 0.8257095814
-0.1799612045 -0.04068776593 0.9980974197 0.4042620063 0.3274745643 0.7640555501
-0.1609114408 -0.03151651844 0.9843598008 0.1156036556 -0.07973845303 0.9639087319
-0.171798557 -0.0337719731 0.990303576 0.2810643613 0.1082681417 0.8698019981
-0.1672623754 -0.02939713001 0.9856327772 0.2126876265 -0.02151118033 0.9321480393
-0.1383949518 0.01517831627 0.9893034101 -0.06655170023 -0.2981161475 0.9511115551
-0.139301464 0.004031513818 0.9793907404 -0.02349560522 -0.269684732 0.9622786045
-0.1386241019 0.009602849372 0.9847492576 -0.04774681106 -0.2804979086 0.9574520588
-0.1462998241 0.008973413147 0.9912621975 -0.03340130672 -0.2794012725 0.952893436
-0.1398434639 0.007334946655 0.9903636575 -0.09299115837 -0.2450341582 0.9576250315
-0.1412318945 -0.0001077895868 0.9883389473 -0.09430387616 -0.190557614 0.968593359
-0.1486401111 0.0008216958959 0.9874934554 -0.01915602945 -0.2087426931 0.9721834064
-0.1412196457 -0.00490919454 0.9852880836 -0.09420608729 -0.1380413473 0.9839040637
-0.1541500688 0.002015288686 0.9880048037 0.03482563421 -0.2412256896 0.9667890668
-0.05033025518 -0.1058883816 1.092323542 0.04382115975 0.1108531505 0.9911778569
-0.04299304262 -0.1095697805 1.091504812 0.04263713583 0.1237318069 0.9903588295
-0.05068790168 -0.1131565273 1.092519403 0.07124663889 0.0675701499 0.9941770434
-0.03827975318 -0.1192814782 1.087216735 0.04112726077 0.107940644 0.9920319915
-0.03975513577 -0.1125297174 1.087000012 0.04736486822 0.1261792779 0.9898149967
-0.04216006771 -0.1045070961 1.087000012 0.05584929138 0.1449302286 0.9875518084
-0.04787464067 -0.112216413 1.087804079 0.08413811028 0.09035941958 0.9900972247
-0.0551697202 -0.1137832403 1.089075089 0.1189218462 0.0531113036 0.9889693856
-0.1135531142 0.002068198984 0.9881201982 -0.3506969512 -0.1921834797 0.9139916897
-0.1099279225 -0.004680846818 0.9886626005 -0.354839772 -0.1290100813 0.9235752821
-0.1064316854 -0.01212218963 0.9894703031 -0.3339342177 -0.0425372459 0.9409531951
-0.1069795713 0.001430303557 0.989335537 -0.3193629384 -0.1736378968 0.9289427996
-0.1053135395 -0.005344731268 0.9934799671 -0.3064298928 -0.1195710152 0.9423711896
-0.1764306575 -0.1126114279 1.03717196 -0.02511096373 0.3853577971 0.8442679048
-0.1727222502 -0.09694293886 1.062273502 -0.6323782802 0.2179284841 0.3587142229
-0.1803165674 -0.1089132503 1.040270686 -0.1302073151 0.3318051398 0.7960998416
-0.1822860241 -0.1086530536 1.033810377 0.002746301237 0.3649847507 0.9074795842
-0.1813744158 -0.1142318249 1.035378337 -0.004094617441 0.3632775545 0.9017487168
-0.1798121035 -0.1028325632 1.043527246 -0.2258662879 0.3079326749 0.7159630656
-0.1782526821 -0.1001664251 1.049390912 -0.3599219918 0.2744780183 0.6036601067
-0.1779271811 -0.1056770384 1.04903388 -0.3271024525 0.2826684117 0.63115412
-0.1727397144 -0.09242464602 1.069681644 -0.8169698119 0.1604181677 0.2207756341
-0.1787321419 -0.1199269742 1.033979774 0.03119509667 0.3757219017 0.9260039926
-0.1857658625 -0.1195019633 1.032835722 0.0008627201314 0.3456213772 0.9372763038
-0.1668634713 -0.09702780098 1.024676561 0.104967013 0.3979311883 0.9113488197
-0.1749295145 -0.1050610766 1.027075887 0.05396931618 0.3880231977 0.9191541672
-0.1794940233 -0.1074893251 1.027002335 0.03433436528 0.3745144606 0.9253707528
-0.1635146886 -0.09533820301 1.042487264 -0.2895545363 0.2822544873 0.6210035682
-0.1617922932 -0.08952391893 1.05330801 -0.5419207215 0.2036843896 0.4166972041
-0.1607624739 -0.08689801395 1.059412718 -0.6833031774 0.1603330374 0.3047624528
-0.1645056605 -0.09798131138 1.036563039 -0.1522060186 0.3244660497 0.7301126719
-0.164954707 -0.1008532047 1.041589737 -0.2125119716 0.3141407073 0.6879577637
-0.1626704186 -0.09424991906 1.049261689 -0.4308755994 0.2415871471 0.5125204325
-0.166712597 -0.105805181 1.034024 -0.01713946275 0.3768766522 0.8441684842
-0.1791053414 -0.1131154969 1.029242754 0.02745189331 0.3677590489 0.9287662506
-0.1862679869 -0.1119283363 1.026934505 0.001963950228 0.3507194221 0.9362581968
-0.1684769392 -0.1065717787 1.028058767 0.06717804819 0.3909052014 0.9176928997
-0.1723605394 -0.1108132079 1.029518247 0.05223764479 0.3829240203 0.9217293262
-0.1744788885 -0.1159033254 1.032113314 0.04305523261 0.3809181452 0.9232236743
-0.1863082051 -0.1050845534 1.026537895 0.02507250756 0.3691790402 0.9289067984
-0.1963650137 -0.1066990569 1.02519083 -0.01870864816 0.3329182863 0.9425558448
-0.1690792441 -0.09172605723 1.022293806 0.1319072396 0.3936580122 0.9092730284
-0.167386815 -0.08925236017 1.017218709 0.1335922629 0.4010870159 0.9059336185
-0.2114379853 -0.09040352702 1.023505211 0.0563958101 0.3007851541 0.9513521194
-0.2096803486 -0.08381625265 1.022558331 0.09819604456 0.3118116856 0.9408737421
-0.2248281837 -0.08088670671 1.018959284 0.2292095274 0.2649055421 0.9365004897
-0.2184642702 -0.0870699659 1.022278666 0.1439537555 0.2877284884 0.9432621002
-0.2033596486 -0.0527259782 1.00478065 0.1443983167 0.3597586453 0.9120094776
-0.1980856806 -0.03590872884 0.9971404076 0.4976017475 0.2746364176 0.8142891526
-0.1951915175 -0.04481954128 0.9973971844 0.384791255 0.2860115767 0.8426093459
-0.1896884441 -0.04313312843 0.9933156967 0.4852125049 0.2479835749 0.8122979999
-0.2038808167 -0.04704334587 1.003373623 0.2538908422 0.3362886906 0.8853735328
-0.2042914927 -0.04182012752 1.00183785 0.3664881289 0.3097401559 0.8589072824
-0.1924944371 -0.09245766699 1.021905065 0.006619611755 0.3419463933 0.9392486215
-0.1887363791 -0.09963300824 1.024582624 0.01815504022 0.3583292067 0.9330292344
-0.1963596642 -0.08892228454 1.020327449 -0.006411193404 0.3278093636 0.9445538521
-0.182955578 -0.09418345243 1.048348904 -0.4084702134 0.2530794144 0.5842086077
-0.1767979115 -0.09567859024 1.056387901 -0.5292091966 0.2315123528 0.4634853005
-0.187067762 -0.09566055983 1.03954649 -0.2359717041 0.292401731 0.7372334003
-0.1904226243 -0.09484188259 1.035172343 -0.1703411043 0.3041110039 0.8028875589
-0.1824071556 -0.1035095677 1.036313534 -0.07807922363 0.3436959088 0.8423253298
-0.1896389127 -0.09862521291 1.031211734 -0.05237326026 0.3375338912 0.8926087022
-0.173521325 -0.08688810468 1.071597099 -0.8769496083 0.07309505343 0.1951283962
-0.175990954 -0.0831310451 1.066516876 -0.7552313805 -0.0830449909 0.3522337377
-0.1810019016 -0.08970962465 1.056209087 -0.5829409957 0.163284421 0.4512796104
-0.1867972761 -0.09212872386 1.044287801 -0.3563924432 0.2424032837 0.6461174488
-0.1837653518 -0.08795100451 1.050524592 -0.4596012235 0.0855365172 0.589240849
-0.1730898619 -0.08014163375 1.072484612 -0.8592868447 -0.1931715459 0.2822159231
-0.1911549568 -0.08567643166 1.031205416 -0.1357804239 0.2446779162 0.8460653424
-0.1855500042 -0.08623945713 1.045493126 -0.3746829927 0.1019317135 0.6626289487
-0.19376266 -0.09044816345 1.027709603 -0.05628162995 0.303498745 0.9105576277
-0.1823699623 -0.08283757418 1.05126965 -0.4868287146 0.0265552979 0.5739690661
-0.1883947253 -0.08810387552 1.039587736 -0.2669510543 0.1711376905 0.7468227148
-0.1794489324 -0.08384804428 1.059164524 -0.6158416867 -0.04891851172 0.4754007161
-0.1958224922 -0.07612736523 1.015185833 -0.0498425439 0.2923320234 0.9540160298
-0.1982492656 -0.08224225789 1.018580914 0.01345449686 0.3362116218 0.9411833882
-0.1208396181 0.001892558066 0.9873587489 -0.2897804081 -0.1654318273 0.9373764992
-0.1204649955 -0.004836592358 0.9898200035 -0.2983524203 -0.08137377352 0.9482381344
-0.1217557788 -0.01078131329 0.9877609611 -0.3173041046 -0.007764854003 0.945465982
-0.1382493675 -0.001821051235 0.97892344 -0.07963291556 -0.167461291 0.9784620404
-0.126405403 -0.007128318772 0.9872382283 -0.2523523569 -0.0461608693 0.9638510346
-0.1260942966 -0.001471266733 0.9862450361 -0.2339394242 -0.1183967292 0.9599505663
-0.1311928928 -0.002241794486 0.9832737446 -0.1702913046 -0.1277172416 0.9694061875
-0.1169927344 0.008112815209 0.9870836139 -0.3257961273 -0.2467423379 0.9113146067
-0.1281457245 0.006415670738 0.9832471013 -0.1791316122 -0.2542600036 0.9406515956
-0.1335921139 0.005146585871 0.9804341793 -0.1001193523 -0.2677198052 0.9484447837
-0.1214895844 0.01151558571 0.9843547344 -0.26486063 -0.2842533886 0.9122987986
-0.1772266775 -0.01692055538 0.9862246513 0.3209180236 -0.08367359638 0.9344881177
-0.183903113 -0.0215234831 0.9897637367 0.4633972645 0.03948690742 0.870952189
-0.1786087602 -0.02770444192 0.9888734221 0.422983706 0.05980404839 0.8650293946
-0.1866544336 -0.04248011857 1.002002239 0.5067665577 0.4479010999 0.7035524845
-0.171463728 -0.02534888312 0.9845673442 0.2991185784 -0.05427419022 0.9311408997
-0.1817320585 -0.03484416381 0.9949287772 0.4490582049 0.2405278534 0.7922664881
-0.1868445277 -0.01725188084 0.9868792295 0.4662547708 0.01337122452 0.8820927143
-0.1833978146 -0.02448238246 0.9843316078 0.4716497958 0.04945233092 0.8788910508
-0.1798430383 -0.03100434877 0.9822992682 0.4758705795 0.07038851082 0.8762229085
-0.1850598305 -0.02927882224 0.9870949984 0.5307626128 0.08205834031 0.8424301147
-0.1601869762 0.004965866916 0.986633122 0.07086580992 -0.2734138668 0.9582404494
-0.1463768929 0.006959987339 0.9835968018 -0.00403170241 -0.2847862244 0.9583462477
-0.1451417357 0.01527247857 0.989951849 -0.01231962908 -0.3200095296 0.9468212724
-0.1527415365 0.01112734806 0.9909567237 0.02029351704 -0.3103575706 0.9499072433
-0.1513445526 -0.01460013166 0.9820961356 -0.02727829106 -0.08859570324 0.9948349595
-0.1455413848 -0.01754428074 0.9832262397 -0.07663491368 -0.06516563147 0.9943820834
-0.1360543221 -0.008145176806 0.9858970642 -0.150163129 -0.0992339775 0.9819614291
-0.1449663341 -0.01242109947 0.9836239219 -0.06707575917 -0.08743841946 0.9929190278
-0.1518724561 -0.009036124684 0.9838196635 0.002934795106 -0.1386338621 0.9872445464
-0.1361577213 -0.01865703426 0.9832398891 -0.1715944707 -0.01454679109 0.9772668481
-0.1407751143 -0.007627595682 0.9803311825 -0.07740462571 -0.126785472 0.984860003
-0.1388320029 -0.01307842415 0.9818166494 -0.1206718758 -0.0721507445 0.9818680882
-0.1375538856 -0.02295215614 0.9859686494 -0.1649302095 0.004530342296 0.9853481054
-0.1913611442 -0.06477952749 1.003699183 0.1350602657 0.2695635259 0.9088488221
-0.1869273335 -0.06041167676 0.9975692034 0.2647617161 0.2590885758 0.8748596907
-0.194385469 -0.07221687585 1.011864066 -0.02098452114 0.27846995 0.9467028975
-0.1862810254 -0.05591506884 0.9932266474 0.3421770036 0.2560365498 0.8572033644
-0.1970017403 -0.06370990723 1.00557673 0.07049934566 0.2802712917 0.9302837253
-0.2023179084 -0.06142921746 1.006209016 0.02894155867 0.2898603678 0.9462981224
-0.193813622 -0.05704584718 0.9980205894 0.2171680629 0.2713471949 0.8942496777
-0.2036828399 -0.07344420999 1.015009403 -0.01108197123 0.3417284489 0.9387736917
-0.19921875 -0.06884863228 1.011259079 -0.03772934899 0.2870646715 0.9565380216
-0.2101119012 -0.07484269142 1.015289545 0.07940265536 0.3204714358 0.9388762712
-0.2096476108 -0.06969614327 1.011942625 0.0756303966 0.2983677685 0.9470018148
-0.2178599387 -0.07758712769 1.017408133 0.190615803 0.2884792387 0.9347369671
-0.2070742995 -0.06337005645 1.008631468 0.03315876797 0.292583555 0.9521113038
-0.2194556147 -0.07260268927 1.015872955 0.2010251284 0.2726933062 0.9339185357
-0.2124911696 -0.06484026462 1.011240602 0.1113452092 0.2726104259 0.9445262551
-0.221328035 -0.06193193048 1.014960051 0.2882725298 0.234837696 0.9248837829
-0.21114932 -0.05864008144 1.009193301 0.1399673074 0.2912842035 0.9360333681
-0.198959291 -0.05731865019 1.002004981 0.1386231035 0.300064683 0.9159054756
-0.1852695644 -0.05114052072 0.9906597137 0.4274951518 0.271856159 0.8331084251
-0.1958263218 -0.05167210847 0.9990093112 0.2664999664 0.3188922405 0.8770231009
-0.1892046034 -0.04902581498 0.9936879873 0.4008407295 0.2749337554 0.8382043839
-0.2041703463 -0.08226913959 1.018956423 0.04329911992 0.3573384285 0.9325962663
-0.2005384266 -0.09253171831 1.021351576 -0.001906952355 0.3335708976 0.9420128465
-0.2018357217 -0.1010506973 1.023600101 -0.01796760224 0.3290485144 0.9436243176
-0.2024864405 -0.08787811548 1.024540186 0.006685962901 0.318408668 0.9477870464
-0.2055630684 -0.09255726635 1.024286866 0.007910224609 0.312735647 0.949575007
-0.1966279 -0.1012015417 1.026414514 -0.03157019615 0.3161353171 0.948019743
-0.1994001716 -0.0960521698 1.025743127 -0.01520960964 0.3239080012 0.9458204508
-0.1803743541 -0.08328567445 1.012355328 0.06851030141 0.3481867313 0.9281323552
-0.1900406629 -0.07664389908 1.01318121 -0.02836131305 0.2983568907 0.9489319324
-0.1862463057 -0.08051791787 1.013506174 0.0205706954 0.3253664374 0.9387341738
-0.1732691079 -0.08418527991 1.00970757 0.1054313555 0.3613965213 0.9192348719
-0.1840380132 -0.07423546165 1.007740855 0.09146966785 0.3022969663 0.9190421104
-0.1798361093 -0.07818090171 1.00866437 0.08838344365 0.3248345852 0.9211662412
-0.1810524464 -0.0633585006 0.9968870282 0.3016619682 0.2703695893 0.8642992973
-0.1813658476 -0.06906894594 1.001870275 0.208669588 0.2897314131 0.8888316751
-0.1739414483 -0.06262223423 0.9922126532 0.4115290046 0.2825317085 0.8374114633
-0.1766477674 -0.06848442554 0.9986880422 0.2830559611 0.2974644303 0.8705970645
-0.189845264 -0.0709984675 1.008328795 0.06133485585 0.2789139152 0.9252175689
-0.1861017793 -0.06490269303 1.001065493 0.2077914029 0.2653128803 0.8875914812
-0.1692163199 -0.0841704309 1.013746858 0.1429433972 0.3080480397 0.9312822223
-0.1749642044 -0.07969140261 1.017452598 0.1045513675 0.2057069689 0.9653090239
-0.1759777069 -0.05443572626 0.9869858027 0.5080868006 0.2418484092 0.813865006
-0.1769964695 -0.07354109734 1.012674451 0.1549130082 0.1661860198 0.9551865458
-0.1705831438 -0.079351753 1.009152651 0.175826773 0.2737814784 0.9263315797
-0.1689255089 -0.07633204013 1.002569199 0.2602143884 0.3148144186 0.8880037069
-0.1735091954 -0.07479914278 1.008373618 0.199500531 0.2302524447 0.9265143275
-0.1719926745 -0.07104557008 1.001107454 0.2940132022 0.2706897855 0.8846842647
-0.1765534282 -0.06960135698 1.006984472 0.2321878672 0.186313957 0.9235553741
-0.1758103073 -0.09394426644 1.016131163 0.09608570486 0.3761783242 0.91802001
-0.1820006818 -0.09791199118 1.021053195 0.0566720292 0.3695157766 0.9249872565
-0.1706588268 -0.09166137129 1.012594461 0.1277163178 0.3829469383 0.9119990468
-0.1648793817 -0.08757834136 1.007791162 0.1649478823 0.3887122273 0.9055771828
-0.1862961054 -0.09507808089 1.021401286 0.03573042527 0.3581803143 0.9310446382
-0.1814823151 -0.08916275948 1.01602006 0.0696246922 0.3599613607 0.9262461066
-0.1865079105 -0.0889787972 1.018146634 0.04153196514 0.3504614532 0.9326477051
-0.1758350432 -0.08866203576 1.013242126 0.1020038277 0.3697864711 0.9192074537
-0.1630707532 -0.07558372617 0.9991172552 0.1905772686 0.2519108355 0.9119872451
-0.1612135023 -0.04793407023 0.9805466533 0.2001770288 -0.09907902777 0.9431855679
-0.1639652401 -0.08080849797 1.002678037 0.201244399 0.328694731 0.9011274576
-0.1645903736 -0.06824088097 0.9943765402 0.2393477261 0.1974343359 0.9018878937
-0.1685527712 -0.07113480568 0.9965486526 0.3185230196 0.3023721278 0.8674182892
-0.1726037413 -0.05846165866 0.9883969426 0.4303247333 0.2323244065 0.839558661
-0.1643632352 -0.06404391676 0.9903205037 0.1810086668 0.1037461609 0.9370231032
-0.1706427187 -0.05433504656 0.984895587 0.3650825322 0.1285145283 0.8737698793
-0.1664914787 -0.0520959869 0.982198596 0.2340129763 -0.004049670883 0.933070302
-0.1673756093 -0.04736191034 0.9789910913 0.2562808096 -0.04575214535 0.9309650064
-0.1631820202 -0.043267712 0.9759879112 0.173545137 -0.1691768765 0.9684271812
-0.1610966772 -0.05725845695 0.9865910411 0.1726161391 5.569670247e-05 0.9431256652
-0.1768045872 -0.1000301614 1.018351793 0.07929782569 0.3716964722 0.9209944606
-0.1802816838 -0.1044870615 1.02101624 0.05103546381 0.3621885777 0.9270043969
-0.1703452021 -0.0961170271 1.017904878 0.1125408784 0.3946529925 0.9097778797
-0.1730764955 -0.09948966652 1.022086382 0.08878432959 0.3957492411 0.912204802
-0.1641522497 -0.09158745408 1.012252688 0.1480054855 0.3926280737 0.9066667557
-0.1124543175 0.0071762437 0.9990217686 -0.2388167083 -0.2120247334 0.9452553988
-0.1075274646 0.00345667894 1.000914216 -0.2421659231 -0.1808548123 0.952246964
-0.1248302534 0.02050087601 0.9933173656 -0.2704463601 -0.3082625866 0.9116263986
-0.1191156656 0.01122222189 0.9961194396 -0.235355407 -0.2477789223 0.9370445609
-0.131307438 0.02114541456 0.9944019318 -0.1708446294 -0.3091908693 0.932814002
-0.1252166331 0.01462606061 0.9887560606 -0.269266665 -0.2832821608 0.9188473821
-0.1166287288 0.004366685636 0.9937813878 -0.3013541698 -0.1914424151 0.9306188822
-0.1249336749 0.009943656623 0.9933228493 -0.2322846055 -0.2454114407 0.9325944781
-0.1297743917 0.01505931839 0.9931877255 -0.180434972 -0.286963582 0.9360782504
-0.1288736612 0.005109919235 0.9912177324 -0.1961887628 -0.2093595266 0.9487864971
-0.1343524903 0.00707270205 0.9901153445 -0.1418793201 -0.2263808697 0.9585105777
-0.1875752658 -0.03628658876 0.9987012744 0.5356436372 0.3351694345 0.7446074486
-0.1872041225 -0.02821499854 0.9939615726 0.5391386151 0.1773890108 0.8097136617
-0.191398561 -0.03742042184 0.9930946827 0.5525328517 0.2356095612 0.7969421148
-0.1847272366 -0.0351103507 0.9887717366 0.5610541105 0.11668358 0.8169762492
