# .PCD v0.7 - Point Cloud Data file format
VERSION 0.7
FIELDS x y z normal_x normal_y normal_z
SIZE 4 4 4 4 4 4
TYPE F F F F F F
COUNT 1 1 1 1 1 1
WIDTH 512
HEIGHT 1
VIEWPOINT 0 0 0 1 0 0 0
POINTS 512
DATA ascii
0.1565521955 0.01406436507 1.02103126 0.6095381975 -0.3530772626 0.7092959285
0.1628207564 0.01449947804 1.017635345 0.5760897994 -0.3504015505 0.7379693389
0.173402518 0.02058701962 1.01429379 0.3665249348 -0.377399683 0.7958880067
0.1670545489 0.02045814879 1.015122652 0.4749680758 -0.3443237245 0.7852497697
0.1446656436 -0.1031725034 1.119350076 0.4191995561 -0.1967133135 0.6217941642
0.1500737369 -0.1067206785 1.117659807 0.5804431438 -0.5617769957 0.5403905511
0.1363557726 -0.1025158614 1.118804336 0.1854042858 0.4827930927 0.7188562155
0.1959843487 -0.05766225979 1.086481452 0.2964613438 -0.8873459101 0.3441925943
0.1914315075 -0.06365655363 1.085416317 0.3739367723 -0.8509224653 0.3535962403
0.1851667464 0.0255311951 1.008745193 0.1185679212 -0.4537669718 0.8298932314
0.1664302796 0.0281964913 1.007462025 0.4104163349 -0.3856189251 0.7915146947
0.1905059069 0.02433873154 1.010266185 0.04005640745 -0.4652785361 0.8413032889
0.1741299182 0.02530038543 1.010573506 0.3077354133 -0.3946115077 0.8102118969
0.20203197 0.02210846543 1.014064193 -0.1572757065 -0.476347506 0.8385218382
0.1872786582 0.01974934898 1.014996886 0.1277768016 -0.4276587367 0.8048987389
0.186443314 0.01542079262 1.011019588 0.1501453519 -0.4561996162 0.8108479381
0.1943670511 0.01724340022 1.011008143 0.02045190521 -0.4838878512 0.8224567175
0.1835624874 0.01144599542 1.00682354 0.154368639 -0.4687137306 0.828783989
0.1766917557 0.01080802828 1.008028507 0.2790417671 -0.4382800162 0.8124135733
0.1734320968 0.0136076808 1.012534261 0.3783995807 -0.4026912749 0.7838939428
0.1801564246 0.01542791259 1.012871385 0.2718827724 -0.424323678 0.7919158936
0.2446858883 -0.07038522512 1.04788661 -0.6689796448 0.4477660358 0.5725008249
0.2021573335 -0.0590389818 1.08406508 0.2849488854 -0.8268018365 0.48412624
0.07941924781 -0.05419168249 1.078784347 0.2737121582 0.668320477 0.6906021237
0.1189399511 -0.09663703293 1.11852479 0.0780146122 0.6227921247 0.7783967257
0.1087794602 -0.09776832163 1.114307046 0.08584980667 0.6295310855 0.7716356516
0.1304154694 -0.09573672712 1.122847915 0.07909350097 0.6113929749 0.7869030833
0.1435888559 -0.1082026958 1.111478448 0.5883427858 -0.6291363835 0.504615128
0.1293457448 -0.1028956547 1.11888063 0.1382075548 0.6622046232 0.7333128452
0.1182161272 -0.1100748703 1.114992619 0.1486238986 0.665359199 0.7312082052
0.2283126265 -0.03824506328 1.021359444 -0.3648996353 0.4689538181 0.7992969155
0.211845383 -0.04394139349 1.017015696 -0.3291001618 0.5678654313 0.7520632148
0.159152016 -0.01182311587 0.9955495596 0.5608546138 -0.2269417346 0.7876981497
0.2478687763 -0.0652045235 1.047418594 -0.7189849019 0.3603233099 0.592513144
0.2421891391 -0.03911815584 1.029764771 -0.5657457113 0.3326575756 0.7503362298
0.2054574341 0.02228279598 1.008736372 -0.1956213266 -0.5059258938 0.8373144865
0.2112804651 0.02150610462 1.006319523 -0.2449067384 -0.5093189478 0.8246710896
0.2483075708 -0.07129747421 1.052272797 -0.6647582054 0.452852428 0.5627422333
0.2431690693 -0.08126693219 1.052362204 -0.5696876049 0.608911097 0.5417827368
0.247667402 -0.07743226737 1.051553369 -0.6320201755 0.5091503859 0.5598655939
0.2535994947 -0.06645993143 1.0513134 -0.7401643991 0.3316600621 0.58418262
0.2447850108 -0.04380849004 1.034414649 -0.6033034325 0.3272962868 0.716765821
0.251937151 -0.0604044646 1.048992157 -0.7237668633 0.3196490407 0.6053499579
0.2491359562 -0.0559886992 1.042221546 -0.6880550385 0.3065969944 0.6473151445
0.246317938 -0.05143642053 1.039863706 -0.6481918693 0.3345605135 0.6711826324
0.2220048308 -0.07093589008 1.059754014 -0.2212083787 0.00534039177 0.5263078213
0.2164293826 -0.06693995744 1.066739798 -0.07319919765 -0.2337828875 0.5144932866
0.2326033264 -0.07654859126 1.052190542 -0.4448839128 0.440887779 0.5316137075
0.2267308384 -0.0719993636 1.056236386 -0.3184036613 0.1942688376 0.5279182196
0.2153027058 -0.06577003747 1.072481871 -0.002657475183 -0.2920895517 0.5000216961
0.2107186913 -0.06221876293 1.075639367 0.0960669741 -0.4845977724 0.4971385598
0.2067744136 -0.06111761183 1.080166698 0.1923339516 -0.6462566257 0.4912893176
0.2231051475 -0.0747692585 1.065386653 -0.1944044083 0.05043302104 0.511977613
0.2380235493 -0.07899927348 1.04822588 -0.5629518628 0.6185606718 0.5399942398
0.2336621284 -0.03084649518 1.018619657 -0.4167278111 0.373798579 0.798394382
0.2328464389 -0.02501454577 1.015235186 -0.4390700758 0.2923586965 0.7859246731
0.2356904745 -0.01039218716 1.015896797 -0.5108129382 -0.08868547529 0.7930163741
0.2372125238 -0.01731956564 1.019019604 -0.5199216604 0.02481735125 0.7868331671
0.2370528281 -0.0293330662 1.022899628 -0.4618344605 0.252461046 0.8026823997
0.2337264419 0.0007590633468 1.011136651 -0.5089794397 -0.2767443061 0.7983556986
0.2349422425 -0.03180253878 1.012033701 -0.6131789684 0.3527549207 0.703417182
0.2396178842 -0.03763990477 1.021899939 -0.583915472 0.3181780875 0.7441097498
0.2289705426 -0.008153400384 0.9976719618 -0.5028240085 -0.1812414676 0.8441667557
0.180381462 0.02160740085 0.9959876537 0.1199935898 -0.4688678682 0.86242944
0.1113460585 -0.1036830172 1.114096761 0.1329016834 0.6552351117 0.7413527369
0.1387702376 -0.1072947755 1.116495371 0.2830621004 0.3644933999 0.6608256698
0.1261675805 -0.1112878844 1.114271998 0.2250909656 0.5722156167 0.6725279093
0.1324170083 -0.1130214334 1.112161517 0.3432995379 0.1529718786 0.6037647724
0.1294599622 -0.1055752635 1.113992333 0.2500216365 0.292234987 0.6841773391
0.07781351358 -0.03052967414 1.064022183 0.5024666786 0.3557986915 0.7516872287
0.07774516195 -0.04142967239 1.06926322 0.382089138 0.6236585379 0.6800424457
0.07940957695 -0.03605100885 1.067606568 0.4536246657 0.44883883 0.7217175961
0.1326259971 -0.098399885 1.11619699 0.3725664914 -0.02646264993 0.6450480819
0.1409378499 -0.09889753163 1.114996076 0.5770049691 -0.5377990007 0.5564257503
0.1255864501 -0.09690270573 1.120564222 0.1051757112 0.6365413666 0.7637052536
0.1208584383 -0.1044520065 1.114872336 0.1357017457 0.6557927132 0.7418974638
0.1950266361 -0.07047891617 1.084640861 0.1924745291 -0.8817830086 0.4289524555
0.2203918844 -0.04459040985 1.023195982 -0.2555134594 0.4332607985 0.8512524366
0.2338704467 -0.03730297089 1.024088144 -0.3795430064 0.4168383479 0.82429564
0.2091727406 -0.04861614481 1.020354867 -0.2218504548 0.4965156913 0.8243402243
0.1478242874 0.01351474598 1.020819783 0.6196585298 -0.364353478 0.6944354177
0.1554404944 0.01978735439 1.018045783 0.5852879882 -0.3374904096 0.7358444929
0.1415273398 -0.01558981836 1.02592051 0.8009744287 -0.1085245237 0.5638805628
0.1452467889 -0.008006280288 1.02613318 0.7454144955 -0.1640647948 0.6085900664
0.1469620764 -0.002277645981 1.021990895 0.7346709371 -0.2319878489 0.6090103984
0.1417639107 -0.0005982868024 1.02396369 0.7838410735 -0.2256292403 0.563901484
0.1490563005 0.004061256535 1.023928642 0.6924023032 -0.2662113905 0.6443172097
0.1523688436 0.009390644729 1.022932887 0.6501978636 -0.313223809 0.6774923801
0.1380192041 -0.02242999896 1.029311538 0.83544451 -0.03390521184 0.5416103601
0.0900369212 -0.01769324765 1.064024448 0.5836178064 0.1551648825 0.7908678651
0.07979682833 -0.02544994093 1.06297946 0.5916666985 0.1352651119 0.7947539687
0.08052942157 -0.01959198341 1.06298089 0.5916666985 0.1352651119 0.7947539687
0.1558144838 -0.03275299817 0.9997060299 0.6640968323 0.1328185499 0.7305991054
0.2398994118 -0.04553784803 1.031089544 -0.5210575461 0.3837185204 0.7422506213
0.2427589893 -0.05276601762 1.023236513 -0.615668416 0.2342376709 0.7512463331
0.2467317283 -0.05484651402 1.035029531 -0.6619952917 0.2784676552 0.6860386133
0.2442215979 -0.05020010471 1.029320002 -0.6281791925 0.2713942528 0.723238647
0.184404552 0.00232733367 0.9968731999 0.09462047368 -0.4622995853 0.8790892363
0.2163783908 -0.04056717455 1.013896465 -0.3387507796 0.6196758151 0.7030494809
0.2234722674 -0.03703272715 1.015889049 -0.3400661349 0.5615224242 0.7522870302
0.2018991858 0.02167495526 1.003809929 -0.1494406611 -0.5023918748 0.8477231264
0.1972531527 0.02303274535 1.006993175 -0.09638318419 -0.4992518723 0.8609651923
0.1746024191 0.02454045787 1.004182696 0.2692912221 -0.4308155477 0.8193554282
0.1864058673 0.02218900993 0.9980214834 -0.02001106739 -0.5007714033 0.8611638546
0.1906621903 0.02324722707 1.004131556 -0.02125108615 -0.493385762 0.8544411063
0.2073393613 0.019128602 1.001359582 -0.2019040585 -0.5094736218 0.8314557076
0.1913246959 0.01947888918 0.996987462 -0.07117564976 -0.5012321472 0.85782969
0.2023727745 0.0131053729 0.9980409741 -0.1580633968 -0.4913605452 0.8518955112
0.1988222301 0.01988108084 0.9992156029 -0.1326829046 -0.5065270066 0.8443502188
0.1874569058 0.008675931953 1.00218451 0.04218733683 -0.5062714815 0.8572397232
0.1953783482 0.01352453604 1.006003737 -0.04780182242 -0.5138139725 0.8494418263
0.1953046471 0.008953296579 1.00082469 -0.103664808 -0.519313693 0.8474649191
0.2035684586 0.005633624271 0.9971395135 -0.1658397913 -0.4818640649 0.8595035076
0.0795795694 -0.0484148562 1.074512362 0.3238278627 0.6684882045 0.6691817641
0.2301079333 -0.0007954681059 1.006715178 -0.4790522456 -0.2587659359 0.8224155903
0.2282467932 -0.01696465537 1.011306882 -0.4155140221 0.1133761182 0.795799017
0.232937336 -0.004819251131 1.011286855 -0.487423718 -0.1391939521 0.7943475842
0.2281501889 -0.03048377857 1.015503526 -0.378097713 0.4278791547 0.7721928358
0.232391566 -0.01218134351 1.009214759 -0.5053777695 0.003625908401 0.8018579483
0.2380591184 -0.02341477759 1.019864798 -0.5409498215 0.1264460236 0.7846758366
0.2314480692 -0.02450877987 0.9996778965 -0.6435229778 0.2804387212 0.6993981004
0.2316301912 -0.0105882166 1.002455354 -0.5799070597 -0.02509579435 0.7716504335
0.2293841541 -0.01379997004 0.9971334338 -0.5565384626 -0.03176181018 0.8008546233
0.2316149324 -0.01707925089 1.004622102 -0.5955477953 0.1098489761 0.7347868085
0.2317733318 -0.02838969976 1.007620931 -0.5713883042 0.3631210327 0.7107557058
0.1408992559 -0.1130279303 1.113556981 0.4390197694 -0.05791702867 0.5685908198
0.1481214464 -0.113094084 1.1130054 0.5820682049 -0.6437764168 0.4965865314
0.1449813992 -0.1166143492 1.108357787 0.5811731815 -0.6668252945 0.4663259983
0.1551534086 -0.04093486443 1.004036903 0.6986682415 0.2106253356 0.6809247136
0.1940844506 -0.0831906423 1.069409013 0.3766365945 -0.2749024034 0.4229176939
0.2025573552 -0.08508393168 1.062932491 0.2460821867 0.04863914102 0.4407288134
0.2100376934 -0.08637110144 1.057811022 0.1228364483 0.308252871 0.4567750096
0.2228035778 -0.08384367079 1.056400776 -0.185645014 0.4313915372 0.4881116748
0.2035033703 -0.08790103346 1.058166265 0.2856437862 0.2612215281 0.4405373931
0.1951627731 -0.08932824433 1.059435368 0.4825347662 0.1655938625 0.4202510417
0.2147928327 -0.08357673138 1.060160756 -0.03056707047 0.2286402136 0.4699977934
0.1997717768 -0.07667837292 1.077138186 0.1272955984 -0.5848001242 0.4413849413
0.2022992671 -0.09195400774 1.052380443 0.393995136 0.5079297423 0.4343901873
0.1945125759 -0.09310027212 1.053854108 0.5739427209 0.4060452282 0.4156067669
0.2201309055 -0.08083248883 1.062189341 -0.1946178973 0.1658612639 0.4845130444
0.2064671218 -0.07949034125 1.069978714 0.05147029459 -0.240024209 0.4543584883
0.2286962867 -0.08175738156 1.057176828 -0.3471466303 0.4259547889 0.5033460259
0.2179695368 -0.07373052835 1.069148183 -0.1040913537 -0.1385978311 0.5032491088
0.2038979083 -0.06739824265 1.080898762 0.2015588731 -0.711619556 0.490462631
0.2272801846 -0.0775629133 1.06155014 -0.2989281714 0.2335712165 0.513359189
0.2135288268 -0.07738499343 1.070061207 -0.1246577799 -0.2091008425 0.4731236398
0.2130888849 -0.07140295953 1.073288679 0.004638829734 -0.3399087191 0.4994200468
0.2058686763 -0.07550998777 1.075680494 0.009183179587 -0.4903513491 0.458907187
0.1942418963 -0.02747211978 0.9870166779 -0.1543837339 0.2440800816 0.9511631727
0.1693718135 -0.02278006263 0.9884841442 0.4343045354 0.01306973584 0.8951537013
0.1743889302 -0.02274726145 0.9861103892 0.2881625891 -0.008250787854 0.9522442818
0.1653777659 0.00746827526 1.008282065 0.5128526688 -0.3906539679 0.7584479451
0.1708544642 0.007649154868 1.004858136 0.4140863717 -0.4019447565 0.8076815605
0.1683568805 0.01110137068 1.011824489 0.4601187706 -0.3886093199 0.7685454488
0.1788783818 0.003115099622 0.9984225035 0.2124183029 -0.4449203908 0.8603121042
0.175573349 -0.002505755518 0.9945356846 0.2782017291 -0.4016496539 0.868968606
0.1679746956 0.02257454023 1.001587868 0.4033276439 -0.405803293 0.8142390251
0.1674147993 0.008356109262 0.9993934631 0.430737704 -0.4291971326 0.7918095589
0.1702234596 0.01323469169 0.9981839657 0.37452811 -0.4303722084 0.8157738447
0.1492014825 -0.03395820409 1.00426662 0.7619561553 0.1732812971 0.6224080324
0.1525176615 -0.0287278723 1.006245017 0.7130213976 0.1245945469 0.6760984063
0.2408702075 -0.05578821898 1.01862371 -0.5870409608 0.26750651 0.7628449798
0.2363199592 -0.03860565647 1.012495399 -0.6290023327 0.3122430146 0.7074577212
0.2407046258 -0.0447880961 1.021415472 -0.6075462103 0.2747055888 0.7432559729
0.1844113022 -0.02349193208 0.9850754738 0.0842326507 0.04594318941 0.9902208447
0.2050972134 0.01216550358 1.003574491 -0.1850566864 -0.5194809437 0.8330747485
0.2127022147 0.01726627536 1.001983643 -0.2468485683 -0.5064758062 0.8253499866
0.2097340077 0.01074351091 0.9989822507 -0.2196917534 -0.4878454208 0.8431868553
0.2468322068 -0.07373837382 1.042707443 -0.6273288131 0.520200491 0.5788356662
0.237996608 -0.07442544401 1.04151237 -0.6070602536 0.5544519424 0.5622314215
0.2402191907 -0.06994638592 1.038173556 -0.6421716809 0.4928608537 0.5808894634
0.2370648831 -0.0418314226 1.027700305 -0.4391992092 0.4067623615 0.7869616747
0.2375409752 -0.05254567787 1.030059099 -0.5088475347 0.4514947236 0.7090135217
0.2399798632 -0.05869517848 1.034667373 -0.5797799826 0.4409594834 0.6600527763
0.2426884323 -0.06282152236 1.039370537 -0.6427010894 0.4159651995 0.6251097918
0.1418712884 -0.03016158938 1.024172306 0.8217080832 0.0796392411 0.5634332299
0.1443855911 -0.03248779476 1.01878655 0.8035294414 0.140452832 0.5771997571
0.1420709193 -0.02047732659 1.019006252 0.8383688331 -0.02129267342 0.5420317054
0.138636291 -0.02299815044 1.023712516 0.8388512731 0.004825233482 0.5428755879
0.1391817331 -0.02878766879 1.029697418 0.8274360895 0.03581149504 0.559658885
0.1383578032 -0.008254520595 1.019591689 0.8340576291 -0.1715399325 0.5208936334
0.1613665223 -0.04267041013 0.9983918667 0.5534377694 0.2591681182 0.7754400373
0.1602959186 -0.03456367925 0.9960875511 0.5592417717 0.1677590311 0.7920840383
0.2008158118 -0.0532197766 1.019381881 -0.1712033302 0.5021916628 0.8346063495
0.2042947263 -0.04760933295 1.016163468 -0.3125344217 0.5831801295 0.7443727851
0.1991593093 -0.0642625168 1.022138953 0.03767722845 0.3599308431 0.9307037592
0.2177530229 -0.09096238762 1.042382956 -0.08509527147 0.6735088229 0.5942580104
0.2320309579 -0.08472716063 1.049938798 -0.3923308551 0.6677515507 0.5408420563
0.2145209908 -0.09285593033 1.036444545 -0.05912632868 0.6996579766 0.6625219584
0.1989186853 -0.09721993655 1.049670815 0.498036176 0.5797043443 0.4354744554
0.2246714532 -0.08823189139 1.043493748 -0.2602547109 0.6857064962 0.6022590995
0.2045187503 -0.09583366662 1.043344259 0.2817780375 0.6320396662 0.5379502177
0.2266342491 -0.08664946258 1.050893068 -0.2369308174 0.6475368142 0.51041013
0.2197632492 -0.0894664526 1.048867226 -0.07248198986 0.6408448815 0.5147224069
0.2075294405 -0.09394709021 1.049952149 0.2686799169 0.6013571024 0.4600632787
0.2118906081 -0.0932367444 1.041786909 0.06688676775 0.6611441374 0.5828915238
0.2142677605 -0.09104374051 1.051330566 0.1011365429 0.6114946604 0.4639163017
0.2305486202 -0.08732352406 1.044631004 -0.3514219224 0.6663791537 0.6040457487
0.2370911092 -0.08538351208 1.043992043 -0.4314995706 0.6320624948 0.5916004777
0.2428765446 -0.08338564634 1.04596591 -0.5192609429 0.6104127765 0.5680055618
0.2108806372 -0.09522986412 1.02947855 0.04890277237 0.6339301467 0.749252677
0.2177204192 -0.08575035632 1.026348472 -0.1242361665 0.5310723186 0.8209663033
0.1897635609 -0.09910169244 1.050595284 0.7611142397 0.4395353794 0.3724663258
0.1687148213 -0.00332668703 0.9965196848 0.397893548 -0.4031472504 0.8128989935
0.1637350321 -0.006591407582 0.9950708747 0.4328679144 -0.3814298213 0.8121690154
0.1634786874 -0.001506650122 0.9985433221 0.4874131382 -0.4148517251 0.7648619413
0.1745561808 0.008856168948 0.9954068065 0.2653926909 -0.4226841927 0.8642366529
0.1705067754 0.003737007733 0.9953218102 0.3201214969 -0.4196968079 0.8447993398
0.1433428377 -0.005238305777 1.013317466 0.7621030807 -0.2486437112 0.5882843137
0.1435670853 0.001929744496 1.018056512 0.7424994111 -0.277354598 0.6033087373
0.1587425321 -0.006222030614 1.00432694 0.600681603 -0.258457154 0.7126374245
0.1552300453 -0.00748471776 0.9991621375 0.5897961855 -0.3216228783 0.7364308834
0.1567824036 -0.01933119632 0.9998984933 0.64277035 -0.05042533949 0.7275512218
0.157087788 -0.01283732057 1.001764536 0.6237130165 -0.1802943349 0.7055547833
0.1647039205 -0.04383908957 1.003931046 0.503176868 0.2604268193 0.7650530934
0.1792232245 -0.04920498654 1.010280013 0.1972831041 0.3815096617 0.7973975539
0.1706988215 -0.04890434444 1.000962377 0.3174578547 0.3467884958 0.8333867788
0.1662716419 -0.04941176623 1.005186915 0.4440614879 0.3112930954 0.7472574711
0.170596078 -0.044290144 1.005704403 0.3750517666 0.2988623977 0.7983266711
0.1837767363 -0.04539712891 1.009004474 0.01026882604 0.4480620325 0.7464337349
0.1898127645 -0.05226471648 1.014770627 -0.02707419917 0.4701083601 0.8187522292
0.1971711963 -0.04938292131 1.0133214 -0.3375768363 0.5917938352 0.7136815786
0.1767072529 -0.04336545989 1.006780386 0.1955537647 0.3715951741 0.7649561763
0.151623264 -0.03503827006 1.009218812 0.7124367952 0.1865033358 0.6612790227
0.2320988476 -0.04416331276 1.023112655 -0.3414404392 0.3270836473 0.8721361756
0.226387307 -0.04338042438 1.023404717 -0.3004017472 0.3935228586 0.8560325503
0.1800744683 0.01134364493 0.9944155216 0.1577001512 -0.4306115806 0.88333565
0.1825927645 0.003456835635 0.9911016822 0.1242969558 -0.3911356032 0.906940639
0.1767902821 0.003583983053 0.9924303293 0.2204636484 -0.3872123659 0.8923562765
0.1924938709 -0.004852506798 0.9877628088 -0.01579513587 -0.348710835 0.9345678091
0.1861011088 -0.001141685643 0.9892308712 0.06595425308 -0.3759616315 0.9211581945
0.1774944216 -0.01508589834 0.9865078926 0.2325353175 -0.1866204143 0.9492129087
0.1764572114 -0.009659744799 0.9885472059 0.2275542617 -0.3217181563 0.9161616564
0.2264165729 -0.001510844333 0.9980551004 -0.3933852017 -0.3254680037 0.8428395391
0.2144199163 0.01687292941 1.010100484 -0.2482044995 -0.4959812164 0.8309601545
0.2193349898 0.01237225998 1.002135038 -0.2738300562 -0.4908021092 0.8264795542
0.2212502956 0.007141536567 0.9987988472 -0.2833559811 -0.4684527218 0.8364390731
0.2221221477 -0.01776700839 0.9935234785 -0.5193400979 0.0412494503 0.8340086341
0.2255997062 -0.02518327162 0.9946151972 -0.5568600893 0.2891978025 0.7591834068
0.2197325379 -0.02504765801 0.9920221567 -0.4563859105 0.2686855197 0.8268863559
0.2169373184 -0.03082979284 0.9928429127 -0.4374022782 0.434340179 0.7789036632
0.2222321779 -0.03044589795 0.9963989258 -0.5284570456 0.4486362934 0.7151049972
0.2264000475 -0.01183288917 1.005820155 -0.4265321791 -0.03494219482 0.8301500082
0.2199937999 -0.01425076555 0.9981600046 -0.4285258055 -0.02809091657 0.8710944057
0.2236746997 -0.02349670604 1.00754714 -0.389059484 0.2270344645 0.8177099228
0.2258602381 -0.02640712261 1.011911511 -0.3749202788 0.315684855 0.7932544351
0.223406449 -0.009747563861 1.000733376 -0.4390487671 -0.1100590527 0.8583098054
0.224408865 -0.01757169329 1.00577724 -0.4091816247 0.08867206424 0.8288743496
0.218590498 -0.02398864739 1.001645327 -0.3974226117 0.2219296098 0.8177846074
0.2183460295 -0.03637652844 1.009525895 -0.3578599393 0.5906150341 0.6811656952
0.2198379189 -0.02940346114 1.00638938 -0.3767828345 0.3780797124 0.7720538378
0.2101087421 -0.0004207819584 0.9923966527 -0.2304950953 -0.3928940594 0.8849774599
0.2173084319 0.002562697511 0.996376276 -0.2888653576 -0.4362148345 0.8501215577
0.2159941792 -0.005806312431 0.9940393567 -0.3423533738 -0.3110170662 0.8814433217
0.2012970895 -0.004512109328 0.9887307286 -0.1317045838 -0.3484299779 0.9251126051
0.2124771923 -0.01757793128 0.9889851809 -0.3796953261 0.0335724093 0.92022264
0.2059170455 -0.02111295424 0.9872648716 -0.2637020946 0.1155017018 0.9430687428
0.2070663422 -0.01524059661 0.987522006 -0.2538337409 -0.07463973016 0.9573152661
0.2109214813 -0.01047401875 0.9900235534 -0.3080742061 -0.173576802 0.9166013598
0.2411032021 -0.06337995827 1.026302695 -0.64074862 0.3721801937 0.661005199
0.2394718528 -0.06771595776 1.031593084 -0.6286773086 0.4717112184 0.6092458963
0.2510024905 -0.0716201961 1.046751142 -0.6779093742 0.4352790117 0.5847471356
0.2456869185 -0.06496481597 1.032232642 -0.6590569615 0.3588645458 0.6518028378
0.2485212833 -0.06639244407 1.040916562 -0.7064607739 0.3434067667 0.6140553951
0.2050808221 -0.05338012427 1.008823633 -0.2087854296 0.5002166629 0.7844478488
0.2147951275 -0.058250539 1.016323566 -0.06909382343 0.3249948919 0.9377627373
0.2092341781 -0.05940556899 1.01307869 -0.112057291 0.395062983 0.8618221283
0.2281376123 -0.05593261123 1.026612878 -0.3872731924 0.4140232205 0.7768674493
0.2064372003 -0.05429066718 1.022662163 -0.1373863518 0.450665921 0.869269073
0.2333270013 -0.05173514038 1.025622487 -0.4060432017 0.36133793 0.8073194027
0.2135026753 -0.05289259553 1.023133636 -0.2014896721 0.4202416837 0.8613095284
0.2337991148 -0.05735222623 1.028061509 -0.4613184929 0.4139484465 0.7414124608
0.2256669402 -0.06079132482 1.028290272 -0.4038778245 0.466476649 0.7296239734
0.2237210125 -0.05100831762 1.023873568 -0.2954274416 0.3775584102 0.8482221365
0.2308529019 -0.05431432649 1.016423464 -0.3074077368 0.2053869218 0.9209429622
0.2223896533 -0.03879538924 1.002524495 -0.4160016477 0.3829823732 0.790241003
0.2248396724 -0.05168646201 1.013108373 -0.2459093332 0.2171919793 0.9255060554
0.2357094139 -0.04892888293 1.014431715 -0.5079141855 0.2706732154 0.7965185642
0.2324202806 -0.04444988817 1.011922002 -0.4614687264 0.2722995281 0.8155056238
0.2268030196 -0.03418829292 1.002532363 -0.5353549123 0.3946398497 0.7279757857
0.2298241854 -0.03770420328 1.006652355 -0.5207104683 0.339856118 0.7558173537
0.2031814009 -0.03551585972 0.9926256537 -0.3364749849 0.528205812 0.7682856917
0.1963277459 -0.03273611143 0.9884682894 -0.2265966982 0.4229190946 0.8766872883
0.2038162798 -0.03126079962 0.9887331724 -0.2970117629 0.3726532757 0.8785889149
0.2095138878 -0.02927883901 0.9885415435 -0.3275143206 0.3580492437 0.8709417582
0.2002474368 -0.02530170605 0.9870195985 -0.2191531211 0.2311364114 0.9452818036
0.2114899009 -0.03424659744 0.9942449331 -0.4032706022 0.5795665979 0.7057672739
0.08509282768 -0.04044287652 1.067266703 0.4027301073 0.6030623317 0.6871938109
0.08719670027 -0.03569091856 1.065163136 0.4688746035 0.4561565816 0.7192543149
0.08676819503 -0.02788492478 1.063332319 0.5608597994 0.2167794704 0.7748687267
0.1721123308 -0.04823775962 0.9944756031 0.2404544055 0.389524132 0.8669467568
0.1780727506 -0.05526031926 1.001932859 0.1108240187 0.4431071281 0.8530805111
0.2305424511 -0.07562105358 1.02934289 -0.4339618981 0.5463165641 0.6929667592
0.2251183987 -0.07819377631 1.025070429 -0.285028547 0.4972859025 0.8094619513
0.2430952787 -0.0779626295 1.040313721 -0.5578949451 0.5628176332 0.5995679498
0.2360333949 -0.0730599761 1.030282497 -0.4944731295 0.5243098736 0.6826111674
0.2284463048 -0.08155226707 1.031042099 -0.3125143349 0.5196602941 0.7623792887
0.2340192795 -0.07648122311 1.034738302 -0.5194831491 0.5891011953 0.6039332151
0.2173873931 -0.08909156173 1.031140566 -0.1281904429 0.6324146986 0.7433643341
0.2227006257 -0.08943039179 1.03595078 -0.204938367 0.6597835422 0.6771405339
0.229036957 -0.08568191528 1.036488295 -0.3066288829 0.6038752794 0.6810307503
0.2355437875 -0.08216828108 1.037460566 -0.4102337956 0.5536207557 0.6783269644
0.2323599756 -0.06717404723 1.032046318 -0.5325737 0.5114153624 0.6343076229
0.229284063 -0.07118208706 1.037099242 -0.4810501933 0.5578482747 0.6278618574
0.2167081088 -0.06042558327 1.027041912 -0.2999583483 0.4846342504 0.766102016
0.2099591941 -0.0595927313 1.026393294 -0.1891377717 0.4767697453 0.818372786
0.2143112272 -0.06723820418 1.029492617 -0.200213775 0.4458805919 0.7928029299
0.2045867741 -0.05972278491 1.023368239 -0.06661991775 0.4116010368 0.8877186179
0.2100744247 -0.07510658354 1.028820992 -0.02671558224 0.4855294824 0.8126602769
0.2144587785 -0.07808874547 1.031713009 -0.09334425628 0.5324555039 0.7581192851
0.2195349038 -0.07937034965 1.03459692 -0.1921377033 0.5637626052 0.7038003206
0.2059137076 -0.06636789441 1.024812698 -0.02241177298 0.3783395588 0.8884436488
0.2273427248 -0.07775879651 1.03826642 -0.3798281252 0.5739236474 0.634817481
0.2204471231 -0.07111087441 1.033299208 -0.2945596576 0.4793598056 0.7285580039
0.2051522881 -0.07603427768 1.026488781 0.09072624892 0.4781880677 0.8565065265
0.2075585276 -0.09606327862 1.036623478 0.1392694116 0.6757350564 0.6378563643
0.1864555925 -0.06679570675 1.01518178 -0.01135975495 0.5022440553 0.8321920633
0.1747035086 -0.05285394192 1.010395646 0.3191231489 0.3620185256 0.7750628591
0.1939590871 -0.06034394354 1.01835382 -0.08854585141 0.5144828558 0.8414110541
0.1831174642 -0.05311919749 1.013165712 0.1289518774 0.4256851673 0.7920034528
0.1804107428 -0.06016201153 1.013951182 0.2186533362 0.4122062922 0.8151153922
0.1875553727 -0.05821728706 1.015792847 0.04848763347 0.4641365707 0.8208055496
0.1889501959 -0.07252575457 1.022927165 0.1236913651 0.5016064048 0.8486744761
0.160741061 0.02830440179 1.006559372 0.5039339066 -0.3672487736 0.7814287543
0.1590254903 0.01895122416 1.006409883 0.5255376101 -0.3976289928 0.7495828271
0.1598864943 0.01121499855 1.005404711 0.5187932849 -0.4290928543 0.7362707853
0.1607289761 0.005558792967 1.003260255 0.5184910893 -0.4319825768 0.7361713052
0.1645277441 0.01631005853 1.002848268 0.4684661031 -0.4064642489 0.7833147645
0.1495057791 -0.01674212888 1.013244748 0.7473604679 -0.02747836709 0.6238960028
0.15442276 -0.009677530266 1.010991216 0.6853901744 -0.1207799986 0.6698145866
0.1608153284 0.003268748289 1.010853648 0.5963445306 -0.2963275611 0.7239080071
0.1470829695 -0.02479367889 1.009878993 0.7989883423 0.09718151391 0.5928235054
0.1461027265 -0.03196877986 1.013233542 0.7922235131 0.1577625722 0.5883407593
0.1558040082 -0.02608568035 1.000783205 0.6785368919 0.09320805222 0.7181356549
0.1621254832 -0.02163624763 0.9929679036 0.5619262457 0.005495133344 0.8175768852
0.171552375 -0.01139191445 0.9932873249 0.3717637956 -0.2372877151 0.8611007929
0.1712826341 -0.01540903933 0.988471508 0.3702679873 -0.1618629098 0.9058077335
0.1664137691 -0.01702843793 0.9930977821 0.4745333791 -0.1286486834 0.8475861549
0.1868157983 0.01620648615 0.994532764 -0.01856075786 -0.4732492268 0.8777505755
0.188126266 0.008420849219 0.993172586 0.01093128044 -0.4375407696 0.894562006
0.1923808306 0.0125229666 0.9957886338 -0.0657190159 -0.4874942899 0.8686829805
0.2002309114 0.000947911758 0.9950380325 -0.1430118829 -0.4026528299 0.879870832
0.1909621209 0.003544968786 0.9960572124 -0.006886716001 -0.4657662213 0.8817860484
0.2159751058 0.006171967369 1.002273202 -0.278598547 -0.4489372671 0.840965271
0.2221497744 0.004012472462 1.003248096 -0.3162408769 -0.4070600271 0.85068506
0.2200209945 -0.003329413012 0.9979889393 -0.3778795898 -0.3062966764 0.8680599928
0.2115419805 0.002145249862 0.9976063967 -0.2742351294 -0.4207773209 0.8566480279
0.2234385312 0.01123846509 1.006915927 -0.2900958657 -0.492870301 0.8188740611
0.2289258987 0.006814068649 1.008686543 -0.4130421281 -0.3949459791 0.8081612587
0.210920155 0.01153268013 1.005400062 -0.2140096426 -0.4891934395 0.8413076401
0.2165552229 0.01226889063 1.00728476 -0.2389299124 -0.486379087 0.8360279202
0.2021160722 -0.0171609018 0.998801291 -0.2502769828 0.07122483104 0.7550910711
0.2089716345 -0.01889325492 0.996871233 -0.3531402647 0.09295418859 0.7983594537
0.2070964128 -0.01311826799 0.9959529042 -0.302030772 -0.05566610768 0.8312330842
0.2134176642 -0.01368852612 0.9938930869 -0.3924260437 -0.06327340007 0.879791379
0.2038655579 -0.007310795598 0.9955008626 -0.2319245487 -0.2002377361 0.8529356122
0.1981185973 -0.00649661338 0.9972929358 -0.1484601051 -0.2012809962 0.811283052
0.2048756778 -0.0262778569 1.000321388 -0.3281703591 0.3065804541 0.7014982104
0.1990798265 -0.01211493928 0.9984887838 -0.1861777455 -0.05355800688 0.7720142007
0.1949171126 -0.0008368266281 0.9952015877 -0.07546131313 -0.3648511767 0.8621989489
0.1989081055 -0.02356478944 0.9996045232 -0.2285251468 0.2269005775 0.7114273906
0.1984378397 -0.03037467971 1.00128305 -0.2417908758 0.3924327493 0.662065208
0.1907826215 -0.007185215596 0.9940559268 -0.02728703432 -0.2514451444 0.85725981
0.193829447 -0.0140844509 0.9961677194 -0.1057281867 -0.05390776321 0.7992883921
0.2015955895 -0.03623979539 1.00304997 -0.3192638159 0.5647688508 0.6128584146
0.1829545647 -0.004098362755 0.9934334755 0.1306952238 -0.3900261819 0.8823395371
0.2073919177 -0.04287722334 1.009533286 -0.3594816327 0.6762698293 0.6348862648
0.2022683024 -0.04593960941 1.011194468 -0.3659581244 0.6424635649 0.6661526561
0.2116934806 -0.05201200396 1.011980891 -0.166756317 0.4315269589 0.8543119431
0.1998366266 -0.01751117595 0.9864242673 -0.1575189382 -0.04535850883 0.9716556072
0.1910952777 -0.02086528018 0.985681355 -0.03504994884 0.006374630611 0.9859765172
0.1965793073 -0.008804655634 0.9871076345 -0.0838322714 -0.2712720037 0.9528263211
0.1874819994 -0.01510261558 0.9855252504 0.037398424 -0.1655704528 0.981793642
0.1863706559 -0.007299625315 0.986918509 0.06996189058 -0.3173519671 0.9419403076
0.228249073 -0.07297435403 1.023012638 -0.3104400039 0.4683863223 0.8115400076
0.2048693746 -0.09537625313 1.029786348 0.1571266651 0.6488521099 0.7361987829
0.2015091032 -0.08302145451 1.026369691 0.153312847 0.5383449793 0.8109502196
0.2031202614 -0.08838528395 1.027822137 0.1524446309 0.5846300125 0.780063808
0.1972403973 -0.07803149521 1.024355412 0.1426151395 0.532310009 0.813214004
0.2363632172 -0.06686256826 1.023826838 -0.5254926085 0.421742022 0.7236807942
0.2331918776 -0.06143243238 1.019351006 -0.3361553252 0.2378526926 0.896623373
0.2395316064 -0.06160345301 1.02122736 -0.5693252683 0.3298368156 0.7425834537
0.2288891226 -0.06673520803 1.020176411 -0.2964902222 0.3240284026 0.8742648959
0.2228603512 -0.06362333894 1.018424392 -0.1249120533 0.2716368437 0.9519124627
0.2213049084 -0.0558690168 1.016111135 -0.1467698812 0.2294601947 0.9569394588
0.2270944417 -0.05845398083 1.017349005 -0.2068943828 0.1930991411 0.9574571252
0.2150105685 -0.0302540306 1.001426816 -0.3991325796 0.4235087335 0.7190011144
0.2162393183 -0.02047315985 0.9969406128 -0.416793853 0.1266306937 0.8325427175
0.2170747072 -0.04044168442 1.001541972 -0.3470687866 0.4775296152 0.7640957236
0.2158985883 -0.04566029459 1.006774306 -0.3058608174 0.4581191242 0.7702805996
0.2093962431 -0.0337700434 1.001446962 -0.4016118944 0.5073725581 0.6655223966
0.2184110582 -0.05156134814 1.012430787 -0.2104967982 0.3372518122 0.8745113611
0.2176538408 -0.03551758453 0.9977080226 -0.4151197374 0.5103701353 0.7304062247
0.2221771777 -0.04767367989 1.008930087 -0.2763241231 0.300267458 0.8754908442
0.2118070275 -0.03959034011 1.005425215 -0.3834831715 0.6950036883 0.6072146297
0.1743875891 -0.04421547055 0.9892404079 0.1869799048 0.4238265753 0.866214931
0.1841468662 -0.05191992596 0.9988259077 -0.01548545808 0.5752495527 0.7941596508
0.1787576675 -0.04706456885 0.9946477413 0.09694349021 0.4769848287 0.8492764831
0.187118873 -0.05957080796 1.006431818 -0.08305300772 0.5784862638 0.799836576
0.1941619813 -0.0492098406 1.00214529 -0.3116385639 0.6688017845 0.6613368988
0.1911103129 -0.05402992293 1.003897309 -0.207266748 0.6381662488 0.7206388712
0.1895149052 -0.04926925153 0.9979546666 -0.1557908803 0.673306942 0.7049607038
0.1776608825 -0.02987383492 0.9862748981 0.2096830457 0.1493050307 0.9593605995
0.2117981613 -0.08847054094 1.026974559 0.008494550362 0.5512217283 0.8129422665
0.2107723951 -0.08195529133 1.024462461 0.02509951591 0.4797444642 0.8641083837
0.2133826613 -0.07346890122 1.055550218 -0.02353059128 -0.009451009333 0.6046612263
0.2106174827 -0.06967720389 1.067987442 0.05274970084 -0.3420653939 0.54124856
0.2156182081 -0.07838442177 1.039471745 -0.09007909149 0.4028007984 0.6946052909
0.2195079327 -0.07369054854 1.054624438 -0.170937553 0.09373475611 0.5741717219
0.2177752554 -0.07561721653 1.048409343 -0.1344859749 0.2186843902 0.6243857741
0.2267881483 -0.07477684319 1.050844908 -0.3483086824 0.2801333964 0.555136025
0.2054177523 -0.07470463961 1.051792383 0.164129287 -0.02555021271 0.6761671901
0.2028124183 -0.06942132115 1.06908083 0.2405115962 -0.4714928865 0.5806542039
0.2034792751 -0.07200401276 1.060649753 0.2177163661 -0.2620189786 0.6308237314
0.208303988 -0.07616976649 1.046926022 0.09108289331 0.1284981966 0.6902467608
0.2330860496 -0.07708978653 1.043104529 -0.5053685904 0.5477797389 0.5673770308
0.2242534459 -0.07686121017 1.0441432 -0.2930485308 0.4060388803 0.613245666
0.2108460367 -0.07173986733 1.061264277 0.04183199257 -0.1790390164 0.5830596089
0.2102690339 -0.07797924429 1.040969253 0.03920887411 0.2962926626 0.7168076038
0.2062699795 -0.08020228893 1.033864737 0.1292040497 0.4123807251 0.7862134576
0.2171416879 -0.07131481171 1.06243825 -0.1079537421 -0.1235674992 0.5380733013
0.2076803446 -0.06720612943 1.076130748 0.1296689212 -0.5747714043 0.5064303875
0.1916564405 -0.08219902962 1.028214097 0.2993852496 0.6086422205 0.7336750627
0.1833756715 -0.09194237739 1.060219288 0.9496389031 -0.2143409252 0.1690920144
0.1920376271 -0.07552503794 1.080898881 0.3129678965 -0.8031919599 0.3879568875
0.1900687665 -0.08171816915 1.073774576 0.4947767556 -0.6066238284 0.3244965374
0.1875911206 -0.08664484322 1.06737268 0.6919939518 -0.4262615442 0.2592155635
0.1887557358 -0.09248538315 1.057472229 0.8011780381 -0.0534739159 0.2731629312
0.1989923567 -0.09409296513 1.034307837 0.2886810899 0.6431721449 0.7030097246
0.1934000999 -0.0898694247 1.035163283 0.3554444015 0.6338124275 0.6860433817
0.157739073 0.009076944552 1.015630126 0.5915880203 -0.3663918078 0.7176692486
0.1562162638 0.02369808592 1.012321949 0.5533374548 -0.3509128392 0.7531787157
0.1552580744 0.01450937148 1.009583592 0.5554656982 -0.3988982439 0.7257677317
0.1516373456 0.01827998459 1.013791203 0.5789156556 -0.3688264787 0.7236111164
0.1509873569 0.01030354202 1.013347387 0.5885729194 -0.3969987035 0.7010915279
0.1522868425 0.006323031615 1.01738441 0.6479646564 -0.3418370783 0.6708889604
0.202657491 -0.04098685086 0.9993011355 -0.357973367 0.7020921111 0.614992559
0.1916765571 -0.06535676122 1.013489008 -0.1447734237 0.5454208255 0.8123677969
0.1980000287 -0.0567965284 1.008206606 -0.2164761871 0.5752913356 0.7444039583
0.1967984736 -0.06902891397 1.016434193 -0.06541527808 0.4733212888 0.8675781488
0.1993694156 -0.05013682693 1.004342437 -0.2941193581 0.6064522266 0.6935950518
0.2132296562 -0.06626057625 1.018296599 0.001320019714 0.2945505381 0.9517133832
0.2048705965 -0.06499271095 1.014555812 -0.06759552658 0.4430252016 0.8567531109
0.1718491465 -0.02912353911 0.9876208305 0.3481295109 0.1218822971 0.9239297509
0.1719617695 -0.03560158983 0.9881280661 0.3107417822 0.235766679 0.913836956
0.1664955318 -0.03947963938 0.9910781384 0.3909619153 0.2788940668 0.856808722
0.161555618 -0.0282633137 0.994271934 0.5636236668 0.1018932685 0.8097141385
0.1665876508 -0.02853551507 0.9905482531 0.4725461006 0.11719767 0.8663849831
0.1769847572 -0.03565957397 0.9933354259 0.1789247841 0.3316829503 0.853957355
0.171501413 -0.03182021156 0.9934597611 0.3295683563 0.2209907174 0.8485009074
0.1793181598 -0.02426667325 0.9926772118 0.1570406109 0.09579088539 0.8597347736
0.1841329038 -0.01892191358 0.99263978 0.05131078139 -0.01842675544 0.874003768
0.1781498343 -0.01556038298 0.9929251671 0.2126027048 -0.1263744235 0.8695029616
0.1857448965 -0.03506821766 0.9921989441 -0.03770966828 0.3913681805 0.8550586104
0.18350631 -0.03063312173 0.9859357476 0.06550517678 0.1795163453 0.9752259254
0.1936634332 -0.03380638734 0.9971759915 -0.179383263 0.4276275337 0.7481461167
0.1839910299 -0.01224965788 0.9929596186 0.07647737116 -0.1845927685 0.8790234327
0.1905483156 -0.02380324341 0.9963828921 -0.0826735124 0.1573991328 0.7829968333
0.1858881861 -0.04162944481 0.9887573719 -0.04803360626 0.4590717256 0.8832961321
0.1900938749 -0.03409342468 0.9875272512 -0.1102440581 0.3516251147 0.9175053835
0.1918700039 -0.03877304867 0.9905635715 -0.1596073359 0.4789983332 0.8569398522
0.1783642918 -0.0391847603 0.9881284237 0.160164237 0.32692191 0.9244613051
0.2019859999 -0.0430970192 1.005577564 -0.3684135079 0.6875461936 0.6126915812
0.1968124807 -0.04337632284 1.003303528 -0.2953300178 0.6096377373 0.7103266716
0.1937494427 -0.04466935247 0.9963912368 -0.2825772762 0.717664957 0.6316934824
0.1765692234 -0.03897487745 0.9996160865 0.1802201122 0.3376495838 0.8161654472
0.1893080026 -0.04072870314 0.9960709214 -0.143100813 0.5088104606 0.8252952695
0.1842482686 -0.04219539091 1.003537059 -0.01912004128 0.4351013303 0.7798348069
0.1904989779 -0.0455609262 1.008812428 -0.1829093844 0.5124575496 0.7358734012
0.165926978 -0.03715566546 0.9991677403 0.4542326331 0.2332699746 0.8149706721
0.1715819389 -0.039651528 1.002334118 0.3072712719 0.3057802916 0.7858021259
0.2218761295 -0.07452176511 1.020975471 -0.1549480706 0.4336809218 0.8804216385
0.2115343362 -0.07594583929 1.02176404 -0.006318886299 0.414059937 0.908832252
0.2063209116 -0.07352303714 1.020976901 0.04505824298 0.3940068781 0.9172993898
0.1878652275 -0.08454927057 1.040083289 0.3290840089 0.601672411 0.7076815367
0.1896414906 -0.07613328844 1.028350115 0.1944968104 0.5010262132 0.8250095844
0.194687739 -0.07045853138 1.026328087 0.1146306694 0.4184702635 0.8793189526
0.1859505475 -0.09005790949 1.049949884 0.742548883 0.1939036846 0.3732231557
0.1918935329 -0.08029792458 1.056740284 0.3435000777 0.1597532183 0.6106888056
0.1992913038 -0.08012492955 1.044388056 0.2391908169 0.2826783061 0.7096867561
0.1957500875 -0.08350452036 1.040822387 0.273239255 0.476059258 0.7168495059
0.1965432465 -0.07594762743 1.061171293 0.2983734608 -0.08748917282 0.6027269959
0.1934007555 -0.0830655247 1.046165228 0.3087447286 0.399232626 0.6772372723
0.2006800175 -0.07534205914 1.055727005 0.242495805 -0.05767922848 0.6496663094
0.2003144622 -0.06877057999 1.075255275 0.279351145 -0.5671645403 0.5358949304
0.1960405111 -0.07972470671 1.051185131 0.2873215973 0.1922264248 0.6583039761
0.1922930479 -0.07849226892 1.035385966 0.2495358735 0.5234620571 0.7724722624
0.198105067 -0.08224947751 1.033352613 0.2202573568 0.5583587289 0.7787253857
0.201602295 -0.0708475709 1.025453568 0.09891223162 0.4188557267 0.8869079351
0.199528724 -0.07684939355 1.02977407 0.1652099043 0.4926733971 0.8284948468
0.1920188218 -0.07641525567 1.066489816 0.3628823161 -0.2017903328 0.5308491588
0.1947929263 -0.07066507638 1.077658534 0.3522775173 -0.621101141 0.4660047591
0.1875068098 -0.08424545079 1.052170038 0.388556242 0.3340741396 0.6034360528
0.1945254952 -0.07353894413 1.070722103 0.3404620886 -0.3580181301 0.5223557949
0.1863836497 -0.08319801092 1.058253884 0.6255552769 -0.02925065532 0.3979833424
0.1864120364 -0.07962357253 1.067251325 0.7234854698 -0.4153803885 0.2693023384
0.1878307909 -0.07602711022 1.072161198 0.4281857908 -0.422727108 0.436548382
0.1881136596 -0.07129255682 1.078475952 0.4374453127 -0.6308915615 0.3920364678
0.1491547674 -0.007818033919 1.014136553 0.759218514 -0.1620284319 0.5939837098
0.1551616937 0.001150450436 1.013524175 0.6536688209 -0.2845056653 0.6713040471
0.1403636038 -0.01516480371 1.01596117 0.820931077 -0.08414901048 0.5577924848
0.1474349052 -0.009292796254 1.007045388 0.7217273116 -0.2266745418 0.6436081529
0.1493756473 -0.01597672701 1.004957318 0.7407788634 -0.06400847435 0.6633007526
0.1506209671 -0.02180941962 1.004529476 0.7481585145 0.04274095595 0.6521924138
0.1890532374 -0.09384059161 1.045819163 0.4621492922 0.62294662 0.6013466716
0.1939304918 -0.09512489289 1.041989088 0.3688265979 0.645639658 0.6581944227
0.1999918818 -0.09896127135 1.037837386 0.3595193028 0.6354469061 0.618314445
0.1937626153 -0.100288704 1.04623878 0.6123871803 0.5806618929 0.4655447006
0.1566580385 0.0004425626248 1.004879832 0.5585396886 -0.4271582961 0.7085115314
0.1480680704 0.0005774039892 1.010498405 0.6547508836 -0.3265415132 0.6791073084
0.151419729 -0.004634993151 1.004724264 0.6334483624 -0.3174127042 0.7030121684
0.1457325965 0.008019472472 1.017674088 0.6596364379 -0.3420300782 0.6667954326
