# .PCD v0.7 - Point Cloud Data file format
VERSION 0.7
FIELDS x y z normal_x normal_y normal_z
SIZE 4 4 4 4 4 4
TYPE F F F F F F
COUNT 1 1 1 1 1 1
WIDTH 512
HEIGHT 1
VIEWPOINT 0 0 0 1 0 0 0
POINTS 512
DATA ascii
0.06804188341 -0.08988407999 0.9377930164 -0.1115078703 -0.01244010404 0.9936856627
0.06825825572 -0.08270408213 0.9383869767 -0.1115078703 -0.01244010404 0.9936856627
0.07354966551 -0.08026525378 0.9398596287 -0.1115078703 -0.01244010404 0.9936856627
0.1996928751 -0.06034873798 0.8754569888 -0.6845000386 0.3951336741 0.6124002934
0.06369499117 -0.08834971488 0.9420676827 -0.1115078703 -0.01244010404 0.9936856627
0.06376827508 -0.09839845449 0.9397611022 -0.1115078703 -0.01244010404 0.9936856627
0.05741854757 -0.08656891435 0.940191865 -0.1115078703 -0.01244010404 0.9936856627
0.05654261261 -0.09258182347 0.9395495653 -0.1115078703 -0.01244010404 0.9936856627
0.06229637191 -0.09185534716 0.9378265142 -0.1115078703 -0.01244010404 0.9936856627
0.1595433056 -0.01037461683 0.8157014847 -0.4679861963 0.04062862694 0.867608428
0.1548105925 -0.01176075358 0.8135963678 -0.3597643077 0.06098587066 0.9238610268
0.1818066239 -0.07234384865 0.8623972535 -0.3082698286 0.5363321304 0.7090466022
0.1928444505 -0.06753270328 0.8723365068 -0.5397731662 0.4967195392 0.6181406379
0.1885186881 -0.0716279 0.872446537 -0.4646626413 0.571949482 0.6022949815
0.1848421097 -0.07240936905 0.8676475883 -0.3817488253 0.5629588366 0.6517004371
0.1798371375 -0.07099403441 0.8566210866 -0.2513558567 0.483732909 0.7767061591
0.1225443482 -0.1115385219 0.9461976886 0.1936362684 0.6072388887 0.7704801559
0.1259838194 -0.1074915528 0.9435104132 0.2040805668 0.5243844986 0.8262581229
0.1527825147 -0.004790628795 0.8128281236 -0.3201813996 -0.1024595574 0.9372335672
0.154790014 0.004379324615 0.8147816658 -0.2739675343 -0.3606868386 0.8875317574
0.1490003467 -0.0006209109561 0.8122243881 -0.2122259587 -0.2341919541 0.9331768155
0.1481898874 -0.008459366858 0.811340332 -0.2391546965 -0.03086535633 0.9563339949
0.1342229247 0.03493797779 0.8252720833 -0.06161366776 -0.4837554395 0.870777607
0.1400079131 0.03486549109 0.8252826929 -0.1838916838 -0.5783100724 0.7906383276
0.1596141458 -0.004660701845 0.8159130216 -0.4182917178 -0.1147128046 0.894880712
0.161093235 -0.09175732732 0.8676134348 0.04546006024 0.7694042325 0.6294284463
0.166448012 -0.0814473331 0.8559723496 0.0004307326162 0.6032391191 0.7687753439
0.1740363389 -0.07432997227 0.8532032967 -0.1362594664 0.5171900392 0.805365324
0.1829575449 -0.07869541645 0.8772480488 -0.3843461573 0.6800051928 0.538685441
0.1779618561 -0.07818528265 0.8677592278 -0.2602751255 0.6285014749 0.6425407529
0.1748529077 -0.07636334747 0.8587620258 -0.1715113968 0.5655971766 0.7425438166
0.1872088462 -0.07529697567 0.877446115 -0.4605039358 0.6452402472 0.5404112339
0.1692268699 -0.08587085456 0.8687969446 -0.1091941521 0.7143468857 0.6224681139
0.1734614223 -0.08261277527 0.8692551851 -0.1860265136 0.6823225617 0.6212021708
0.1841932684 -0.07534634322 0.8724526763 -0.3883534968 0.6214779615 0.5947016478
0.1724280417 -0.08034073561 0.8628396392 -0.1437276751 0.6272399426 0.693621397
0.1649494022 -0.08704717457 0.8639876842 -0.01534610987 0.7033278942 0.6734668612
0.1695097238 -0.07756516337 0.8522045612 -0.05222666264 0.5463454723 0.8125399947
0.1928944141 -0.06502437592 0.8812029958 -0.6337556839 0.5354914665 0.5571652651
0.1947275847 -0.05904935673 0.8797927499 -0.6757451296 0.4199185967 0.6014245749
0.1979414821 -0.06499039382 0.8774306774 -0.6534615755 0.4784888029 0.574000895
0.1150939465 -0.1126398966 0.950314045 0.1847233623 0.5824448466 0.7837576866
0.1365199983 -0.007257761899 0.8090000153 0.04032327607 -0.1041983217 0.9884698391
0.1296147853 0.0392412357 0.8310928941 0.009473738261 -0.5612258315 0.8197752833
0.1688351482 0.01550232898 0.8295137882 -0.4242300093 -0.5171907544 0.7413780689
0.1425001323 0.01794836298 0.819239676 -0.1114244461 -0.4674870372 0.8756165504
0.1390926689 0.02891508117 0.8216228485 -0.1309066862 -0.5050576329 0.8468522429
0.139638409 0.02272299863 0.820132792 -0.09159100801 -0.4608007669 0.8823721409
0.1558577567 -0.07897798717 0.8555755615 0.2529624999 0.558316648 0.7698008418
0.1729658693 -0.07365125418 0.8724421859 -0.1929208487 0.578515172 0.6312316656
0.1640564054 -0.08022095263 0.8681548238 0.06620690972 0.5970137119 0.6665924191
0.1682216078 -0.07626403868 0.869110167 -0.0612174198 0.5815955997 0.6586475372
0.179403156 -0.06974454969 0.876535058 -0.3741875887 0.5715716481 0.5975378156
0.1598059535 -0.08161345124 0.864046216 0.1774750948 0.592523694 0.7003495097
0.1607709229 -0.07666113973 0.8594869971 0.1193292588 0.5581000447 0.7376377583
0.1607878804 -0.08120433241 0.854988873 0.2026757151 0.5732774734 0.7915533781
0.1340003461 -0.07952204347 0.8651580811 0.4268461466 0.5637578368 0.7029705644
0.1283321381 -0.07559011877 0.8675692081 0.4569583833 0.5010125637 0.733750999
0.1309714317 -0.06877627224 0.858823061 0.506721139 0.4124926627 0.7547249198
0.134954527 -0.07316423953 0.8586224318 0.4704805017 0.4745795131 0.7431107759
0.08528954536 -0.1048849374 0.940793097 -0.1115078703 -0.01244010404 0.9936856627
0.1526796818 -0.1096567512 0.9281475544 0.1094835028 0.9537296295 0.2763749659
0.1816586703 -0.07391877472 0.88138026 -0.4106658995 0.62355721 0.5373110175
0.1856257617 -0.06933418661 0.8827827573 -0.5324317217 0.5988506079 0.5332022905
0.1772801727 -0.07622063905 0.8789584637 -0.2847816348 0.61011374 0.5762507319
0.1620671898 -0.08569478244 0.8704918027 0.1527930051 0.6013017893 0.6782586575
0.1699824035 -0.07849916071 0.8735386729 -0.08723758161 0.5922673345 0.6351405978
0.1734399498 -0.08481063694 0.8754205108 -0.2214214951 0.7387515903 0.5494540334
0.187047258 -0.07495491952 0.8854012489 -0.5549263358 0.6980531216 0.442890048
0.1772169173 -0.08206575364 0.8782159686 -0.3144197464 0.7275674939 0.5195563436
0.1583476365 -0.08608812839 0.861258924 0.2211381197 0.6375015378 0.7195160985
0.1449566782 -0.1060612425 0.934589088 0.2015538067 0.9346266985 0.2928569317
0.07768213004 -0.0998217687 0.9411270618 -0.1115078703 -0.01244010404 0.9936856627
0.08340454102 -0.09489241242 0.9410717487 -0.1115078703 -0.01244010404 0.9936856627
0.0746666044 -0.08960233629 0.9423169494 -0.1115078703 -0.01244010404 0.9936856627
0.06857890636 -0.08610503376 0.9428721666 -0.1115078703 -0.01244010404 0.9936856627
0.07225438207 -0.1001510471 0.9405029416 -0.1115078703 -0.01244010404 0.9936856627
0.07693512738 -0.08764634281 0.9379462004 -0.1115078703 -0.01244010404 0.9936856627
0.07574255764 -0.09595456719 0.9378604889 -0.1115078703 -0.01244010404 0.9936856627
0.06949745864 -0.0962837413 0.9377502203 -0.1115078703 -0.01244010404 0.9936856627
0.092196621 -0.09536780417 0.9400295615 -0.1115078703 -0.01244010404 0.9936856627
0.08228126168 -0.08551928401 0.9387503862 -0.1115078703 -0.01244010404 0.9936856627
0.0877731517 -0.09061023593 0.9404095411 -0.1115078703 -0.01244010404 0.9936856627
0.1004585698 -0.09966954589 0.9417124987 -0.01621673629 0.1673232913 0.9362864494
0.1089325324 -0.1058808789 0.9452747107 0.1166691855 0.4139800966 0.8621721268
0.1045432091 -0.1027661487 0.9438041449 0.04748168215 0.2914073765 0.8956648707
0.09961470962 -0.1054715887 0.944871366 0.008446320891 0.1570241004 0.9764811397
0.09433237463 -0.09966596216 0.9423053861 -0.06190484762 0.05763611943 0.986571312
0.08319210261 -0.09933380783 0.9382339716 -0.1115078703 -0.01244010404 0.9936856627
0.08988455683 -0.1030233651 0.9380000234 -0.08812844008 0.01620585844 0.9933150411
0.1304915398 -0.08238396794 0.8708429933 0.4109815955 0.56657058 0.7139292359
0.135044083 -0.08791087568 0.8716999292 0.4011624455 0.5886333585 0.7012940645
0.1387055814 -0.08178985119 0.8704078794 0.4096032977 0.5504431725 0.7248156667
0.1458686292 -0.08488245308 0.868573606 0.3840043247 0.5720875859 0.7216157317
0.1619818509 -0.01588687859 0.8176757097 -0.5281490684 0.2007543147 0.813492775
0.0906278342 0.01622506231 0.8461565375 0.6921661496 -0.3268147111 0.6419279575
0.1450106204 0.03277089447 0.8298844099 -0.2477728277 -0.5963441133 0.7607134581
0.1482829303 0.03302817047 0.8355804682 -0.2835607231 -0.6147638559 0.7312843204
0.1351079792 0.04067058116 0.8364586234 -0.06523931772 -0.5608195066 0.8184360266
0.1430484951 0.03648033738 0.8393374085 -0.1948325038 -0.5975861549 0.7677395344
0.1396713704 0.03683793172 0.832311511 -0.1571506113 -0.5799636245 0.7906439304
0.1186869293 -0.03315570205 0.8294084668 0.3139601052 0.3783216774 0.8277737498
0.1394629776 -0.03730976582 0.8407095671 -0.0477475673 0.5533761978 0.7815358043
0.1312270761 -0.0364410542 0.8380484581 0.0910005942 0.4857523441 0.7908501029
0.1221308634 -0.03511151671 0.8342441916 0.2464481741 0.41022259 0.8054255843
0.1753190309 0.001394700259 0.8328068852 -0.6438921094 -0.1222947761 0.7384338379
0.1749712527 -0.01673801057 0.8314490318 -0.6328219175 0.2438790351 0.6866726875
0.1738699377 -0.01073681563 0.8287215233 -0.6892709136 0.1328279972 0.6682562232
0.1801725924 -0.02364129201 0.8448620439 -0.397157371 0.3388332725 0.8228327036
0.1755240709 -0.004071848933 0.8352625966 -0.5815728307 -0.006837662775 0.753541708
0.1784802824 -0.0166849494 0.8415159583 -0.4606677592 0.2169244885 0.798831284
0.1583925635 -0.02565432712 0.8212296367 -0.5052933097 0.5016374588 0.6979980469
0.1268864423 0.01521716081 0.8187719584 0.203115955 -0.4102634192 0.8776698709
0.1309824139 0.02853231691 0.822106421 0.03260935098 -0.4340759218 0.8893786669
0.1309287995 0.02030594088 0.8192021251 0.08895540982 -0.4382474422 0.8763785958
0.1348236948 0.01648665406 0.8195419312 0.05855556577 -0.4480369687 0.8862265348
0.1280682385 0.009846618399 0.8167779446 0.2180288583 -0.4199558794 0.8689695001
0.1369354576 0.009951577522 0.8183162212 0.0723497048 -0.4440094829 0.8909413815
0.1389271766 0.005226468667 0.8149166703 0.04513760656 -0.4150241911 0.9014655352
0.1415823996 0.0005111764185 0.8121631145 -0.06226902455 -0.2872968912 0.9389001131
0.1687538624 0.0102437092 0.8261232972 -0.4032111466 -0.4348039329 0.7985597849
0.1715783328 0.005811647512 0.8297318816 -0.5605148077 -0.2530617714 0.7616978884
0.1611412913 0.02005163766 0.827003777 -0.3623248339 -0.5630699992 0.7397373319
0.1568757296 0.009434930049 0.8191050887 -0.3008416295 -0.4281495512 0.8444114923
0.1628113687 0.00577635644 0.8206766844 -0.3835871816 -0.3350542486 0.8526970148
0.1459154487 0.01274935342 0.8182578683 -0.1356970519 -0.4675959051 0.8717618585
0.1518765986 0.01635052264 0.8202397823 -0.2564122677 -0.5030657053 0.8237426877
0.1471153349 0.006432654802 0.8151060343 -0.1369011998 -0.4271092117 0.8900695443
0.1507973224 0.01062841434 0.8176980615 -0.2058997452 -0.4662545323 0.8567410707
0.1497039795 0.02553628013 0.8242301941 -0.2704678476 -0.5547642708 0.7831621766
0.146089986 0.0299919229 0.8239474297 -0.2509194016 -0.5767768025 0.7743732929
0.1538548023 0.02026814409 0.8245136142 -0.2923648655 -0.5281818509 0.7944543362
0.1534730345 -0.083632797 0.8586794138 0.309227705 0.6046565175 0.7322032452
0.1321778297 -0.01335425768 0.809683919 0.1399223953 0.06102928519 0.9801611304
0.1417584121 -0.01297586132 0.8115689158 -0.1168200672 0.09792602062 0.9737455845
0.1430574358 -0.007336995099 0.8097702265 -0.1476983279 -0.06700318307 0.9783700705
0.1494783461 -0.01394910086 0.8127528429 -0.2677862644 0.1185118929 0.9480021
0.1443001181 -0.01803663932 0.8132748008 -0.1676056832 0.2239111066 0.955049932
0.1386742592 -0.01963029988 0.812813282 -0.0234443713 0.2671423554 0.9556642175
0.08469709009 0.00801934395 0.8520965576 0.7009289265 -0.3198039234 0.6373088956
0.09037597477 0.01011770684 0.8490589261 0.6833077073 -0.311784029 0.6596719027
0.1318968385 -0.06887440383 0.8648599982 0.4794634283 0.4207887053 0.7592459321
0.1333418638 -0.06404879689 0.8606883287 0.5023449659 0.3555044532 0.7771582007
0.1031387299 -0.1102677584 0.9449223876 0.04951073974 0.2105218917 0.9736641645
0.09093894064 -0.1070091948 0.9417895079 -0.06186381727 0.05541940033 0.9881132841
0.09664532542 -0.1050985903 0.9380000234 -0.01439729054 0.10654594 0.9921461344
0.1352859437 0.02587301843 0.8381478786 0.02371368185 -0.4721340239 0.7985197306
0.128027603 0.0225330852 0.8358516693 0.1770067513 -0.4038153887 0.8155661225
0.1238790974 0.01939611509 0.8328658342 0.2715528607 -0.3516243994 0.8433197737
0.1180972606 0.01763907261 0.83226794 0.3885631859 -0.3068730533 0.8436478972
0.1674432755 -0.08579096943 0.8754316568 0.0009099413874 0.6425940394 0.6082752943
0.1565100849 -0.09309928864 0.8720974922 0.2639902532 0.6266556382 0.6829014421
0.1509846002 -0.09191714227 0.8702338338 0.3596703708 0.6049280763 0.7099738717
0.1328830272 -0.1069507077 0.9408636093 0.2034316957 0.5295320153 0.8227928281
0.1081921235 -0.1021912768 0.9384908676 0.048139669 0.2156741023 0.9552881122
0.1198789403 -0.1101136133 0.9392784834 0.1317639798 0.3775951862 0.8883516788
0.1023541018 -0.1037823036 0.9381781816 0.02045229636 0.1620632559 0.9774502516
0.1133982912 -0.1052913889 0.9388056397 0.08392765373 0.2849701047 0.9266418815
0.106217891 -0.1084753796 0.938508451 0.05386291444 0.2267559767 0.9507069588
0.1120421812 -0.1104281023 0.9411377907 0.1052108034 0.3691296279 0.882881701
0.1371267587 -0.1115663201 0.9373877645 0.1994971037 0.9320835471 0.2948838472
0.1449134648 -0.09209718555 0.8700292706 0.3768205345 0.6090673804 0.6978650689
0.1399122924 -0.09032739699 0.8723281026 0.3910180926 0.5974462628 0.6998198628
0.1530314088 -0.08903574198 0.8652742505 0.349817276 0.6118357778 0.7093429565
0.1956418604 -0.05564811826 0.8742044568 -0.6637768149 0.3818188906 0.6338523626
0.1952259839 -0.0518704243 0.8690871 -0.6152843237 0.3869214058 0.6658739448
0.1904767156 -0.04614177346 0.8599445224 -0.5543786883 0.3646862805 0.7237845659
0.1830510199 -0.0416161418 0.8469287157 -0.5135332942 0.2954424322 0.7961803675
0.1922703534 -0.0510023497 0.8620093465 -0.6085812449 0.340249449 0.6995633841
0.1820639968 -0.03029380366 0.8482694626 -0.3819378018 0.4033724666 0.8249666691
0.1856812686 -0.04126081616 0.8520999551 -0.5049545765 0.3413657248 0.7740377188
0.1787347496 -0.05932535231 0.847494781 -0.3942818642 0.2895905972 0.8256934285
0.1942988932 -0.0626604557 0.8680422902 -0.5838596225 0.3992387056 0.6644436717
0.1906819493 -0.06370016932 0.8642148972 -0.5126385689 0.402025491 0.6989024878
0.1731569171 -0.07088644803 0.8469606638 -0.1281937361 0.4456974864 0.8664883971
0.1809885949 -0.06320697814 0.8519876003 -0.3818455637 0.3634437919 0.7903003693
0.1777895391 -0.06967740506 0.8519365191 -0.2171682715 0.4438500404 0.8223885298
0.1881394684 -0.06124309078 0.8596096039 -0.5209738016 0.3592213988 0.722200036
0.1864912808 -0.06712641567 0.8611147404 -0.3894228041 0.4364487529 0.7394720316
0.1833872795 -0.05772241578 0.8516457081 -0.5169177651 0.2942665517 0.7660565972
0.1681093574 -0.06841058284 0.8454596996 -0.01055243239 0.3862316906 0.9157547951
0.1503173113 -0.01940573566 0.8139330149 -0.2617580593 0.2275560051 0.9255973697
0.1473793685 -0.02426790632 0.8146750927 -0.2069965452 0.3451561332 0.8991107345
0.1558496803 -0.01722648554 0.8151702285 -0.3925966024 0.2202085406 0.8794773817
0.1546015739 -0.02327162027 0.8169540763 -0.4053282142 0.3903234303 0.8227663636
0.1230117083 0.04131149873 0.8357019424 0.1495175213 -0.5679088831 0.7810338736
0.108433269 0.03710194305 0.8365182281 0.4285379052 -0.4370782077 0.7411054969
0.1024689078 0.03454177454 0.8367905021 0.5635572076 -0.363674134 0.7368472219
0.09856516868 0.03277359903 0.8398928642 0.6146485209 -0.3341302276 0.7143066525
0.09538759291 0.02500646748 0.8446233273 0.6463025212 -0.323751688 0.6883009076
0.1584641635 0.02736639231 0.8412202597 -0.3615502417 -0.5996371508 0.7084975243
0.1617680341 0.02345044166 0.838468492 -0.3751723468 -0.5682868958 0.7255379558
0.1546482295 0.03202206269 0.8445336223 -0.3460211754 -0.6363664865 0.6882302165
0.1551791281 0.02642890252 0.827360034 -0.330314517 -0.581237793 0.7383984327
0.155900076 0.02780088969 0.8344575763 -0.3399451673 -0.5900816917 0.7271549702
0.1652263701 0.02099700458 0.8319450021 -0.4248660207 -0.5623956919 0.7083039284
0.07978165895 -0.006433086004 0.8466546535 0.7091088295 -0.2238278687 0.6683239937
0.08222849667 0.002335882979 0.8503119946 0.7063084245 -0.2850508988 0.6459493637
0.08947408199 0.0006650752039 0.8429831266 0.7020335197 -0.2893099785 0.650519073
0.1238474399 -0.03800827265 0.8387420177 0.2995294333 0.3753735721 0.8188465238
0.1417856663 -0.0447264351 0.8496077061 0.2221514583 0.391277492 0.8635858297
0.1405815631 -0.04110107943 0.8456251621 0.07614187151 0.4784955084 0.8162255883
0.1347349137 -0.03976943344 0.8429629803 0.1422313899 0.4494487941 0.8136330843
0.1292367429 -0.04032090306 0.8423080444 0.2902979851 0.3719681203 0.8363995552
0.1541326046 -0.03010429442 0.820822835 -0.4193229377 0.612215817 0.6666404605
0.1454812139 -0.03024829552 0.8162837029 -0.1993931234 0.5682608485 0.7765180469
0.1589150876 -0.03539341316 0.8273363709 -0.3514143527 0.4218434989 0.7759971023
0.1577949822 -0.04155060649 0.8297693133 -0.2195352614 0.3890093863 0.8331151009
0.1577148139 -0.05016763881 0.8377672434 0.1102641523 0.1836882979 0.9608861208
0.172404021 -0.005396232009 0.8265331388 -0.7015531659 0.02655020915 0.6972900033
0.1666415185 -0.0180388242 0.8339009285 -0.4827730656 0.3128692508 0.7206811905
0.1675830185 -0.006217752118 0.8299524188 -0.4881930351 0.01370516885 0.7695415616
0.1687195152 -0.01243815757 0.8332956433 -0.527372241 0.188395679 0.7248288989
0.1641483307 -0.02012944967 0.821167171 -0.5854250193 0.3487296999 0.7217623591
0.1779317558 -0.02374490723 0.8391728997 -0.4918715954 0.356833905 0.7592384815
0.1347034872 0.001379831461 0.81355232 0.133727625 -0.3439834118 0.9248338938
0.1319423765 -0.003336632159 0.8114520907 0.1755468994 -0.2457737923 0.9459360838
0.1266658455 0.001278228941 0.8136737943 0.2825970948 -0.3319317102 0.8888816833
0.1255677938 -0.005120174959 0.8115878105 0.2946225107 -0.2151872665 0.9265210629
0.1292355508 -0.008631542325 0.8090000153 0.2497418374 -0.09607948363 0.9599527121
0.1193306223 0.003355372464 0.8188179731 0.3659883738 -0.39893049 0.8395342827
0.1231269985 0.01716993004 0.8219636679 0.24625732 -0.3840585351 0.8851774931
0.1241506413 0.005480192602 0.8164317012 0.3085631132 -0.4006685615 0.8616776466
0.123537004 0.0241420269 0.8243679404 0.2105003744 -0.3755455613 0.8995611668
0.1634119153 -0.0007920308853 0.818780899 -0.4448931813 -0.1898662299 0.8688569069
0.1710465699 0.0001455342863 0.8262832761 -0.5693964362 -0.1434172392 0.7880818844
0.1684452742 -0.004370094743 0.8226673603 -0.546820581 -0.05878865719 0.8316536546
0.1669955403 -0.01174001675 0.8202182651 -0.6114542484 0.09770096838 0.7526301742
0.1708714664 -0.01590835676 0.8235012293 -0.7320426106 0.2580195963 0.6276381016
0.1521802247 -0.03733135387 0.8234186769 -0.1855784357 0.4773762226 0.7959797978
0.1462317705 -0.03552573919 0.8209424019 -0.1886463165 0.6290516257 0.7189151049
0.1452791542 -0.03921939433 0.8248785138 -0.07555755228 0.5936519504 0.7418166399
0.1534118652 -0.04563206807 0.8325545192 0.04111107811 0.327172637 0.8820796609
0.08835923672 0.01364623196 0.8530001044 0.6858969331 -0.3251378834 0.650421977
0.1204418167 0.02188086882 0.8369746208 0.3223472834 -0.3644489646 0.7947419882
0.1440650225 0.03301605955 0.8449873328 -0.1786563545 -0.5887810588 0.7338314652
0.1151006669 0.0237878412 0.8403163552 0.4135747552 -0.3652845621 0.7512065172
0.1292696148 0.02796977758 0.8422142267 0.1255200803 -0.4707428813 0.7470118403
0.1384872943 0.03764295951 0.8419955373 -0.1150507852 -0.6186149716 0.7468115687
0.1061164662 0.02738684602 0.8432624936 0.5590019822 -0.3706772327 0.7032536864
0.118977882 0.03249754384 0.8420715332 0.2823545933 -0.4809093475 0.7255029082
0.1243856475 0.03232414648 0.8431123495 0.1858448684 -0.50097543 0.7237755656
0.1376837045 0.03228969499 0.8454117179 -0.05482272059 -0.5547552109 0.721398294
0.1149330065 0.02870069072 0.8438996077 0.3880377114 -0.4214611351 0.7080565691
0.131489411 0.0372942239 0.8410291076 0.01472614892 -0.5861622095 0.7463117838
0.1263261586 0.03799866885 0.8396775126 0.1022752449 -0.5731022954 0.7505327463
0.1293558329 0.04248390719 0.8369797468 0.01991013624 -0.600109458 0.7947074175
0.09294010699 0.01888967678 0.8522441387 0.6717194915 -0.3218463957 0.6671471
0.1017480791 0.02294606902 0.8441932201 0.650993228 -0.3198921084 0.6881636977
0.09788555652 0.02236114815 0.8485810757 0.665327847 -0.3155504763 0.6763227582
0.1398883462 -0.08716803044 0.8667177558 0.3943187892 0.6083589792 0.688744545
0.1487753838 -0.08574771136 0.8627802134 0.3669830263 0.6123031378 0.6998935342
0.1442153603 -0.07939396054 0.8573858142 0.3865960538 0.5752158761 0.7176639438
0.1386411488 -0.07908763736 0.8609346151 0.4197738171 0.5581579804 0.7120278478
0.162466526 -0.06769385934 0.8457940221 0.1103609949 0.3618095219 0.9177243114
0.1611005962 -0.07275090367 0.8476489186 0.157507956 0.4552145898 0.869723022
0.1673940867 -0.07341916114 0.8474563956 0.02419904619 0.4806568325 0.8721319437
0.1281126291 -0.02403880097 0.814021349 0.1884813309 0.318475306 0.9195789695
0.1281098872 -0.01772170514 0.8114287853 0.2233715504 0.159304142 0.9432724714
0.1215962172 -0.02298300527 0.8159332871 0.3217893839 0.2883088887 0.8966665268
0.1239019036 -0.01432997081 0.811832428 0.3046090603 0.09942317754 0.9429529905
0.1169262081 -0.01234368607 0.8159299493 0.4303028882 0.01853855886 0.8906425834
0.1166851223 -0.006021176931 0.8164262176 0.4218114316 -0.1891475618 0.8823925853
0.1143837422 -0.03089717589 0.8229635358 0.4031666815 0.3027233779 0.8633943796
0.1099322811 -0.03318149969 0.8266500831 0.4615661502 0.2699516416 0.8414571881
0.1085380167 -0.01893576235 0.8208825588 0.5343553424 0.1247555017 0.8350571394
0.1137734875 -0.02400284633 0.8205607533 0.4364360273 0.2588692605 0.8580286503
0.1141445637 -0.01836632937 0.8180677891 0.4617381096 0.1686597615 0.8646093607
0.1239942685 0.03712128103 0.8315902352 0.2492695451 -0.372865051 0.8922171593
0.1177117974 0.03613277897 0.8323460221 0.3436773419 -0.3946276903 0.8263965845
0.12118911 0.03051321022 0.8265908957 0.2943988442 -0.3384209275 0.8880281448
0.1124871895 0.007264077198 0.8245514035 0.4236759543 -0.3526984155 0.8314282894
0.1128280014 0.01437719073 0.8264257908 0.416228801 -0.3383292854 0.8391501307
0.1506658494 0.02947422303 0.8400546908 -0.2957911193 -0.6186923385 0.7261027694
0.1421416551 0.02817836404 0.8389357924 -0.1239913106 -0.537702322 0.7834755182
0.1402421594 0.02461036853 0.8341770768 -0.08545300364 -0.5130445361 0.802627027
0.1306593716 0.0192950312 0.8305484653 0.1440230608 -0.3842725456 0.8709189296
0.1357590407 0.0216287449 0.8316844106 0.02053486183 -0.4529719651 0.8356812596
0.1282350272 0.01572832651 0.8264852166 0.2011625916 -0.3497056961 0.9026735425
0.1379775107 0.01620938443 0.8245962262 -0.01299040113 -0.4543936551 0.8841354251
0.1725566834 -0.01506341621 0.838168323 -0.4910070598 0.2395514697 0.7528095841
0.1750891209 -0.009911032394 0.8376917243 -0.5102213025 0.1271933615 0.7664803863
0.1716746688 -0.02142471075 0.8403036594 -0.4324361682 0.37707147 0.7594255805
0.146316424 0.02425261773 0.831027925 -0.2323282957 -0.5870370269 0.7739754319
0.1534112394 0.01448378991 0.8257793784 -0.268759042 -0.4519647062 0.8325365782
0.1489471346 0.01959483884 0.8277930617 -0.2125844657 -0.5300062299 0.8125404119
0.1589489728 0.01254366152 0.8265057802 -0.3444806635 -0.4159822166 0.8224890232
0.155906707 0.01861105859 0.8297718167 -0.3097432554 -0.5048921704 0.7883923054
0.1668912172 0.01238718443 0.8335225582 -0.5239263177 -0.3353902102 0.7313854098
0.1368533522 -0.06645979732 0.8547782898 0.4829264879 0.3811097145 0.7847778201
0.1420469433 -0.06943313032 0.8518425822 0.422530055 0.397909075 0.8065232038
0.1402308345 -0.06998265535 0.8576143384 0.4442301095 0.4237710238 0.781725347
0.1479558349 -0.08054707944 0.8617534041 0.3840613663 0.5446208715 0.7357111573
0.1431450695 -0.08017598093 0.8652979732 0.3963868022 0.5484532118 0.7301377058
0.1366315633 -0.07349272072 0.8640016913 0.4381098151 0.4748954177 0.7566710114
0.1485755295 -0.07596690208 0.8566095233 0.3814449608 0.4937996864 0.7675018907
0.152320385 -0.07232624292 0.8485449553 0.3152210116 0.4326157272 0.8425787091
0.1373963505 -0.06110952422 0.8571690321 0.459480226 0.3095782697 0.8219106197
0.08729252219 -0.02249679714 0.8400323987 0.659811914 0.01580964774 0.7492207885
0.08444690704 -0.01863487251 0.8422263265 0.6818478703 -0.04949608445 0.7235171199
0.08090355247 -0.01276311185 0.8446950316 0.7040857673 -0.1384293437 0.6921892166
0.1616930962 -0.04308309406 0.8339592218 -0.2088811994 0.2917311192 0.8856073618
0.1659643501 -0.04628213122 0.8401331902 -0.1290530413 0.2430075258 0.956587553
0.1603980958 -0.02934373729 0.825252831 -0.4610922337 0.4795936048 0.7189739347
0.1642065495 -0.02502415702 0.8250426054 -0.5552529693 0.4514954686 0.6844518781
0.1630558372 -0.03711517528 0.8325009942 -0.3019911647 0.3845482469 0.8315502405
0.1327775568 0.006057748105 0.8159766793 0.169356063 -0.4186394811 0.8879535198
0.1522687972 -0.02818769589 0.8386209011 -0.2465145737 0.4480781853 0.7471164465
0.1428374648 -0.006315085106 0.8281792998 -0.04164444283 -0.07897580415 0.8059629202
0.1505242139 -0.03312219679 0.841376245 -0.2269194573 0.5330855846 0.7525073886
0.1474375874 -0.02204990014 0.8359163404 -0.1518946886 0.2810551226 0.774160862
0.1377093792 -0.002355015837 0.8266418576 0.05358318612 -0.2043418735 0.833106041
0.1480452865 -0.009829759598 0.8294760585 -0.1373194009 0.03803682327 0.7787079215
0.1533176303 -0.02177373879 0.8351653218 -0.2512694895 0.3269147873 0.7459846735
0.1584984958 -0.0289982371 0.83840096 -0.3540467322 0.5190826058 0.7165899277
0.1554745138 -0.01754824258 0.8327375054 -0.2793168724 0.2599248588 0.7381724715
0.1419413537 -0.01378535386 0.8321704268 -0.04163777828 0.0649907738 0.8057122231
0.1478077471 -0.0172539521 0.8333751559 -0.1484121233 0.1868320256 0.7753107548
0.1272791624 0.01100166515 0.8232492208 0.2393001169 -0.4108375609 0.8738049269
0.1213905215 -0.001010260312 0.8156275749 0.3438129425 -0.3389344513 0.8693320751
0.1350135952 0.00228574872 0.8243283033 0.1089788452 -0.3207734227 0.8486989737
0.1297808588 -0.01186392549 0.8239210248 0.1749818027 -0.006631526165 0.8534166813
0.1371220201 -0.03499454632 0.8357972503 0.002674333053 0.522804141 0.8046762943
0.1252114177 -0.02876373008 0.824760437 0.2241922617 0.3702482879 0.8530836105
0.140349254 -0.0273800455 0.8363409638 -0.04009480402 0.3541634679 0.8006768227
0.1433811337 -0.03259935603 0.84010607 -0.103220731 0.4750042856 0.7847940326
0.132734552 -0.006706906483 0.8248952031 0.1324774027 -0.1200771481 0.8479803801
0.1289286166 -0.03218180314 0.8285924792 0.1523258388 0.4511183202 0.8365320563
0.1309939921 -0.0009619389311 0.8220108151 0.1738144606 -0.2514906228 0.8597921133
0.1341472119 -0.02725530788 0.8314144611 0.06946729869 0.3451422751 0.8228258491
0.1375185996 -0.02008971758 0.8321899772 0.02332444675 0.1867783219 0.8178744912
0.1306951195 -0.02191438526 0.8272858262 0.1402265429 0.2211360782 0.8403202891
0.1328070164 -0.01614228077 0.827434063 0.11370188 0.09296481311 0.8384763598
0.1263540387 -0.02006685548 0.8233745694 0.2201784253 0.175091058 0.8575484157
0.12394014 0.006828461308 0.8218721747 0.2853600979 -0.4061869979 0.8496601582
0.1274667978 -0.005703791976 0.8210694194 0.2250319272 -0.1457470953 0.8642671108
0.1241599992 -0.01389258727 0.8211295605 0.2662595809 0.03772148117 0.8650335073
0.1294279993 0.00495257508 0.8212351799 0.2050423324 -0.3789530098 0.8596059084
0.1252749115 0.0003165289236 0.8215069175 0.2611664236 -0.2696797252 0.8564714789
0.1616939008 -0.02165288851 0.8348551393 -0.4024072587 0.400339812 0.7087305784
0.1494276822 -4.304475442e-05 0.8279233575 -0.1948914528 -0.1334285885 0.7962995172
0.152023375 -0.005350015592 0.8294768333 -0.2359687239 -0.006787344348 0.7758549452
0.1458426118 0.009636675939 0.8255005479 -0.1472348273 -0.3521638513 0.8306639194
0.1401025802 0.01083279867 0.8233087659 -0.01568235084 -0.4356665313 0.8483945727
0.1414799541 0.004006504081 0.8246062398 -0.02198774926 -0.2936809063 0.8270900249
0.1599248052 0.005813894328 0.8256081343 -0.357765615 -0.2818087339 0.8294901252
0.1610269845 -0.01441204548 0.832909286 -0.3972864151 0.2342117429 0.7363954186
0.1513815522 0.00547230849 0.8272952437 -0.24887909 -0.2344375551 0.8113164306
0.1640431881 -0.001968754223 0.8277427554 -0.4202431142 -0.09993101656 0.8008318543
0.15815036 0.0001981683454 0.8280152678 -0.342117846 -0.1291426271 0.7996084094
0.1586092412 -0.005844346248 0.8301728368 -0.3555829227 0.02443377487 0.7720475793
0.1461512595 0.0151839219 0.8246482015 -0.1697499752 -0.4609829783 0.8469010592
0.1661349684 0.003487504087 0.8253368139 -0.4401518703 -0.2499222159 0.8305780292
0.1220513359 0.01422660891 0.8272740841 0.3216278255 -0.3252392411 0.8860337138
0.1176797226 0.007861483842 0.8239340782 0.3678982854 -0.3812469244 0.8461858034
0.1079178676 0.01352683362 0.832906127 0.5484809279 -0.3230363727 0.768324554
0.1569708288 -0.07607717067 0.8508414626 0.2429834008 0.5132139325 0.8202229738
0.156371519 -0.06899166852 0.8466621637 0.2508048117 0.3785865307 0.886068821
0.1480682194 -0.06957086176 0.8521576524 0.3533358574 0.4297965467 0.8158442974
0.133875072 -0.02614210732 0.8142817616 0.05694698915 0.383662045 0.9189530611
0.1292606741 -0.03037289158 0.8168572187 0.156670168 0.4171711504 0.8898558617
0.1370773166 -0.03073604405 0.8165037632 -0.03516418487 0.5239812136 0.8339905143
0.1401722729 -0.02612977847 0.8144452572 -0.06732401997 0.40574193 0.8958170414
0.1187601089 -0.02854300663 0.8195887208 0.3461866677 0.3129948378 0.8814361095
0.1275157332 -0.0450915359 0.832973659 0.3624346256 0.3747044802 0.8455659151
0.1377687007 -0.06275042146 0.8506583571 0.4540640116 0.3201069832 0.8264939785
0.1279924214 -0.05216368288 0.8429936767 0.4374086261 0.3555741906 0.8154774904
0.1328366697 -0.06179247051 0.8532406092 0.4952421188 0.3263664842 0.8004617095
0.1278841645 -0.05547502264 0.847953558 0.4760087132 0.3468667269 0.7993392348
0.1342265308 -0.05488596112 0.8419535756 0.4024567604 0.34365049 0.8413219452
0.1333443671 -0.05145888403 0.8376250267 0.3729927242 0.3534115255 0.8518745303
0.1382635236 -0.05870550498 0.8443062305 0.4030887485 0.3304701746 0.8484502435
0.1309534609 -0.0410380736 0.8268078566 0.2144965231 0.4726958871 0.8167020082
0.1267177016 -0.03721069172 0.8235785961 0.2420419157 0.4503384531 0.8358362913
0.1391684413 -0.05440331623 0.8383132219 0.3175962865 0.3784329593 0.8455227613
0.1334235519 -0.04765240476 0.832557261 0.3138671517 0.3842373788 0.8541669846
0.1479698718 -0.04542094842 0.8308541179 0.04779441282 0.4753359556 0.8057128787
0.1405014396 -0.0461586304 0.831140995 0.0818618685 0.5719273686 0.753217876
0.1375012994 -0.03767829388 0.8236916661 -0.06125010923 0.7055162191 0.6937021017
0.1432288587 -0.04937757924 0.8342410922 0.1364143938 0.4910881519 0.7938258052
0.1516489387 -0.05342242867 0.8389927149 0.205687508 0.2948063612 0.9014784098
0.145637989 -0.06260058284 0.8454674482 0.3592334986 0.3258229792 0.8608943224
0.1497286558 -0.05891084671 0.843151629 0.2977487445 0.281599164 0.8961970806
0.1453386545 -0.05480920523 0.8390446305 0.2281044275 0.4019547999 0.8340801597
0.1403776407 -0.04101739079 0.8269155025 -0.004654638469 0.6207657456 0.7363602519
0.1545178443 -0.06275514513 0.8445302248 0.267534852 0.3027690053 0.9127865434
0.1613916606 -0.05447966978 0.8403916955 0.01802760176 0.1961070001 0.9713237882
0.1604884267 -0.06079551205 0.8432103992 0.1339025944 0.2692484558 0.9475030899
0.1105112955 0.03291648999 0.8411240578 0.4318009615 -0.4298687279 0.7315536141
0.1179040819 0.03851506114 0.8386368155 0.2501019835 -0.5243342519 0.7569183707
0.1088764146 0.0186004471 0.8367165327 0.5508545637 -0.2934032679 0.7721937299
0.1038065031 0.01844772324 0.8397123218 0.6301338673 -0.302531004 0.7110868096
0.1115320995 -0.0003589337866 0.8214528561 0.4930963218 -0.2921615243 0.8109597564
0.1009551361 0.02177764103 0.8338068724 0.5785114169 -0.3699500263 0.7255131006
0.09975673258 0.02904622257 0.8350712657 0.5965988636 -0.3539021313 0.7192680836
0.1029257327 0.01568357833 0.8296893835 0.5569145083 -0.3458821476 0.753266573
0.1051133871 0.004905920941 0.8291287422 0.5738970637 -0.2774197161 0.7615399957
0.1007612348 -0.00354008493 0.8280969858 0.6115993857 -0.1691833287 0.7647325993
0.1289588213 -0.0491528362 0.8478402495 0.4858853519 0.2459052652 0.8346463442
0.1084259152 -0.03671805561 0.8333055377 0.5100497007 0.2862378657 0.8108728528
0.1328855604 -0.0546599403 0.852771759 0.4942617714 0.2579056323 0.8249246478
0.1363075078 -0.04888119921 0.8497947454 0.4576224983 0.2017208636 0.8646866679
0.1254974306 -0.04551864788 0.8443323374 0.4835704863 0.2430150658 0.8376515508
0.1164851785 -0.04633290693 0.8419774771 0.517724812 0.3028332591 0.7990633845
0.113209635 -0.04189736396 0.8376452327 0.508554697 0.2967683971 0.8069571853
0.120944567 -0.05054657161 0.8451504707 0.509876132 0.3128292859 0.7989105582
0.1260954291 -0.05840278044 0.8532788754 0.5341143608 0.3215266466 0.7813819051
0.1148426831 -0.03849532828 0.8314233422 0.4505845308 0.305141598 0.8356076479
0.1311821938 -0.04418982565 0.8457229137 0.4109017849 0.2734947801 0.8628463745
0.1253068596 -0.04749710113 0.8382092714 0.414183557 0.3656212389 0.8224650621
0.1233186126 -0.04143926874 0.8307491541 0.3687374592 0.3757736087 0.8415280581
0.120629549 -0.04382064193 0.8354405761 0.4374299347 0.3244011402 0.8331895471
0.1218974516 -0.03423867747 0.8214042783 0.3009207547 0.400703311 0.8644163609
0.1405804455 -0.05321254954 0.8518574834 0.402125299 0.2745119929 0.8696902394
0.0868036449 -0.014026233 0.8396542072 0.6921647191 -0.06378428638 0.7161022425
0.1678839028 -0.03063688055 0.844342947 -0.3009804487 0.567162931 0.7533740401
0.1619799584 -0.03344303742 0.8436853886 -0.2931866944 0.6267553568 0.7060964108
0.1559771895 -0.03648327664 0.8429973722 -0.2826488912 0.6857934594 0.6597344875
0.1706904918 -0.02238994092 0.8263867497 -0.7022597194 0.3101242781 0.634062767
0.1664753109 -0.03290144727 0.8319199085 -0.4025366902 0.3552536368 0.7908577919
0.1743216962 -0.05454773828 0.8440060616 -0.1796367913 0.1587026715 0.9706246257
0.1690479219 -0.05071761459 0.841391027 -0.1142455637 0.162789613 0.9786079526
0.1744053513 -0.04783858731 0.8430227637 -0.1466322094 0.1666211784 0.9747552276
0.1812331229 -0.04747407511 0.8456658721 -0.468267858 0.2300285846 0.8309131861
0.1811421067 -0.0527330637 0.847097218 -0.5065689087 0.2129031569 0.8137827516
0.171016857 -0.03832380846 0.8373124599 -0.3063025475 0.2399312407 0.8671965599
0.1134181097 0.02360241301 0.8308549523 0.4358456731 -0.3187880814 0.8393975496
0.1075101122 0.03057337552 0.8326929808 0.4886191189 -0.3332531154 0.7916780114
0.1126691699 0.03393181413 0.8315426111 0.4526079595 -0.3257398605 0.8236071467
0.1082419232 0.02536766976 0.8327288628 0.509241879 -0.3276255429 0.7906230688
0.1102984026 0.01866574399 0.83081007 0.5022476912 -0.3314990699 0.7959504128
0.1038923487 0.009587509558 0.8318073153 0.5491861701 -0.3852519989 0.7408158779
0.1091968194 -0.0238700062 0.8234894276 0.4995509684 0.2031801492 0.8350699544
0.1027398407 -0.02611265704 0.8292281628 0.5566070676 0.1592511684 0.8135949373
0.1027332693 -0.01609726064 0.8264047503 0.5882859826 0.05851094425 0.8021313548
0.1011692435 -0.01040103659 0.8267700076 0.6139714718 -0.03212955222 0.7818201184
0.1206243932 -0.01843045279 0.8213194609 0.3143105507 0.1433715522 0.8628895879
0.1189783067 -0.007764229551 0.8215278983 0.3577755094 -0.08237310499 0.8541077375
0.1173483431 -0.01373688783 0.8212882876 0.3836324811 0.04906248301 0.8568162322
0.1072937176 -0.00989714358 0.8211084008 0.5375338197 -0.06592962891 0.8274644613
0.1122386605 -0.009284696542 0.8185225725 0.4813906848 -0.09687054902 0.8563241959
0.09770333767 -0.0181759689 0.8295843601 0.6249092817 0.07058697939 0.7754163742
0.0957807079 0.004344857763 0.8386129737 0.6540459394 -0.3027292192 0.6879647374
0.1466865838 -0.04128905758 0.8463578224 -0.02873160131 0.5503115654 0.7617455721
0.1775421649 -0.0303378161 0.8398475647 -0.415622741 0.3679054081 0.7988485098
0.1751501262 -0.03160218522 0.8447471261 -0.2517528534 0.4574490488 0.8500875235
0.173785314 -0.02677779086 0.8308495283 -0.6653385162 0.2979044616 0.669064641
0.1760456264 -0.04254398122 0.8414976001 -0.3019986451 0.2043114901 0.8907421827
0.1729438156 -0.03198067844 0.8335024118 -0.4845602512 0.2472121865 0.7694882154
0.1655734181 -0.05116380751 0.8621902466 -0.1844714731 0.3743369877 0.7543048263
0.1840320677 -0.05288312584 0.8682156801 -0.5401362181 0.4056120217 0.672971487
0.1701856107 -0.03638691455 0.8453031778 -0.1379561126 0.4240124822 0.8762437105
0.176754564 -0.0431005545 0.854827702 -0.3188522756 0.4183452725 0.7902153134
0.1512515396 -0.04603945464 0.852930665 0.1252308637 0.3605051935 0.8528704047
0.1786694527 -0.05006573349 0.8636615872 -0.4161721766 0.4029067755 0.7182850838
0.1799753159 -0.04613153636 0.8591822386 -0.4052244723 0.4162843525 0.7504746318
0.1545684487 -0.04167153314 0.8483566046 0.1029582545 0.3789997995 0.8820088506
0.1608797908 -0.04855301604 0.8580290675 -0.07468200475 0.3723680079 0.7953208685
0.1673853546 -0.04004954174 0.8491345644 -0.1189309359 0.4084673226 0.8518772125
0.1769057661 -0.05338382348 0.8672978878 -0.4131925702 0.3903321326 0.6934777498
0.165916428 -0.04654359445 0.8566753268 -0.1496623755 0.387724787 0.7963157892
0.1715963781 -0.04205653816 0.8524622917 -0.214446038 0.411157012 0.8182157874
0.1734493524 -0.04821931198 0.8603124022 -0.3034802973 0.3978066146 0.7540112138
0.1587894261 -0.04445233569 0.8526223302 0.0003705333802 0.3795787096 0.8410730958
0.1476261616 -0.05302362144 0.8549375534 0.2362360954 0.3000405431 0.8371043205
0.1549058408 -0.05257943645 0.8582734466 0.06247451901 0.3294363618 0.8004951477
0.1594634503 -0.05520815775 0.860727489 -0.01306518167 0.320840776 0.7708195448
0.1680394709 -0.05823658034 0.8435785174 -0.05369999632 0.2261576653 0.9709632397
0.1725783199 -0.06166571379 0.8457760811 -0.1019945815 0.2513864636 0.9603202343
0.1958959401 -0.05716627464 0.8681763411 -0.6653264761 0.3419040442 0.6555657387
0.185202837 -0.04917975888 0.8500287533 -0.5874168873 0.2602885067 0.7621514797
0.1789477766 -0.03579881415 0.8497026563 -0.3249320984 0.4247282743 0.8243128657
0.1639802903 -0.06012702733 0.862026155 -0.07375723869 0.3577956855 0.7444779873
0.1543117613 -0.06070333719 0.8572419286 0.1538318247 0.3354254067 0.7952190042
0.1830168068 -0.05968962982 0.8712118268 -0.5166606307 0.4104869962 0.6448600888
0.1686039865 -0.0572912693 0.865173161 -0.2016863823 0.3367496431 0.7191596627
0.1704756618 -0.06246686727 0.8643251061 -0.206316933 0.406637013 0.7115114927
0.1617161632 -0.06571256369 0.8590767384 0.02018385753 0.4201402366 0.7586019039
0.1564670801 -0.06632385403 0.8563792109 0.1459684074 0.4116953313 0.7862721682
0.1562364995 -0.07133153081 0.8545892835 0.1886361837 0.4730829298 0.7895361185
0.1774672717 -0.06009531394 0.8684406877 -0.3854707181 0.3985755444 0.6740151644
0.1497598439 -0.06456879526 0.8537834287 0.2877818048 0.3694580793 0.8205858469
0.1890363842 -0.0551940389 0.8730521798 -0.6567867398 0.403383553 0.6280965209
0.1891532987 -0.04950467497 0.8695914745 -0.5997736454 0.398675561 0.671051085
0.1875806153 -0.04173297063 0.8629414439 -0.5161606073 0.3990498781 0.7304494977
0.1857626885 -0.03778645769 0.8579121232 -0.46900931 0.4030127823 0.7621027231
0.1839043647 -0.03383661434 0.8534847498 -0.4233333468 0.4074201286 0.7924710512
0.1909276396 -0.05616915599 0.8606125712 -0.6391121149 0.3007680476 0.6973565221
0.1877966225 -0.05495628715 0.8557588458 -0.6227568388 0.2718958259 0.7252750993
0.1762228459 -0.06863065064 0.8708132505 -0.3036717474 0.5369920731 0.6445287466
0.1661923081 -0.07114327699 0.860106945 -0.0440152362 0.5056823492 0.732524991
0.171335578 -0.06870815158 0.8641299605 -0.1823438853 0.4959580898 0.6994813085
0.1888031811 -0.06031013653 0.8776295781 -0.652715385 0.460059613 0.5886037946
0.1915677935 -0.07151649892 0.8834246993 -0.5932094455 0.6365770698 0.4901973307
0.09543591738 -0.02302959561 0.8342747092 0.6211107373 0.08168656379 0.7721132636
0.09064120799 -0.01990782283 0.8362131119 0.6552047729 0.02764911577 0.7544937134
0.09432858229 -0.02765050903 0.8365723491 0.6136333346 0.1054885164 0.7687168121
0.1037263349 -0.03318911046 0.8303158283 0.5291200876 0.2470147014 0.809746623
0.09957367182 -0.03020671383 0.8347710371 0.5683759451 0.1797724962 0.787011385
0.08818854392 0.007167953532 0.8447167277 0.7049629092 -0.3235664368 0.630600214
0.102535516 0.01353995409 0.8376050591 0.6152168512 -0.3043058217 0.7248004079
0.09853340685 0.01399286371 0.8420568705 0.6711996794 -0.3002745509 0.6772348881
0.0948286429 0.00937079452 0.8432273269 0.6814830899 -0.2981162071 0.667707026
0.08696389943 -0.003884484759 0.8413917422 0.6934172511 -0.223753497 0.6800374389
0.09468012303 -0.002619997831 0.8350405693 0.6697247028 -0.2187938988 0.7026684284
0.0958500728 -0.01281030662 0.830941081 0.6509981155 -0.01487139426 0.7531977892
0.08994930983 -0.009875212796 0.8372469544 0.6813051105 -0.1145730466 0.719194591
0.1049822569 -0.0006316915969 0.8243206739 0.5407275558 -0.2626026273 0.7949284911
0.0954619199 0.0106828995 0.8375063539 0.6533427238 -0.3452722728 0.6732763648
0.09219744056 0.01969024912 0.8424144983 0.6752914786 -0.3346067369 0.6545556188
0.09782915562 0.01782765612 0.836673975 0.6291665435 -0.3488174677 0.6931658983
0.09827197343 0.005521477666 0.831794858 0.6143868566 -0.3204599321 0.7197675705
