# .PCD v0.7 - Point Cloud Data file format
VERSION 0.7
FIELDS x y z normal_x normal_y normal_z
SIZE 4 4 4 4 4 4
TYPE F F F F F F
COUNT 1 1 1 1 1 1
WIDTH 512
HEIGHT 1
VIEWPOINT 0 0 0 1 0 0 0
POINTS 512
DATA ascii
-0.08928380907 -0.1916706264 1.054002762 -0.07731492072 -0.01040124428 0.9969130158
-0.08619583398 -0.1877502054 1.054991603 -0.07506004721 -0.01121502183 0.9971119165
-0.08755192161 -0.1834529936 1.058728456 -0.1050480828 -0.0003924144257 0.9944670796
-0.05634172261 -0.07390565425 1.050608754 0.4231144488 0.2976602614 0.8557876945
-0.06241336092 -0.07494749874 1.051276207 0.4231144488 0.2976602614 0.8557876945
-0.06617493182 -0.06746523827 1.050989389 0.4231144488 0.2976602614 0.8557876945
-0.05997748673 -0.06886437535 1.05044353 0.4231144488 0.2976602614 0.8557876945
-0.2448617369 -0.1491876394 0.9792804718 0.1654853821 0.2433067113 0.9555792212
-0.1681943834 -0.1679664999 0.9926888943 -0.2122422308 0.2639147341 0.9394979477
-0.07671362162 -0.1796273291 1.055445313 -0.07482410967 -0.01130017173 0.9971327186
-0.07064513862 -0.1747849137 1.058901787 -0.07482410967 -0.01130017173 0.9971327186
-0.07743688673 -0.1781039387 1.060905218 -0.09140165895 -0.005317374598 0.9956706166
-0.08430852741 -0.1806472838 1.06100142 -0.1014811248 -0.001679719426 0.994781673
-0.04597754031 -0.08396918327 1.047992587 0.4231144488 0.2976602614 0.8557876945
-0.06440903991 -0.07125918567 1.04873848 0.4231144488 0.2976602614 0.8557876945
-0.2016115189 -0.1115064621 0.9393036962 0.4571864009 0.05240789056 0.8870998025
-0.1889873892 -0.04528964683 0.9574933648 0.08307926357 -0.4458073378 0.890683949
-0.1837360561 -0.04024431854 0.961625874 0.05394797027 -0.4548454881 0.8883251548
-0.1777663082 -0.1845515221 0.9875429273 -0.2050907016 0.3042122126 0.9302255511
-0.05123366043 -0.07238680124 1.046691537 0.4231144488 0.2976602614 0.8557876945
-0.04737876356 -0.07796350121 1.046682596 0.4231144488 0.2976602614 0.8557876945
-0.06473097205 -0.05978768691 1.045969486 0.4231144488 0.2976602614 0.8557876945
-0.05782108754 -0.06322301179 1.043296218 0.4231144488 0.2976602614 0.8557876945
-0.06184071675 -0.06567955017 1.044387579 0.4231144488 0.2976602614 0.8557876945
-0.05922475457 -0.0727269873 1.046592116 0.4231144488 0.2976602614 0.8557876945
-0.05463978276 -0.07732790709 1.046784878 0.4231144488 0.2976602614 0.8557876945
-0.05779273435 -0.06810011715 1.045364976 0.4231144488 0.2976602614 0.8557876945
-0.06784001738 -0.06012028828 1.049923301 0.4231144488 0.2976602614 0.8557876945
-0.04975222424 -0.07795107365 1.050648332 0.4231144488 0.2976602614 0.8557876945
-0.05493817478 -0.07956504077 1.051810145 0.4231144488 0.2976602614 0.8557876945
-0.06019438058 -0.08515573293 1.054544449 0.4182114005 0.2913759649 0.8598853946
-0.06034685671 -0.09038709104 1.057244778 0.3979726434 0.2654355168 0.8767999411
-0.0547388941 -0.0860953182 1.0549016 0.4029921889 0.2718691826 0.872604847
-0.05083103105 -0.08808325976 1.053007245 0.4084841907 0.2789083719 0.8680149317
-0.04375080764 -0.095090352 1.049662113 0.3985748887 0.2569808066 0.8797489405
-0.04560447857 -0.09878952056 1.052993178 0.3965677619 0.2393820733 0.8852828145
-0.04981893674 -0.09814550728 1.055016756 0.3931829035 0.2369969934 0.8874772787
-0.1703839898 -0.1713866144 0.9896464348 -0.1928126365 0.2768129706 0.9402652979
-0.1732443124 -0.1757262647 0.9874825478 -0.2197984159 0.284889102 0.9323252439
-0.1677244902 -0.1633870453 0.990080595 -0.2459403723 0.2558236122 0.9336857796
-0.08373775333 -0.1837480366 1.054518342 -0.08484914899 -0.007682160474 0.9962485433
-0.05047881976 -0.1523135304 1.060112953 0.04351596162 0.00937564671 0.9988467693
-0.05360680446 -0.1564908177 1.060084939 0.01953318529 -0.005172230303 0.9989120364
-0.04874598235 -0.1465328336 1.060520649 0.1183417663 0.03965106234 0.9906018972
-0.04753707722 -0.1420264989 1.060693026 0.1732487231 0.05709371343 0.9819473028
-0.04168225452 -0.126678884 1.056934118 0.2937489748 0.09312066436 0.946226716
-0.04462021217 -0.1346824914 1.057772517 0.2207930684 0.0659692809 0.9646497965
-0.05250273645 -0.1471763402 1.057473183 0.08879243582 0.0009428126505 0.9947499037
-0.06284340471 -0.1491462141 1.061465025 0.03695125505 -0.001872366644 0.9987581372
-0.05792352557 -0.1539037079 1.061021566 0.0245510228 0.003794813529 0.9994898438
-0.06366365403 -0.1543621123 1.062067151 0.0174289234 -0.0100705782 0.999622643
-0.05776894093 -0.1487293094 1.059310794 0.04887495935 -0.005812325515 0.9985532761
-0.06691658497 -0.17191118 1.061301231 -0.07413972914 -0.01144109294 0.9971641302
-0.05884994194 -0.1631972045 1.060964465 -0.02494204789 -0.0208493229 0.9993021488
-0.06456963718 -0.16105102 1.061810017 -0.04189621285 -0.01084427163 0.9980082512
-0.1689300686 -0.172795251 0.9947832823 -0.1801074594 0.2746134698 0.9444675446
-0.04101619124 -0.112270318 1.051614046 0.3635832667 0.19497177 0.9108023047
-0.04497828335 -0.106680505 1.050186872 0.3662002087 0.1915638298 0.909232676
-0.04919559881 -0.1140591875 1.053708315 0.3503628075 0.1598157287 0.9213815331
-0.04507504404 -0.1167245209 1.053370118 0.3508827686 0.1640460342 0.9206780791
-0.04585606977 -0.09018583596 1.047942519 0.4030342996 0.2721475065 0.8733232021
-0.05155604333 -0.08397006989 1.048066378 0.4180747271 0.2924634814 0.8598040342
-0.0558382608 -0.09508498013 1.057411671 0.3895068765 0.2448396236 0.8867514729
-0.2412441373 -0.1450651288 0.9751665592 0.1787237078 0.2453896105 0.9526801109
-0.07762522995 -0.1750582904 1.056834221 -0.07936561108 -0.009661152959 0.9967321754
-0.07338037342 -0.1712011695 1.057558417 -0.08041243255 -0.009283358231 0.9966398478
-0.06725126505 -0.1662637442 1.060688734 -0.07645890862 -0.01071017701 0.9969885349
-0.07593957335 -0.162519604 1.062210679 -0.1023396254 -0.001369891339 0.9947059155
-0.08018641174 -0.1720201224 1.060943842 -0.09774164855 -0.003029288724 0.9951114655
-0.07516118139 -0.1722288728 1.062070847 -0.07482410967 -0.01130017173 0.9971327186
-0.07257122546 -0.1679136157 1.062504172 -0.07482410967 -0.01130017173 0.9971327186
-0.06804267317 -0.1574169546 1.062828541 -0.02038704976 -0.009837677702 0.9987021685
-0.1768502593 -0.1790462136 0.9868144393 -0.2177075297 0.2822029293 0.9334595799
-0.2240315378 -0.1582738608 0.9766067266 0.07246089727 0.3309539855 0.9405422807
-0.2183591276 -0.15874587 0.9766301513 -0.01386392862 0.3338239789 0.9406194091
-0.2205414325 -0.1488751322 0.9721081853 0.05252376944 0.3078919053 0.9470992684
-0.2195086479 -0.1535556018 0.973949492 0.01101034321 0.3215452433 0.9437077641
-0.2217132896 -0.1415060312 0.9696964025 0.1122373641 0.283836782 0.9519127607
-0.2069964558 -0.1559084505 0.9759352207 -0.1315181553 0.3447815776 0.9287150502
-0.206793949 -0.1612886935 0.9776638746 -0.1236663088 0.3136241436 0.9407609701
-0.2138064504 -0.1601935327 0.9773554802 -0.06891693175 0.3260619938 0.9420890808
-0.2257867455 -0.1384676248 0.9699630141 0.1368136555 0.2630589604 0.9541932344
-0.2337077707 -0.1306863278 0.974247396 0.2132565677 0.2524644136 0.9433928728
-0.2283671647 -0.1261256337 0.972674787 0.223851338 0.2800211012 0.9333686233
-0.2393770218 -0.1363091767 0.9761943221 0.2094335109 0.246059671 0.9455244541
-0.2440128922 -0.1405647546 0.9777535796 0.206679374 0.2489690781 0.9453320503
-0.2354917973 -0.1401866674 0.9741891026 0.1853910536 0.2430975288 0.9519400001
-0.2304906994 -0.1447214186 0.9738516212 0.1620091498 0.2593668699 0.9518879056
-0.23375085 -0.135392487 0.9737835526 0.191657275 0.2424608469 0.9509310126
-0.1922312826 -0.04933064431 0.9553816915 0.09133261442 -0.44272995 0.8913735151
-0.2181981653 -0.1315213889 0.9704859853 0.1291460395 0.3106099367 0.9399393797
-0.1863118708 -0.1470272541 0.9800485969 -0.2078849226 0.3262076974 0.9214940071
-0.1822800934 -0.1492763758 0.9815921187 -0.2238091826 0.3075796366 0.9231745005
-0.178577289 -0.1525005996 0.9841738939 -0.2391877919 0.2967837453 0.9226164222
-0.1688430756 -0.1576438248 0.9875705838 -0.2773824632 0.250100106 0.9272837639
-0.1839305907 -0.1551464349 0.983311832 -0.2345519662 0.3301958144 0.9141920209
-0.2022397071 -0.1557242274 0.9764909148 -0.1518665254 0.3278545737 0.9319127798
-0.1973312646 -0.1566444337 0.9823636413 -0.1828193069 0.3273102343 0.9263414145
-0.1799552292 -0.1710560173 0.9858627915 -0.2352376133 0.2477390766 0.938847959
-0.1842762381 -0.1703651696 0.9842352867 -0.2416441888 0.2426901758 0.9385014772
-0.1849437505 -0.175014466 0.9865267277 -0.2108299881 0.2976081371 0.9306370616
-0.1824883372 -0.1799853295 0.9846852422 -0.2223394513 0.2790314555 0.932826221
-0.1766470075 -0.1620676368 0.9862514734 -0.2463162243 0.2443699092 0.9373424649
-0.1801024228 -0.1573988348 0.9846644402 -0.2400168478 0.3002537489 0.9221327305
-0.1941593885 -0.1609456241 0.9802291393 -0.1947634518 0.2725580037 0.9398018718
-0.1913922727 -0.1487746537 0.976102829 -0.1906166971 0.3000535369 0.9336931109
-0.1882140487 -0.1633102894 0.9827048182 -0.2301098555 0.2419547439 0.9409760237
-0.1893704087 -0.1543473452 0.9788413644 -0.2100379914 0.2746491134 0.9364836812
-0.1953673065 -0.1515821368 0.9761930704 -0.1737952679 0.3067129552 0.9351087809
-0.1941291094 -0.1557691395 0.9781780839 -0.1868907064 0.2887200713 0.9372059703
-0.183677718 -0.161378935 0.9860207438 -0.217694357 0.3191792369 0.9217566252
-0.1914889067 -0.1568129957 0.9838149548 -0.2052031457 0.3328368366 0.9201492667
-0.1825716794 -0.167309925 0.9886496663 -0.2029451579 0.3048742712 0.9299131036
-0.187553972 -0.1653144509 0.9873567224 -0.196311444 0.3087424636 0.9301924706
-0.1752490103 -0.1718086153 0.9919177294 -0.1975361407 0.25188905 0.9468060732
-0.1748440862 -0.1674056202 0.9892872572 -0.2245360762 0.233423382 0.9455365539
-0.179899931 -0.1823064238 0.9946340919 -0.1938150525 0.3012954295 0.9333984256
-0.1849701107 -0.1827719361 0.9976379871 -0.1747741997 0.2941378653 0.9394738078
-0.1756976992 -0.1787993014 0.9932485819 -0.1970611215 0.2965839803 0.934335947
-0.1920886189 -0.1876705438 1.000353694 -0.1650891602 0.2985643744 0.9398803711
-0.1937002093 -0.1920136362 0.9979659319 -0.1737469584 0.310280025 0.9346209168
-0.1822502315 -0.1881589442 0.989936471 -0.200291872 0.3099702001 0.9293721318
-0.1852534413 -0.1882460266 0.9938961864 -0.1920539141 0.3076715171 0.9318145514
-0.04018167406 -0.106447868 1.052420616 0.3839299977 0.2078113705 0.89878124
-0.05424965918 -0.1124711633 1.055612087 0.3549622297 0.1650116593 0.9179353714
-0.05019783229 -0.1049982533 1.053309441 0.3735520244 0.2050371468 0.9036188126
-0.04225201532 -0.09988816828 1.04745388 0.3806526065 0.2215835601 0.897726655
-0.05184650794 -0.09634599835 1.05098772 0.3857246637 0.250682056 0.8876980543
-0.05894654989 -0.1068019494 1.056156635 0.3604942262 0.1884395778 0.9097959995
-0.05618147925 -0.09890865535 1.053036809 0.3774717152 0.2349241674 0.89337641
-0.05677883327 -0.1179789603 1.056356311 0.3388618529 0.1329180747 0.9294684529
-0.06047500297 -0.101791814 1.061275363 0.379755497 0.2212685794 0.8982009292
-0.06244719401 -0.07980818301 1.052533746 0.4198494256 0.294293493 0.8583897352
-0.06043086946 -0.09495225549 1.059185266 0.3800195158 0.2432897538 0.8916703463
-0.05540185794 -0.09200882912 1.051662683 0.3957970142 0.2694914341 0.877558291
-0.2319271415 -0.1500412673 0.9753488302 0.1342971772 0.2751993239 0.9507282972
-0.2274760157 -0.1536383182 0.975207448 0.09949292988 0.3041031361 0.9466798306
-0.05058034137 -0.1390979737 1.056836486 0.1672858447 0.03848203272 0.9751326442
-0.05140064284 -0.1233872846 1.056664228 0.3199824989 0.1044549122 0.9402304888
-0.04956515878 -0.1341679543 1.056708694 0.2155920416 0.05935281515 0.9640911818
-0.051206965 -0.1293954998 1.056737065 0.2615502179 0.07920913398 0.9535864592
-0.06086098403 -0.1335648745 1.059768915 0.2231118828 0.04095170647 0.9723796844
-0.05564054474 -0.1328236908 1.061095834 0.2213464528 0.05222193524 0.9735444188
-0.05074334517 -0.1322128922 1.0617944 0.257250756 0.06324661523 0.9638804197
-0.05468060821 -0.1276464462 1.060752034 0.2699891925 0.08369966596 0.9585877061
-0.05228689685 -0.1375044882 1.061187387 0.2014286518 0.04392060265 0.9762596488
-0.04763462767 -0.1368149072 1.06190002 0.2377816737 0.05281012878 0.9682466984
-0.0599854663 -0.1383774579 1.06063652 0.1549467444 0.02173822001 0.984100759
-0.06269360334 -0.1428255886 1.060620189 0.07916910201 0.002676635049 0.9941887856
-0.05660632625 -0.1432584375 1.060433269 0.1072481871 0.02846377529 0.9921972156
-0.2008503228 -0.07701147348 0.9418874383 0.07486570626 -0.1338102221 0.9828119874
-0.2206071466 -0.1709753573 0.9814831018 -6.132851559e-05 0.3583239913 0.9326219559
-0.2078922093 -0.1655611098 0.9795937538 -0.108283937 0.3435332179 0.9300715327
-0.2086136341 -0.1784375012 0.9835706353 -0.0588725172 0.3709852099 0.9257777929
-0.203741923 -0.1826504022 0.9883441925 -0.0940618217 0.3533271551 0.9293432832
-0.2182421237 -0.1751533449 0.9830544591 -0.006035762839 0.353307426 0.9340866804
-0.2019716352 -0.1883222014 0.9987363815 -0.126830861 0.3116728067 0.9391588569
-0.2082984596 -0.1830845922 0.9923989773 -0.07931831479 0.3288859725 0.9369311333
-0.2065017223 -0.1783859879 0.9882969856 -0.09190693498 0.358027935 0.9270592332
-0.2117364258 -0.1769614667 0.987098515 -0.06100627035 0.394104749 0.9143499732
-0.1768977642 -0.07839626074 0.9533809423 -0.2602010965 -0.1301613748 0.9467855096
-0.1722519845 -0.07862449437 0.9580574632 -0.2827638388 -0.1112669706 0.9411770701
-0.1825973243 -0.0751902312 0.9516096115 -0.1873161048 -0.1797236353 0.960663259
-0.1605392098 -0.08218836784 0.9634182453 -0.3886588514 -0.03449813649 0.9207050204
-0.1641402245 -0.08299496025 0.9550265074 -0.3881950676 -0.01652768999 0.9213463068
-0.1861557513 -0.05924598128 0.9548439384 -0.05430560932 -0.2983399332 0.9386541843
-0.1863348037 -0.05321640894 0.9572460055 0.007373671979 -0.3811165988 0.9075996876
-0.1845565438 -0.0491759181 0.9594260454 0.03440250829 -0.4235800803 0.8889703155
-0.1924380958 -0.05805368349 0.9534516335 0.00517911464 -0.3576899171 0.9252958298
-0.2249135524 -0.1334428489 0.9714784026 0.1896539032 0.2716362774 0.9433518648
-0.2295471281 -0.1339841634 0.9712901115 0.1811390519 0.2603317499 0.9462736845
-0.2223058492 -0.1316618025 0.9674122334 0.1751140207 0.2959249318 0.9346394539
-0.2324368805 -0.1287195832 0.9697261453 0.2537598312 0.2979873419 0.9182466269
-0.2230700701 -0.09490215778 0.9542705417 0.5642169714 0.1700004786 0.792773962
-0.2228331268 -0.08863294125 0.9515671134 0.5095322728 0.1238955259 0.8412267566
-0.2194285244 -0.0963807404 0.950959444 0.5432662964 0.1524111629 0.8146077991
-0.2139163762 -0.1019736603 0.9482855797 0.5449550152 0.161468491 0.8203208447
-0.219325304 -0.0902967304 0.9474261403 0.4859642982 0.09644498676 0.8630830646
-0.2141186446 -0.1070846915 0.9512172341 0.5905033946 0.1732622236 0.783970356
-0.2177906036 -0.1036981791 0.9533327818 0.5958123803 0.2029360384 0.7726237774
-0.2166649401 -0.1096891388 0.9552652836 0.6353263855 0.1917450279 0.7444387078
-0.1542830169 -0.04800869524 0.962595284 -0.2398341149 -0.198713854 0.9431635737
-0.1483326703 -0.04865850508 0.9630532265 -0.3217130601 -0.1276819259 0.9369432926
-0.151350379 -0.05214738473 0.9624212384 -0.3488956988 -0.07788269967 0.9324031472
-0.2063365281 -0.1737823635 0.9840885997 -0.09234243631 0.3436158895 0.9343266487
-0.2141643465 -0.1662864387 0.9822232723 -0.06566419452 0.3119609356 0.9476626515
-0.2116709948 -0.170286566 0.9831001759 -0.0684260726 0.3416615725 0.9362494349
-0.2039546669 -0.160759449 0.9815323949 -0.1397296339 0.3147998154 0.9383806586
-0.1955651194 -0.1780795157 0.9890400171 -0.1572271436 0.3127776384 0.9366688132
-0.1969033033 -0.1845065951 0.9970867634 -0.1725562364 0.2974944711 0.9385164976
-0.1928722113 -0.1720360219 0.9886784554 -0.2048497498 0.2839435935 0.9362746477
-0.1833108664 -0.1752988994 0.9920323491 -0.1893853992 0.2868695855 0.9389243722
-0.1921774447 -0.1808185279 0.9951766729 -0.1814918667 0.2921030521 0.9385693073
-0.1969572008 -0.1905213147 1.00179553 -0.1597330421 0.3011803627 0.9400327802
-0.1899065822 -0.1757439226 0.9916918874 -0.1930388659 0.2873581946 0.9377596974
-0.2024423778 -0.178217575 0.9840595722 -0.09967747331 0.3560723364 0.9282267094
-0.1979363859 -0.179243952 0.9847212434 -0.1269668341 0.3413597047 0.9298267365
-0.1915086061 -0.1826401353 0.9847124815 -0.1633850485 0.3259322941 0.9299809933
-0.1963587701 -0.171490103 0.9847717881 -0.171658814 0.3069299757 0.934790194
-0.2033636421 -0.1688740402 0.9829984307 -0.1400016397 0.3105190992 0.9385963678
-0.1994943768 -0.1641269624 0.98097682 -0.181434989 0.2944576144 0.9372609258
-0.1952937841 -0.1653382778 0.9833570719 -0.2188319266 0.2797966301 0.9345587492
-0.1866728365 -0.1823589951 0.9853215218 -0.1919255108 0.3140508831 0.9295395017
-0.189969793 -0.1708353907 0.9852386713 -0.1990517229 0.2775615752 0.9376770258
-0.1958142221 -0.1875872016 0.9930893183 -0.1606865972 0.3158127069 0.9341880679
-0.2009463161 -0.1860279292 0.9932363033 -0.1199542508 0.3363046944 0.9326153994
-0.1986168772 -0.1842043996 0.9887825847 -0.1341873109 0.3337818384 0.9311931729
-0.1924215555 -0.1873318404 0.9882719517 -0.1672091484 0.3211951852 0.9307750463
-0.1835153103 -0.1912486404 0.9843963981 -0.2012111098 0.3181264997 0.9263702035
-0.1959801614 -0.1847257018 0.9841728806 -0.1294087768 0.3494333625 0.9256969094
-0.1910918355 -0.1910655349 0.9933440089 -0.1818095446 0.3112699091 0.9326566458
-0.1869114637 -0.1915688962 0.9888971448 -0.1924381703 0.3153094351 0.9291442633
-0.04540010542 -0.1312064379 1.060870409 0.2880457044 0.07018943131 0.9542441368
-0.04580277205 -0.12244872 1.059454799 0.3324561119 0.1093601212 0.9366462231
-0.04926985875 -0.1268540025 1.060875177 0.2985259593 0.08944968879 0.9492508769
-0.05198442563 -0.1044668928 1.057843685 0.3744522333 0.2113057077 0.9026790857
-0.05522067845 -0.1004896313 1.058560133 0.3816356361 0.2191786617 0.8979291916
-0.04796097428 -0.1098521054 1.057322264 0.364169389 0.1842727512 0.9115511179
-0.04641318321 -0.1167196259 1.058578491 0.346301049 0.1411031932 0.9262620807
-0.05200431123 -0.1147091314 1.060444355 0.3435978293 0.1534870565 0.9252460003
-0.05440892652 -0.1210725307 1.060427785 0.3110491037 0.1205026656 0.9410015345
-0.06031287462 -0.1166348234 1.061195731 0.28810215 0.1392773539 0.9407868385
-0.05725174397 -0.1072645262 1.061002254 0.3574877381 0.1988348514 0.9119639397
-0.06019192562 -0.1112440303 1.060933948 0.330034703 0.1695237607 0.92296803
-0.05969579145 -0.1254162639 1.059997797 0.2504143715 0.08965139091 0.9619962573
-0.1574350446 -0.04504322633 0.9504187107 -0.1681871265 -0.2607657909 0.9440897703
-0.1556441188 -0.05663120002 0.9521450996 -0.2802904844 -0.1005112305 0.9206219912
-0.1515227258 -0.06376440823 0.9546642303 -0.3907173276 0.01970281266 0.8964576721
-0.1580046266 -0.05171338096 0.9506403208 -0.2107569724 -0.1799546927 0.9357334971
-0.1638285518 -0.05363328755 0.9479736686 -0.145355925 -0.1971271783 0.9515482783
-0.1521361917 -0.04336714372 0.9528502226 -0.2282261699 -0.2442413867 0.9295927286
-0.1526687592 -0.04959985614 0.9530571699 -0.2679992318 -0.1687326431 0.9217856526
-0.1669487059 -0.04887289554 0.9468337297 -0.06031867117 -0.3244053423 0.9417024851
-0.1726388186 -0.06304230541 0.9472184777 -0.1867922097 -0.1741247773 0.9563699961
-0.1730515212 -0.07405152917 0.9487202168 -0.3302727342 -0.08050181717 0.9329873323
-0.1663634479 -0.0749367103 0.9517136812 -0.3955727518 0.01342414785 0.9148565531
-0.168819204 -0.05975582823 0.9473115802 -0.1767115891 -0.1797709763 0.9525370598
-0.171633482 -0.06781636178 0.9479268789 -0.2598609924 -0.1292031705 0.9425558448
-0.1690615118 -0.07998865098 0.9506810904 -0.3781645894 -0.02770316228 0.9238061309
-0.1756748855 -0.08147918433 0.9478301406 -0.3486637473 -0.07690899819 0.9338029027
-0.1799746305 -0.06520444155 0.9463027716 -0.1275512576 -0.1700057983 0.9725294709
-0.1776715964 -0.07482558489 0.9473631382 -0.2932521701 -0.1083859131 0.9432699084
-0.1813069284 -0.0705968067 0.9454705715 -0.1805457771 -0.1487866044 0.9617499113
-0.1580623686 -0.04417036474 0.9629045725 -0.1999600381 -0.2737056315 0.9394475222
-0.1595686674 -0.0350587517 0.9639539123 -0.1743656993 -0.3378897309 0.9247301817
-0.1620490998 -0.04116753116 0.9630388021 -0.1896728128 -0.3223301172 0.9229452014
-0.1683418453 -0.0399937816 0.962847054 -0.1128763184 -0.4060437977 0.8986272812
-0.1644318104 -0.04688621685 0.9622930884 -0.2011197358 -0.3034977019 0.9229710102
-0.1751164496 -0.04252737761 0.9627537727 -0.05843254179 -0.404312849 0.9092825055
-0.186337471 -0.1405805349 0.9725572467 -0.1826809049 0.3165535331 0.9296909571
-0.1822552383 -0.1446415782 0.9759375453 -0.2027224153 0.3034403324 0.9288984537
-0.1735146195 -0.1565172076 0.9855594039 -0.256190151 0.2752719223 0.9260377288
-0.1559948623 -0.07720480114 0.963339746 -0.4071964025 -0.001222276362 0.9130232334
-0.1591537446 -0.07809635252 0.9578328133 -0.4121020436 0.007656833157 0.9094794393
-0.1613693833 -0.0746107772 0.9538332224 -0.4262474477 0.04150952399 0.9032809734
-0.1503464282 -0.07005534321 0.9581983685 -0.4521218836 0.06943909079 0.8880133629
-0.2069069296 -0.06853312254 0.9461454153 0.08063338697 -0.1591445804 0.9824222922
-0.2029929608 -0.07129430026 0.9430485964 0.03784121946 -0.1677715033 0.982370913
-0.195539847 -0.06254541874 0.9521872401 0.01518461946 -0.3289408982 0.9426046014
-0.1667419374 -0.07874879986 0.9613978863 -0.3293189108 -0.07331069559 0.9312765598
-0.1756063402 -0.07123475522 0.9566355348 -0.2147100121 -0.1351653337 0.9549863935
-0.1828437597 -0.06611767411 0.953342855 -0.1353529543 -0.1902125925 0.9690555334
-0.1816185862 -0.07086504251 0.9538542628 -0.1726156622 -0.1823854446 0.9611031413
-0.1766191125 -0.05384942517 0.9580390453 -0.07359848171 -0.2712431848 0.9410025477
-0.1805319935 -0.04401697963 0.9619266391 0.03318181634 -0.4476995468 0.8824491501
-0.1779251993 -0.04839412495 0.9602146745 -0.03125724196 -0.3573280871 0.9152296185
-0.1793513596 -0.06214577332 0.9544498324 -0.09829135984 -0.1942546666 0.9621620178
-0.1799376011 -0.05675053596 0.9566975832 -0.04642643407 -0.2745266557 0.9337311983
-0.1877884716 -0.06735764444 0.9418719411 -0.02906341664 -0.2173927128 0.9752396941
-0.1801306754 -0.0603998974 0.944848001 -0.03366067633 -0.2229474783 0.9737659097
-0.1862336397 -0.05390944704 0.9511007071 0.03463043272 -0.3435291946 0.931570828
-0.1982863396 -0.05515234545 0.9527615905 0.08541817963 -0.4011650383 0.9113430381
-0.2058996558 -0.1308476925 0.9695141912 0.04333212599 0.328779161 0.9231930375
-0.2083160579 -0.1256211102 0.9656054378 0.2339308858 0.2839201987 0.8563480377
-0.196642369 -0.1310582161 0.9665905833 0.06386918575 0.2912489772 0.8721399307
-0.2028446794 -0.1263251752 0.9644011259 0.2241060585 0.2678642869 0.8351593614
-0.2123209685 -0.1224151477 0.9640564322 0.3430728912 0.2672376037 0.8301475048
-0.2351439893 -0.122618407 0.9741641879 0.2752283812 0.2891802788 0.9157990217
-0.2260042429 -0.1196689531 0.9710364938 0.2518331707 0.3398603797 0.9037055969
-0.2201880068 -0.1267107278 0.9707481265 0.1687150598 0.3168362081 0.9318113327
-0.2248321772 -0.1012892649 0.962843895 0.5655529499 0.2568174899 0.7789428234
-0.2290134281 -0.1136201993 0.9702839255 0.3460680544 0.315099895 0.874343276
-0.2204274833 -0.1020020396 0.9589262605 0.6040306687 0.2338389754 0.7611646652
-0.2277252227 -0.1196579412 0.9661204815 0.4233172238 0.2889042199 0.8475555778
-0.2408453077 -0.1324480176 0.9727140069 0.2587436438 0.255959779 0.9271833897
-0.2253614813 -0.123999916 0.966709435 0.2865291834 0.3282662332 0.8963971138
-0.2321180403 -0.1218900383 0.9688314795 0.3927830756 0.2740571797 0.8659665585
-0.2244631946 -0.1149500161 0.9651244283 0.4608612359 0.3038467467 0.8272330761
-0.2249359041 -0.1096589193 0.9636727571 0.530261457 0.2840366364 0.7936924696
-0.2312049866 -0.1175591126 0.972012043 0.318143338 0.315461427 0.8909592032
-0.2397420555 -0.1266567111 0.9751102328 0.2724169791 0.2665696144 0.9235268235
-0.1895341277 -0.1428878307 0.9760318398 -0.185945496 0.3214226067 0.9280626774
-0.1900900453 -0.1498127878 0.9816138148 -0.2018346339 0.3393566012 0.9187402129
-0.1491403729 -0.04065811262 0.9576398134 -0.2543464303 -0.2470442504 0.9306476116
-0.1528507471 -0.03781596571 0.9590641856 -0.2198922485 -0.2913880944 0.9275787473
-0.1518390179 -0.04349986091 0.9634392262 -0.2637871802 -0.2098530233 0.934014082
-0.1566052884 -0.03901560232 0.9636464119 -0.2047192454 -0.2874217033 0.9304286242
-0.1616344303 -0.03785863146 0.9585187435 -0.1569832116 -0.3767963946 0.9121406674
-0.1566962004 -0.03935697302 0.9548578262 -0.183563605 -0.3305874765 0.9235244989
-0.1620920151 -0.0407698825 0.9546624422 -0.1373327672 -0.3654444218 0.9180978537
-0.1656363159 -0.04495310038 0.9503743052 -0.08164154738 -0.3646570742 0.9254122376
-0.2317330837 -0.1619399786 0.9817895293 0.08737502992 0.3344635367 0.9381860495
-0.225194037 -0.1696144044 0.9817034602 0.04046521336 0.3459057212 0.9368695021
-0.2275113761 -0.1652299613 0.9811013341 0.06368956715 0.3405722976 0.9374957085
-0.222603932 -0.1652529985 0.9794279337 0.03806455061 0.3428707421 0.9377877712
-0.2191527039 -0.1634453237 0.9822390079 -0.009460355155 0.3417506218 0.9367632866
-0.2270182222 -0.1596077383 0.9801519513 0.07743155211 0.3262682557 0.9405344129
-0.2240543067 -0.1458167583 0.9735389948 0.1240763143 0.2850660384 0.9482904673
-0.2050896436 -0.1553829312 0.980704248 -0.1182352602 0.3354272842 0.9323986769
-0.2110745907 -0.1582995504 0.9811282158 -0.07134483755 0.3384426534 0.9341852665
-0.2141697407 -0.1525539309 0.9772937298 -0.0440065451 0.3337762058 0.9393745661
-0.232373938 -0.1546640098 0.9787852764 0.1302664131 0.293920517 0.9467080832
-0.2365249693 -0.1457634717 0.9756715298 0.1699529439 0.247262463 0.9538654089
-0.2370499969 -0.157290712 0.9806450009 0.1288564056 0.2875772715 0.9487441778
-0.2401655763 -0.153787598 0.9785714149 0.1378679723 0.2580265999 0.9559507966
-0.2163559496 -0.0730657056 0.9521914124 0.3067513108 -0.07467048615 0.9244163632
-0.2065158635 -0.06234121323 0.9499970078 0.1113026217 -0.2656795979 0.9473690391
-0.2109342366 -0.06724161655 0.9503601789 0.179104656 -0.172665149 0.9467478991
-0.2103921026 -0.07264523208 0.945974052 0.1686406732 -0.09303449094 0.9719003439
-0.1573126167 -0.05417928472 0.9620705247 -0.3208110034 -0.122814633 0.9321803451
-0.1566896886 -0.0659044385 0.9628921151 -0.3634071648 -0.06354243308 0.9220379591
-0.152036652 -0.05774135888 0.962097764 -0.3921732008 -0.01965641603 0.9175354242
-0.1542587578 -0.06993722171 0.9630852938 -0.4034692049 -0.005085191224 0.9140977859
-0.1501561403 -0.06722046435 0.9625537992 -0.4433594346 0.03231101483 0.8946248293
-0.1462397426 -0.05835854262 0.9616336226 -0.4364745021 0.03708037734 0.8983550668
-0.1482407451 -0.05161714554 0.9558506608 -0.3452101946 -0.1045495421 0.9061182141
-0.1478143036 -0.0576078333 0.9570161104 -0.3975499272 -0.01829828508 0.8972843885
-0.1463408619 -0.05272777751 0.9603748322 -0.3881531656 -0.02902298793 0.9099029899
-0.1475049406 -0.0626738593 0.9578804374 -0.44087556 0.05296459422 0.8896614313
-0.147618264 -0.04497210309 0.9587496519 -0.3024688661 -0.1698682606 0.9261005521
-0.1718182862 -0.05020295456 0.9475904703 -0.03812166303 -0.3618246019 0.9283255935
-0.1795034409 -0.05426354706 0.9488937855 -0.01269170083 -0.3294143081 0.939173758
-0.1806769818 -0.04763001576 0.9532240629 0.02999733202 -0.4121244252 0.9087234735
-0.1853436232 -0.04749077931 0.9548148513 0.06298848242 -0.4182862639 0.9047054052
-0.1983829886 -0.06865225732 0.9430878162 0.02608456835 -0.2430971861 0.9635258317
-0.2002658695 -0.06373402476 0.9467558265 0.06090659648 -0.2976191044 0.9459214211
-0.187853083 -0.06819200516 0.9518903494 -0.09897866845 -0.2392487079 0.9625965953
-0.1834228784 -0.05853769183 0.9481292963 -0.008701242507 -0.2741910517 0.9598436952
-0.1900640726 -0.06278627366 0.945946157 0.005343963858 -0.2715722322 0.9582239389
-0.1955179572 -0.07129186392 0.9405915141 -0.009519881569 -0.2280351669 0.9698266387
-0.1991454661 -0.05890131369 0.9498441219 0.07556495816 -0.3479715586 0.9310159683
-0.1851187199 -0.06318431348 0.9450429678 -0.02385736071 -0.2441380769 0.9686123729
-0.1884568632 -0.05834593251 0.9488971829 0.01990042441 -0.3003562391 0.9498192668
-0.1609273851 -0.07699537277 0.9636317492 -0.3711385131 -0.06311093271 0.9215093255
-0.1615164131 -0.05916701257 0.9624960423 -0.2921047211 -0.1777044386 0.9317659736
-0.1627794504 -0.07150955498 0.9626397491 -0.3291039169 -0.1055499837 0.9297423363
-0.1681306064 -0.06411156058 0.9584985375 -0.2273648977 -0.1383471489 0.9553916454
-0.1649263948 -0.05578520894 0.9605659246 -0.2382707745 -0.2040121257 0.9452708364
-0.1674170494 -0.0742951557 0.9593480825 -0.2769911289 -0.07247065008 0.9481950998
-0.1695168167 -0.06952662021 0.9576627612 -0.2297546715 -0.09781576693 0.9590258002
-0.1636455059 -0.06636503339 0.9618419409 -0.2971619368 -0.1372538656 0.9355142117
-0.1572413296 -0.07197255641 0.955383718 -0.4476917088 0.05420739576 0.8923023939
-0.1655410081 -0.06499530375 0.9499002099 -0.2763859332 -0.08188111335 0.9324302077
-0.1614654064 -0.06782403588 0.9526761174 -0.3849420547 0.004105606116 0.9066827893
-0.1609543562 -0.06125689298 0.9515630007 -0.3145489097 -0.05830560625 0.9161682725
-0.156986326 -0.06561610103 0.9546045065 -0.4397203028 0.04238479584 0.8881521225
-0.1737401187 -0.0570702143 0.9473562241 -0.08988556266 -0.2077522278 0.9730419517
-0.1700982302 -0.04075358808 0.9574559927 -0.07266248018 -0.4286432862 0.8983650208
-0.1699876934 -0.04381048679 0.9536669254 -0.06951350719 -0.4182878733 0.9040068388
-0.1791293025 -0.03790027276 0.96342659 0.008974803612 -0.4664874077 0.8835286498
-0.1758143753 -0.04334844649 0.9557247758 -0.01348358765 -0.4418894351 0.8955934048
-0.1758269221 -0.04647823796 0.9521954656 -0.01029471122 -0.4243592024 0.9038790464
-0.1726457328 -0.03726102039 0.9628915787 -0.05065670237 -0.4584618211 0.8861028552
-0.2154131979 -0.1267114133 0.9595028758 0.2902555466 0.2432920039 0.896474421
-0.2179548889 -0.1285533607 0.9632737041 0.2735865116 0.2858921885 0.8917210698
-0.2133204192 -0.1235604435 0.9560745358 0.3416424096 0.2169147879 0.8843947053
-0.2101885527 -0.1180273518 0.9507821798 0.4373853803 0.1817930788 0.8583159447
-0.2178147882 -0.1334078461 0.9640468955 0.1602979898 0.2571650743 0.9404822588
-0.2082848251 -0.1137875468 0.9471054673 0.5274645686 0.1340106577 0.8267813921
-0.2174116224 -0.1166391075 0.9601776004 0.5634343028 0.2637398839 0.7631611228
-0.2166186571 -0.1251566261 0.9680593014 0.2253253013 0.3359050453 0.8976165652
-0.2192354649 -0.1212336123 0.9666112661 0.3237452209 0.3188461363 0.8678073883
-0.2222126126 -0.1060187295 0.9620188475 0.5572944283 0.2822864652 0.7781851292
-0.2196066678 -0.1106424406 0.9604716301 0.5840165019 0.2627366185 0.761259973
-0.2030699402 -0.1343536377 0.9717974663 -0.03308198601 0.3252744377 0.9364309311
-0.2108329237 -0.1313309819 0.9704051614 0.04801721871 0.334449023 0.9354252219
-0.1973935366 -0.1347370446 0.9701982141 -0.07312324643 0.3305042088 0.9312452078
-0.2040983438 -0.128530547 0.9574539661 0.1442446411 0.2163190842 0.9263908863
-0.2063233554 -0.1323262453 0.963116467 0.06595141441 0.2627803683 0.9347823858
-0.2006256282 -0.1212482303 0.9464190006 0.3038132191 0.1244635358 0.9110980034
-0.2088046521 -0.1302839816 0.9592792988 0.1513086855 0.2252337784 0.9339956045
-0.2082742155 -0.135433659 0.9677243829 0.003374607302 0.3003758788 0.941783309
-0.2131994218 -0.1348459423 0.9657151699 0.07743062824 0.2752055526 0.9458250403
-0.204973191 -0.1235911176 0.9492750168 0.2904409766 0.1429962069 0.9192920923
-0.2131585628 -0.1316286922 0.9605190754 0.1654770374 0.2295306176 0.9405823946
-0.2039510906 -0.1159544438 0.9427385926 0.4330545664 0.08487311751 0.885547936
-0.2063223422 -0.1188333854 0.9462851286 0.3876679242 0.1127173603 0.8947929144
-0.2092582434 -0.1247065961 0.9520100355 0.2917531729 0.1598510146 0.9187051654
-0.1996155381 -0.1162239462 0.9394509196 0.4208408892 0.06430311501 0.8985214829
-0.2002377957 -0.1246437356 0.9518153071 0.2097583264 0.1718625426 0.9163249731
-0.1921863705 -0.1324176937 0.9624317288 -0.0182323195 0.2634257078 0.9234060645
-0.1977063417 -0.1277624965 0.9561641812 0.1212674677 0.2092424482 0.9197000265
-0.1953037381 -0.1252171844 0.9520406723 0.1744620204 0.1745996475 0.913528204
-0.1999912113 -0.1326579601 0.9637948871 0.009010382928 0.2737098038 0.9297839403
-0.1942861527 -0.1298654228 0.958876431 0.05430494994 0.2328615189 0.9206655622
-0.1952778995 -0.1187445447 0.944547832 0.3188182414 0.102085039 0.9040960073
-0.1941543519 -0.1213255748 0.9487133026 0.246362254 0.1359059811 0.9079535604
-0.1961496919 -0.09031021595 0.9410139322 0.1218097284 -0.1360834539 0.9714653492
-0.1993930042 -0.09534893185 0.9408437014 0.2328875214 -0.06769383699 0.9464310408
-0.1962962598 -0.07895648479 0.9384837747 0.03138351068 -0.1622486115 0.9704263806
-0.2041613609 -0.09336963296 0.9427887201 0.280592978 -0.0243167989 0.9462692738
-0.202927053 -0.08247796446 0.9437148571 0.1389654279 -0.09523374587 0.9801556468
-0.1999938488 -0.08612663299 0.9404344559 0.1532257348 -0.09515289217 0.9576949477
-0.2208186388 -0.08534307033 0.946277082 0.4500791728 0.05890849233 0.88967067
-0.2064206153 -0.1027764454 0.9417978525 0.4277750254 0.05055979267 0.9011962414
-0.2153078765 -0.09663705528 0.9467998147 0.5053837895 0.1205468103 0.8505362272
-0.2117708921 -0.09905575216 0.9447971582 0.4741557837 0.09234683961 0.8709306717
-0.2135705352 -0.1003807336 0.9545462728 0.5409792662 0.1995001733 0.8085182905
-0.2187411487 -0.09649533778 0.9589455724 0.5388169289 0.2083608508 0.8093601465
-0.2152156681 -0.07191042602 0.9476884604 0.219728291 -0.07134338468 0.9566675425
-0.2231105566 -0.09313859791 0.9595942497 0.538389802 0.191517815 0.8087648153
-0.2198147327 -0.09087686241 0.9564090371 0.4988527894 0.1590202004 0.8420457244
-0.2204312235 -0.07898049802 0.9458715916 0.3863485456 0.03239078075 0.9172294736
-0.2133702636 -0.08025838435 0.9454439282 0.2850699127 -0.01905434392 0.9470368624
-0.2090764344 -0.07730783522 0.9447006583 0.2049049437 -0.06279268116 0.9669698477
-0.2077457905 -0.08189454675 0.9451834559 0.2074765563 -0.0579678081 0.9704805017
-0.2132837772 -0.08543448895 0.9452899098 0.3289281428 -0.002564491937 0.9323672056
-0.2079700679 -0.09601721168 0.9428623319 0.3705818951 0.01874795929 0.9210572243
-0.2131671757 -0.0933957696 0.9436887503 0.4224965572 0.04207183793 0.9040124416
-0.2084736675 -0.08853654563 0.9443897009 0.2889807522 -0.02028958499 0.9456852078
-0.222280398 -0.08366642147 0.9508112669 0.4469693601 0.07925952226 0.8903444409
-0.193545118 -0.1462516189 0.9794345498 -0.1769654751 0.3377358317 0.9242222309
-0.195044294 -0.141075775 0.9746984243 -0.1453808695 0.3227500618 0.9351525307
-0.1948965937 -0.1519902945 0.9818640947 -0.1867624223 0.339301616 0.9217733741
-0.1962949932 -0.1111334711 0.9566622376 0.1328578889 0.1197836325 0.9287145138
-0.189083606 -0.1363123655 0.9691876173 -0.1510332078 0.3145366609 0.9303672314
-0.193237707 -0.1187440306 0.9597244859 0.03520482406 0.1584652811 0.9336208105
-0.188858822 -0.1154754311 0.9537155628 0.0003226473054 0.0109369522 0.9600957036
-0.1965399832 -0.105225727 0.952530086 0.1799373478 0.04080665857 0.935593009
-0.192228049 -0.1268370152 0.9648292065 -0.03838670254 0.2511516809 0.9275828004
-0.2011904866 -0.1009639502 0.9532384872 0.2742811143 0.08673099428 0.9180900455
-0.192789048 -0.1020356789 0.9470966458 0.1529485285 -0.09115348011 0.9588068128
-0.2040192038 -0.09670139849 0.9524439573 0.3440426886 0.09074316174 0.9097361565
-0.188732639 -0.1227210164 0.9589270949 -0.05506614968 0.1118068844 0.9507844448
-0.1919844151 -0.1088204309 0.9514106512 0.09181764722 -0.01248780824 0.9535348415
-0.2036310732 -0.1036042273 0.9571880698 0.2876581252 0.1806791574 0.902210772
-0.1909985244 -0.132292673 0.9678177238 -0.09540443867 0.3010092974 0.9262686968
-0.2071123719 -0.1117976531 0.9589312673 0.383644402 0.2042423487 0.8319981694
-0.1983683854 -0.1189612746 0.9627013803 0.1245638132 0.2451605946 0.8993452191
-0.2034586668 -0.1213836223 0.9624132514 0.2715677619 0.2444042265 0.83406353
-0.1975993365 -0.1236377507 0.9642032385 0.09943360835 0.2629156709 0.8892635107
-0.2132430077 -0.1139970571 0.958376646 0.5611093044 0.200819388 0.7562140822
-0.2085233778 -0.09952754527 0.955108583 0.4318899512 0.1587570906 0.865090251
-0.2084420174 -0.09368206561 0.9534338117 0.4329040647 0.1384544373 0.8891012073
-0.2080357224 -0.1194745153 0.9609721303 0.4061178863 0.2294251174 0.7915299535
-0.2015649825 -0.1116709039 0.9599720836 0.2219840586 0.2138586938 0.8932018876
-0.2105927914 -0.1080302671 0.9571657181 0.4872983098 0.1847507954 0.808814764
-0.203951478 -0.1155682206 0.9606356621 0.2893045247 0.2231655717 0.8516725302
-0.1871834397 -0.07340616733 0.9512484074 -0.1101976708 -0.2005094439 0.9630642533
-0.2004051208 -0.07862795889 0.9516171217 0.1816773266 -0.08822563291 0.9375289083
-0.193072021 -0.0783630833 0.9512906075 0.0318258293 -0.1106535569 0.95189327
-0.1950462013 -0.07248599827 0.9516544342 0.04497212917 -0.1946974546 0.9475699663
-0.196385473 -0.06805259734 0.9519219398 0.05184933916 -0.2584728003 0.9446028471
-0.2051244676 -0.07609963417 0.9515755177 0.2226002365 -0.09755366296 0.9348874688
-0.201431483 -0.07039128989 0.9517177343 0.1271547079 -0.1954576969 0.9408249855
-0.2078335285 -0.0715598166 0.9514461756 0.2034869492 -0.1383934617 0.9376268983
-0.2117411792 -0.07495904714 0.9512881041 0.2775095403 -0.06888978928 0.9334911704
-0.2088508457 -0.0855859071 0.9514426589 0.3569647968 0.0493382588 0.9258669019
-0.2093129009 -0.07923658937 0.9514046311 0.2967687249 -0.02959440835 0.9308664203
-0.2141572237 -0.0831996724 0.9517748952 0.3754299283 0.04962969199 0.9250432253
-0.2189274281 -0.08029105514 0.9523198009 0.3798145354 0.03841185942 0.9239900708
-0.215043813 -0.09338150918 0.956499815 0.4795064032 0.1620458215 0.8506528735
-0.2134728432 -0.08856704831 0.9527463913 0.4291957617 0.1094980538 0.8920454383
-0.1715617031 -0.04631577432 0.962138176 -0.1188579798 -0.3413024843 0.9221886992
-0.1745081693 -0.05910836533 0.9561803341 -0.1239983216 -0.1870730966 0.9639697075
-0.1686567962 -0.05784440786 0.9580233693 -0.1957714111 -0.1801828742 0.9592785239
-0.2140593082 -0.1406403482 0.9717712998 -0.002651427407 0.3219293952 0.9453439713
-0.2031664699 -0.1459019184 0.9749247432 -0.120732449 0.3280439079 0.9364677668
-0.1996239424 -0.1520730257 0.9802808166 -0.1538482308 0.3354139626 0.9291021824
-0.2067119926 -0.1500337422 0.9772085547 -0.1020220518 0.3308257759 0.9366183877
-0.2075878084 -0.1463066638 0.9732668996 -0.08821672201 0.3236882687 0.9406594038
-0.2179402858 -0.1374872625 0.9677429199 0.08281926066 0.2823758125 0.953171134
-0.2127396911 -0.1493300796 0.9729164243 -0.0522663258 0.3215348423 0.9428659081
-0.2163779289 -0.1458076984 0.9708382487 0.01064712834 0.3059659898 0.9474923015
-0.2086669952 -0.1392102391 0.9706033468 -0.03814984113 0.315666914 0.94390589
-0.2038680166 -0.1414679438 0.9722249508 -0.09911672771 0.3277184069 0.939239502
-0.1980022043 -0.1440339088 0.9725009203 -0.1423383653 0.3344323337 0.9311568141
-0.1917285025 -0.121396333 0.9533450007 0.1266723722 0.1254691929 0.925096035
-0.1925163865 -0.1143088192 0.9468687177 0.2255932987 0.03221462294 0.9274770021
-0.1922130883 -0.1095149368 0.9437506199 0.2449679226 -0.04009538144 0.9367221594
-0.2089664936 -0.106915988 0.9448432326 0.5254086852 0.1249894053 0.8390758634
-0.2131441683 -0.1131998524 0.9527574778 0.6201330423 0.1567924768 0.7592970729
-0.2051445544 -0.107965529 0.9416309595 0.4712781906 0.07148501277 0.8763716221
-0.2001185566 -0.101958558 0.9410560727 0.312010318 -0.02801757678 0.9340696931
-0.1956733018 -0.1123297736 0.9394276142 0.3956420422 0.01855146885 0.9077498317
-0.1700199693 -0.0860992074 0.9497990608 -0.3439397812 -0.04866564274 0.9337896109
-0.1739432216 -0.08976985514 0.9495925903 -0.2833118439 -0.1014573798 0.950162828
-0.1689202338 -0.08707646281 0.955745399 -0.3250976503 -0.07698708028 0.9382547736
-0.1650058329 -0.08410773426 0.9598451853 -0.3709813058 -0.04950682074 0.9255450964
-0.2041793764 -0.08775274456 0.9521272182 0.307864517 0.05413419381 0.9194473624
-0.1867013872 -0.08131289482 0.9516129494 -0.07824087143 -0.08049961179 0.9380434752
-0.1909867525 -0.084301278 0.9519805908 0.02574750781 -0.02729210071 0.9267314076
-0.1861237884 -0.08609359711 0.9518226981 -0.06521115452 -0.007169566583 0.9200342298
-0.1964825541 -0.08333852887 0.9522122145 0.134088546 -0.033527527 0.9302950501
-0.1920628846 -0.08964428306 0.9518032074 0.07220567763 0.03959042951 0.9121719003
-0.177950412 -0.08597695082 0.9510294199 -0.2371052504 -0.03518040851 0.9247244
-0.1812797934 -0.08954618126 0.9490311742 -0.1668003201 -0.05810310319 0.9374864697
-0.1991021633 -0.09203934669 0.9517328143 0.2259315401 0.0683985576 0.9092007875
-0.1967038363 -0.09612137079 0.9489845634 0.2057328224 -0.01320507005 0.933240056
-0.1917792857 -0.09638793021 0.9476121664 0.100817591 -0.06228454411 0.9459418058
-0.1869722903 -0.09483612329 0.9470999241 -0.01972278394 -0.08391836286 0.9507392645
-0.1848694086 -0.07666159421 0.9433591962 -0.2011772543 -0.1372929215 0.9555116892
-0.1899381429 -0.07555838674 0.9406675696 -0.11529883 -0.1672151685 0.9679723978
-0.1800289005 -0.07965218276 0.9457138777 -0.2840891182 -0.1049996391 0.9436122775
-0.1921136528 -0.1052316502 0.9397892356 0.2129774839 -0.04951520637 0.9386816621
-0.1944314688 -0.1002493873 0.9409549236 0.1936867535 -0.09276013076 0.957723856
-0.1890639365 -0.1021947563 0.9426670074 0.1053241268 -0.140344426 0.9684532285
-0.1799296737 -0.09393006563 0.9455472827 -0.1823930442 -0.1385750473 0.9650069475
-0.1881570071 -0.09281492233 0.9425112605 -0.01371404715 -0.1589424461 0.9840310812
-0.191955626 -0.08291207999 0.9400209785 -0.02179235965 -0.1790935248 0.9818429947
-0.1873745024 -0.08574833721 0.9418370128 -0.09355513006 -0.1593552828 0.9756435752
-0.1830690652 -0.08807428926 0.943960011 -0.1678280532 -0.1310209185 0.9649227858
