# .PCD v0.7 - Point Cloud Data file format
VERSION 0.7
FIELDS x y z normal_x normal_y normal_z
SIZE 4 4 4 4 4 4
TYPE F F F F F F
COUNT 1 1 1 1 1 1
WIDTH 512
HEIGHT 1
VIEWPOINT 0 0 0 1 0 0 0
POINTS 512
DATA ascii
-0.2216618806 0.03098834492 1.057635188 0.2529579699 0.2252202481 0.9403623939
-0.2100147605 0.02429273352 1.059531927 0.2412231714 0.2676540911 0.9322843552
-0.2189730257 0.04209192842 1.052020192 0.2327125818 0.1008275673 0.9609525204
-0.2101299763 0.0372017175 1.055880189 0.2077817321 0.2053212076 0.954362452
-0.2167914957 0.03941911086 1.056910634 0.1900315583 0.1615572572 0.9660971165
-0.2102012336 0.03095209412 1.058300376 0.2183472514 0.2273430526 0.9456539154
-0.2149828523 0.03394760936 1.058174849 0.2110666335 0.1973746419 0.9533317685
-0.1224715486 0.0758812353 1.025898814 -0.2657806873 -0.1810534149 0.9460407495
-0.1194722354 0.07954274118 1.029253483 -0.2852635384 -0.1897454411 0.9385073185
-0.2200627327 0.04307742417 1.057082653 0.1815982163 0.1226564273 0.9742199183
-0.2080415636 0.04185391217 1.05673635 0.2273958325 0.1592705399 0.9519842267
-0.2110964954 0.05372676253 1.059216499 0.2450038791 0.02270814963 0.9607505202
-0.2141978145 0.04386197403 1.057199478 0.2074366361 0.1253143847 0.9637437463
-0.2069288194 0.05017098784 1.058448553 0.2529601455 0.06987027824 0.9521976709
-0.221297428 0.03642793745 1.055302143 0.2634505928 0.1891050041 0.9425241947
-0.1867752522 -0.01927384175 1.087979674 0.1561565995 0.4435400069 0.7091960907
-0.1815698445 -0.003694805549 1.101744175 0.4965670109 0.08890946209 0.4128855467
-0.1833544075 -0.0001857856259 1.115795016 0.3794957399 -0.509539783 0.3281278014
-0.1803642213 0.002824047813 1.112877131 0.5294962525 -0.3278688192 0.2790807784
-0.1843632907 -0.003445134964 1.111395001 0.3451441228 -0.3537406921 0.3932954371
-0.1784448922 0.008374760859 1.119688153 0.5995580554 -0.5613779426 0.1691874862
-0.2066179961 -0.007623190992 1.070866704 0.1073165014 0.4783422053 0.8669333458
-0.2104264796 -0.003290197346 1.070635915 0.1227145493 0.427462101 0.888532877
-0.21498698 0.0008738246979 1.070377707 0.1399063915 0.3742597103 0.9110999107
-0.2053669244 -0.01278895326 1.070820928 0.1010454223 0.5158138275 0.8506805301
-0.2093595415 0.001515235286 1.069318771 0.09422052652 0.3817322254 0.9126253724
-0.202969417 -0.004622707609 1.069429636 0.07253490388 0.4694333076 0.8750140667
-0.2048566788 0.006991900038 1.06413126 0.1102924049 0.3525828123 0.9266115427
-0.2011691779 0.009601931088 1.060958385 0.1150454432 0.3446235359 0.9312008619
-0.1989350766 0.004571385682 1.063258886 0.07298526913 0.3864962459 0.915358901
-0.1975369453 -0.002320591826 1.067089677 0.02121739648 0.4391406178 0.8949002624
-0.1213557273 0.03787025437 1.027580261 -0.3568146825 0.2336249202 0.903226316
-0.1208078787 0.04554658383 1.025433779 -0.3523398042 0.1747494787 0.9152016044
-0.1167242453 0.03856375068 1.030162454 -0.3797040284 0.2069727033 0.900205195
-0.1100109071 0.03777036816 1.032952547 -0.4036318958 0.2208775878 0.8872157931
-0.1099503636 0.04461845383 1.03039825 -0.3980208933 0.1659232974 0.8970674276
-0.1164116859 0.0436735563 1.027439237 -0.3951664269 0.1680328846 0.8991172314
-0.2081355155 0.0193206612 1.062147021 0.2239065021 0.290427357 0.9295287728
-0.2163527906 0.01438623015 1.064934015 0.189373076 0.2872519493 0.9376599193
-0.2132786512 0.01854692027 1.062352538 0.2109980434 0.277651757 0.9361038208
-0.1879187375 0.02107084356 1.050607443 0.14532049 0.3314101696 0.9320588112
-0.1937214732 -0.02288626879 1.0825032 0.079581514 0.5577954054 0.8258702755
-0.1986730397 -0.01285795402 1.074482083 0.07964417338 0.5273879766 0.8448263407
-0.1961474568 -0.007620672695 1.07014811 0.01723964512 0.4825679362 0.8739118576
-0.1937523484 -0.01452423446 1.075888634 0.03293536976 0.5122442245 0.8551735282
-0.1296468377 0.07602811605 1.024121523 -0.1525615454 -0.2269080728 0.9566166401
-0.1156834215 -0.09177268296 1.146279097 -0.008342438377 -0.1133064702 0.9935250878
-0.109221302 -0.09084644914 1.151367664 -0.008342438377 -0.1133064702 0.9935250878
-0.1184188947 -0.08791702986 1.153845429 -0.008342438377 -0.1133064702 0.9935250878
-0.1218327507 -0.09173597395 1.152212501 -0.008342438377 -0.1133064702 0.9935250878
-0.1052465662 0.03840055689 1.035553813 -0.400287956 0.245578438 0.8827524781
-0.03782755509 -0.04735234752 1.148991108 0.1019204631 0.209895432 0.972397089
-0.2019009739 0.03200344369 1.055859923 0.2195649892 0.253549546 0.9415668249
-0.2038160264 0.02519428171 1.058840275 0.2354105115 0.2760109603 0.9315122962
-0.1888649613 0.03044929169 1.054152966 0.1852714121 0.263656795 0.9456282258
-0.1949101985 0.03203371912 1.054609537 0.1998480707 0.2560307682 0.9449055791
-0.1952489316 0.02645500377 1.048266649 0.1525344253 0.3082917333 0.9376268983
-0.2018840164 0.02700658701 1.050599217 0.1854677349 0.2860864401 0.9371920228
-0.2065138221 0.02562602796 1.052488565 0.2154390663 0.2826316357 0.9321551323
-0.2118896395 0.03085998632 1.053668618 0.2231648713 0.2319950312 0.9446375966
-0.09408155084 0.07096492499 1.034211397 -0.2929768264 0.03754746169 0.9547555447
-0.07814446837 0.0638365373 1.036885738 -0.2709453702 0.1345030516 0.9528438449
-0.08229698241 0.06857792288 1.036721468 -0.2836963832 0.1012595892 0.9524360299
-0.08471995592 0.0718152225 1.040808439 -0.2688929439 0.1121450663 0.9555621147
-0.08666028082 0.06691022962 1.035024762 -0.2969324589 0.1201594025 0.9462678432
-0.09148048609 0.06560657918 1.0337708 -0.3025948107 0.0953753069 0.9475494027
-0.08702813834 0.0735835433 1.035708189 -0.3035125732 0.06041041389 0.9507297277
-0.1993844658 -0.01162681263 1.06618464 0.05514109507 0.4952237606 0.859397471
-0.2066109627 -0.009030949324 1.064623237 0.1017751098 0.4498125911 0.8812312484
-0.1759612262 0.009322857484 1.124795794 0.6399409175 -0.7290351391 0.1088234559
-0.1798313111 -0.001615928835 1.109594226 0.4626146257 -0.2402956188 0.3401850462
-0.1842441857 -0.01451144088 1.092357039 0.2391207814 0.3071429431 0.6143950224
-0.1758839637 0.00732224388 1.112238765 0.6884613633 -0.2387571782 0.1923890263
-0.1826706827 -0.009513366967 1.100470543 0.3148185015 0.03629386052 0.50160712
-0.1784738153 0.002914682962 1.117669463 0.5257381201 -0.5153205395 0.2346725017
-0.1729204208 0.01450647414 1.116554499 0.8532896042 -0.3272121549 0.06364493072
-0.1787478477 -0.0002670422255 1.104887366 0.5356324315 -0.0309609212 0.3410780728
-0.1773346663 0.001805590698 1.128636479 0.6208545566 -0.7754167318 0.1062505916
-0.1814883351 0.004764657933 1.122580767 0.4478661716 -0.7366514802 0.2213127017
-0.1855871677 -0.00809747912 1.107024431 0.3021527231 -0.1897681355 0.4668459594
-0.1812893897 -0.0007418880705 1.120604038 0.4704447389 -0.5897549391 0.2486926466
-0.1897849292 -0.01924059913 1.091997027 0.1477889866 0.3129021227 0.7052974105
-0.1820923239 -0.01111097634 1.109139442 0.3701908886 -0.178522408 0.4111060202
-0.1805898398 -0.007377333939 1.115421891 0.4517560601 -0.364121139 0.3136766255
-0.184613362 -0.01384027395 1.105526924 0.3340863883 -0.05031052604 0.4815592468
-0.190765664 -0.02350422181 1.087521911 0.11152637 0.4809201956 0.774584949
-0.1798021495 -0.00597567251 1.120296478 0.5181794167 -0.4833208025 0.2432119101
-0.1786068976 -0.003361645155 1.125447392 0.5855053663 -0.6286699176 0.1642368436
-0.1849421114 -0.01644502766 1.099878311 0.2538963854 0.09756657481 0.559727788
-0.06984546036 -0.07684366405 1.149000049 0.06668537855 0.05706720799 0.995867908
-0.07446167618 -0.08038599044 1.150289059 0.06385461986 0.03930167109 0.9968575239
-0.1792601347 0.02549571171 1.047452211 0.08303152025 0.3057422638 0.9462269545
-0.1812584847 0.01895725727 1.051874518 0.1105847731 0.3261621892 0.9364404082
-0.1854358315 0.02692739852 1.04620266 0.1605898738 0.3127527833 0.9320007563
-0.1701018214 0.03455443308 1.035169959 0.289986968 0.1666809022 0.9016417861
-0.1814393997 0.02873122506 1.043579102 0.1880417019 0.277097851 0.9253903627
-0.1748614609 0.0303307306 1.041135073 0.1865341514 0.2363898456 0.9242016673
-0.1959870011 -0.014505025 1.069676995 0.04289453104 0.5461934209 0.8357201815
-0.1900670081 -0.02189065702 1.077241778 0.06245691702 0.5474569798 0.8340619206
-0.1969237328 -0.02030750178 1.079413414 0.08523610234 0.5466038585 0.832552731
-0.1870829463 -0.01665361971 1.069789886 0.03903651983 0.5469840169 0.8361530304
-0.1863379776 -0.02070553415 1.073032975 0.04154351726 0.5455815792 0.8369780183
-0.2115635872 -0.006594327278 1.062963367 0.1199153513 0.37759009 0.9144517779
-0.2122697532 -0.007751279511 1.067707181 0.1194140241 0.4375588894 0.8860215545
-0.1773944348 0.01361949835 1.122579932 0.6772429943 -0.6290951371 0.08235027641
-0.1736238003 0.02395157143 1.117747188 0.9490110874 -0.2764074206 -0.05120204762
-0.1750836521 0.01922618039 1.120248556 0.8158702254 -0.4460888207 0.01443918422
-0.1314591467 0.06973291188 1.020073414 -0.1125003397 -0.212101534 0.9536969066
-0.1213925481 -0.09060639888 1.146044612 -0.006462705787 -0.1077022105 0.994083941
-0.1188482568 -0.08507997543 1.146713138 -0.008675573394 -0.08230601996 0.9961748123
-0.1256442219 -0.08753730357 1.147574186 -0.001752050826 -0.09365780652 0.9954844713
-0.13230896 -0.09036199749 1.149952292 -0.007671728265 -0.1113068014 0.9937244654
-0.1121532619 -0.08542215824 1.154746771 -0.008342438377 -0.1133064702 0.9935250878
-0.111086227 -0.08622921258 1.145009756 -0.01011169422 -0.09438386559 0.9950716496
-0.1196352094 -0.07994133234 1.148148537 -0.01837375574 -0.05845715106 0.9978210926
-0.1147898436 -0.08172444254 1.146968365 -0.01306588762 -0.07451701909 0.9966536164
-0.1076077297 -0.08119090647 1.146287203 -0.004083099775 -0.09064675868 0.9956203103
-0.1911453009 -0.01230258122 1.067486286 0.03703772649 0.5287733078 0.8456038833
-0.2014219463 0.0005459251115 1.058205366 0.0971615836 0.362180531 0.9255611897
-0.1913697869 0.0001778156875 1.060549974 0.07692213356 0.3988696933 0.9126580954
-0.1969117075 0.004381941166 1.057673454 0.071515508 0.3704124391 0.9250994921
-0.204832539 -0.005599773955 1.060695887 0.09511075169 0.4023731351 0.9024162292
-0.198956728 -0.004752120003 1.061267376 0.09529767185 0.4029254615 0.9053142667
-0.1939378232 -0.004350475501 1.061967015 0.09314630181 0.4082145691 0.9053562284
-0.05051272735 -0.05345682055 1.145769238 0.1047731265 0.1985874474 0.9743138552
-0.04092586786 -0.04340231791 1.140645623 0.1019204631 0.209895432 0.972397089
-0.04688011855 -0.04922328889 1.144170165 0.1019204631 0.209895432 0.972397089
-0.03680275381 -0.0392296426 1.142663598 0.1019204631 0.209895432 0.972397089
-0.03248330206 -0.03486673906 1.138951898 0.1019204631 0.209895432 0.972397089
-0.06833103299 -0.07245506346 1.151855469 0.08047612011 0.06204160675 0.9947212934
-0.06371810287 -0.07248001546 1.149000049 0.06647045165 0.0637287721 0.9957264066
-0.06855036318 -0.0679807514 1.149000049 0.06429389119 0.06893698871 0.9954966307
-0.2051313519 0.06055377051 1.060110331 0.2864699066 -0.04462054744 0.9521998167
-0.2129165828 0.05152615905 1.053651571 0.2313320786 0.003592791501 0.9686788321
-0.2059750408 0.05805005506 1.054030657 0.2677951157 -0.06383806467 0.9605878592
-0.2172006667 0.04679873213 1.052484989 0.2030482888 0.04713744298 0.9749165773
-0.2100680918 0.05227113888 1.048493147 0.2368055135 -0.06031275913 0.9693832397
-0.2033082396 0.0318662785 1.050298452 0.176375404 0.2416395545 0.9498983622
-0.2073242068 0.03504119441 1.051119924 0.189550668 0.1961987764 0.9574030042
-0.1981529891 0.03397323564 1.047704935 0.151511237 0.2113497108 0.9573950768
-0.2050210238 0.03921959549 1.049155354 0.1742792279 0.1362656206 0.9697214365
-0.2119267583 0.04664561525 1.04718554 0.198211208 0.02052859776 0.9788252115
-0.214336738 0.0399419181 1.051413059 0.2150959074 0.1218384281 0.9645641446
-0.188681379 0.01654795371 1.053618312 0.1357127577 0.3345515728 0.9321022034
-0.1806236058 0.03630130738 1.041962385 0.245411858 0.1741067767 0.9383375645
-0.1846349388 0.03447369859 1.045887709 0.1892639995 0.2099494785 0.9545277357
-0.1713393033 0.03906041011 1.032742858 0.3726343513 0.1107441708 0.8953046799
-0.112050347 0.06450086087 1.025993824 -0.3913463056 -0.06885519624 0.9146590829
-0.1022737995 0.06968450546 1.030946493 -0.3288433552 -0.0210925471 0.9400575757
-0.09887278825 0.07271598279 1.03292346 -0.3024770021 -0.01280741673 0.9506631494
-0.106796816 0.07163127512 1.029649973 -0.3152944148 -0.0661368221 0.9426183701
-0.1125087515 0.06971529871 1.027020931 -0.3382667005 -0.0992507264 0.9322673678
-0.1067891791 0.05991374329 1.033625364 -0.3951054215 0.0393589586 0.9142407775
-0.1074136049 0.07233129442 1.035335898 -0.3512199223 -0.05353739113 0.934368968
-0.1087881848 0.0657472685 1.033354282 -0.3767861724 -0.01827500947 0.9228530526
-0.09216865152 0.07251811028 1.040552497 -0.2862245142 0.06097328663 0.9511781931
-0.1063277498 0.06104866788 1.028427958 -0.3820394874 0.02156653628 0.9201546907
-0.1004756317 0.06369181722 1.030727029 -0.3405575156 0.0419254154 0.9359099269
-0.1003456488 0.04180179909 1.036927819 -0.3707586825 0.2334389091 0.8983556032
-0.1059293821 0.04262828454 1.033388376 -0.4017115235 0.1983322799 0.8895879984
-0.1047942042 0.05035756156 1.031829238 -0.393589437 0.1325349659 0.9047136307
-0.2106381506 0.008293808438 1.065683007 0.1388257146 0.3262776434 0.9346603751
-0.1274649501 0.04519382864 1.02355814 -0.2641941011 0.1790274531 0.9424811006
-0.1322585195 0.03712479025 1.025079608 -0.2165564597 0.1516682953 0.9560894966
-0.1276114881 0.03815912828 1.026073098 -0.2702528536 0.1983878762 0.9374224544
-0.1393850148 0.04087220505 1.020372629 -0.07786015421 0.04445526376 0.9865201116
-0.207616359 0.01371117309 1.061709166 0.1497001648 0.2816501558 0.9474434257
-0.2029829323 0.00527266087 1.057000041 0.09966920316 0.3540793657 0.9285463691
-0.1951810122 0.0103308009 1.056106448 0.07269901037 0.3516767323 0.9324217439
-0.1566129476 0.07260848582 1.036298394 0.3609955311 -0.1610713005 0.855830133
-0.1467926055 0.07324814051 1.026278377 0.2386379391 -0.3207333982 0.897342205
-0.1418199688 0.07493548095 1.026988626 0.1263153255 -0.2901759148 0.9085282087
-0.1354912817 0.07668842375 1.026340246 -0.002415842842 -0.2826101184 0.9249989986
-0.2006761134 0.04786871746 1.057895184 0.2732141614 0.1071497798 0.9414050579
-0.2010727972 0.05328612402 1.059031487 0.2850240469 0.0468022339 0.9430578351
-0.2003833354 0.05857889354 1.060120702 0.3012270629 -0.01012733765 0.9432475567
-0.1879516542 0.02509947121 1.055906534 0.17355977 0.2939799726 0.9374297261
-0.1858092248 0.01363346539 1.05962801 0.1474594325 0.3593634963 0.9199057221
-0.1987958252 0.02377775498 1.058444381 0.2173889428 0.2868077457 0.931473434
-0.1936212033 0.02374233864 1.057473302 0.1954838634 0.2938635349 0.9332534671
-0.1899853796 0.0200555604 1.058109522 0.1746466309 0.3187952042 0.9286646247
-0.1799134761 0.02970217541 1.053085208 0.1454171985 0.2758702934 0.9487248063
-0.1964469552 0.01462230552 1.060000062 0.1618053913 0.3342379332 0.9259610176
-0.1913169324 0.0133411102 1.060000062 0.1509634852 0.3502633274 0.9224606752
-0.202001065 0.01568752527 1.060000062 0.170195207 0.3181399703 0.9299764633
-0.1928401738 0.007862303406 1.06142509 0.1000180766 0.377387315 0.9181749225
-0.1880239546 0.0387510024 1.053096652 0.2394009084 0.1918563247 0.9504147768
-0.1826591939 0.03578564525 1.051834226 0.1850850284 0.2316587418 0.9532384872
-0.1946805865 0.06175156683 1.060433149 0.3284237385 -0.03786396608 0.9387997389
-0.1920918971 0.05625301972 1.058472633 0.3084593713 0.01600110531 0.9420657158
-0.1979785115 0.03832517192 1.054869533 0.2385946661 0.2024068981 0.9459422231
-0.1811373532 0.04212819412 1.052598596 0.2586078346 0.1511323154 0.9524903297
-0.2024400681 0.04132382572 1.056532383 0.2484666556 0.1753261536 0.9427194595
-0.1941591352 0.04899018258 1.056951165 0.2802618742 0.09127795696 0.9437862635
-0.1874057353 0.05025124177 1.05597055 0.2872874439 0.07339599729 0.9465101361
-0.1885074228 0.04445754737 1.054650307 0.264976114 0.1330337971 0.9481413364
-0.1874949485 0.05500460416 1.055586576 0.3074331284 0.04170997441 0.9443241954
-0.1761702597 0.03458521888 1.048776031 0.2763053179 0.2444607913 0.9219802618
-0.197951749 0.0647194162 1.056346774 0.340978384 -0.09269700944 0.9315342307
-0.1944391578 0.06395918876 1.049901724 0.3693996966 -0.1036174744 0.9158728719
-0.18159917 0.06582351029 1.036899924 0.4963725209 -0.1235845983 0.856712997
-0.1884889603 0.06572086364 1.045743346 0.4313382804 -0.1148141325 0.8880301118
-0.1345467716 0.04754080996 1.019415855 -0.1259304434 0.07190723717 0.9846537113
-0.1234761402 0.05398410559 1.020791531 -0.3161279559 0.04946288094 0.9422807693
-0.1180220991 0.06038058177 1.022631884 -0.3790715337 -0.04633370042 0.9213021994
-0.07905553281 -0.06208203733 1.149078846 0.07355604321 0.06319732219 0.9951472878
-0.07999844104 -0.0661528483 1.151967287 0.07413101196 0.07381355762 0.9943754077
-0.08973563462 -0.06767255068 1.149577856 0.03050090559 0.05202056468 0.9977314472
-0.1292136759 -0.08581312746 1.152613044 -0.009838053957 -0.09625038505 0.9949288964
-0.1244294643 -0.08332239091 1.153419852 -0.01394090708 -0.08598199487 0.9956423044
-0.1059517413 -0.07640081644 1.147705436 -0.0004135933705 -0.08278151602 0.9964219928
-0.09826561064 -0.07432041317 1.148991108 -0.0005423271796 -0.0174299404 0.9996370673
-0.1223728359 -0.07849442959 1.153408885 -0.02187704667 -0.04724803939 0.9986435771
-0.1154800206 -0.07976468652 1.153789997 -0.01729015633 -0.06963529438 0.9969089031
-0.1097478122 -0.07608698308 1.153522491 -0.01670723408 -0.04997291043 0.9982452989
-0.09816769511 -0.07110578567 1.153202295 0.007455828134 0.006608281285 0.998308301
-0.1060186476 -0.07304362208 1.151507378 -0.003571374808 -0.04107282683 0.9980155826
-0.1066574082 -0.07978090644 1.154706836 -0.01287131105 -0.08186484128 0.9961901307
-0.1809671223 -0.006379815284 1.064286232 0.08907409012 0.454156369 0.8856821656
-0.1787117124 -0.01483863406 1.068094969 0.0679866299 0.5207695961 0.8505573273
-0.1734287888 -0.0138838701 1.067654133 0.088935785 0.5072255731 0.8570866585
-0.1749947816 -0.008847222663 1.065071106 0.09700295329 0.4858959913 0.8681678176
-0.1780110151 -0.01822514087 1.072221279 0.06069595367 0.5234143734 0.8491992354
-0.1887964308 -0.01705550775 1.075813174 0.0213651713 0.5283182263 0.8463754058
-0.1857635677 -0.00712271221 1.065954328 0.06060555205 0.4542295635 0.8873389363
-0.1834743768 -0.02194697596 1.077523589 0.04210663214 0.5507974625 0.8326121569
-0.0938244164 0.03880336881 1.041982651 -0.3809886277 0.2193211317 0.898165524
-0.05210611969 -0.06455563754 1.149344683 0.07656695694 0.1163054556 0.9880168438
-0.04852075875 -0.06057404354 1.148263454 0.09441703558 0.1486387402 0.9827009439
-0.03476740792 -0.04260470346 1.138424397 0.1022530496 0.2077195644 0.9727684259
-0.04233311862 -0.05165756866 1.142341256 0.1047769412 0.1912074983 0.9755860567
-0.03785313666 -0.04789671674 1.143528342 0.1027810946 0.2042649537 0.9733579159
-0.04496306553 -0.05628141016 1.144507289 0.1073949635 0.1740796417 0.9785088301
-0.04076775163 -0.05275881663 1.148134828 0.1032459214 0.201223895 0.9738768339
-0.05879272521 -0.07029813528 1.148801684 0.06035026908 0.07195387781 0.9953248501
-0.05681683868 -0.0427034162 1.147630215 0.09201270342 0.2010440379 0.9747461677
-0.05201555043 -0.03933684528 1.1474576 0.09782507271 0.2236603796 0.9695634246
-0.05198767781 -0.04787169024 1.150071502 0.09249389917 0.1900403947 0.9771287441
-0.04141199216 -0.0481474027 1.15204227 0.1004731208 0.2095113993 0.9725417495
-0.05373043939 -0.0532980971 1.150675535 0.07536583394 0.1404348016 0.9851168394
-0.04679017514 -0.05241759121 1.151587248 0.08872662485 0.1696938872 0.9796459079
-0.0552540645 -0.05893228948 1.149545908 0.08119108528 0.1194862425 0.98823452
-0.05742993206 -0.04959923401 1.149412394 0.08321543783 0.1647562832 0.9819201231
-0.06240838766 -0.0483325161 1.148263335 0.08250517398 0.1646769643 0.9826202393
-0.05811362341 -0.06493850797 1.148554325 0.08263489604 0.09282562137 0.9920632839
-0.06038152426 -0.05775903165 1.147600651 0.08331782371 0.1252217889 0.9870237112
-0.06636427343 -0.06354483962 1.149000049 0.06227761507 0.06605117768 0.9957863092
-0.07358312607 -0.06030960754 1.14976573 0.0822462067 0.05890181288 0.9947638512
-0.06805029511 -0.05719788 1.149181128 0.06548657268 0.07808437198 0.9945477843
-0.2032878697 0.04979799688 1.047000051 0.2036118656 -0.06141282618 0.9745708108
-0.1893666983 0.05764297768 1.041841388 0.3659065366 -0.07177564502 0.916705966
-0.1996923983 0.05355935544 1.045949817 0.2515558004 -0.1070313603 0.956107378
-0.1866257489 0.06285876781 1.038228869 0.4359325469 -0.1298201382 0.879394114
-0.2011794299 0.05925267935 1.052039742 0.2817020118 -0.0943178013 0.9511591196
-0.1930827647 0.06196382642 1.045033455 0.371830672 -0.1123531684 0.9105191827
-0.1973350048 0.06019485742 1.048315763 0.3228808343 -0.1040475518 0.9318591952
-0.1703638881 0.04054134712 1.041683197 0.4179885089 0.1391944885 0.8740647435
-0.1687570512 0.04829265922 1.038645744 0.5225231051 0.07794828713 0.829108417
-0.1641455144 0.05497670174 1.034234166 0.5483074188 -0.05460110307 0.8221786022
-0.1574002355 0.04280758277 1.034819007 0.253845036 0.06835535169 0.9010294676
-0.163081035 0.04604227468 1.03641808 0.3867635131 0.0242710337 0.8766511083
-0.1416830868 0.04031635821 1.028261423 -0.01966776513 0.08057747781 0.9476572871
-0.1674090177 0.03548131883 1.041938901 0.2979716063 0.2120278329 0.900069356
-0.1585072279 0.03817300871 1.036869645 0.2029242963 0.1492326707 0.913251996
-0.1572315842 0.05466964468 1.030821443 0.4243836999 -0.1335427761 0.8632025719
-0.1505538076 0.04201612994 1.031865478 0.138988018 0.0686879009 0.920393765
-0.146719411 0.0382549651 1.03130734 0.02624894492 0.1252561361 0.941935122
-0.1552463919 0.04672431573 1.032513738 0.2784951031 -0.002329140669 0.8936918974
-0.1640555859 0.03252865374 1.033985376 0.2420109808 0.1670828313 0.9247780442
-0.1641854346 0.03757268563 1.030149817 0.3553592265 0.1078987718 0.8893033862
-0.1690237969 0.02983194776 1.040267467 0.1456182152 0.222573489 0.9365400076
-0.15702416 0.03793047741 1.023854733 0.4143466651 0.06975450367 0.8970410228
-0.1619633585 0.04162951931 1.025110722 0.4630536437 0.04928389564 0.8640986681
-0.172220394 0.03268830478 1.045017481 0.3046092987 0.2579423189 0.9018979669
-0.1702718288 0.0270888228 1.045236826 0.01903595403 0.274854809 0.9568449259
-0.1429664642 0.03512091935 1.030463099 -0.104703851 0.1591127813 0.9665173292
-0.1508376896 0.03394564241 1.034486651 -0.01791856624 0.1878279895 0.953707695
-0.1496220231 0.03665291518 1.02334702 0.1672153771 0.0717793107 0.9465783834
-0.152978465 0.03507538512 1.026842713 0.1396667659 0.1037776545 0.9492641091
-0.1586647481 0.0332938619 1.030887127 0.1810592115 0.1419287473 0.9400566816
-0.1580944359 0.03061398491 1.037548542 -0.04785592854 0.2095814794 0.9676234722
-0.1620438546 0.0291887261 1.040843964 -0.03267618641 0.2411940694 0.9626148939
-0.1428573281 0.03644440323 1.02364552 -0.1007836908 0.07225874811 0.9900471568
-0.1452454925 0.03688578308 1.019506574 0.02680198662 -0.01984590292 0.9908860326
-0.114402391 0.07132540643 1.031412005 -0.3553886414 -0.1125909463 0.9263401031
-0.1145076677 0.07754799724 1.033548832 -0.3166060448 -0.1499855369 0.9330458641
-0.1173163131 0.07378718257 1.026921272 -0.319914937 -0.1559303403 0.9341208339
-0.1034666449 0.07657850534 1.0330441 -0.2943794727 -0.06744833291 0.9487431645
-0.1086685359 0.07651025057 1.031264901 -0.303853184 -0.1060799882 0.9425631762
-0.1143292412 0.04775413126 1.029595137 -0.416804105 0.1414068043 0.8959273696
-0.1085502356 0.05521472543 1.032377958 -0.4276015162 0.06854417175 0.8988975883
-0.1115969196 0.06237441674 1.031396866 -0.4004156888 -0.01140076574 0.9119828343
-0.1143395752 0.05588605627 1.02460587 -0.3977873027 0.04207113013 0.9155645967
-0.1111377329 0.05953794718 1.026450872 -0.4092961848 -0.001290205051 0.9096131921
-0.2194253802 0.0102472119 1.066547871 0.1728892624 0.2967758179 0.9384973049
-0.2162173092 0.004897485022 1.065722466 0.1530356109 0.3221799433 0.9341173768
-0.21344769 -0.0009433494415 1.062185645 0.1333472878 0.3289020658 0.9347510338
-0.2140501589 0.004265858792 1.060840011 0.1556503177 0.3243193924 0.9326558113
-0.2188882083 0.01342743356 1.060396194 0.1871703714 0.2790775895 0.9409146905
-0.2143396884 0.02134777233 1.056207418 0.2462363541 0.2476989627 0.9365164042
-0.2214734703 0.02550689876 1.056307077 0.2654414475 0.2551980019 0.9294938445
-0.2213489115 0.02095512487 1.059618115 0.2182352394 0.2491567731 0.9430759549
-0.2134058028 0.01545799617 1.057384372 0.2125722766 0.2361733913 0.9477152824
-0.213642776 0.01012408547 1.057938814 0.177876547 0.2888645232 0.9387700558
-0.1994585842 0.0223387368 1.050660133 0.1636741012 0.2855300009 0.9424321651
-0.2042180151 0.01890194044 1.052999377 0.1782514751 0.2723051608 0.943459332
-0.2084059715 0.008229601197 1.055600882 0.1504827142 0.3227893114 0.9335208535
-0.1980847716 0.01751324907 1.051551342 0.1288842708 0.3228022158 0.9374329448
-0.1934686452 0.02208350785 1.04986918 0.1214848459 0.3175136745 0.9402629137
-0.2027141899 0.01312803291 1.053083897 0.1373208761 0.3281757534 0.9344442487
-0.2095561177 0.01769625582 1.055377483 0.2078813612 0.240632847 0.9470587373
-0.21128878 0.02491401695 1.054360032 0.2409435064 0.2700965106 0.9306096435
-0.1761060506 0.02484164201 1.052363038 0.08645091206 0.2918682098 0.950607121
-0.1751811802 0.02931672893 1.048939466 0.07583750784 0.273144722 0.9570010304
-0.1827964336 -0.01231665909 1.06633234 0.05786979571 0.5203437209 0.8501335979
-0.1756468117 -0.002388221445 1.059197187 0.1037905887 0.4412275553 0.8909042478
-0.1732728332 0.01305813808 1.053258538 0.07816424966 0.3586795628 0.9274691939
-0.1826281697 0.01435640175 1.054434538 0.1378060728 0.3496388793 0.9256463051
-0.1778158695 0.01173102204 1.054781795 0.115030244 0.3648152053 0.9221132398
-0.1729242802 0.01796316542 1.050805449 0.05594332144 0.3323818445 0.9388498664
-0.1772025079 0.006206324324 1.056011081 0.129496336 0.397724241 0.9068114758
-0.1856528521 0.00890878588 1.056460738 0.1228845045 0.4020786583 0.9065773487
-0.1524433941 0.07218359411 1.028879642 0.3320005834 -0.2757533491 0.8795307279
-0.1440210044 0.07016592473 1.031597733 0.1826800704 -0.2164762169 0.884886086
-0.1243838891 0.07818675041 1.031071305 -0.2451736629 -0.2066934705 0.9248431921
-0.149871394 0.06990777701 1.032844663 0.2880639136 -0.2086855024 0.8718264699
-0.145558089 0.07418984175 1.034218073 0.1633131802 -0.1875845045 0.8789333701
-0.1298626661 0.07798513025 1.031838536 -0.1370948404 -0.2124411911 0.9132300615
-0.1366453469 0.07557795942 1.03238678 0.002717007417 -0.2083141953 0.8989579678
-0.1635376215 0.07088905573 1.037599206 0.4938021004 -0.1500831693 0.838896215
-0.1593715847 0.06337942928 1.032837272 0.4984694719 -0.1770144254 0.8423248529
-0.1725831181 0.04574634135 1.043648243 0.4241510928 0.1080415621 0.875262022
-0.1755003482 0.04161436483 1.047451615 0.3474164307 0.1573896408 0.9094814658
-0.1804832816 0.01348199975 1.058967113 0.1140215099 0.3683995008 0.9212609529
-0.180114463 0.02243614383 1.055827618 0.1342127174 0.314771682 0.9372118115
-0.1765741408 0.01733465679 1.055695415 0.07735843211 0.327881515 0.9402647018
-0.1725417525 0.006993304007 1.056789994 0.09029194713 0.3884243667 0.9163643122
-0.1912159622 -0.0009457328706 1.065891743 0.02284655534 0.4443397522 0.8936870694
-0.1855079383 0.007453721948 1.061795831 0.09843598306 0.3973673582 0.9098241925
-0.1803949177 0.008410383016 1.060584307 0.09066918492 0.3966826797 0.9131318927
-0.1864266843 -0.0004734419635 1.063833594 0.06282790005 0.4280888438 0.9001057148
-0.1897226721 0.005061653908 1.058498383 0.07723073661 0.4001832306 0.9123465419
-0.1801953614 0.002613556571 1.061283588 0.09173109382 0.42513448 0.9002409577
-0.1692559719 0.06988868862 1.040492177 0.5140424371 -0.1287732869 0.8446866274
-0.1810258925 0.06470070034 1.044733524 0.4719156325 -0.02285660245 0.8787238598
-0.1899912357 0.065201208 1.055727959 0.386723727 -0.0578359887 0.9162721634
-0.1872556359 0.06417420506 1.051536202 0.4139403403 -0.03694574535 0.9060716629
-0.176260978 0.0676035434 1.044982553 0.471811384 -0.09688054025 0.8699554801
-0.1598622054 0.07062759995 1.031450391 0.4512688816 -0.2083625048 0.8575580716
-0.1673773825 0.06920975447 1.032305717 0.4786279798 -0.1597353518 0.8522104621
-0.1231960282 0.06366108358 1.019571304 -0.2964871228 -0.09716302902 0.9497952461
-0.1169697195 0.06514134258 1.024075508 -0.3839709759 -0.106306769 0.9157101512
-0.1227651238 0.0704388991 1.0230546 -0.2811051607 -0.1503072828 0.946390152
-0.143978402 0.04243870452 1.018828988 0.04164444283 -0.02047467977 0.9967925549
-0.1412222385 0.05270368606 1.019000053 0.02995567583 -0.040395502 0.9864487052
-0.1270110607 0.05718292296 1.019000053 -0.2497754544 -0.02088452317 0.9607883096
-0.1302621365 0.05217146873 1.019000053 -0.1967570633 0.02610981651 0.9720813036
-0.1326576769 0.05817724392 1.019000053 -0.1480859965 -0.0490539372 0.9788464308
-0.1326298416 0.04540871084 1.024216652 -0.1744009256 0.1097668558 0.972258389
-0.1329739243 0.05115026236 1.02287364 -0.1424089074 0.07594873756 0.9795616269
-0.1257589757 0.04993608594 1.025045514 -0.2443662733 0.1021057069 0.9500498176
-0.1193096489 0.04973941296 1.027546287 -0.3428055942 0.1081546172 0.9200561047
-0.12529324 0.05823201314 1.025953054 -0.2248418629 0.007187627256 0.9586139917
-0.1157744974 0.05842532963 1.029570818 -0.3685997128 0.01695430093 0.9166411757
-0.1207929105 0.06084207445 1.027778506 -0.2840276062 -0.01184546016 0.9438254237
-0.1210573316 0.05458632857 1.027392507 -0.3018251657 0.04657517374 0.9324453473
-0.1141806766 0.05395863205 1.029971004 -0.4083559513 0.06083653122 0.9005824924
-0.07358888537 -0.07607423514 1.152999997 0.07810782641 0.06495678425 0.9946787953
-0.07461355627 -0.06659962982 1.149000049 0.06446090341 0.08168815076 0.9945325255
-0.08573280275 0.0503892675 1.039542794 -0.3271571696 0.173396498 0.9280222058
-0.09749957174 0.03778553754 1.038270116 -0.366225034 0.2791035473 0.8873482943
-0.09276653081 0.0466780737 1.037326932 -0.3362790644 0.2171347737 0.9134576917
-0.08407858014 0.03973465785 1.045122147 -0.3611192405 0.1985856444 0.9110770822
-0.0795674175 0.04254801199 1.045818806 -0.3354838789 0.1684037745 0.9263384342
-0.1015331298 0.04788547754 1.037467122 -0.3828875721 0.1813492775 0.9037691951
-0.09125229716 0.04403894767 1.041772485 -0.3718141913 0.2104474455 0.9037002921
-0.03682703525 -0.03651600704 1.13670671 0.1018387675 0.2104785144 0.9722732306
-0.04682468623 -0.04172610119 1.141638875 0.1018709466 0.2102488279 0.9723219872
-0.0424933061 -0.03851886094 1.139394283 0.1016239077 0.2120120376 0.971947372
-0.04238231108 -0.03274493292 1.138690829 0.1002210304 0.2220247388 0.9698199034
-0.05247678608 -0.04318931699 1.144258976 0.1015254408 0.2127147913 0.9717980623
-0.03104795702 -0.03746457025 1.134515047 0.1019204631 0.209895432 0.972397089
-0.02896666713 -0.03149598092 1.132863998 0.1019204631 0.209895432 0.972397089
-0.03497529402 -0.0279023312 1.135462642 0.1013303101 0.2141074836 0.9715021253
-0.0474284701 -0.03535644338 1.141337037 0.1001790836 0.222324118 0.9697563052
-0.04077364504 -0.02815836295 1.138363481 0.1000030562 0.2235804349 0.9694893956
-0.04634427652 -0.03942162171 1.147463918 0.1006807461 0.2187436223 0.9705170989
-0.04255293682 -0.04316112772 1.149412513 0.1014413014 0.213315323 0.9716704488
-0.04215870798 -0.03531122953 1.143547416 0.1019204631 0.209895432 0.972397089
-0.03803756461 -0.04240056127 1.146197796 0.1019204631 0.209895432 0.972397089
-0.1891284585 0.0306129586 1.047000289 0.1537582129 0.2633323967 0.9503756166
-0.2012169212 0.04261078313 1.047000051 0.1581766903 0.08660361171 0.9809546471
-0.1946552396 0.04053902999 1.04700017 0.1483477205 0.109353058 0.9807171226
-0.1532998383 0.03938032314 1.019997478 0.2544477284 -0.01797465049 0.9502139091
-0.1501936764 0.04546146467 1.019000173 0.1695307791 -0.06642951816 0.9830635786
-0.1688434631 -0.006238149945 1.063072205 0.1147219613 0.4700421095 0.8749079108
-0.1698773056 0.0005721318303 1.058761954 0.1067705527 0.4260174334 0.8979040384
-0.1910283864 0.03673251718 1.046881557 0.1731440723 0.1715119332 0.96955055
-0.1800176501 0.04174601659 1.040889144 0.2688681781 0.1229434088 0.9421432018
-0.183821097 0.04006535932 1.044683933 0.2153429836 0.1545801759 0.9586420059
-0.1763755083 0.03946077451 1.037678123 0.308496207 0.125642702 0.9224835634
-0.1881248504 0.04520134628 1.045724273 0.1903803498 0.09455510229 0.9744807482
-0.1871634573 0.05211303011 1.042110443 0.2827327251 0.005906029139 0.9357749224
-0.193825081 0.04625957087 1.046092272 0.1531371772 0.04015790299 0.9809785485
-0.1921682805 0.05404211953 1.044289589 0.3007462025 -0.04018665478 0.9423119426
-0.1815715581 0.05647400394 1.038261294 0.3890161216 -0.02663669921 0.8979428411
-0.1699592471 0.04883201793 1.029595613 0.4555270672 0.004525207449 0.8754522204
-0.1753950864 0.04508512095 1.036013603 0.3424984515 0.07194461673 0.92012918
-0.1718662679 0.05378413945 1.029826641 0.4859430194 -0.04198779538 0.8619080186
-0.178798303 0.06078007817 1.034214854 0.4734545946 -0.08784300834 0.8639853001
-0.183692649 0.04700678587 1.043346643 0.2554034293 0.08930195123 0.9526998997
-0.17689915 0.05324804783 1.034823179 0.4140886962 -0.01240663324 0.8895977139
-0.1682132632 0.04427079111 1.029392838 0.4273742735 0.04741603881 0.8879800439
-0.1786888093 0.04896876216 1.03791821 0.3428210318 0.04389164969 0.9185073376
-0.1759570539 0.06779269874 1.036066175 0.5300781131 -0.1039093211 0.8401682973
-0.1529350877 0.06210951507 1.021994352 0.3490655124 -0.206093058 0.8991897106
-0.1578920335 0.04654328898 1.021355271 0.4499551058 -0.02200588025 0.8792254329
-0.153207019 0.05010697246 1.019873261 0.2998987138 -0.07624675333 0.9386244416
-0.1525869519 0.06691089272 1.022732973 0.3601744473 -0.2588510513 0.8871110082
-0.1555671096 0.057216499 1.022285938 0.4191817045 -0.144568935 0.8763295412
-0.1724011898 0.06228445843 1.030065775 0.4924205542 -0.1314550042 0.8532347679
-0.1719505042 0.06719007343 1.030720115 0.4649633765 -0.1850301474 0.8586905599
-0.1622276157 0.05933545157 1.025397062 0.4559969008 -0.1407364905 0.8634212613
-0.1663091332 0.05518164858 1.026357651 0.4979962409 -0.08067495376 0.8540312648
-0.1597824544 0.0665955469 1.025637507 0.4063501954 -0.2270887643 0.8737882376
-0.1674572676 0.05974923074 1.027608514 0.4803759158 -0.1243309155 0.8570897579
-0.1622809917 0.05015290901 1.023848891 0.5033879876 -0.04359101877 0.8542277217
-0.1663144231 0.06590103358 1.028192639 0.4430161715 -0.1938106716 0.8646762967
-0.1324191839 0.06429190189 1.019000053 -0.1456908286 -0.1184695065 0.9772450924
-0.1322588325 0.06238210574 1.023968697 -0.1137845963 -0.07576911896 0.9789525867
-0.1218264922 0.06840968877 1.028800011 -0.2818129361 -0.08922281861 0.9446154237
-0.1270830929 0.06610814482 1.026879549 -0.2167056054 -0.07484850287 0.9602283239
-0.07953377813 -0.07753820717 1.152999997 0.06009057909 0.04553097114 0.9968006015
-0.08358924091 -0.07262323797 1.152999997 0.06027455628 0.05129582807 0.9964327216
-0.07764972001 -0.07129982859 1.152999997 0.07208167017 0.06818769127 0.9949269891
-0.08386514336 -0.07865399867 1.149000049 0.03497809172 0.03027578816 0.99872756
-0.08426872641 -0.0678980574 1.149000049 0.05515126139 0.06934034079 0.9956240058
-0.07870431989 -0.07446091622 1.149000049 0.07107657939 0.08823746443 0.9933402538
-0.09303681552 -0.07329989225 1.149000049 0.01212929469 0.02139383368 0.9993459582
-0.1008084044 -0.08733032644 1.145960808 -0.001179244136 -0.07601139694 0.9962860346
-0.09524474293 -0.07909403741 1.1489923 0.002760507399 -0.02445479855 0.9995147586
-0.1005355045 -0.08040498942 1.147097111 -0.002739473945 -0.04472319409 0.9978557825
-0.09935308993 -0.0883385241 1.153316736 -0.001087530633 -0.0805580616 0.9961647391
-0.09508616477 -0.08755064756 1.148323298 0.005139969755 -0.06168219075 0.9976986051
-0.1056538224 -0.09044608474 1.144905925 -0.005822136067 -0.1036562026 0.994305253
-0.1048133969 -0.08987011015 1.155723691 -0.006349218078 -0.1056744009 0.9941420555
-0.07672061026 0.05883434415 1.03866148 -0.2818554342 0.1444425285 0.9483734369
-0.0835782662 0.04622014612 1.042590976 -0.3446887136 0.1834355742 0.9202621579
-0.08563815057 0.0600284189 1.035735846 -0.296824038 0.1511801928 0.9428806305
-0.09403183311 0.0560143292 1.034377933 -0.3327896297 0.1253096461 0.9327526689
-0.09575128555 0.0633501932 1.032633901 -0.3193709552 0.07739049941 0.94343853
-0.1021439806 0.05749415234 1.030170202 -0.3792698383 0.07629534602 0.9198519588
-0.1017571017 0.05685406178 1.036131382 -0.3805138171 0.08529423922 0.9178577065
-0.09531570971 0.05518059805 1.039572477 -0.3348700702 0.1112178266 0.9323601723
-0.09770620614 0.05970838666 1.038956523 -0.3376244307 0.07388036698 0.9334449172
-0.1000998542 0.06610972434 1.038655758 -0.333601445 0.02324394137 0.9376224875
-0.1033466458 0.06323482096 1.036291957 -0.3701091707 0.03655786812 0.9241574407
-0.09156607836 0.06030419469 1.041033506 -0.3049364388 0.1141837314 0.9421085715
-0.101077728 0.07221339643 1.038446426 -0.3273645639 -0.00880503282 0.9413255453
-0.09369553626 0.06529611349 1.040462613 -0.3061096668 0.07777126878 0.9436318874
-0.09066423029 0.05085728317 1.041059971 -0.3206543028 0.1504638344 0.93516922
-0.08137118071 0.05919371545 1.044063091 -0.2844824493 0.1438821703 0.9471256733
-0.0805124715 0.05340977758 1.044229627 -0.3014182746 0.1469637305 0.9415276051
-0.07826720923 0.04750948399 1.045064092 -0.3144986033 0.1496518254 0.9372037649
-0.08630562574 0.06225736067 1.042301774 -0.2820983827 0.1434483677 0.9479137063
-0.08387415856 0.0666602999 1.042811751 -0.2674500644 0.1407830268 0.95275563
-0.08180275559 0.05595646426 1.03764236 -0.3046417236 0.1538357437 0.9397575259
-0.1499722898 0.05742017552 1.019173384 0.2429240644 -0.1537378728 0.9529781342
-0.1446017623 0.04735738412 1.019000292 0.09061203897 -0.02864306793 0.9906810522
-0.1383639574 0.04768109322 1.023965836 -0.05427643284 0.0341406092 0.9870147705
-0.1362300962 0.04186629131 1.025119543 -0.1232680753 0.08584478498 0.9812676311
-0.1501179039 0.05942270905 1.027012944 0.2659857571 -0.1364780515 0.9312351942
-0.1545993537 0.06085495651 1.029624224 0.3870257735 -0.1754474044 0.887196362
-0.1483495384 0.04975185543 1.027977824 0.1966662407 -0.05090698972 0.9170120358
-0.1432400644 0.05109304562 1.024129272 0.06490841508 -0.02906201407 0.9798653722
-0.1512228549 0.05402778462 1.027574897 0.2773517966 -0.09968791902 0.9146164656
-0.1435224563 0.04660752788 1.026593328 0.06640978903 0.001737658866 0.9474946856
-0.1418126971 0.06637325883 1.019000053 0.09548657387 -0.1935735643 0.9565086961
-0.1421420574 0.05858545005 1.019000053 0.06595165282 -0.1154858544 0.9788690805
-0.1471653283 0.05304728076 1.019000053 0.1785139441 -0.09158101678 0.9765275121
-0.1467891484 0.06348664314 1.019000053 0.2199265808 -0.196686998 0.9463051558
-0.08296830952 -0.08471716195 1.149256229 0.04091699421 0.005035042297 0.9989104271
-0.08851416409 -0.08604607731 1.149297714 0.0261479225 -0.02268928103 0.9992190003
-0.1038729846 -0.08382677287 1.156180143 -0.007938439958 -0.1033348516 0.9942108989
-0.08900014311 -0.0726774931 1.152999997 0.03537928686 0.03190174326 0.9985795617
-0.09467993677 -0.0838708505 1.153778553 -0.006119925063 -0.03866825253 0.9988765121
-0.09177388251 -0.07867676765 1.153269768 0.01493721642 -0.007734071463 0.9990406036
-0.08668971807 -0.08247997612 1.1530689 0.03092335351 -0.01434918586 0.9992275834
-0.1740175337 0.05376714468 1.041804433 0.5044141412 0.05829746649 0.8514069319
-0.1780600101 0.05926144868 1.042633533 0.4976498485 0.06114694849 0.8631587029
-0.1808679551 0.05498273298 1.046434522 0.4157561064 0.07946038246 0.8977713585
-0.1842602044 0.05385296792 1.049859643 0.3271549642 0.09237152338 0.9368297458
-0.1778632998 0.04828578234 1.047506213 0.3799640536 0.1136677861 0.9059267044
-0.1873843372 0.05847578123 1.049993515 0.3296270669 0.07068157941 0.9413483143
-0.1818351448 0.04880637303 1.050533414 0.3035892844 0.1178544983 0.9414208531
-0.1747677028 0.06251438707 1.04077673 0.4963612556 0.08132629842 0.8577013612
-0.1692488343 0.0639057681 1.038982034 0.5304008126 -0.07116156816 0.8380352855
-0.1652852297 0.06459812075 1.035908937 0.538181901 -0.1452354193 0.8278868794
-0.1830837876 0.06025800109 1.046054244 0.4268437028 0.03429163247 0.8991196752
-0.1691301316 0.05657465756 1.037186027 0.5762414932 0.002421237063 0.8141898513
-0.1361118704 0.06762827933 1.019000053 -0.05047091469 -0.1916427612 0.9747480154
-0.1444329321 0.07086396217 1.019000053 0.1977331489 -0.2800866961 0.9332413077
-0.1490820944 0.07111997902 1.021717191 0.2991148531 -0.3026430309 0.9025927186
-0.1433388144 0.05806909502 1.025314689 0.1134301946 -0.06460115314 0.9513990879
-0.1372108161 0.05518534407 1.02256453 -0.04124267027 0.007377690636 0.9890277386
-0.1427512616 0.06318817288 1.023616314 0.2093752325 -0.1780236959 0.9464229941
-0.1447818577 0.06681308895 1.027662754 0.2426127791 -0.2137395293 0.9096503258
-0.1389568746 0.06979001313 1.029387355 0.09370937943 -0.2028020918 0.9088198543
-0.15247567 0.06589678675 1.030701637 0.3792751729 -0.2203391641 0.8751618862
-0.1335583329 0.06970833987 1.026674151 -0.0108908629 -0.1928722858 0.9400032759
-0.1270614415 0.07283161581 1.028427243 -0.1789252162 -0.1793605685 0.9410040379
-0.1377433538 0.06644229591 1.024476409 0.08436342329 -0.1930521876 0.9515874386
