# .PCD v0.7 - Point Cloud Data file format
VERSION 0.7
FIELDS x y z normal_x normal_y normal_z
SIZE 4 4 4 4 4 4
TYPE F F F F F F
COUNT 1 1 1 1 1 1
WIDTH 512
HEIGHT 1
VIEWPOINT 0 0 0 1 0 0 0
POINTS 512
DATA ascii
-0.07644406706 -0.08112372458 1.188540697 -0.0001587663428 0.1053712144 0.9876361489
-0.07320936024 -0.07814390957 1.19335103 0.03975222632 0.1034778208 0.9859184623
-0.2227103114 0.0316350311 1.084666967 0.1186436042 0.1989865452 0.9715954661
-0.2225708067 0.03714880347 1.082934856 0.1389933676 0.2007902116 0.9690263271
-0.2174511552 0.03368439153 1.083043694 0.1608688831 0.1980895102 0.9658423066
-0.22243388 0.0191350542 1.08852613 0.07591734827 0.1946851313 0.976950407
-0.2220591456 0.02595599368 1.086341858 0.1024802551 0.1968582869 0.9735797644
-0.07730664313 -0.07419930398 1.194046617 0.1316184998 -0.006957096048 0.9833294749
-0.0870905295 -0.07121632993 1.195673108 0.00143755856 0.05712815374 0.9892022014
-0.08170195669 -0.06651969999 1.193183184 -0.008493641391 0.1543889195 0.9753925204
-0.07040311396 -0.07216959447 1.194289565 0.1388085485 0.03531237692 0.9840307236
-0.08056461066 -0.06128207967 1.190117717 0.03078514338 0.1411880851 0.9753918648
-0.0770400539 -0.0655194968 1.192033887 0.05740083754 0.1134529859 0.9785262942
-0.07241242379 -0.06308713555 1.189075112 0.1712046266 0.03027671948 0.9810939431
-0.0812189281 -0.07089156657 1.184253335 -0.003839694895 0.1271820813 0.9806221724
-0.07809749246 -0.06701689959 1.183688045 0.08132902533 0.07082363963 0.9815891981
-0.06664936244 -0.06421340257 1.184792638 0.1947195083 0.05831366032 0.9763901234
-0.07933182269 -0.07519374043 1.180317879 0.03417755663 0.06762827933 0.9866102934
-0.08064606786 -0.08129797131 1.178304553 -0.02616252936 0.09179943055 0.9891872406
-0.07528222352 -0.07115689665 1.179992437 0.05602402985 0.08962913603 0.9849973917
-0.07126934826 -0.06392772496 1.18109715 0.1135372445 0.09034187347 0.982016027
-0.08179105818 -0.08533198386 1.183126807 -0.07011365145 0.1172978133 0.9900390506
-0.1363511086 -0.08997071534 1.181112766 -0.1997771114 0.4414867759 0.8713209629
-0.1412214488 -0.08997501433 1.179414153 -0.2034456432 0.4607591629 0.8611328602
-0.1514552236 -0.0917711854 1.175088525 -0.2091657966 0.4789819419 0.850830853
-0.1289509833 -0.09330612421 1.182796001 -0.1912109703 0.3753374815 0.9050939679
-0.1380950809 -0.09374818206 1.184509873 -0.2042853087 0.4528973401 0.8646766543
-0.08770887554 -0.06601205468 1.191816926 -0.07934064418 0.1805257946 0.9793488979
-0.08004017919 -0.08303135633 1.191703677 -0.04006612673 0.1205799729 0.9875124097
-0.08706218749 -0.0855204314 1.187039495 -0.06623312831 0.05816904083 0.9928389192
-0.08795557916 -0.08415792137 1.192021966 -0.03531897813 0.04553301632 0.9926737547
-0.0943942517 -0.08781422675 1.189013481 -0.02708872408 -0.04274666309 0.9964510798
-0.205889225 0.03182433173 1.083649158 0.1931188256 0.2174732834 0.9559579492
-0.2116269916 0.02513050102 1.084359884 0.1758178622 0.2454539239 0.9530953169
-0.2111772448 0.03105052188 1.083239675 0.1857003123 0.2255110145 0.9556684494
-0.03959145397 -0.01925772987 1.182503343 0.1404324919 0.1219785064 0.9818233252
-0.04795044661 -0.02079918981 1.1831429 0.1559570134 0.1108174175 0.9803866148
-0.0446555838 -0.01350061595 1.178721905 0.1891492456 0.08695444465 0.9773148894
-0.05262402073 -0.02754716575 1.184054375 0.1382133365 0.1235739291 0.9820286632
-0.0569509156 -0.03252553567 1.181392431 0.1372267008 0.1242832467 0.9821199775
-0.04864516109 -0.01911388338 1.178413749 0.1779391468 0.09501375258 0.9783523083
-0.05211084336 -0.02450373024 1.179089546 0.1627480388 0.105935134 0.9797581434
-0.2145855576 0.04807167128 1.082621336 0.1782987118 0.1344570816 0.9732651114
-0.215244934 0.03835569322 1.082178116 0.1818136871 0.1855811328 0.9649500847
-0.2102151513 0.03672288731 1.082617402 0.1915899515 0.1846978217 0.9634364247
-0.210240379 0.04260333627 1.083129048 0.1918407977 0.150462389 0.9684893489
-0.1048589647 -0.08578112721 1.193000197 -0.05113087595 -0.04426275939 0.997490406
-0.1068179458 -0.09116559476 1.192179441 -0.05437523499 0.004705590662 0.9984618425
-0.1038301587 -0.09257533401 1.188606858 -0.05053193495 -0.00569622498 0.9982043505
-0.1177147776 -0.08007938415 1.17936492 -0.08272067457 0.09928073734 0.9524438977
-0.1235587895 -0.08756504208 1.182009578 -0.1508053988 0.2764661312 0.9213322997
-0.1152620912 -0.07753333449 1.183143497 -0.04244982824 0.003438409418 0.9846934676
-0.1316697001 -0.08407077938 1.183096886 -0.1799976677 0.4193831682 0.8654831648
-0.1266648918 -0.08207717538 1.183122635 -0.1380091161 0.2924492955 0.9018910527
-0.05460782722 -0.04625052586 1.178787112 0.1381645799 0.1241654754 0.9822545648
-0.0589247942 -0.04914714769 1.179859996 0.1561950147 0.1156808287 0.9804575443
-0.04295903817 -0.02769119665 1.177707195 0.1259600371 0.1323832273 0.9831626415
-0.0552842021 -0.05681160092 1.182843924 0.1876914948 0.0661489144 0.9736530781
-0.0516824089 -0.05287439376 1.181506872 0.1356579214 0.1184349433 0.9820507169
-0.06916430593 -0.06794605404 1.191524386 0.180484876 0.01577204093 0.9830263853
-0.0598096773 -0.06400763988 1.184772849 0.2619712353 -0.01968539506 0.9593740106
-0.07127651572 -0.07618185878 1.18824482 0.1059498638 0.03654866666 0.9844045639
-0.06410355121 -0.06904309243 1.190716028 0.2095184177 0.0008304839139 0.9747675061
-0.0650736317 -0.06922265887 1.182727098 0.1856677979 0.006553828251 0.9661451578
-0.06806378067 -0.07274667919 1.187035799 0.1493595093 0.02082077414 0.9770852327
-0.07191282511 -0.07611341774 1.181190729 0.08797290921 0.04051433131 0.9763969183
-0.06221343204 -0.05937832221 1.183890462 0.2325693071 0.03840111196 0.9684665799
-0.06553786248 -0.05181654543 1.183252335 0.2120467722 0.05054199696 0.973959744
-0.06990878284 -0.05418273434 1.184273481 0.2050506324 0.03578088433 0.9770633578
-0.2098204345 0.05002684891 1.079390526 0.1981593668 0.1000005156 0.9744301438
-0.2027190179 0.05601419881 1.080400109 0.2113091648 0.03889391199 0.9739013314
-0.208571732 0.05264123529 1.083584666 0.1989691854 0.09238393605 0.9754315019
-0.1713697314 -0.09140008688 1.173224211 -0.2123351544 0.4968951344 0.8414326906
-0.2059334219 -0.01801127195 1.099505067 -0.07939682901 0.4416699409 0.8921861649
-0.120156996 0.06012289599 1.05675137 -0.2342525721 -0.1131640375 0.9641399384
-0.1082017571 -0.07460425794 1.188761711 -0.04216776043 0.0007976517663 0.9973556399
-0.103012234 -0.07487931103 1.193496227 -0.02934977971 -0.04651290923 0.9962131381
-0.09898523241 -0.07024086267 1.191856027 -0.06109827384 0.04077553749 0.9941724539
-0.1083790511 -0.07445815206 1.182322979 -0.03146395832 -0.04470297694 0.9961254597
-0.1026893929 -0.08052691072 1.194046259 -0.05914464593 -0.01729341224 0.9961259961
-0.09696117789 -0.07860583812 1.194522023 -0.05014166981 0.008025773801 0.9965783358
-0.1236241907 -0.08237910271 1.188552499 -0.1345283091 0.2134470046 0.9441322088
-0.119954206 -0.07968464494 1.185243249 -0.08135312796 0.1154770926 0.9587125778
-0.1167276129 -0.08881224692 1.192902684 -0.07262674719 0.03008086793 0.9894728065
-0.1255027205 -0.08721809834 1.191158652 -0.153376922 0.2436050624 0.94603163
-0.120101206 -0.08526386321 1.192824483 -0.1190803722 0.1221702844 0.9788793325
-0.1214117482 -0.09280018508 1.190935731 -0.09073007852 0.1267870665 0.9565864801
-0.1253400445 -0.09396470338 1.186412334 -0.1496180445 0.2583221495 0.9314283133
-0.132131502 -0.09468786418 1.18696177 -0.1802105606 0.3931833804 0.8936217427
-0.1125212386 -0.0924763903 1.190868258 -0.04949678853 -0.02561721578 0.9981464744
-0.1145715639 -0.08263926953 1.193000078 -0.06005868688 0.002536150161 0.9923662543
-0.1100509837 -0.07989539951 1.193000078 -0.0397763364 -0.03668612987 0.9946880937
-0.1127349809 -0.07794707268 1.188604832 -0.04493866488 -0.01216219179 0.994741559
-0.1726850271 0.05726517737 1.068283677 0.2848335207 -0.1461928189 0.9436330199
-0.1688560992 0.06028323621 1.064999342 0.3027763367 -0.1632379144 0.9324483871
-0.05825736001 -0.03783294931 1.18008244 0.1259600371 0.1323832273 0.9831626415
-0.04680827633 -0.02412497066 1.17775178 0.1259600371 0.1323832273 0.9831626415
-0.04338321462 -0.01861041412 1.177127361 0.1259600371 0.1323832273 0.9831626415
-0.0505900681 -0.03287561983 1.17824614 0.1259600371 0.1323832273 0.9831626415
-0.06322736293 -0.04592503607 1.181574941 0.189498052 0.09491667897 0.9770725369
-0.06004322693 -0.05480878428 1.183488965 0.2465815395 0.02510250174 0.9652220011
-0.04857328534 -0.04035198689 1.183533549 0.1259600371 0.1323832273 0.9831626415
-0.05348486453 -0.04084342346 1.182691693 0.1259600371 0.1323832273 0.9831626415
-0.05111652613 -0.03968927264 1.177211523 0.1259600371 0.1323832273 0.9831626415
-0.07784882933 0.05365581065 1.072557807 -0.3457752466 0.03291895241 0.9377000332
-0.08256582171 0.06272147596 1.071696401 -0.3552950621 0.006454566494 0.9334911108
-0.08483444154 0.05915750191 1.074736595 -0.3726516664 0.01508729346 0.9273195267
-0.0762873292 0.03713595495 1.078444123 -0.3405456841 0.04195652157 0.9392127991
-0.08132407814 0.04992994294 1.075820565 -0.3499414325 0.03453636914 0.9361186624
-0.08028080314 0.04239469767 1.078055143 -0.3510605097 0.03894321993 0.9355244637
-0.2150089145 0.01881465688 1.087396145 0.122300908 0.2273824215 0.9647037387
-0.1941775978 7.852622366e-05 1.092357278 -0.005341276992 0.4226202071 0.8998253942
-0.1964808255 0.008162510581 1.090787053 0.0692153722 0.3572799861 0.9228078723
-0.1878103465 0.003669101512 1.091512084 0.03362008929 0.4390543103 0.8932569623
-0.2002286762 0.004347095732 1.091624856 0.0302018635 0.3583803475 0.9229363799
-0.2168074995 -0.007959870622 1.09373045 -0.06914361566 0.3383644819 0.9342750311
-0.2214124799 -0.007275620941 1.089881301 -0.0723047033 0.2951026261 0.9526647925
-0.214316532 -0.014258123 1.093086958 -0.08822412044 0.3658751249 0.9247171283
-0.08713857085 0.02641760185 1.073209643 -0.3994755149 0.08243766427 0.9127932191
-0.09303094447 0.02595082484 1.07240057 -0.4014903009 0.1529707164 0.9020725489
-0.0914651081 0.03069726005 1.068946362 -0.3858905137 0.07806777209 0.9184234738
-0.08693445474 0.03317513689 1.069764972 -0.3870646358 0.06712855399 0.9192553759
-0.0864077881 0.03987747803 1.066572785 -0.3755450845 0.05423383787 0.9250255227
-0.09052282572 0.03613226488 1.066440582 -0.3764019608 0.06119409949 0.9240676165
-0.09271033853 0.04048345238 1.063099861 -0.3652292192 0.05266047269 0.9293140769
-0.08303295076 0.03113185428 1.07317996 -0.3782887459 0.06848483533 0.9221833348
-0.0769019872 0.0411881879 1.072351933 -0.3322126865 0.04262956977 0.9420815706
-0.08141158521 0.03615779057 1.07108891 -0.3606151044 0.0585673973 0.9298158288
-0.08182629198 0.04083861411 1.068180919 -0.3660602272 0.05169318244 0.9286232591
-0.1281549931 0.05574910343 1.056187987 -0.09226106107 -0.03322049603 0.9931186438
-0.1308270544 0.06414984167 1.055612087 -0.005635549314 -0.09124802053 0.9869889617
-0.1336988509 0.05645308271 1.054692507 -0.02022070438 -0.05066100508 0.9961802363
-0.1234360784 0.04498132691 1.056945324 -0.19565247 -0.0106677888 0.9775224924
-0.1322183013 0.05018525943 1.055169702 -0.05334098637 -0.01692459732 0.9946700931
-0.1669016331 -0.08533246815 1.181620121 -0.2123351544 0.4968951344 0.8414326906
-0.1535467058 -0.0902947858 1.180863976 -0.2123351544 0.4968951344 0.8414326906
-0.1618496031 -0.08901309222 1.179076791 -0.2123351544 0.4968951344 0.8414326906
-0.1620044559 -0.08546829969 1.183347344 -0.2123351544 0.4968951344 0.8414326906
-0.1581969261 -0.09127438813 1.175413489 -0.2123351544 0.4968951344 0.8414326906
-0.1716198027 -0.08557413518 1.178890228 -0.2123351544 0.4968951344 0.8414326906
-0.1677053869 -0.08827646822 1.176513791 -0.2123351544 0.4968951344 0.8414326906
-0.1632227451 -0.0908421874 1.174485564 -0.2123351544 0.4968951344 0.8414326906
-0.09420821816 -0.07064323872 1.196391463 -0.06987713277 0.07393128425 0.9937410951
-0.09250959009 -0.08262770623 1.193371654 -0.03774401918 0.0179283116 0.9954057336
-0.08547735959 -0.07863691449 1.194048405 -0.04978723079 0.1032438129 0.990237236
-0.1320352256 -0.0845606029 1.189514518 -0.1759987772 0.327853024 0.909576714
-0.1298122704 -0.09029088914 1.189519525 -0.1707679033 0.3313562572 0.9165825844
-0.1375112683 -0.0884309113 1.187961459 -0.192540437 0.4191896915 0.8770743012
-0.1431779563 -0.09020060301 1.186010122 -0.2095416039 0.4896876216 0.8459769487
-0.1526308209 -0.08692462742 1.184846044 -0.2123351544 0.4968951344 0.8414326906
-0.1483258903 -0.09159553796 1.183471322 -0.2123351544 0.4968951344 0.8414326906
-0.1484009475 -0.08791378886 1.179859996 -0.2094715685 0.4956347346 0.8428784013
-0.1406363994 -0.08585456759 1.183036804 -0.2062306255 0.4942082763 0.8445146084
-0.1183074787 0.0604471527 1.064847231 -0.1971251965 -0.07380720228 0.9626200199
-0.1279604435 0.06594125181 1.061757326 -0.02557981759 -0.1031218171 0.9791215658
-0.1143811569 0.0631095022 1.067457676 -0.2208768129 -0.09203713387 0.9534441233
-0.1247973442 0.05567147583 1.060428858 -0.161390692 -0.0413653478 0.9779757261
-0.1098783612 0.06055180356 1.068900466 -0.3008490503 -0.07839436829 0.9457440972
-0.1389949769 0.06915919483 1.060672879 0.1400052756 -0.1995944381 0.9612234831
-0.142436713 0.06790637225 1.064098835 0.1887470037 -0.2150697559 0.9416246414
-0.1174534112 0.05441458896 1.056969404 -0.2642697692 -0.07085087895 0.9603657126
-0.1140382588 0.06176141277 1.058625698 -0.3031447232 -0.1214885563 0.9426025152
-0.1125137284 0.05648454651 1.058790922 -0.3131088316 -0.08010311425 0.9429641962
-0.1093372554 0.0479763411 1.058917403 -0.3276828229 -0.01237973385 0.9431827664
-0.1052930877 0.04973790422 1.061708927 -0.3622850478 -0.03245578334 0.9293444157
-0.1018410251 0.04450972006 1.060950518 -0.3612197042 0.01306932978 0.930380106
-0.1193538457 0.04948212951 1.057000041 -0.2449009269 -0.03815974668 0.9663783908
-0.1023803353 0.03212555498 1.069576263 -0.4005607367 0.1336031109 0.9038531184
-0.04415989667 -0.03648796305 1.183022857 0.1259600371 0.1323832273 0.9831626415
-0.04218550399 -0.03100957535 1.184178829 0.1259600371 0.1323832273 0.9831626415
-0.04913280532 -0.03088405728 1.185774565 0.1259600371 0.1323832273 0.9831626415
-0.03978040069 -0.02498633228 1.183300853 0.1259600371 0.1323832273 0.9831626415
-0.04774389043 -0.04747676849 1.180981994 0.1259600371 0.1323832273 0.9831626415
-0.07625096291 0.0468618609 1.073267102 -0.3344965577 0.03850274906 0.9415559769
-0.185695678 0.04332083836 1.07160306 0.3106429279 0.02924991958 0.938482821
-0.1965106577 0.05528676137 1.080163598 0.2522667944 0.08239414543 0.9639106393
-0.2054931372 0.04361594096 1.083032846 0.203056246 0.1428176314 0.9671561122
-0.2015206516 0.04797130823 1.081790447 0.22402668 0.120493114 0.9652779102
-0.2171968669 0.04062696546 1.077102065 0.1707583517 0.1626109481 0.9713844061
-0.2173641473 0.02849380486 1.079692483 0.1780974716 0.2146610469 0.9580430984
-0.1940606385 0.02675122768 1.07619822 0.2643122971 0.3113746047 0.9113715887
-0.2110007107 0.03095639125 1.0780586 0.1988996714 0.2261721045 0.94925946
-0.2004950047 0.02823074721 1.076932073 0.2395763248 0.2796089351 0.9256039262
-0.2148567438 0.03547190502 1.077659011 0.1806916147 0.1887365729 0.9626802206
-0.2077463865 0.02623085864 1.07860744 0.2151194811 0.2624034584 0.9367000461
-0.2221855074 0.02577819489 1.081415772 0.1616385728 0.2096137851 0.9642099738
-0.1912325472 0.01352768764 1.089240789 0.118516244 0.3676175177 0.9169752002
-0.199396506 0.01294142194 1.089785933 0.110498175 0.3124834895 0.9383145571
-0.2029631585 0.01964266412 1.087320209 0.1529908627 0.2871645093 0.942609489
-0.2054068893 0.02228257805 1.081387043 0.1963688582 0.2665602267 0.9395668507
-0.1814434677 -0.001472521923 1.092778802 -0.0238209255 0.461479187 0.8858500123
-0.1872942299 -0.001589679858 1.092895389 -0.02925578877 0.4563146234 0.8876699805
-0.1915385276 -0.005424035713 1.094267726 -0.05518298969 0.4617747068 0.8841224313
-0.2004662901 -0.01771899499 1.101921558 -0.08034551889 0.4700111747 0.8787902594
-0.1966392696 -0.02218578197 1.099267125 -0.09244195372 0.485042423 0.8695052266
-0.2182091326 0.001355420332 1.087663531 -0.02822939865 0.276214689 0.9600332975
-0.2108085006 -0.0100918971 1.096649766 -0.06374735385 0.3862425387 0.9145470858
-0.2132489979 0.0006360747502 1.092162013 -0.02173229121 0.3043708801 0.9488732815
-0.2171761692 -0.002966467757 1.091958642 -0.04754594341 0.3049478829 0.9483113289
-0.20905146 -0.01891243458 1.09396565 -0.06798282266 0.4183818996 0.9019873142
-0.1958610564 -0.01450181939 1.099987626 -0.09870967269 0.4789036214 0.8722485304
-0.2161798179 -0.01152313687 1.087000012 -0.07163981348 0.3079148829 0.9485095739
-0.2144843489 -0.005128378049 1.087000012 -0.06069867313 0.3020207286 0.9509311318
-0.1885680854 0.01875906065 1.084597111 0.1817188561 0.3684987128 0.9072723389
-0.1028726399 0.067409724 1.062591195 -0.3312244713 -0.1120526791 0.9346567988
-0.1039370224 0.06187983602 1.06312108 -0.3531948924 -0.09670486301 0.9286900163
-0.09789264202 0.06527286023 1.064990878 -0.3632696867 -0.08970464766 0.9262430668
-0.1089694351 0.06526610255 1.060482383 -0.3149060607 -0.1234124377 0.9387837052
-0.1087352931 0.05908786133 1.061653852 -0.3456710577 -0.1019309461 0.9305047989
-0.1033875123 0.06548430771 1.067634821 -0.356988579 -0.130853653 0.9243836403
-0.09643729776 0.06580688059 1.070425749 -0.3628266156 -0.0865085274 0.9277005792
-0.1166387722 0.06677292287 1.059773922 -0.2514790595 -0.1625106037 0.945879817
-0.1309628338 0.07105735689 1.060661077 0.02028824203 -0.2192271203 0.9697697163
-0.1218319535 0.06863643974 1.064077139 -0.1085105538 -0.183774963 0.9555931687
-0.109962374 0.0658480376 1.066970348 -0.2879416347 -0.1507441103 0.9331640601
-0.1643716544 0.06250748038 1.06163919 0.3231794536 -0.1846625507 0.9204649329
-0.1743205339 0.06245387718 1.069389462 0.2785630226 -0.1284660697 0.9446606636
-0.1602383107 0.06271499395 1.067399502 0.3552019894 -0.1936898232 0.9097691774
-0.1701598912 0.06169937178 1.073034048 0.3450829685 -0.1420208216 0.9196283817
-0.1537238657 0.06322802603 1.065302849 0.3717090786 -0.2218185663 0.9004712701
-0.1349844187 0.0668277815 1.05689013 0.102787219 -0.1278136671 0.9814954996
-0.1465942562 0.06586071104 1.059623361 0.2618057132 -0.1528450698 0.9519429207
-0.137295723 0.06154974177 1.055165648 0.1198034659 -0.08871809393 0.9810444117
-0.1464253515 0.05941054597 1.054654837 0.2471520752 -0.1739767343 0.9327105284
-0.1500931829 0.06380131841 1.056232095 0.3328406811 -0.2113672197 0.9159653783
-0.1100707352 0.04600786045 1.064249396 -0.3229980767 0.001472502248 0.9424564838
-0.1089102551 0.05407902598 1.066521525 -0.3164146841 -0.04939843714 0.9450581074
-0.1033309549 0.05790132284 1.069557428 -0.3478882909 -0.09012307972 0.932700336
-0.1132894456 0.05766192824 1.066426873 -0.2825884521 -0.05934610218 0.9538877606
-0.1202410981 0.05245936289 1.061518431 -0.2351498157 -0.02517853864 0.9699922204
-0.1146935746 0.05276177451 1.063871861 -0.2762926221 -0.03243012354 0.9577997923
-0.0865296647 0.03227033094 1.077305675 -0.3773693144 0.05616007373 0.9231544733
-0.08240917325 0.03055401146 1.07948041 -0.361468941 0.03150834143 0.9314703345
-0.09196916968 0.03268583491 1.074360967 -0.3990230858 0.09154652804 0.9110230207
-0.09997608513 0.04948765039 1.063999891 -0.365677774 -0.04431305081 0.9276172519
-0.0950878188 0.04762763903 1.064555407 -0.3552882075 -0.02267816477 0.9319759607
-0.08468808979 0.04598588869 1.066030025 -0.338722229 0.0196127668 0.9392459989
-0.1031069532 0.0541893132 1.064570308 -0.377841562 -0.07830676436 0.9224939346
-0.09873840958 0.0601442419 1.065452337 -0.3781277835 -0.0788673237 0.9223587513
-0.0944314003 0.05374157429 1.066512227 -0.3600873947 -0.0676805079 0.9293561578
-0.08785451204 0.05165059492 1.066752434 -0.3491525054 -0.02510791831 0.9344089627
-0.08777146041 0.05981112644 1.066960812 -0.3598798811 -0.04106802121 0.9300243258
-0.08233270794 0.05068450794 1.066973805 -0.3410195708 0.009044206701 0.9382221699
-0.08400852233 0.05654282868 1.06781137 -0.3504896164 -0.008554279804 0.9343932867
-0.09119107574 0.06792042404 1.067213297 -0.374783963 -0.07630757987 0.9236742258
-0.0997402519 0.04429502413 1.070783377 -0.387494415 0.02045185864 0.9161321521
-0.102481015 0.0498165898 1.069598794 -0.37351197 -0.02692742087 0.9222154617
-0.09748771042 0.03925251961 1.07173121 -0.4002239108 0.06340371072 0.9106224775
-0.1032122374 0.04062621668 1.068737268 -0.3959437311 0.04523859546 0.9130586386
-0.1060921326 0.04299355671 1.058544636 -0.3280076385 0.02941516414 0.9432317019
-0.1130399033 0.04243787378 1.057384014 -0.2907060087 0.0300030373 0.9552537203
-0.1055446342 0.03568897024 1.067028165 -0.3960030377 0.08304334432 0.9129949808
-0.1110178158 0.03793125972 1.064280629 -0.3327327967 0.06024774164 0.9357307553
-0.1181283742 0.040008232 1.060964346 -0.2512086332 0.03588786349 0.9642263055
-0.107341975 0.0368810147 1.058699846 -0.3160674274 0.06608419865 0.9448107481
-0.1154989451 0.036859449 1.05735898 -0.2707965672 0.06421093643 0.9596781135
-0.1164384112 0.0294000227 1.057204604 -0.2743519247 0.09975845367 0.9554573894
-0.1115414426 0.03316965327 1.058009505 -0.2971120775 0.08286611736 0.9495208859
-0.1254572123 0.03013165854 1.060053945 -0.1897348911 0.07404258847 0.9783472419
-0.1188883111 0.02417627536 1.057000041 -0.263120234 0.1191665977 0.9567621946
-0.1203885302 0.03351209685 1.057000041 -0.2390720099 0.06777987629 0.968159318
-0.1952306479 0.04006560892 1.079161525 0.2880021334 0.1532502025 0.9433033466
-0.1900247335 0.03843733668 1.077535987 0.2966417372 0.1521284729 0.9382014871
-0.1952991486 0.03217264637 1.079741001 0.2841377854 0.2192333788 0.9305019379
-0.1903322935 0.02972255088 1.079240084 0.2692516148 0.2580010891 0.9208779335
-0.1994088441 0.03645764664 1.080797911 0.2633029521 0.1828102767 0.9455294609
-0.2004759163 0.03123526275 1.081801057 0.2530354559 0.219017759 0.9403702617
-0.1999328434 0.0257950332 1.082795262 0.2194088995 0.2841992676 0.9323431253
-0.1906195134 0.05728648603 1.073782563 0.2551870048 -0.0298608467 0.9625993967
-0.1826506704 0.05542619526 1.071673989 0.2696841657 -0.1093415692 0.9541759491
-0.1882359982 0.04848306254 1.071839452 0.2811638117 0.002735035494 0.9516746402
-0.179558903 0.04822565988 1.069101334 0.3053084016 -0.1000904813 0.9391909242
-0.1940459013 0.051455006 1.074077606 0.2623658776 0.06028053164 0.9615048766
-0.1808913648 0.03089103661 1.078393102 0.2706878185 0.2072116435 0.9076462388
-0.1828295141 0.03963043541 1.0762043 0.2958932817 0.102142714 0.9312822223
-0.1811932027 0.04422134534 1.074174285 0.3090566099 -0.01558798365 0.940994978
-0.1977198124 0.04649686441 1.074307084 0.2423160821 0.0924012512 0.9650816321
-0.2125395685 0.04607227072 1.075695753 0.1837507933 0.1330726594 0.9733507633
-0.2056550831 0.05137676373 1.076292872 0.2196184844 0.0950897634 0.9701753259
-0.2185669392 0.01032396778 1.085603595 0.03912290931 0.2520292699 0.9638819098
-0.2207936645 0.02032899112 1.083016157 0.1224927008 0.2217356265 0.9648860693
-0.218703106 0.01604611799 1.084570885 0.09622575343 0.2317515761 0.9650412202
-0.2216213793 0.006131747738 1.089541197 0.01461293269 0.2532167435 0.9668292403
-0.2167614102 0.02416045405 1.083550692 0.1620794088 0.2252572924 0.9605048299
-0.1947161555 0.0190672297 1.087133527 0.1543536335 0.3424675763 0.9219272137
-0.1854364425 0.01465360261 1.087708235 0.1384267807 0.4008321166 0.9016063213
-0.1912155747 0.009690089151 1.082765341 0.119693771 0.3605489731 0.9203496575
-0.1877821535 0.01730078645 1.07924509 0.2035835236 0.357608676 0.9091260433
-0.189866066 0.02270960249 1.077126741 0.2495275289 0.3381340206 0.9062644243
-0.1994513422 0.01908308081 1.081084847 0.1836421043 0.3008989692 0.9318547249
-0.1972516924 0.02312489599 1.078563094 0.2323895991 0.3021056056 0.9209660292
-0.1945614368 0.01645694487 1.081371188 0.1623952389 0.3359422386 0.9267206192
-0.1870665699 -0.01379255764 1.099046588 -0.06728808582 0.4683251977 0.8805502057
-0.1847267747 -0.008686839603 1.096261501 -0.06580095738 0.4778689444 0.8755764365
-0.1888122112 -0.02113317698 1.103401899 -0.1184040457 0.4756082594 0.8716219664
-0.1803183705 0.003620432923 1.091215014 0.02204266004 0.4510207176 0.8903641105
-0.1798489988 0.009282141924 1.089826345 0.08441046625 0.4443932772 0.8907643557
-0.1789802909 -0.01135477982 1.096380115 -0.07408679277 0.4690957367 0.8797291517
-0.1837716401 -0.01797986962 1.099583387 -0.0930692777 0.4664601982 0.8792014718
-0.2218497992 0.01199032925 1.090053082 0.04098856077 0.2140387744 0.9750828743
-0.2163792998 0.01292480156 1.090000033 0.04817743972 0.2050194889 0.977417469
-0.208392486 -0.001594500733 1.092304468 -0.03124600276 0.3286921084 0.9424379468
-0.2054569423 -0.008110022172 1.096032619 -0.05084334314 0.3901840448 0.9160497785
-0.2036922574 -0.01290918421 1.099060059 -0.06418709457 0.4363500178 0.8955956101
-0.1953011453 -0.009218823165 1.095890403 -0.07916083932 0.4641321599 0.8815158606
-0.207663402 -0.006689885166 1.087000012 -0.03869676962 0.3415447176 0.937071681
-0.2104370147 -0.01212282665 1.088463187 -0.06057108939 0.3524393439 0.9299506545
-0.1975049227 -0.01646155864 1.094101548 -0.05681335181 0.4657367468 0.8807677627
-0.2021828592 -0.008839417249 1.088795781 -0.03037998825 0.394225955 0.914452672
-0.1988231242 -0.004487431142 1.087303877 -0.004244490061 0.3960253894 0.9160630107
-0.2034597099 -0.01944999397 1.094195962 -0.08143956959 0.4387161732 0.8903211951
-0.2048155367 -0.01523048803 1.091573358 -0.06454719603 0.4078503847 0.9053632617
-0.2001896799 0.0005254940479 1.08661139 0.0006021288573 0.3489714563 0.9362030625
-0.1440274417 0.03793597966 1.052916527 0.008706352673 -0.09977206588 0.9929850698
-0.1430855393 0.05075772852 1.055127621 0.1470407695 -0.1220224872 0.9738155007
-0.137823835 0.05260389671 1.054526448 0.03836645186 -0.06339837611 0.9919609427
-0.1698385775 0.01974313334 1.065798044 0.3324256837 0.1193776429 0.8766504526
-0.1722016633 0.01557714213 1.071626902 0.2499733269 0.2211817801 0.8774043322
-0.1765531749 0.01823702455 1.075567961 0.2748857737 0.3347839415 0.8770387769
-0.1734265685 0.01178857218 1.075719357 0.1793637276 0.2855992913 0.8780716658
-0.1757856011 0.007260000333 1.081781268 0.09072769433 0.3898721039 0.8788870573
-0.1692649275 0.04075792432 1.062704206 0.3614351153 -0.175720647 0.9126355052
-0.1820511073 0.02660472877 1.068266511 0.3465471864 0.1621480882 0.8966480494
-0.1853591651 0.02901660278 1.071791053 0.3377580047 0.1982482821 0.9041928053
-0.173601523 0.02444905229 1.066563368 0.4107430875 0.1568348408 0.867626071
-0.1781216562 0.02335083298 1.072245359 0.3719391525 0.2743659616 0.8680759668
-0.1484796405 0.02732316777 1.05271697 0.07892389596 -0.1013860106 0.9851825237
-0.1462717205 0.03283658996 1.052353621 0.02419730462 -0.1050092876 0.9906751513
-0.09797161072 -0.09102549404 1.186317921 -0.0301005803 -0.05863939226 0.9970360398
-0.1005284861 -0.08666226268 1.183670998 -0.0261087399 -0.06928254664 0.996668756
-0.1045602039 -0.08381590247 1.182363033 -0.0300626792 -0.05936310068 0.9967780113
-0.1171515957 -0.08587431908 1.181096315 -0.1104749739 0.1517079175 0.9536648989
-0.1102623194 -0.07977904379 1.179250002 -0.04581245407 -0.01817152649 0.9854602814
-0.111782819 -0.08476601541 1.181950092 -0.07172779739 0.04982342198 0.9763714075
-0.119794637 -0.09141847491 1.18382287 -0.1455324143 0.2437313795 0.9396432638
-0.1120321453 -0.0899919942 1.185168147 -0.0900721401 0.09789471328 0.9723735452
-0.09601777047 -0.07038539648 1.186741233 -0.06879050285 0.08095619082 0.9888677001
-0.1019874066 -0.07209028304 1.184633255 -0.04858490825 0.007829338312 0.9928813577
-0.09275616705 -0.06900830567 1.190396905 -0.08042459935 0.1173042729 0.9881011844
-0.08868195862 -0.07821600139 1.181023836 -0.06632760912 0.1012146622 0.9863851666
-0.09671856463 -0.07862932235 1.178453803 -0.04735296592 0.01416259632 0.9917166829
-0.08413399011 -0.0758735612 1.183701158 -0.07656542957 0.162988916 0.9814549685
-0.08363059908 -0.08664404601 1.177600861 -0.08031444252 0.1043818071 0.9909162521
-0.09126898646 -0.07232327014 1.183691144 -0.05879048258 0.1089458838 0.9826343656
-0.1055666059 -0.0765023604 1.177121639 -0.02585015073 -0.06635850668 0.995243907
-0.08907455206 -0.08482281119 1.177078485 -0.06696277857 0.05788067728 0.9926214218
-0.0982574597 -0.07052689791 1.180863261 0.01258417312 -0.0249201823 0.990644753
-0.07966685295 -0.06035614386 1.184267163 0.158251062 0.005223873071 0.981842041
-0.07491479069 -0.05793086439 1.185625792 0.1839892268 0.02439214475 0.9794788361
-0.08485265076 -0.06342556328 1.183967948 0.1023148 0.01207326446 0.9841470122
-0.09303197265 -0.06767077744 1.181293845 0.0595266521 -0.02037837543 0.9874022007
-0.0975073576 -0.08368393034 1.17985642 -0.03626440465 -0.0361800082 0.9950557947
-0.09047542512 -0.08812278509 1.180752397 -0.05073838681 0.007726672571 0.994202435
-0.1847500354 0.02323146723 1.076256514 0.2862711847 0.3686731458 0.8837178946
-0.1693383306 0.02612051554 1.061016679 0.4590621889 0.04484822974 0.8635813594
-0.1683068722 0.03829078376 1.069072604 0.5257360339 -0.1734531075 0.8311500549
-0.1609573066 0.05851820111 1.06012547 0.3433502614 -0.2110342234 0.9123393297
-0.1705390215 0.05302805454 1.0664047 0.3114281297 -0.1714738756 0.9325207472
-0.1520724297 0.05994415656 1.070028186 0.3084744811 -0.1744921058 0.9022110701
-0.1379764974 0.05257009715 1.063878775 0.04771386459 -0.05559843034 0.9561756253
-0.1322851181 0.04701627791 1.06051302 -0.06047363952 0.02382605895 0.9904328585
-0.1300829798 0.05135999992 1.061435461 -0.09501949698 -0.02462011576 0.9722676277
-0.1432470381 0.05388424173 1.065683603 0.1435879618 -0.0824553892 0.9429814816
-0.1290801167 0.06034629792 1.060291171 -0.06174385548 -0.07164002955 0.9804548621
-0.1431616843 0.05945092067 1.066558123 0.1588121802 -0.1347393543 0.9289959669
-0.1346792132 0.05764318258 1.063366294 0.008924962021 -0.08927621692 0.9537277222
-0.149658829 0.06456562877 1.068075895 0.3006800115 -0.1814067066 0.9200109839
-0.1295710653 0.04248037562 1.060049534 -0.1044390947 0.04511090741 0.9917746782
-0.1235552356 0.03604282066 1.06018281 -0.1931963861 0.05289017409 0.9787737727
-0.08470771462 0.04513544962 1.076753616 -0.356117636 0.02634555846 0.9335279465
-0.08633860946 0.053333655 1.074640512 -0.3558249176 0.02040415443 0.9337848425
-0.08520831168 0.03977498412 1.077575684 -0.3631394506 0.0218476709 0.9304414988
-0.09242864698 0.03847312555 1.073902965 -0.3965746164 0.06539745629 0.9136624336
-0.09196873754 0.04346480593 1.073770046 -0.3896898031 0.03032818809 0.9178580642
-0.09215731919 0.04958125576 1.073214412 -0.3846050799 -0.008998968638 0.9213376641
-0.0974425748 0.05007723719 1.072403789 -0.384590745 -0.00362128322 0.9185392857
-0.09856813401 0.05881186202 1.072119594 -0.3700282276 -0.06380476058 0.9257394075
-0.1016636491 0.06352330744 1.072821856 -0.3512454629 -0.09342700988 0.931511879
-0.09246797115 0.056372419 1.07234323 -0.3784215152 -0.02930858172 0.924500227
-0.08922357112 0.06297514588 1.07470715 -0.38223961 -0.0252745226 0.9226599336
-0.09849278629 0.03276612982 1.065335155 -0.3759258389 0.1163703203 0.9169020057
-0.1035318151 0.02815400809 1.065443873 -0.3741338253 0.1648789495 0.9116981626
-0.1001762077 0.02548541874 1.070909381 -0.3830400407 0.2110548913 0.8984512091
-0.109432593 0.0256194286 1.066848397 -0.3241042197 0.1891041547 0.9219124317
-0.1184448898 0.0265931543 1.063293338 -0.2579656541 0.1369400322 0.9503487349
-0.1137934104 0.03348947316 1.064577699 -0.2993458807 0.09248556942 0.9407515526
-0.1016136706 0.03748081625 1.060039282 -0.3496032059 0.06903581321 0.9332593679
-0.1071887016 0.02994785272 1.06115818 -0.3399396241 0.126522243 0.9293792844
-0.1031234786 0.03284945711 1.062536597 -0.3634413779 0.1215157956 0.9214574695
-0.1879849285 0.03402343392 1.074590921 0.3353387117 0.1807704568 0.9215273857
-0.1944345981 0.04059847072 1.074351907 0.2583263218 0.12152417 0.9579447508
-0.202259019 0.04313816503 1.075492859 0.1955119073 0.1144146845 0.9731222987
-0.2030833513 0.03729218245 1.075616241 0.2201134115 0.191591695 0.9519607425
-0.1960830837 0.03522574902 1.075487018 0.2448275685 0.1760461628 0.9508174658
-0.2081262618 0.03960528225 1.075639963 0.2009760141 0.1873253286 0.957115531
-0.1867823452 0.05372588709 1.076104641 0.2528925836 -0.004327672999 0.9658038616
-0.1906190366 0.05046403408 1.077657938 0.2812998295 0.07642204314 0.9558312893
-0.1756757796 0.05949297175 1.074441075 0.3146912754 -0.1043283567 0.9350730777
-0.1864635944 0.06153586879 1.075045228 0.2274362594 -0.06734983623 0.9712610245
-0.1828350276 0.04933281988 1.074596286 0.280731231 -0.036098212 0.9541551471
-0.1772966534 0.03545043617 1.067402124 0.3854441047 0.02150866389 0.9075483084
-0.1702374816 0.03211280331 1.060630202 0.4205745757 -0.06378668547 0.8940894008
-0.1740420014 0.03161381185 1.063688278 0.4149885178 0.005719429813 0.896477282
-0.1721739918 0.04418491945 1.065360188 0.3461316526 -0.1546650827 0.9214061499
-0.1764638275 0.04298968241 1.068645597 0.3435076177 -0.06981277466 0.9227591157
-0.1820282191 0.03490396962 1.071224451 0.378066361 0.107192196 0.9106749892
-0.173438549 0.03754194081 1.064709067 0.3818991184 -0.06521688402 0.9084841609
-0.1652196944 0.02812824398 1.055401564 0.4549103081 -0.1079032645 0.8811087608
-0.1772608459 0.02376929484 1.079033494 0.2895927429 0.2450192869 0.8739365935
-0.1724930406 0.0323607251 1.073157549 0.443095088 -0.01382104028 0.8500421047
-0.1761104316 0.03840943426 1.07416141 0.3101498783 -0.03486325964 0.9157915115
-0.1259641945 0.02436777763 1.057266474 -0.2016830891 0.08766502887 0.975414753
-0.1662309915 0.01039328985 1.078740716 -0.006910601165 0.2789668143 0.916960001
-0.1703955084 0.009348264895 1.08338809 0.005941744894 0.3357837498 0.909996748
-0.1613621712 0.01326145139 1.074847341 -0.01454977971 0.1978160143 0.9315387607
-0.156716764 0.01643374749 1.071540356 -0.01988331228 0.1164919809 0.9471523762
-0.1647203565 0.01736952364 1.075280309 0.08627419919 0.2245173305 0.9191922545
-0.1748351604 0.007733933628 1.087009907 0.02482603863 0.4035671651 0.8977779746
-0.1732675731 0.01328010019 1.081991553 0.1125854775 0.3617121875 0.8939871192
-0.1693284363 0.01580912247 1.078389764 0.1128977537 0.2962408662 0.9044730663
-0.1711196601 0.02711986005 1.074229598 0.3593092561 0.08648144454 0.8611527681
-0.1489746869 0.02569567785 1.063293695 0.05459553003 -0.07964933664 0.9600932598
-0.1683851182 0.02227617241 1.074624181 0.228687793 0.1764146239 0.8895751238
-0.1677585244 0.03034298122 1.071283937 0.3815790117 -0.02011216059 0.8642300367
-0.162854746 0.02990923263 1.068906665 0.3117449582 -0.05409911647 0.8865503073
-0.1558740735 0.02290919982 1.067908406 0.08517764509 0.04854071513 0.9404817224
-0.1616942585 0.02466996759 1.07026422 0.1928846687 0.05939771235 0.9096647501
-0.1517949253 0.02101346292 1.06425488 0.03629684076 -0.01062046643 0.9543186426
-0.1614643335 0.02278309688 1.059325933 0.3099448085 -0.03617388755 0.8981102705
-0.1640836298 0.01541153528 1.070307732 0.1236818358 0.1471652836 0.9086798429
-0.156649977 0.02159713954 1.062258363 0.1635851562 -0.01606282778 0.9270979166
-0.158346042 0.02545922436 1.055821657 0.3293823004 -0.1066173315 0.9055690169
-0.1634145081 0.01883534715 1.065085173 0.2223636359 0.06299245358 0.9009176493
-0.1622577012 0.02574926615 1.051980257 0.4114646018 -0.1284718513 0.8955785632
-0.146569699 0.02502981573 1.056719899 0.03953479603 -0.1381288916 0.9791689515
-0.1535672247 0.02532383054 1.054405212 0.2031405717 -0.1352776736 0.9430678487
-0.1561653465 0.04469202831 1.062044501 0.4567663968 -0.2643374801 0.8431451321
-0.151968807 0.0310782399 1.063127398 0.190032348 -0.1522527039 0.9258567691
-0.1585490108 0.03547494113 1.065147519 0.351798147 -0.1728636026 0.88019979
-0.1538107842 0.03680883348 1.062705874 0.3034041226 -0.199208498 0.8907663822
-0.1636780947 0.03663277999 1.067219853 0.4435526729 -0.168159008 0.8558622599
-0.1897941232 -0.0105595272 1.091731548 -0.02020512708 0.4345415831 0.8992253542
-0.1940029263 -0.007072228473 1.089690566 -0.008236829191 0.4316154718 0.9004401565
-0.1923990995 -0.01646810025 1.094535112 -0.05098693445 0.4595009387 0.8851363063
-0.2103821188 0.01031917147 1.090118527 0.0723888278 0.2537232637 0.9631991982
-0.2078196704 0.003281704849 1.090768576 0.02499694005 0.2798757851 0.9573177099
-0.1981796622 -0.004112778697 1.093181491 -0.04419250414 0.4179089367 0.9039279819
-0.2033786029 -0.003976025153 1.093039513 -0.03789269924 0.3696257472 0.9258674383
-0.1853123307 -0.01524815429 1.09433949 -0.0415038988 0.4502644241 0.891282618
-0.1905558258 -0.003799638245 1.088153124 0.002724428196 0.4333067536 0.9005482197
-0.1840087324 -0.004319221713 1.08913815 -0.01900058612 0.4647789001 0.8846392632
-0.1819907874 8.124069427e-05 1.087207556 5.984999007e-05 0.4695941806 0.8827673197
-0.1778240502 -0.005743411835 1.092885971 -0.04294113815 0.4718574882 0.8798543215
-0.1805570871 0.01042236947 1.08172226 0.1551712602 0.4224661589 0.8799059987
-0.1799071282 0.005435614381 1.08478415 0.06799439341 0.4518509805 0.8805203438
-0.18120718 0.01674536057 1.078449965 0.2346082926 0.3883982599 0.8849496841
-0.1945227236 0.004474889021 1.085607052 0.0536477603 0.3630701303 0.9296606779
-0.186974287 0.001529993606 1.085881114 0.030492438 0.4370200932 0.8947378993
-0.1849820912 0.01279188506 1.080464482 0.1655741036 0.3917009234 0.8966712952
-0.1860041767 0.007308124099 1.083109379 0.09972026944 0.4133679569 0.8959517479
-0.1456854194 0.04302745685 1.054299712 0.1155126542 -0.1407626122 0.9737961888
-0.151116699 0.03398518637 1.051831722 0.1531034857 -0.1683796644 0.9626896381
-0.1492809951 0.03857284039 1.05418992 0.1542779952 -0.1896996051 0.957867682
-0.1559920162 0.03529730812 1.054373384 0.2937024534 -0.2356406599 0.9240007401
-0.1596523672 0.0314861536 1.05500412 0.3406646252 -0.2377129495 0.9072146416
-0.1581705511 0.02715708688 1.048679233 0.2682207823 -0.1882959306 0.943716228
-0.1557027251 0.05093262345 1.055397987 0.3733478785 -0.2498375624 0.8932726979
-0.1615567803 0.04588450119 1.058823228 0.3617933095 -0.2307614237 0.9022019506
-0.1641732156 0.04082106426 1.060075283 0.3582035899 -0.2259590179 0.9046632648
-0.1591097116 0.03986088559 1.056455135 0.3751205206 -0.2503483295 0.8924592137
-0.1543193012 0.06079895422 1.055461049 0.3708814979 -0.2427714169 0.8960216045
-0.163600862 0.05352444947 1.061091542 0.3482438624 -0.2107405663 0.9121440649
-0.1672305018 0.04704459012 1.06288898 0.3427596092 -0.2033147067 0.9159349799
-0.157366842 0.04600919783 1.055930018 0.3749399185 -0.2496533841 0.8927390575
-0.1586134136 0.0543353036 1.057721257 0.3632790148 -0.2322990298 0.9013381004
-0.1730295122 0.05154296383 1.072202563 0.3200669289 -0.1519350559 0.9326507449
-0.1674937457 0.05696416274 1.072536111 0.3654313982 -0.1637616009 0.9123311639
-0.172261253 0.0460408926 1.071398258 0.3608302176 -0.1935999393 0.9080927372
-0.1510433704 0.05607201532 1.055110216 0.3222323656 -0.234654054 0.913923502
-0.1503345221 0.04661979899 1.055872798 0.2649260461 -0.2333690822 0.9338495731
-0.2138718516 0.007054334506 1.086755157 0.03468037397 0.2624442279 0.9627166986
-0.2113366723 0.01482541952 1.086169839 0.1270535737 0.2285430431 0.9647991061
-0.2064470947 0.00945212692 1.086424947 0.09127499908 0.2556899488 0.9612939358
-0.200583294 0.008310603909 1.085192323 0.08734896034 0.296159476 0.9496437907
-0.2027002573 0.01306857727 1.085697412 0.1383213997 0.2564592361 0.9552741051
-0.2105072737 -0.001132469508 1.086944103 -0.03324722871 0.3018843532 0.9513565302
-0.2041748315 0.004682215862 1.086667418 0.05192731321 0.2770634294 0.9590381384
-0.1489682645 0.05547324196 1.067481518 0.2567293346 -0.1300980896 0.9188426733
-0.1595571786 0.05791727081 1.07065022 0.4424725175 -0.2144621611 0.8705781102
-0.1638364941 0.04952590913 1.069462419 0.4460196793 -0.2555267513 0.8567430377
-0.1324736923 0.04368203878 1.055262685 -0.07698567212 -0.008148445748 0.9941149354
-0.1300061643 0.03784014285 1.0559659 -0.1260457933 0.01347822323 0.9900712371
-0.1376426816 0.03820574284 1.054145098 -0.05413297564 -0.04090729356 0.996404171
-0.1398019642 0.04385842755 1.053539038 -0.01112297457 -0.0664408803 0.9969117045
-0.1313966662 0.02861480787 1.056004524 -0.1404881179 0.01809871942 0.9865320325
-0.1320960373 0.03297641873 1.060000062 -0.07980334014 0.0001067684134 0.9959951043
-0.1407571435 0.0329850316 1.05383575 -0.04709982127 -0.07611123472 0.99424541
-0.1355839968 0.03270254284 1.055085778 -0.09170078486 -0.03132782504 0.9949290752
-0.1368957162 0.02623128332 1.056135774 -0.08833827823 -0.06149408966 0.992483139
-0.1415717602 0.04860915616 1.061733603 0.1539669037 -0.08516132832 0.9483703971
-0.1332921088 0.03799012303 1.060000062 -0.0207038708 -0.01713467017 0.9866113663
-0.1382167637 0.04306739941 1.060000062 0.09977141023 -0.07164914906 0.9634450078
-0.1421890259 0.0386858806 1.060000062 0.1376277059 -0.130630523 0.9558846354
-0.1384196281 0.03360022604 1.060000062 0.01345427614 -0.08325311542 0.9800053239
-0.1447433382 0.04393760487 1.060000062 0.2456423491 -0.1632453799 0.9348745346
-0.1488148272 0.03512434289 1.060828328 0.2052851468 -0.1977765113 0.9177031517
-0.1517774016 0.04154611379 1.061097026 0.3396876752 -0.231610328 0.8833748698
-0.1433291584 0.02747487277 1.060110211 0.008584276773 -0.1396851689 0.9777949452
-0.1524113268 0.05260534585 1.064580083 0.3899295032 -0.2150171101 0.8938478827
-0.1487009525 0.04838390648 1.060546517 0.3555168808 -0.2072289139 0.9107915759
-0.1604712456 0.04774915427 1.065519214 0.4875679016 -0.2670690417 0.8302451968
-0.1590140313 0.05371051654 1.068198442 0.4609953463 -0.2444047779 0.8518384695
