# .PCD v0.7 - Point Cloud Data file format
VERSION 0.7
FIELDS x y z normal_x normal_y normal_z
SIZE 4 4 4 4 4 4
TYPE F F F F F F
COUNT 1 1 1 1 1 1
WIDTH 512
HEIGHT 1
VIEWPOINT 0 0 0 1 0 0 0
POINTS 512
DATA ascii
-0.05727573112 -0.03459920362 1.095692277 0.6231945753 -0.08410160989 0.7775316238
-0.06214313209 -0.03444028646 1.107247829 0.6123431921 -0.07951945812 0.7861443758
-0.06133858487 -0.01828745008 1.108366609 0.6162651181 -0.08117554337 0.7830315232
-0.07231790572 -0.04161430523 1.117892623 0.5812004209 -0.0663690418 0.8108622432
-0.06829920411 -0.04237199202 1.113236547 0.5931645036 -0.07142102718 0.8013663888
-0.06810366362 -0.03495161608 1.113947988 0.5944449306 -0.07196170092 0.8003501296
-0.05908010155 -0.04089976847 1.102959037 0.6209113598 -0.0831374824 0.7793438435
-0.05909794569 -0.03606469557 1.103587508 0.6213106513 -0.08330609649 0.779026866
-0.05994907022 -0.02395893447 1.106076241 0.6198952794 -0.08270844072 0.7801502347
-0.05926600844 -0.03073495813 1.104448676 0.6213064194 -0.0833043009 0.7790302634
-0.06480683386 -0.04240969196 1.109268308 0.6036198139 -0.07583590597 0.7930680513
-0.05755969882 -0.0239902027 1.090670586 0.6231945753 -0.08410160989 0.7775316238
-0.06149945408 -0.02515563741 1.092995644 0.6231945753 -0.08410160989 0.7775316238
-0.1259095222 0.02044765837 1.001113653 -0.3618196249 0.05023097619 0.9306749105
-0.1311669499 0.01867858693 1.00112009 -0.3945361376 0.03454381973 0.9175880551
-0.1207144558 0.03023337759 0.9964981079 -0.3358400464 0.03983535245 0.9398524165
-0.1238183975 0.02410027944 0.9969898462 -0.3617098629 0.04924361035 0.9297799468
-0.132193327 0.01354007144 0.9992402196 -0.3873625398 0.05599838123 0.91952914
-0.0574895367 -0.04071783647 1.097024441 0.6231945753 -0.08410160989 0.7775316238
-0.06669451296 -0.04880777001 1.109745383 0.5785543323 -0.05436592177 0.8112215996
-0.06208604202 -0.0473529622 1.105488777 0.6117252707 -0.07925853133 0.7866348028
-0.123314023 0.03341855109 1.001877308 -0.3235898316 0.03755293041 0.9442241788
-0.1292302608 0.03882212937 1.001145005 -0.3025299311 0.01970921457 0.9513469934
-0.1263963431 0.04482825845 1.001676321 -0.2782123089 0.00941841118 0.9598082304
-0.1231121495 0.04109039158 1.002067327 -0.2928583622 0.02094190754 0.954834342
-0.1149673313 0.04532014951 1.002767324 -0.2762494087 0.02016865462 0.9607568383
-0.1096786857 0.04457083717 1.003028393 -0.2797003388 0.02738064528 0.9596880078
-0.1216508523 0.04611048102 0.9998177886 -0.2724837363 0.01229886059 0.9619231224
-0.1126424521 0.0395607762 1.003301144 -0.2933664024 0.03203287348 0.9549363852
-0.120574981 0.02579337358 1.0015167 -0.3347159624 0.04534614459 0.9404811263
-0.1153814718 0.03765248507 0.9995917082 -0.3018282652 0.03136494756 0.9524720311
-0.1175518483 0.03216706961 1.002541542 -0.3184118867 0.04037214816 0.9461407065
-0.1137291715 0.04199624434 0.9973633885 -0.2874401212 0.0280030407 0.9573169947
-0.1278321147 0.04725234583 0.9975830913 -0.2652291358 -0.01492625289 0.962466538
-0.1317188144 0.04827545211 1.000321865 -0.2641132176 -0.008521578275 0.9640458226
-0.1355848163 0.04911009967 0.992141664 -0.2508791089 -0.07942863554 0.9620376825
-0.1293511093 0.04742938653 0.9926624894 -0.258671999 -0.05451638997 0.9609737992
-0.1190579683 0.04217430204 0.9952767491 -0.2845753729 0.006516859401 0.9568454027
-0.1234003305 0.04553358257 0.9941617846 -0.2685869038 -0.02271599323 0.9599251151
-0.07338817418 -0.08123517781 1.107678771 0.1259450763 0.04526941106 0.9861655831
-0.06920918822 -0.07654052228 1.105092645 0.214091301 0.009652975947 0.9721801877
-0.0740808323 -0.07568825036 1.106321454 0.2016454786 -0.03534379229 0.9769283533
-0.07470583171 -0.0613668412 1.11312902 0.3656877875 -0.04272783175 0.9009663463
-0.07579894364 -0.0660789907 1.113502026 0.2984615266 -0.01341781858 0.9182192683
-0.07593066245 -0.07235122472 1.110655427 0.2247776985 -0.01376266684 0.9522160292
-0.07457965612 -0.04818918929 1.118143082 0.5223142505 -0.05143999308 0.8336018324
-0.0813664943 -0.07393593341 1.111582041 0.1728101522 0.02920271829 0.9640930891
-0.08144959807 -0.06675881147 1.107765436 0.2696536183 -0.01186305191 0.9580739737
-0.07962998003 -0.06934767216 1.114257812 0.2352501601 0.01979143359 0.9327377081
-0.07608388364 -0.05551752821 1.11698091 0.4237693846 -0.02641747706 0.8667163253
-0.07919960469 -0.0792908743 1.112890959 0.1129993126 0.05108235404 0.9734174013
-0.09761214256 -0.09909380972 1.111433744 -0.04451105371 0.01084888261 0.9968981743
-0.09256675094 -0.09620521963 1.111983895 -0.01946835779 0.02816992067 0.9967571497
-0.06647547334 -0.02751973644 1.111303329 0.6036711931 -0.07585761696 0.7930272222
-0.06394542754 -0.02215527929 1.109112382 0.611738801 -0.07926426083 0.7866240144
-0.06780432165 -0.03070453741 1.106868029 0.6231945753 -0.08410160989 0.7775316238
-0.06212741137 -0.02204539254 1.099073529 0.6231945753 -0.08410160989 0.7775316238
-0.06417961419 -0.02862113714 1.097477794 0.6231945753 -0.08410160989 0.7775316238
-0.06588054448 -0.02648252249 1.105876088 0.6231945753 -0.08410160989 0.7775316238
-0.06761235744 -0.03433041275 1.103123784 0.6231945753 -0.08410160989 0.7775316238
-0.05990855396 -0.01468298957 1.104520082 0.6231945753 -0.08410160989 0.7775316238
-0.06054253504 -0.01820441522 1.094889164 0.6231945753 -0.08410160989 0.7775316238
-0.05840852484 -0.0160586182 1.099275708 0.6231945753 -0.08410160989 0.7775316238
-0.05772700533 -0.02742793411 1.097461343 0.6231945753 -0.08410160989 0.7775316238
-0.150123775 0.05135864392 0.992949307 -0.2352619767 -0.1574411988 0.9587615132
-0.1318009198 0.04250932485 0.999512136 -0.2860437334 0.002868723823 0.9575328231
-0.1281652451 0.03197645023 1.000668049 -0.3291179836 0.0335701704 0.9423999786
-0.1322228312 0.03189475462 0.9969517589 -0.3256999552 0.01390745956 0.9447103739
-0.1356454343 0.02005388588 0.9993506074 -0.3850845695 0.005234283395 0.9194557071
-0.1358514726 0.02849135734 0.9969016314 -0.3399299979 -0.006423364859 0.9370595813
-0.1412476599 0.02916880883 0.9960250258 -0.3179486692 -0.05667442083 0.9388159513
-0.1378395706 0.0333525613 0.9952543974 -0.3075359464 -0.03027639166 0.9473211169
-0.1400376856 0.02461062372 0.9974868894 -0.3460913301 -0.04030513763 0.9292357564
-0.1425294131 0.03695270792 0.993627727 -0.2725669146 -0.07743639499 0.9551258683
-0.1080873236 -0.1041879505 1.112000108 -0.07999302447 -0.01762521267 0.9966396093
-0.09657043964 -0.09021586925 1.112000108 -0.01164251287 0.03748199716 0.9985285401
-0.09182173759 -0.09095940739 1.112000108 0.0008519245312 0.04561517015 0.9978809357
-0.1022091955 -0.09666292369 1.112000108 -0.05160929635 0.005623219535 0.9976103902
-0.1014981717 -0.09280040115 1.107966661 -0.05864201486 0.02307698131 0.9978715181
-0.1153392196 -0.1116090491 1.112000108 -0.07999302447 -0.01762521267 0.9966396093
-0.1185687557 -0.1080537587 1.112000108 -0.07999302447 -0.01762521267 0.9966396093
-0.1139669865 -0.105263941 1.112000108 -0.07999302447 -0.01762521267 0.9966396093
-0.11094293 -0.1150641516 1.112000108 -0.07999302447 -0.01762521267 0.9966396093
-0.2486753613 -0.00874071382 1.006627798 0.1808189005 0.05243307725 0.9818433523
-0.08438005298 -0.09533277899 1.109948039 0.008815010078 0.05549615994 0.9975029826
-0.09228928387 -0.1002116352 1.107407689 -0.02537486143 0.03707621247 0.9983050823
-0.0784612745 -0.09110977501 1.111567855 0.0379868038 0.07004725933 0.9967670441
-0.1300070733 0.03642106056 0.9919433594 -0.3165974617 -0.005510953721 0.9480028152
-0.1299442798 0.02655541711 0.9958326221 -0.3477809131 0.0324197039 0.936203599
-0.1251402199 0.03118982911 0.9956627488 -0.3302037418 0.02931885049 0.9426646829
-0.1200185418 0.035991285 0.9955362678 -0.3119055331 0.02654611319 0.9493861198
-0.1322514266 0.04288477451 0.9917596579 -0.2811128497 -0.04747052491 0.9550971985
-0.1360047013 0.03789416328 0.9902471304 -0.310644567 -0.03253284469 0.9485614896
-0.1274547428 0.04258927703 0.9931471348 -0.2811004519 -0.03049224056 0.9556807876
-0.1373967081 0.04285179451 0.9902427793 -0.2831046283 -0.06379130483 0.9540637732
-0.1415322125 0.05042554811 0.9932545424 -0.2475993484 -0.09757486731 0.9621585011
-0.1327168047 0.02140628919 0.9958224297 -0.3875551522 0.04636256769 0.9204134941
-0.1367424726 0.01888521202 0.993414402 -0.3934132755 0.03741182014 0.9182724953
-0.1409618556 0.02350136638 0.9918321967 -0.4046076536 0.01529762521 0.9142386317
-0.1071974263 -0.0990576297 1.112000108 -0.07927843183 -0.01421258785 0.9966961741
-0.08899760246 -0.08514949679 1.112000108 -0.003592027118 0.07602156699 0.9966423512
-0.08554750681 -0.08031790704 1.111179113 0.06172245741 0.05807104334 0.9911641479
-0.08654800802 -0.07298523933 1.108570457 0.1437887996 0.02940030955 0.9777459502
-0.1050244421 -0.1071492955 1.107691646 -0.07850943506 -0.01582503319 0.9967214465
-0.1067080721 -0.1115701497 1.111483812 -0.07669578493 -0.01362436358 0.9968215823
-0.1191769689 -0.1105212942 1.104412079 -0.07999302447 -0.01762521267 0.9966396093
-0.1112565249 -0.1121610329 1.106729627 -0.07999302447 -0.01762521267 0.9966396093
-0.123136878 -0.1070250198 1.104487658 -0.08027370274 -0.0143505428 0.99662745
-0.1226395443 -0.1013225764 1.108718276 -0.08111512661 -0.004533540923 0.9965911508
-0.1205368787 -0.115726538 1.10639286 -0.07999302447 -0.01762521267 0.9966396093
-0.1243994609 -0.105476588 1.110648155 -0.07999302447 -0.01762521267 0.9966396093
-0.1232602373 -0.111243628 1.109487295 -0.07999302447 -0.01762521267 0.9966396093
-0.126559332 -0.1155477837 1.102439165 -0.07999302447 -0.01762521267 0.9966396093
-0.116856426 -0.116823718 1.111114025 -0.07999302447 -0.01762521267 0.9966396093
-0.1168724746 -0.09887288511 1.112000108 -0.07999302447 -0.01762521267 0.9966396093
-0.1113032401 -0.09617961943 1.112000108 -0.07999302447 -0.01762521267 0.9966396093
-0.1064390987 -0.09105703235 1.108474612 -0.05758579448 0.01704017818 0.997862637
-0.1126485094 -0.0984621942 1.1064713 -0.080943048 0.01193075441 0.9966377616
-0.1078816578 -0.09685599804 1.107132554 -0.07438825816 0.01539216377 0.9970300794
-0.09992267936 -0.1030987129 1.106476784 -0.05554996431 0.01606642641 0.997992456
-0.1045928299 -0.1006707326 1.106255174 -0.06239257008 0.01956652291 0.99763304
-0.1164368689 -0.1054345891 1.106104493 -0.08052868396 -0.01137562469 0.9966164827
-0.11932946 -0.1008177921 1.105299592 -0.08201102912 0.005919020157 0.996552527
-0.2025354952 0.009824971668 0.9796109796 0.3449429572 -0.1054386795 0.9272055626
-0.1982606351 0.01858535409 0.9817149043 0.2687007487 -0.1602867395 0.9436849356
-0.2001802921 0.02920823544 0.9832276106 0.2978556156 -0.2389937937 0.9218660593
-0.1968795508 0.02499152161 0.9829983115 0.2428206503 -0.2033917606 0.9454669356
-0.2020540237 0.02244549245 0.9818120003 0.3322942257 -0.1942034811 0.9175381064
-0.2280866802 0.008729238063 1.002314448 0.4212358892 0.1363084316 0.8852388859
-0.2490691096 -0.01569662802 1.006596804 0.1465279907 0.0665140301 0.9863700271
-0.2353252321 -0.003030110383 1.002372146 0.2906473875 0.147441864 0.9324629903
-0.2288871109 0.004351729061 0.9985379577 0.388902396 0.1957298666 0.8960809708
-0.2309663445 -0.0007204436697 1.000285029 0.3404620886 0.1892002523 0.9104810953
-0.2366855741 0.004868924152 1.01000011 0.2798758447 0.1385851949 0.9491807222
-0.2425548434 0.001180971507 1.01000011 0.2468529344 0.1046631187 0.9612668753
-0.2435185462 -0.003916837275 1.01000011 0.2069855928 0.09564553201 0.9693776965
-0.2379775196 -0.002328313654 1.008868694 0.2347432375 0.1221852675 0.9606666565
-0.2397691905 -0.007265973836 1.008464575 0.1993975341 0.1074646041 0.9695965052
-0.2538685203 -0.00824746117 1.01000011 0.1722707897 0.06792975962 0.9822323918
-0.2486470789 -0.01218663435 1.00999999 0.1413441896 0.07062775642 0.9852876663
-0.1848926246 0.01026573032 0.977615118 0.02390468121 -0.136099264 0.989384532
-0.2193397582 -0.06905521452 1.019000173 -0.1622611135 0.4004085064 0.8961939812
-0.2261891067 -0.07343429327 1.020436287 -0.087093696 0.407512933 0.9089767933
-0.07477913052 -0.05597309768 1.105784178 0.4203889966 0.001197946025 0.8968831301
-0.07841156423 -0.0586964637 1.109333992 0.3927827775 -0.03683986515 0.9009299278
-0.07258617133 -0.04612901062 1.110698819 0.6032208204 -0.076787889 0.7920527458
-0.07493077219 -0.05138177797 1.109745979 0.5180663466 -0.06096171588 0.8357073665
-0.06742919236 -0.05491847172 1.107980728 0.4928111434 -0.009587034583 0.8657194376
-0.06521582603 -0.06327219307 1.103137851 0.4134263992 0.002953413175 0.9094983935
-0.07076247782 -0.071355097 1.104813218 0.2911814749 -0.02859202214 0.9535443783
-0.07152462751 -0.05617877468 1.113053679 0.4471668899 -0.04758701101 0.8757466674
-0.07034794986 -0.06615431607 1.104230046 0.3756849468 -0.0195475854 0.9250916839
-0.06925269216 -0.06068024039 1.109617949 0.4091147482 -0.03178867325 0.8978998661
-0.07662089914 -0.064625673 1.105713964 0.35754475 -0.02244838327 0.9314873219
-0.07696926594 -0.06988182664 1.105948091 0.2968338132 -0.04195066541 0.9486564994
-0.07100634277 -0.0398517698 1.107539058 0.6231945753 -0.08410160989 0.7775316238
-0.06058579683 -0.0314383395 1.094499469 0.6231945753 -0.08410160989 0.7775316238
-0.07915984094 -0.07653551549 1.10680747 0.1753757298 -0.0289069619 0.9808328152
-0.0814166069 -0.08111353219 1.107406139 0.1011513025 0.02596560679 0.9892251492
-0.0778240338 -0.08418379724 1.107872725 0.06886220723 0.06865173578 0.9950306416
-0.08392075449 -0.08903771639 1.107407808 0.03658613935 0.06810766459 0.9968506098
-0.08371578902 -0.08520708233 1.112000108 0.03327556327 0.07028929144 0.9966864586
-0.138514027 0.04204834625 0.9966462851 -0.2657881677 -0.05202673003 0.9595761895
-0.1353485435 0.03783662617 0.9960384965 -0.2952260971 -0.01506410819 0.9538950324
-0.1388867497 0.0484136492 0.9982200265 -0.2538601756 -0.06120476127 0.962141335
-0.1449757069 0.04705683514 0.9965267181 -0.2405814826 -0.1072689816 0.9606484771
-0.1418856233 0.0204602275 0.9954765439 -0.3586700261 -0.01551241986 0.9271893501
-0.1461351961 0.03154849261 0.9941512942 -0.2881598771 -0.09711124003 0.9453402758
-0.1376761794 0.01535945106 0.9980797172 -0.4005146921 0.02143845521 0.914961338
-0.2362869084 -0.06021576375 1.019545078 0.01342960354 0.3912484348 0.9180637002
-0.2207214236 -0.0631197691 1.027683973 -0.2074186206 0.3856428862 0.839615643
-0.2223968804 -0.05764907226 1.028604269 -0.2292347699 0.360334307 0.7152099609
-0.2167191803 -0.06179175526 1.030292869 -0.3214479089 0.3703875542 0.7263695002
-0.2126696408 -0.05783893913 1.033803821 -0.4669354856 0.3412303627 0.5374020338
-0.2030077875 -0.06186020747 1.037688613 -0.6588062048 0.3424113989 0.4700554609
-0.2032345235 -0.05607503653 1.039497852 -0.7199795842 0.3124549985 0.309396714
-0.2077321112 -0.06355968863 1.050584197 -0.4597374499 0.5169286728 0.4827331007
-0.2097179592 -0.07528354228 1.032323003 -0.3395444155 0.3421837687 0.8690578938
-0.2064872235 -0.06071909145 1.054672241 -0.4954746366 0.5677292943 0.3885347545
-0.2087410241 -0.0697350651 1.040948987 -0.3967488408 0.4252953231 0.6861954927
-0.2046813518 -0.06614420563 1.044588327 -0.4737903774 0.5007790327 0.5621778965
-0.2034399807 -0.05135981739 1.068328142 -0.6107228994 0.7129759192 0.07706075162
-0.2022577673 -0.0608179234 1.049754739 -0.6002137661 0.5046491027 0.3684373796
-0.2034591138 -0.0686699748 1.038075089 -0.5063449144 0.4118556082 0.6312879324
-0.1988541931 -0.05323670432 1.057187319 -0.778363049 0.511849165 0.09311682731
-0.2012884915 -0.05271848291 1.0622648 -0.6865115166 0.6102781892 0.09989598393
-0.2105870247 -0.07017504424 1.033638 -0.3772277236 0.3938651979 0.8034258485
-0.2083949745 -0.06334050745 1.04559052 -0.4561756849 0.5084428191 0.5532872081
-0.2055910528 -0.05504924431 1.062809587 -0.5530782938 0.6510155797 0.2116377056
-0.2033489645 -0.04809794202 1.073696494 -0.6354535818 0.763833046 -0.02714024298
-0.2069165856 -0.06598111242 1.035314083 -0.5087096691 0.389585346 0.6572320461
-0.1975549012 -0.05437995493 1.052006841 -0.8308319449 0.4302262962 0.122853972
-0.203000322 -0.05669028684 1.05285275 -0.6447770596 0.5248502493 0.2752165496
-0.1996134073 -0.05805939808 1.045652032 -0.7596673369 0.391215682 0.2806550562
-0.1952969581 -0.05559323356 1.046491504 -0.9073365331 0.3331273496 0.1372116357
-0.18155846 0.03968978301 0.9841017127 -0.01961855032 -0.2377531677 0.9708188772
-0.212866798 0.002622876549 0.9880387783 0.4747412503 0.1652015299 0.8570145369
-0.2164866328 0.00187080761 0.9914314747 0.4627586603 0.19922328 0.8562592864
-0.2089820206 -0.0002411076857 0.9838322401 0.4220467508 0.1354723126 0.8903870583
-0.2206835151 -0.0009361403645 0.99506706 0.4143131375 0.2422435433 0.8725466728
-0.2053600103 -0.001901457086 0.9802647829 0.3965514898 0.1121611223 0.908816278
-0.2541093826 -0.01644044742 1.006666064 0.1440313905 0.08455964178 0.9851884246
-0.1945507079 -0.05855326727 1.040913224 -0.8276171088 0.3208278716 0.2840960026
-0.1963131875 -0.0701931417 1.029003024 -0.4412610531 0.4096378684 0.7709082961
-0.1953547448 -0.06327378005 1.03200078 -0.5226649642 0.3952047229 0.6776328683
-0.195000127 -0.06134044006 1.03680861 -0.6896044612 0.3538652956 0.4608454108
-0.2079599649 -0.07262407988 1.026412606 -0.3019016683 0.385674566 0.8643063307
-0.2100970745 -0.06984613836 1.023013711 -0.2618401051 0.4041343927 0.8659234643
-0.2002352178 -0.07005926222 1.026242614 -0.3721340895 0.4116623104 0.827236712
-0.2084714919 -0.06398515403 1.020624638 -0.3107102811 0.3912274241 0.8634831309
-0.2155568153 -0.0706230104 1.021669507 -0.1961209923 0.4021140039 0.8867438436
-0.2177973092 -0.07512527704 1.027797222 -0.2218461037 0.3464189172 0.9037929773
-0.2221591622 -0.07458882779 1.022898555 -0.1220709383 0.3978308737 0.9067797065
-0.2168499529 -0.06352765858 1.019000173 -0.1893210113 0.3867858648 0.9017556906
-0.2299580276 -0.05946278572 1.017339945 -0.01756119542 0.4027000666 0.9146811366
-0.2262014598 -0.04971347377 1.013553619 0.01560498029 0.392013371 0.9193671942
-0.219422847 -0.04870913178 1.010766149 -0.0896236524 0.3755172789 0.9210711718
-0.2241843194 -0.05614186078 1.015675187 -0.03885723278 0.4034283161 0.9125926495
-0.06225971133 -0.05560535565 1.100212932 0.4908519983 -0.03285623342 0.8599796295
-0.05936919525 -0.05045384169 1.099738836 0.5890020132 -0.07086163014 0.798833251
-0.06424193084 -0.05095922947 1.100182414 0.5159223676 -0.03699658066 0.8442289829
-0.06843365729 -0.05390947685 1.102544069 0.4573320746 -0.002998080337 0.8804618716
-0.07013833523 -0.05867918953 1.104074597 0.4049864411 0.01969144493 0.9130152464
-0.07101434469 -0.04696650058 1.105655909 0.6040321589 -0.07394856215 0.7894048095
-0.06257814169 -0.04271075875 1.098550916 0.611813426 -0.07807141542 0.7845834494
-0.06238777936 -0.03660967946 1.097409964 0.6231945753 -0.08410160989 0.7775316238
-0.0681193471 -0.04214781523 1.103083134 0.6231945753 -0.08410160989 0.7775316238
-0.09055766463 -0.08693275601 1.107605219 -0.001999828499 0.07590640336 0.9966696501
-0.08935215324 -0.09245538712 1.10698998 0.002684650244 0.06147666648 0.9976950288
-0.09713316709 -0.08425080776 1.109533548 -0.02928318456 0.05731634796 0.9973628521
-0.09213008732 -0.07945280522 1.108791351 0.004024641123 0.08492451161 0.9960449338
-0.09516695142 -0.09333206713 1.107075453 -0.02287971228 0.03401929513 0.9990895987
-0.101064682 -0.08780729026 1.109512925 -0.03540644795 0.03335551918 0.9986837506
-0.1399157494 0.03173731267 0.9901173115 -0.3540023267 -0.01568409242 0.9339075685
-0.1432200968 0.03523565084 0.9874469042 -0.3034124076 -0.08614045382 0.9479510784
-0.1504390389 0.03736712039 0.9868611097 -0.2326124609 -0.1254483461 0.9635409713
-0.1450073421 0.0421692282 0.9876682758 -0.2644889355 -0.1220367923 0.9560998082
-0.1477269828 0.04470177367 0.9935232401 -0.24805215 -0.155064851 0.9559736848
-0.171388194 0.03639731929 0.9878982902 -0.1130438149 -0.2058489919 0.971426785
-0.1668654233 0.03951655701 0.9874302745 -0.1331566423 -0.1872741878 0.9721375704
-0.1732590497 0.0424666144 0.9869660139 -0.09815019369 -0.2147498429 0.9702936411
-0.1688322574 0.03226681054 0.9863415956 -0.1300585866 -0.1856447905 0.9730709791
-0.1767245829 0.03814391792 0.9847165942 -0.06099712849 -0.217223987 0.9724249244
-0.1756875366 0.03250706196 0.984393239 -0.08772461861 -0.1916379035 0.9757044911
-0.2526194453 -0.02129415423 1.008875847 0.09596948326 0.113095738 0.9881510735
-0.234672308 -0.06572900712 1.022000074 -0.01749240607 0.4039849937 0.9106992483
-0.2304317057 -0.06154665351 1.023280978 -0.02625529468 0.4016906321 0.9010180831
-0.2202086747 -0.06828214228 1.026720762 -0.220110774 0.41804865 0.863317132
-0.2307061702 -0.06878650934 1.020339131 -0.05894382671 0.4047248065 0.9121592045
-0.2262782902 -0.06546236575 1.019000292 -0.06099858135 0.4158348143 0.9072210789
-0.2151803672 -0.06932991743 1.028921366 -0.3055097163 0.4086412787 0.848202467
-0.2265045941 -0.06874258071 1.023803711 -0.1151022762 0.4319934547 0.8851286173
-0.1837223619 -0.004254074767 0.9785098433 0.07633291185 -0.04829649255 0.9641103745
-0.1768594682 -0.003364841919 0.9795963764 -0.05160598084 -0.05088084936 0.9852439761
-0.1871432066 -0.00726432493 0.9817982912 0.1843504161 0.1350729465 0.9162786603
-0.1857272238 0.001323558274 0.97704494 0.068687886 -0.1415868402 0.9866946936
-0.1853038073 -0.006490775384 0.9876217842 0.08278368413 0.06677081436 0.9391363263
-0.2034424394 -0.01423817594 0.9995228052 0.3874481618 0.3302862644 0.8364723325
-0.1806202829 -0.004421170801 0.9829519391 0.02257028408 0.009497687221 0.9624463916
-0.1968623549 -0.01130321622 0.9923319221 0.3101330698 0.2540699542 0.8679594994
-0.1952564418 -0.01037451345 0.9856731892 0.3479298949 0.2685367167 0.8658220172
-0.1942466944 -0.007216702215 0.9918351769 0.2338491678 0.1344241798 0.9024844766
-0.2022422254 -0.006624472793 0.994309783 0.3766859472 0.1748301238 0.8739029169
-0.1999961436 -0.01128969435 0.9968908429 0.3250241876 0.2472382635 0.8635850549
-0.1889990866 -0.007893534377 0.9904208779 0.1393637657 0.1132695302 0.9200680256
-0.1926915348 0.002043755027 0.984526217 0.2301087379 -0.04798912257 0.9462789297
-0.1842969209 0.0004440274497 0.9826402664 0.07763461769 -0.07220484316 0.9722989798
-0.1917603165 -0.003409189405 0.9881587625 0.1996668279 0.04754269123 0.9276511669
-0.197938934 -0.003736301325 0.9906425476 0.3080329895 0.09337736666 0.9023641348
-0.21271649 -0.03670364246 1.003060818 -0.02136875317 0.3492368162 0.9130414724
-0.2154322267 -0.04125064984 1.006446719 -0.1003898457 0.3538723886 0.9249107838
-0.2097962052 -0.03279490024 1.001056314 0.03023841977 0.3459983766 0.9027522206
-0.2095635831 -0.03726025298 1.009377956 -0.1348480731 0.3548674285 0.9177430868
-0.2044986784 -0.02706582658 1.000237703 0.07038896531 0.3432121277 0.8915390372
-0.2056274265 -0.04075287655 1.013794184 -0.2664324641 0.3562519252 0.8835686445
-0.2039705813 -0.06504501402 1.022528887 -0.3560814559 0.3975563943 0.8428857327
-0.195355311 -0.06448347867 1.025131583 -0.4537089765 0.4083873928 0.7919232249
-0.224941045 -0.0002284866059 1.005614996 0.3691004813 0.2277517468 0.8949663043
-0.2274667025 0.003924816381 1.004738927 0.3385792375 0.2142471671 0.9143769145
-0.2003636956 -0.07148756087 1.032146573 -0.442107439 0.4052811265 0.7677356601
-0.1976272762 -0.0654020682 1.036793232 -0.636520803 0.3632819355 0.5235338211
-0.2046712637 -0.07339262962 1.030286908 -0.3708638549 0.3977834582 0.8369095922
-0.2401776612 0.004107865971 1.005948067 0.2967006564 0.1108952463 0.9449205995
-0.2333393693 0.007237550337 0.9994226098 0.3809790611 0.1473232508 0.9086899757
-0.236788854 0.004848078359 1.002839088 0.3249858618 0.1230648756 0.9327460527
-0.2464962304 -0.002429920482 1.00560081 0.2509332299 0.07766105235 0.9610183835
-0.2409258783 -0.0009094818961 1.004056334 0.2594195306 0.07785189897 0.9551698565
-0.2052593529 -0.0580120869 1.019885421 -0.3601922393 0.4040530324 0.8384639621
-0.2014240921 -0.06112097204 1.021815419 -0.3970227242 0.4033581316 0.8209325075
-0.1906060427 0.005949629005 0.9780001044 0.1215269342 -0.1402253062 0.9764845371
-0.1967673153 0.003577295225 0.9780000448 0.2378884256 -0.09156791121 0.9545848966
-0.1962881982 0.008328427561 0.9787918925 0.2293424755 -0.09621527046 0.9529124498
-0.187523663 0.01466794405 0.9788937569 0.06313963979 -0.1446071565 0.979146421
-0.1916594654 0.01792992465 0.9806454778 0.1439959109 -0.1600665152 0.9668778777
-0.1945522279 0.01315429807 0.9798395634 0.197809577 -0.1276631504 0.9581717849
-0.1882621497 0.003902924247 0.9827487469 0.1519385874 -0.09467696398 0.9661557674
-0.1945275217 0.009416362271 0.98388201 0.2655604184 -0.1172826663 0.9525468946
-0.191341728 0.03270062804 0.983263135 0.111609444 -0.2246187478 0.9664588571
-0.1873743832 0.02214766853 0.9805034399 0.05877264589 -0.1732177734 0.9804378748
-0.1916274279 0.02626657486 0.9813146591 0.1058861464 -0.1968720406 0.9710584879
-0.1861598492 0.03232580796 0.9843851924 0.06706008315 -0.2274321914 0.968539536
-0.19458583 0.01763363555 0.9849857688 0.249659121 -0.1598051935 0.9536818862
-0.1809754372 0.03388702869 0.9854278564 -0.008050446399 -0.2245014757 0.9709618092
-0.1864973754 0.0270405598 0.9853138328 0.09840128571 -0.1970765591 0.9639254212
-0.1898926198 0.01987591386 0.9855607748 0.1747476757 -0.1626101136 0.9576737881
-0.1804377884 0.02847780474 0.9861785173 0.005327655468 -0.190936029 0.9673900008
-0.1749379635 0.02632128634 0.9842248559 -0.114088051 -0.1661609113 0.9788572788
-0.2175123841 -0.0588599816 1.016619563 -0.1622599661 0.3837451041 0.9071736932
-0.2201460451 -0.05365511775 1.013357997 -0.1004216 0.3856936991 0.915650785
-0.2122973204 -0.0614143014 1.018813491 -0.2651055157 0.3859181702 0.8820720911
-0.1525963247 0.01804799028 0.9860704541 -0.3323154747 -0.01193277538 0.9425675273
-0.1476052552 0.02062808909 0.987755537 -0.3683526516 -0.002299266169 0.9291116595
-0.1502670944 0.02549929731 0.9896429181 -0.2810121179 -0.0717856586 0.952043891
-0.1463385522 0.02615399845 0.9927934408 -0.3127756119 -0.05705864355 0.9404781461
-0.1492458582 0.03472814709 0.9921216369 -0.2591173351 -0.1210534349 0.9540731311
-0.1469639689 0.03219195083 0.9865176678 -0.2900932729 -0.1043759137 0.9505206347
-0.1525326073 0.03030748107 0.9862305522 -0.242333442 -0.108642146 0.9632841349
-0.155953601 0.0265956521 0.9862654209 -0.2297677547 -0.1025456265 0.9668391943
-0.1635084152 0.02967344038 0.9856726527 -0.1667185128 -0.1593168825 0.9727163911
-0.150196746 0.009695664048 0.9890256524 -0.3674018085 0.05674896017 0.9236018658
-0.1547136307 0.01445155218 0.9885931611 -0.308689177 -0.0278919097 0.9448030591
-0.1615184098 0.0161294844 0.9848026037 -0.261618793 -0.06482436508 0.9608227611
-0.1583878845 0.02167691104 0.9855539203 -0.2413001209 -0.0903948769 0.965975821
-0.1441307813 0.0149983773 0.9927750826 -0.3709701896 0.01846547797 0.9266076684
-0.1537764221 0.04312577471 0.9929468036 -0.2220370919 -0.1725382209 0.9593695402
-0.1535277963 0.0384879224 0.9910773635 -0.2141163349 -0.1578891426 0.9631427526
-0.1552361846 0.03464055434 0.9863900542 -0.1993110031 -0.1306810081 0.9711204767
-0.1635007262 0.03590036184 0.9871675968 -0.1489534974 -0.1693980098 0.9739151597
-0.1466463953 0.04716103151 0.9883726835 -0.2291318178 -0.1299643219 0.9645207524
-0.1512143165 0.04267985746 0.9879187346 -0.2120839804 -0.1419862062 0.9662837982
-0.1592653841 0.04613591358 0.9934863448 -0.1948519647 -0.1945094466 0.961011827
-0.1625157446 0.04347285256 0.9888927341 -0.16632393 -0.1881929934 0.9678112864
-0.1570851356 0.0431926772 0.9889972806 -0.1863478273 -0.1884815097 0.9639533162
-0.15429838 0.04825878143 0.9897395968 -0.2023979425 -0.1635893434 0.964435637
-0.2007516623 -0.0004814416461 0.9780000448 0.3353511989 0.01557480823 0.9311646819
-0.1919829249 0.0003268046712 0.9777163863 0.1687672585 -0.1155021489 0.968498528
-0.2012833506 -0.005382354371 0.980900228 0.4211117029 0.1961739808 0.8787746429
-0.1941370219 -0.004599764012 0.9791822433 0.2677154839 0.05102916062 0.924921155
-0.206542924 -0.0244246833 0.9953166246 0.1602924019 0.3374291062 0.8872647882
-0.2083368748 -0.02847708948 0.9973506331 0.1115732491 0.3410205543 0.8940186501
-0.1996581107 -0.01427309401 0.9866650105 0.3612156212 0.3265073001 0.8561273813
-0.2015203387 -0.04135791585 1.016631722 -0.3574673831 0.3532349765 0.851905942
-0.2046342492 -0.03407300264 1.01326406 -0.2367351949 0.3452393711 0.8932450414
-0.1989067048 -0.04931112006 1.028200865 -0.5606610775 0.3555808961 0.6538059115
-0.1949649751 -0.05409428105 1.034370303 -0.6259988546 0.3693727255 0.5600443482
-0.2117355615 -0.04970974848 1.024149895 -0.3340972364 0.3587337732 0.7883380055
-0.2096684873 -0.05222165212 1.02958703 -0.456117928 0.3427591026 0.6205890179
-0.223487556 -0.05379286036 1.024506688 -0.1538374424 0.3654705584 0.8121585846
-0.201995939 -0.05287748203 1.035009861 -0.6666772366 0.3231521845 0.4368452132
-0.2070820332 -0.04922183231 1.025930762 -0.4370407462 0.350897193 0.7217421532
-0.2070733756 -0.05519362912 1.036104083 -0.6042315364 0.3235351443 0.4191836417
-0.2156298906 -0.05385922268 1.029029727 -0.3525526822 0.348162055 0.6546312571
-0.1986240596 -0.054572355 1.039788246 -0.7985426188 0.3080948293 0.2848676145
-0.2377272546 -0.01151334029 1.004909873 0.1735779494 0.07015425712 0.9797587991
-0.2279055417 -0.005565790925 1.00005126 0.319935292 0.213475585 0.9110149145
-0.2436944246 -0.0118923597 1.006349921 0.1632659137 0.04931968823 0.9850789309
-0.2477002442 -0.02164757997 1.005514145 0.115578115 0.1197983176 0.9851227403
-0.1952756494 -0.05453052372 1.02862823 -0.4536607265 0.418014884 0.7869846821
-0.1966701746 -0.05774481595 1.022658944 -0.4530232251 0.3899296224 0.8011640906
-0.1997074485 -0.04754269123 1.01929915 -0.4356670082 0.3644599915 0.8221735954
-0.1994953752 -0.05356361344 1.020749807 -0.4288135469 0.3839015067 0.8159304261
-0.1951110661 -0.05923843756 1.027161002 -0.4556963444 0.4145781696 0.7876601815
-0.2362485081 -0.03478065133 1.011597276 0.1211238354 0.3369692266 0.931945622
-0.2365721166 -0.05606137589 1.021981001 0.07993873954 0.3790768385 0.9218726158
-0.2433653474 -0.05232365429 1.019606113 0.09351228923 0.3616364598 0.9274901748
-0.2200585455 -0.05102583766 1.021899104 -0.1663206518 0.3701105416 0.8765686154
-0.2231456041 -0.04788609594 1.019347429 -0.1006964147 0.3758011162 0.8835027218
-0.2320081592 -0.05313247815 1.020774603 0.03030241467 0.3795530498 0.9106490612
-0.2268952131 -0.05242351443 1.021373868 -0.05460229516 0.3753430247 0.8961645365
-0.2078632861 -0.0463391915 1.02148962 -0.356774956 0.3627126217 0.8404998183
-0.2134272307 -0.04575971514 1.020008326 -0.2589431107 0.3684862852 0.8555761576
-0.2043775767 0.01683492586 0.9832149744 0.3694577515 -0.1246807277 0.9184980392
-0.2077529281 0.01274468657 0.984449625 0.427485466 -0.06281363964 0.8967736959
-0.2118009627 0.008093318902 0.9876464009 0.5310027599 0.1089311987 0.8342703581
-0.2074795663 0.006143010221 0.9828666449 0.4356077909 -0.001232254552 0.8916316628
-0.2101905793 -0.04204846174 1.011762619 -0.2049703449 0.3618550301 0.9028612375
-0.2075357586 -0.0471880734 1.015465975 -0.2971179187 0.377769202 0.8665977716
-0.2046261877 -0.05053063855 1.018360257 -0.3746888638 0.3892126083 0.8387404084
-0.2144861072 -0.04538812861 1.010642171 -0.1564820707 0.3755101264 0.9128445387
-0.2140655071 -0.0529551357 1.014431119 -0.2085659653 0.3834822476 0.8963773847
-0.2092867047 -0.05198995396 1.016596794 -0.2955664992 0.4030562639 0.8623638749
-0.1454482675 0.01013155282 0.9908170104 -0.3914105296 0.06963310391 0.917134285
-0.141283378 0.008381105959 0.9939106107 -0.3943535089 0.07903569192 0.9155010581
-0.1369397789 0.01077449601 0.9973983169 -0.3998090923 0.06166901439 0.9139847755
-0.1473990977 0.01394400559 0.9886324406 -0.3823184371 0.04722918943 0.9222564697
-0.189241454 0.01443447545 0.9842535853 0.1622851789 -0.1375972927 0.9632742405
-0.1839310378 0.01024520211 0.9830473661 0.07177522779 -0.1108654067 0.9750849009
-0.1789788902 0.009811906144 0.9821583629 -0.01942304708 -0.1036392525 0.9843801856
-0.1819217354 0.01493087411 0.9791027308 -0.02752839215 -0.1422078311 0.988578856
-0.1716363579 0.01609745994 0.982968688 -0.1430545896 -0.119224228 0.9800296426
-0.1721286029 0.0218652878 0.9834469557 -0.1271636039 -0.1484967619 0.9799359441
-0.1671293378 0.02368219383 0.9843966365 -0.1729186177 -0.1484248787 0.972799778
-0.1676814705 0.01866374351 0.9843494296 -0.2023518682 -0.1145337522 0.9708898664
-0.176452145 0.01988537051 0.9830403328 -0.08253938705 -0.1440457255 0.9819886684
-0.1816253662 0.01915404759 0.983776927 0.01442207117 -0.1470304877 0.9732225537
-0.2012805194 -0.01582723297 0.9925967455 0.2733517587 0.3365736008 0.8758488297
-0.2038469017 -0.02205618843 1.000433922 0.07922881842 0.3342854977 0.8998560309
-0.2063369602 -0.03023412637 1.008140445 -0.08651503921 0.3466749191 0.9176799655
-0.2055812329 -0.0250634104 1.004963756 -0.01556745358 0.3373888731 0.9145156741
-0.2209694237 -0.04234536365 1.015608191 -0.1008735523 0.3652341366 0.8931353688
-0.2309107035 -0.04321030527 1.014376998 0.06152011827 0.3781580925 0.9151344895
-0.2258866131 -0.04364135116 1.015749097 -0.02818855271 0.3745939434 0.8993143439
-0.2094876468 -0.03336289525 1.013007402 -0.1725622118 0.3457351029 0.9075307846
-0.2142313719 -0.04024785385 1.015581965 -0.1905833632 0.3548245132 0.8858781457
-0.2168379277 -0.03718616813 1.013021827 -0.1094922274 0.3517418802 0.9087361097
-0.2126665711 -0.02996329032 1.010079384 -0.0781096071 0.3423701525 0.9337101579
-0.2045831829 -0.04287306219 1.02000165 -0.3749851882 0.3559596241 0.8454838395
-0.2521895766 -0.02557444386 1.006082535 0.1008704379 0.1498889029 0.9826294184
-0.2474920452 -0.02722832747 1.006407142 0.1061949357 0.16348432 0.9776552916
-0.2531539202 -0.03107072227 1.005565763 0.1262648106 0.2458754927 0.9586713314
-0.2371130437 -0.04735598713 1.014211893 0.09452910721 0.3696260452 0.9215446115
-0.2382999361 -0.05187816918 1.015874267 0.07561083138 0.3754867613 0.9194802046
-0.231079489 -0.05231346935 1.015048862 0.02970283478 0.388327539 0.91870296
-0.2425315976 -0.04700418189 1.014822841 0.1291253865 0.3599461317 0.922139883
-0.2499904931 -0.03693168238 1.007977009 0.1420791447 0.3066446185 0.9405867457
-0.2415449321 -0.04263861105 1.012316465 0.1276918501 0.3477688134 0.9271983504
-0.2439337373 -0.03799115866 1.009416461 0.1313172132 0.3243495822 0.9351489544
-0.2319869697 -0.04028867558 1.009912848 0.06523805112 0.3401988149 0.9344308376
-0.2271230519 -0.04328843579 1.01109314 0.04197559506 0.3663213551 0.9274736047
-0.2371355146 -0.03868964314 1.009150624 0.09194086492 0.3338212967 0.9348877668
-0.2500664294 -0.03195530176 1.009655118 0.1231784523 0.2394053638 0.9583467841
-0.212298885 0.01917425729 0.9895015359 0.4866540432 -0.07537139952 0.8672012091
-0.2072278857 0.02324827574 0.9869880676 0.4105370641 -0.1488506049 0.8976830244
-0.2264041901 0.01033191849 0.9966134429 0.4669990242 0.1435152292 0.8687752485
-0.2211135626 0.008692368865 0.9932723045 0.4918929935 0.1529595256 0.8532628417
-0.1588436514 0.004012633115 0.9858845472 -0.2805787921 0.01690479182 0.950797677
-0.163468495 0.001228334964 0.9844411612 -0.2402427047 0.003454911988 0.9656119943
-0.1539051682 0.006280820351 0.986050427 -0.3482145965 0.02835485525 0.93577981
-0.1649290472 0.007907201536 0.9843198061 -0.2037090063 -0.08334962279 0.9736699462
-0.1685582101 -0.001575003727 0.9822641015 -0.1887692511 -0.01560073905 0.9797558784
-0.1671385318 0.01321927086 0.9839863181 -0.1999553144 -0.09829062223 0.9733951688
-0.161093846 0.0112603344 0.9846386313 -0.2479150593 -0.05499732867 0.9643565416
-0.2066382021 -0.01710188203 1.002604723 0.3465325236 0.3708492219 0.8459763527
-0.2044755816 -0.02027866058 0.9928494096 0.2192771435 0.3331694305 0.8791179061
-0.2119449377 -0.02520887367 1.001995087 0.02867012657 0.3302551806 0.9228996634
-0.2304791957 -0.03502716124 1.011510372 0.08022872359 0.358635664 0.9265880585
-0.2205883712 -0.02256076783 1.001438022 0.1042496413 0.2416344434 0.9537391067
-0.2145548463 -0.02083512582 0.9990336299 0.1317980587 0.2786438167 0.9302821159
-0.2093471736 -0.01971586049 0.9976009727 0.1389511526 0.3152420223 0.9114086628
-0.2098107636 -0.01683389209 0.9928388 0.2631315291 0.2751861811 0.9028435349
-0.2111127228 -0.01146630477 0.9898637533 0.309248656 0.2107196748 0.9050076008
-0.2018516213 -0.01002857462 0.9850308895 0.4003114402 0.2748838365 0.86427176
-0.2050657272 -0.01252086181 0.9880160689 0.3476214409 0.2724587023 0.879684329
-0.211781621 -0.01655624062 1.005374193 0.232399717 0.3356451094 0.8949631453
-0.2154213935 -0.01025580335 1.003755808 0.4000585377 0.2994360924 0.8620628715
-0.2084532082 -0.02131652646 1.006549954 0.1095130369 0.3678299785 0.9151813984
-0.220648095 -0.04068053514 1.008249283 -0.03829201311 0.3545590043 0.9312844872
-0.2243254185 -0.03670105338 1.008225441 0.02381757088 0.3384087682 0.9399693012
-0.2195352167 -0.03242131323 1.006353974 -0.0431095548 0.315721333 0.9434109926
-0.2155165523 -0.02902682684 1.006186366 -0.06416994333 0.3312230706 0.9402294159
-0.2229177803 -0.02577449195 1.004742861 0.02730563469 0.2473309785 0.9654512405
-0.2475247085 -0.03257645667 1.005562663 0.1162239909 0.2650670707 0.9558768868
-0.2421506643 -0.03255000338 1.006935 0.1106603369 0.2648741603 0.9558012486
-0.2367083281 -0.01662362926 1.005635142 0.1405436248 0.08257482946 0.9855164886
-0.2393912673 -0.02623506263 1.009292364 0.1177355647 0.181839332 0.9740515947
-0.2280245721 -0.02580682747 1.005140305 0.06084030122 0.2149831653 0.9745947123
-0.2406129986 -0.0212453492 1.006091356 0.1141718999 0.1027261689 0.9873222709
-0.2436342239 -0.02408507653 1.00999999 0.1063522249 0.1455108523 0.9810330272
-0.2110605687 0.01473758277 0.9923286438 0.5106360316 -0.01876550913 0.8581359386
-0.2198145092 0.01430035569 0.9943555593 0.5313893557 0.05287754908 0.8394044042
-0.2203849703 -0.001231631381 1.002948523 0.4011391103 0.2524757087 0.876354754
-0.2217389643 0.00328533724 1.001773596 0.3868803978 0.2086735517 0.8906744123
-0.2125037163 0.005623000674 0.9968454242 0.4793318212 0.1047398895 0.8561077714
-0.217830956 0.00859131664 0.9980026484 0.4253769219 0.1122486144 0.8842651844
-0.2159083337 -0.004894623533 1.002432346 0.4466483593 0.2603634596 0.8504684567
-0.2149548829 0.001840055804 0.9993882179 0.455252111 0.1707462966 0.859261632
-0.223431319 0.00784035027 0.9997622967 0.4298349023 0.166348502 0.87751019
-0.2090498805 0.002063304884 0.9966945648 0.4766441584 0.1402600706 0.844635129
-0.2096973509 0.009243283421 0.9941978455 0.4935746193 0.0450751707 0.8546496034
-0.2091780454 -0.01192286611 1.002174973 0.4421280324 0.3303123415 0.8277540803
-0.2102780044 -0.002493657637 0.999006927 0.4640860856 0.2061427236 0.8413777351
-0.2109461278 -0.007750997785 1.001342177 0.4504260123 0.2796518803 0.8362042308
-0.2038014233 0.01677999832 0.9890069962 0.4018908143 -0.08627509326 0.8980315924
-0.2014961988 0.02099130489 0.98688972 0.3394646347 -0.1310374141 0.9159947038
-0.1979658306 0.008884637617 0.9892117977 0.3100909591 -0.03417705372 0.9209703803
-0.1981491745 0.01443550643 0.9871430397 0.3180902898 -0.1100742966 0.9305869937
-0.2043972164 0.002110344125 0.9946412444 0.4102532864 0.107621938 0.8684805632
-0.2027907223 0.006714378484 0.9921578169 0.3878413141 0.03167696297 0.8872256875
-0.2029461861 0.01154653355 0.9903550744 0.3947364688 -0.03442388773 0.8956225514
-0.2056911737 -0.002291062148 0.9969097972 0.4276841283 0.1784374714 0.8520414829
-0.2041711658 -0.008690631948 0.9986578226 0.3970836103 0.2553569674 0.849191308
-0.1984391212 0.002555053215 0.9878870249 0.3265611231 0.002221482806 0.9193221927
-0.1772777885 0.004027404357 0.9782039523 -0.04032819346 -0.1026377454 0.9930568933
-0.1717588603 0.003617196344 0.9808066487 -0.1100615636 -0.09306955338 0.9868561625
-0.1697487235 0.007893864065 0.98216784 -0.1412321925 -0.09810302407 0.9812247753
-0.1737911552 0.0107722152 0.98073107 -0.1007997841 -0.1089376882 0.9841120839
-0.1806578487 0.0005606627092 0.9773671031 -0.007916151546 -0.1033103913 0.9919971228
-0.1814467311 0.006377645303 0.9775280356 0.009101528674 -0.117020376 0.9924990535
-0.2187100649 -0.005672950763 0.9944259524 0.3616858423 0.2470863461 0.8891767859
-0.2225637287 -0.008223219775 0.9982069135 0.3081924319 0.2548013031 0.9031402469
-0.2183308154 -0.01158847939 0.9955584407 0.2754914165 0.2298794538 0.9137527943
-0.2228332907 -0.01795408875 1.00080204 0.1627725959 0.2298619747 0.9443162084
-0.2077872753 -0.005130447447 0.985340476 0.4141440094 0.2073860615 0.8777348995
-0.2237448394 -0.003436003812 0.9980069995 0.3743919134 0.2720193565 0.8839848042
-0.2141916007 -0.006622582208 0.9909539819 0.365973413 0.227531895 0.8893842697
-0.2290121615 -0.01254455373 1.002158523 0.2146651298 0.1755519062 0.9457012415
-0.2278797925 -0.01715080813 1.003081799 0.1519311219 0.1870298237 0.9583576918
-0.2327768356 -0.01039297413 1.005039334 0.1949721426 0.1211287305 0.9714006782
-0.2243971378 -0.006619463675 1.005388975 0.3017918766 0.2121422887 0.9167994261
-0.2296444327 -0.005954770837 1.006625175 0.2141526341 0.162622422 0.9601184726
-0.2310102582 0.001913764514 1.008322358 0.3127830327 0.1768258214 0.9274307489
-0.2210120708 -0.0105723422 1.003961682 0.3027155697 0.2316810191 0.9089864492
-0.2321523577 -0.01972842962 1.00618434 0.1395040303 0.1644648165 0.9747677445
-0.2144474089 -0.02065967396 1.00680089 0.07589192688 0.2846569121 0.9327018857
-0.2179086655 -0.01602879725 1.004537344 0.2365276664 0.2636807263 0.921677947
-0.2191209346 -0.03077016771 1.010784268 -0.01784296893 0.3473995626 0.9298248887
-0.2118703425 -0.02528677136 1.008981824 -0.06104388088 0.3086715639 0.9404480457
-0.2186138034 -0.02371946722 1.007982731 0.02238636091 0.277323544 0.9475659132
-0.2223445475 -0.01909197867 1.005920887 0.09293761849 0.2219843417 0.9610909224
-0.2265476286 -0.02899147198 1.009662867 0.07438150793 0.312343955 0.9377979636
-0.2316469401 -0.0254671853 1.008164287 0.133142665 0.2505828142 0.9546452165
-0.2343793064 -0.03027890623 1.010014892 0.1246600747 0.2877750695 0.9456041455
