# .PCD v0.7 - Point Cloud Data file format
VERSION 0.7
FIELDS x y z normal_x normal_y normal_z
SIZE 4 4 4 4 4 4
TYPE F F F F F F
COUNT 1 1 1 1 1 1
WIDTH 512
HEIGHT 1
VIEWPOINT 0 0 0 1 0 0 0
POINTS 512
DATA ascii
0.04711100832 0.08451910317 0.8483034968 0.1835416257 -0.2724171281 0.9177876115
0.04919416085 0.08648217469 0.8537276387 0.02267653868 -0.2507016659 0.9173547626
-0.0617027767 -0.000903700653 0.9619064331 -0.1820129156 0.01898761652 0.9831048846
-0.063851282 0.0004857663298 0.954778254 -0.1837078184 0.01593078859 0.9828494191
-0.06749609858 -0.00290345354 0.9612625837 -0.1807795465 0.02121206373 0.9832908511
-0.06897425652 -0.007376834285 0.9580850601 -0.1805330962 0.02165652812 0.9833279848
-0.06541779637 -0.01238343492 0.9573017955 -0.1803003848 0.02207624167 0.9833630919
-0.05908965692 -0.004025803879 0.9557518959 -0.1836405993 0.0160520263 0.9828595519
0.02508219518 0.08961618692 0.8630400896 0.1176833138 0.05806801841 0.9821724892
0.03055665642 0.08935318142 0.8619683385 0.1966574639 -0.03165652603 0.9774974585
0.02715792134 0.08599042892 0.8662909865 0.1306081116 -0.02822340466 0.9848005176
0.03945847228 0.08956535906 0.8578653336 0.1230003238 -0.1203202009 0.9482089281
-0.01189153921 0.09187290072 0.860527277 -0.09079500288 -0.009179060347 0.995424509
-0.009058282711 0.08596879244 0.8614468575 -0.0731171146 -0.06179906055 0.9907191992
-0.004334275611 0.07668806612 0.8617353439 0.06423770636 -0.1042007208 0.9647582173
0.001297391835 0.06487828493 0.8613519073 0.3500863314 -0.1044814661 0.8813664317
0.05479102954 0.08292117715 0.8484125733 0.006615704391 -0.3043636382 0.9143891931
0.06242232397 0.0824823007 0.8508978486 -0.2082430273 -0.3418531716 0.9042861462
0.06753703952 0.08127267659 0.854403913 -0.2951298952 -0.3992995322 0.859192729
0.07876659185 0.07323031873 0.856897831 -0.4817415476 -0.3147810698 0.8087963462
0.08178340644 0.07133942097 0.8621559739 -0.5075685382 -0.3030837476 0.8018214703
0.07377081364 0.07344072312 0.8575447202 -0.42271626 -0.3415142596 0.8247367144
0.03617165983 0.02917619608 0.8390079737 0.2798166275 0.07585368305 0.9517262578
0.09073477238 0.04342773929 0.8545932174 -0.6502662301 -0.1558215171 0.7376894355
0.03717104346 0.009285970591 0.8452273011 0.2140067667 0.4380901158 0.8709897995
0.04194507003 0.01432421058 0.8417423964 0.1771905124 0.3807237446 0.8926234245
0.04869043455 0.03054553084 0.8371374011 0.03467908502 0.05042522401 0.9905928969
0.04705560207 0.02502103709 0.8373036385 0.05382278562 0.1650495976 0.9806195498
0.05297135562 0.02727166377 0.8374392986 -0.06074348837 0.1338772029 0.9819529653
0.04365317896 -0.03511383012 0.8901102543 0.4037620425 0.4606314301 0.7860212326
0.04198231548 -0.02359471098 0.8887720108 0.4313838482 0.3239324391 0.8144778609
0.05027759448 -0.02721752413 0.8881964684 0.2786727846 0.401488483 0.8256313205
0.04919469357 -0.03292633966 0.8906835318 0.3132156134 0.4586750865 0.7999026775
-0.04014506564 -0.02277226187 0.9626573324 -0.2004290819 0.01464864798 0.9795002937
0.02753753215 0.09108025581 0.8559334278 0.167662859 -0.03583247215 0.9731757045
0.02199662104 0.08124845475 0.8521185517 -0.06229540333 -0.2238129079 0.9405724406
0.02885640785 0.08630301803 0.8527140021 0.1080339774 -0.1449493915 0.952151835
0.0233579427 0.08619566262 0.8545239568 0.03488152102 -0.1229005158 0.9588211775
0.03328090161 0.0907747969 0.8567556739 0.2313700467 -0.05251001194 0.9662554264
0.03771546111 0.08748036623 0.8505571485 0.2416759729 -0.1578410268 0.9455721378
-0.00798615627 0.08099266887 0.8614842296 0.04978854209 -0.07546593994 0.9533430934
-0.002300930675 0.0710895732 0.8612203002 0.2492909282 -0.08641818166 0.90250808
0.0002390733425 0.07702500373 0.8585112095 0.1322964132 -0.02777886204 0.9406631589
0.005998915527 0.05720512569 0.8607141972 0.5172880292 -0.1109119207 0.8322148323
-0.0008051751065 0.08597844094 0.8568134308 -0.06637676805 -0.002371505601 0.9928551316
0.008010293357 0.07556106895 0.8554725647 -0.01495678257 -0.1509635746 0.950504601
-0.004992590286 0.08933871984 0.8604837656 -0.08988688886 -0.009581091814 0.9958213568
0.08616849035 0.06904757768 0.8634479046 -0.5413877368 -0.2883009911 0.7895808816
0.05936129019 0.00494583929 0.8798878193 -0.04944965988 0.4030280113 0.8746461868
0.02112514712 0.01816429943 0.8498908877 0.4867256582 0.1997775286 0.848562777
0.0555543378 -0.03813829273 0.8899052143 0.2125632763 0.5040705204 0.8278093934
0.07600853592 0.03967514634 0.842841208 -0.4395896196 -0.08933465183 0.8784382343
0.07076016068 0.04046787694 0.8409113288 -0.3428968489 -0.1166442111 0.9184929132
0.06558514386 0.0323138535 0.8384076357 -0.256059587 0.05017630756 0.9580657482
0.06245497614 0.0398466289 0.8386315107 -0.177449584 -0.1494335532 0.9691190124
0.0609441027 0.02966058254 0.8380627036 -0.1928788871 0.1265987903 0.9620383978
0.05593661591 0.02209670842 0.8387957215 -0.1489785761 0.2781988382 0.9454319477
0.04956291243 0.01566121727 0.8410542011 -0.02175645903 0.3834544122 0.9109638929
0.03973400965 0.02404376119 0.8380875587 0.2160609215 0.1754143238 0.9557006359
0.04489585757 0.01330950484 0.8479518294 0.1402927786 0.3696530461 0.9083581567
0.0476885289 0.009344730526 0.8615611792 0.1594675034 0.2410737276 0.9399989843
0.0516749844 0.005627273116 0.8738400936 0.1555110663 0.1359782964 0.9681320786
0.05341223627 0.003693912411 0.8803443909 0.1588411927 0.0775225237 0.9831402302
0.03509782627 0.01414880436 0.8442494869 0.2614020407 0.3557651341 0.8961518407
0.03986467794 0.01948397048 0.842592299 0.2045990527 0.3044419289 0.9062418938
0.02806715295 0.02299407683 0.8441843987 0.4190735817 0.1968884021 0.8800823092
0.03417146578 0.02024907991 0.842064321 0.3181319535 0.255935818 0.9080373049
0.0397737287 -0.01020048745 0.8878615499 0.4206411541 0.2207806259 0.8632330298
0.03606205806 -0.01410544571 0.8892823458 0.4781354368 0.2592404187 0.8268361092
0.04307462275 -0.006715642754 0.8857395649 0.3712794185 0.1840276271 0.8976134062
0.03214887157 -0.03259453923 0.9016330242 0.4831692576 0.3959004581 0.7752478719
0.03960807249 -0.03476528078 0.8958814144 0.4463694692 0.4472253621 0.7705805302
0.03874836862 -0.03277307004 0.8908560872 0.4560010433 0.4461522996 0.7696247697
0.03314073756 -0.01933884434 0.8910249472 0.5258943439 0.3134815395 0.7883743644
0.03477662057 -0.02717751265 0.8940652609 0.4938177764 0.3753543794 0.7784531116
0.03911026195 -0.04051891342 0.9016478062 0.4274218678 0.4744068086 0.7680639625
0.02471933141 -0.03095875867 0.9061293006 0.4932883978 0.3896855712 0.7753441334
0.03517833725 -0.03643959016 0.8978771567 0.4486838281 0.4490921199 0.7722468376
-0.0533008948 0.001796808559 0.9598810673 -0.1840226054 0.01536307018 0.9828019142
-0.03525672853 -0.02290978469 0.9605683088 -0.2156885117 0.01264117565 0.9763804078
-0.02731723711 -0.02879166044 0.967195034 -0.2156885117 0.01264117565 0.9763804078
-0.03046935797 -0.02315919288 0.9658435583 -0.2156885117 0.01264117565 0.9763804078
-0.03384663165 -0.02743422985 0.9640133977 -0.2156885117 0.01264117565 0.9763804078
-0.02201177925 -0.03398303688 0.9695642591 -0.2156885117 0.01264117565 0.9763804078
-0.03925878182 -0.02832381986 0.9627066255 -0.2020585835 0.01443427615 0.9791671038
0.03851212561 0.07862693816 0.8468291759 0.2482085526 -0.2772012353 0.9178388715
0.02833964862 0.06641399115 0.8480805159 0.2824413776 -0.2952856123 0.9057617188
0.02143473178 0.06822018325 0.8501687646 0.124199003 -0.279676497 0.9154828787
0.04136570543 0.08286948502 0.8465784192 0.2239274532 -0.2698729038 0.9226760268
0.0273515936 0.07251289487 0.8490960002 0.1548152417 -0.2769213319 0.9175185561
0.03237710521 0.08096556365 0.8487746716 0.09441950172 -0.2613057792 0.927778542
0.02201122046 0.07573908567 0.8509355783 -0.0004529629368 -0.2597967684 0.9282836914
0.01569039747 0.08358692378 0.8556181192 -0.09876587242 -0.120872885 0.9653773308
-0.001131302328 0.09292008728 0.8568251729 -0.08661834151 -0.009499759413 0.99619627
0.01083646994 0.08229066432 0.8554165959 -0.1540031433 -0.1146644279 0.9711608291
0.01324473228 0.08832148463 0.8567048311 0.0032772345 -0.0009014190873 0.9919638634
0.006740199868 0.08768422157 0.8563786745 -0.06714966893 -0.007792308927 0.9952517748
0.02046333067 0.09126381576 0.8571894765 0.1077362448 0.007545618806 0.9867676497
0.01069134753 0.09235333651 0.8604501486 -0.04319259152 0.03296105191 0.9967469573
0.01690489613 0.09008253366 0.8627232313 -0.0003740776738 0.02671106718 0.996004343
0.02101307921 0.0865752548 0.8661825061 0.03882922232 -0.01526300609 0.994355917
0.08150699735 0.0656889379 0.8607119918 -0.5409190059 -0.2866043448 0.7905029058
0.09571080655 0.02185684256 0.8676227331 -0.8076421618 0.4183038175 0.4092510939
0.04701826349 -0.004487118218 0.8639721274 0.1815224737 0.3195735514 0.9098395109
0.04206587002 0.0070832083 0.8473209739 0.1498538554 0.4610730112 0.8663083315
0.04565546289 0.0007118392969 0.8563042879 0.1528436095 0.3922583759 0.8879982233
0.0405203104 0.004563826602 0.8515121937 0.2007074356 0.4025650322 0.8827270269
0.04471028596 -0.01505521592 0.8808100224 0.3384937048 0.1967362911 0.9190922379
0.04285988212 -0.02938812971 0.8862627745 0.3990691006 0.4269236028 0.807138443
0.03679863736 -0.02752290107 0.8889229298 0.4907321036 0.398858279 0.7736040354
0.0414067395 -0.02224679105 0.884024024 0.4060035348 0.325715661 0.8439536691
0.03692580014 -0.01950355992 0.8873115778 0.5097095966 0.2744505405 0.8113003969
0.03231082857 -0.006390054245 0.8742536306 0.4601716101 0.2481172979 0.8487691879
0.03941442072 -0.01253211498 0.8799630404 0.4093734026 0.2146112025 0.8816761374
0.03992206976 -0.01557556167 0.884082675 0.4401343763 0.2122951895 0.866832912
0.02764339 -0.003649019636 0.8723912239 0.4821404517 0.2886780202 0.8250523806
0.02884807251 -0.008527094498 0.8788624406 0.5009783506 0.2981784046 0.8105576038
0.02457566932 0.003196076257 0.8639343977 0.4593463242 0.296119839 0.8361147046
0.03012204356 -0.01162216533 0.8827375174 0.5115839243 0.2965197861 0.8047936559
0.04233628884 -0.003851919202 0.8789188266 0.3723136783 0.1629612446 0.9107881188
0.03510986641 -0.00793130789 0.8807520866 0.4505955577 0.2413853705 0.8501735926
0.02974507213 0.003882088466 0.8651729822 0.4171112478 0.2478238344 0.8697595596
0.0322618261 0.00130077044 0.8691023588 0.4145474136 0.2344739288 0.87345469
0.0375717096 -0.005889723077 0.8712978959 0.3535328507 0.2249557525 0.9023933411
0.04140712321 -0.009698200971 0.8750847578 0.332023561 0.2073269635 0.9159000516
0.04054956138 -0.002306646202 0.8630354404 0.2657918036 0.2886991203 0.9087244272
0.03484326228 0.00720869936 0.850039959 0.2662562728 0.3881299496 0.8746519089
0.04534225166 -0.009018157609 0.871592164 0.2537000179 0.2262804061 0.9340517521
0.02913653664 0.005185551941 0.8582959771 0.3721809685 0.2974731028 0.8702269197
0.03968785703 0.001499792677 0.8567088842 0.2442060858 0.3427494168 0.8974906206
0.03490255773 0.001433200436 0.8606299758 0.3181318343 0.2935808897 0.8895920515
0.03373197839 0.005034354981 0.8549267054 0.3031545579 0.3411465585 0.8783649206
0.0363210924 0.004516167566 0.8714367747 0.3468892872 0.2110716403 0.9046292901
0.03981431201 -3.333561472e-05 0.8755398989 0.3592844009 0.1826553345 0.909380734
0.01622879133 0.01587644033 0.8570233583 0.5071059465 0.2045315653 0.827552557
0.05164821073 0.02045113221 0.8417969942 -0.04413982108 0.2729849219 0.93489784
0.04568925127 0.01926498115 0.8424480557 0.09141612798 0.3172027171 0.9112231135
0.04316638783 0.02658806928 0.8416346312 0.1330457628 0.1450539529 0.9349472523
0.04772112519 0.0118844891 0.852478981 0.1157922447 0.3361862302 0.9193041325
0.05410259962 0.01185440551 0.8544231653 -0.01825385913 0.2914969325 0.9362362027
0.05201849341 0.01383767929 0.8475052714 -0.01404812559 0.3580242097 0.9191233516
0.05509778857 0.008905225433 0.8638543487 0.01943679713 0.2465996444 0.9278882146
0.05902112275 0.0107135959 0.8577569127 -0.1022941396 0.5041825771 0.7582092285
0.05916190892 0.01263381634 0.8517152071 -0.1437129378 0.5487644076 0.7508683205
0.06282289326 0.009228426963 0.8620091677 -0.1556007266 0.6921188831 0.595972836
0.05816942453 0.006558634806 0.87088871 -0.0007338394644 0.3766022623 0.797583282
0.06334467232 0.006322293542 0.871073842 -0.1089525223 0.666441679 0.5755300522
0.04964318499 0.01054601371 0.843936801 -0.01136697084 0.5202713609 0.8371778727
0.05611482635 0.006403507199 0.8482595682 -0.1116601378 0.6475940943 0.743370235
0.06167857349 -0.001576968934 0.8580275178 -0.1186363474 0.5506682992 0.7807940841
0.06098435447 0.002879980253 0.8532427549 -0.1386943161 0.6179156303 0.7413436174
0.05849192664 -0.005156159867 0.860829711 -0.06536074728 0.4763134122 0.8412578702
0.06256306171 -0.01323505677 0.8713589311 -0.04742409289 0.3303907514 0.9117563963
0.06292036176 -0.007648823317 0.8672814369 -0.07079140842 0.3635904789 0.8831545115
0.05971234292 0.01630682126 0.8480034471 -0.17127119 0.4641610086 0.8103913665
0.05496226996 0.01607036963 0.8425726295 -0.1153181493 0.3718220592 0.9207580686
0.0637531057 0.01591989025 0.8441544175 -0.2736147344 0.4377072453 0.8534846902
0.06425708532 0.02067529038 0.8418935537 -0.2726740837 0.3421007395 0.8899771571
0.05581188574 0.01066819858 0.8452133536 -0.1266226768 0.5761888027 0.7913610339
0.06512127072 -0.02261459455 0.8801522255 -0.0380814448 0.2972052991 0.9491361976
0.05489884689 -0.006496306509 0.8836042285 0.161521703 0.1748188287 0.9588048458
0.05864793062 -0.01370361447 0.8832175136 0.1030451432 0.2443099916 0.9496106505
0.05887962133 -0.01936549693 0.8857294917 0.1019456312 0.3636562228 0.897493124
0.06436818093 -0.02604204603 0.8837041259 0.01371741761 0.3869634867 0.9142853618
0.04960111156 -0.006367478054 0.8855845332 0.2571411133 0.2047466785 0.9233621359
0.04491086677 -0.01647565328 0.8868213296 0.361786902 0.2693950534 0.8565056324
0.0543224588 -0.01550059766 0.8860593438 0.1816100627 0.3136959672 0.8954005241
0.04944380745 -0.01188880205 0.8860875964 0.2686513662 0.2536231875 0.8955519199
0.05807222053 -0.02688376419 0.8868043423 0.127997458 0.4374444485 0.8528192639
0.0472350046 -0.02168190852 0.8871183991 0.3257025778 0.3294291794 0.8392364979
0.05302358791 -0.02131152339 0.8866701722 0.2152391672 0.3587432802 0.8620272875
0.09334925562 0.01303012483 0.8924381137 -0.5941829085 0.5757608414 0.5463530421
-0.04469823092 -0.02274493314 0.9587966204 -0.2090832293 0.0144286938 0.9776829481
-0.05079007894 -0.02378214523 0.9591439366 -0.1862068176 0.02039615065 0.9822057486
-0.04498401657 -0.02777275257 0.9616671205 -0.1872262508 0.01714381203 0.9821600914
-0.04508287087 -0.01868200861 0.9619999528 -0.203900829 0.01513173059 0.9787414074
0.04383565485 -0.04175148904 0.8981645107 0.4178564847 0.4869926274 0.7669642568
0.05093490705 -0.03801511228 0.8929719925 0.2957868874 0.4993712604 0.7912868857
0.06087954715 -0.03448941559 0.8887863159 0.09153106064 0.5200841427 0.8319853544
-0.02640254609 -0.0200323984 0.9644590616 -0.2156885117 0.01264117565 0.9763804078
-0.02209970541 -0.02706143074 0.9677437544 -0.2156885117 0.01264117565 0.9763804078
-0.0409476012 -0.01573823765 0.9601926804 -0.2056326568 0.01536248904 0.9783633947
-0.03952081501 -0.009834492579 0.9617344141 -0.2114595473 0.01378561463 0.9772143364
-0.03034168482 -0.01579898037 0.9636111259 -0.2156885117 0.01264117565 0.9763804078
-0.04677448422 -0.0009426894831 0.9593285322 -0.187312603 0.01508027315 0.9821347594
-0.04242831841 -0.004168051761 0.9620909095 -0.203678146 0.01367354672 0.9788159728
0.01687247865 0.05862037838 0.8580275178 0.4018714726 -0.3105957508 0.8237204552
0.006523753982 0.04653858021 0.8611541986 0.5996361971 -0.1105181426 0.7763869762
0.00837651547 0.05087216198 0.8576735258 0.5667216778 -0.1360922605 0.8109012246
0.07533153892 0.05769878998 0.8543155193 -0.4706974328 -0.2651354373 0.8385425806
0.08525451273 0.05902516842 0.8599973321 -0.5534517765 -0.2655922771 0.7893437743
0.01470522862 0.07483489066 0.8527874947 -0.1152611151 -0.2505632937 0.9334008694
0.02069519833 0.06285763532 0.8492971659 0.2756810188 -0.2766112983 0.900829494
0.01860936731 0.07650829852 0.8660862446 -0.02132419124 -0.1581393778 0.9824637175
0.009506209753 0.08291861415 0.8653230071 -0.01737430878 -0.07211732864 0.9913108945
0.01929983683 0.08192463964 0.8689972162 0.04864142835 -0.08006522059 0.9916359782
0.01156438235 0.07737407833 0.8635160923 -0.06701752543 -0.1502613276 0.9824812412
0.002365218243 0.09085774422 0.8610064387 -0.0737836659 -0.01670365408 0.9957657456
0.01441168692 0.08600077778 0.8662949204 0.01056075376 -0.05206144229 0.9937221408
0.001983479364 0.08599492162 0.8634670377 -0.04333565384 -0.03445472196 0.9947009683
0.01283325907 0.07122071087 0.8631818891 0.002082402352 -0.1820569336 0.9743464589
0.004177726805 0.07719480991 0.8620339632 -0.01849043369 -0.1116174459 0.9822331667
0.007192312274 0.06820525229 0.862190187 0.1012541056 -0.1533010751 0.9707191586
0.005293877795 0.08295974135 0.8554085493 -0.1054723561 -0.08118878305 0.9861499071
0.08253460377 0.04590601102 0.8481231332 -0.5394311547 -0.2332105637 0.8085687757
0.08530899137 0.04850580916 0.8517594934 -0.5634090304 -0.2389640808 0.7895607948
0.09418705851 0.03228332847 0.8591067195 -0.7304713726 0.08662745357 0.6368904114
0.09492042661 0.02771678194 0.8661251664 -0.7920119166 0.2412066162 0.4813589752
0.09498099238 0.04286243394 0.8617148995 -0.7122285962 -0.07047329843 0.6519796848
0.09420192987 0.03864576668 0.858550787 -0.7068446875 -0.03993697464 0.6870878339
0.09573668242 0.03331557289 0.8652868271 -0.7669946551 0.1290274709 0.5350734591
0.08940430731 0.02021452039 0.8699952364 -0.6882303357 0.4197551906 0.4889300168
0.09019076079 0.02552300505 0.8642987609 -0.7182676196 0.2735625505 0.5464539528
0.08773846179 0.01321290061 0.8773169518 -0.6360012889 0.6120713353 0.4245697856
0.08206234127 0.009837038815 0.8779135942 -0.5125129223 0.719240129 0.4349617362
0.07934527844 0.01953392662 0.8643107414 -0.483327955 0.4733351767 0.5523430109
0.0798060596 0.02328943275 0.8602920175 -0.502674818 0.3693215251 0.5961241126
0.07620026916 0.01293916162 0.8694387674 -0.4020371139 0.6695359349 0.4780549705
0.08482609689 0.02309611253 0.8646640182 -0.6038490534 0.3454174995 0.5882720947
0.0866003111 0.02839168906 0.8599258065 -0.6539081335 0.1922266483 0.6487589478
0.08097893 0.01517891325 0.8707613349 -0.5048090219 0.5813767314 0.4991665483
0.07033603638 0.05686138943 0.8512172699 -0.4365418851 -0.2610080838 0.8587608337
0.08134688437 0.05323368311 0.8543376327 -0.529281199 -0.2485587448 0.8040357828
0.07571779191 0.05228738487 0.8521907926 -0.5004191995 -0.2116300464 0.8237079978
0.08529720455 0.04291839525 0.853681922 -0.6222479343 -0.1047669649 0.7576752901
0.08594573289 0.0523196198 0.8570820093 -0.5734835267 -0.220946148 0.7799101472
0.09134636074 0.04861322045 0.8591277003 -0.6496338844 -0.1673911214 0.7335112095
0.01934591867 0.02285580896 0.8505275846 0.5259818435 0.1659523696 0.8324995637
0.09104860574 0.05666651577 0.8588629961 -0.5851940513 -0.2369249761 0.7744530439
0.08645659685 0.05764089525 0.8549915552 -0.5715488791 -0.2465032786 0.7801653743
0.08112326264 0.05188240483 0.8491509557 -0.5252449512 -0.2783180475 0.8041255474
0.08323071897 0.06557741761 0.8548058271 -0.5512464643 -0.2705086172 0.78737849
0.08725421876 0.06387916207 0.8583419919 -0.5540899634 -0.2714469433 0.7864633799
0.07441341132 0.008081764914 0.8770216703 -0.3630595803 0.7018555999 0.5294125676
0.0640604049 0.006085780449 0.8767105341 -0.1658321619 0.6246349216 0.7041961551
0.08194189519 0.009434531443 0.8859235048 -0.427703917 0.6178559661 0.6148136258
0.07225589454 0.007574475836 0.882979393 -0.2870864868 0.564236939 0.7232099175
0.05027396232 0.005184154958 0.8495120406 0.01845225133 0.5318484306 0.8233346939
0.05363164842 -0.00238303165 0.8602131605 0.03555049747 0.4329597056 0.8553817272
0.05420066044 0.002470889129 0.8537183404 -0.03130882606 0.5414299369 0.8001524806
0.05255453289 -0.005864260253 0.8647804856 0.09723523259 0.3440983891 0.9035116434
0.05106627941 -0.009380347095 0.8700411916 0.1625667214 0.2630440295 0.9376146197
0.0514758788 -0.01253324375 0.8747791052 0.1869440824 0.214498803 0.9520176649
0.0302466657 -0.0305957552 0.89648211 0.4716746807 0.4259682 0.7715308666
0.0288450364 -0.02535823919 0.8963079453 0.5252141356 0.339171648 0.7801635265
0.02680980414 -0.02789687552 0.9009792209 0.511934936 0.3595170081 0.7783346772
0.02939725854 0.01139315125 0.859927237 0.4085000455 0.2120488435 0.8749520779
0.04900449142 0.002241393551 0.8822441697 0.2400664538 0.1226079091 0.958943367
0.04191721603 0.006365871988 0.8726245165 0.2909423411 0.1479178369 0.92987746
0.03543359041 0.008288327605 0.8673443198 0.3601672947 0.1869837642 0.9003545046
0.04409528151 0.003668751102 0.8782998919 0.2928279638 0.1524304748 0.9365446568
0.02647886425 0.02087699436 0.8488035202 0.4280073643 0.1604671329 0.8779088259
0.0301462505 0.01361791044 0.8550496697 0.3948465586 0.2131373584 0.8835397959
0.03498236462 0.01230041776 0.8586477637 0.3452560902 0.1867975444 0.9059308767
0.04133866727 0.01090387721 0.8584782481 0.2397392392 0.2284577638 0.9309073091
0.03783364221 0.01341513731 0.8500674367 0.2519910038 0.2939185798 0.9152364135
0.0312337596 0.0154671669 0.8474572897 0.347158283 0.2784377337 0.8888395429
0.04313024506 0.008659203537 0.86752671 0.2593638599 0.1451815963 0.9400345087
0.02156565338 0.01075777505 0.8554657102 0.4541742206 0.272721678 0.8464047909
0.02978006564 0.01027751062 0.8497955203 0.335323602 0.3525548279 0.8636961579
0.009769112803 0.02454927936 0.8578028083 0.5825036764 0.09787742049 0.8040278554
0.01452831924 0.02353265323 0.8538885713 0.5576504469 0.1212230697 0.8192637563
0.0929185003 0.02108027041 0.8610688448 -0.747410655 0.4562832415 0.4809874594
0.0684934631 -0.009077627212 0.8756299019 -0.09520222992 0.1711644828 0.9776505232
0.06567604095 -0.01709698886 0.8778327107 -0.05232488364 0.2261885703 0.9696971178
0.06921501458 0.017761169 0.8444296122 -0.3385215998 0.3902433217 0.8398608565
0.07260224968 0.01174126379 0.8478374481 -0.400067091 0.577167809 0.6966152787
0.0574407503 -0.02627236582 0.8815956116 0.137001276 0.3834838569 0.9079750776
0.05599110201 -0.03274973482 0.885474205 0.1839170158 0.487723738 0.8494850993
0.05288801715 -0.02888429351 0.8830984235 0.2230553031 0.4249923825 0.8731885552
0.06499765068 0.006592231803 0.8530215025 -0.2140505165 0.6209196448 0.7081372142
0.06371966004 0.00869111903 0.8479547501 -0.2169059515 0.7032232881 0.6716061831
-0.05272052437 -0.01716821268 0.9582751393 -0.1880440414 0.02012230828 0.981831789
-0.06078481302 -0.01683292165 0.9575560689 -0.1802079827 0.02224289998 0.9833769798
-0.05564431846 -0.02281128243 0.9619999528 -0.1803017557 0.02207375318 0.9833628535
-0.05589606613 -0.005337255076 0.962000072 -0.1825514585 0.01801635139 0.9830237031
-0.06205853075 -0.006301531568 0.962000072 -0.1812066287 0.02044180594 0.9832264781
-0.05614794418 -0.01620194316 0.9620000124 -0.1810719669 0.02068466507 0.9832467437
-0.05044969171 -0.01360234711 0.9620000124 -0.191469565 0.01728480309 0.9812141657
-0.0449742116 -0.01077985484 0.9619999528 -0.2068089843 0.0134941563 0.9781783819
-0.05334257707 -0.01128061023 0.9576306939 -0.1817189008 0.01951789297 0.9831492305
-0.04822917655 -0.006647916976 0.9584583044 -0.1834066063 0.01647404395 0.9828947783
-0.05427825078 -0.006072132848 0.9568893909 -0.1836808026 0.01597953029 0.9828534722
-0.05907299742 -0.0111825224 0.9570899606 -0.1815879196 0.01975411549 0.9831689596
0.02953615412 -0.03677019104 0.9047287703 0.4471999109 0.4454707801 0.775388658
0.03456008062 -0.039265275 0.9040902257 0.4341975451 0.4696744084 0.7680097222
0.06880172342 0.07411883771 0.8478264809 -0.3951584697 -0.2429925203 0.8806338906
0.06613138318 0.07826770097 0.8493642211 -0.3178622723 -0.2775501311 0.8965765238
0.07397233695 0.07253523171 0.8503456116 -0.4733062983 -0.2670490444 0.8358567953
0.03690410033 0.07029914856 0.8466293812 0.2696681023 -0.3092680573 0.9108765125
0.04489137232 0.0754307434 0.845439136 0.2362547219 -0.3174881637 0.9179663062
0.03258000314 0.07125996053 0.8581078053 0.3595802784 -0.3674771786 0.8501918316
0.02857043967 0.07274132222 0.8616681099 0.3028321266 -0.3519609571 0.8789340854
0.05326738209 0.08314470947 0.8571035266 -0.05907298252 -0.35177508 0.8925120831
0.03441530839 0.07904939353 0.8660165668 0.2859236598 -0.2632586658 0.9103977084
0.03635197133 0.0836808905 0.8629561663 0.2216852754 -0.2326763123 0.9275675416
0.04114020243 0.08071061969 0.8627350926 0.1614866555 -0.2929463983 0.9049219489
0.04586670548 0.08374062926 0.859480083 0.06129069999 -0.2962633967 0.9094802737
0.02959649637 0.07671530545 0.8665412068 0.2714490294 -0.2800989151 0.9149605632
0.02813050896 0.08065908402 0.8700582385 0.159191981 -0.1338047087 0.9695796967
0.0915427506 0.0243486613 0.8573334813 -0.7260293961 0.2623170614 0.6174876094
0.08643437922 0.03872426599 0.8504965901 -0.6045264006 -0.09132953733 0.7797789574
0.08116902411 0.03965907544 0.8464109302 -0.5259935856 -0.1168755814 0.8334056735
0.07302963734 0.04071942717 0.8555294275 -0.43572855 0.06021817774 0.7301979661
0.06853442639 0.02318787202 0.8629518151 -0.2873752415 0.5054309368 0.5633795857
0.06776691973 0.01814646274 0.8649173379 -0.2546759248 0.6269539595 0.5170664191
0.07256875187 0.01492218114 0.864472568 -0.3341606557 0.6391314268 0.5041512847
0.07248333842 0.04633981362 0.8537889719 -0.4455895126 -0.05789968744 0.7774050832
0.0774609372 0.02974128351 0.8578472733 -0.4802840352 0.2492723465 0.6486077905
0.08489444107 0.03238568828 0.8545554876 -0.6308062673 0.09845953435 0.6950918436
0.07118520141 0.03120312653 0.8593668342 -0.366499126 0.2945081294 0.6415271759
0.07849603891 0.03947358578 0.8541964293 -0.5349385142 0.02020543255 0.7366046906
0.07451109588 0.02428324521 0.8606565595 -0.4046887457 0.4070782661 0.5917795897
0.02024927177 0.02898834459 0.8476625681 0.5298191309 0.08913806826 0.8416440487
0.03248023614 0.03464133292 0.8414446115 0.3560032248 -0.0212316364 0.9337349534
0.02730720863 0.03190457821 0.8442326784 0.4287151396 0.03815009445 0.8953393102
0.02469414286 0.02656582743 0.8470833898 0.4561220706 0.1068781093 0.8731774092
0.015751414 0.03167070821 0.8511933088 0.5702394247 0.07862775773 0.8168416023
0.02240316756 0.03355119377 0.8458231688 0.5015588403 0.04421443865 0.862231791
0.0299165491 0.02819622867 0.8419306278 0.3996663392 0.1257713288 0.9024365544
0.01563774608 0.05401774496 0.8560876846 0.4679807425 -0.2364053279 0.815936327
0.01523831487 0.04283323884 0.8511903882 0.5728766322 -0.04430229962 0.8164381385
0.01287086494 0.04856464267 0.8534130454 0.56095469 -0.1145139784 0.8185087442
0.0777188167 0.005987460725 0.8860980868 -0.3393355906 0.5282865167 0.7287011743
0.08423988521 -0.007696793415 0.886932373 -0.4182424843 0.2765512466 0.8293519616
0.08057035506 -0.0002074981167 0.8864395618 -0.3737209737 0.4142053127 0.7750140429
0.07495520264 -0.0001390920806 0.8844273686 -0.2991653979 0.4088666439 0.8159967065
0.06598456204 0.00632274244 0.8819143176 -0.1836419255 0.5207764506 0.8122487664
0.08832728118 0.009602003731 0.8903130889 -0.4823026061 0.6093513966 0.6104801893
0.08784152567 0.003413249506 0.8894548416 -0.4723573327 0.4914440215 0.6815260649
0.006455725525 0.02871715836 0.8600193262 0.6110104918 0.0622228682 0.7889202237
0.006506979 0.03441207483 0.8604658246 0.6252573133 0.03974316269 0.7792048454
0.01252490282 0.02881895751 0.8546810746 0.5833026767 0.08756432682 0.8064044714
0.005208525341 0.04138144851 0.8613780141 0.6338687539 -0.04019998014 0.7707086205
0.01142158359 0.03559514508 0.8550025821 0.6013514996 0.04872643203 0.796811223
0.01113499422 0.04201331735 0.8549235463 0.6022797823 -0.04898213968 0.793312788
0.07118286192 -0.01598790847 0.8811073899 -0.1465677619 0.2121530771 0.9556003213
0.06449390948 -0.01018092223 0.8825473785 -0.02970378101 0.1902272403 0.9519454837
0.07888434082 -0.01179372985 0.8859137893 -0.3109606504 0.1613612026 0.9049874544
0.06897360086 -0.001612570952 0.8824493885 -0.2115976363 0.3650174439 0.8750078678
0.07501585037 -0.008120860904 0.8849970102 -0.2645495832 0.2200179696 0.8961616755
0.06936606765 -0.00718610175 0.8855634332 -0.1360434741 0.1654292196 0.9168607593
0.05800151452 0.0003787638561 0.8834486604 0.03526686877 0.2655020058 0.9138231874
0.06411152333 -0.002404412022 0.8838506341 -0.0765274018 0.2591043413 0.9053658247
0.07319777459 -0.02341925725 0.8834607005 -0.1776418835 0.3461270928 0.9104360938
0.07579372823 -0.01826084964 0.8812245131 -0.2295719981 0.2559243441 0.9325890541
0.07266879827 -0.006888176315 0.8717439175 -0.2143324316 0.3042973876 0.8897727728
0.0663164109 -0.004843197297 0.8719835877 -0.07568126172 0.1756955087 0.9635266066
0.06916520745 -0.002391219605 0.8678086996 -0.1686897278 0.2977068722 0.8822290301
0.07322049886 0.007082863245 0.8546418548 -0.3558422327 0.585660398 0.6808561683
0.06864584982 0.001398351742 0.8627772927 -0.1992681623 0.3633880019 0.8334626555
0.06839241087 0.004833937157 0.8571802378 -0.2526063323 0.5146366954 0.7461994886
0.07453861833 0.02266625129 0.8444399834 -0.4115912616 0.2828375101 0.8565901518
0.07178366184 0.02908469923 0.8411204219 -0.3758010864 0.1600633413 0.906401813
0.06919400394 0.02420073375 0.8424086571 -0.3244355619 0.2435773909 0.9103535414
0.0598205477 -0.02184860967 0.878526032 0.0579071939 0.2750699222 0.9536387324
0.05678570643 -0.0089115398 0.8646345735 0.01814981364 0.4303737879 0.8630675673
0.06035964191 -0.01781835966 0.8745946288 0.01410803199 0.2960261106 0.9399408102
0.05532791838 -0.01472138148 0.8721530437 0.1231024116 0.3199851215 0.9144367576
0.05441644415 -0.01801286265 0.8777322769 0.1798908114 0.2253462076 0.9563449621
0.04896586016 -0.01805598848 0.8789928555 0.255923897 0.2429579347 0.9301823378
0.04644357786 -0.02293697558 0.8810093999 0.3025804162 0.3333654106 0.888196528
0.05969186127 0.06413003057 0.8534933329 -0.1235307157 -0.3259438574 0.8494459987
0.06508740038 0.06128253788 0.8527191281 -0.2815457582 -0.2973394096 0.8532615304
0.07131868601 0.06368011981 0.8558174968 -0.3938009441 -0.2944125831 0.8286950588
0.0427110754 0.07210571319 0.8597391248 0.1971373409 -0.3102220893 0.8805831671
0.05331910029 0.07266458124 0.8627865314 -0.04647386819 -0.2810871005 0.8587968946
0.06294221431 0.06808228046 0.8580480814 -0.186769858 -0.3154608607 0.8316872716
0.03786851093 0.07529763877 0.8634298444 0.2536885738 -0.2823389471 0.8955042362
0.05461337417 0.06943692267 0.8582994342 -0.02393678762 -0.316909194 0.8513814211
0.05162708089 0.06701587886 0.8541042209 0.08053702116 -0.3521566391 0.8542470336
0.07321495563 0.06763118505 0.8595362902 -0.4069471955 -0.2991021276 0.8091572523
0.0623697117 0.07106272876 0.8623220325 -0.2213594466 -0.2810642719 0.8372086883
0.04892901331 0.07086546719 0.8592140079 0.079203628 -0.3118760288 0.8655499816
0.04471079633 0.06767727435 0.8536296487 0.2231032997 -0.3588969707 0.8699319959
0.04927448183 0.07893264294 0.861174047 0.01989126392 -0.3196109831 0.8841921687
0.06744853407 0.07360301167 0.8591011763 -0.3128331006 -0.3241141438 0.8362655044
0.05530424416 0.07782096416 0.8600079417 -0.08988850564 -0.3284167051 0.8703567386
0.04330283403 0.0763066262 0.8650442362 0.1251445264 -0.2693857551 0.8861688972
0.05947051197 0.0814384222 0.8560070992 -0.1616595089 -0.3833394945 0.8745943904
0.009944146499 0.06963689625 0.8547365665 0.1020232514 -0.17568928 0.9226263165
0.01046202052 0.05570493266 0.8557267189 0.4745284319 -0.1680008918 0.8440566063
0.01021239255 0.06199813634 0.8552921414 0.3063177168 -0.171362862 0.8794987202
0.01647349633 0.05884009972 0.850720346 0.3967711031 -0.2284850776 0.8779911399
0.0531501472 0.07539972663 0.8401514292 -0.006231005769 -0.211969614 0.9714795351
0.05607934296 0.07832164317 0.8439300656 -0.06844840199 -0.2312845737 0.9574825168
0.04662425071 0.08031460643 0.8441952467 0.2187189311 -0.2688411474 0.9320444465
0.05992007628 0.07337532938 0.8433275223 -0.1773540229 -0.2249316126 0.9434626698
0.02373805083 0.04184285551 0.8453727961 0.4480416477 -0.06607250124 0.8874053359
0.01844757609 0.0387259461 0.8478316069 0.5456140637 0.003932640888 0.8355865479
0.06111546606 0.05643849447 0.8485992551 -0.2298170626 -0.2575791776 0.9007096291
0.04920468107 0.05486680195 0.8448025584 0.0567731224 -0.2433165461 0.9577286839
0.05479990318 0.05505168065 0.8450422883 -0.06466759741 -0.2419526726 0.9518068433
0.05304894969 0.0595873706 0.8491554856 -0.01327321865 -0.2982702851 0.8957423568
0.04573884979 0.06310562044 0.8498334885 0.1910557002 -0.3426797092 0.8886330724
0.04043637961 0.06538251042 0.8506048918 0.311406374 -0.3724069893 0.8735850453
0.03244588897 0.06663617492 0.8527850509 0.3721192479 -0.4244081378 0.8221005201
0.02767294645 0.0669458434 0.855086267 0.3168365061 -0.4365378916 0.8384329081
0.03037009016 0.05990732089 0.8503443003 0.3580219746 -0.3055957854 0.8706675768
0.02355745807 0.05554979295 0.8517507315 0.4274539053 -0.2426048368 0.8466289639
0.0238764286 0.06060063094 0.8538856506 0.3557635546 -0.3303714991 0.8516376615
0.02325931564 0.04970407486 0.848833859 0.4584246278 -0.1593217552 0.86124295
0.09494931996 0.01108611189 0.8871047497 -0.6525654793 0.5460390449 0.5104186535
0.09390736371 0.01036476716 0.8813769221 -0.6797447801 0.5184647441 0.4992185235
0.0970889926 0.01717953756 0.88130337 -0.7259609103 0.5069602132 0.4453957081
0.09825720638 0.0150745064 0.8940205574 -0.650978744 0.5402507782 0.514537394
0.09715079516 0.02015868761 0.8749698997 -0.8070503473 0.4235247076 0.3929449916
0.09738020599 0.01341526676 0.8988698721 -0.6053277254 0.5705990195 0.5518888235
0.09036590159 -0.005023857579 0.8874239326 -0.5407013297 0.3772567213 0.7379779816
0.09146726876 2.207433681e-05 0.8902961612 -0.5488235354 0.4387389421 0.674728334
0.09396473318 0.00649472326 0.8923712373 -0.5955723524 0.5576824546 0.57471174
0.0914939642 -0.0005879551754 0.8846827745 -0.5865869522 0.4102078676 0.680228591
0.09187407792 0.005378067493 0.8792742491 -0.6357883215 0.400061518 0.6111519337
0.0947965607 0.01226689667 0.8761223555 -0.7226389647 0.4593631327 0.4842180908
0.09272592515 0.005679717753 0.8858287334 -0.6265357733 0.5285550952 0.5605746508
0.07988409698 0.00610682508 0.8608911037 -0.4242325723 0.4170111418 0.7725511193
0.0772774294 0.01001078449 0.8523548245 -0.4386353493 0.5642891526 0.6784614921
0.08353940398 0.004070134833 0.8690367341 -0.4528336525 0.3184347451 0.7944200039
0.09023954719 0.01747117378 0.857637167 -0.7007989883 0.4735561311 0.5237172246
0.08629793674 0.008230072446 0.8667009473 -0.5412141085 0.3632520437 0.6987037659
0.08297108114 0.01444642991 0.8500084877 -0.5480812788 0.4668320417 0.6839215755
0.08610097319 0.01517901663 0.8542832732 -0.6080874205 0.4617303908 0.6215420365
0.08316982538 0.001300235279 0.8731923699 -0.4186460376 0.2813826799 0.8328920007
0.08178348094 0.01052987669 0.8547057509 -0.4885631502 0.4177097976 0.7497696877
0.0856725499 0.0122345807 0.8586377501 -0.5711479187 0.4225183129 0.6630503535
0.08950722218 0.01206735242 0.8642562032 -0.6515746713 0.4228202105 0.59292382
0.08996528387 0.006367502734 0.8744321465 -0.6197264194 0.373178184 0.6382832527
0.09407521784 0.01577451266 0.870454967 -0.7403738499 0.4483464062 0.4632005692
0.08821108937 3.088697122e-05 0.8799845576 -0.550935626 0.3197044432 0.7355061769
0.09082407504 0.01049667783 0.8700085878 -0.6610554457 0.4088197351 0.5807353258
0.09328325838 0.01756112464 0.8652448058 -0.7439419031 0.4670256972 0.4620625973
0.07785764337 0.0002571063233 0.8684813976 -0.3453248143 0.3791092336 0.8162031174
0.07395254821 0.002508123405 0.8601989746 -0.3292393386 0.508541882 0.7396203279
0.07956971973 -0.003131316975 0.8753653765 -0.3274655938 0.2672360539 0.8894175887
0.07485423237 -0.009729444049 0.877982676 -0.2114023417 0.2096739858 0.9507135749
0.07891940325 -0.0138975773 0.8805588484 -0.2906390429 0.2163166851 0.9278869629
0.0826131925 -0.00414529955 0.8792186975 -0.3785070777 0.2383629382 0.8918232322
0.08199777454 -0.02102680318 0.8838894963 -0.3517024219 0.2215778977 0.9086348414
0.08423919976 -0.01409214176 0.8851665258 -0.414806962 0.1958642304 0.8857542872
0.08031854779 0.01798360981 0.8471580148 -0.5004502535 0.3783973157 0.7644884586
0.08274999261 0.0242625773 0.8484843969 -0.5354052782 0.2163816988 0.8029249907
0.08541352302 0.02082871646 0.8516644835 -0.5964612961 0.3386490047 0.6889075041
0.08767467737 0.02611490898 0.8531057835 -0.6406670809 0.1828639507 0.7316178679
0.07709077001 0.02909218147 0.8437205553 -0.4512134194 0.1328660399 0.8764106631
0.07339094579 0.03434710205 0.8405364752 -0.4026324153 0.03101419844 0.9134765863
0.09113705158 0.02978393435 0.8554421663 -0.6915063858 0.1109608188 0.6993667483
0.08414741606 0.03092005476 0.8489328623 -0.5694867373 0.07499930263 0.8099727631
0.07752981782 0.04907572269 0.8466219306 -0.4667727053 -0.2555087805 0.8435967565
0.01667350717 0.06762047112 0.8609624505 0.2070012093 -0.2922422588 0.930205524
0.02187288925 0.07090872526 0.8629939556 0.2128705978 -0.318878144 0.9165380597
0.0171229504 0.06977229565 0.8662352562 0.1828501076 -0.2013687938 0.9602814317
0.01208182238 0.06054142863 0.8607196808 0.3206498623 -0.2260272801 0.8901932836
0.02127547935 0.06629481912 0.8578682542 0.2686138153 -0.4114287198 0.8625203371
0.01942536049 0.04507520795 0.8480619192 0.5046232343 -0.07404895127 0.8536278605
0.01792137511 0.05250686035 0.8492934704 0.4541136622 -0.175948903 0.8627516031
0.03774074838 0.04363276064 0.8427610993 0.2561835051 -0.1324340105 0.9460705519
0.04441864043 0.05091985315 0.8427495956 0.12717475 -0.2566265762 0.9566194415
0.04595559835 0.03904446959 0.8385620713 0.07265985757 -0.1103157029 0.9833150506
0.04738210142 0.04578895122 0.8404441476 0.051338844 -0.223495245 0.9652842879
0.06186967716 0.02412266284 0.8532277346 -0.1688736975 0.3783744574 0.7199712992
0.06070227548 0.02268860303 0.8463757038 -0.1903413534 0.3466686606 0.83619982
0.05962189287 0.03010860458 0.8454332948 -0.1633644551 0.181033656 0.8654998541
0.06334677339 0.01976975426 0.8580908775 -0.1747397333 0.51458776 0.6280915737
0.05824803561 0.0363534987 0.8422655463 -0.1461468339 0.02012052201 0.931307435
0.05934309959 0.03547452018 0.847320199 -0.1379207522 0.08451724797 0.842181921
0.06453531235 0.01477862429 0.8610852957 -0.1874316782 0.647385478 0.5674796104
0.06307950616 0.01539637521 0.8540255427 -0.2013173848 0.5703565478 0.6908940077
0.051250007 0.04971752316 0.8422279954 0.002167395782 -0.2397832274 0.9635885358
0.05400081351 0.04015129432 0.8401514888 -0.06829170138 -0.09242896736 0.969516933
0.05615286157 0.03545261919 0.8372725844 -0.08474033326 -0.04441709816 0.9928020239
0.05533960462 0.07005880773 0.8407779336 -0.06406567246 -0.2112160325 0.9640676379
0.0601913631 0.06459858268 0.8430231214 -0.1878850609 -0.2165281326 0.9463981986
0.05673322827 0.05915758759 0.8413463235 -0.1022654474 -0.2183217108 0.9632261992
0.04773415998 0.05758156627 0.8389958739 0.06975698471 -0.2092041522 0.9745237231
0.05226914212 0.06123991311 0.8388495445 -0.001683577546 -0.2080150247 0.9766295552
0.052858226 0.04597321898 0.8386750817 -0.03686769679 -0.2089854032 0.9753723741
0.04010678828 0.03546741977 0.8386663198 0.1867529303 -0.04808102176 0.9769647121
0.03439922258 0.06605302542 0.8450286984 0.2136213481 -0.2698538899 0.9275843501
0.04372703657 0.06996610016 0.8417395353 0.1184830666 -0.2390224487 0.9541982412
0.0366377607 0.06085373461 0.8442505598 0.2074742913 -0.2854561806 0.9289408326
0.03221501783 0.05533947051 0.8467565775 0.3237709701 -0.2681981921 0.9001004696
0.02926046588 0.04831042886 0.8441598415 0.3059154451 -0.2334361225 0.9160355926
0.04615560547 0.06491716206 0.8407726884 0.09649081528 -0.2448377162 0.9597628713
0.04325459152 0.06007796898 0.841758132 0.1309455633 -0.2647702694 0.9498273134
0.04995024949 0.06969301403 0.8394347429 0.04980118573 -0.220797509 0.9730232358
0.03743355721 0.05387941748 0.8446040154 0.2133097798 -0.2864387929 0.9323270917
0.07156577706 0.04664277285 0.8435354829 -0.3597505391 -0.222387284 0.9011723995
0.06245767698 0.04484232143 0.8405438066 -0.1873961091 -0.2008558065 0.95992136
0.06766276062 0.04358512163 0.8518825769 -0.3230037987 -0.006657395512 0.7974361181
0.06863551587 0.05029936135 0.8519806266 -0.378656894 -0.1251023263 0.8225807548
0.06635145098 0.03631141782 0.8508089781 -0.2527562082 0.1082015336 0.783534646
0.06801126152 0.03864699975 0.855807662 -0.3232141733 0.136051178 0.7238308787
0.06693208963 0.03247416392 0.8550230265 -0.2649005651 0.2352858037 0.7102891803
0.06670176238 0.02560848556 0.8577944636 -0.2375500202 0.3963445425 0.6449826956
0.06619329005 0.04571359232 0.8452343345 -0.2718984187 -0.1371065676 0.8974999189
0.06115530431 0.04033491388 0.8459461331 -0.1630775928 -0.03154529259 0.8710672855
0.06616454571 0.01069119945 0.866373539 -0.1928278655 0.781801641 0.4685680866
0.06144419685 0.03215629607 0.8516590595 -0.1540440768 0.1938476562 0.7601047754
0.0715276897 0.0678665936 0.8483060002 -0.4645861983 -0.2399384826 0.8521209359
0.07569766045 0.05750776455 0.8482521772 -0.4839725196 -0.2610673606 0.8337433338
0.06544089317 0.06993551552 0.8458812237 -0.3169018626 -0.2311461717 0.9185811281
0.07739945501 0.06915432215 0.8521543741 -0.5101010799 -0.2754001617 0.8133925796
0.07859100401 0.06193416938 0.850720942 -0.513884604 -0.2746588588 0.8116807938
0.07359501719 0.06241055205 0.8484575748 -0.4794598222 -0.2467418611 0.8411929011
0.03615733609 0.03825841844 0.8410876393 0.2783708274 -0.09083706886 0.9434986711
0.02666044049 0.03791593015 0.8437942266 0.4274096191 -0.02872220427 0.8997593522
0.03000709787 0.04226888716 0.8431409001 0.3365564942 -0.1266015023 0.925511539
0.03468714282 0.04773717374 0.842597425 0.2254927158 -0.2500024736 0.9405595064
0.06484333426 0.06402136385 0.8451554775 -0.3035124242 -0.2190859467 0.9271424413
0.06872627884 0.05348064378 0.8446746469 -0.3340580761 -0.2406978756 0.9055147171
0.05877036974 0.04936194792 0.8429327607 -0.1571458131 -0.232375145 0.9512939453
0.06949087232 0.05893256888 0.8461877704 -0.3737542033 -0.2526268661 0.888761282
