# .PCD v0.7 - Point Cloud Data file format
VERSION 0.7
FIELDS x y z normal_x normal_y normal_z
SIZE 4 4 4 4 4 4
TYPE F F F F F F
COUNT 1 1 1 1 1 1
WIDTH 512
HEIGHT 1
VIEWPOINT 0 0 0 1 0 0 0
POINTS 512
DATA ascii
-0.05088250712 -0.08355361223 1.045429349 0.4411908388 0.3006406426 0.8455044031
-0.04158664122 -0.08609254658 1.040594578 0.4483649433 0.3036480844 0.8406549692
-0.07165975869 -0.1974860132 1.056268811 0.1840784252 -0.2028464526 0.9617527723
-0.2160114348 -0.1885658056 0.9819078445 0.1520545036 0.3479360044 0.921084106
-0.2084788382 -0.1971870065 0.9830482006 0.06977954507 0.3341478705 0.9358637333
-0.2220640332 -0.1868722439 0.9795693159 0.2016463876 0.3549519181 0.912338078
-0.1745191067 -0.1671138853 1.022479177 -0.3764899969 -0.7895085216 0.2431840301
-0.1702571064 -0.1723477393 1.006648779 -0.3541921973 -0.5199602842 0.5099643469
-0.1708808541 -0.1722121835 1.000629306 -0.3477530181 -0.3874171674 0.6109759212
-0.1738893837 -0.1699190438 0.9932724237 -0.3419242501 -0.1953505576 0.7340009212
-0.1795054525 -0.1634914279 1.007929325 -0.3640866578 -0.4225572348 0.4866773784
-0.1655677557 -0.1760081798 1.016976833 -0.3619517088 -0.7958316803 0.3373435736
-0.1763801575 -0.1671556979 0.9986177087 -0.3504089415 -0.2722847164 0.6437190175
-0.1756387055 -0.167379871 1.004939437 -0.3570930362 -0.4126413465 0.5376506448
-0.171501711 -0.1702092886 1.019338608 -0.3700927794 -0.765111506 0.296526581
-0.1796109974 -0.162102893 1.024968624 -0.3840144575 -0.7726960778 0.2003838122
-0.1706666201 -0.1714425981 1.013489246 -0.3625258505 -0.6556082964 0.3949612379
-0.1800866425 -0.1622300893 1.017329454 -0.3755556047 -0.6087197065 0.3286350667
-0.1751528233 -0.1672420651 1.012847424 -0.365855515 -0.5823029876 0.4048835933
-0.1778495163 -0.1663327515 0.9910969138 -0.3429908156 -0.0974451229 0.7697917819
-0.1755753458 -0.168908149 0.9855239391 -0.3344378471 -0.01291162428 0.8638587594
-0.1809533834 -0.1637266278 1.001446366 -0.3571545184 -0.2807286978 0.5949375629
-0.1806554198 -0.1685174257 0.9811884165 -0.3314325213 0.103082113 0.9343327284
-0.1982941329 -0.1346289366 0.940674603 0.3887382448 0.3215505481 0.8569868803
-0.1703592837 -0.2032385021 0.987044394 -0.3715796173 0.2169940323 0.8361893296
-0.1602278799 -0.2016304284 0.9912913442 -0.6586641669 0.1045853272 0.6343997717
-0.1587099433 -0.05969851837 0.962625742 -0.2689050138 -0.05680864677 0.9601539969
-0.1500994414 -0.06490792334 0.9665663242 -0.295884937 -0.08963668346 0.9484873414
-0.05758891627 -0.08016625792 1.04645741 0.4360226095 0.2984741032 0.8489979506
-0.0486735478 -0.07853476703 1.041217327 0.4360226095 0.2984741032 0.8489979506
-0.04792138189 -0.08892088383 1.03810668 0.4408109188 0.300481379 0.8457611799
-0.05368996039 -0.08121354878 1.041160583 0.4360226095 0.2984741032 0.8489979506
-0.04526825249 -0.1223998591 1.05805254 0.3606261909 0.2507660687 0.8976689577
-0.04932280257 -0.1108287349 1.053303361 0.4182741046 0.2914644778 0.8591859937
-0.1588903964 -0.09339267761 0.947886765 -0.1796554476 -0.1759327799 0.9653273821
-0.1647376716 -0.08385472 0.9474965334 -0.09755396843 -0.1953534782 0.9727950096
-0.1520579308 -0.09068389237 0.9484913349 -0.288947165 -0.1600177586 0.9384559393
-0.1577600688 -0.08310192823 0.948387742 -0.1982557774 -0.1906898171 0.9529646039
-0.203660056 -0.1675314158 0.9658666253 -0.0250483416 0.3220411241 0.943967998
-0.2077096254 -0.1728276908 0.9696676731 0.03688326478 0.3102828562 0.9397295713
-0.228488937 -0.1469408274 0.973530829 0.3007193804 0.3151253462 0.8990080357
-0.2200562656 -0.1548945308 0.9710582495 0.2759828269 0.2819177806 0.9187839627
-0.2207950205 -0.1442637146 0.9702236056 0.320089221 0.3273444772 0.8867323399
-0.04760060459 -0.1351671815 1.059476018 0.394959867 0.1820000261 0.9002041817
-0.03815632313 -0.1258572191 1.052273393 0.3906077147 0.2450848967 0.8868234754
-0.0343538262 -0.1285902262 1.048621297 0.4051187038 0.2341438085 0.8833222985
-0.0343650952 -0.1385110766 1.050497413 0.3917271793 0.1465866268 0.902364254
-0.03104380704 -0.1335580498 1.04730618 0.4124746323 0.1969115287 0.8877432942
-0.03509547934 -0.1438869387 1.053090572 0.3805789948 0.1160525605 0.9154562354
-0.1771183014 -0.1998448223 0.989890933 -0.2283670604 0.09834294766 0.834102571
-0.1677518189 -0.1850362271 1.01431334 -0.276250124 -0.6608011723 0.4416081607
-0.1805576533 -0.192286402 0.97603333 -0.2250722349 0.2054235935 0.9513827562
-0.06020097062 -0.1942260861 1.053370357 0.1840784252 -0.2028464526 0.9617527723
-0.1869881004 -0.2003310621 0.9875000715 -0.1452307105 0.1433804333 0.8730822206
-0.1866458356 -0.1967272907 0.9938246012 -0.1291056275 -0.05426294729 0.7835007906
-0.1795999557 -0.1957166493 0.9952281713 -0.2082759887 -0.08748841286 0.7380069494
-0.1760153472 -0.1889140755 1.007009983 -0.2132244408 -0.4511772394 0.5602976084
-0.1763773113 -0.1922317743 1.001190066 -0.2275051475 -0.2693730593 0.6429051757
-0.184161514 -0.2029892951 0.9826710224 -0.1942037046 0.2990035415 0.9301344752
-0.1840824187 -0.1938088834 0.9981378913 -0.1469367594 -0.1856278926 0.712290585
-0.1926049739 -0.1962666512 0.9862000942 -0.09755516052 0.1738869548 0.8920695782
-0.1907908469 -0.169017598 1.024253845 -0.2834448814 -0.7468321323 0.2711265087
-0.1875509024 -0.1697595119 1.010574937 -0.2738674581 -0.4863202274 0.4940549731
-0.1924821734 -0.1675160378 1.029731631 -0.320936501 -0.8370552063 0.1651009768
-0.1847937554 -0.1617807001 1.013455749 -0.3721334636 -0.4986086786 0.3939041793
-0.1824600399 -0.16569601 0.9933829904 -0.3473255634 -0.1220912188 0.7293375731
-0.1844746768 -0.1594456881 1.019862652 -0.3814368248 -0.6176728606 0.2848984003
-0.1860595495 -0.1666962057 1.001900554 -0.3544556201 -0.2845922709 0.5917617083
-0.1880954057 -0.1624129415 1.022177696 -0.3799347878 -0.6646060944 0.2523267269
-0.1853038669 -0.1643300653 1.006986737 -0.3624952137 -0.3785863519 0.5043100715
-0.1869611293 -0.1585566849 1.030783534 -0.3933499157 -0.8237962723 0.1046210229
-0.1876735836 -0.1652096957 1.038475513 -0.4529319108 -0.881598711 0.075407058
-0.1899999976 -0.1605879813 1.035819888 -0.3994353116 -0.9155454636 0.03104341216
-0.2040119767 -0.2018480599 0.9836223125 0.02179028653 0.3266085088 0.9445809722
-0.1985376924 -0.2018046379 0.982878983 -0.02489857934 0.2866528928 0.9556352496
-0.2027883679 -0.1967599243 0.9802575111 0.03673658147 0.3266323209 0.9404621124
-0.04798508808 -0.1796066016 1.055570483 0.2048338503 -0.1838683635 0.9607068896
-0.03756201267 -0.1539370567 1.054396033 0.3382386565 -0.0375380069 0.939742744
-0.05499548838 -0.1600545943 1.059854507 0.1444390267 -0.05129118636 0.9849759936
-0.05762266368 -0.1660006046 1.058438301 0.1583488584 -0.1044733301 0.9768267274
-0.05682717264 -0.1706114411 1.061255097 0.180672884 -0.1537942439 0.9699085951
-0.1404093653 -0.07111425698 0.9538323879 -0.4273602962 -0.03236114234 0.8966240287
-0.1395502985 -0.05999037251 0.9522022009 -0.3471811712 -0.07265032083 0.9290549755
-0.1426668465 -0.05244711041 0.9495523572 -0.2819432616 -0.08431046456 0.9555322528
-0.1527819932 -0.05449754745 0.9543099403 -0.2649199069 -0.05889593437 0.9621201754
-0.1491775662 -0.05345621333 0.9502127767 -0.2682547271 -0.0652185306 0.9610523582
-0.1579930931 -0.05717612058 0.9567205906 -0.2621416748 -0.05513577536 0.9632595181
-0.1453759968 -0.05680067092 0.9533262849 -0.2946772575 -0.0998615995 0.950322926
-0.1536522061 -0.06135307252 0.9617620111 -0.2858245373 -0.0775327459 0.9537110925
-0.1477890611 -0.06138242036 0.9591249228 -0.3005304337 -0.09843010455 0.9480006099
-0.2127008289 -0.1921124309 0.9773126245 0.1215266436 0.4061854184 0.9050424099
-0.2144452333 -0.1837600172 0.9751015306 0.1538178027 0.3547072411 0.9201075435
-0.2062224448 -0.1781919599 0.9723869562 0.0426408276 0.335532546 0.9395055175
-0.2124354541 -0.1790858805 0.9734418988 0.1370674223 0.3309797347 0.9305394292
-0.1718007773 -0.1993537843 0.9830215573 -0.2596397996 0.237438336 0.935171783
-0.1745708436 -0.1943355203 0.9788008928 -0.2565183938 0.2098964155 0.9428499341
-0.1768207401 -0.2034191936 0.9842323065 -0.2287861407 0.2762330174 0.9331308007
-0.1795034558 -0.1996628046 0.9810783863 -0.2236447781 0.2609438896 0.937666297
-0.1656039357 -0.1817337424 1.019419432 -0.3235784769 -0.8285052776 0.3359377682
-0.1637888253 -0.1977302134 0.9943404198 -0.6959393024 -0.08586407453 0.5466943383
-0.1661376357 -0.1909072399 1.005102515 -0.4575485587 -0.3937603533 0.4966092408
-0.1717300415 -0.1982576102 0.9938446879 -0.3039087057 -0.01634578034 0.7559242249
-0.1689974964 -0.1947315484 0.9992431402 -0.3801282346 -0.1976766586 0.6302684546
-0.1393744051 -0.06767364591 0.9635250568 -0.3480727375 -0.1185316145 0.9289753437
-0.1387659609 -0.07311899215 0.9587510824 -0.4225052893 -0.06403574347 0.8995455503
-0.1389034837 -0.0660142228 0.9575755596 -0.3682936728 -0.08811065555 0.9215301275
-0.2096328586 -0.1461411119 0.9665737748 0.3170628846 0.4263572991 0.8382697105
-0.212739706 -0.1520367116 0.9724783301 0.1142909229 0.3049962521 0.9161430597
-0.2187030613 -0.1490025073 0.9734273553 0.1990965009 0.2990038395 0.9121880531
-0.2067732066 -0.1504079401 0.9693056345 0.1443454921 0.3741981685 0.880212605
-0.201091662 -0.151660949 0.9684127569 0.0997652486 0.4110353887 0.8614695668
-0.1828991175 -0.08730834723 0.9470331073 0.06452164054 -0.2272429168 0.9702263474
-0.1531737 -0.05986392871 0.9486176968 -0.2116879374 -0.1123933271 0.9638997316
-0.1569079906 -0.07737446576 0.9513165951 -0.2513326406 -0.2113743126 0.9395719171
-0.1614940315 -0.07583407313 0.9484533072 -0.1401075125 -0.2173669934 0.9593784213
-0.154840067 -0.07233860344 0.9518405795 -0.2783515453 -0.2006660253 0.9352340698
-0.155508697 -0.06445629895 0.9475576878 -0.1741417348 -0.1499483585 0.9644690156
-0.1625340432 -0.07722381502 0.9542643428 -0.1560700685 -0.1426197588 0.9717814922
-0.1594640315 -0.07236816734 0.9552731514 -0.2394534945 -0.154443875 0.9514474869
-0.1621400863 -0.06782345474 0.9576842785 -0.2172095627 -0.102652356 0.9644662142
-0.1503495276 -0.06863894314 0.9518836737 -0.317496717 -0.1480802149 0.9301571846
-0.143352896 -0.06523276865 0.9517577291 -0.3698773384 -0.05153316259 0.9190425277
-0.177810356 -0.07965818793 0.9513509274 0.05936862901 -0.272800684 0.9600132704
-0.1709237397 -0.07149010152 0.9545202255 -0.03281443939 -0.1936478913 0.9757322073
-0.1743539125 -0.07563604414 0.9521276951 0.0316777043 -0.2547678053 0.9635692239
-0.1688848585 -0.07882611454 0.9522735476 -0.03677402809 -0.2099076957 0.972606957
-0.2029651701 -0.09159924835 0.9505907893 0.1879821122 -0.2116322815 0.9584629536
-0.1759157479 -0.08386636525 0.9467994571 0.03746991977 -0.2191397548 0.9743090272
-0.1717124432 -0.07962918282 0.9468023777 0.01678866707 -0.2254749984 0.973485291
-0.2291142493 -0.162795946 0.973893702 0.3321529031 0.2602191269 0.9061006308
-0.2299987376 -0.1725851744 0.9768058062 0.2958198786 0.2771158218 0.9137172699
-0.2111190856 -0.170971781 0.9752711654 0.0908549428 0.3196907043 0.9241158366
-0.2060987204 -0.1683618128 0.9752821922 -0.007964927703 0.3350889683 0.9215141535
-0.2006293684 -0.1606778055 0.9719847441 -0.08628432453 0.3176845312 0.9255657792
-0.2141970396 -0.1782876402 0.9791721106 0.1167990938 0.3506088853 0.9175801277
-0.2241800129 -0.1686617732 0.977116704 0.2557899952 0.3061954975 0.9153643847
-0.2207433283 -0.1781982929 0.9797119498 0.2110330909 0.3382847905 0.9155952334
-0.2225526422 -0.1597630382 0.9727389216 0.2721889913 0.2721760571 0.9220354557
-0.2209123224 -0.1646273136 0.9736811519 0.2528241575 0.2825693786 0.9234916568
-0.2200209349 -0.1725174189 0.9769496322 0.2238063216 0.3154745102 0.9197388291
-0.2274677604 -0.1778314561 0.9801784754 0.2596868575 0.3148783445 0.9123527408
-0.2256351709 -0.1828379035 0.9809356928 0.2420374155 0.3421730697 0.9072413445
-0.0581186004 -0.1806142777 1.060041547 0.1847166121 -0.1957053691 0.962983489
-0.05453427881 -0.176377818 1.060136199 0.1940367967 -0.1721973568 0.9653997421
-0.04656297341 -0.1672271937 1.061432242 0.1816069484 -0.1002490968 0.9782101512
-0.04486816004 -0.1751330644 1.05995965 0.184152931 -0.1335921884 0.9728085399
-0.03896875679 -0.1616996676 1.05820775 0.265397191 -0.05903364345 0.9608458877
-0.060286358 -0.1721985489 1.055474043 0.182000801 -0.1565056443 0.9665850997
-0.06284993887 -0.1765678227 1.054312348 0.1826607287 -0.1940005422 0.9629058838
-0.05142276362 -0.1705250889 1.060842395 0.2031910568 -0.1415409744 0.9680688381
-0.03960771114 -0.1672182232 1.059364915 0.2053237855 -0.09478702396 0.9734345675
-0.04169157892 -0.1642166376 1.052104473 0.2926961184 -0.09253907204 0.9464759827
-0.0470135361 -0.1775567681 1.050008178 0.2283755243 -0.1536476016 0.9570623636
-0.04741930589 -0.1591755003 1.055897117 0.2716518044 -0.05283711478 0.9558120966
-0.05468178913 -0.1694208533 1.054102421 0.2361356616 -0.1466780901 0.9546211362
-0.0509602204 -0.163376689 1.055418134 0.2525014281 -0.08770325035 0.9568861723
-0.05180035159 -0.1796866804 1.049702406 0.2131550759 -0.1736879945 0.9575278163
-0.05694585666 -0.1759683788 1.052552938 0.2092813402 -0.1775726378 0.958090663
-0.04761658609 -0.1665518135 1.052842021 0.2686731517 -0.1180137247 0.9494607449
-0.04997778684 -0.171949327 1.051750779 0.2438723296 -0.1428843141 0.9530644417
-0.04306859896 -0.1720699519 1.0546422 0.2351031452 -0.1383589059 0.9592071176
-0.04953623191 -0.1602861583 1.061388969 0.1949344575 -0.05517783016 0.9781304598
-0.04210302979 -0.1581932455 1.060417652 0.2702004015 -0.01435679197 0.9611078501
-0.06316012889 -0.194887042 1.048718095 0.1840784252 -0.2028464526 0.9617527723
-0.06923564523 -0.1938490123 1.051127076 0.1840784252 -0.2028464526 0.9617527723
-0.0538947396 -0.188762024 1.047363877 0.1840784252 -0.2028464526 0.9617527723
-0.0714192763 -0.2007318735 1.049809456 0.1840784252 -0.2028464526 0.9617527723
-0.06071425974 -0.1827106774 1.05153811 0.1840784252 -0.2028464526 0.9617527723
-0.06362266093 -0.1888546348 1.050692916 0.1840784252 -0.2028464526 0.9617527723
-0.06833334267 -0.1891164035 1.053877831 0.1840784252 -0.2028464526 0.9617527723
-0.04450755939 -0.1253992766 1.053043127 0.3874850273 0.2504559755 0.8866904378
-0.04620489478 -0.1305957884 1.05434227 0.3992634416 0.2122196108 0.8907092214
-0.05020937324 -0.1172367781 1.052820444 0.40591833 0.2793442905 0.8692998886
-0.1727233678 -0.1687898487 1.043189168 -0.5568941236 -0.8206881285 0.1239376068
-0.1786518097 -0.1714143753 1.043098092 -0.552701354 -0.8214606643 0.1358540803
-0.1777966172 -0.1763602048 1.029063702 -0.2931844592 -0.9161273241 0.2355085611
-0.1878617853 -0.1738387793 1.038478494 -0.3878493905 -0.8886191845 0.1615312397
-0.1823968738 -0.1754187644 1.034617543 -0.3683909476 -0.8905058503 0.1984835416
-0.1773681492 -0.1783815771 0.9767161012 -0.2718724906 0.1264708936 0.9530067444
-0.1819082499 -0.1869534105 0.9743790627 -0.2425703108 0.1895728111 0.9514116645
-0.1663880348 -0.1746517718 1.003917813 -0.3461345434 -0.4944892824 0.5570989847
-0.1687347293 -0.1705331951 0.990121901 -0.3296532631 -0.1391841024 0.7893874049
-0.1644123495 -0.1762251556 1.009609938 -0.3510796428 -0.6401514411 0.4618018866
-0.1596615911 -0.1882559061 1.011152625 -0.3941842914 -0.5885871053 0.4046129584
-0.1602966934 -0.1945575476 1.002846956 -0.7028228641 -0.2825423479 0.4033438563
-0.1746096015 -0.1619635075 1.034211636 -0.3822793067 -0.9125762582 0.1010101065
-0.1655849665 -0.1749568284 1.022325277 -0.3670810759 -0.8882613778 0.2556487322
-0.1700667292 -0.1685597152 1.028136492 -0.3748991191 -0.900113225 0.1793345511
-0.1792443693 -0.1586831808 1.035667896 -0.3909217417 -0.9153869748 0.05899986625
-0.1768691689 -0.1645016968 1.041075587 -0.5029722452 -0.8545715213 0.08704660833
-0.1851006746 -0.1573309749 1.036512733 -0.4129083753 -0.9081388116 0.03102502413
-0.1819306463 -0.1663808823 1.040466428 -0.4680538476 -0.8707059026 0.1024919003
-0.1846812814 -0.1734732538 1.042605639 -0.5306047201 -0.8316052556 0.1471472979
-0.2018484473 -0.1400473863 0.950573802 0.4533773363 0.4306164086 0.7733721733
-0.1985481977 -0.1393477321 0.9460484982 0.404614538 0.4091649055 0.810387373
-0.2064529061 -0.1084778085 0.9442676306 0.3042698205 -0.129825145 0.934396863
-0.2029301673 -0.1187935472 0.9420003891 0.3404560387 0.03302321211 0.9283966422
-0.2070397586 -0.1150463372 0.9444371462 0.3717783391 -0.01772835851 0.9186172485
-0.212020129 -0.1086109206 0.9469214082 0.3870498538 -0.1053679734 0.9139351845
-0.1503680348 -0.07889465243 0.9596380591 -0.229771927 -0.1563091725 0.9526835084
-0.137133792 -0.07406052947 0.9716252685 -0.3413665295 -0.1371955127 0.9286360145
-0.1444307566 -0.07717127353 0.9660917521 -0.2674573362 -0.1525247544 0.9446095824
-0.1446889192 -0.08115144819 0.9621111155 -0.3259854019 -0.1184665933 0.9231325984
-0.1592072695 -0.08497089148 0.9534189701 -0.1414925903 -0.170153439 0.9684115648
-0.1379755437 -0.07645171136 0.9666928649 -0.3963626027 -0.106846571 0.9099234343
-0.1543324441 -0.07984174788 0.9556276202 -0.2116682082 -0.1670693457 0.9551922679
-0.1386314631 -0.07859645784 0.9594482183 -0.4626868367 -0.04629843682 0.883184433
-0.1419675946 -0.07125630975 0.9675536156 -0.327477932 -0.1259382218 0.9354021549
-0.1510311961 -0.07360269129 0.9566712379 -0.3144475818 -0.1825455427 0.9300291538
-0.1500248462 -0.0687739104 0.9611911178 -0.3092304468 -0.1178267226 0.9409980774
-0.1548784971 -0.0680944249 0.9587342739 -0.2940891981 -0.131181553 0.9426633716
-0.1444200724 -0.0655176267 0.9625304341 -0.3189095259 -0.1148669645 0.9407443404
-0.04121994227 -0.110647887 1.049867392 0.4077715278 0.3027222753 0.8601736426
-0.04268517718 -0.1168706268 1.049077749 0.4167922735 0.2810824513 0.8637011647
-0.03610384092 -0.1013369262 1.04110682 0.4255375862 0.3032103479 0.8517247438
-0.03730587289 -0.09413380176 1.037776947 0.4499702454 0.304784596 0.8393432498
-0.03435880318 -0.1095532477 1.04485786 0.3955865204 0.3016315401 0.8667502403
-0.03633788601 -0.1204418689 1.047956347 0.4096235335 0.2725918591 0.8700932264
-0.03345274553 -0.1147605702 1.047279358 0.3763062358 0.2997949421 0.8765907288
-0.04063086212 -0.09779705852 1.045039892 0.4486301839 0.3037592471 0.8404756784
-0.04542984813 -0.1052853316 1.049576521 0.4424875975 0.3011842668 0.8446278572
-0.03942183405 -0.0918026939 1.042320728 0.450889349 0.3047063053 0.8389485478
-0.0515270941 -0.09256589413 1.048546195 0.4401275218 0.3001949191 0.8462231755
-0.04629027843 -0.09347033501 1.046046019 0.444312036 0.3019490838 0.8433945775
-0.05305025354 -0.100025706 1.048565149 0.4360226095 0.2984741032 0.8489979506
-0.05540348962 -0.09552220255 1.051347017 0.4360226095 0.2984741032 0.8489979506
-0.1809135675 -0.1084464937 0.9451853633 0.05126358196 -0.1613394022 0.982578218
-0.1897577345 -0.08475570381 0.9480256438 0.1029757857 -0.2465291768 0.9626989961
-0.183633849 -0.08138501644 0.9478812814 0.07930538803 -0.2464551926 0.9646781087
-0.179683581 -0.07460051775 0.9494456649 0.06981243938 -0.267460525 0.9599580169
-0.1802557409 -0.06863524765 0.9562847018 0.01055666897 -0.2219941765 0.968577981
-0.1760876179 -0.06453265995 0.956787765 -0.01699109562 -0.1919463873 0.9746818542
-0.1465353817 -0.09312319756 0.9500827193 -0.3771506846 -0.1342321485 0.9140872955
-0.1430371553 -0.08750770986 0.9533516765 -0.4327581227 -0.1081847548 0.8919073343
-0.1524450034 -0.0861537382 0.9513897896 -0.3141676784 -0.1839282066 0.929250598
-0.1462643594 -0.08063678443 0.9541710019 -0.4075573683 -0.1503707469 0.893409431
-0.1632000804 -0.05788170546 0.9601120949 -0.2309415787 -0.05816537887 0.9701843858
-0.1869863272 -0.07454191893 0.9513090253 0.1047920808 -0.2843959332 0.951972425
-0.1829316467 -0.07012031227 0.9519824982 0.08912672102 -0.2960709631 0.9507545829
-0.1897464842 -0.07801264524 0.9549280405 0.07372267544 -0.2846265435 0.9555023313
-0.1907129139 -0.1009185985 0.9445341229 0.1186628118 -0.2184173018 0.9670558572
-0.2001918256 -0.09476415068 0.9459990263 0.1871049702 -0.2191030383 0.9568533897
-0.1981126964 -0.09981660545 0.9450088143 0.179847151 -0.2048804611 0.9616199136
-0.204348892 -0.1016487032 0.9446684718 0.2384126931 -0.2079324424 0.9482462406
-0.2063648254 -0.1244570613 0.9441304207 0.4477747083 0.1766074449 0.8522947431
-0.2125871032 -0.114999786 0.9493994117 0.5222277641 0.02122803777 0.8378206491
-0.2079934031 -0.09992251545 0.9486701488 0.2936628163 -0.162240237 0.9317826033
-0.1679493934 -0.07303986698 0.9483026862 -0.02612568438 -0.2220584303 0.9734828472
-0.1761236191 -0.06828342378 0.9522972107 0.0506881848 -0.2440256923 0.9673648477
-0.1717780232 -0.06099603698 0.9579506516 -0.05429698527 -0.1485361904 0.9848260283
-0.2103376985 -0.1650553644 0.9666929841 0.1579813063 0.2869352698 0.9388756752
-0.2061524242 -0.159011215 0.9708620906 0.03403890505 0.2994764745 0.9260901213
-0.2254755944 -0.1750018895 0.9748713374 0.2545295656 0.279823631 0.9254593253
-0.2162445635 -0.1681361198 0.9696421027 0.233197853 0.2718047798 0.9332678318
-0.2193196118 -0.1788251847 0.9746763706 0.1997032017 0.3095621765 0.9285020232
-0.1969379634 -0.1968762428 0.9800315499 -0.0361629352 0.2777357399 0.9567090273
-0.1950951666 -0.1845971346 0.9736137986 -0.1005319506 0.2687757313 0.9560222626
-0.1898273975 -0.1807079464 0.9719077349 -0.1910275519 0.231457904 0.9495387077
-0.1938295215 -0.1776429415 0.9703055024 -0.1564778686 0.2635906041 0.9471256137
-0.1870863438 -0.1903860867 0.9759609699 -0.1665006429 0.2108319253 0.961055994
-0.185690552 -0.1970632374 0.9790338278 -0.1710047424 0.2399607599 0.9534235597
-0.1917765141 -0.1995286047 0.9809544086 -0.09960734844 0.2420954704 0.9628628492
-0.2007062882 -0.1856821924 0.9777284265 -0.05611912161 0.2943396568 0.9446716309
-0.2079652548 -0.1861057132 0.9755388498 0.07736171782 0.3804394305 0.9201571345
-0.2045999467 -0.192298308 0.9778810143 0.06452991068 0.3453958929 0.9328478575
-0.2012183666 -0.17546992 0.9694712162 -0.06801631302 0.3264133334 0.9401411414
-0.2008541524 -0.1819125712 0.9730618596 -0.03092318028 0.3257099688 0.9406140447
-0.2094684839 -0.1809474081 0.9808690548 0.06819348037 0.301091671 0.9252016544
-0.182987541 -0.1719179153 0.9857519865 -0.2869109511 0.0241360236 0.8762303591
-0.1864412576 -0.179629311 0.9841887355 -0.2222269326 0.1132568941 0.9083878994
-0.1896054 -0.1730937213 1.01685667 -0.2239625752 -0.6032028794 0.4113156199
-0.1876642257 -0.1785003692 0.9931129813 -0.2172385603 -0.07710243762 0.7730933428
-0.1899998486 -0.1843266636 0.9890038371 -0.1753786206 0.05390189961 0.8393963575
-0.1931337863 -0.1792680174 1.017611504 -0.1713677943 -0.5680806637 0.4046058953
-0.1851122826 -0.1736100614 0.9936923981 -0.2569984496 -0.128816992 0.760671556
-0.1908771992 -0.1829352528 0.9969469905 -0.174155429 -0.1186889634 0.7186832428
-0.1910175532 -0.1886409372 0.9825083017 -0.1499468237 0.2209906727 0.9405088425
-0.1878036559 -0.1763543785 0.9994760156 -0.2248411328 -0.2237861454 0.675614953
-0.1900487691 -0.1763447225 1.010392547 -0.2073278278 -0.4454404116 0.5111507177
-0.1816719919 -0.189029187 1.000779271 -0.1774339974 -0.2648032308 0.653555274
-0.1869532466 -0.1834557652 1.010823011 -0.1793795526 -0.4587422609 0.503672421
-0.1884142309 -0.1904544234 0.9965171218 -0.1415472031 -0.1059924588 0.7250013351
-0.1743479818 -0.1801406592 1.020092726 -0.2493959218 -0.7866079211 0.350081563
-0.1917550415 -0.1757502407 1.025232077 -0.1930008531 -0.7606085539 0.2862222195
-0.1896043122 -0.1929642111 0.9912474751 -0.1250670701 0.0294974409 0.8070982695
-0.1755021065 -0.1836376041 1.012855887 -0.2286379486 -0.6046295166 0.4624061584
-0.1933635473 -0.1868820339 1.002627373 -0.1359540373 -0.2091912627 0.6353324056
-0.1929739267 -0.1823352426 1.011804342 -0.1580857038 -0.4308101237 0.493832022
-0.1864610761 -0.1804390401 1.016960621 -0.1950852871 -0.6089355946 0.4088333249
-0.1720192432 -0.178200081 1.024462104 -0.2682980001 -0.9103785753 0.2808396518
-0.1885311902 -0.1730293781 1.03134954 -0.2193228751 -0.9335891008 0.1893078983
-0.1819043905 -0.182992816 1.01280582 -0.2035378963 -0.5489090681 0.4687660038
-0.1785949022 -0.1780873984 1.023311138 -0.2400491536 -0.826997757 0.3042822182
-0.1945935041 -0.1915400326 0.9930521846 -0.1096481681 0.02905900776 0.7836928368
-0.188352555 -0.1877647191 1.001910448 -0.1539011896 -0.234814927 0.6419862509
-0.1863121241 -0.1760009527 1.025869727 -0.2156761289 -0.8221338987 0.2716625929
-0.1834210902 -0.1864522398 1.005568147 -0.1813630015 -0.363822937 0.5814198256
-0.1940392554 -0.1847915202 0.9797683954 -0.1288162917 0.2412369102 0.9495588541
-0.1884453297 -0.1789033562 0.9790045023 -0.2094299644 0.1941789389 0.9518895149
-0.1991953254 -0.191111356 0.9812766314 -0.04867395386 0.2835573554 0.9469506145
-0.1836557388 -0.175389573 0.981089294 -0.2605239153 0.1419432908 0.9515442252
-0.0621371977 -0.1878367066 1.060160518 0.1840784252 -0.2028464526 0.9617527723
-0.06548380852 -0.1945001185 1.057913542 0.1840784252 -0.2028464526 0.9617527723
-0.06391002983 -0.1823325753 1.060025215 0.1840784252 -0.2028464526 0.9617527723
-0.06839745492 -0.1897078007 1.060003877 0.1840784252 -0.2028464526 0.9617527723
-0.05088881403 -0.1852059513 1.051560998 0.1840784252 -0.2028464526 0.9617527723
-0.05468644202 -0.1884196252 1.0550102 0.1840784252 -0.2028464526 0.9617527723
-0.04482517764 -0.1535411775 1.057562947 0.2709440589 0.001725531416 0.9607607722
-0.05178735405 -0.1521005034 1.060951829 0.1833465248 0.02123716846 0.9788551331
-0.04584224895 -0.1400417387 1.056417465 0.3619126081 0.1465706229 0.916849792
-0.05088592321 -0.1444238424 1.061091542 0.2618678808 0.08900089562 0.9572178125
-0.04075433314 -0.1357003897 1.053358912 0.3967024088 0.1875188053 0.8985574841
-0.04111027718 -0.1497993916 1.058148623 0.2947252095 0.06642291695 0.9496688247
-0.04103712738 -0.1432450414 1.056659698 0.344731003 0.1235988066 0.9269923568
-0.1764037013 -0.1747779399 1.038886786 -0.4523306489 -0.858618021 0.2203496546
-0.1725247502 -0.1762439609 1.033438325 -0.3925912678 -0.8754717112 0.2539605796
-0.1676510125 -0.172622636 0.9778008461 -0.3198697269 0.1225055605 0.9390117526
-0.1670061052 -0.1778280735 0.9783846736 -0.3140191436 0.144244954 0.9369958043
-0.1678369045 -0.184297055 0.9789776802 -0.2995624542 0.1666413248 0.9376650453
-0.1608321965 -0.1861320585 0.9824463725 -0.3248094916 0.1698071957 0.9292802215
-0.1767254174 -0.1842310578 0.9763200879 -0.2617285252 0.1613687575 0.9510341287
-0.1726448089 -0.169928804 0.9779431224 -0.329400599 0.09087698907 0.9393463731
-0.188105464 -0.1572642475 0.9636574388 -0.1045553312 0.2511152625 0.9070056677
-0.1907741576 -0.162198931 0.967556715 -0.1809731275 0.2492634803 0.9239046574
-0.1928386241 -0.1522962153 0.9546055198 0.07035779953 0.342569232 0.8910169601
-0.1903105229 -0.1549735963 0.9594681263 -0.02360684797 0.2935567498 0.8996367455
-0.1949886084 -0.1597930491 0.9618449807 -0.0708835423 0.316762656 0.9164272547
-0.1975103021 -0.1651776284 0.9663693905 -0.159422487 0.3100294769 0.9348130822
-0.1900318712 -0.1733017862 0.9709465504 -0.2208090127 0.2346175462 0.9420455098
-0.1830669641 -0.1713537127 0.9751670361 -0.2957241833 0.1559698135 0.9413723946
-0.1831882149 -0.1770626009 0.9747561216 -0.2718502581 0.166475147 0.9465984106
-0.1624785662 -0.173690021 0.9843267202 -0.5837709308 -0.06130770966 0.7145454884
-0.1593218446 -0.1789130121 0.9828119874 -0.4201474488 0.08714085072 0.8596021533
-0.1643841863 -0.1763843298 1.027307868 -0.2872312963 -0.9051958919 0.3132387996
-0.1587076634 -0.1806717962 1.021191359 -0.09293618798 -0.9026973844 0.3996840119
-0.1681291908 -0.1710616201 1.039400101 -0.4542710781 -0.8549833894 0.2046126723
-0.1622637361 -0.1724447757 1.033570886 -0.3001926541 -0.9015392661 0.3059464097
-0.1993843019 -0.1501196623 0.9545929432 0.2064461708 0.391469568 0.8904619813
-0.1940941811 -0.144875899 0.9455811381 0.262047559 0.39984411 0.8677117825
-0.1999600083 -0.162118271 0.9625784755 -0.03583764285 0.3328823447 0.9291113615
-0.1976795495 -0.1561574936 0.956718564 0.06142307818 0.355997622 0.9073945284
-0.2050719261 -0.1606609821 0.9642855525 0.0811182037 0.3453833461 0.9314136505
-0.1983648241 -0.1452852637 0.9516118765 0.3259573877 0.4314588904 0.8283569217
-0.1990612894 -0.1118363068 0.9435710907 0.2448545396 -0.105573386 0.9573670626
-0.1973073483 -0.1210228875 0.9402216673 0.2846926451 0.04597039521 0.9443767071
-0.1899966002 -0.1100977585 0.9433897734 0.1456575543 -0.1330690384 0.9740926623
-0.04670718312 -0.1104312018 1.047960281 0.4293754399 0.2961798608 0.8530586958
-0.05079995468 -0.1063012406 1.047402382 0.4288155735 0.297347337 0.8529348969
-0.04625930637 -0.09963532537 1.042748928 0.4369943738 0.2988814712 0.8483410478
-0.04583326355 -0.0944146663 1.039437056 0.4399700761 0.300128907 0.8463295698
-0.0406210199 -0.1034352928 1.042853355 0.4431029558 0.3000721633 0.8446980119
-0.05256828293 -0.09300864488 1.041363358 0.4360226095 0.2984741032 0.8489979506
-0.05811303854 -0.08613876253 1.049157619 0.4360226095 0.2984741032 0.8489979506
-0.05482713878 -0.08685187995 1.043609977 0.4360226095 0.2984741032 0.8489979506
-0.1626238078 -0.09922391921 0.946451664 -0.1433309019 -0.1677413434 0.9741817117
-0.1843561083 -0.08633882552 0.9524450302 0.06069849804 -0.2630877793 0.9625896215
-0.143129468 -0.08659422398 0.9588426352 -0.4097180963 -0.09593503177 0.8995223045
-0.1578288972 -0.09027723223 0.952911377 -0.1888784766 -0.1725976765 0.9545064569
-0.1664656103 -0.08826782554 0.9510000348 -0.06800372899 -0.2111400217 0.9721429944
-0.1762971729 -0.09050600231 0.9510000348 0.001979877474 -0.2251671702 0.9721181393
-0.1727778167 -0.08651846647 0.9510000348 -0.006226595026 -0.2403556854 0.9667101502
-0.151827231 -0.09703008831 0.953681469 -0.2737029791 -0.152001977 0.9419158697
-0.1458785683 -0.09212969244 0.9564675093 -0.3686122894 -0.1234063059 0.9106295109
-0.1595682502 -0.09771366417 0.9513685703 -0.1496191472 -0.1850327551 0.9701219797
-0.1661298573 -0.1178478226 0.9449666739 -0.09965750575 -0.1349936724 0.983915329
-0.1630693674 -0.1118276641 0.9486455917 -0.1091857329 -0.1337777674 0.9772748351
-0.1583357751 -0.1043258086 0.951395154 -0.1685534716 -0.1708356887 0.9678320289
-0.175280422 -0.1141393706 0.9463846684 0.02194272354 -0.1133045852 0.9878221154
-0.1658151299 -0.0998814553 0.9513289928 -0.1024486423 -0.190762803 0.9694520235
-0.173483327 -0.1030944288 0.9493617415 -0.01875680871 -0.1710695475 0.9774903655
-0.1733736694 -0.09627823532 0.9510449767 -0.03382419422 -0.206314072 0.9718182683
-0.1690284014 -0.1096815318 0.9484379888 -0.05005887523 -0.1388538927 0.9797593951
-0.1757531017 -0.1087127924 0.9476384521 0.01557817869 -0.1411373466 0.9837007523
-0.1615384519 -0.06432815641 0.9525135159 -0.1564300358 -0.1196217686 0.9757552147
-0.1629982144 -0.06992217898 0.9492421746 -0.1094715521 -0.1729482412 0.9739322066
-0.1574477106 -0.06084292009 0.9525283575 -0.2191814929 -0.09543520957 0.9663209915
-0.1672604233 -0.06557726115 0.9577163458 -0.1202679127 -0.1207505912 0.9816712141
-0.1926202327 -0.08307791501 0.9543331265 0.06612727791 -0.2648465931 0.9615725279
-0.1974232793 -0.08583545685 0.9530249238 0.1296115816 -0.2463807911 0.9582203627
-0.2063498646 -0.1073414311 0.9511165619 0.4169740975 -0.040675845 0.8790901303
-0.209776625 -0.1224255413 0.9481543303 0.5603978634 0.1629018039 0.7972892523
-0.2108428627 -0.1278251559 0.9505865574 0.5683013797 0.2858780324 0.7644385099
-0.2179565877 -0.1337045878 0.9605213404 0.4837402701 0.3526568413 0.7896162868
-0.2201400697 -0.1378373057 0.963876605 0.3918477595 0.3842518628 0.8327915668
-0.1971288025 -0.1722929478 0.9680399299 -0.1398989707 0.2953690886 0.9421330094
-0.1685749888 -0.193547219 0.9830574989 -0.345030874 0.1783736348 0.9101436138
-0.1705992222 -0.1902331114 0.9789563417 -0.3581598699 0.1618644595 0.8917726278
-0.155782491 -0.1867376268 0.9851964116 -0.4267490208 0.1426057965 0.8728432655
-0.1659082621 -0.2006105185 0.985891819 -0.285371989 0.2351543605 0.9287809134
-0.1613824069 -0.1955018044 0.9869891405 -0.4838494658 0.1479739547 0.8281982541
-0.1937025934 -0.1539525688 0.9691851139 0.003437987063 0.4094378352 0.8513375521
-0.1761689186 -0.1657779366 0.9793536067 -0.3151304126 0.14261356 0.9347977042
-0.1566248238 -0.1882057637 1.00513804 -0.3859778345 -0.4586821795 0.5046350956
-0.1570773721 -0.1840832084 1.015269041 -0.1287466884 -0.7790088058 0.444719851
-0.1565135568 -0.1808518618 0.9933703542 -0.6920050383 -0.3097710311 0.4993475974
-0.1561659127 -0.188918829 0.9963733554 -0.5382234454 -0.2273750454 0.5990564227
-0.1558846831 -0.1902249455 0.9895330667 -0.701380074 -0.03719734028 0.6399324536
-0.1574874371 -0.1984072626 0.9971064925 -0.7813293338 -0.1122677177 0.4426931143
-0.156631127 -0.197518006 0.9896778464 -0.7815805674 0.1060209572 0.5900426507
-0.1635413617 -0.168674469 1.037549496 -0.4758122265 -0.8457880616 0.1777012199
-0.1681932509 -0.1638209969 1.041833282 -0.516563952 -0.8454623222 0.09738652408
-0.1658488512 -0.1683197916 1.031832814 -0.4233762622 -0.8740568757 0.1674700379
-0.1697407365 -0.1648237407 1.034355044 -0.4276872277 -0.8827548623 0.123362191
-0.1583286077 -0.1740916967 1.02793014 -0.2975959778 -0.9019307494 0.3057894409
-0.2041024566 -0.1441622525 0.9631170034 0.354329288 0.4885293245 0.7906922102
-0.2107161433 -0.1382498145 0.9602692127 0.4523541331 0.3885974586 0.7935850024
-0.2047894597 -0.1518048942 0.9620034695 0.2629902661 0.4117903411 0.8528152108
-0.2122445405 -0.1531715691 0.9646710157 0.3109903038 0.3178814054 0.8936550021
-0.2077100575 -0.1399655342 0.952070117 0.421035409 0.3363740444 0.8357682228
-0.2088671178 -0.1344660074 0.9507584572 0.4882637262 0.3548193276 0.7934038639
-0.2075142562 -0.1465376318 0.9577536583 0.3861022294 0.3698221743 0.8337746859
-0.2026893198 -0.1353118271 0.944491148 0.4542101324 0.3563502729 0.8132410049
-0.2162964642 -0.1424085498 0.9630542397 0.3996472955 0.3626313806 0.8332965374
-0.2151355594 -0.1596009582 0.9672189951 0.2877962291 0.2846145928 0.9131243229
-0.218587473 -0.1493633389 0.9662252069 0.3408455551 0.3370966613 0.8745297194
-0.2237185985 -0.1489250511 0.9680352211 0.3605554402 0.3280917108 0.8695116639
-0.2297415137 -0.1540827751 0.9725626111 0.3538692296 0.2728340626 0.8933353424
-0.1980106682 -0.1279696375 0.9401584268 0.3559033573 0.1971932352 0.9083291292
-0.1865751147 -0.1524402052 0.9675495625 -0.1534053981 0.3056992888 0.9077066183
-0.1879922748 -0.1458856314 0.9610575438 0.03899275512 0.3740594387 0.8781909347
-0.1887837797 -0.1417335421 0.9569392204 0.1573512107 0.4153383672 0.8607119918
-0.1823588163 -0.1366818696 0.9515179992 0.05661448091 0.3247376084 0.924171865
-0.1912564784 -0.1499063522 0.9652696252 0.05790125579 0.410915494 0.8488929868
-0.18218261 -0.1521670222 0.9586554766 -0.01478120685 0.2518746555 0.9010519385
-0.1850416511 -0.1456267536 0.9513818026 0.1028677523 0.3100248575 0.8934206963
-0.1785125732 -0.1341721416 0.9481200576 0.02661792189 0.2747407258 0.9529755116
-0.1855809689 -0.1399010867 0.9466271996 0.1578131467 0.3375917971 0.8991516829
-0.1857307255 -0.1507086158 0.9547438622 0.0793953687 0.2985499203 0.8817871809
-0.1772592664 -0.1642944068 0.9730411172 -0.2627805769 0.1379550248 0.9227551222
-0.1904961467 -0.147517845 0.9505980611 0.1490286589 0.3479629755 0.8746217489
-0.1842959374 -0.1631008536 0.9717771411 -0.2570435405 0.1785762757 0.9247241616
-0.1802076846 -0.1595133692 0.9666002393 -0.1422368586 0.1943325102 0.908308804
-0.17165941 -0.1628382355 0.9731616378 -0.277346909 0.1204043999 0.9405252337
-0.1678184569 -0.1669907272 0.976374507 -0.2989270985 0.1060484722 0.9440482259
-0.1728900224 -0.1542633027 0.9656734467 -0.1840380281 0.1670217812 0.9463424683
-0.1811981797 -0.1507663578 0.9654290676 -0.1751479954 0.2481155396 0.9351997375
-0.181428656 -0.158423543 0.9730247855 -0.2601216733 0.2264773101 0.9280914664
-0.1816750467 -0.1437245309 0.9585126638 -0.09957761317 0.2738293707 0.9403931499
-0.1768346578 -0.1422276646 0.9565482736 -0.0650427267 0.2375796288 0.9511365891
-0.1753946245 -0.1575738788 0.9715811014 -0.2282345295 0.1781582087 0.9406004548
-0.1781079024 -0.1467616558 0.9611595273 -0.1196065024 0.2343632728 0.9447101951
-0.170605123 -0.1584268659 0.9695916176 -0.216818884 0.1484877765 0.9472360611
-0.1764135808 -0.1386158764 0.9522904158 -0.02300556563 0.2488107085 0.9545612931
-0.1951277107 -0.1057510376 0.9440695643 0.1663335562 -0.1805395335 0.968588531
-0.185713768 -0.1052687988 0.9428084493 0.06902698427 -0.2058169842 0.9757782817
-0.1924238205 -0.1252147108 0.9388562441 0.2526753843 0.09127476811 0.9515974522
-0.1862754077 -0.1171022952 0.9405697584 0.10538809 -0.09271752089 0.9819082022
-0.1847759336 -0.1116898581 0.9415842891 0.0677318871 -0.1590488553 0.9841198325
-0.179389894 -0.1221470088 0.9436744452 0.07846895605 -0.06697650254 0.9921283722
-0.1846875697 -0.1237296239 0.9414851665 0.1739169657 0.02120533213 0.9803804755
-0.1797180176 -0.1156574339 0.9409290552 0.007687304635 -0.1375334561 0.987615943
-0.1667693257 -0.09483058006 0.9464023709 -0.09927049279 -0.1937169582 0.9747459292
-0.1736088097 -0.09531123191 0.9445466399 -0.024577979 -0.1968041062 0.9789162874
-0.1791409105 -0.09406580776 0.9463026524 0.009874768555 -0.2429426312 0.968831718
-0.1850334257 -0.09838438034 0.9450306892 0.05583056808 -0.2473379076 0.9666336179
-0.167523995 -0.1113032922 0.9428895116 -0.1040312424 -0.1422604173 0.9836602211
-0.1709977239 -0.1050370336 0.9433301091 -0.07693009079 -0.1673244238 0.9822027683
-0.1728524268 -0.1102011651 0.9419851899 -0.06966564059 -0.1621627212 0.9836185575
-0.1647361666 -0.1051048636 0.9448868632 -0.1162389442 -0.1404610276 0.9827593565
-0.1738787591 -0.1175435185 0.9415934086 -0.05089505389 -0.1362324208 0.9883018136
-0.15276815 -0.1010557711 0.9466394186 -0.2829580009 -0.1348513514 0.9442252517
-0.1580683142 -0.106783025 0.9451407194 -0.2133350968 -0.1326858103 0.9614613652
-0.2069678754 -0.1306904554 0.9466568232 0.5145804882 0.3156460524 0.7914152741
-0.2104599327 -0.1321741045 0.9570154548 0.4861252904 0.3392534554 0.7979397774
-0.2141001374 -0.1254923642 0.9548071027 0.6124098301 0.2739686966 0.7406288981
-0.2138838023 -0.1189313978 0.9527776837 0.6146835089 0.12203715 0.7724119425
-0.2030774206 -0.1379594803 0.958070159 0.452396512 0.423994422 0.7660141587
-0.2055078745 -0.1303910166 0.9540610909 0.5034090877 0.3488059342 0.7797845006
-0.2066587806 -0.1249596179 0.9523509145 0.5265633464 0.2519362271 0.7991381288
-0.1992853433 -0.1345985085 0.9539968371 0.4198109508 0.3547042906 0.8001935482
-0.1882140636 -0.1315499544 0.9493244886 0.2190633714 0.2951709032 0.891336441
-0.2009248286 -0.1249406859 0.9516290426 0.4336011112 0.1929798424 0.8421569467
-0.1922264397 -0.1344055682 0.9515476823 0.2945769727 0.3462817967 0.8487001657
-0.2062241137 -0.1169297099 0.9509992003 0.5147591233 0.06171651557 0.8504855037
-0.1963319033 -0.1168641597 0.9456614852 0.2826981843 -0.005661696661 0.9418041706
-0.1896620393 -0.1253294051 0.9478869438 0.2335765511 0.1899365932 0.9162918925
-0.1903759837 -0.1205454394 0.9449536204 0.188734293 0.05793472752 0.9592160583
-0.1981709003 -0.1206566691 0.949305892 0.3753944337 0.1158779934 0.8853376508
-0.1839596033 -0.1282842159 0.9468132257 0.1362504959 0.2345070094 0.938868463
-0.1905002892 -0.1594590396 0.9739655256 -0.2498994321 0.2859913111 0.9212376475
-0.1858954728 -0.164153114 0.9775788784 -0.2911143005 0.1952444911 0.9295226336
-0.1949898005 -0.1642781645 0.9719810486 -0.2140447795 0.2900265455 0.9304033518
-0.1880938411 -0.169831872 0.9795387983 -0.2511991262 0.1673373431 0.9336823225
-0.2011104971 -0.1723804623 0.9767311811 -0.09318518639 0.2798737288 0.9270119071
-0.2183356136 -0.183132112 0.9809916615 0.1825184673 0.3559257686 0.9160206914
-0.1938067228 -0.168903023 0.9760935903 -0.2003276795 0.2369466722 0.931355238
-0.1967688352 -0.1771132201 0.9810000658 -0.09565252066 0.2180079967 0.9369066358
-0.2026485503 -0.1783290058 0.9810000658 -0.02362657152 0.2545420229 0.9297465086
-0.1568083018 -0.1785893887 1.001034498 -0.5479604602 -0.4959268868 0.450938493
-0.1632194221 -0.1726696491 0.9911032915 -0.4623522162 -0.1909921169 0.6899730563
-0.1591676474 -0.1764535308 0.9893327951 -0.6906064749 -0.2082664669 0.571135819
-0.1673587263 -0.1693833023 0.9839121103 -0.3726123571 0.01004185248 0.861633718
-0.1571594477 -0.1764558256 1.017556787 -0.339902401 -0.8098152876 0.3497301638
-0.1583968103 -0.17604509 1.006525636 -0.4546330571 -0.5687473416 0.4506398141
-0.1603763551 -0.1748088449 0.9978761673 -0.4947643876 -0.3664352 0.5618289709
-0.1570937634 -0.1805187464 1.010218501 -0.2552013099 -0.7076376081 0.4487059414
-0.188801378 -0.1289259046 0.9404909611 0.2444366962 0.1458257735 0.9512807131
-0.1929648072 -0.1350380331 0.9399220347 0.3026963472 0.2890933156 0.9030628204
-0.1912438273 -0.1396802068 0.9420043826 0.2990813553 0.3877750635 0.869089663
-0.1856707484 -0.1356018782 0.9433838129 0.203835547 0.3314281404 0.9128468037
-0.1979573071 -0.1470796764 0.9625965357 0.3358769715 0.5420502424 0.7681452036
-0.194274351 -0.1427457184 0.9577077627 0.2992627621 0.476067543 0.804526031
-0.1761834323 -0.1289415956 0.9452514648 0.01798918284 0.1815341562 0.9653869867
-0.1694302261 -0.1222000569 0.9432008266 -0.0690195635 -0.1011871248 0.9868141413
-0.1897155195 -0.09244207293 0.9469718933 0.08477952331 -0.2598611712 0.9612107873
-0.1974690259 -0.1003771722 0.9510000348 0.2767722607 -0.132313773 0.9194692969
-0.1926356703 -0.10246142 0.9510000348 0.2514281571 -0.1053734571 0.9188919663
-0.1883738488 -0.09742633253 0.9510000348 0.1606790721 -0.1628457904 0.9426816702
-0.1938118786 -0.09543050081 0.9510000348 0.1926687509 -0.189029932 0.9420967698
-0.2007083148 -0.1108242795 0.949947238 0.3917099535 -0.03315846622 0.8944775462
-0.1969005167 -0.1070960239 0.9503090978 0.3251448274 -0.06757703424 0.9073391557
-0.1914729327 -0.08958521485 0.9515771866 0.1000058725 -0.2413440794 0.9633100033
