# .PCD v0.7 - Point Cloud Data file format
VERSION 0.7
FIELDS x y z normal_x normal_y normal_z
SIZE 4 4 4 4 4 4
TYPE F F F F F F
COUNT 1 1 1 1 1 1
WIDTH 512
HEIGHT 1
VIEWPOINT 0 0 0 1 0 0 0
POINTS 512
DATA ascii
0.05979238451 -0.1489860564 1.188975692 0.5518641472 0.5254510045 -0.07057668269
0.07356458157 -0.1388352513 1.205469847 -0.0964621529 0.4150134325 0.8733901978
0.06925563514 -0.1404421628 1.200071096 0.09952552617 0.4483984709 0.5880309939
0.03228873387 -0.06522394717 1.139178276 0.594499588 0.1966119111 0.7686258554
0.08349665254 -0.1615384817 1.178797841 0.1795906723 0.4591654837 0.733998239
0.03601236269 -0.08025818318 1.122775674 0.6394497156 0.04451936856 0.757981658
0.02901152521 -0.07753556222 1.132081151 0.4597067535 0.3770701587 0.7380203605
0.02681450918 -0.08515237272 1.138534188 0.2250085473 0.5739985108 0.6930091977
0.02665624954 -0.09479209036 1.143663168 -0.4130433798 0.2959831059 0.6965486407
0.06624366343 -0.1573671401 1.180932879 0.4743307829 0.5131354332 0.1472038031
0.06442787498 -0.1403611153 1.193050861 0.3405967951 0.4894631505 0.2370298505
0.05997487903 -0.1425897032 1.187889576 0.5312523246 0.5219399333 -0.04056569189
0.05816655606 -0.1387243867 1.182462811 0.7010947466 0.5508713126 -0.2878572345
0.04083974287 -0.06909363717 1.137965202 0.6312772036 0.08550343663 0.7626104355
0.03828490898 -0.07797960192 1.139057517 0.2395341843 0.1114277244 0.7435551286
0.03558067605 -0.08515514433 1.137443781 0.1620893925 0.302057147 0.7197593451
0.1367753893 -0.01981655136 1.085080385 0.05917365476 -0.2783632278 0.8203467131
0.1202904806 -0.0171941705 1.081303477 0.39119789 0.3481234312 0.8205675483
0.1275562793 -0.02308528312 1.088578463 0.1773053408 -0.2274507731 0.8604621291
0.1222442389 -0.02132811584 1.086280704 0.2973079085 0.03210762888 0.852829814
0.1023022979 -0.03000548296 1.094488382 0.3052752316 0.07448676229 0.9403230548
0.09264934063 -0.0590368472 1.08621943 0.6073766351 -0.1892012358 0.7659482956
0.08832392097 -0.04840130731 1.086126685 0.5029320717 -0.1309655309 0.8228515983
0.107260339 -0.07833452523 1.079224348 0.5199274421 0.06862932444 0.8320730329
0.07011265308 -0.1395152062 1.189252973 0.2742805481 0.4612978995 0.3211983442
0.07542997599 -0.1422604322 1.186966181 0.3505298495 0.1977095604 0.4583460093
0.0742231831 -0.1496577561 1.181442618 0.3372739255 0.4296656251 0.4548591375
0.0694456026 -0.1452572048 1.181930423 0.5230641365 0.5228034854 0.07400803268
0.1701323092 -0.1055270731 1.104304314 -0.3191851974 0.3566015959 0.6982017756
0.1541302949 -0.1042934582 1.103189349 0.08468265086 0.3933967352 0.8108466268
0.03008217551 -0.07689261436 1.141475439 0.4596984088 0.4493572712 0.7186499238
0.03074042313 -0.08967424929 1.144420743 -0.1030528024 0.3686225712 0.6950779557
0.03512740508 -0.07383796573 1.143337369 0.171567291 0.1208055094 0.7421270013
0.03463649377 -0.0809218213 1.143899441 -0.08473529667 0.1352246255 0.7289629579
0.08883246034 -0.03984570876 1.093271375 0.3307592869 -0.04562655836 0.9356529713
0.08196491003 -0.03644754365 1.092180371 0.3245883882 -0.02375587635 0.9384149313
0.09585702419 -0.03394157067 1.09428668 0.2612842321 -0.04295288026 0.9631038308
0.08593984693 -0.03102897666 1.092732668 0.2684884667 -0.01669569686 0.9606543779
0.07755572349 -0.03135653585 1.089386702 0.3012815714 -0.00247090566 0.9443902373
0.08193711936 -0.04716470465 1.089861989 0.4268535376 -0.06047059968 0.8847125769
0.1359673291 -0.1330055743 1.12312603 0.5224974155 0.6134209633 0.5033490062
0.02836637013 -0.1025220081 1.144813418 -0.6452803612 0.1947915703 0.6978368759
0.03238443285 -0.09433511645 1.140167356 -0.1924026161 0.3921218812 0.6953246593
0.1431342363 -0.1134217754 1.132410288 0.4260851741 -0.03242354468 0.552754581
0.1491819471 -0.103389509 1.153225422 0.3302149475 -0.6248049736 0.4017324448
0.1398998946 -0.117894493 1.118427038 0.463848561 0.29565081 0.6911891699
0.1460349709 -0.1102368981 1.147591472 0.4047255218 -0.3370922804 0.3751983941
0.1392534226 -0.1246741563 1.134433508 0.5604716539 0.2869312763 0.3385944664
0.1420291364 -0.1181347296 1.137805939 0.4871865809 0.03947110474 0.3942930102
0.1444605142 -0.1117802188 1.138759375 0.4135137796 -0.1693851352 0.4835477769
0.1473080367 -0.1089146584 1.154495478 0.3964942694 -0.4717573524 0.2923938632
0.1511944383 -0.09912376106 1.162848473 0.2317558676 -0.8321105242 0.3079841137
0.1395461559 -0.1131918579 1.126692295 0.1445621997 0.2950410545 0.5597110987
0.1397391558 -0.107471928 1.13876915 -0.2062422335 0.2334433943 0.3800053895
0.1450128406 -0.09956154972 1.158362508 -0.2657056749 -0.2889233232 0.2167333215
0.1366720945 -0.1251496971 1.128107786 0.4071749747 0.5308993459 0.3800278008
0.1375550777 -0.1153238341 1.14342916 -0.0952597335 0.3991466463 0.1856601387
0.1388642639 -0.1067407802 1.14665556 -0.3912587762 0.2775768638 0.2163171917
0.1355131269 -0.1304746866 1.132653594 0.4987049997 0.6105005741 0.2317957729
0.1367475539 -0.1212559268 1.13936162 0.1351664662 0.481995821 0.2007333487
0.08368249983 -0.1503568739 1.18576467 0.1844370365 -0.07592013478 0.942420125
0.06522551179 -0.1470405459 1.192956448 0.3049355149 0.4833885431 0.2889528275
0.07354146987 -0.1459526569 1.195768714 -0.06495880336 0.4203797877 0.8275211453
0.06951197237 -0.1505872607 1.188807487 0.1318682879 0.4539078176 0.5409397483
0.08073094487 -0.1434672177 1.190442801 0.07595202327 0.03891718015 0.9410886765
0.0765575096 -0.1538813263 1.185902476 -0.05293304846 0.2790349424 0.8907812238
0.08112641424 -0.1505479366 1.193706512 0.2438902408 -0.3343133628 0.8178138137
0.08225305378 -0.1580883861 1.186625838 0.2404994518 -0.3524705768 0.7252879739
0.05395771936 -0.139137879 1.178175211 0.7484866381 0.5589441657 -0.3568601608
0.05489919707 -0.1491536647 1.182316303 0.7484866381 0.5589441657 -0.3568601608
0.06400174648 -0.1517309844 1.177059174 0.4412336051 0.6724591255 0.1642926931
0.05800562724 -0.1447401792 1.176712632 0.5995005369 0.6139872074 -0.1041546166
0.05950957537 -0.1540074348 1.182199955 0.6223495603 0.60554564 -0.1429104358
0.07249575853 -0.1592587084 1.175842881 0.1972624809 0.7625944614 0.5781087875
0.2020472288 -0.1077208966 1.127590895 -0.8155366182 0.2390579432 0.4975124896
0.03672689572 -0.08112292737 1.131670952 0.5290826559 0.2895405591 0.7350524664
0.03239113837 -0.089553684 1.133837581 0.3624199927 0.6080117822 0.6940494776
0.03374347836 -0.08633547276 1.1274997 0.495029211 0.316455245 0.7176633477
0.1834875047 -0.0747557506 1.076659083 -0.5976502299 0.3991574049 0.677996397
0.1898926049 -0.0893977955 1.089651704 -0.6827173829 0.1855160594 0.6937455535
0.1886443496 -0.08138106763 1.085915089 -0.6704935431 0.2279243916 0.6871361732
0.1864194274 -0.09648749977 1.089439511 -0.5707859397 0.2073132992 0.7743580341
0.1846264452 -0.09146394581 1.083919525 -0.5433651209 0.2635345757 0.7773758769
0.1852081865 -0.08202648908 1.078799605 -0.591006279 0.3027118146 0.7271441221
0.1816653907 -0.07949247956 1.072508454 -0.5109468699 0.3754495084 0.7660039663
0.183039397 -0.08083154261 1.102712035 -0.6506642103 0.2367774099 0.6511237621
0.161914736 -0.09076139331 1.095242262 -0.1699475944 0.4655856788 0.8028499484
0.170492813 -0.08675829321 1.101164103 -0.3619005084 0.3326296508 0.7248443365
0.1750554144 -0.08477241546 1.107725382 -0.4532703757 0.2044235319 0.6721432209
0.1762597859 -0.08384947479 1.09996748 -0.50723207 0.33050102 0.6894176006
0.1638228297 -0.09008581191 1.101673365 -0.1965638697 0.3498350978 0.7686933875
0.1559733897 -0.09380014986 1.097474456 -0.01707907952 0.4509388804 0.8360639811
0.1686193198 -0.08737092465 1.093643188 -0.3395613432 0.466612637 0.7623462081
0.1264930218 -0.01831338741 1.065789104 0.2278215885 0.1489005387 0.9391272068
0.1020602137 -0.07469705492 1.082608819 0.5905171037 -0.03407415375 0.8040848374
0.0971609652 -0.07070834935 1.086658716 0.5922468305 -0.1097990051 0.7907901406
0.1292091161 -0.04508235678 1.059487343 0.1755043417 -0.3939297199 0.8785179257
0.1279491335 -0.03200599924 1.061833739 0.1864525825 -0.1888725013 0.920992136
0.1237941161 -0.03859867528 1.059341311 0.2812522054 -0.1772850007 0.9257259965
0.1325042993 -0.02765551209 1.064872622 0.02386379056 -0.1955800653 0.948546648
0.1124799475 -0.01092114858 1.07197392 0.412992537 0.4661672115 0.7792984843
0.1197388247 -0.01597631723 1.066872716 0.3237740397 0.2358517498 0.8795187473
0.117242828 -0.01266156882 1.075509429 0.4274666011 0.4388980865 0.7895474434
0.08897650987 -0.02529790625 1.092134356 0.273347199 0.101996161 0.9540051818
0.1944954097 -0.1242449358 1.123019218 -0.6374958158 0.47759372 0.5707628727
0.1910101473 -0.1305454969 1.12393713 -0.5182847381 0.566652894 0.5806633234
0.1999459863 -0.1247088239 1.127976894 -0.6444616914 0.4704788625 0.5828335285
0.1965645552 -0.1167656928 1.130181313 -0.7415631413 0.3366338909 0.5438679457
0.1936725825 -0.1172984764 1.123219371 -0.7242131233 0.3673202991 0.5599061847
0.1954483092 -0.1113208458 1.124578595 -0.7777863741 0.2773252428 0.5263636708
0.1098294854 -0.1359736025 1.182239413 0.3880055845 -0.316470027 0.7274358273
0.1253035665 -0.1246922538 1.180691242 0.5396029949 -0.4769596159 0.543520689
0.1283672601 -0.1215517521 1.186093569 0.5268464684 -0.5176525116 0.5563368797
0.1142753512 -0.1319872141 1.186485052 0.3964204192 -0.3699072599 0.7150418162
0.132732302 -0.1204512864 1.17255199 0.667791903 -0.5424537659 0.3914500475
0.1348711252 -0.1166218668 1.186627865 0.5816861391 -0.5869585872 0.4892542958
0.1278327405 -0.1252274811 1.173709154 0.60684973 -0.4858211279 0.4649970531
0.1008310318 -0.1441213191 1.185653687 0.2689657807 -0.2166684121 0.8705658913
0.1054230705 -0.1490185261 1.184061885 0.2735294998 -0.2203037888 0.865087986
0.1239970103 -0.1312043965 1.175584435 0.5373739004 -0.4304778278 0.5483902693
0.1178740412 -0.1376622319 1.186652064 0.3768961132 -0.3641715944 0.7379954457
0.09987333417 -0.1508372724 1.187427521 0.2089030743 -0.1764575094 0.9422857165
0.1079449356 -0.1440497786 1.187213063 0.2884407043 -0.265332222 0.8455628753
0.1200504228 -0.1288392544 1.187652826 0.4317965508 -0.4255169034 0.6712329984
0.1160106659 -0.1406026334 1.181111574 0.3974713981 -0.3323809206 0.7156630158
0.1111413538 -0.1459749043 1.182074904 0.3346904814 -0.2726865709 0.791495502
0.12034031 -0.1358899325 1.179691195 0.4576712847 -0.3847116828 0.6431891322
0.1318262666 -0.1230830997 1.178601027 0.5965816379 -0.5270889997 0.4748954475
0.1362054944 -0.1181908995 1.178267479 0.6489056349 -0.5814820528 0.4114660025
0.145916149 -0.09971084446 1.102421761 0.2491172254 0.3999994695 0.8800683022
0.1140801534 -0.08625136316 1.088122249 0.4926129282 0.10012687 0.8335632682
0.09251058847 -0.07543091476 1.085697651 0.5873258114 -0.06499557942 0.8054040074
0.09748393297 -0.07971500605 1.083582044 0.5814756155 -0.01540520508 0.8124503493
0.1098266765 -0.07226084918 1.073930383 0.5384931564 0.09662102908 0.8321176767
0.1004523113 -0.07543504238 1.07590127 0.575848043 0.04099466652 0.8095073104
0.1148836166 -0.07973529398 1.069424748 0.40989694 0.2446127087 0.8654247522
0.1354520768 -0.1368653476 1.128867149 0.590688765 0.6643772721 0.3558980525
0.1546102166 -0.1371428072 1.117851257 0.2782427669 0.6229629517 0.6541051865
0.1490159333 -0.1375751942 1.12178278 0.4032605886 0.6484786272 0.5120473504
0.1415368319 -0.1366015971 1.12653935 0.5615670085 0.6720654964 0.3407991827
0.1724626571 -0.1181999594 1.105052352 -0.3575221896 0.44972682 0.7424666882
0.1852870882 -0.1092449576 1.10548234 -0.6980269551 0.3422669768 0.6045143008
0.1753857881 -0.1089904904 1.104793668 -0.4426190555 0.3654304743 0.6713405252
0.1625975668 -0.1118785366 1.104064226 -0.1093834415 0.4221835732 0.7754582167
0.1644157916 -0.1188377813 1.104382396 -0.1314247251 0.4728909433 0.8054187298
0.1454533041 -0.108398959 1.103299022 0.327686131 0.4196979702 0.8447429538
0.1492948383 -0.1212358773 1.108313203 0.2716873288 0.4671809375 0.8013973236
0.1559767276 -0.1180923358 1.104248881 0.1367634386 0.4686746001 0.8478250504
0.1128720865 -0.08798195422 1.079613805 0.4678112268 0.1525188088 0.8591358066
0.1175540537 -0.09211129695 1.083148241 0.4543043673 0.1948731244 0.8532287478
0.1235834882 -0.09436691552 1.081132531 0.3704843521 0.3262938559 0.8658553362
0.1300799102 -0.1012048498 1.088413954 0.3757852614 0.3572373688 0.8503357172
0.1074353829 -0.0849468559 1.084445357 0.548645854 0.04700752348 0.8228036165
0.1321324706 -0.1056372151 1.097170591 0.435018599 0.3062505424 0.8207373023
0.1289559752 -0.1003436893 1.09553504 0.4372739792 0.2614752054 0.8275222182
0.1409724206 -0.104279153 1.100461602 0.3455187678 0.368422389 0.8478121758
0.1194010973 -0.0910115242 1.090577722 0.474791795 0.1556174159 0.8317763209
0.1237102523 -0.09686271846 1.093088746 0.4672563076 0.2088708878 0.8244592547
0.139790535 -0.1108194441 1.101138473 0.3941243291 0.3811537921 0.8230475783
0.1803590506 -0.129336223 1.113237381 -0.4248042405 0.5353955626 0.6806719899
0.1792652756 -0.1311466545 1.120244384 -0.2612527609 0.5299035907 0.6879275441
0.1846903265 -0.126446411 1.119728684 -0.4530441165 0.484781146 0.6417912245
0.1762028337 -0.1397482902 1.118830085 -0.3175512254 0.7087173462 0.5840293169
0.1930825263 -0.127205804 1.131334901 -0.5996040702 0.4755878747 0.6007860899
0.1709025651 -0.1422614604 1.115139842 -0.1939196289 0.7468961477 0.6074897051
0.184306249 -0.1334275305 1.124882936 -0.4455867708 0.5894387364 0.5981097221
0.1481286138 -0.114017345 1.174648285 0.2635577619 -0.8173031807 0.4473861754
0.03117263131 -0.07083205134 1.133455276 0.5857778788 0.2111735195 0.7682868242
0.03762612492 -0.07253019512 1.131797671 0.6411095858 0.07815715671 0.7630528212
0.1361763775 -0.09466081858 1.097892046 0.3076041043 0.30982849 0.8670378327
0.1329578757 -0.09184651822 1.092484236 0.1204175353 0.3715617359 0.8019705415
0.1266828626 -0.09022971243 1.0919981 0.2946818173 0.2586889565 0.8276051879
0.1313275546 -0.02884351462 1.084482193 0.1512419134 -0.3090548217 0.8903850317
0.1169857606 -0.02540302649 1.090803862 0.334169805 -0.07544997334 0.8942680955
0.1376044452 -0.02584800683 1.08440733 0.04589392245 -0.4078129232 0.8605208993
0.1403697133 -0.03146949038 1.081506729 0.0381969735 -0.4644834697 0.8712778687
0.1484823227 -0.02303117886 1.086926103 -0.09492807835 -0.5565060973 0.8001173139
0.1328842044 -0.03825899214 1.075324416 0.1478797793 -0.5086956024 0.8384673595
0.1061939895 -0.03748669475 1.077382803 0.5281139612 -0.1352126598 0.7386090159
0.1060085371 -0.03057463281 1.077293992 0.4830649793 0.04632809013 0.7596078515
0.1485397965 -0.0431125313 1.07380271 -0.09774670005 -0.3418595493 0.8719826341
0.1606149375 -0.05922433734 1.067010522 -0.2632063627 0.02114171162 0.9194977283
0.1524267942 -0.04424743354 1.064618707 -0.05746053904 -0.4392510951 0.8948120475
0.1352951527 -0.04534056038 1.061577797 0.05117770284 -0.5433139205 0.8364006281
0.136762917 -0.03586126119 1.064308405 -0.009060570039 -0.3806985617 0.8963588476
0.143123135 -0.03397703543 1.066525936 -0.07221846282 -0.3799672723 0.9018602371
0.1410659105 -0.04105104506 1.064222813 -0.01915212162 -0.4963128269 0.8581329584
0.1785114706 -0.05262610316 1.082707882 -0.4761402905 -0.1985517144 0.7196762562
0.1774961203 -0.06482192129 1.083821058 -0.5171302557 0.1535541564 0.6705005765
0.1786246449 -0.07473599166 1.088677645 -0.6979418993 0.1913719177 0.6279539466
0.1869676262 -0.08532998711 1.109849691 -0.7371277809 0.1502284557 0.5796812773
0.182402879 -0.09275885671 1.107829094 -0.6298729777 0.224713698 0.6140309572
0.1724639982 -0.09749747813 1.105760694 -0.3924264908 0.2975542843 0.6887266636
0.1851898283 -0.1029295772 1.106065035 -0.700396657 0.294118613 0.5931802988
0.1659828722 -0.09582169354 1.105383396 -0.2359547466 0.307824403 0.7373962998
0.1553953737 -0.09456268698 1.104465604 0.01914926805 0.3361514211 0.8169146776
0.1594870687 -0.09991618991 1.103828192 -0.08110738546 0.3632230461 0.7862237692
0.168961212 -0.08807951212 1.107291818 -0.3049423397 0.2366098017 0.7149605155
0.1779609025 -0.1011362001 1.105628729 -0.5258969665 0.3061655164 0.6474661231
0.1824542284 -0.1234060228 1.103391767 -0.537890017 0.5112245679 0.6616165638
0.193234548 -0.08314598352 1.115784526 -0.8455030322 0.08080729097 0.5257850885
0.1932498068 -0.087013565 1.100288033 -0.761467576 0.1312342137 0.6281146407
0.1957297474 -0.08956471086 1.109923601 -0.8091061711 0.1197007373 0.5643789768
0.1929130107 -0.07994355261 1.108070731 -0.8165531754 0.09670617431 0.5667307377
0.1932808012 -0.09339102358 1.099506497 -0.7432142496 0.130219087 0.6490519643
0.1801327467 -0.05878033116 1.086065412 -0.5642786026 -0.127779305 0.6911632419
0.08981411904 -0.05502054468 1.092807293 0.5041759014 -0.1283667684 0.8480316997
0.09855743498 -0.06307603419 1.083690882 0.6116363406 -0.1098239571 0.7796559334
0.0918251127 -0.04786577821 1.093696594 0.3955581486 -0.07947219163 0.9066035748
0.155457437 -0.02282923833 1.087023377 -0.1438415051 -0.6339665055 0.7522909045
0.1601966321 -0.01792275533 1.089823723 -0.1771574765 -0.6519945264 0.7369648218
0.1262398511 -0.05103738979 1.057145 0.2640731037 -0.2634239495 0.9233379364
0.1069454402 -0.01945849322 1.084775686 0.4160783887 0.2716079354 0.8649653792
0.1113710478 -0.02297607251 1.088530898 0.4213035107 0.190402016 0.8640252352
0.08739323169 -0.1549496353 1.189418197 0.2724973857 -0.3854571283 0.8105570078
0.08204197139 -0.1407487392 1.200834751 0.1590055376 -0.1178501248 0.9800999761
0.09391537309 -0.1526733041 1.189591169 0.1792161763 -0.1426418871 0.9732267857
0.08805984259 -0.1451874226 1.195401669 0.1695791483 -0.1308204532 0.9765041471
0.08747798204 -0.1624935269 1.184717536 0.3467969 -0.5686205029 0.6914343834
0.08866773546 -0.1467218995 1.188173294 0.1851067841 -0.1498677284 0.9712235332
0.09418220073 -0.1577639133 1.184180856 0.1841641814 -0.04579529911 0.9306861758
0.09953463823 -0.1614647508 1.182913065 0.1848521978 -0.121758692 0.960274756
0.1412980705 -0.1293309033 1.111630678 0.3870105743 0.5380657911 0.7469345331
0.1525547951 -0.1439360678 1.118431926 0.2207740098 0.6429938078 0.7116377354
0.1595530957 -0.1438443214 1.117111087 0.04961101711 0.6953960061 0.660977304
0.1471563876 -0.1389846504 1.114623785 0.3066919148 0.6201725006 0.72099787
0.1464452147 -0.1433894783 1.12030375 0.2868023813 0.6333270073 0.7186080217
0.1743882895 -0.1253381521 1.105990052 -0.3800729215 0.5037350655 0.7632373571
0.1826929748 -0.1231004074 1.112496972 -0.5278646946 0.4676608145 0.6752825379
0.1735264361 -0.1295332015 1.112175822 -0.1745495349 0.5352263451 0.7365223765
0.1686991006 -0.1351181418 1.113122702 0.01142962649 0.5805127621 0.7565872669
0.1408401281 -0.1345004588 1.116866112 0.3510210812 0.6000991464 0.7169570923
0.1379418224 -0.1414626986 1.123474002 0.3420984447 0.5956522822 0.7266578078
0.1950638294 -0.1050298735 1.119285941 -0.8232542276 0.2087042481 0.5203025341
0.1939699948 -0.09903764725 1.117089868 -0.8232589364 0.1828573048 0.5302479863
0.1958931834 -0.09360390902 1.12113905 -0.8600224257 0.1067742556 0.4947151244
0.190853402 -0.1006177068 1.111538649 -0.791311264 0.2347089797 0.5562254786
0.1911446601 -0.09320198745 1.11206007 -0.806183517 0.1806238443 0.5526660085
0.2021213323 -0.1133486852 1.123239279 -0.7844013572 0.2602086961 0.5559154153
0.1515482068 -0.1209247783 1.096595645 0.2496005893 0.4530816078 0.8552649021
0.1445405185 -0.1157234907 1.168022871 0.5089524388 -0.730604291 0.3738165498
0.1494567692 -0.1119560078 1.167390108 0.250297308 -0.8512508273 0.4016408622
0.1378765255 -0.1220282167 1.158326268 0.7161979079 -0.252458334 0.2797490358
0.136249274 -0.1304727495 1.141681314 0.6931425333 0.3088193536 0.238967672
0.1385210603 -0.1122197211 1.165275455 0.26850155 -0.3122952282 0.2065889537
0.1363337934 -0.1257819533 1.146083713 0.5194882751 0.2416386157 0.2085794657
0.1379332989 -0.1118982881 1.154302716 -0.1739107668 0.200958997 0.104377605
0.1379924119 -0.1184994355 1.165039062 0.7150886655 -0.4542432725 0.2848418653
0.1386592686 -0.1059701443 1.158580422 -0.4406379759 0.1481990516 0.06675362587
0.1391048133 -0.1051875502 1.165393233 -0.237212345 -0.146566987 0.1176452041
0.1440998018 -0.1159806326 1.151547074 0.4919033945 -0.2579705715 0.2828300297
0.1413723528 -0.1220045388 1.151720762 0.5921748281 -0.1581163108 0.2975576222
0.145996511 -0.1121148095 1.161227107 0.4901772141 -0.6041671038 0.3316374719
0.1418215334 -0.1207911074 1.144981742 0.5291005969 0.0149257686 0.2547027767
0.1388672739 -0.1154836565 1.171702266 0.7259954214 -0.6081760526 0.3137542605
0.1517751515 -0.105511345 1.169295788 0.2824373841 -0.8530545831 0.4375322461
0.1608945429 -0.07381702214 1.065951109 -0.3128587306 0.472649008 0.8198330402
0.164403528 -0.07852102816 1.070780516 -0.4230236709 0.6107097268 0.6610494852
0.1382568926 -0.1084816977 1.094700694 0.3642279804 0.3911873996 0.8423473835
0.136471644 -0.1045764685 1.088308811 0.3375943005 0.3656953275 0.8648750782
0.1198847443 -0.09025468677 1.076513767 0.3641189337 0.3091001511 0.8765034676
0.1040400118 -0.06139758602 1.078458071 0.6158003211 -0.1211604476 0.7642754912
0.1172212362 -0.06912549585 1.066698194 0.4506375492 0.1631758809 0.858992517
0.1183107048 -0.05877796561 1.060751081 0.4142093062 -0.07359752059 0.8746641278
0.1008050591 -0.06925911456 1.075808167 0.5959562063 0.003454043064 0.8008843064
0.0944975391 -0.07135546207 1.079872847 0.6045111418 -0.03584366292 0.7946052551
0.08784383535 -0.0699210763 1.086818695 0.5979617834 -0.1312382966 0.7893826365
0.1009315029 -0.0556874834 1.078959227 0.6391232014 -0.2519422174 0.7117378116
0.09662938863 -0.0180662591 1.080640674 0.3385661542 0.3005462885 0.8619961143
0.07693652809 -0.02393144369 1.087912321 0.2608807385 0.04248264432 0.9633049965
0.08169008046 -0.01856824383 1.087000012 0.2756621242 0.1532914042 0.9479395151
0.1457024366 -0.03683999926 1.078034997 -0.05921306461 -0.4608051181 0.8474058509
0.1519808173 -0.03752624616 1.076049447 -0.1158709824 -0.4592262805 0.8509827256
0.1656759977 -0.05312694237 1.068437934 -0.2912711203 -0.1181630343 0.8989016414
0.1575798243 -0.04917267337 1.071712255 -0.2069336623 -0.1936733872 0.885558784
0.1626221687 -0.04417516664 1.071408153 -0.2320538759 -0.3252301812 0.8726489544
0.1588516682 -0.0386184752 1.073797107 -0.1791289747 -0.4493301511 0.8558677435
0.1461643875 -0.0462308377 1.063624144 -0.01788072661 -0.4684256911 0.876578033
0.150829643 -0.05021611974 1.061668038 -0.09920955449 -0.3079201281 0.938352704
0.1708416939 -0.07815235853 1.081033468 -0.4174209237 0.5607609749 0.6819386482
0.1709773093 -0.08280891925 1.086050153 -0.4150554836 0.5938920975 0.676389873
0.1768645495 -0.08120446652 1.090254903 -0.6647413373 0.3041998446 0.6557808518
0.1790331751 -0.09047267586 1.079240561 -0.4636580944 0.3638771772 0.7861045599
0.1670387834 -0.08608923852 1.075047731 -0.4236055315 0.5931737423 0.6529135704
0.1808842868 -0.09632641822 1.083231091 -0.4535911083 0.3016662002 0.8275359869
0.1742503643 -0.08271794021 1.073689342 -0.4665389061 0.4864315093 0.7087731957
0.1829350591 -0.1129314005 1.099060059 -0.4813831449 0.4371281564 0.7517920732
0.1907078624 -0.08364606649 1.09358263 -0.7244389653 0.1956857145 0.6489197612
0.1128048226 -0.05445159599 1.073088527 0.5385783911 -0.2313637286 0.7549191117
0.1569728851 -0.03246288002 1.080518007 -0.1324497461 -0.5652911067 0.7975670695
0.170075506 -0.03725914285 1.080018282 -0.2874419987 -0.5179744959 0.7899539471
0.1629010737 -0.026442606 1.081845045 -0.1216982901 -0.642121911 0.7528173923
0.1500188112 -0.0301932022 1.080730915 -0.05291360244 -0.5870947242 0.8029990196
0.1737700105 -0.0401138626 1.074581981 -0.3234737813 -0.4552056193 0.8253690004
0.1239979193 -0.06876285374 1.065369248 0.3167674541 0.2595834434 0.9095649719
0.1195710748 -0.05257070065 1.057910204 0.3919049203 -0.1951160282 0.8882336617
0.1210577935 -0.06172047183 1.067993641 0.401088208 0.06368266791 0.8648867011
0.1217249632 -0.0479093343 1.072218657 0.3405711353 -0.4115321934 0.7706436515
0.1282477975 -0.04872104898 1.07161057 0.2575725615 -0.3325233757 0.8282275796
0.1484334618 -0.1263513118 1.102138996 0.301443994 0.5111445785 0.7976048589
0.1640175432 -0.1417772323 1.110544682 0.06042305753 0.6129004359 0.7674483657
0.1592692733 -0.132305637 1.103738427 0.1382908076 0.5514957309 0.8109998107
0.1457747221 -0.1036213413 1.082479358 0.08607489616 0.5736083388 0.774266839
0.1505075544 -0.1064384207 1.08604753 0.1095045209 0.5436817408 0.806383729
0.1474042237 -0.1123196632 1.088980198 0.1632600874 0.5160041451 0.8123137355
0.1447182596 -0.09295172989 1.090221882 -0.1355463117 0.5737482905 0.7785890102
0.1403336674 -0.08793915063 1.081231236 -0.0528566055 0.5560033321 0.7719943523
0.1456099898 -0.09071478993 1.080284953 -0.1821541637 0.6732294559 0.6875461936
0.1289354116 -0.07832160592 1.070191145 0.193330124 0.4093838334 0.8516840339
0.135638088 -0.08404906094 1.07694304 0.04921933636 0.4934854209 0.8068630695
0.1532284915 -0.08791151643 1.078547597 -0.2723844051 0.6863160729 0.645742178
0.1356058121 -0.05936167762 1.068042517 0.1063590646 -0.04036261514 0.884637475
0.1412700415 -0.06409537792 1.063088894 -0.02802777477 0.1123824641 0.9522827268
0.1375489086 -0.05363120884 1.067984462 0.05960860476 -0.1849637628 0.8883706331
0.1311943531 -0.06608702242 1.067744732 0.1842262447 0.1260447651 0.8858404756
0.1345310211 -0.04501696676 1.071547747 0.1240831912 -0.4279990196 0.8424549699
0.1281905025 -0.06004215404 1.067752957 0.2387120277 0.008092795499 0.8850057125
0.1305310726 -0.05449793115 1.069424987 0.1948834211 -0.1611155719 0.8661310077
0.1497547179 -0.07958067209 1.064173698 -0.209188953 0.472261548 0.8284435868
0.1438040733 -0.07285157591 1.059438109 -0.03476157039 0.2668507993 0.9525663257
0.1353263259 -0.076109007 1.065157175 0.117733106 0.3877514005 0.9090765715
0.1416602433 -0.0742463246 1.066495657 -0.0266421549 0.3629002571 0.8828162551
0.1499738991 -0.07733231783 1.070630789 -0.2068779767 0.4424983561 0.794136405
0.1464165151 -0.08271227777 1.073349595 -0.1193180606 0.5645733476 0.7489589453
0.1477744132 -0.1312791109 1.112017274 0.3756973445 0.5531314015 0.7347103953
0.1555371583 -0.1336895227 1.112108707 0.2620510459 0.5691883564 0.7626672983
0.1611531824 -0.1261440516 1.105627894 0.05698793754 0.507032752 0.8367955685
0.1551391631 -0.1283184141 1.108909369 0.2032919079 0.5222015381 0.796792686
0.1382307112 -0.1277237982 1.118457437 0.5424032807 0.5425066352 0.5655791759
0.1410001814 -0.1206413135 1.111263514 0.4325972497 0.4519976079 0.7648224831
0.142615512 -0.1180179715 1.10572207 0.4124848545 0.4389383197 0.7964780927
0.1906040311 -0.1077328399 1.112243652 -0.7657972574 0.2818788886 0.5656070113
0.1823243052 -0.1158929542 1.107738018 -0.5912165046 0.3940593004 0.6637401581
0.190453127 -0.1144886538 1.116129041 -0.7094988823 0.3489961028 0.5864417553
0.1887827665 -0.1204089448 1.113112211 -0.6500096917 0.4532616735 0.6051295996
0.1775219738 -0.1160866246 1.097000837 -0.3636535406 0.4336282909 0.8088365197
0.1409728676 -0.05686219409 1.058214426 -0.02434923127 -0.1316438168 0.9818613529
0.1421709508 -0.06612458825 1.057000041 -0.02243095264 0.121579282 0.9839619994
0.1270176917 -0.05701090395 1.059523106 0.2870339155 -0.06954952329 0.9451611042
0.1340353489 -0.05622591078 1.057847381 0.1207617894 -0.1035213023 0.9810010791
0.1315825433 -0.06382722408 1.060390949 0.1599993706 0.1183363795 0.9629195333
0.1379533857 -0.06991832703 1.060922265 0.06074855104 0.2334114015 0.9525601864
0.1308861971 -0.07188544422 1.0642066 0.1828811467 0.2870885432 0.9238435626
0.1507126242 -0.09304840863 1.085594058 -0.2645460963 0.6749860048 0.6848292947
0.1240200326 -0.0312114805 1.083824515 0.295971483 -0.1009227261 0.9154222012
0.1318413168 -0.03324676305 1.080519915 0.1923297346 -0.2439760119 0.9147583842
0.1249035373 -0.04114283994 1.073129416 0.2546786666 -0.6037873626 0.7542307377
0.1233038455 -0.03707211465 1.078803539 0.3003763556 -0.3937706053 0.8346990347
0.1144668683 -0.03020893969 1.087363601 0.4191437066 -0.04022388905 0.9008204341
0.113783814 -0.01851560175 1.082933784 0.4596458375 0.3589162827 0.799408257
0.109329626 -0.04771977663 1.079053998 0.5197435617 -0.3918394148 0.7302961946
0.114941746 -0.04642592371 1.076465845 0.4230342805 -0.4672890604 0.7379434109
0.1064728126 -0.05454224721 1.076359987 0.622251749 -0.2650122941 0.725538969
0.1114771739 -0.04150816053 1.080665946 0.4897466898 -0.3791741729 0.7591413856
0.1180965677 -0.04109824821 1.077047825 0.3740756512 -0.4823166132 0.7605073452
0.1033749953 -0.04893103614 1.082295179 0.6064459682 -0.3159227669 0.7275185585
0.09056784958 -0.02346209995 1.085484147 0.3017778397 0.1206491813 0.929502368
0.09715467691 -0.02582911029 1.083495378 0.3564288616 0.1148455739 0.8844376206
0.09818674624 -0.03431368992 1.080471396 0.4515766501 -0.1166596189 0.8056063652
0.09478671849 -0.05237680301 1.083769083 0.5975045562 -0.2113511562 0.7525469661
0.09715951979 -0.04578061402 1.080379367 0.5542254448 -0.2499598563 0.7481631041
0.09067530185 -0.04193457961 1.083244681 0.4805474579 -0.1617592424 0.8120749593
0.08616478741 -0.03166750818 1.083401442 0.3622326851 -0.09453479201 0.8779433966
0.09222467989 -0.03312854096 1.081913471 0.4103019238 -0.122583665 0.8392558098
0.1026569754 -0.04381001741 1.076444507 0.5707522035 -0.3281136751 0.7066162825
0.1086147651 -0.06595811248 1.072743893 0.5878656507 0.03353762627 0.8068715334
0.1099876612 -0.0593447201 1.067340851 0.5218599439 -0.1077916846 0.83074224
0.113087289 -0.05500213057 1.062888026 0.4768803418 -0.189244315 0.8456873894
0.1038552597 -0.06142097712 1.070855618 0.5511234403 -0.100536719 0.8154401183
0.08873718977 -0.01722477004 1.084586143 0.2938777506 0.258885622 0.9083895683
0.1022699028 -0.01545351092 1.080086589 0.3673281372 0.4129672945 0.8231928349
0.09827867895 -0.02406105399 1.092936635 0.3012018204 0.196491316 0.9313166738
0.1003296822 -0.01894031838 1.086951613 0.3585714698 0.2725527287 0.8893426657
0.1048190668 -0.02419145778 1.092271566 0.3469959199 0.21757707 0.9104623795
0.1746966988 -0.05277100205 1.077728152 -0.3862695694 -0.09213236719 0.7542060018
0.173052609 -0.07196382433 1.078643322 -0.4478896558 0.4409481883 0.706084311
0.170622915 -0.04859798402 1.072154164 -0.3231273293 -0.2074796557 0.8264302015
0.1731730253 -0.0642997995 1.077939749 -0.4172852635 0.2387961 0.7206898332
0.1701476425 -0.05926383287 1.07265532 -0.3622579575 0.0703176409 0.8144453764
0.1690392792 -0.06763646752 1.071906686 -0.3847054243 0.2799447179 0.8249695897
0.1761764586 -0.03373625502 1.081408858 -0.3197760582 -0.5159489512 0.784299314
0.1662636101 -0.02320581861 1.088286281 -0.2372731715 -0.6134212017 0.7456804514
0.1795653999 -0.04402703419 1.07553041 -0.391862154 -0.311190784 0.8362460732
0.1817162931 -0.04262418672 1.081074357 -0.4117654562 -0.3896695673 0.7870019674
0.1846260577 -0.06177552417 1.080601692 -0.6080754995 0.05434274673 0.7458106279
0.1811031997 -0.05231650174 1.07269454 -0.5159591436 -0.07280709594 0.8197523952
0.1853466034 -0.05563853309 1.087204814 -0.5413302779 -0.160972476 0.7165333033
0.1871597618 -0.06465134025 1.08871448 -0.6326853037 0.02837645262 0.6857441664
0.183679074 -0.07040907443 1.082492232 -0.6367021799 0.3283873498 0.6572341919
0.1852864623 -0.05663646385 1.094927907 -0.5882107615 -0.2221689671 0.6797729731
0.1876098514 -0.06759297103 1.102638721 -0.7039225101 -0.06430447102 0.6221718192
0.1820748448 -0.04938151315 1.088151097 -0.4944226444 -0.3431634009 0.7215900421
0.1879877895 -0.06303929538 1.097463489 -0.6518290043 -0.1188548282 0.6544851661
0.1901378036 -0.07348740846 1.108997941 -0.7903423309 0.02117800713 0.5724609494
0.1846312881 -0.07630611956 1.096303701 -0.7374621034 0.1686315536 0.623001039
0.1826087683 -0.07023412734 1.091494799 -0.6785846353 0.0798516497 0.6415159106
0.1701655686 -0.02952587232 1.077973247 -0.2497701943 -0.561671257 0.7788606286
0.172326237 -0.03386579454 1.073563814 -0.2791829407 -0.5166150331 0.8048352003
0.139137283 -0.04112941027 1.071028352 0.04791389406 -0.4935666919 0.8583621383
0.1434263736 -0.04999763146 1.068439484 -0.02616326511 -0.2769500017 0.8848523498
0.1481707096 -0.054611139 1.066265345 -0.1055592 -0.137348637 0.9154340625
0.1546016186 -0.05430565774 1.067242622 -0.182229057 -0.1127057523 0.9135593176
0.160378471 -0.06507322192 1.064172745 -0.2808940113 0.1585582346 0.9433611631
0.1569470614 -0.07640995085 1.071585894 -0.2833552063 0.4151877165 0.7995228171
0.1623667032 -0.08427789807 1.081598759 -0.3488464057 0.6006423831 0.6959428787
0.1554123759 -0.06225182861 1.060425997 -0.1730124205 0.09151665866 0.9678592682
0.1508413106 -0.06818265468 1.059267521 -0.1533353329 0.1852957159 0.967836678
0.1470145583 -0.0568725653 1.058704615 -0.1368277222 -0.164524883 0.9725498557
0.150219053 -0.0709040761 1.066010952 -0.1916243583 0.287902683 0.8856005669
0.1709351689 -0.07578811795 1.069675088 -0.4720742702 0.5453667045 0.6814138889
0.1918825954 -0.07946332544 1.101112962 -0.7808622122 0.1562612802 0.5989739895
0.1210988089 -0.03339673206 1.063250065 0.3437263072 -0.166780144 0.8841215372
0.1185150072 -0.0459552668 1.060524464 0.4113158584 -0.279768914 0.849034965
0.1153409928 -0.02250778861 1.068602085 0.3529158533 0.1553967148 0.8481027484
0.1188234389 -0.03958679363 1.064050913 0.4078659713 -0.2886720896 0.8267623782
0.1212802008 -0.0258329995 1.064539433 0.3037451804 -0.01406346075 0.9093628526
0.1151018888 -0.02967193909 1.06771946 0.3953095973 -0.004059471656 0.8180155158
0.1102948189 -0.01727068238 1.072399735 0.381336838 0.3543288112 0.8051822186
0.1103461683 -0.03358004987 1.071285605 0.4895222187 -0.04071156681 0.7387266159
0.1132230908 -0.04376194999 1.068055868 0.5126841068 -0.317489177 0.7361021042
0.1077055112 -0.02371454798 1.074231386 0.4640142918 0.2268587202 0.7435013056
0.1088843346 -0.04136310145 1.07339108 0.5836453438 -0.2371629924 0.6810917854
0.1100811958 -0.04885756224 1.071367383 0.606820941 -0.3739969432 0.687268436
0.1371806264 -0.02466989495 1.067000031 -0.003823967651 -0.1064013094 0.9612911344
0.1480332762 -0.0190324951 1.080392718 -0.1621066481 -0.4944981635 0.8192142844
0.1299415082 -0.01377494074 1.074850798 0.137557745 0.01683771238 0.8146729469
0.1372288018 -0.01934475452 1.072140574 -0.1900066435 -0.2472864538 0.937030673
0.1399753988 -0.01769409887 1.078438282 -0.07475689054 -0.3119402528 0.8423135281
0.1269348264 -0.01613742858 1.080244184 0.2714662552 0.1743310541 0.8050974607
0.1237795576 -0.01168860774 1.074406505 0.3002212048 0.2321466208 0.7858185768
0.1341711879 -0.01562954299 1.079793572 0.1196932048 -0.09735039622 0.7955560684
0.1557764113 -0.1262049824 1.099575996 0.2035399526 0.5043855906 0.837831378
0.1602042764 -0.1207755655 1.096604824 0.08941503614 0.4483077526 0.8830026984
0.1663018614 -0.135673061 1.105180264 -0.02065349557 0.5754077435 0.805993855
0.1716588438 -0.1335175633 1.106957197 -0.1949137747 0.5667847991 0.7938264608
0.1677468866 -0.1274902523 1.102428913 -0.102622062 0.5100667477 0.8402528167
0.1709626764 -0.1166226566 1.095739841 -0.1854176819 0.4226029813 0.8760442734
0.1734564751 -0.1211800948 1.099398851 -0.2489079982 0.4656667709 0.8418738842
0.1502089202 -0.08689811081 1.069427133 -0.2438754737 0.6436842084 0.7134017944
0.143023029 -0.08454073966 1.067531109 -0.06199845299 0.5923310518 0.7969614863
0.1183023155 -0.08633863181 1.071832061 0.3419821262 0.3180350065 0.8815744519
0.1461857855 -0.1127161086 1.095052838 0.3203217387 0.4034941494 0.8566946387
0.1290100664 -0.09189525992 1.075752258 0.294433713 0.4012955725 0.8658052087
0.1384231448 -0.08983623981 1.070308924 0.01473959349 0.6191640496 0.7516133785
0.1378663927 -0.09859576821 1.080966592 0.2282282263 0.4640978277 0.8327198029
0.1363501102 -0.0943743065 1.076421261 0.1730365753 0.5025866032 0.8137403727
0.1431378424 -0.1074272618 1.089780331 0.2875865698 0.4262105823 0.8487716913
0.1292341202 -0.08564897627 1.068779469 0.1810836345 0.4881628752 0.8316769004
0.126636371 -0.08133419603 1.07683754 0.2183417529 0.3471703231 0.8486636281
0.12691769 -0.08717750013 1.086127639 0.1764107496 0.3267172277 0.8069261312
0.1205204651 -0.08240844309 1.080154657 0.3044483662 0.2516162097 0.8332456946
0.1207554117 -0.0776482895 1.07246542 0.3315470815 0.275185585 0.8678292632
0.1339871734 -0.08617436141 1.082675576 0.07534119487 0.4361637831 0.8230293393
0.1139042675 -0.07915846258 1.076672912 0.4260284603 0.1668505073 0.8483479619
0.1238923669 -0.08170929551 1.067412734 0.2763658464 0.3771877289 0.8799541593
0.1400623024 -0.09734883159 1.166444063 -0.6086555123 -0.04820116237 0.04219982773
0.1416507959 -0.1058563143 1.17752111 0.6731111407 -0.6698555946 0.2986582816
0.1421723515 -0.09965759516 1.173602104 0.7018201947 -0.6641811728 0.2337967157
0.1478936672 -0.10640385 1.174121499 0.4169426262 -0.7803339958 0.4128147662
0.141830489 -0.1099496633 1.183417439 0.6052338481 -0.6694121361 0.4045546949
0.1468014419 -0.09921406209 1.169104457 0.425344348 -0.8377953768 0.3058944345
0.1654268056 -0.08714403957 1.088004827 -0.3425345719 0.5780325532 0.7368107438
0.1580212265 -0.08974814415 1.085237861 -0.3294553757 0.6529875994 0.6798242927
0.1500091404 -0.09632067382 1.097710133 -0.04332127795 0.5133026838 0.8166443706
0.1132038459 -0.03592230007 1.083922148 0.4636704028 -0.1994939595 0.8580975533
0.1093222201 -0.02928506769 1.092063904 0.3976757228 -0.01235138625 0.9163068533
0.09703217447 -0.04038271308 1.093466759 0.381393224 -0.09888159484 0.8989577293
0.1044500321 -0.0382957682 1.089514256 0.4489731193 -0.1538412273 0.8553929329
0.09637130052 -0.05003008246 1.089909911 0.5734890103 -0.2283248007 0.7786464691
0.1677505225 -0.03743883222 1.068252921 -0.2225459218 -0.4708970487 0.8493457437
0.1702812165 -0.04483382776 1.067378163 -0.2622367144 -0.3104594648 0.9060670733
0.1816381365 -0.06986327469 1.071424961 -0.5619531274 0.3860085607 0.7122574449
0.1817505062 -0.06597876549 1.076779723 -0.5948860049 0.2820828259 0.7079539895
0.1746716648 -0.05438034981 1.066885471 -0.401597321 -0.07397186756 0.9002367258
0.1939506084 -0.09892430902 1.104435682 -0.8038579822 0.135119006 0.5686240792
0.2011627704 -0.09963653982 1.125258088 -0.8742094636 0.116885215 0.4694781005
0.197455734 -0.09966222942 1.111366153 -0.8076062202 0.1183107942 0.5612466335
0.1837551594 -0.1026248559 1.090833902 -0.5128628016 0.2544067502 0.7929010987
0.1831088811 -0.1081142724 1.095156193 -0.4729948938 0.3550640345 0.7886875868
0.1882066578 -0.1143226177 1.108915091 -0.656208694 0.4437265098 0.6014559269
0.1896061599 -0.1020488963 1.100804925 -0.7673174739 0.2097734809 0.5733982325
0.152429238 -0.0373723954 1.067000031 -0.03596875817 -0.497402072 0.851561904
0.1599818915 -0.03562594578 1.067000151 -0.1226654351 -0.4441659749 0.8622726202
0.1506104171 -0.02915353328 1.067000151 -0.04742899537 -0.2100657076 0.9129931331
0.1450476795 -0.02707566693 1.068914533 0.04752647504 -0.2227556109 0.902089119
0.1646195501 -0.1067420989 1.090934992 -0.02248651348 0.3685329556 0.9270752072
0.1531646848 -0.1018833518 1.080895901 -0.03809475526 0.5570104718 0.8049245477
0.1571677476 -0.1113248169 1.090778112 0.09492921084 0.4623294473 0.8653309345
0.1474956274 -0.09681627154 1.075944901 -0.04210693389 0.6340985298 0.7506536245
0.1719986051 -0.1061094627 1.089872241 -0.1883990616 0.3206157684 0.9005124569
0.1662981212 -0.1124995127 1.092584252 -0.02757880464 0.3709828258 0.9154008031
0.1763260365 -0.110594824 1.09238565 -0.3097082973 0.3598905802 0.869385004
0.1536047757 -0.09438125044 1.077104688 -0.1374771595 0.5744235516 0.7746850848
0.1780618727 -0.1018674821 1.087011933 -0.3671419919 0.2861256003 0.8666313887
0.1664679348 -0.09404174984 1.078971267 -0.3524819016 0.4671820402 0.7748018503
0.1635829359 -0.09872812778 1.084073663 -0.1711217314 0.4383870661 0.8469594121
0.1690220088 -0.1011754274 1.086535096 -0.2107889801 0.3670737445 0.8725094795
0.1603424698 -0.08493515104 1.072436452 -0.3833459318 0.652336061 0.6433386207
0.1733990759 -0.09550344944 1.081336975 -0.4161754251 0.4060306549 0.7797527909
0.1673164666 -0.06379467994 1.06599772 -0.3692515492 0.1407309473 0.9111591578
0.1738995463 -0.06455202401 1.066786885 -0.5058230162 0.1814006716 0.8334507942
0.1750482172 -0.07158441097 1.066997528 -0.4703987539 0.4344980717 0.7618795633
0.1672036946 -0.07138617337 1.066880822 -0.3866620362 0.4188507795 0.8117181063
0.1788406074 -0.06099036708 1.067000031 -0.5264877677 0.1061746404 0.8384724855
0.1618393958 -0.04219472408 1.065564632 -0.1683082432 -0.4088113606 0.8916326761
0.1600003392 -0.04999098927 1.06357646 -0.2192972898 -0.2427054644 0.9393168092
0.1630824655 -0.03085650317 1.074748755 -0.1336001158 -0.6185916066 0.772197783
0.1546385586 -0.03350188583 1.071449161 0.007659330964 -0.5693277717 0.8169333339
0.1570278406 -0.02703132667 1.075362325 -0.07057208568 -0.5309966803 0.7859548926
0.1447555423 -0.02037288807 1.074104071 -0.1822265387 -0.3525723219 0.8841440678
0.1630129069 -0.02008572407 1.08368206 -0.1648741663 -0.6543167233 0.7353531718
0.1549999118 -0.02034766413 1.079381347 -0.1714931726 -0.5223260522 0.8006535769
