# .PCD v0.7 - Point Cloud Data file format
VERSION 0.7
FIELDS x y z normal_x normal_y normal_z
SIZE 4 4 4 4 4 4
TYPE F F F F F F
COUNT 1 1 1 1 1 1
WIDTH 512
HEIGHT 1
VIEWPOINT 0 0 0 1 0 0 0
POINTS 512
DATA ascii
-0.1881592125 0.01962606795 1.10596168 0.9837261438 0.005048064515 -0.1778873056
-0.1164077669 -0.0913611576 1.142056465 -0.02529142983 0.1687699556 0.9853309393
-0.132492587 -0.08815737069 1.14334631 -0.02529142983 0.1687699556 0.9853309393
-0.1271104515 -0.0917853415 1.14215076 -0.02529142983 0.1687699556 0.9853309393
-0.1093276888 0.06513375789 1.024530053 -0.4539216161 -0.1611991376 0.8647392988
-0.1016296595 0.06461316347 1.029622555 -0.536403954 -0.1478999257 0.8207021952
-0.1159022078 0.07008011639 1.023640037 -0.3743135035 -0.2767901421 0.8767989278
-0.1083534509 0.06919843704 1.028348684 -0.4559520781 -0.2551545799 0.8357223868
-0.1216759011 -0.09187851846 1.142248988 -0.02529142983 0.1687699556 0.9853309393
-0.1179428175 -0.07998719066 1.146567106 -0.02529142983 0.1687699556 0.9853309393
-0.1255345941 -0.08520130813 1.144519567 -0.02529142983 0.1687699556 0.9853309393
-0.03977433592 -0.01218204666 1.130909562 0.04271657392 0.2458025217 0.9683782458
-0.03672676906 -0.0108601898 1.124847412 0.04271657392 0.2458025217 0.9683782458
-0.03774637729 -0.02012583055 1.129481196 0.04271657392 0.2458025217 0.9683782458
-0.04160223901 -0.01706434414 1.123977542 0.04271657392 0.2458025217 0.9683782458
-0.04298225418 -0.02137141116 1.126853704 0.04271657392 0.2458025217 0.9683782458
-0.1843055189 0.008109209128 1.108131886 0.9863728285 -0.07496077567 -0.1262848973
-0.1859749258 0.01426004339 1.107967973 0.9876989722 -0.03795969486 -0.1378681362
-0.09108225256 0.0578269437 1.042989492 -0.6045094132 -0.1123639643 0.7880276442
-0.08942777663 0.05602892861 1.036163211 -0.6073155999 -0.09824427217 0.7882066965
-0.09444840997 0.06449850649 1.041627169 -0.6007313132 -0.13137348 0.787786603
-0.09426166862 0.06199230999 1.03417778 -0.5997448564 -0.1202663854 0.7907012701
-0.2291147858 0.02058497816 1.043922067 0.08608458191 0.3107991815 0.9451502562
-0.2345865071 0.01830886863 1.044601202 0.09904896468 0.3259004653 0.9361178279
-0.2364934534 0.02631548978 1.038076758 0.05455696583 0.2793230712 0.9586157203
-0.230963707 0.01544222329 1.047511935 0.1148240194 0.3416672945 0.9293518662
-0.2336925417 0.0108986767 1.050834537 0.1399388015 0.3706659079 0.914660573
-0.2270835638 0.02070431598 1.050417542 0.06505876034 0.3217693269 0.9438986778
-0.1119673774 -0.08286798745 1.145855665 -0.02529142983 0.1687699556 0.9853309393
-0.1007056758 -0.08666726947 1.144794106 -0.02529142983 0.1687699556 0.9853309393
-0.09761365503 0.0564446561 1.030747056 -0.5590114594 -0.06676983833 0.8228619099
-0.1029184759 0.0563615486 1.028507352 -0.5264533162 -0.04555404931 0.8460914493
-0.1109786928 0.07389904559 1.033078909 -0.4750811756 -0.250292778 0.8415620327
-0.09954997152 0.07000485808 1.037641287 -0.5897480845 -0.1660184264 0.7897264957
-0.09766031057 0.06619884074 1.034653783 -0.5925380588 -0.1405016035 0.7925314307
-0.09372153133 0.05237216502 1.04123342 -0.6071105003 -0.09927625954 0.7881936431
-0.1134041324 -0.07751709223 1.14222157 -0.02529142983 0.1687699556 0.9853309393
-0.1086850166 -0.07895839959 1.143967628 -0.02529142983 0.1687699556 0.9853309393
-0.1270561963 -0.0822019726 1.140033603 -0.02529142983 0.1687699556 0.9853309393
-0.1225420088 -0.07886114717 1.13836205 -0.02529142983 0.1687699556 0.9853309393
-0.1226638556 -0.08074707538 1.143155336 -0.02529142983 0.1687699556 0.9853309393
-0.1170575619 -0.08566106111 1.140311122 -0.02529142983 0.1687699556 0.9853309393
-0.110673517 -0.09073058516 1.142094016 -0.02529142983 0.1687699556 0.9853309393
-0.04202636331 -0.008406748995 1.128066421 0.04271657392 0.2458025217 0.9683782458
-0.04852401465 -0.04659857973 1.13684094 0.04175057635 0.2245438248 0.9732134342
-0.04939512163 -0.05180858821 1.134546757 0.09184040874 0.1879813671 0.9777798653
-0.05547589809 -0.06233802065 1.138899565 0.09562359005 0.2042786628 0.9739362597
-0.05282459408 -0.05503834039 1.138272762 0.06972517073 0.2147635221 0.9733089805
-0.05653376132 -0.05160081014 1.13470614 0.102655828 0.1886298954 0.9766094089
-0.05770476907 -0.04650967196 1.135027051 0.1018620133 0.1851758957 0.9773614407
-0.2352120429 0.02409093641 1.043447137 0.06930555403 0.3054516315 0.9487822652
-0.2333460897 0.01665127464 1.052406907 0.1047057211 0.359377414 0.9268413186
-0.2334634215 0.02928595245 1.042975545 0.04665741324 0.2363789529 0.968377471
-0.108742781 0.05902037024 1.024720669 -0.4740667343 -0.06608580798 0.8737357259
-0.1129880622 0.06340976059 1.020622611 -0.4187247455 -0.122176975 0.8967244625
-0.1317103803 0.03496765718 1.020873547 -0.2710771859 0.0604666546 0.952072382
-0.1300122887 0.04007071257 1.021430016 -0.2787026465 0.04322574288 0.9559276104
-0.1562363654 0.05420777574 1.016342521 0.0790297538 -0.1272976249 0.9826906323
-0.1645319909 0.04642990232 1.015179157 0.3425604105 -0.04045870155 0.9354006648
-0.1619683802 0.05747162923 1.016560435 0.2205536216 -0.1574263871 0.9504956603
-0.1594242454 0.04724605754 1.015051842 0.1903923154 -0.07122705877 0.9652014971
-0.1368999779 0.06358973682 1.019402385 -0.09523203969 -0.1503947526 0.983355999
-0.1271029264 0.06522285193 1.019835711 -0.2351280153 -0.1529991627 0.9475749135
-0.1236779243 0.06871695817 1.021170139 -0.2907285392 -0.1959288567 0.9257416725
-0.1050525531 0.07222642004 1.03600204 -0.5381211638 -0.2059417963 0.8137865663
-0.1025843397 0.07418788224 1.04183352 -0.5644000769 -0.1857402921 0.8018829226
-0.09290858358 0.04481944814 1.041037679 -0.5717306733 -0.06331751496 0.8175808191
-0.08916334063 0.04937320575 1.042521358 -0.5969026089 -0.08169134706 0.797288239
-0.1100261956 0.04483553022 1.028183341 -0.4447176754 0.1517399698 0.8820769191
-0.1966974884 -0.0227223672 1.091301799 0.513477385 0.2234117836 0.373028636
-0.2036005408 -0.02820052393 1.076038957 0.2184425294 0.5161753893 0.6940577626
-0.1994060129 -0.02423379943 1.085889101 0.414275527 0.3242729008 0.481202364
-0.189222306 -0.01525732502 1.101780891 0.8122684956 -0.05691765621 0.04945718497
-0.1937471777 -0.01785839163 1.100017548 0.7043591738 0.04369751364 0.1662561148
-0.1887005568 0.02116418257 1.059179783 0.4753353298 0.2552824318 0.6252119541
-0.1874694526 0.01947643422 1.078793406 0.6691563129 0.1611440629 0.2971011996
-0.1873205751 0.009820450097 1.055091262 0.2492330968 0.3337410986 0.800571084
-0.1872007698 0.01974463277 1.084830046 0.7413170934 0.1282076389 0.18891114
-0.188173607 0.01359561831 1.048689246 0.2371635437 0.3482483327 0.8781797886
-0.1879859716 0.01512705907 1.056612968 0.3506068289 0.2990835309 0.7253850698
-0.1873504817 0.01239073556 1.061592102 0.3631675839 0.2867948711 0.6631959081
-0.1868651956 0.01432933379 1.076506615 0.5617092252 0.1990026087 0.3842296898
-0.1873004287 0.01527428161 1.070533514 0.5095264316 0.2255031914 0.4802099466
-0.1879433542 0.0209469758 1.073507786 0.6330518126 0.181403324 0.3762328327
-0.1887881905 0.01902849413 1.05156064 0.3557233512 0.3058934808 0.7781988382
-0.1934843659 0.01633755118 1.051689863 0.2764897346 0.3132360876 0.7894812822
-0.1882365942 0.02136215195 1.091345191 0.8317633867 0.08474168926 0.05751795694
-0.1887716949 0.02127869241 1.068161607 0.5743659735 0.2071540207 0.4657295048
-0.1912172884 0.01900152303 1.046806097 0.2854348421 0.3285263777 0.8569504023
-0.2033073157 0.007881944999 1.062483788 0.2420333922 0.3066188693 0.7266561985
-0.1977599263 0.01536596473 1.08212769 0.5935100317 0.1724229753 0.294318527
-0.1970589459 0.01747651957 1.087535381 0.6854640245 0.1375015676 0.1744448841
-0.1909673512 0.02147593349 1.098510861 0.8992421031 0.05520185828 -0.06401547045
-0.1941715479 0.01558743697 1.063593149 0.3997965455 0.256106317 0.5980749726
-0.1970641315 0.01281415299 1.072535276 0.4561861753 0.226046145 0.4899799824
-0.195501864 0.01428290643 1.047082782 0.1812306046 0.3465782404 0.8897216916
-0.1919571012 0.01774499193 1.081170917 0.6461866498 0.155601114 0.2765572667
-0.193159461 0.01657085866 1.069735527 0.4899834991 0.2197365165 0.4824348092
-0.1984327137 0.01146661676 1.051656842 0.1851762831 0.3388097584 0.8544583321
-0.200203225 0.009768982418 1.057034016 0.2185508013 0.3208969533 0.7898874879
-0.1987548769 0.01117832866 1.067252636 0.3645482659 0.2616257966 0.6007561088
-0.1959471852 0.01387102064 1.059142828 0.3165714741 0.2879210114 0.6962435842
-0.2005688697 0.003983523231 1.048937201 0.1137917861 0.3647549152 0.92388767
-0.2034920901 -0.005985713098 1.056709528 0.09428083897 0.4305384457 0.8943492174
-0.2039503157 0.000778893067 1.054397345 0.08650209755 0.3864818811 0.9169068933
-0.1962597519 0.01175882574 1.08657074 0.6267430186 0.1402970254 0.2442478687
-0.1933707446 0.01518947724 1.099180579 0.8344786167 0.05142384768 -0.01623557508
-0.1970386654 -0.0004432217393 1.059449911 0.1801748723 0.3477523923 0.8124687076
-0.1947641075 0.006118781399 1.07749939 0.4774461985 0.2149574459 0.4368864596
-0.1994250417 0.01040392742 1.07781136 0.4823940992 0.1985553354 0.4234887958
-0.198044166 0.002545807278 1.063860059 0.2527453899 0.3106201589 0.7184069753
-0.2038173974 0.004998280667 1.058240414 0.1599868685 0.3367633224 0.8279001713
-0.197280854 0.00526878098 1.071012735 0.3705443144 0.2575809956 0.5693660378
-0.196257934 0.01558328141 1.092405319 0.7330765724 0.09798143804 0.1091085002
-0.1958142221 0.01975693181 1.095379233 0.8128315806 0.0847388953 0.009410472587
-0.193144694 0.01791797951 1.104773879 0.929215312 0.009556935169 -0.1365745813
-0.2261532992 0.01192729641 1.052684784 0.1331179738 0.3586930335 0.9231234193
-0.1274363399 0.06916389614 1.024840593 -0.2479664683 -0.2151584923 0.9386261106
-0.1217457503 0.06929978728 1.027396679 -0.3270607889 -0.2175845653 0.910543561
-0.1252570897 0.07449641824 1.025137663 -0.2787308097 -0.3241584599 0.898575902
-0.1307931244 0.07410123944 1.024625063 -0.2066472322 -0.2525137365 0.9368082881
-0.1314098835 0.06362500787 1.0225209 -0.1707009673 -0.1632483304 0.9683992267
-0.1312476546 0.04950876907 1.022019506 -0.2214056402 -0.02817909792 0.9733109474
-0.1225025281 0.04191518575 1.023147941 -0.3236760497 0.1124681085 0.9303339124
-0.1254682839 0.05631143227 1.018606544 -0.2286679298 -0.04469560459 0.9678432941
-0.1337085813 0.05563990027 1.017501116 -0.1655225903 -0.04460506886 0.9825362563
-0.1205304489 0.0627868399 1.018914223 -0.3225625157 -0.1216722354 0.929261446
-0.1378439665 0.04081982002 1.01630652 -0.1638401747 -0.02498817444 0.9836086631
-0.1340245456 0.04499185458 1.017960906 -0.1927033812 -0.0174888745 0.9794430137
-0.1443224698 0.03053386696 1.012402534 -0.101760976 -0.01325600874 0.9924439788
-0.1406307071 0.03448029235 1.013647676 -0.1214984879 -0.004008581862 0.9897710681
-0.1374064237 0.04987886921 1.016373515 -0.137530297 -0.03578782454 0.9891885519
-0.1401760131 0.04554316401 1.014985204 -0.1102175266 -0.03351300582 0.9918920398
-0.1450092345 0.03712172806 1.012872338 -0.07119200379 -0.03176346794 0.9948824644
-0.08052162826 -0.06350363046 1.142134666 0.05301008001 0.1897219718 0.9796254635
-0.0755508393 -0.0589039959 1.140218973 0.08007585257 0.2020560354 0.9754508138
-0.05075552687 -0.02241513506 1.12841773 0.04271657392 0.2458025217 0.9683782458
-0.04064193368 -0.00641232403 1.118728757 0.04271657392 0.2458025217 0.9683782458
-0.0423300378 -0.01137831341 1.119907975 0.04271657392 0.2458025217 0.9683782458
-0.04888265952 -0.01887160912 1.123844862 0.04271657392 0.2458025217 0.9683782458
-0.04574457929 -0.01370745152 1.123995781 0.04271657392 0.2458025217 0.9683782458
-0.05929825455 -0.03548543528 1.133097172 0.0657608062 0.2236181349 0.9722735286
-0.05454401672 -0.02787401341 1.128653169 0.0501717329 0.2386255264 0.9696384072
-0.06295145303 -0.04396915808 1.135044098 0.1036778614 0.1922951937 0.9754217267
-0.05880910158 -0.04070366547 1.134085059 0.07968435436 0.2113865465 0.973118186
-0.2119664103 -0.02127079666 1.06459868 0.1335762888 0.5832287669 0.7999104261
-0.220386833 -0.02374905534 1.069720149 0.1530257165 0.5592674613 0.8143385649
-0.2296589464 -0.02042691223 1.070000052 0.1587427258 0.5250152349 0.835973978
-0.08110830188 -0.08204190433 1.144701481 -0.008959352039 0.2118001282 0.9767759442
-0.1063326374 -0.08583362401 1.143596172 -0.02529142983 0.1687699556 0.9853309393
-0.1026440114 -0.07684054971 1.145546198 -0.02529142983 0.1687699556 0.9853309393
-0.08656292409 -0.07686570287 1.144979 -0.02518884093 0.2015639693 0.9790812731
-0.09508273751 -0.0829885453 1.145463347 -0.02528541163 0.170693785 0.9849643111
-0.08952926844 -0.08202614635 1.145091057 -0.02522013709 0.1915596873 0.9809878469
-0.0853485465 -0.07147505879 1.144456744 -0.002723941579 0.1971870661 0.9799515009
-0.09321852028 -0.07454106957 1.145223975 -0.02525673248 0.1798615009 0.9832171798
-0.09084832668 -0.0694174543 1.144865274 -0.01974334382 0.2039581537 0.9786337614
-0.1546749324 0.0340609774 1.013094306 0.1064987183 -0.0664287433 0.9918571115
-0.1375434101 0.05395888165 1.022000194 -0.1662906259 -0.0788218081 0.9754103422
-0.1378362775 0.07052998245 1.022751093 -0.1118032336 -0.214920193 0.9689266086
-0.1441504955 0.07189878821 1.021305919 -0.05042245239 -0.2051036358 0.977286458
-0.1622966975 0.06411389261 1.017324805 0.2182168216 -0.2216078639 0.9456903338
-0.1439537853 0.06390688568 1.021678805 -0.07191817462 -0.153311342 0.9837912917
-0.1422120631 0.05049328133 1.020346165 -0.1381857097 -0.09865873307 0.9813408256
-0.1402531564 0.04508588463 1.02021873 -0.1775452793 -0.0676054135 0.9781659842
-0.1356280446 0.03988880292 1.021931529 -0.2427813262 -0.01793665811 0.9681720734
-0.1520230323 0.04700008407 1.014738083 0.01515862159 -0.09056706727 0.9930490851
-0.1452262849 0.05384247378 1.01687181 -0.1041186675 -0.1049287319 0.9864866138
-0.1678237915 0.05951919779 1.01710403 0.3355055153 -0.1608090699 0.9227280617
-0.16583018 0.05233027786 1.015990257 0.3389789462 -0.09667064995 0.9300555587
-0.1713342071 0.05614220351 1.018364429 0.4355279505 -0.1168849468 0.8887614608
-0.1550284326 0.07058118284 1.022050738 0.1081307307 -0.2622413635 0.9577625394
-0.149838984 0.07062307 1.022498965 0.03701717407 -0.2253146917 0.9679765701
-0.1512757838 0.06729605049 1.018433571 0.05159224197 -0.2143097818 0.9724030495
-0.1605822444 0.07043010741 1.021695256 0.1897200942 -0.2515085638 0.9487080574
-0.0986508131 0.04302567989 1.03334558 -0.5209599733 0.05278339237 0.846916914
-0.09944759309 0.0511739403 1.031064987 -0.5242143273 0.02503766306 0.8387758732
-0.09582096338 0.04833203182 1.033215523 -0.5483842492 0.002503623953 0.8274120092
-0.09074407071 0.05004754663 1.03598547 -0.5880848169 -0.06633562595 0.8038660884
-0.0943659991 0.03996014968 1.038277745 -0.5485043526 -0.002500067698 0.8339779377
-0.1960279942 -0.009465490468 1.071828604 0.3476138115 0.2423431873 0.6193015575
-0.200477168 -0.01423024759 1.071804047 0.3083057404 0.3205238283 0.6399286985
-0.1954696625 -0.006591851823 1.062854886 0.2202904969 0.3169017434 0.7734507322
-0.2013757229 -0.01240615454 1.060807705 0.1384302974 0.4396170378 0.8360068798
-0.1986678392 -0.01079393085 1.065902352 0.2371937335 0.3442921042 0.7347598672
-0.1939188093 -0.009872745723 1.08235693 0.5211912394 0.1064384431 0.4258991182
-0.190512538 -0.005290947855 1.07869184 0.4970098436 0.08120726049 0.4744293988
-0.183858946 -0.01417694148 1.097714186 0.7240726352 0.03120436892 0.07321847975
-0.1805833876 -0.01033097133 1.099861026 0.8230848908 -0.02858341672 0.01775372587
-0.1843850464 -0.01690053567 1.092767239 0.580036819 0.1561571956 0.1788984239
-0.1921412796 0.008713384159 1.092879176 0.7307958007 0.0633213073 0.1343450695
-0.1925080121 -0.004576024599 1.068934083 0.3365494609 0.2095892429 0.6518960595
-0.1860960126 -0.002600120148 1.10654676 0.9561765194 -0.2354329973 -0.05784183368
-0.1923829466 0.005488428753 1.086250544 0.6216514111 0.1089809388 0.2751356661
-0.1902832985 -0.0004690652131 1.087643147 0.644703567 0.02381330729 0.2817978859
-0.1885059923 -0.003747403855 1.091740608 0.7122681737 -0.06445913762 0.2235633731
-0.1937977672 0.0001983671391 1.069922566 0.3527471721 0.2516838312 0.6074488759
-0.1943679601 -0.001350686885 1.064306378 0.2602491677 0.3038497269 0.7202745676
-0.1885759532 0.001387501135 1.099858999 0.8459237814 -0.1068837717 0.04465362802
-0.1907768846 0.0107379863 1.103535891 0.9063279629 -0.04608277231 -0.07474577427
-0.1867441088 -0.004086445086 1.100616932 0.8585109115 -0.1786545664 0.06046872213
-0.1922790408 -0.001819203026 1.074720263 0.4318256974 0.1690672934 0.5293146968
-0.1904575676 0.007065221202 1.099171519 0.8344920278 -0.033666417 0.02641818672
-0.1895336658 -0.005296000745 1.083674669 0.5794119239 0.01816176064 0.3819083869
-0.1901890934 0.00265115709 1.093308687 0.7379838824 -0.01106852759 0.159475401
-0.1879543811 0.003663537325 1.106952906 0.9627527595 -0.1691366285 -0.09960194677
-0.1918837577 0.01416555978 1.110228777 0.9782348275 -0.06676400453 -0.1773153991
-0.1817526817 -0.008106192574 1.106247187 0.9770073295 -0.1833769083 -0.1017175019
-0.1867017448 0.00654537091 1.113465428 0.9839625955 -0.1022838727 -0.1361127943
-0.1823979467 -0.0007560245576 1.109954953 0.9841117859 -0.1336798817 -0.1095418856
-0.2273755074 0.03878083453 1.042329311 0.08411785215 0.1134046167 0.9883100986
-0.2295727581 0.03417234495 1.044900775 0.0808307305 0.1749185771 0.9757453203
-0.2292167693 0.02547299862 1.049653053 0.07250075787 0.2892575562 0.9498945475
-0.2271272093 0.03048309498 1.048125148 0.0802904591 0.2273340374 0.9615748525
-0.1798178703 0.04519735649 1.026298404 0.5987390876 -0.03719330207 0.7973675132
-0.09820073843 0.03769097477 1.034896731 -0.5183146596 0.07680776715 0.8506420851
-0.1043533385 0.03965631872 1.033705473 -0.4900816977 0.135776639 0.857360661
-0.1081445292 0.05358364806 1.026660204 -0.4782420397 0.01764847338 0.8749091625
-0.1273082942 0.05946466699 1.022841096 -0.2161489874 -0.08600247651 0.9669746161
-0.1227735728 0.05679666623 1.024239302 -0.2996397018 -0.05303591117 0.9365731478
-0.1200348064 0.05179963261 1.024607658 -0.3390273154 0.02922105789 0.9243316054
-0.1265137196 0.05257615075 1.022574306 -0.2374278456 0.01657026447 0.9635552168
-0.1156736314 0.0417313464 1.028164268 -0.3961673379 0.1472868919 0.8983906507
-0.1159585863 0.05331738666 1.021285892 -0.3757648766 0.02375816554 0.923335731
-0.1214470342 0.05310374871 1.019142151 -0.2944301963 0.0006915442646 0.9522384405
-0.118789427 0.04652628675 1.023391485 -0.3546606898 0.09821724892 0.9227951169
-0.1188057885 0.03710603714 1.027097583 -0.3889853656 0.1653301716 0.902870357
-0.1248895302 0.03745463863 1.024686575 -0.3433658481 0.107647799 0.9323540926
-0.1241292804 0.04687095433 1.020916581 -0.2697956264 0.06378817558 0.9533073902
-0.06370973587 -0.0593663305 1.136303425 0.1050074995 0.2035314441 0.9734107852
-0.06864292175 -0.05734751001 1.137764812 0.10519097 0.2078908086 0.9724790454
-0.06786429882 -0.05098726228 1.137759209 0.1044766307 0.1942208856 0.9752783775
-0.06441302598 -0.06466946006 1.138086557 0.1048467606 0.1939328015 0.9750435352
-0.06916069984 -0.06210497767 1.141000032 0.09381044656 0.2063101083 0.9739791155
-0.05337449163 -0.04359697923 1.134281754 0.08005102724 0.2004002929 0.9758430719
-0.0463478975 -0.0355620943 1.132598877 0.04814058542 0.2392064035 0.9694627523
-0.05079416931 -0.03132069856 1.128481984 0.05332327634 0.2329037637 0.9704989791
-0.04958594218 -0.04095327854 1.131351233 0.07215022296 0.2100084275 0.97426337
-0.05330172181 -0.03517280519 1.131416082 0.05001073331 0.2369321287 0.9698366523
-0.04363330826 -0.03086579591 1.132167578 0.04271657392 0.2458025217 0.9683782458
-0.04054715484 -0.02686370537 1.131955147 0.04271657392 0.2458025217 0.9683782458
-0.04319644347 -0.01695280708 1.130705476 0.04271657392 0.2458025217 0.9683782458
-0.2232573777 0.007597407792 1.050817966 0.1556342989 0.3569770753 0.9181001782
-0.2304356098 0.00260341051 1.055193543 0.184962526 0.4017168581 0.8966178298
-0.2204773426 0.01235174946 1.048357964 0.1439024508 0.3368480206 0.9284469485
-0.2241367996 -0.00829290878 1.055208564 0.17794168 0.4217072129 0.8880602717
-0.2219935805 0.03087033145 1.049967885 0.1141265705 0.2192274332 0.9520532489
-0.2159905881 0.03867831454 1.048976302 0.1669258475 0.1120057479 0.9607373476
-0.2139648199 0.04521956667 1.048766136 0.2042285055 0.05794028565 0.9636594057
-0.2219877839 0.03887321055 1.046336889 0.1069959253 0.1235427707 0.9767919779
-0.2108075321 -0.01790799946 1.059428573 0.130948022 0.5196291804 0.8425177932
-0.2065753639 -0.02232021652 1.062824249 0.1321596503 0.557931602 0.8178774118
-0.2157597691 -0.01389510557 1.056631804 0.1314894408 0.4824001193 0.8656871915
-0.2173887938 -0.02114459872 1.065778017 0.1418425143 0.5724939704 0.8058424592
-0.2234761417 -0.01466080453 1.058605909 0.151602149 0.4641289413 0.870654583
-0.2270368487 -0.01835824922 1.062909484 0.1633226126 0.5026031733 0.8457500935
-0.2214976847 -0.01853079721 1.062278509 0.1433765739 0.5109793544 0.8457362056
-0.2320028841 -0.01334160753 1.058691382 0.182508558 0.4309809804 0.8823211789
-0.2279876769 -0.01188588887 1.062875628 0.1584814042 0.46134606 0.8716555238
-0.2302068919 -0.01546493173 1.066592216 0.1578807533 0.4841300845 0.8575776219
-0.1971134841 0.007786913775 1.04679203 0.1086004227 0.363594979 0.9249922037
-0.2105744034 0.01393491868 1.045437574 0.1531604379 0.3232145309 0.9336012602
-0.1660663784 0.03331737965 1.01558733 0.3227022886 -0.02888084389 0.9392519593
-0.1705338508 0.03345713392 1.019298911 0.4389269054 0.005176000297 0.8941022158
-0.1619242132 0.04086074978 1.014400959 0.2567395568 -0.04328289628 0.9569160938
-0.1602436751 0.03546990827 1.013765931 0.2254634351 -0.0445692353 0.9680449963
-0.1394504309 0.05839278921 1.017763972 -0.1229197755 -0.07702991366 0.9879603982
-0.1481349766 0.06068614125 1.017747521 -0.04647272825 -0.1515260488 0.9813619256
-0.1550401449 0.06349553168 1.017424583 0.09717872739 -0.2017113566 0.9738616943
-0.1585538387 0.03277261555 1.021939039 0.2339727581 -0.0148218032 0.9137016535
-0.1453987509 0.03456861153 1.020104527 -0.06050952151 -0.01063968241 0.9658913016
-0.1450543106 0.04187129065 1.019721389 -0.1070232168 -0.07394330949 0.9735406041
-0.1641883105 0.03225531057 1.022061586 0.3536757827 -0.02004258893 0.8982227445
-0.15383102 0.03533593938 1.021663666 0.1216692179 -0.02919896878 0.9292787313
-0.1492820382 0.0390400812 1.020527363 0.0005468003219 -0.05537592247 0.9536684752
-0.1488616019 0.03293893114 1.0167135 -0.01096764021 -0.02624486759 0.985270679
-0.1588339508 0.03033818305 1.016976595 0.206188947 -0.0376723446 0.950861454
-0.1520989686 0.02832639031 1.012252808 0.03657051921 -0.04899345711 0.9961265326
-0.1527410448 0.03944456205 1.013210654 0.03254374862 -0.07016953081 0.9946590662
-0.1369732469 0.03474539891 1.020967722 -0.2276560515 -0.001123858383 0.9705478549
-0.157631427 0.06558319926 1.022000074 0.1840264499 -0.2110801041 0.9430624843
-0.1618516445 0.06119983271 1.022000074 0.2820695043 -0.1585962772 0.9219834208
-0.1514655054 0.06324071437 1.021865249 0.08117695898 -0.150116995 0.9580040574
-0.1539780945 0.05701088533 1.02110064 0.1112686843 -0.1296824068 0.9492921829
-0.159854874 0.05366916582 1.020980597 0.2247110307 -0.1156230867 0.9273334146
-0.1472405344 0.04816944152 1.019355655 -0.06738325208 -0.1077295691 0.9762527347
-0.1526608616 0.04986665398 1.01995492 0.055574812 -0.1091205701 0.9553261399
-0.1484806836 0.05516465008 1.020474315 -0.0139166154 -0.1278964281 0.970533967
-0.1704254895 0.05962281302 1.025483608 0.4255435169 -0.1495372206 0.8726263642
-0.1775650829 0.06058445573 1.030102968 0.5225914121 -0.144475013 0.8287693858
-0.1652936488 0.06555850804 1.025316358 0.3026272655 -0.2158223391 0.9018469453
-0.1757929176 0.05586251989 1.021901846 0.5266224146 -0.1024262235 0.8421974778
-0.1695588827 0.06626936048 1.020339727 0.3357506394 -0.2020485401 0.9124222398
-0.1739539951 0.06418190897 1.023064852 0.4209539592 -0.1779563278 0.8806935549
-0.1910932511 -0.02457264438 1.061170936 0.0863609463 0.5133799314 0.85368222
-0.1933718473 -0.01964055933 1.057569861 0.08277390152 0.4919380546 0.8659614325
-0.2008565813 -0.02130513079 1.061125398 0.1142663732 0.5229616165 0.8423091769
-0.200560227 -0.01815073937 1.078428388 0.3747144938 0.317394644 0.5553351045
-0.1942426115 -0.01308666635 1.089316368 0.6052876115 0.07624616474 0.3215767443
-0.1905845553 -0.009441142902 1.094434261 0.727152586 -0.0632879287 0.2010591179
-0.2037112117 -0.02062878571 1.072918415 0.2589341402 0.4376770556 0.6729176641
-0.2036641091 -0.01723857038 1.067422986 0.2059326917 0.4363351166 0.7408958673
-0.1974427402 -0.01439099107 1.081703901 0.467913419 0.1985688359 0.4662059546
-0.2050889432 -0.02845766209 1.069682837 0.1324373037 0.595377624 0.792224586
-0.1967639476 -0.02613800578 1.064235926 0.1023120582 0.5333718657 0.8387972713
-0.1857094765 -0.01481176168 1.064891577 0.23753649 0.3842129111 0.7075602412
-0.1813177317 -0.01116107963 1.093175888 0.7456333637 0.01708351448 0.1571697593
-0.1835508794 -0.01442858204 1.079723835 0.4908112586 0.2042992264 0.4305839241
-0.1844801307 -0.01491546445 1.07355094 0.3825864196 0.2818722129 0.5483472943
-0.186050415 -0.02018193901 1.066048861 0.210849613 0.4146412015 0.7270273566
-0.182806924 -0.01536401547 1.085881591 0.5796351433 0.1452825814 0.3223583996
-0.1865427941 -0.02558269724 1.07606256 0.1332972944 0.5324904919 0.5378929973
-0.1881245077 -0.02964980341 1.069896817 -0.05017594248 0.6824370623 0.6726821065
-0.1852550954 -0.02217864618 1.080362558 0.284637481 0.4054017067 0.4437603056
-0.1854641736 -0.02171065286 1.071757913 0.2817086875 0.3709670603 0.6304063797
-0.1920696348 0.009217130952 1.112718463 0.9761302471 -0.12977314 -0.152743578
-0.1906820387 0.0008924487047 1.111488819 0.9730191827 -0.1666592956 -0.1379280537
-0.2093907148 -0.0230217129 1.075851083 0.2606813312 0.4810164273 0.6645148993
-0.2082380354 -0.0187992882 1.082690358 0.3975213468 0.3405689299 0.5229071379
-0.2008542269 -0.0159089826 1.090027094 0.5383185148 0.2161363661 0.3530833125
-0.1983142942 -0.0102703888 1.101286888 0.7629808187 -0.01235135458 0.1180735901
-0.2135332823 -0.01914358325 1.081446886 0.3776029348 0.3444031179 0.5634750724
-0.2079216987 -0.01570949517 1.088762283 0.5197003484 0.2128598094 0.3992456198
-0.1949989945 -0.01071369741 1.105608821 0.8469314575 -0.09006664157 0.02104747668
-0.191372782 -0.01105083991 1.110336185 0.9387552142 -0.1750703305 -0.08507808298
-0.202206403 -0.01246654708 1.096212983 0.6644243002 0.07888499647 0.2319805026
-0.1983382851 -0.01577346027 1.097720981 0.6910712719 0.06333837658 0.1902244389
-0.204036653 -0.02317018248 1.080155134 0.3422805071 0.4123828411 0.5619104505
-0.2117845118 -0.02549172379 1.07151103 0.1754663587 0.5630489588 0.7592215538
-0.2173826694 -0.0222110562 1.075033188 0.2519791424 0.4642972648 0.7043386698
-0.192361176 -0.01060709823 1.099788547 0.7670510411 -0.03965424746 0.1271473914
-0.1901008189 -0.00772734452 1.105054855 0.870880127 -0.1415200084 0.01412580255
-0.19994317 -0.01926660165 1.084106803 0.4473686218 0.2839446962 0.4672703445
-0.1886517107 -0.005802620668 1.112077475 0.9682751298 -0.2225115597 -0.1033857465
-0.1872032285 0.05363219231 1.03630507 0.5370753407 -0.05784809962 0.8377609849
-0.1940450668 0.05011349544 1.04112947 0.4957055151 -0.006523821969 0.8673588037
-0.1812548786 0.05522419512 1.026184082 0.5832383633 -0.09301061928 0.805229485
-0.2048421949 0.05371624976 1.045321226 0.3197613657 -0.03015674464 0.9356289506
-0.1937980801 0.05667698756 1.039571404 0.4815189242 -0.05958790705 0.8610712886
-0.1978431195 0.05584242567 1.042523503 0.4184058607 -0.05202168226 0.8906838298
-0.1871822625 0.05816222355 1.032752514 0.5774626732 -0.06152234226 0.8120124936
-0.1833974719 0.06023513153 1.028789043 0.5777546763 -0.105319351 0.8085845113
-0.1176475063 0.07392892241 1.026356936 -0.3559345901 -0.3483550251 0.8649787903
-0.1000614241 0.04789294302 1.036792397 -0.5650026202 -0.01305884868 0.8195802569
-0.1000984684 0.0561527051 1.037628651 -0.597289741 -0.1115983129 0.7927994132
-0.1004161835 0.06103722006 1.039886832 -0.5805974007 -0.1379282922 0.7998681068
-0.1012219936 0.06725123525 1.042390585 -0.5598381758 -0.1706731915 0.8086588979
-0.1091477051 0.06740056723 1.033441782 -0.4953350723 -0.2212545723 0.8349679112
-0.1047615856 0.06354567409 1.036793709 -0.5597574711 -0.1587876678 0.8084568977
-0.1133998334 0.0496321097 1.02870369 -0.4274154902 0.02761668339 0.8882014751
-0.1048432216 0.05207021534 1.033476353 -0.5589515567 -0.0501688756 0.8188461065
-0.1069922298 0.05746182427 1.032733679 -0.5282388926 -0.1156443879 0.8281196356
-0.1175303459 0.06464266777 1.028203845 -0.3761647642 -0.1927175522 0.8940777183
-0.122727491 0.06349207461 1.025637865 -0.3055264652 -0.17478396 0.9283006787
-0.1131258979 0.06103617698 1.03025198 -0.4322280586 -0.1473042816 0.8723589182
-0.1174685955 0.05741398782 1.028034329 -0.370995909 -0.09711890668 0.9051856995
-0.07604426891 -0.07971073687 1.144264698 0.0204756204 0.2023491114 0.9773420691
-0.06699179113 -0.07294694334 1.142508864 0.1022235751 0.1492729783 0.9832864404
-0.07251759619 -0.07207211107 1.14304924 0.07204999775 0.1639274061 0.9822999239
-0.08017237484 -0.07163789868 1.143901467 0.02619708702 0.1853740811 0.9806805253
-0.05929887667 -0.06874193996 1.140743732 0.1051927805 0.2070204765 0.9726347327
-0.07647391409 -0.06744648516 1.142389417 0.07566710562 0.1638643295 0.9826657176
-0.058868628 -0.05572536588 1.137955785 0.1066473052 0.1900473982 0.9756568074
-0.2169969976 0.007256919984 1.049129128 0.1717005521 0.3485215902 0.9199354053
-0.2154295892 -0.001829895889 1.052823186 0.1372395307 0.38520509 0.9119032025
-0.2090728283 -0.002685894025 1.052511573 0.1211402044 0.3902378082 0.9124634862
-0.2066795826 -0.01109233592 1.054481387 0.1174750328 0.4502847791 0.8848239183
-0.2145120353 -0.008672716096 1.054712653 0.1300151944 0.4356850982 0.8894475698
-0.2329415977 -0.002169176703 1.058153033 0.204573527 0.393198967 0.8959792256
-0.2269738764 -0.003155789571 1.055454016 0.2171451896 0.3921509981 0.8938145638
-0.2302890718 -0.008460751735 1.056407571 0.2008759379 0.403526634 0.8924096227
-0.2231580913 0.03461506963 1.04098165 0.08154629171 0.0910686031 0.9896947742
-0.2176983058 0.03708312288 1.042470336 0.1063109338 0.03596391156 0.9907265902
-0.2063273787 0.04783480987 1.040167451 0.320671916 -0.02859522961 0.9243494868
-0.1933484524 0.04672732949 1.03506434 0.5017564297 -0.02495934814 0.8436865807
-0.1925329566 0.05233020708 1.036150455 0.5396160483 -0.005174446851 0.8337478042
-0.2000809461 0.0468303524 1.037594557 0.4056223333 -0.0284707658 0.88593328
-0.2181291133 0.04669244587 1.044871449 0.1494677365 0.03681587428 0.9852768183
-0.2100917548 0.05152579397 1.04764688 0.2486186922 -0.008725969121 0.9672498703
-0.1920031458 0.02122333273 1.039968848 0.3047448993 0.2592062354 0.9049323201
-0.1866385341 0.01721034572 1.040097117 0.2495291233 0.3116092384 0.9009109735
-0.1879237741 0.02728423104 1.03304255 0.4174375534 0.1447069943 0.8930568099
-0.183292836 0.02341581695 1.036651492 0.3598147333 0.2451597899 0.8844467998
-0.1770883948 0.05025396124 1.027063847 0.5804722309 -0.04882295802 0.8096287251
-0.1651791185 0.05342655256 1.021582127 0.3418055773 -0.1059351191 0.9026851654
-0.1614733636 0.04628106579 1.021869183 0.2542522252 -0.0585712418 0.8945116401
-0.1674350351 0.04544957727 1.023233294 0.3927141726 -0.03216847777 0.8556107283
-0.1906464845 -0.02008856647 1.093498111 0.5900400281 0.1721040308 0.1956516057
-0.1940534413 -0.0273380056 1.082070708 0.2546171546 0.5164839029 0.4219182432
-0.1931084096 -0.02423988469 1.08710897 0.4135152102 0.3464666605 0.3444667161
-0.1981931478 -0.02965351939 1.079344034 0.2403565496 0.4900611341 0.6091259718
-0.188501671 -0.02415112592 1.083786845 0.2928206623 0.4091089368 0.3722029328
-0.1905243844 -0.02850752324 1.076847076 0.09094856679 0.6128605604 0.5135852695
-0.1929900199 -0.03153419867 1.073028803 -0.02166956104 0.7520156503 0.5853632689
-0.1985751241 -0.03187738359 1.071546316 0.06128368154 0.6594124436 0.7269198895
-0.1875759959 -0.0271042455 1.063673735 0.03903230652 0.5699760318 0.8070572019
-0.1954232156 -0.01324484777 1.053730845 0.0961323306 0.4606763422 0.881598413
-0.1832824498 -0.01117796451 1.050271988 0.08465167135 0.4509930909 0.8875758052
-0.1873340607 -0.02101705782 1.056852937 0.06287609786 0.4992664754 0.8640742898
-0.2011834085 -0.01320578437 1.054767132 0.1044332236 0.4602506161 0.8811593652
-0.1909423918 -0.009138640948 1.050471187 0.1012524813 0.4406431615 0.8916635513
-0.1862240881 -0.01482026465 1.055139899 0.08627471328 0.4823418558 0.8713245392
-0.181420818 -0.005535766017 1.046960115 0.09583996236 0.4237702489 0.9005318284
-0.1902389377 0.004802002572 1.046708822 0.1070583388 0.3790275455 0.9188430309
-0.1883639544 -0.004660888575 1.048823237 0.09957033396 0.4126136303 0.9051311016
-0.1984746158 -0.0003193535667 1.051060557 0.1064215079 0.3825252354 0.9176357388
-0.1933511347 -0.002074322896 1.049880385 0.1029479131 0.3955490887 0.9122567177
-0.1959606856 -0.006931947544 1.051209092 0.1055080071 0.4219228625 0.9001490474
-0.1858584434 0.002202776959 1.050977111 0.108031109 0.38975811 0.9142557979
-0.1745843291 0.01971707121 1.029499412 0.3784871399 0.168035686 0.8767088652
-0.1828880161 0.0002265955991 1.045535088 0.1301844418 0.4041936398 0.9006346464
-0.1759221405 0.01473536063 1.0329566 0.3228664696 0.2192578465 0.881251514
-0.1788248271 0.001303003752 1.041702271 0.1799388677 0.3491633534 0.8920878768
-0.1715561748 0.0280659087 1.023062825 0.4795616567 0.07303576171 0.8675200939
-0.1786055565 0.006882331334 1.038797498 0.2278956771 0.3002652824 0.8911505342
-0.1811474115 0.01568203047 1.036419034 0.271548748 0.2438544035 0.8986498117
-0.1833496839 0.0106153097 1.040575147 0.2056169361 0.3018201888 0.9059277177
-0.1840200126 0.005000312813 1.043835402 0.1522517949 0.3537514508 0.9083934426
-0.179715693 0.0212869253 1.032900453 0.3395113349 0.2125023752 0.8874137402
-0.2210184336 0.0001356363646 1.056073904 0.1770115942 0.3660207093 0.9119566083
-0.2193648517 0.005139351822 1.053970456 0.1790479124 0.3352362514 0.9245874286
-0.2217818052 -0.00567279337 1.058874369 0.1544173956 0.4069449306 0.8968065381
-0.21071814 0.007123317104 1.052257419 0.1095672846 0.3603241742 0.9256411791
-0.2042334974 0.00891185645 1.046728611 0.1272765547 0.3443461955 0.9299433827
-0.216371268 -0.00421800185 1.057535172 0.147867322 0.3971157074 0.9008898735
-0.2194558531 -0.01095189434 1.060855627 0.1330949664 0.4498909712 0.8796280622
-0.2170489579 -0.01557064243 1.062351823 0.1186020002 0.4902454317 0.8627989292
-0.2096436471 -0.01116438862 1.059248805 0.1230741069 0.4606629014 0.8740362525
-0.2091142684 -0.005352646112 1.056988358 0.1233042181 0.4191283882 0.8936958909
-0.2127933353 0.04854992032 1.044428468 0.2127519548 -0.02402900904 0.9754806161
-0.197997719 0.05210826918 1.038439751 0.4567318559 -0.007999611087 0.8703581691
-0.1823273301 0.03135062009 1.034406662 0.5495069027 0.104515858 0.8005879521
-0.176399678 0.02819611505 1.029601097 0.4202943444 0.09662105143 0.8818151355
-0.1789377779 0.03369358927 1.030536175 0.5939315557 0.03489295021 0.7913601995
-0.1794191599 0.04191384465 1.030273199 0.6229397655 -0.01536988001 0.7794377208
-0.1813524961 0.05244154856 1.031832814 0.5817060471 -0.07512544841 0.8067117929
-0.1868594885 0.04809141159 1.034915566 0.5461083651 -0.02099005319 0.8329732418
-0.168617487 0.04086461291 1.025668621 0.4047926068 -0.02056471631 0.8397811055
-0.1746256053 0.04412234947 1.025262713 0.5564222932 -0.004392879549 0.8096689582
-0.17476511 0.03871350735 1.028105378 0.5392563939 0.0005379283684 0.8000617623
-0.1550799161 0.04411443323 1.021076083 0.1030827314 -0.06579938531 0.9248310328
-0.1606606394 0.04077194259 1.024010777 0.2199053466 -0.0454883799 0.8865171075
-0.1690658927 0.03487335891 1.02463603 0.4304584563 -0.01953079551 0.859158814
-0.2061729729 0.02104518749 1.044731975 0.1728422642 0.2569399476 0.9484119415
-0.2143672705 0.01268998161 1.04954195 0.1417420954 0.3390967846 0.9283733368
-0.1726679653 0.05018921942 1.020226598 0.5100700259 -0.07191622257 0.8551260829
-0.1694669574 0.04136060923 1.017668009 0.4669003189 -0.02529031597 0.878688097
-0.1864515841 -0.001510792063 1.056645155 0.134787783 0.3957482874 0.8565981388
-0.1865101904 0.003135924926 1.062032819 0.2499635667 0.3389252126 0.7278912067
-0.1865679622 0.008771266788 1.077824235 0.5213026404 0.2291071266 0.3979553282
-0.1865304261 0.003912578803 1.055681944 0.1660867333 0.3614687324 0.8425511718
-0.1866078526 0.01213837508 1.083516359 0.6301935911 0.1800303161 0.2711102664
-0.1865062565 0.003577123629 1.069147468 0.3548084795 0.3043530285 0.5916706324
-0.1865747571 0.008009690791 1.065538049 0.3402533829 0.2888060212 0.6331865191
-0.1820258796 0.003071624087 1.101863503 0.9430683851 -0.07334166765 -0.0661245212
-0.1862203181 0.0163808465 1.094687819 0.8366856575 0.07741495967 0.0316539295
-0.1834108382 0.006899446715 1.098468065 0.8884565234 -0.01464852411 -0.01114265248
-0.1837972999 -0.005045908503 1.073959708 0.4257993996 0.2064302713 0.5253497362
-0.1852492392 0.00964910537 1.089739919 0.7358074188 0.09993427992 0.1552070379
-0.1858201623 0.004115734249 1.075465202 0.4687990248 0.2359902114 0.4626594782
-0.1816903502 -0.004075439647 1.0914253 0.7424585819 0.01027429756 0.1696353257
-0.1835967153 0.0017545952 1.087767482 0.6865783334 0.0822378695 0.2228457034
-0.1849758476 0.01442902721 1.100432277 0.9369069934 0.001273946487 -0.07732905447
-0.1834602505 0.004606824368 1.093948841 0.8029888272 0.0256570857 0.08810169995
-0.184854269 0.003283320693 1.081159472 0.5700516105 0.1661572456 0.3507395983
-0.181171909 -0.002208639635 1.098670483 0.8763489723 -0.06360060722 0.01691092551
-0.1818852872 -0.009127160534 1.087946653 0.672083199 0.06300156564 0.2420046329
-0.1847970039 -0.009792613797 1.068513274 0.321000129 0.3022079468 0.6287015676
-0.1861634701 -0.007420143113 1.05817914 0.1380499154 0.4093214869 0.8385192156
-0.1825021058 -0.006532748695 1.082592845 0.5791771412 0.1084339172 0.3528007269
-0.2000122666 0.05045305938 1.045206308 0.406974256 -0.00115704257 0.9077246785
-0.1825732887 0.02845965885 1.029425859 0.4513507783 0.1123346016 0.8799408674
-0.1922462136 0.02902898006 1.035526633 0.4430378079 0.145610109 0.8738110065
-0.1862656921 0.02954641543 1.038301706 0.4593437016 0.1749831736 0.8398233652
-0.1885478646 0.03857087716 1.036875367 0.5191445947 0.06850256026 0.8379157186
-0.1894994527 0.02637368999 1.042096734 0.3625043631 0.2578314245 0.8786938787
-0.2258865237 0.02395224199 1.040924549 0.08735874295 0.2905294001 0.951885581
-0.2191409767 0.01788259111 1.043890953 0.1377549767 0.3081312478 0.9401162267
-0.216605559 0.03152602911 1.042917848 0.08845855296 0.1310248822 0.9801872969
-0.2240107954 0.02976110391 1.040683031 0.08065742999 0.2085761577 0.9709610939
-0.2184787542 0.02659668773 1.042264819 0.09189141542 0.2636210918 0.9579237103
-0.2073521465 0.02782443538 1.04122448 0.2085724473 0.1890821308 0.9433139563
-0.2303590328 0.03158063069 1.038854122 0.06968739629 0.1897082329 0.9779666662
-0.2111257315 0.02311609313 1.043333411 0.129675433 0.2848812044 0.9483484626
-0.1799194366 0.03660886362 1.026628733 0.6078660488 0.02925888076 0.7896369696
-0.1735564917 0.0397172533 1.020816207 0.5203263164 -0.008731203154 0.8493771553
-0.1875446141 0.03575247526 1.032128215 0.5698988438 0.04927010834 0.8111573458
-0.1849139333 0.04359567165 1.030759811 0.6086104512 -0.01887521334 0.7929948568
-0.1899625063 0.04253061116 1.033276081 0.5510987639 -0.01290106401 0.8204613924
-0.1966075003 0.04202511534 1.035680175 0.4556560814 -0.01570926979 0.8620607257
-0.194649905 0.03710922226 1.037187219 0.4552023113 0.05579828471 0.8820688725
-0.2025364935 0.04073086753 1.038608551 0.3589128852 0.0006517397705 0.9107424021
-0.2008943558 0.04442591593 1.044822812 0.3830004334 0.03301800787 0.9175761938
-0.2048202902 0.04908397049 1.048058033 0.3210586011 0.001335433684 0.9433045387
-0.1967325807 0.04293771461 1.041669369 0.4518201351 0.0512987338 0.8894760609
-0.1977614611 0.03454297781 1.041747928 0.426787734 0.0856564194 0.8985215425
-0.191516757 0.03171768039 1.041979313 0.3869850039 0.2002383471 0.8825299144
-0.1906813681 0.01444318239 1.043998241 0.1868613213 0.3641883135 0.9107090235
-0.2019997686 0.01764162257 1.042810321 0.2096255571 0.2921585441 0.9255087972
-0.202066496 0.02291056328 1.041519523 0.2481571734 0.2367209792 0.9322927594
-0.210695222 0.03841924667 1.041907907 0.1951060295 0.01784353331 0.9680586457
-0.2047986537 0.03645661473 1.040430903 0.2758482099 0.04689751565 0.9404604435
-0.2142962515 0.04304369539 1.042536497 0.1786674708 -0.02963888645 0.9803637266
-0.1969641596 0.03047934733 1.038339138 0.3792313635 0.1314802468 0.9073292613
-0.2090906352 0.04562240094 1.04740274 0.2256204635 0.005329312291 0.9696673155
-0.2062511742 0.03929742426 1.044873357 0.2422766387 0.03812034428 0.9679287076
-0.1994967759 0.0277060587 1.043406367 0.2529489994 0.1965651065 0.9375109673
-0.1957274228 0.02348926663 1.043571353 0.2643729448 0.277516067 0.9176749587
-0.211089313 0.02861564979 1.04554534 0.1930400431 0.1546422988 0.9571574926
-0.21922189 0.02140560001 1.048533678 0.1270893812 0.2725589275 0.9439750314
-0.2158777416 0.02504744567 1.04718101 0.1535280496 0.217593953 0.9508633614
-0.2119006962 0.03372511268 1.043976307 0.1522656381 0.07537118345 0.9788863063
