# .PCD v0.7 - Point Cloud Data file format
VERSION 0.7
FIELDS x y z normal_x normal_y normal_z
SIZE 4 4 4 4 4 4
TYPE F F F F F F
COUNT 1 1 1 1 1 1
WIDTH 512
HEIGHT 1
VIEWPOINT 0 0 0 1 0 0 0
POINTS 512
DATA ascii
0.1000926867 0.1160485968 0.6353503466 0.490717262 -0.2768068314 0.8241590261
0.1062094197 0.1205553412 0.6328849792 0.4200627506 -0.3373586535 0.8345261812
0.08445484191 0.1227575466 0.6350107789 0.5291897655 -0.2215936482 0.8172773123
0.2075176537 0.08440022916 0.6532248855 -0.6525477767 -0.1080867872 0.748503685
0.186983034 0.09458396584 0.6409618258 -0.5783045292 -0.1470087767 0.7997319698
0.2003732771 0.08939088881 0.6509213448 -0.6432644129 -0.1112263426 0.7564354539
0.1889656484 0.09785007685 0.6453081369 -0.6166515946 -0.1210222915 0.7771171927
0.1956707686 0.09213577956 0.6491168141 -0.6340758801 -0.1146085635 0.7635761499
0.1582251042 0.1176630408 0.6234768629 -0.5295961499 -0.2960247993 0.7707477808
0.1624708623 0.1148177013 0.6298172474 -0.4985347986 -0.259814024 0.7999926209
0.167180717 0.1094585136 0.6316266656 -0.6404429674 -0.1538764387 0.7454818487
0.168700397 0.1031980738 0.6399151683 -0.6329731345 -0.06293799728 0.7653154135
0.1101305559 0.08340231329 0.6146193147 0.3571597934 0.2017864585 0.9052073359
0.06279333681 0.02202668227 0.7198572755 -0.1061680242 0.3421369195 0.9335882664
0.0550637804 0.01637354493 0.722365737 -0.1173402071 0.3398459554 0.9331264496
0.0617762953 0.02811343595 0.7169291973 -0.1007282436 0.3432428837 0.9338191152
0.1732889712 -0.01279248483 0.7213389277 0.359156549 0.1349613219 0.9009703398
0.1608990133 -0.01216815226 0.7247653604 0.3523437381 0.005023941398 0.9193352461
0.1549150199 -0.01366868429 0.7273579836 0.3489441276 -0.05981580168 0.9284995198
0.1526646465 -0.02090929449 0.7302178741 0.348123461 -0.07546777278 0.9307117462
0.1586784869 -0.01911779121 0.7275322676 0.3515205979 -0.01067551505 0.9215541482
0.1671714932 -0.01664417237 0.7237555385 0.3563220799 0.08090081066 0.9086110592
0.2047126591 0.008537997492 0.7025601864 -0.4038791656 0.781696558 0.4537242055
0.1985623389 0.01916240156 0.6916413903 -0.485616684 0.6699564457 0.5239459276
0.1027601585 0.1266828477 0.6247371435 0.401060164 -0.3395358622 0.8485631943
0.1054566354 0.1208058745 0.6217911243 0.4146861732 -0.3291068375 0.8439993858
0.1187817752 0.07707598805 0.6176175475 0.1762015224 0.3604387641 0.8749798536
0.1139032543 0.06075144559 0.6359605193 0.4076214135 0.4044838846 0.7693113089
0.1266396791 0.06540828198 0.6346994638 0.2365089208 0.356526494 0.8598152995
0.1192011461 0.0680315122 0.6282962561 0.2871116698 0.3866842687 0.8487658501
0.1180805638 0.06459543109 0.6333410144 0.3446264267 0.3899757266 0.8057263494
0.1122690365 0.06678891182 0.6281124353 0.3822855651 0.4135842323 0.798649013
0.116996564 0.1255138665 0.6279100776 0.2835895121 -0.4759294689 0.8308267593
0.1209578887 0.1337463409 0.6326879263 0.23797068 -0.4975316823 0.8308970332
0.2017046809 0.07325844467 0.6544877291 -0.6644071937 -0.02357182279 0.7420599461
0.1420487165 0.1164959669 0.6149966717 -0.1712497473 -0.3438390195 0.9122089744
0.1372169703 0.120662652 0.6154327989 -0.04615205899 -0.4450745881 0.8834280372
0.1761238575 0.02391274646 0.6516863704 0.02985941432 0.6387812495 0.7682231069
0.1701504886 0.02270321175 0.655637145 0.04728167132 0.6377570033 0.7665020227
0.1102575883 -0.02170500718 0.7413147688 0.06169842929 0.4594290853 0.8860689998
0.06174404547 0.01192574669 0.7246154547 -0.1192133352 0.3395145833 0.9330155253
0.1135483235 0.06580227613 0.6213585734 0.2660067081 0.5310144424 0.8038615584
0.05579207838 0.00943736732 0.7247958183 -0.1192133352 0.3395145833 0.9330155253
0.05639895052 0.0237443652 0.7171187401 -0.1101744324 0.3412531912 0.9334620833
0.05563432351 0.02977034636 0.7143505812 0.04360694438 0.4608895183 0.8466000557
0.047374513 0.03313553706 0.7125822902 0.3836064637 0.5726622343 0.6630500555
0.1397752911 -0.02288347669 0.7331289053 0.3472096622 -0.09289660305 0.9331750274
0.1413466185 -0.01739735529 0.7353438139 0.3472096622 -0.09289660305 0.9331750274
0.1457509696 -0.01300266944 0.7357783318 0.3472096622 -0.09289660305 0.9331750274
0.1037796959 0.08833045512 0.626185596 0.471262604 0.1251455098 0.802806437
0.09710615128 0.1057162434 0.6316521168 0.6009898782 -0.1815139949 0.7660534978
0.1038435474 0.1005949229 0.6263157129 0.4920187294 -0.09472141415 0.8094980717
0.1047885194 0.09485217929 0.6254935265 0.4678435326 0.007506267168 0.8130289316
0.1097264439 0.07650012523 0.6213682294 0.362143755 0.3327721357 0.8374244571
0.1086672693 0.08967217058 0.62213552 0.3993476331 0.09810369462 0.8406087756
0.1102277264 0.08301124722 0.6203933954 0.3613724709 0.2173951566 0.8541153073
0.1130419895 0.07871874422 0.6164437532 0.2999542356 0.2964613438 0.8959004283
0.1058948785 0.106097497 0.6247503161 0.4710200727 -0.1947568506 0.8269757628
0.1102855578 0.09513080865 0.6190350652 0.371288538 0.003853791626 0.8825294375
0.1630787551 0.1116404459 0.6238794327 -0.6671970487 -0.1956783533 0.7161052823
0.1738540828 0.1013221219 0.6307654977 -0.6442252994 -0.1116060242 0.7506844401
0.1436755061 0.1111565605 0.6317809224 -0.2293273807 -0.2337180078 0.7965573668
0.1331380457 0.1186584458 0.6275547147 0.02584946901 -0.377420038 0.8154371977
0.1285197139 0.1222219467 0.6257747412 0.1394138932 -0.4423573613 0.8242129683
0.1301123798 0.1128701195 0.6242564917 0.04938019812 -0.3623146713 0.806414485
0.1354664862 0.1111731678 0.6269589067 -0.06703203171 -0.304307878 0.8006674647
0.1459703892 0.1022023633 0.6307798624 -0.3307453096 -0.1504688859 0.7791330218
0.1242695525 0.1261851788 0.625459969 0.2367571145 -0.4998508692 0.8318334222
0.1104147434 0.1266468167 0.6248101592 0.3282067776 -0.4059205651 0.8506249189
0.104507409 0.1127395928 0.627528429 0.4931695461 -0.2796767354 0.823595345
0.1124792546 0.1178175062 0.6245998144 0.3781017065 -0.4030922949 0.825275898
0.1070133001 0.1020245329 0.616137445 0.4733755887 -0.2713810503 0.8307860494
0.1072816178 0.09546183795 0.6138397455 0.4499546587 -0.07644598186 0.885422349
0.1125668511 0.09896731377 0.6128937602 0.378241539 -0.1499439329 0.9041794538
0.1145725697 0.08777821064 0.6125524044 0.2902969122 0.1192926913 0.9416786432
0.1025726721 0.1080003083 0.6195649505 0.4966195822 -0.306661576 0.8115941882
0.09906433523 0.1130907014 0.6220676899 0.4987469614 -0.2932913005 0.8150451183
0.09559748322 0.1197010204 0.625046432 0.5014099479 -0.2755893469 0.8196899891
0.1108736172 0.1136287302 0.618124187 0.397931695 -0.3483678699 0.8441644311
0.0558096692 0.03951620311 0.7116453052 0.4848312736 0.4764741957 0.6585330367
0.05061585084 0.05171817914 0.7110205889 0.6254041791 0.5074372292 0.5910614133
0.04693869874 0.04443770647 0.7109432817 0.589626193 0.5404359102 0.593854785
0.04222801328 0.04904506728 0.7079101801 0.6338223815 0.4996380508 0.5904477239
0.04351359978 0.03846249729 0.7105981708 0.5392004251 0.5869444609 0.5977917314
0.04096886516 0.04406444356 0.7101426125 0.6225707531 0.5100505352 0.5912826657
0.1374404281 0.09755584598 0.6099351048 -0.1487847567 0.00551880151 0.9722300768
0.1431304216 0.1014102623 0.6114963293 -0.2548359036 -0.09043696523 0.9459831715
0.1307809353 0.09749769419 0.6089933515 0.007838515565 -0.03550723568 0.994633615
0.1178952828 0.05812593177 0.6306656599 0.3767878413 0.4860192537 0.774685204
0.1088905334 0.05675330758 0.6350568533 0.5162616372 0.4539894462 0.718752265
0.1238318309 0.05802957714 0.6291440725 0.306375891 0.4998134077 0.8047803044
0.1209315881 0.05303027481 0.6368093491 0.4493284822 0.4561717212 0.7559083104
0.135055095 0.04774134234 0.6401296258 0.3906531036 0.4519889653 0.7932473421
0.1095522344 0.06126118451 0.6286892295 0.4112125635 0.4885703027 0.7527025938
0.1328354478 0.05257739127 0.6341145635 0.3137257993 0.4819325209 0.8144960999
0.1317658573 0.06137863547 0.6389656663 0.2189362645 0.3492747843 0.8636027575
0.1222631633 0.06124958768 0.6373562813 0.3160119355 0.3769650161 0.8148304224
0.1392821223 0.05459859595 0.640812397 0.2467453778 0.3807205856 0.8582189083
0.1373724043 0.06133656949 0.6399250627 0.1634584367 0.3338539004 0.891623199
0.1434340775 0.06254854798 0.6408574581 0.08436671644 0.3074338436 0.9299504757
0.1451813281 0.04636675119 0.6425044537 0.3128038347 0.4279620349 0.8354022503
0.1272973865 0.05542315543 0.6387003064 0.3541716039 0.4079900086 0.8030142784
0.2105335444 0.02539312653 0.6925209761 -0.6031742692 0.6304007173 0.4880703986
0.2018150389 0.05542139709 0.6436845064 -0.651025176 0.214006871 0.7142184973
0.2060642838 0.05558246002 0.6484127045 -0.6850452423 0.2529190779 0.6661521792
0.210338518 0.05887615681 0.6506135464 -0.6914204359 0.2052167505 0.6714769006
0.1930288076 0.05346425995 0.6375464201 -0.5954861045 0.2186792195 0.768935442
0.2126301974 0.06872601062 0.6534688473 -0.6883068681 0.03803195059 0.6955640912
0.1415761858 0.06762113422 0.6353735328 -0.001697633183 0.3334461749 0.9253124595
0.1353525072 0.0697292462 0.629889071 0.01890150271 0.3790940642 0.8932639956
0.1288581938 0.06926985085 0.6290646791 0.1382942349 0.3692962825 0.8916051984
0.1161712557 0.07079523802 0.6229910254 0.2823368311 0.4024820626 0.8594062328
0.1273826063 0.0726320371 0.6224914789 0.03779959306 0.4419381618 0.8497947454
0.1424994022 0.1319691837 0.6222728491 -0.05605762452 -0.4994964898 0.8541279435
0.156701833 0.1156862676 0.6302509308 -0.440823555 -0.2727918029 0.7992764115
0.1457789093 0.1240633205 0.6307755113 -0.206870988 -0.3989335299 0.8105170131
0.1437170804 0.1278531104 0.6270152926 -0.1668307185 -0.4653071165 0.824919343
0.1521742046 0.1206120402 0.6279286146 -0.3465606868 -0.3530890644 0.81201756
0.1606744677 0.1103603616 0.6340428591 -0.5216585398 -0.1829895526 0.7825146914
0.1486893147 0.1253164858 0.6245455742 -0.2757107913 -0.4324907959 0.8269016147
0.1341485977 0.1333453059 0.6303454638 0.03935359791 -0.5417851806 0.825358212
0.1493216753 0.1169018969 0.6346783638 -0.2973563373 -0.2885424793 0.791069448
0.1491321623 0.1110718399 0.6339105368 -0.3517014384 -0.2247049659 0.785107255
0.15967457 0.09899996221 0.6368445754 -0.5919259787 -0.0415687412 0.7605981827
0.1544266939 0.1005205214 0.6348532438 -0.5158905983 -0.08290201426 0.768045783
0.1390303671 0.1260790974 0.6315059066 -0.08814589679 -0.4383742213 0.8122342229
0.1543431133 0.1071226373 0.6355994344 -0.4508664608 -0.1565828174 0.775129199
0.1320439726 0.1275957525 0.6292501688 0.1031682342 -0.4505399466 0.8321628571
0.1412644684 0.1203137413 0.6317921281 -0.1610451937 -0.3603883982 0.8046574593
0.09140461683 0.1270420998 0.6436148286 0.4584701061 -0.2870862186 0.822940588
0.09389077127 0.1214515865 0.6416205168 0.4711729288 -0.2882807553 0.8218312263
0.1077072993 0.1296021789 0.6347506642 0.3602807224 -0.4136203229 0.8246538043
0.0999384746 0.1234265119 0.6384423971 0.4300040007 -0.3383232653 0.8227017522
0.08697088808 0.1233846918 0.6457074881 0.4988767803 -0.2437113225 0.8217960596
0.1020824462 0.1299405992 0.6379402876 0.388505131 -0.3736604154 0.8243426681
0.08768296242 0.1281337738 0.637876153 0.4884082675 -0.2527018189 0.8317046762
0.08124372363 0.1250029951 0.6461592913 0.5172618628 -0.2089911848 0.8281832933
0.09157340974 0.1296419948 0.6337219477 0.4669530988 -0.2838490903 0.8330398798
0.1005302593 0.1322210431 0.6328828931 0.3980242014 -0.3891533315 0.8192356825
0.0952963829 0.130996421 0.6289534569 0.4469809532 -0.311442107 0.8363413811
0.09537470341 0.1303861886 0.6388486624 0.426933527 -0.348608911 0.8159678578
0.08644936234 0.1176239103 0.6454440951 0.5279580951 -0.2160168141 0.8162170053
0.07967766374 0.08825990558 0.6479993463 0.689432621 0.118037194 0.6809791327
0.08818982542 0.1106779203 0.6440428495 0.5491613746 -0.1748567373 0.7932884693
0.08409310132 0.09188703448 0.6455360055 0.6512902975 0.03623318672 0.707387507
0.08105041832 0.1005535126 0.6478070617 0.6292639971 -0.005254621152 0.7336335778
0.08008735627 0.1201830879 0.6493932605 0.5492317677 -0.1663804501 0.8091545701
0.08265797794 0.1104214936 0.6473492384 0.5783962607 -0.109947741 0.7772697806
0.07912454009 0.1057139486 0.649227798 0.616728723 -0.0286656972 0.7489522696
0.1280669123 0.1343276203 0.6304612756 0.1269098073 -0.5349683166 0.827275157
0.1373150051 0.1337939352 0.6250600815 0.03108007461 -0.5342681408 0.8436049819
0.1876064986 0.09137652069 0.6455882788 -0.6231467724 -0.09302809089 0.7748554349
0.1829632223 0.1005557403 0.6426001191 -0.6045383811 -0.11773853 0.7874189615
0.1777604073 0.09687729925 0.6327972412 -0.5965915322 -0.166477561 0.7764921188
0.1683384776 0.101598613 0.6249504089 -0.6749095917 -0.1115563065 0.7216662765
0.177376017 0.1033193022 0.6421061754 -0.6154212356 -0.09153424948 0.7824168205
0.1744955033 0.1059951186 0.6364964843 -0.6273931265 -0.1402393132 0.7628013492
0.1481787115 0.1211993173 0.6185927391 -0.1847035289 -0.3876018822 0.9008473754
0.1424874514 0.1261844635 0.6191707253 -0.07971696556 -0.4730969965 0.875600934
0.2066319585 0.05037102103 0.663610816 -0.7588325143 0.3885264993 0.5169003606
0.2075105309 0.04233803973 0.6763150692 -0.6934863925 0.4912686944 0.5047758222
0.2072444111 0.0456487909 0.6705662608 -0.7233138084 0.4443717003 0.5103101134
0.2102863789 0.03661525249 0.6803454757 -0.6655846834 0.5336270332 0.5021600127
0.205449 0.05079957098 0.6526967883 -0.7195171118 0.3355889022 0.5969442129
0.2016542256 0.05093130097 0.6476519704 -0.6882932186 0.3172409832 0.6416170597
0.1879974604 0.04254673421 0.6467812657 -0.2559913695 0.454701066 0.790222168
0.1987542212 0.05334682018 0.6564679146 -0.5866317749 0.3112392426 0.6628535986
0.1918390989 0.0444275029 0.6531706452 -0.3673408926 0.4200864136 0.721819222
0.203444764 0.0575427562 0.6589327455 -0.7261258364 0.2690491676 0.6083641052
0.2077838033 0.02745189518 0.6824991703 -0.5913468599 0.6287479997 0.4918785393
0.2046095133 0.04230680689 0.6642406583 -0.6970155239 0.4543579221 0.5223844647
0.1907100976 0.03094538487 0.6573003531 -0.5165795684 0.6137881279 0.5617414713
0.2065950483 0.03877762705 0.670155108 -0.6794242859 0.4938240349 0.5104089975
0.1919878274 0.0276891049 0.6620478034 -0.4969668388 0.6510869265 0.5528200865
0.2011149228 0.03329987824 0.6683726311 -0.5998811126 0.5687423348 0.5246952772
0.1836960614 0.0290269535 0.6494526267 -0.3163853884 0.6471116543 0.6645371318
0.186662659 0.03428616747 0.6472603679 -0.256964922 0.5788308382 0.726978898
0.192005828 0.03822661936 0.6497077942 -0.3521423042 0.5248198509 0.6948106289
0.1948499233 0.02254810743 0.67579633 -0.4969967902 0.6795223951 0.5328754783
0.1944992691 0.01815588772 0.6859685183 -0.4888105989 0.6909074187 0.5301365256
0.1863282174 0.02508741431 0.6580774188 -0.4445910454 0.6876533031 0.5705266595
0.1897901595 0.02169347741 0.6710027456 -0.4627130926 0.6901554465 0.5529780388
0.188583523 0.01821001805 0.6795701981 -0.3553570807 0.6803095341 0.5878104568
0.1775250584 0.01893130131 0.6660949588 -0.1073361561 0.6591076255 0.6959977746
0.1971903592 0.01549645234 0.6963216662 -0.4891655147 0.6899491549 0.5212702751
0.2000672519 0.02996490709 0.6777097583 -0.5531846881 0.635640502 0.5230068564
0.2087320983 0.03166853264 0.6914170384 -0.6134667993 0.6153506041 0.4909338951
0.1993847042 0.03867931291 0.6624957919 -0.6321895123 0.511438787 0.5376566052
0.1953513324 0.03360709175 0.6629505754 -0.5636256933 0.5817205906 0.5467232466
0.2078379393 0.03423441947 0.6856231093 -0.6331965923 0.5784659386 0.4979999363
0.2040444314 0.03654355183 0.6747421622 -0.6357207298 0.5439164042 0.5162272453
0.1969755143 0.0303379707 0.6712519526 -0.5409599543 0.6289342642 0.5357949138
0.1936050206 0.02562293597 0.667545855 -0.4933238924 0.6735943556 0.5412690043
0.2009512484 0.04432088509 0.6593818069 -0.683432281 0.4513083696 0.5352959633
0.1963025928 0.03803271055 0.6576943398 -0.610329926 0.5192956924 0.548996985
0.1874086261 0.03244299814 0.6528483629 -0.3250063956 0.5976718664 0.6579691768
0.2016067952 0.02468677238 0.681669116 -0.552123189 0.6596516967 0.5029152036
0.2063370496 0.02466121688 0.6880500317 -0.5826473832 0.6519067287 0.4835493565
0.1821780205 0.02257023193 0.6622498631 -0.261274904 0.6657933593 0.6382000446
0.1725057065 0.01929680444 0.6603291631 0.01806728914 0.6461181641 0.7495198846
0.196031943 0.02267343178 0.6821612716 -0.420456022 0.6505197287 0.5554887056
0.1883065999 0.02421729267 0.6650650501 -0.4158338606 0.6742129326 0.574811995
0.1781015694 0.02235007845 0.6571012735 -0.2044648379 0.6684889793 0.6657134891
0.1833285093 0.02149051614 0.667976141 -0.2173129618 0.6542115808 0.6495434046
0.1896552444 -0.009178155102 0.713650763 0.3275083601 0.3481594622 0.847234726
0.1885323972 -6.986624794e-05 0.7151709199 0.2964461744 0.3422696292 0.8462323546
0.1953641176 0.009667671286 0.7028915882 -0.2712460458 0.5975923538 0.6043073535
0.1782720387 -0.007697110064 0.718616128 0.3628118634 0.2046776861 0.8911167979
0.1558293849 -0.007799080573 0.7283821702 0.3495444953 -0.04836517572 0.9268811345
0.1847254038 -0.005128500052 0.7168607712 0.3667058647 0.2789463401 0.8806198835
0.1744568646 -0.00464889966 0.7213289142 0.3606187701 0.1628499776 0.897028625
0.1618013829 -0.005837455858 0.7268828154 0.3529356122 0.01631218754 0.9177398086
0.1675528139 -0.004655207042 0.7249372005 0.3562755287 0.08001301438 0.908736527
0.180563435 -0.0006746519939 0.7204112411 0.3639967442 0.2272762507 0.8879228234
0.1715278327 0.03065625764 0.643718183 0.03191053867 0.6163567901 0.7848887444
0.1651820391 0.03239249438 0.6432839036 0.06468898803 0.6101576686 0.7884864211
0.1757030487 0.02777647041 0.6471916437 0.02250493318 0.6356962323 0.7707201838
0.1668965071 0.03757947311 0.6381975412 0.09176772088 0.5585686564 0.8234309554
0.1627608389 0.02595363557 0.6495078802 0.1023520082 0.6380243897 0.7629028559
0.04803312942 0.02618526109 0.7150148749 -0.07068286836 0.3600236475 0.9111032486
0.09053580463 0.1255347729 0.6281729937 0.5039002895 -0.2606401742 0.8234961629
0.1052808389 0.1324030757 0.6285145283 0.3527317941 -0.3908547163 0.8478584886
0.09588753432 0.1094273329 0.6258900762 0.5588854551 -0.244915545 0.7909186482
0.1885512173 0.05579798669 0.6344282627 -0.5360592008 0.1390137374 0.8199826479
0.1511992663 0.07556590438 0.6389761567 -0.246861428 0.1849366874 0.8787768483
0.1484013349 0.1058276221 0.6139385104 -0.3671715856 -0.149662137 0.9016937017
0.1474231929 0.1119113564 0.6149756312 -0.2638578713 -0.2574752867 0.9281477928
0.1199070439 0.1301512271 0.6251225471 0.2496006191 -0.5051904917 0.8203694224
0.1276121587 0.1317901611 0.6244467497 0.1592290103 -0.5217182636 0.8293022513
0.1125657931 0.1329707652 0.6283385754 0.3086422384 -0.4864704609 0.8142076135
0.1373854131 0.1084713861 0.6115584373 -0.07955094427 -0.2556960285 0.9546681643
0.1218628362 0.1094265208 0.6125075221 0.2524493933 -0.3331953287 0.9026653171
0.126539439 0.1050018892 0.6102624536 0.1313518286 -0.2323339283 0.9585477114
0.1284009069 0.110185653 0.6116681099 0.1241312474 -0.3141230345 0.9346439242
0.09967947006 0.0831906572 0.6263695955 0.55691576 0.2228354365 0.7412713766
0.1050889865 0.08058166504 0.6241003275 0.449085176 0.2638727427 0.797842145
0.09783011675 0.09999896586 0.6306880116 0.5837690234 -0.07930848002 0.7647820711
0.1236719713 0.09432956576 0.6103717685 0.1007714644 0.0916839242 0.9855393171
0.1529016197 0.09388179332 0.6325054169 -0.5183191895 0.006137327757 0.7785217762
0.1319458783 0.09510456026 0.6171492934 -0.07844513655 0.06185422838 0.9217613339
0.1234312654 0.1129695699 0.6233254075 0.1720121652 -0.3646021783 0.8148611188
0.13286376 0.1056539044 0.6254013181 -0.05392219126 -0.214749068 0.8146970272
0.1263287216 0.1026201993 0.6181713343 0.06914838403 -0.1090703309 0.891829133
0.1422403753 0.09718801826 0.6266117692 -0.2834476829 -0.03492137045 0.8258797526
0.1227989718 0.1085009947 0.6196413636 0.166676864 -0.2464217991 0.8620115519
0.1347772479 0.1003523991 0.623093605 -0.1155214086 -0.08564090729 0.8509519696
0.1371722668 0.09547561407 0.6214624047 -0.1853583604 0.03047832102 0.8796110153
0.1384955198 0.1043050885 0.6284316778 -0.1749342382 -0.2022060007 0.7888480425
0.116921857 0.1060228422 0.6175613403 0.2658180892 -0.1685054898 0.8942492008
0.1165648624 0.1135862917 0.6196764708 0.3133954704 -0.3550171852 0.8496823311
0.1111363247 0.1082417816 0.6213824153 0.3751323521 -0.2186342925 0.8609102964
0.1219491363 0.1005517021 0.6133444309 0.1513505876 -0.03744221479 0.9434989095
0.1192224696 0.08324918151 0.6140757799 0.1739504337 0.2461443394 0.9240750074
0.1184595302 0.09381812811 0.6134489775 0.1985625029 0.08120635897 0.9502136111
0.1603782177 0.0361478664 0.641872108 0.14904131 0.5602374077 0.8023512363
0.1566739082 0.02936643921 0.6509904861 0.1654975265 0.5960231423 0.7783353329
0.178258732 0.05138431489 0.6323875785 -0.1247456819 0.3070981801 0.938190639
0.1833293438 0.04723576456 0.635216713 -0.1902538836 0.3840773404 0.8947429657
0.1710398793 0.06158475205 0.6468032002 -0.1779618412 0.2428376973 0.8399014473
0.1966967583 0.07026919723 0.6526322961 -0.6294670105 -0.0003350287734 0.7513694167
0.1639874727 0.06248961389 0.6440416574 -0.06247765943 0.2341565788 0.8644887209
0.1797956526 0.06505841762 0.6486128569 -0.3333801329 0.1481519192 0.8097277284
0.1959027946 0.06462370604 0.654345274 -0.6014111638 0.1305405945 0.7536973357
0.1907792687 0.06967214495 0.6507928371 -0.5290148854 0.02349616773 0.7718960643
0.1718863696 0.06744755805 0.6464309096 -0.2780706882 0.1322586685 0.8483868241
0.1519441754 0.06173483655 0.6413133144 0.08133034408 0.293451786 0.9155407548
0.2037203312 0.02197343484 0.6980585456 -0.5948687196 0.6475363374 0.4761000574
0.2099415064 0.02087428048 0.6970963478 -0.5927489996 0.6413437724 0.4868194163
0.09835871309 0.05946863815 0.6368022561 0.5765126944 0.433340162 0.6916055083
0.09322541952 0.05921325088 0.6413749456 0.600987792 0.4061106443 0.6883416772
0.08948998898 0.06603863835 0.6430440545 0.6719775796 0.3300851882 0.6611474752
0.2068536729 0.06860456616 0.6583810449 -0.7101531029 0.1050054207 0.6459584236
0.2024995834 0.06403268874 0.6571584344 -0.6911982298 0.1532912105 0.6807035208
0.1499818414 0.03788633272 0.6446106434 0.3779350817 0.5161915421 0.7615391016
0.1552980095 0.03224113956 0.6458014846 0.2323750257 0.5890848637 0.7605220079
0.1244020611 0.07017737627 0.6178718209 0.01445545908 0.5079854131 0.8530205488
0.1287819594 0.07545540482 0.6147199869 -0.04763786867 0.3676170111 0.9155915976
0.1369921118 0.0755937621 0.6187446117 -0.2247747481 0.4868882895 0.8405846357
0.1243799701 0.08295029402 0.6118198633 0.06579647958 0.2779110968 0.9569932818
0.1538345218 0.120618701 0.6208009124 -0.3882939517 -0.3604476452 0.834841907
0.08754105866 0.09815544635 0.6435241103 0.608807683 -0.05316965282 0.7400695682
0.08004880697 0.1084428802 0.6405482888 0.6191779375 -0.05968830362 0.7545059919
0.07971300185 0.09747283906 0.6431607008 0.6606953144 0.03666091338 0.7134705782
0.07932340354 0.08236018568 0.6467459798 0.7182745934 0.1709214598 0.6564442515
0.07861186564 0.1150359958 0.6464628577 0.5836304426 -0.1132122576 0.7843874097
0.1363591403 0.1294288337 0.6203385592 0.02757606097 -0.52536726 0.8497964144
0.2122993469 0.06059717014 0.6556100845 -0.7231892347 0.2107473314 0.6221425533
0.2109459192 0.05520744622 0.6592016816 -0.7525079846 0.3029133677 0.5576143265
0.2082799971 0.07609626651 0.6571586132 -0.6850188971 -0.01926298067 0.6995632648
0.1947265416 -0.0005623464822 0.7090702653 -0.1155649498 0.7391235828 0.5377483964
0.2005794942 0.004593462683 0.7047425508 -0.3081672788 0.8423093557 0.4403448105
0.2082474977 0.01515449956 0.7005193233 -0.5471509695 0.6370064616 0.499319911
0.1967789382 0.005356589798 0.7097217441 0.1316840351 0.3952746093 0.7786353827
0.1733881384 0.01631740481 0.6751829982 -0.1207298189 0.6598572731 0.6737246513
0.1876394153 0.01574156992 0.6881363392 -0.342385143 0.6779438853 0.581466198
0.1837609708 0.01592818089 0.6841804385 -0.2778914869 0.6726813316 0.6083101034
0.1619474739 0.01719255932 0.6626724005 0.0768418014 0.6436564922 0.758921802
0.1923216432 0.01562374923 0.6921372414 -0.4129066467 0.6836823225 0.5527106524
0.1809775531 0.01704122312 0.6767053008 -0.1887361109 0.6652106643 0.6527323127
0.1674236059 0.0165642146 0.669824183 -0.02859780379 0.6523364186 0.712185204
0.149828434 -0.00661162613 0.7323378325 0.3472096622 -0.09289660305 0.9331750274
0.1508162916 -0.01497024484 0.7324652672 0.3472096622 -0.09289660305 0.9331750274
0.1406755596 -0.004295629449 0.7388007641 0.3472096622 -0.09289660305 0.9331750274
0.1389262974 -0.01162838005 0.738106668 0.3472096622 -0.09289660305 0.9331750274
0.1332264841 -0.008235556073 0.7367739677 0.2915129364 0.06240284443 0.9093182087
0.1350175738 -0.01859616861 0.7354502082 0.3377268016 -0.06645549089 0.9291132092
0.1272596419 -0.00981454365 0.736998558 0.1658864021 0.4126881361 0.8555080295
0.1294523329 -0.019095622 0.7356588244 0.226288408 0.2586790919 0.8794249892
0.117144011 -0.02194076777 0.7391044497 0.09358363599 0.4853945971 0.8674708009
0.1227190942 -0.01835572906 0.7355071306 0.1254238635 0.5092883706 0.850035131
0.1114399359 -0.01533623785 0.7390650511 0.06169842929 0.4594290853 0.8860689998
0.1165100038 -0.01179403812 0.7384428382 0.0641002059 0.4623422623 0.8841335773
0.05178126693 0.01857144758 0.7181382775 -0.1192133352 0.3395145833 0.9330155253
0.049510438 0.01461309567 0.722681284 -0.1192133352 0.3395145833 0.9330155253
0.05237493291 0.04336657748 0.7080597878 0.5697984695 0.5254551172 0.6125019193
0.1920384914 0.0645762831 0.6345087886 -0.5456428528 -0.01187008992 0.8369160891
0.2077644765 0.07143720239 0.6479411721 -0.6372039318 -0.05635153502 0.7642845511
0.1916673183 0.07101944834 0.635892272 -0.4987435937 -0.08392073959 0.8529884219
0.1991500407 0.07215929776 0.6418548822 -0.5601949692 -0.08284235746 0.8120884299
0.2022464573 0.0776771456 0.6457965374 -0.5651510358 -0.1367145777 0.7950425148
0.1920991093 0.08191991597 0.6394473314 -0.4616912305 -0.2001722753 0.8476899862
0.1858566403 0.08372613788 0.6352874041 -0.3998965025 -0.2306891531 0.8812206984
0.1965938061 0.07856011391 0.6417918801 -0.5109288096 -0.1563704014 0.8264749646
0.2103577852 0.07598286867 0.6515016556 -0.6457656622 -0.09917932004 0.7508639693
0.1950546056 0.08665692061 0.6438954473 -0.5515447855 -0.1817504764 0.8010257483
0.1953496635 0.08586289734 0.6498929262 -0.6425667405 -0.09270954877 0.7589524388
0.1984491348 0.07760855556 0.6520798802 -0.6579015851 -0.06886892021 0.7489492893
0.1311679333 0.1186737642 0.6143416762 0.08704224974 -0.4422113001 0.8839502335
0.1188096255 0.1232040152 0.6210044622 0.2711429 -0.4700502157 0.8360005617
0.1287544817 0.1233237833 0.6180921197 0.1522178948 -0.5155187249 0.8374290466
0.1240866855 0.1180957034 0.61587286 0.2371628582 -0.4604437351 0.8513388634
0.1034543216 0.06731852889 0.6251945496 0.5347493887 0.4311699569 0.7254681587
0.1011427939 0.06109753996 0.6318340302 0.5585287809 0.4428730607 0.7005121112
0.1454245597 0.08318781853 0.6253439784 -0.3801451027 0.2950329483 0.8111787438
0.1448923051 0.08900532126 0.6252275109 -0.3618176579 0.1583906412 0.8363136053
0.1282986403 0.08951886743 0.6131258011 -0.0137242591 0.2131201178 0.9464743137
0.1395523548 0.08590865135 0.6211802959 -0.2538262904 0.2538243234 0.8596175313
0.1495760977 0.09010841697 0.6287018061 -0.4585310519 0.1131672114 0.8098666072
0.1336979866 0.08703105152 0.6169548035 -0.1298543215 0.2506783605 0.9019877911
0.1406610161 0.07921789587 0.6216771007 -0.2853013575 0.408973515 0.8274707198
0.1541078538 0.08611581475 0.6315555573 -0.5427573323 0.1856995076 0.7834124565
0.15802297 0.09065362811 0.6348721385 -0.6331331134 0.06561031193 0.7586336136
0.1347385943 0.1039377525 0.6098587513 -0.03319193423 -0.1911600083 0.9795477986
0.1431528181 0.07200291753 0.6296646595 -0.1643353701 0.3888025284 0.8795201182
0.1496921927 0.07985407859 0.6287782192 -0.413423419 0.3197562099 0.8223162293
0.1488111466 0.05179904401 0.641471684 0.2599170506 0.3880728483 0.8791803718
0.1302891076 0.05656370521 0.6301045418 0.2491836101 0.4988711476 0.8219351172
0.1260115057 0.0644133687 0.6226810217 0.1041460037 0.5285956264 0.8346333504
0.1198781505 0.06478116661 0.6223000288 0.1920480728 0.5289971232 0.8188336492
0.1637628675 0.05516384915 0.6409054995 0.02271979675 0.3289010227 0.8776003122
0.174278751 0.05073325336 0.640327096 -0.0775718838 0.3369605243 0.8539213538
0.170669958 0.0551726222 0.6424692273 -0.08361128718 0.3060764074 0.8554763198
0.1766568273 0.05603333563 0.6443927288 -0.187600404 0.2780745327 0.834379375
0.1835011542 0.05960325897 0.6483135819 -0.3423253298 0.2211512923 0.8044393659
0.1901122928 0.06224562973 0.6515642405 -0.4806082547 0.1739310771 0.7773337364
0.1525035948 0.05596404895 0.6388988495 0.1847609878 0.3582612276 0.9118310809
0.1685388982 0.04961277917 0.6382864118 0.0262193121 0.3666515052 0.8748125434
0.1655326635 0.04892567173 0.632583797 0.1372516006 0.368041575 0.9154166579
0.1676363796 0.04246352613 0.6354356408 0.09202685207 0.4710516334 0.8709811568
0.168526426 0.05419264734 0.6299998164 0.03702286631 0.2705200613 0.9527048469
0.1721635908 0.04914748669 0.6319393516 -0.02203857712 0.3581405878 0.9240833521
0.163716808 0.06118868291 0.6284986138 0.1880673766 0.146854952 0.9670810699
0.1698936373 0.05980063975 0.6284730434 -0.01798752137 0.1552291214 0.9798548222
0.09689673036 0.06596592069 0.635504961 0.6142325997 0.3920029998 0.6781122684
0.09310931712 0.07183644921 0.6312288046 0.6554570198 0.3565300405 0.6639624834
0.08871756494 0.07287914306 0.6375494003 0.7022740245 0.3109071255 0.6396541595
0.1016361862 0.07233905047 0.626978159 0.5060891509 0.3778015971 0.7505787611
0.0988259241 0.06999529153 0.6322848201 0.5505475402 0.3667715788 0.7247613668
0.1081650481 0.07038195431 0.6233974695 0.391564697 0.4144205451 0.8096114993
0.209195599 0.06521242112 0.6458461881 -0.6341223717 0.0422902517 0.7687241435
0.1942126751 0.06011518091 0.6369822621 -0.5689861178 0.09329307079 0.8096003532
0.2039175779 0.06143122911 0.643304944 -0.6172593832 0.1044270247 0.7739312649
0.09292652458 0.1016415134 0.6347798705 0.645167172 -0.1125068367 0.7332722545
0.08983839303 0.1030222178 0.6411303878 0.5868501663 -0.1007846892 0.7579407096
0.09427755326 0.1091657653 0.6367729306 0.5755025744 -0.2141092718 0.7818119526
0.08845852315 0.09425539523 0.6384596825 0.6706709266 0.01582815871 0.7004672289
0.09305921942 0.1125956625 0.6409719586 0.5187116265 -0.2437285483 0.8126042485
0.1910533607 0.005767581053 0.7124390006 0.1205862686 0.4142096341 0.7732488513
0.2004362792 0.01799997315 0.7018571496 -0.4641500413 0.6124365926 0.5302604437
0.1955526024 0.0112152826 0.7089502811 -0.09645177424 0.4721654654 0.6829372644
0.1705372185 0.02493022569 0.6498527527 0.06367888302 0.6417266726 0.7639108896
0.1649964154 0.01783080958 0.6575539708 0.05007157847 0.6450459361 0.7623331547
0.1590420753 0.02162078768 0.6577608585 0.1069382653 0.6357459426 0.764007628
0.1455302984 -0.01822158322 0.7302262187 0.3472096622 -0.09289660305 0.9331750274
0.1437643021 -0.007609635592 0.7340108156 0.3472096622 -0.09289660305 0.9331750274
0.1466907114 -0.01147586387 0.7299154997 0.3472096622 -0.09289660305 0.9331750274
0.1405607015 -0.01259642746 0.7321421504 0.3472096622 -0.09289660305 0.9331750274
0.1790931523 0.05843591318 0.6310232282 -0.2107879072 0.1593610197 0.9479535222
0.1847142428 0.06004355475 0.6325161457 -0.4249137938 0.07691209018 0.8981163502
0.1864090264 0.06828907132 0.6320037246 -0.4434269965 -0.04921676219 0.8894741535
0.17704992 0.06502972543 0.6295339465 -0.212812081 0.03271584213 0.9638955593
0.1608691365 0.0694501996 0.6368502975 -0.06203291193 0.105259195 0.964423418
0.1778261065 0.07230560482 0.6387607455 -0.2560531497 -0.02085391805 0.9106725454
0.1686045378 0.07206833363 0.633435607 -0.08612943441 0.0008665754576 0.9772482514
0.1661320925 0.0695655942 0.6399547458 -0.1599923819 0.09357602894 0.9258588552
0.1769861728 0.07023649663 0.6449466348 -0.3408235312 0.05405966565 0.8586142659
0.1550614834 0.06698895246 0.6410286427 -0.06820537895 0.2012893707 0.940726757
0.1852007061 0.07139323652 0.6466101408 -0.4459040761 0.001035204506 0.8261453509
0.1806513816 0.07232856005 0.630351603 -0.3052781224 -0.09143432975 0.9326338172
0.1445812583 0.08990323544 0.6114184856 -0.3432588279 0.2081837654 0.8984220624
0.1698473841 0.09700421989 0.6377670765 -0.6205409765 -0.01732270978 0.7820753455
0.1538045704 0.1073118597 0.6168643236 -0.5132513642 -0.08957876265 0.8342388868
0.1553336531 0.1138533577 0.6189136505 -0.4182888269 -0.2443829179 0.8435864449
0.0863174051 0.1164179742 0.6325742602 0.5793981552 -0.1987894624 0.782574892
0.08178891987 0.1170146763 0.6373451352 0.5837619901 -0.176451385 0.7890123129
0.08641857654 0.1060614958 0.6332746744 0.6579114795 -0.1490753442 0.7330623269
0.08964327723 0.1113744974 0.629429698 0.6111943126 -0.1928381175 0.7558658719
0.09069124609 0.1012868509 0.6294690371 0.6794025302 -0.1527978927 0.7128171325
0.09084510803 0.1189431101 0.6281622052 0.5408195257 -0.2413467169 0.800757885
0.08806523681 0.08037991822 0.6307843328 0.7283681035 0.2706938088 0.6279245615
0.09434513748 0.08614573628 0.6320776343 0.646192193 0.1389117241 0.7009702325
0.09431441128 0.07752117515 0.6303563714 0.6513009667 0.2930294573 0.6781955957
0.09389941394 0.09577392787 0.6350326538 0.6442847252 -0.04135374352 0.7252782583
0.08902629465 0.08871741593 0.637942791 0.6861302853 0.08353772014 0.6845492125
0.09054324031 0.08235821873 0.638255775 0.6782588363 0.1580970138 0.6799948215
0.1402751505 0.08533930033 0.6120111942 -0.2958722413 0.2827896178 0.9032354355
0.1306085885 0.08229869604 0.6121541858 -0.08809328079 0.3167315125 0.9336912632
0.1334400773 0.09102377295 0.6100376844 -0.1008404568 0.1427626908 0.9740509391
0.1400377154 0.05273327604 0.6331033111 0.2214349657 0.47373873 0.8394999504
0.146942243 0.04859015718 0.6358599067 0.2661579251 0.437607944 0.8502545357
0.1323638111 0.06053678691 0.6256039143 0.1354426444 0.500921905 0.8430594206
0.150148347 0.04425612465 0.6404821277 0.3142657578 0.4306060672 0.8435600996
0.137268573 0.05645050481 0.6291472912 0.1801800579 0.4798921347 0.8451554179
0.1559428126 0.0402107574 0.6384888291 0.2815606594 0.4701797962 0.8315036297
0.1580788791 0.04535631463 0.6380339861 0.2300961167 0.4265850782 0.8685786128
0.1572093517 0.05158618093 0.6371924281 0.1726041883 0.3844790459 0.9051575065
0.1930598617 0.0527299121 0.6489328742 -0.507096231 0.2926261425 0.7586516738
0.1962158084 0.0587653406 0.6527220607 -0.556184411 0.2099865228 0.7546086311
0.1979191154 0.04650061578 0.6481139064 -0.6408436298 0.3718912899 0.6479108334
0.1951509118 0.04860131443 0.6422755122 -0.6484499574 0.3106903136 0.6838338971
0.1893444955 0.04396602139 0.6399191022 -0.5430579782 0.3871881068 0.7351287007
0.2013507783 0.04564049467 0.6534490585 -0.6314441562 0.4089003205 0.6116379499
0.08051841706 0.07699926943 0.6458922625 0.7381578684 0.2307472229 0.6334239244
0.08381082863 0.07826974988 0.6407180429 0.7333375812 0.2520244122 0.6302910447
0.08525726944 0.07324445993 0.6434105039 0.7306146026 0.2578496933 0.6310593486
0.1486984342 0.09541554004 0.6130435467 -0.4238783121 0.1453053355 0.8874152303
0.1581817865 0.1028532609 0.6175662279 -0.6530678868 -0.02270365506 0.7429437041
0.1610233337 0.07908052206 0.6314499378 -0.04249286652 -0.02800434083 0.9405965805
0.1529854834 0.07035951316 0.6363704801 0.04344267398 0.1353177726 0.9671571851
0.1479256004 0.06747349352 0.640024662 -0.01506917458 0.2428198755 0.9495388269
0.1547742933 0.08139377087 0.6372192502 -0.3689374924 0.1153491884 0.8413287997
0.1622146964 0.07303397357 0.6327289939 0.03324177116 0.01184945088 0.9828182459
0.1470275968 0.08405555785 0.6138247848 -0.3977360725 0.3371442854 0.8486263752
0.1453856826 0.07250729948 0.6212571859 -0.1393059939 0.4193027616 0.8521705866
0.1433961093 0.07814212143 0.6164802909 -0.3161067963 0.4001401365 0.8539211154
0.1501560062 0.07562981546 0.6192104816 -0.1938991845 0.2999917865 0.887611866
0.1561388224 0.07825110108 0.6188741326 -0.1857324094 0.2082047164 0.9006438851
0.1585775316 0.06622146815 0.625888586 0.1012773216 0.1757319123 0.943251133
0.1379436105 0.07931246608 0.6141592264 -0.2691088915 0.3833720684 0.8776555061
0.09259489924 0.08665309101 0.6245803833 0.6860313416 0.08025214821 0.7116132975
0.1039605588 0.07806575298 0.6187981963 0.486041069 0.28601107 0.8178265691
0.09825446457 0.0777663365 0.6230505705 0.5909369588 0.302194804 0.7337462902
0.09852546453 0.08430971205 0.6200144291 0.5781943798 0.1382020712 0.7964698076
0.0867074877 0.09653135389 0.6320202947 0.7712137103 -0.131315276 0.6178202629
0.08325694501 0.09909582883 0.6366687417 0.7102620602 -0.05586114153 0.6694030166
0.0826381892 0.09246224165 0.6391392946 0.7138151526 0.0632455647 0.6632611752
0.0835865289 0.0862749517 0.6386871338 0.7497158647 0.1116294116 0.6286059022
0.08863274753 0.09127773345 0.6289177537 0.7679268122 -0.02913363464 0.6250440478
0.156074971 0.05404045433 0.6323440075 0.3026363254 0.2679551244 0.9114445448
0.153074652 0.04827369004 0.6342515349 0.2758912146 0.386495173 0.8756818771
0.1496189088 0.05452597886 0.6312124133 0.2617000937 0.3509894609 0.887599647
0.1532260925 0.06000266969 0.6278759241 0.2587360144 0.2302015424 0.9251995683
0.1347439438 0.06491539627 0.6226040721 0.1338457316 0.4217530489 0.8716686368
0.1457289457 0.0593617633 0.6281685233 0.2323724329 0.3411298394 0.8921355605
0.1407454312 0.06243318692 0.6251346469 0.1825824529 0.3707425892 0.8852289319
0.1504590511 0.06458382308 0.6257244349 0.1118990779 0.2940625846 0.9009611607
0.1398836523 0.06915345043 0.6221826673 -0.0222944282 0.4234914184 0.8614484072
0.1754356623 0.04433694109 0.6340485215 -0.06743398309 0.4402554035 0.8947144151
0.1814680547 0.03543848544 0.6416101456 -0.0958583504 0.5623696446 0.8190270066
0.1740759313 0.03572988883 0.640417099 0.006686831359 0.5718550682 0.8148918748
0.1884599626 0.04846455902 0.6444674134 -0.3906767964 0.3552985787 0.7947110534
0.1787835509 0.04413625598 0.6392861009 -0.1255452186 0.4284396172 0.8521166444
0.1890744567 0.05662026256 0.6481973529 -0.4050883055 0.2427606434 0.7927311063
0.1798756272 0.05039120093 0.6422079206 -0.1843036562 0.3373201489 0.8359687924
0.09884383529 0.0917468518 0.6183265448 0.5583383441 -0.03071653657 0.8249935508
0.1043477356 0.08959121257 0.6153888106 0.4743709564 0.05027874932 0.8714358807
0.09309779108 0.09222934395 0.6243604422 0.6828644276 -0.06420931965 0.7106601596
0.09553493559 0.09792748839 0.6242952347 0.6424614191 -0.1802927703 0.74143821
0.1022261307 0.09670526534 0.6169285774 0.5197477341 -0.1436871588 0.8344484568
0.1744126081 0.07625528425 0.6363068223 -0.1706530452 -0.0770354718 0.9054288864
0.170348525 0.07937806845 0.6324159503 -0.1143729463 -0.1178069413 0.94542557
0.1813074797 0.07837992162 0.6384854317 -0.3504694998 -0.1212222725 0.8663306832
0.1853051186 0.07456535101 0.6380661726 -0.3448539376 -0.09727779776 0.8836223483
0.1895142496 0.07449694723 0.6428440809 -0.4686282277 -0.08794707805 0.8210288286
0.1840963513 0.07663293183 0.631739676 -0.3999432921 -0.1583431363 0.9014292359
0.1757082194 0.08019075543 0.6299914122 -0.2830383778 -0.1534739435 0.9423290491
0.1775294989 0.08576498181 0.6380112171 -0.5289559364 -0.08244546503 0.8184665442
0.1750254482 0.08580603451 0.6327709556 -0.3501979113 -0.1777941734 0.9056637883
0.1711168289 0.09052487463 0.6373423934 -0.6044339538 -0.01013947744 0.7863135934
0.1948465705 0.07554434985 0.6470308304 -0.6267997622 -0.0986668542 0.7607805133
0.1859365553 0.08065164834 0.641975224 -0.559107244 -0.1006174535 0.7987725735
0.1789530516 0.09596321732 0.6403903961 -0.6055363417 -0.06905560195 0.7915224433
0.1824216247 0.08541261405 0.6425842643 -0.6412894726 -0.04122791067 0.7634268999
0.1901891828 0.08100578934 0.6457828283 -0.6497514248 -0.07073911279 0.7550182939
0.1704564691 0.08759646118 0.6279382706 -0.3754253387 -0.1446024328 0.8829926252
0.1674825102 0.09274092317 0.6254574656 -0.5227232575 -0.1107631773 0.8036136627
0.1749854833 0.09181600064 0.6285783052 -0.4850426614 -0.1900423765 0.8256139159
0.1641761214 0.1027244553 0.6210218072 -0.6971967816 -0.1043301672 0.7017509937
0.1818628907 0.09167314321 0.6348279715 -0.5081006289 -0.2234053165 0.8241488934
0.1718416661 0.09722275287 0.6267215014 -0.5997622013 -0.1582150459 0.7623707652
0.1718921661 0.06755641848 0.628195107 -0.08607238531 0.004579494242 0.9940710664
0.1657447964 0.06736256182 0.6264882684 0.02477399632 0.09044734389 0.9713346958
0.1640091091 0.0757343322 0.6222319007 -0.2185373902 0.09757837653 0.9395763278
0.1652801782 0.08218652755 0.6237200499 -0.2528110147 -0.01079299301 0.935405314
0.168933779 0.07804329693 0.6262845993 -0.1529974043 -0.06840337813 0.9667569995
0.1608620733 0.09783410281 0.6204194427 -0.6763768792 -0.02027823962 0.7164586782
0.163021788 0.09180092812 0.6221674681 -0.506452322 -0.02661141939 0.8092172742
0.1605709791 0.08663520962 0.6201054454 -0.3736192286 0.06801517308 0.8840289712
0.1540507525 0.08918166161 0.614726007 -0.4618524909 0.2011859715 0.8388649225
0.161606878 0.08464538306 0.6326341033 -0.3460690081 0.006221727934 0.8714933991
0.1638451219 0.09045077115 0.6347690821 -0.5668479204 -0.02340510301 0.7991275787
0.155573979 0.09676110744 0.6162486672 -0.590342164 0.115573287 0.7843295932
