# .PCD v0.7 - Point Cloud Data file format
VERSION 0.7
FIELDS x y z normal_x normal_y normal_z
SIZE 4 4 4 4 4 4
TYPE F F F F F F
COUNT 1 1 1 1 1 1
WIDTH 512
HEIGHT 1
VIEWPOINT 0 0 0 1 0 0 0
POINTS 512
DATA ascii
0.1149318591 0.1149721593 0.8620877862 -0.6140520573 -0.3507277668 0.7053586245
0.1232967749 0.1007985324 0.8598536253 -0.5864758492 -0.3194747865 0.7441260815
0.07244572043 0.115796037 0.8516121507 0.1673601866 -0.1691892296 0.8282232881
0.0604958199 0.1188802049 0.8551671505 0.4094364643 -0.09224881232 0.8749313951
0.08264956623 0.116582796 0.8547019362 -0.208798632 -0.1811179966 0.8310899138
0.09073881805 0.1148787662 0.8529826999 -0.3916794658 -0.2271686047 0.8042681217
0.08356385678 0.126985684 0.8592675924 -0.09696669132 -0.1738611907 0.8326980472
0.09206293523 0.1266983747 0.8591965437 -0.2558701634 -0.237241298 0.7888281345
0.07598835975 0.1260011643 0.8604474664 0.01598374546 -0.1292812079 0.8601133227
0.07817028463 0.1316257268 0.8553007841 0.1069456935 -0.09083530307 0.9025329351
0.06578689069 0.1284873933 0.8586055636 0.2562289536 -0.0326436609 0.9329437613
0.07089116424 0.1325640827 0.8547385931 0.2590476871 -0.02990501747 0.9466277361
-0.02106960118 0.03934331238 0.9681861401 -0.2859964669 -0.03584320098 0.9571354985
-0.02384698577 0.04608586058 0.9696401954 -0.2761305571 -0.02080340311 0.960807085
0.09736159444 0.1203200743 0.861675024 -0.4350022674 -0.2958377302 0.7501654625
0.1035834402 0.1178114116 0.8588436842 -0.5690556169 -0.328163594 0.7349061966
0.07497192919 0.1193767935 0.8583312035 -0.06494756788 -0.1273972243 0.8641723394
0.06909363717 0.1216066554 0.8611608148 0.06973397732 -0.09346342832 0.8834382296
0.09922006726 0.1147044301 0.8536198139 -0.5467244983 -0.2847222388 0.7674049139
0.08902312815 0.1195948496 0.8601006269 -0.2964278162 -0.2297765166 0.7969183922
0.1086668745 0.1206163466 0.8632226586 -0.6234807968 -0.3601975441 0.6933031678
0.1176894978 0.1077489108 0.8609052896 -0.5969691277 -0.3309567571 0.7300938964
0.09016542137 0.06522176415 0.8404772878 -0.218576476 0.4019419551 0.8836563826
-0.01632465422 0.04388356581 0.9671615362 -0.2745223045 -0.01835175604 0.9614055753
-0.01429153979 0.03770509735 0.9688833356 -0.2822656929 -0.03015596606 0.9585239291
-0.01725106873 0.03085704893 0.9642496705 -0.3064585626 -0.06703609228 0.9495205879
-0.02331362478 0.03492328152 0.9632595778 -0.3064585626 -0.06703609228 0.9495205879
0.06438504905 0.04089967161 0.9461157322 0.8501800895 -0.2420290112 0.03049284965
0.06125495955 0.03536149487 0.9463381171 0.7579038739 -0.1965934634 0.1837655902
0.0580685623 0.02529736236 0.958075285 0.5253445506 0.1484262794 0.424778074
0.0578847304 0.03075074032 0.9430608749 0.7009000778 -0.2389507294 0.3228339255
0.05771936849 0.02811351791 0.9491698742 0.6225958467 -0.07829236984 0.3759468496
0.05685621127 0.02056534402 0.9648888111 0.4085856974 0.3406387269 0.5338118076
0.01987592317 0.1240830421 0.8603938818 0.134901613 0.1599928141 0.9647446275
0.06488118321 0.02784344926 0.9566411972 0.6282283068 0.1287759691 0.2787213326
0.05456461385 0.01154087484 0.9746053219 0.2116130143 0.6355125904 0.7420999408
0.05839449167 0.01462989114 0.9699630737 0.3176717162 0.522978127 0.6280720234
0.06696795672 0.01697896048 0.96380198 0.4536845982 0.4090237916 0.4885983765
0.06741470844 0.01005063113 0.967058301 0.3502514362 0.552683413 0.6131594181
0.06864246726 0.02306971885 0.9591565132 0.5601722598 0.2504019141 0.3634286225
0.06655342132 0.03397791833 0.9517801404 0.7432124615 -0.03374716267 0.1450852603
0.0647437498 0.004321704153 0.9714428186 0.269028008 0.6653695107 0.6955933571
0.05942596123 -0.0004012972349 0.9756105542 0.2409922928 0.6838991046 0.6871182323
0.1052495614 0.1188499257 0.8477622271 -0.5767191648 -0.2896634936 0.7577317953
0.06923043728 0.1070562229 0.8454346657 0.2496663481 -0.1246877909 0.946234405
0.08553444594 0.1125924364 0.849709332 -0.1862057 -0.203627497 0.8292993903
0.07893299311 0.1072590947 0.8450846672 0.01032575127 -0.1030176133 0.946497798
0.08603068441 0.1071091294 0.8448185921 -0.1654717177 -0.10349866 0.9422856569
0.07876610756 0.1001749486 0.8415198326 -0.007198350038 -0.1869549751 0.9767435789
0.06929285824 0.001746723312 0.9676480293 0.2691424787 0.6499060988 0.7103945613
-0.008364365436 0.02976811863 0.9687695503 -0.287587285 -0.03826830536 0.9565435052
-0.01335602533 0.02464627102 0.9661659598 -0.3042054176 -0.06360133737 0.9503590465
0.02173777856 0.1271345466 0.8523764014 0.06906139106 0.1894533932 0.977697432
0.02170573547 0.1169942692 0.8539754152 0.2107832432 0.1019212753 0.9305948019
0.02410205081 0.1085229591 0.8539611697 0.3665220737 0.04731511325 0.8848079443
0.01025854424 0.1312183589 0.8569154143 -0.01315028779 0.1493342817 0.9838818908
0.01212891843 0.1247560233 0.8570824862 0.08129839599 0.1059715897 0.9559462667
0.0161352884 0.1110083312 0.8575892448 0.2805464864 0.01413169038 0.8972729445
0.02004506066 0.09836246818 0.8579916954 0.4638406336 -0.06939591467 0.8444433212
0.01695395634 0.1179852635 0.8586989641 0.1566556245 0.07681775838 0.949973762
0.02280747145 0.1051110998 0.8599469662 0.3289292157 0.002233051928 0.9110168815
0.02529536374 0.09105537832 0.8610066175 0.563939631 -0.1124748737 0.8179227114
0.02772258967 0.1281123459 0.8491140604 0.1741469204 0.2349496037 0.9556566477
-0.001809064881 0.02707028948 0.9670003057 -0.2941216528 -0.04709908739 0.954102993
0.1186118349 0.09715002775 0.8524969816 -0.5706320405 -0.2312537432 0.7723554969
0.02838630043 0.1021327823 0.8621371388 0.3368344009 0.008291379549 0.9352147579
0.0668708086 0.05086473003 0.9454180002 0.9290655851 -0.3636657 -0.05177883804
0.06347505748 0.04522999004 0.9391558766 0.8898345232 -0.4209347367 0.08502689004
0.06358373165 0.04012703896 0.9286414981 0.9081575274 -0.3557755649 0.1537746936
0.07978146523 0.05291099474 0.9401905537 0.3806205988 0.4230856299 -0.3754851818
0.07161074877 0.1295966655 0.8417339325 0.3093757629 -0.05370662734 0.9427064061
0.07004923373 0.09932070971 0.8415558338 0.1507203281 -0.2574875653 0.9462592006
0.06834223121 0.09154270589 0.8413993716 0.1820711046 -0.09280721098 0.9324529767
0.07183539122 0.07855062932 0.8351180553 0.09482331574 0.1142765954 0.9780885577
0.07774894685 0.06821989268 0.8374927044 -0.001894123736 0.347897023 0.9315833449
-3.857601769e-05 0.01670482755 0.9670001864 -0.2885712683 -0.03134918958 0.956112206
0.03646486625 0.1145226657 0.8617765903 0.06684099883 0.1383784413 0.9859699011
0.03067001514 0.1111674309 0.8620354533 0.1891367733 0.09292867035 0.966483295
0.0259241052 0.1178899482 0.8614493012 0.1686337292 0.1346397549 0.9641556144
0.02574883588 0.1345613152 0.850268662 0.1186361536 0.2508871853 0.9583535194
0.06163446233 0.1125584766 0.8503863215 0.406188488 -0.1488962471 0.8931626678
-0.009740207344 0.01928754896 0.9672352672 -0.3030585349 -0.05975174531 0.9506888986
-0.006540742237 0.03902994469 0.9683754444 -0.2745223045 -0.01835175604 0.9614055753
0.002593442099 0.02292022482 0.9693660736 -0.2751709819 -0.005042959005 0.9605044127
0.002363965847 0.03362681717 0.9699656367 -0.2748893499 -0.01891128719 0.961269021
0.1139508411 0.08164400607 0.8470417857 -0.5922999382 0.08254121989 0.7985445261
0.1003046706 0.07368917763 0.8404749036 -0.3770880401 0.2610703111 0.8879372478
0.1110417843 0.1101231948 0.858528614 -0.5892724395 -0.3144438267 0.7412672043
0.1153920144 0.06790874898 0.8546430469 -0.7206044197 0.4693673849 0.4936234355
0.1167292446 0.06453463435 0.860894382 -0.6217368245 0.5184447765 0.5338248014
0.1209384948 0.05869890377 0.8754732013 -0.3949234486 0.5632938147 0.6841809154
0.0897192806 0.1011584252 0.8386981487 -0.1456463784 -0.118305549 0.9770433903
0.08685716242 0.1120897532 0.8386880159 -0.0762828216 -0.04374862462 0.9904705286
0.0733930096 0.1222129911 0.8378077149 0.2454037219 -0.08174762875 0.9634695649
0.07370936871 0.1152398884 0.8377193809 0.2076057196 -0.07691839337 0.9710085392
0.03241217509 0.07337872684 0.8586961031 0.5557586551 0.1069291532 0.8211607337
0.02896441147 0.08101742715 0.8560584188 0.5670324564 0.0006853870582 0.8101868629
0.0359204188 0.08112350106 0.8544968963 0.5829362273 0.01557591185 0.8061657548
0.03388625011 0.0868062377 0.8520501852 0.5726280212 -0.06227921322 0.8155545592
0.0710465759 0.01091746334 0.9602171183 0.4320563972 0.4352898002 0.5267736912
0.06913242489 0.03811424226 0.938567996 0.9509692788 -0.2286482006 -0.07913339883
0.07237778604 0.03310707584 0.9433560371 0.8362029195 -0.08180703223 0.05487325788
0.07330048084 0.02444143966 0.9510718584 0.5769742131 0.2376144975 0.2518206537
0.07675909996 0.03228583932 0.9499459863 0.196889773 0.6567644477 0.1161938757
0.07959790528 0.0431805253 0.9453962445 -0.01136272121 0.8708687425 -0.09229909629
0.07498112321 0.0181932319 0.9588561058 0.1560167521 0.7358551025 0.4071601033
0.0733635053 0.04106482491 0.945892632 0.834605813 -0.1658211797 -0.00449461164
0.07681823522 0.04283272102 0.9266002178 0.4350517392 0.3054663539 -0.1366307586
0.08524303138 0.04481462762 0.9294069409 0.1784974635 0.5379567742 -0.2254509777
0.0837392956 0.03919390589 0.9241958261 0.2588925064 0.3454195559 -0.03149809316
0.08606061339 0.03346618637 0.9193587303 0.2294209003 0.2295653969 0.1561738253
0.06884095073 0.03461882472 0.9182752967 0.7196130157 -0.09640765935 0.1617623419
0.09111893922 0.04042853788 0.9262059927 0.03745965287 0.534689188 -0.09234476835
0.1003254354 0.03488466889 0.9223785996 -0.1922481954 0.5676622391 0.0712916106
0.09051371366 0.04975440353 0.9344715476 -0.006314324215 0.7895070314 -0.4061270356
0.07785167545 0.03327587619 0.9181806445 0.4679650366 0.05295295268 0.1838536263
0.1061953455 0.03174536303 0.9202919006 -0.341303587 0.6000233293 0.16225411
0.07030969858 0.03960946202 0.924446106 0.6718864441 0.04619468004 -0.01768697798
0.07849605381 0.04729465395 0.9325487614 0.3888070583 0.4326814115 -0.2997582853
0.07434025407 0.04484759271 0.9371040463 0.6556934714 0.1279942989 -0.2389902771
0.06968669593 0.04033789039 0.9316574335 0.8046656251 -0.08118500561 -0.07065290213
0.07098902762 0.007078235503 0.9036830068 0.5856613517 0.4843990207 0.6416092515
0.06003161147 0.03272147849 0.9241335988 0.8234882355 -0.4646602571 0.2820357978
0.06499906629 0.001727866125 0.9577151537 0.3635087609 0.6068767905 0.6656768322
0.06601908803 0.004794827197 0.9388709664 0.5384910703 0.5030018687 0.5962875485
0.06821452826 0.00363618508 0.9514252543 0.4189426303 0.5665976405 0.648883462
0.06668957323 0.009216647595 0.9439572096 0.5084079504 0.3149774671 0.5778266191
0.06683854759 0.01099665277 0.9504129887 0.4577318132 0.2339276075 0.5814911723
0.06321836263 0.0146604199 0.9323964119 0.6376223564 0.05089086667 0.48797369
0.07085099816 0.00335189933 0.959774375 0.3386758268 0.6012277007 0.6854828
0.064057827 0.007854043506 0.9189442992 0.7294152379 0.3666267693 0.5102260709
0.06277821958 0.0135325864 0.925549686 0.6947541833 0.1008176059 0.4767537117
0.06554340571 0.007680925075 0.9302748442 0.6257794499 0.3807027638 0.5484750867
0.05854108557 0.02638779581 0.9287878275 0.725520432 -0.4983727634 0.3592199087
0.06286353618 0.02469153516 0.9375798702 0.6957541704 -0.240627408 0.3250662386
0.06904038042 0.01836470701 0.9524002671 0.5768110752 0.1983617693 0.3739757836
0.06475184858 0.0170721896 0.9453974962 0.5480924845 -0.003485960187 0.4823584259
0.06829344481 0.02637400851 0.9464198947 0.7330158353 0.01410908252 0.1866873652
0.06518903375 0.03043006174 0.9384647012 0.8099499941 -0.2223879397 0.140166983
0.05869115144 0.01181488112 0.9529329538 0.4460307956 0.1960985661 0.5690315962
0.05701588467 0.008578478359 0.9671305418 0.2882770896 0.5280427337 0.6857933402
0.05890709534 0.007643281016 0.9601626992 0.3633344769 0.4024451971 0.6304869056
0.05822014436 0.01903830096 0.9408665299 0.5842943788 -0.1521512717 0.4662570059
0.07946521044 0.006696239579 0.9026497006 0.3811650574 0.5807313919 0.7036046386
0.06620251387 0.06219026819 0.8451660275 0.1926186085 0.5075393915 0.8149703145
0.07280556858 0.08500012755 0.8336971998 0.07240774482 -0.05398716405 0.9936086535
0.0738703236 0.1088259593 0.8374553919 0.1526844949 -0.1150183305 0.9767884016
0.124587521 0.03423073515 0.9094314575 -0.6736206412 0.515154779 0.5161409378
0.1181746647 0.03220210597 0.8924380541 -0.4616218805 0.4372716248 0.7161982656
0.1217522696 0.02740751393 0.9095962644 -0.5462928414 0.5612001419 0.5561789274
0.1202058494 0.03134347126 0.8989081383 -0.5238152146 0.4889199436 0.6376834512
0.1244889945 0.03562818468 0.9189245105 -0.6712462902 0.5096653104 0.4207004011
0.1154260039 0.02828151733 0.926201582 0.07201161981 -0.2711776495 0.1771706492
0.1072149128 0.03320837393 0.9300947189 0.1909745187 -0.1352512836 -0.03033477627
0.1126935706 0.04088739306 0.9249408841 -0.4133166671 0.5725310445 0.1205522344
0.1142644361 0.03121377155 0.9203850627 -0.558619976 0.7199220657 0.1849719882
0.1064337865 0.0445539616 0.927924335 -0.3188376725 0.6703836918 -0.03771092743
0.0995875597 0.04703826085 0.9310448766 -0.1885237992 0.735248208 -0.2095807791
0.06881467253 0.02956419438 0.9291896224 0.8950067163 -0.09529419988 0.1166027933
0.06500164419 0.01508201193 0.9175172448 0.8280044794 0.2087250501 0.3641798794
0.07238012552 0.01635491289 0.9162570834 0.6733024716 0.2821625471 0.4028070867
0.07249651849 0.02453787625 0.9237456322 0.7768693566 0.09968712926 0.2309873551
0.06811857969 0.01960418187 0.9207498431 0.8226966262 0.1580032259 0.2900952995
0.07171494514 0.009762607515 0.9104257226 0.6042292714 0.4223090112 0.5353264213
0.07926408947 0.01475874428 0.9123606086 0.4795102477 0.4006512761 0.5076471567
0.04101911187 0.1210196614 0.8610789776 0.167570591 0.1557303369 0.9679533243
0.04230144247 0.1132797822 0.8591141701 0.2249773145 0.01060187537 0.9722854495
0.05322288722 0.1186329201 0.8590141535 0.3669497967 -0.09176940471 0.9133572578
0.04917552322 0.1136858091 0.8562119603 0.3512551785 -0.1292314827 0.9100004435
0.01899864525 0.1348038018 0.8580297232 0.0873734355 0.2511703968 0.9635216594
0.03367152065 0.120554477 0.8611366153 0.08618278801 0.1885038614 0.9753969312
0.02514825389 0.1302272826 0.8603339195 0.1210730374 0.2650471926 0.954125762
0.06502031535 0.08737243712 0.8357828259 0.1968052536 -0.1085684747 0.9715721011
0.05550303683 0.08524544537 0.8379878998 0.3806747794 -0.05842490122 0.9214621782
0.06471264362 0.09651980549 0.8383212686 0.2466705739 -0.2190548629 0.9419767857
0.06045692414 0.09302102774 0.841873467 0.3064638376 -0.1814792305 0.8985916972
0.06186071783 0.07694333047 0.8412765265 0.2932513654 0.1935710311 0.8919392228
0.04569565132 0.08662576228 0.8468581438 0.5467025042 -0.0539810583 0.8254216909
0.05129398778 0.09309402853 0.8428018689 0.4581077993 -0.2005579174 0.8579138517
0.04954088852 0.09342120588 0.8492680192 0.4932336807 -0.102758728 0.8465180993
0.0445368737 0.1052621379 0.8530450463 0.4872856736 -0.2443416715 0.836394906
0.047841236 -0.001994592836 0.9802520871 0.2130997032 0.6862913966 0.6930829883
0.04636809602 0.005046131089 0.979617238 0.2277727574 0.7052583694 0.6694661975
0.04944599047 0.001155583886 0.9735924602 0.2166290879 0.6354367733 0.7390739322
0.05808812752 -0.0009658846539 0.9692536592 0.2596157789 0.6703721285 0.693636179
0.0395803079 0.003926605452 0.9774281383 0.1892593205 0.622923851 0.7590433359
0.05529558659 0.004772732034 0.9765834808 0.229357034 0.6718826294 0.7020930052
0.1022168696 0.0628446117 0.8489655256 -0.4635557532 0.5174462199 0.6773335338
0.08898086101 0.07374373823 0.8377747536 -0.2005067766 0.2289348692 0.945620954
0.1126770377 0.08894135803 0.846832931 -0.5740288496 -0.05774299428 0.8088200092
0.1082396507 0.08444171399 0.8435228467 -0.5021130443 0.02191557363 0.8576704264
0.109854728 0.07597307116 0.8440517783 -0.5122873783 0.197819218 0.8300433755
0.107874997 0.1098676473 0.8449690938 -0.5759194493 -0.2707881927 0.7689581513
0.1135881543 0.1048361138 0.8506854177 -0.6162782907 -0.3070490658 0.7233873606
0.1104405224 0.1135954559 0.8518644571 -0.6378749013 -0.314796418 0.6970148087
0.1191237643 0.1047720462 0.8547935486 -0.5864986777 -0.350888133 0.7277930975
0.09358842671 0.107244052 0.8454889059 -0.3261623979 -0.1355075091 0.9136042595
0.1039211452 0.109081082 0.8511513472 -0.5836568475 -0.3037545979 0.7505749464
0.1211655736 0.07353061438 0.8663179278 -0.5061417818 0.3508138061 0.6974073648
0.1195521355 0.07985408604 0.8544368744 -0.6524491906 0.1510769725 0.7044287324
0.1228923053 0.06454212964 0.881292522 -0.3306321502 0.6278306246 0.673175931
0.1195720062 0.06702043116 0.8670381904 -0.5437258482 0.4972432554 0.6182180643
0.1228129119 0.07934156805 0.8720175028 -0.4430682361 0.2195171267 0.7060139179
0.1228894293 0.07233203948 0.8742933869 -0.4020943642 0.4079965949 0.7096091509
0.1217950433 0.08793321997 0.8552451134 -0.6004611254 -0.04851361737 0.787260592
0.1236624718 0.08571948856 0.867377162 -0.4933882654 0.04514843971 0.7329589128
0.1155708581 0.08105738461 0.8614733815 -0.4669851661 0.168263346 0.700717628
0.1228288636 0.09269533306 0.8622534275 -0.5480392575 -0.1432272047 0.7350867391
0.1170495674 0.0636125356 0.877425015 -0.3458456099 0.6519183517 0.6185483336
0.1012216285 0.0589280948 0.877523005 -0.2726963162 0.5237141848 0.7837362885
0.1125363931 0.06928434223 0.8669748306 -0.4013840258 0.4658053815 0.6761497259
0.114836067 0.0745126158 0.8621906638 -0.4633779824 0.3457565904 0.694978416
0.1087280363 0.06390856206 0.8721228838 -0.3363831043 0.5508184433 0.687736094
0.1090221703 0.07120721042 0.861705184 -0.477294296 0.3313725293 0.7238417864
0.1116781309 0.07464901358 0.8544001579 -0.5729382634 0.3070954382 0.6619161367
0.1026053801 0.05975135416 0.8697911501 -0.3756825924 0.5737752318 0.6793228984
0.1125371307 0.04110975936 0.8806256652 -0.2370693684 0.2930727899 0.9259197712
0.1073266491 0.06094966084 0.8544376493 -0.5784888864 0.6477819085 0.4701625109
0.1108835787 0.05873910338 0.8607901931 -0.538913846 0.5171459913 0.573722899
0.1084541306 0.05256107822 0.8669469357 -0.3773211539 0.4688563049 0.7181724906
0.1099323407 0.04770968109 0.8749560118 -0.2643844187 0.3442194462 0.8712874651
0.1013729945 0.02758972719 0.888194561 -0.1520136893 0.4757552147 0.8202032447
0.1041492373 0.02955370024 0.8943144083 -0.2544432282 0.5028558969 0.6992907524
0.1074614152 0.02167249285 0.8918482065 -0.3605891466 0.6136540174 0.6557767987
0.1174495891 0.02584715001 0.9034452438 -0.4668756723 0.5537164807 0.6144829392
0.1119975299 0.02334172279 0.8977339864 -0.4177611768 0.597974658 0.6238520741
0.1134911329 0.02747719362 0.88988024 -0.2957655787 0.4102450013 0.8216906786
0.1198554486 0.03876661882 0.886256218 -0.552456677 0.4035526216 0.7050471306
0.1153521687 0.03409483656 0.8846254945 -0.3498237729 0.3518478274 0.8409468532
0.09288492799 0.058006946 0.8467712402 -0.2629821002 0.6147198081 0.731869638
0.08571504802 0.05988959596 0.8436030149 -0.1469824463 0.5410569906 0.821080029
0.09569341689 0.05278408155 0.8735753894 -0.3237011135 0.7394034266 0.5856105685
0.09934934974 0.05860152468 0.8616113663 -0.4113097489 0.5795228481 0.6605302095
0.09212391078 0.06716580689 0.8493267298 -0.2651833296 0.3709260225 0.8252528906
0.100088872 0.06201383471 0.8554462194 -0.4264724851 0.4767953455 0.7263124585
0.09238059074 0.06342072785 0.8556680679 -0.2687861025 0.4695048034 0.7629188895
0.09500174224 0.07020153105 0.8431308866 -0.3256414533 0.2789616883 0.8704327941
0.09726832807 0.01677705906 0.8919977546 -0.03888717666 0.6133527756 0.7724406719
0.09604803473 0.02838109247 0.9134731293 -0.02117448673 0.332713753 0.3376423717
0.09071508795 0.02649288811 0.905136764 0.1563740522 0.2625781298 0.4979447424
0.07794004679 0.02986259013 0.9125989676 0.4924911261 -0.002735266229 0.3340750933
0.09795098752 0.02640217729 0.907228291 -0.05455040187 0.39044258 0.464573741
0.1037153751 0.02487188578 0.9038270712 -0.2061032951 0.5102789402 0.5391961336
0.08775764704 0.02858279273 0.9114165306 0.2193831801 0.1850102097 0.3690899611
0.1019831821 0.02305355854 0.8969312906 -0.1348153055 0.502353549 0.6749085784
0.1057273969 0.02702217735 0.9119697213 -0.2893392444 0.519013226 0.3789068162
0.09360909462 0.1173978448 0.8388609886 -0.3159894645 -0.1649796516 0.8932317495
0.09429775178 0.1097538397 0.8389098644 -0.2640998363 -0.140790537 0.9308511615
0.08435875922 0.1258169115 0.8416236639 -0.0276485011 -0.06870805472 0.9798696637
0.08124931902 0.1180951148 0.837941885 0.04997910932 -0.04434199631 0.9938130379
0.05339344963 0.1042766348 0.8492926359 0.4333577752 -0.2308621705 0.8636499047
0.06520647556 0.111560151 0.8401537538 0.3510001004 -0.1505918503 0.9185776114
0.0567830503 0.0983453691 0.8420326114 0.3743838072 -0.2654046118 0.8854063749
0.06386580318 0.1045379862 0.8402861357 0.3139376342 -0.2057671994 0.9196172953
0.03256358579 0.08527673036 0.8590533733 0.5772576928 -0.03748871386 0.8140255809
0.03217921034 0.09434781224 0.86055547 0.5723016262 -0.1431708336 0.8060136437
0.04014935344 0.09017648548 0.8522431254 0.5799508691 -0.1000290737 0.8031017184
0.02868876047 0.1167030036 0.8509440422 0.2981263399 0.1202742979 0.9130960703
0.03123430535 0.1099206507 0.8519711494 0.3810466826 0.03507498652 0.8804027438
0.02720737644 0.09629469365 0.855786562 0.5266116261 -0.09088657051 0.8260605335
0.03839040175 0.09753549844 0.8524847031 0.5378075242 -0.1491818577 0.8154699802
0.03663406894 0.1044607237 0.8511890769 0.4550375938 -0.06793184578 0.8476011157
0.06879600883 0.01215533633 0.8999990225 0.5822822452 0.4791707993 0.6555102468
0.06049398705 0.006510519423 0.9237371683 0.6889318824 0.4243713319 0.5291157365
0.06061255187 0.00309095555 0.944036603 0.4978132546 0.5369797349 0.6054990292
0.05839387327 0.01993475109 0.9323835969 0.6671471596 -0.2198073864 0.4269507527
0.05819611251 0.01906078681 0.9253533483 0.7258403301 -0.1584794968 0.419678092
0.05927311629 0.01380969398 0.9453395605 0.5289844275 0.03307807818 0.5111066699
0.05921351537 0.01129673235 0.9391083717 0.5742655396 0.1696603596 0.5205600262
0.05960644409 0.004545587581 0.9375604987 0.5617546439 0.4933977425 0.5789470673
0.04017865285 0.07528505474 0.8530800343 0.5778736472 0.1365720928 0.8034220338
0.03786857799 0.06874338537 0.8530480862 0.5474216342 0.1905597001 0.8133547306
0.06463538855 0.0695900619 0.8408696055 0.2471322417 0.3564617038 0.893994391
0.07129153609 0.06487350166 0.8411046863 0.1141138002 0.4121259153 0.8956193924
0.07096830755 0.07010329515 0.8375114799 0.1224501953 0.3085960746 0.9359918833
0.08940880001 0.0254580304 0.8958386779 0.1928439289 0.3502887189 0.6742389798
0.06359558553 0.03202181682 0.9126598239 0.8814148903 -0.2309770435 0.3122007847
0.07645975053 0.02876491845 0.9041282535 0.5375939012 0.06220348924 0.4952970743
0.09530290961 0.02386847697 0.8929482102 0.0398860462 0.4606164694 0.7398206592
0.06636024266 0.03257125244 0.8977488875 0.7487921119 0.1402061135 0.5866366625
0.07386226207 0.03024981357 0.8971917629 0.568127811 0.2070633322 0.6139890552
0.08274625987 0.02748808637 0.896664381 0.3547775745 0.2831158936 0.643999517
0.09286885709 0.02813313901 0.8879819512 0.07243067026 0.4134587049 0.8136088848
0.0836135745 0.02964332514 0.8903738856 0.304138422 0.3486866951 0.7531118393
0.0887549445 0.03281053901 0.8842954636 0.1506141275 0.3239525855 0.8604982495
0.07028894871 0.03749122098 0.8939297199 0.5491737723 0.1148486957 0.6869223118
0.06659505516 0.03428679332 0.9064999223 0.7519969344 0.05903044343 0.3921855986
0.07059420645 0.03820742667 0.911852181 0.6148363948 0.2292247117 0.2234499753
0.07249905169 0.04048502073 0.9177249074 0.5559737086 0.2661572397 0.0728937909
0.08527135849 0.05306134373 0.9321889281 0.1036556289 0.7720188498 -0.3929149806
0.08156441897 0.04894802719 0.9180532694 0.1971974969 0.6110672355 -0.01253692992
0.07344400883 0.04140892997 0.9062017798 0.4606987834 0.1745465249 0.3759968877
0.08064001054 0.04795124009 0.9089840055 0.1925446838 0.5080260634 0.232406795
0.07084464282 0.03882993758 0.9001073837 0.5377191901 0.04273340479 0.5544248819
0.07567127049 0.04298241436 0.8964138627 0.3361808658 0.2540090978 0.5963704586
0.07823164761 0.04551997781 0.9023520947 0.2600635886 0.3837005496 0.4222281277
0.077106677 0.04394771531 0.8889554739 0.2514473498 0.3026545942 0.7670013309
0.06961490959 0.08248276263 0.8408464193 0.1631037891 0.1042702571 0.9303683639
0.07682480663 0.09323607385 0.8403858542 0.03682557493 -0.1233081669 0.9698724151
0.07654490322 0.07544977218 0.8386269212 0.03480181098 0.1944922805 0.9467332363
0.0810803473 0.08120433241 0.8355222344 -0.05633980408 0.03878873214 0.9883959889
0.08401209116 0.08926381171 0.8382021189 -0.09993956983 -0.1047622412 0.9866207838
0.07839976251 0.08778803796 0.8347856998 -0.007377446163 -0.08053223789 0.9935055375
0.08460853994 0.09624201059 0.8403368592 -0.1307177693 -0.1710698307 0.9735562205
0.08766479045 0.08081129193 0.8372634649 -0.1686329693 0.0653295666 0.9684382081
0.09485543519 0.07859256119 0.8408474922 -0.290733546 0.0846484825 0.9138348699
0.1226606742 0.04059360176 0.8924215436 -0.5785604119 0.4206778407 0.6761094928
0.1238228157 0.03797975555 0.9013026953 -0.6500804424 0.4592956305 0.585175097
0.1230823919 0.04698257521 0.8892791867 -0.4316039979 0.4706293941 0.7369394302
0.1159276068 0.05183052272 0.8727443218 -0.4167175889 0.37649858 0.7472302318
0.1174613014 0.05981969461 0.8661234379 -0.5663490295 0.536460638 0.5650897622
0.121710524 0.04694440588 0.8824550509 -0.4443188012 0.393859297 0.791905582
0.1216035709 0.05314216763 0.8800354004 -0.3831591904 0.5165945888 0.7353575826
0.1236157045 0.05969373137 0.8880141973 -0.3410382271 0.662589848 0.6480862498
0.1252833158 0.04483652487 0.9056514502 -0.565125525 0.5696742535 0.5452592969
0.1257824749 0.04035841674 0.9109376073 -0.6322911978 0.5415589213 0.5146577954
0.09703560919 0.01122101769 0.912211597 0.3180398643 0.04810277373 0.5380737782
0.08563164622 0.007292476483 0.9048759937 0.2826706171 0.5294146538 0.6885061264
0.1099804714 0.01690420136 0.9222480059 0.390652746 -0.5612331033 0.3319066763
0.08147253841 0.02016143687 0.9181745648 0.5509923697 0.1948351264 0.377502203
0.09711899608 0.02796090953 0.9309091568 0.6463797688 -0.5502824783 0.1097204015
0.0785253942 0.02656006068 0.9243918061 0.6835234761 0.06424471736 0.22872293
0.09009245783 0.02358512394 0.9242340922 0.5868402719 -0.1855942011 0.2520861328
0.08906154335 0.02889235877 0.9297696948 0.6919051409 -0.336961031 0.1223332807
0.1123572811 0.02057247795 0.9269021153 0.4526481628 -0.7599449754 0.2283445895
0.0954926759 0.01834186353 0.919939518 0.4679739475 -0.1695016921 0.3605900705
0.07596249133 0.03593233228 0.9339684248 0.8716148138 -0.1804511398 0.002921874868
0.09050942957 0.01627878845 0.9163447022 0.4456467032 0.05331376567 0.4352163374
0.085341461 0.01287344471 0.9112304449 0.3982791007 0.32797876 0.5446600318
0.1033937931 0.01502678264 0.9184267521 0.3773907721 -0.2959768474 0.4090353847
0.09994425625 0.02249653451 0.9256823063 0.5321386456 -0.4481525719 0.2353911251
0.08159460872 0.03989513963 0.9379318357 0.5702747107 0.02824820764 -0.0798510015
0.08738767356 0.03444584832 0.9349249005 0.7132496834 -0.3463219702 9.485668852e-05
0.1090563238 0.02637014911 0.9306694865 0.2672026157 -0.4125621021 0.1322496682
0.09421443194 0.04433704168 0.9355319738 0.1444695294 0.397438556 -0.3011186719
0.09875589609 0.04017752036 0.9336795211 0.199097693 0.1663209796 -0.2249572426
0.1009463444 0.03335582465 0.9340981245 0.1640072167 -0.005371150561 0.01489751227
0.0860607475 0.04675309733 0.9402344227 -0.01806471497 0.7492089868 -0.2247648388
0.04106219485 0.1269157678 0.8580293655 0.1486401707 0.3167037666 0.9360940456
0.03312502429 0.1272973269 0.8596709371 0.1368875802 0.2656284869 0.952298522
0.05274806172 0.07663056999 0.8426060677 0.4392417967 0.1863288283 0.8631768823
0.04758710042 0.08035684377 0.8443447351 0.5370740294 0.06766489893 0.8344330192
0.04538528621 0.07508517802 0.8486375213 0.5268265605 0.1696297228 0.8262316585
0.04176338017 0.08183597773 0.850714922 0.5825462341 0.03660978749 0.8071646094
0.035689421 0.1010669693 0.8580582142 0.518332839 -0.1872460395 0.8290281892
0.03142657503 0.008116135374 0.9810000062 0.1739249974 0.6041106582 0.7756043673
0.03377350047 0.002020337386 0.978014648 0.1588401645 0.5856035948 0.791895926
0.04769342765 0.01152182836 0.9761098623 0.2001493722 0.6294458508 0.7507184148
0.04929853603 0.02128585242 0.9501886964 0.5112652779 -0.0305338949 0.5130351186
0.0571157448 0.03242474794 0.9345357418 0.778834343 -0.4469824135 0.2793565691
0.04648858681 0.01750449464 0.958075881 0.4051703215 0.1658920348 0.5988659859
0.0517931357 0.02208090387 0.943766892 0.5606600642 -0.1645649821 0.4835242033
0.05529509485 0.0247676447 0.9353352189 0.6518520117 -0.3570442796 0.4158672392
0.05381829664 0.01836993359 0.9548629522 0.4330471456 0.1283132434 0.5780068636
0.05221049488 0.01634367742 0.9611390233 0.3640235066 0.2775440514 0.6291872859
0.05233065411 0.01414831262 0.9677897096 0.2887895703 0.446562469 0.6849196553
0.03980880976 0.0124854669 0.9755574465 0.2257387191 0.5636822581 0.7272678018
0.04405234009 0.01773880608 0.9659385681 0.3645801544 0.3214472532 0.6121869683
0.1031122506 0.08853067458 0.8400862217 -0.3861082792 -0.1041077301 0.909444809
0.1013284847 0.1067889407 0.8402211666 -0.4239920676 -0.2252619714 0.8669811487
0.09654870629 0.03332176805 0.8804991841 -0.04616930336 0.3452017903 0.9353190064
0.1064785123 0.03139226139 0.8821303844 -0.1870841086 0.3428187072 0.9158810973
0.1047536656 0.0420473069 0.8730360866 -0.269711107 0.4068465829 0.8137496114
0.09887077659 0.03931004927 0.8755398989 -0.1320681572 0.3336565495 0.8991743922
0.09800262749 0.05193025246 0.8592550159 -0.280849874 0.6070526242 0.660515368
0.1018233895 0.04674938694 0.8655717969 -0.277819097 0.5249032974 0.7327192426
0.09797656536 0.02694408223 0.8815571666 -0.07535328716 0.4593034983 0.8728250265
0.09164489061 0.02708458528 0.8797805905 0.02219263837 0.4435055256 0.8841642737
0.09570576996 0.05476113781 0.8530660272 -0.2845407426 0.6475954652 0.6656531096
0.08819316328 0.02305140719 0.8839327693 0.1138602123 0.5186616182 0.8407517076
0.06440420449 0.05296914652 0.8545917869 0.2105553001 0.6932490468 0.6777062416
0.06955423951 0.04849464074 0.859169662 0.1605288386 0.6698756814 0.6869289875
0.09070687741 0.008539875038 0.9007943869 0.1332751364 0.6906172633 0.7094321251
0.07472080737 0.1337875873 0.8464679122 0.265563488 -0.03973114118 0.9494764209
0.09041912854 0.1251204759 0.8402770162 -0.2565739453 -0.2101990432 0.8974562883
0.09991487861 0.1213104203 0.8435635567 -0.5051235557 -0.2770963907 0.8076148629
0.09806666523 0.124355033 0.8526085019 -0.4203026891 -0.2893606722 0.7891622782
0.09222552925 0.1274677962 0.852124393 -0.2430204749 -0.2210697234 0.8340583444
0.08559410274 0.1299936175 0.8473411202 -0.06669765711 -0.1451988816 0.9068043232
0.04842804 0.09934948385 0.8458272219 0.4814998209 -0.2864761651 0.824211359
0.0349919349 0.1191178411 0.8483451605 0.2707199156 0.06469790637 0.9087485075
0.0557182394 0.02021642961 0.9150377512 0.9067826271 -0.03985992074 0.3652429581
0.05706236139 0.02662466466 0.9202632308 0.843133986 -0.3287266791 0.3322708309
0.04997530952 0.06938886642 0.8458482623 0.4748684466 0.3054144084 0.8204615712
0.05789097399 0.06866901368 0.8451951742 0.3405280411 0.3635980487 0.8377255201
0.07510122657 0.05475717783 0.8463655114 0.01159606129 0.6262698174 0.7656266093
0.1102309376 0.01798958331 0.9044747949 -0.428611666 0.7502406836 0.4422749281
0.1018689722 0.01275804453 0.9060584307 -0.1408434361 0.7275817394 0.551933229
0.1099493429 0.01561374776 0.9111091495 -0.3298515975 0.7546518445 0.4235542715
0.09676223248 0.01184261963 0.9002056122 -0.05740377307 0.7083815336 0.6421299577
0.1139604524 0.01597127505 0.9167878628 -0.3807518184 0.7705830932 0.3490252793
0.1030393913 0.0154112773 0.9000895619 -0.2589069009 0.7262346148 0.5561583042
0.1151418388 0.02133821882 0.9079992175 -0.513312757 0.7058945894 0.4517104626
0.1198538765 0.02085367963 0.9251142144 0.1878833771 -0.5964543819 0.2762393355
0.1230815873 0.02581165917 0.9215944409 -0.373562187 0.2165364474 0.3372831047
0.03135483339 0.1343193948 0.8535806537 0.1620031297 0.3028481603 0.9376913309
0.03688268363 0.1319078207 0.856957376 0.179320395 0.3294896781 0.9255869985
0.04936953634 0.1256013513 0.8598567843 0.2426796257 0.1809076816 0.9341657162
0.02494092658 0.009218912572 0.9810000062 0.08962906897 0.4906910658 0.8544718027
0.0984833017 0.09906224161 0.8429057002 -0.3438846469 -0.1906265914 0.9113337994
0.105288811 0.0688900575 0.8507375121 -0.5469363332 0.4865909815 0.5576208234
0.1011139899 0.08294261992 0.8447647691 -0.4061688483 0.09619927406 0.7747476101
0.1027103812 0.07574750483 0.8474117517 -0.4659687579 0.2902971208 0.674372077
0.09818980098 0.09279940277 0.8404356837 -0.3064410388 -0.1797144711 0.9318435192
0.108154133 0.09917882085 0.8492357731 -0.5056586266 -0.2561959028 0.8107735515
0.1039590165 0.09472280741 0.8444129825 -0.3884147406 -0.218319118 0.8864886761
0.09163882583 0.05138808489 0.8800000548 -0.00334321335 0.3349428177 0.9264213443
0.1035650373 0.04310351238 0.8800000548 -0.1387149394 0.2477968782 0.9521780014
0.1034522951 0.03947151452 0.8984150887 -0.2913238108 0.5003778338 0.6214386225
0.09208069742 0.04853311554 0.8856229782 -0.0351533629 0.3689265549 0.8478479981
0.09722803533 0.04638090357 0.8800325394 -0.05110052973 0.2632099688 0.9548079371
0.1112166941 0.0318732895 0.9093768597 -0.4856384993 0.6274334788 0.4251885712
0.100368835 0.03595943376 0.8917803168 -0.1929659992 0.4501719475 0.7368817329
0.09618456662 0.04195410013 0.8886795044 -0.1133038327 0.4109636247 0.7925336957
0.08747549355 0.04503818974 0.8806058764 0.07965758443 0.3107264638 0.9419286251
0.08043275028 0.04202674329 0.8820080757 0.1895066798 0.280695647 0.9342768192
0.09322901815 0.05667240918 0.8670636415 -0.2768875659 0.6328851581 0.6595864892
0.08568672091 0.0710676536 0.8454944491 -0.09325912595 0.2086961865 0.9642674923
0.08904796839 0.05450596288 0.8745729327 -0.0426623337 0.4094876349 0.8563691378
0.07556990534 0.03663633391 0.8783832788 0.2608932853 0.4392442405 0.8338596821
0.07502859086 0.04368060827 0.8613474369 0.09308627993 0.6535406709 0.7095793486
0.07463219762 0.04141245782 0.8681982756 0.1691915393 0.5688683391 0.7552829981
0.08012578636 0.03478585556 0.8722974062 0.1342545748 0.5041586161 0.8225217462
0.0820350647 0.03830746934 0.8659754395 0.05255426839 0.5470552444 0.8048322201
0.07850269228 0.05156991631 0.8509309292 -0.03757985681 0.6970318556 0.6942434907
0.08161405474 0.04364183545 0.8599290252 0.005611088127 0.5946939588 0.7717894316
0.08469426632 0.05497385934 0.8471032381 -0.1366095543 0.6454687715 0.7470658422
0.07208932936 0.04963482916 0.8530931473 0.04965559766 0.7630556822 0.6311115026
0.08674474061 0.04984273762 0.8534533381 -0.1150864437 0.6025534868 0.7684360147
0.08874783665 0.04108352587 0.8639968634 -0.05901621282 0.5352091193 0.8038671017
0.09299593419 0.04284390435 0.8696362972 -0.08641067892 0.3749506772 0.8868514895
0.0879245922 0.03504735604 0.8712056875 0.01684192382 0.4648397863 0.8557193875
0.0862474665 0.009882572107 0.8962183595 0.1980830431 0.6689264178 0.7130771279
0.09091484547 0.01384174172 0.8930670023 0.0996458903 0.6406863928 0.7509044409
0.08287884295 0.01437453181 0.8922473788 0.2128228992 0.6158416271 0.7535076737
0.0792337209 0.01054751035 0.8961291909 0.2813493311 0.6358162165 0.7150630355
0.09250722826 0.01960426383 0.8878445029 0.03889656067 0.5881663561 0.8032534719
0.05910854787 0.02578642033 0.9129213691 0.9095728993 -0.08754587173 0.3415938318
0.06374491751 0.02523296699 0.900265336 0.7794216275 0.2723017037 0.5545706749
0.06285538524 0.02828561515 0.9068151116 0.8471243978 0.04591793567 0.430465281
0.06727840751 0.01988955401 0.8956010342 0.6219844818 0.4242024422 0.6510593891
0.06281965226 0.01917764172 0.9028022289 0.7471807003 0.3243555725 0.5573033094
0.05888087675 0.02116108872 0.9086130857 0.8673598766 0.1642210633 0.442671299
0.05785780773 0.01036871783 0.9126853347 0.8149812818 0.3174855113 0.4751007855
0.06449592113 0.009568129666 0.9067268372 0.7023841143 0.4244968295 0.5640567541
0.04899016768 0.06559297442 0.8543809056 0.4217416644 0.4002085924 0.7381135225
0.04966593534 0.06304455549 0.8481261134 0.470310539 0.3638579845 0.80308038
0.05931918696 0.06096635014 0.8455939889 0.3071433008 0.3908374012 0.8654845953
0.063973777 0.1340379566 0.8501191139 0.297364682 0.1072098687 0.9355685711
0.05355169624 0.1317570806 0.8493041396 0.3218896389 0.227043733 0.911010325
0.05739684403 0.1291970611 0.8576301336 0.2874028981 0.1011493504 0.9363331199
0.0409097597 0.1328286231 0.8490515351 0.210338667 0.2612002194 0.9350137115
0.02083132416 0.009204325266 0.9747039676 -0.01025623828 0.3577465713 0.8834450245
0.01451935805 0.01124466024 0.9719447494 -0.1170945987 0.2110191435 0.9168674946
0.00772856269 0.0150341494 0.9706510901 -0.2407806963 0.03997727484 0.9663754106
0.01109823305 0.0224090144 0.9751822352 -0.2002149671 0.06823156774 0.9703446627
0.09048967808 0.09010978043 0.8380553722 -0.1833744198 -0.1418195367 0.9670635462
0.08565036207 0.06308446825 0.8591406941 -0.08181410283 0.292425245 0.9385440946
0.08522439003 0.05638279393 0.8615988493 -0.1413705945 0.4740455449 0.8678915501
0.08517933637 0.06469187886 0.8520586491 -0.1347903907 0.3364894986 0.9176856875
0.07997259498 0.05991657451 0.8495308757 -0.04574844986 0.4647498429 0.877713263
0.08398623019 0.0544096455 0.8673765063 -0.1230968088 0.4759699404 0.8682088256
0.077519238 0.06201379001 0.8427836299 -0.0005115607637 0.4577007592 0.8833366036
0.08164650947 0.05800733715 0.8557029963 -0.07738339901 0.4694874883 0.8738062382
0.07351581752 0.05705039948 0.85493505 0.0545688197 0.5304952264 0.8206253648
0.06782775372 0.0569480285 0.850989759 0.1459219903 0.6038162112 0.7582702041
0.08243087679 0.05196081474 0.8740007877 -0.102298297 0.5002949834 0.8469711542
0.07243849337 0.05262298137 0.8645133376 0.07614802569 0.5899208784 0.764046669
0.07676909864 0.0508033745 0.871114552 0.03567649052 0.5094929338 0.8184502125
0.06849097461 0.03164041042 0.8905390501 0.6654438972 0.2404628545 0.6985250115
0.04357892647 0.06565050036 0.8507752419 0.5138171911 0.2975178361 0.8002460003
0.07335337251 0.04416584224 0.8792045712 0.2898696065 0.2762943208 0.9064788222
0.0687238425 0.03659435734 0.8863497972 0.62398839 0.2088046223 0.7379282713
0.07032168657 0.0482977964 0.8693080544 0.2381175905 0.4570060372 0.8185760379
0.05795619264 0.05487805605 0.8530751467 0.3137196302 0.5081050992 0.7796614766
0.06418905407 0.04194151238 0.8760041595 0.5543427467 0.2700268328 0.7640283108
0.06167544797 0.04515235126 0.8704603314 0.5205689669 0.2954334617 0.7774710059
0.06239884719 0.04850386083 0.8627712727 0.3353627324 0.4311986566 0.82642138
0.1106122956 0.05937119201 0.8764286637 -0.3000053465 0.7297609448 0.6046819091
0.114791669 0.05767763034 0.8844333291 -0.3000001311 0.6288677454 0.7028412819
0.1159896478 0.04683270305 0.8974472284 -0.4653432965 0.5615594387 0.6259160042
0.1227033809 0.05220493302 0.8958867788 -0.441914171 0.6121789813 0.607719481
0.1175218597 0.05296875164 0.8915618062 -0.3894783258 0.604867816 0.6524116397
0.1075860783 0.05568339676 0.8818607926 -0.2709778845 0.5989328027 0.7459132671
0.1169682741 0.0424069427 0.9027962685 -0.5211253762 0.5737586617 0.5598169565
0.1197411269 0.03884769604 0.9085720181 -0.5897622108 0.5688176751 0.5069791079
0.1083831713 0.04435770586 0.8958466649 -0.4095843732 0.6369613409 0.5672668815
0.1015164629 0.05260009691 0.8828905225 -0.2631446719 0.5448792577 0.7650520802
0.10982465 0.03786994144 0.8967508078 -0.3852772713 0.5008394122 0.6274400949
0.1158531681 0.02979622409 0.9133719802 -0.5849382281 0.6689677238 0.350276351
0.1041021496 0.04866001755 0.8888214827 -0.3285154402 0.5804741979 0.6785345674
0.1062718406 0.04248956963 0.8866077662 -0.261729151 0.3911583722 0.800173223
0.112286292 0.03402035683 0.9021499753 -0.4433283806 0.5271881819 0.5517535806
0.06364314258 0.1283704489 0.8430145383 0.361076504 0.02844299376 0.9235907793
0.06676824391 0.1230750903 0.8406546712 0.3366263807 -0.0677826032 0.9378375411
0.03449064493 0.1271479577 0.8487244844 0.1647602618 0.2484080195 0.9480103254
0.04344782978 0.1261565685 0.8476015329 0.2701252997 0.121234037 0.9287289977
0.04678322747 0.1074496806 0.8469980359 0.4502974749 -0.2452856451 0.8320291638
0.04598707333 0.1167160645 0.8471891284 0.3704656959 -0.07441720366 0.8785031438
0.0603114292 0.1163574755 0.8439080715 0.3798544109 -0.157945171 0.8997049332
0.05581150576 0.1241810396 0.8460395336 0.4152862132 -0.06532814354 0.9002850652
0.05442142487 0.1169871315 0.8462280631 0.4208674729 -0.1609871984 0.877728641
0.0544622913 0.1101728603 0.8463122249 0.409804076 -0.2576699853 0.8633823991
0.01603531651 0.01797113754 0.9755921364 -0.1852859259 0.09855917096 0.973739624
0.02278833836 0.0158020407 0.9773558378 -0.05412981659 0.2323110551 0.9664700627
0.007030133624 0.02893667109 0.9684709311 -0.264941752 0.00390521856 0.9635959268
0.07505335659 0.03255808726 0.884768486 0.3402065039 0.3885631263 0.851180017
0.07157054543 0.02472325414 0.8899878263 0.4425720274 0.4680440426 0.7500138879
0.08125968277 0.03047099151 0.880469203 0.2023890913 0.4014111161 0.8869503736
0.07813828439 0.01916925795 0.8882188797 0.286703974 0.5445818901 0.7857455611
0.07347907871 0.015442756 0.8941532373 0.4227763116 0.5550928712 0.7086007595
0.07872205228 0.02477498353 0.8844373226 0.2694000006 0.4700949788 0.8324559927
