# .PCD v0.7 - Point Cloud Data file format
VERSION 0.7
FIELDS x y z normal_x normal_y normal_z
SIZE 4 4 4 4 4 4
TYPE F F F F F F
COUNT 1 1 1 1 1 1
WIDTH 512
HEIGHT 1
VIEWPOINT 0 0 0 1 0 0 0
POINTS 512
DATA ascii
-0.1697405428 -0.09030020237 1.067718744 0.7883695364 0.5063468814 -0.1174058765
-0.1737719476 -0.08448947966 1.061249137 0.7051028609 0.6503614187 -0.09708061069
-0.1628784686 -0.1002008244 1.067703962 0.8874351382 0.3912533224 -0.1636980176
-0.1615163833 -0.105318442 1.061426878 0.7948821783 0.5421991348 -0.2219753116
-0.1658290327 -0.09696833044 1.063510776 0.8000609875 0.5226424932 -0.1620132178
-0.1705971807 -0.08905278891 1.062832355 0.7575311661 0.5778585076 -0.1165978611
-0.1514962465 -0.01484787837 0.9857938886 0.04346023127 -0.2896749973 0.953648448
-0.1592181325 -0.01874822937 0.9844525456 0.09770217538 -0.2580350339 0.9600523114
-0.1451136172 -0.01531389169 0.9846715927 -0.01611144096 -0.3115280271 0.9496072531
-0.1225331426 -0.0114206383 0.9826055765 -0.1658102125 -0.2043864429 0.9642726779
-0.1249809042 -0.006986382417 0.9864015579 -0.152622059 -0.2225393802 0.9628584385
-0.1164151281 -0.01141713001 0.9830466509 -0.2112576813 -0.1716789454 0.9618087411
-0.2067507803 -0.1220679134 1.019784808 0.1445073038 0.4140354097 0.8977060914
-0.01106491033 -0.07015075535 1.073956847 0.3249770999 0.3281874061 0.8862221241
-0.01359383389 -0.06361746788 1.071210742 0.3033351004 0.3288026452 0.8935924768
-0.02259796485 -0.06622216105 1.083325267 0.2763713002 0.3295691311 0.902775228
-0.0201743301 -0.06305455416 1.077070594 0.2763713002 0.3295691311 0.902775228
-0.02545374446 -0.06021042541 1.080457807 0.2763713002 0.3295691311 0.902775228
-0.01931972615 -0.07494632155 1.086871743 0.2746453583 0.3145004809 0.908328414
-0.01121129934 -0.07935042679 1.081158757 0.2940866649 0.308945179 0.9033506513
-0.02559489943 -0.06923314184 1.08990097 0.280297786 0.3275745809 0.9020564556
-0.0137344664 -0.07294953614 1.079692245 0.3262721598 0.3281506002 0.8857810497
-0.01734593511 -0.0693250224 1.080244064 0.2992444038 0.3289189339 0.8949855566
-0.01456099842 -0.1034013629 1.08598578 -0.03123320453 0.2187855989 0.9697971344
-0.01357581187 -0.09782811254 1.085108757 0.04427080229 0.2311022133 0.965303421
-0.008723759092 -0.0945321098 1.085717559 0.1716139168 0.2232284248 0.9557082057
-0.008648701943 -0.0993771404 1.090000033 0.07510153949 0.2234190851 0.9716960788
-0.1539107561 -0.03788978979 0.9755731821 0.06946197152 -0.1613898277 0.9835454822
-0.1488496214 -0.03937364742 0.9754091501 0.02564247325 -0.1607799381 0.9852614999
-0.1283894032 -0.03706841171 0.9770807028 -0.19432199 -0.136306569 0.9702978134
-0.1322935671 -0.03226004168 0.9756007195 -0.1393517405 -0.1695665419 0.9721038342
-0.1296893507 -0.02692550048 0.9756618738 -0.1396068931 -0.2032650262 0.9673210979
-0.1100457907 -0.01479292847 0.9895203114 -0.2266247272 -0.1613859981 0.957676053
-0.1127723232 -0.007045215461 0.9863559604 -0.2095486075 -0.1752037853 0.9613942504
-0.0978461206 -0.0324508734 0.9888699651 -0.3197590113 -0.07005978376 0.9448199868
-0.1579224467 -0.1245090514 1.017117023 -0.02402535267 0.3949551284 0.9183727503
-0.1541917175 -0.01955370605 0.9830489159 0.05539954826 -0.279343605 0.9567065835
-0.1485923678 -0.02284373902 0.9788389802 0.03311171383 -0.2835413218 0.9580832124
-0.1674587876 -0.02455989458 0.9805066586 0.2195182443 -0.2008393705 0.9456263781
-0.1741257012 -0.02976822853 0.9781421423 0.3424426615 -0.1490054727 0.9204813838
-0.1938148141 -0.05854035169 0.9981234074 0.4760461748 0.2373357713 0.8349363208
-0.200257048 -0.06274292618 1.004897356 0.3944822252 0.1384235919 0.8947044015
-0.1982662678 -0.05762854218 1.00056994 0.4804961979 0.1471217722 0.8490303159
-0.2064090967 -0.06576572359 1.008651495 0.3533127308 0.1330647618 0.9182134271
-0.1886901706 -0.06234884262 0.996363759 0.4970496297 0.2828321755 0.8147135377
-0.1837565005 -0.06150009483 0.9917618036 0.5469324589 0.2395128161 0.7927249074
-0.1662760526 -0.09488137811 1.072329879 0.9505204558 0.2749767303 -0.1229005903
-0.1739580035 -0.09306866676 1.069533229 0.8475979567 0.3758914769 -0.1741656363
-0.1772728264 -0.08956499398 1.065598488 0.6381239295 0.6734614372 -0.2172243595
-0.008359828033 -0.08501250297 1.080575347 0.2703620791 0.2945812941 0.9164285064
-0.01272209547 -0.08306402713 1.077897549 0.2945614457 0.3154421747 0.9014397264
-0.01485279482 -0.09191274643 1.082672834 0.1137048602 0.2617867291 0.9507585168
-0.01031963155 -0.07714734226 1.076227903 0.3343594372 0.3260269463 0.8837971091
-0.01727540605 -0.07823695242 1.076864362 0.2784972787 0.3277304471 0.9027744532
-0.02400025353 -0.1125526503 1.087000012 -0.02027156204 0.1281070858 0.9912533164
-0.02544409968 -0.1374527812 1.088629365 0.09086537361 0.01681246236 0.9957084656
-0.03259692341 -0.1366228312 1.089818478 0.08985547721 0.02828706801 0.9955050945
-0.02667451277 -0.1278364658 1.088061929 0.06591105461 0.0427275002 0.9965127707
-0.03737299889 -0.1267261803 1.090171814 0.08942383528 0.0449721925 0.9949313998
-0.1296278238 -0.04982698336 0.9758604169 -0.2038627863 -0.05102527514 0.9768887758
-0.1441388726 -0.03478631005 0.9762222171 8.962277934e-05 -0.2019029856 0.9774633646
-0.137849316 -0.03461691737 0.9758107662 -0.08670333773 -0.1758606732 0.9750417471
-0.1431463808 -0.02905298769 0.9763554931 -0.004460894037 -0.2483277917 0.9671622515
-0.1374901533 -0.02727952413 0.9759925604 -0.06381441653 -0.2403903753 0.9672822952
-0.09402649105 -0.03002209775 0.9914895296 -0.3011345565 -0.09315475821 0.9490157366
-0.09787274152 -0.01864825375 0.989914 -0.2761103809 -0.1208520532 0.9534977078
-0.1049093753 -0.0391019173 0.9875013232 -0.3349809349 -0.04869373143 0.9408667684
-0.1000698209 -0.02320223674 0.991912365 -0.2783173621 -0.1181352958 0.9530133605
-0.1238182038 -0.03246189654 0.9786989093 -0.2177554518 -0.1506447196 0.9618051052
-0.123781696 -0.02739699557 0.9776801467 -0.1956353337 -0.1756795794 0.9615069032
-0.1175784245 -0.03328913823 0.9828376174 -0.283408463 -0.1017292887 0.9511084557
-0.1062142104 -0.01718456298 0.9861652255 -0.2714135051 -0.1223169267 0.9542762041
-0.1021195427 -0.02911865711 0.9877426624 -0.3077459335 -0.07916758955 0.9472417831
-0.1066223383 -0.02301886678 0.9856775403 -0.2738882303 -0.1130704507 0.9535929561
-0.1046194434 -0.01210464071 0.9883055687 -0.2459944636 -0.143559292 0.9580450058
-0.1110308021 -0.01198920142 0.9845891595 -0.2350247204 -0.1498923004 0.9601088166
-0.2214183956 -0.07934524119 1.012778401 0.2526848316 0.1294293106 0.9588174224
-0.2121582925 -0.076510638 1.007216334 0.294110775 0.128834039 0.9469922781
-0.216716513 -0.0833825469 1.009044886 0.241947636 0.1228328347 0.9621976614
-0.170247674 -0.1225108579 1.015900612 -0.02446676046 0.406665802 0.9129527807
-0.1678844094 -0.1179470271 1.013896585 -0.02519956045 0.3869751096 0.9217040539
-0.1798022389 -0.1184527501 1.013207316 0.008656489663 0.3930996656 0.9170383215
-0.1626784503 -0.1207853183 1.014586926 -0.0278133247 0.3885467947 0.9209139347
-0.1643156111 -0.1253252625 1.016393304 -0.02676221915 0.3989759982 0.9165568948
-0.1570847481 -0.1192547381 1.014213562 -0.02951815166 0.3814407587 0.9238442183
-0.1575652957 -0.1126929894 1.054650187 0.6944267154 0.4744828641 -0.06581966579
-0.1567376852 -0.1163854152 1.022813916 0.1359194964 0.399289161 0.6973518133
-0.1569071114 -0.1156292334 1.0293262 0.250171572 0.4146693647 0.5412316322
-0.1571630687 -0.1144703403 1.038855791 0.4178324342 0.4371257126 0.3120960295
-0.1492882669 -0.02973658033 0.9763306379 0.04317043722 -0.2376873493 0.9685099125
-0.1528671682 -0.02595077083 0.9773470163 0.06267569214 -0.2492047995 0.9658623338
-0.2098835111 -0.06935209036 1.011528373 0.30814448 0.1240447089 0.9431304336
-0.2145399302 -0.0722457394 1.011205196 0.3026708364 0.1283037812 0.9443749785
-0.2041555196 -0.08076948673 1.011872649 0.2663716376 0.1330696195 0.9196035862
-0.2000826746 -0.07883771509 1.019178987 0.3347744644 0.2361447662 0.7532487512
-0.1932034343 -0.07670742273 1.03119874 0.441257149 0.406514287 0.4811504781
-0.2056105882 -0.07403036952 1.011368513 0.3013168275 0.1207046881 0.9207714796
-0.1900548786 -0.08136212081 1.035104156 0.4449947178 0.4659563005 0.4007640183
-0.1946495175 -0.08063924313 1.02768445 0.3910254836 0.3592304885 0.5656714439
-0.1970448047 -0.07421837002 1.024813294 0.3984955251 0.320384711 0.6242929101
-0.2007089406 -0.07328468561 1.018974662 0.3579066098 0.2363503426 0.7536404133
-0.2151709497 -0.07818683982 1.012067676 0.2594254017 0.1216763183 0.9576197863
-0.2097091377 -0.07960552722 1.01111114 0.2547543049 0.1163721532 0.9593282938
-0.1880258471 -0.05048707873 0.9924714565 0.5909605026 0.171045199 0.786202848
-0.1866328269 -0.05647222325 0.9939455986 0.5615563989 0.2111289203 0.7966598868
-0.1638996601 -0.06669119 0.9741880298 0.4607242942 0.110683389 0.8789696097
-0.1646011323 -0.05819791183 0.973893404 0.3770191669 0.0342200622 0.9213407636
-0.1795270145 -0.1093896776 1.009288192 0.02082720399 0.3395550847 0.9388579726
-0.1858056486 -0.1088934764 1.007112741 0.05218762159 0.325409919 0.9439173341
-0.1830844432 -0.1030192152 1.006543994 0.05198420212 0.3051023781 0.950817883
-0.1848552525 -0.1225346401 1.03238678 0.2088817358 0.4408963621 0.6074964404
-0.1853632778 -0.1258100867 1.027340293 0.129061237 0.4457957745 0.7453667521
-0.1832689643 -0.1110342965 1.047213912 0.4447684884 0.4605460167 0.1836693585
-0.1814853251 -0.09555678815 1.062025428 0.6833007932 0.5525499582 -0.2795543969
-0.182375744 -0.1037575454 1.054977655 0.5691933632 0.4936029315 -0.05078798905
-0.1817026287 -0.1159849539 1.047949195 0.4202477932 0.4264166653 0.2386775166
-0.1797785014 -0.1220708638 1.046318769 0.3480739892 0.4231007099 0.3611440957
-0.1800024062 -0.1323512644 1.034401894 0.1375858784 0.4291816056 0.7252059579
-0.1823029816 -0.1088427305 1.054234624 0.547211647 0.4247337878 0.01994931698
-0.1814804971 -0.1237114668 1.040022373 0.2720029652 0.4296741188 0.4946338534
-0.1790615916 -0.128306821 1.041339159 0.2421341538 0.4239219129 0.5433976054
-0.1811367273 -0.09873481095 1.068446755 0.7782885432 0.4155735373 -0.3808113039
-0.1825080067 -0.1184421107 1.043118 0.3507703245 0.4303982556 0.3597111404
-0.1812626719 -0.1043985114 1.061874747 0.6622599959 0.4189323187 -0.1801244766
-0.1828514189 -0.1291045696 1.030464888 0.1296243966 0.437079072 0.7423347831
-0.1773002446 -0.1386061162 1.032785773 0.06129219383 0.4393170178 0.8335443139
-0.1774807274 -0.1193500385 1.051010013 0.4122950435 0.4516490102 0.1994900107
-0.1728406549 -0.1053038687 1.066631079 0.6759176254 0.5331254005 -0.3943880498
-0.1789929122 -0.1144398972 1.054941893 0.4994668365 0.4325229228 0.07817717642
-0.1756450832 -0.1262043566 1.04538703 0.2901698649 0.4741663635 0.3764161468
-0.1697730124 -0.1119974479 1.061761975 0.5586835742 0.5744824409 -0.2567152083
-0.1665617079 -0.1177849695 1.057824492 0.4582071602 0.6187307239 -0.153065294
-0.1714842767 -0.1192848161 1.05399704 0.4230187535 0.542784214 0.03223420307
-0.1668983847 -0.109315373 1.065714717 0.6121832728 0.6202466488 -0.4248642027
-0.1764938384 -0.1082820818 1.062016964 0.6157776713 0.4753032923 -0.1949766874
-0.1705495268 -0.1255759895 1.04847014 0.3097347021 0.5520582795 0.215274781
-0.184185788 -0.1318839788 1.02406764 0.04214885458 0.4426566958 0.8956116438
-0.1813180447 -0.1368323565 1.02850759 0.04081016034 0.4311546981 0.9009937048
-0.1866061836 -0.1352602988 1.028470397 0.06364621967 0.4249744415 0.9016013145
-0.2032847703 -0.1257963777 1.023354053 0.1235057265 0.4219922125 0.8971855044
-0.194077909 -0.1307188123 1.024376154 0.08949901909 0.4265656769 0.8986732364
-0.01758524589 -0.0563146621 1.068945408 0.2763713002 0.3295691311 0.902775228
-0.02356054075 -0.05848361924 1.074514151 0.2763713002 0.3295691311 0.902775228
-0.02448425442 -0.07499700785 1.080400944 0.2757312953 0.3291454911 0.9030941129
-0.02050406113 -0.067920506 1.073868752 0.2763713002 0.3295691311 0.902775228
-0.02807511948 -0.1323823929 1.09045732 0.08080718666 0.02120510675 0.9961963296
-0.01843531057 -0.1260456592 1.089444995 0.04589280114 0.04321772605 0.9976990223
-0.02083758824 -0.1315050274 1.087938666 0.07520009577 0.02293116413 0.9964793324
-0.01284312084 -0.1111738458 1.089154005 0.04691243172 0.1428320557 0.9861575365
-0.01487959549 -0.1161351874 1.087310314 -0.0007589018205 0.1362983584 0.9884035587
-0.01071438007 -0.1056351438 1.08909452 0.05285041407 0.187828362 0.9785533547
-0.01842140034 -0.119351536 1.090000033 0.01973281428 0.07837287337 0.9963606596
-0.03078506328 -0.1420857161 1.090300798 0.09187100083 0.02164635621 0.9955333471
-0.03781618178 -0.1325758696 1.09014535 0.08864793181 0.03435906395 0.9954175353
-0.03066949546 -0.1174425483 1.087000012 0.02623376437 0.06483431906 0.9966087937
-0.03160609305 -0.1060253382 1.085075974 0.08841922879 0.1352798194 0.9751490355
-0.03355230764 -0.1119393036 1.086693645 0.04448552057 0.09263986349 0.9882397652
-0.02883012034 -0.09779392183 1.083236337 0.1365137994 0.1999637634 0.9571518898
-0.02615213022 -0.07854338735 1.084729075 0.2591871917 0.3181947768 0.9113371372
-0.0249912329 -0.08180750161 1.080933332 0.2411230206 0.3062378466 0.9203376174
-0.0254358016 -0.08908462524 1.085648537 0.1678379029 0.2470417172 0.9502261281
-0.01690666378 -0.08495835215 1.090524077 0.1565751284 0.2804806828 0.9396403432
-0.0235019587 -0.07985429466 1.090084434 0.2297331393 0.3104583919 0.9171272516
-0.009785505012 -0.0875942111 1.084857106 0.2028743923 0.2792961001 0.9329695702
-0.01626984961 -0.07966758311 1.086658597 0.2422525883 0.3006390929 0.9188942313
-0.02633803897 -0.07091804594 1.083923936 0.2763713002 0.3295691311 0.902775228
-0.1234943792 -0.02007476613 0.9773269892 -0.1681605428 -0.1941313744 0.9657943845
-0.1167383939 -0.01712355018 0.9810439944 -0.2238361388 -0.1552974582 0.9612317085
-0.1120578796 -0.02220737562 0.9834532142 -0.2679748833 -0.1107058674 0.9540652037
-0.118580699 -0.02345529012 0.9797676206 -0.2175585479 -0.1554284841 0.959048152
-0.1112932712 -0.03221434355 0.9838840961 -0.2936754823 -0.08080173284 0.9470974207
-0.1109385788 -0.02061446942 0.988275826 -0.2626565993 -0.1227089539 0.9543107748
-0.1207504123 -0.009953242727 0.9874967337 -0.1787222028 -0.2004807144 0.9606993198
-0.1168850586 -0.01966664568 0.9861753583 -0.2539042532 -0.124866955 0.9548586011
-0.2095521986 -0.08364044875 1.006856203 0.2420357168 0.1118206605 0.9634786844
-0.2022489458 -0.0947592929 1.017600775 0.2673933804 0.2853220701 0.8334549069
-0.1966530681 -0.09549599141 1.0275383 0.3458699584 0.4359361231 0.6150093675
-0.1845358908 -0.08633611351 1.045693994 0.5153155923 0.6472228765 0.1804564297
-0.2045938522 -0.1017650366 1.015723467 0.2348387092 0.3003164232 0.8988339901
-0.2031383663 -0.08856733143 1.01412189 0.2546456456 0.1965118796 0.8899011016
-0.1947863996 -0.08774843067 1.028354049 0.371687144 0.4008206725 0.5707270503
-0.1928651631 -0.09132502973 1.032805085 0.398780793 0.4880234003 0.4838412106
-0.2004584521 -0.08378958702 1.017277002 0.2919970751 0.2138551772 0.8036341071
-0.1877416372 -0.08551295847 1.039875627 0.4703401923 0.5566564798 0.3070328832
-0.198336795 -0.09118230641 1.023268819 0.3220726848 0.3469215035 0.6953709126
-0.1828941405 -0.0870121792 1.050628424 0.5657601357 0.6590995789 0.04943598434
-0.1948141307 -0.09710924327 1.032997608 0.397510618 0.4650386572 0.4768697619
-0.1918643117 -0.09470238537 1.037516713 0.4410120547 0.5115149021 0.3663310409
-0.1829173565 -0.09025754035 1.056075811 0.6309427023 0.6043686271 -0.1170144156
-0.1873705834 -0.09247773886 1.046851516 0.5365664959 0.5580199957 0.1231576428
-0.1796433032 -0.08713973314 1.060333014 0.6701600552 0.663475275 -0.2165538073
-0.190094918 -0.09454829246 1.042418957 0.4932965338 0.5176628232 0.2331468314
-0.1997219324 -0.1001081169 1.023769855 0.3047119677 0.4046567976 0.712929666
-0.2086264491 -0.1157728136 1.018998623 0.1798352748 0.3710900843 0.9072026014
-0.209169209 -0.1045906916 1.014002085 0.2422677726 0.2878077328 0.9253581166
-0.1720944941 -0.1370085776 1.028594136 0.02034808137 0.4193618894 0.9007620811
-0.1599224508 -0.1221541837 1.042050362 0.3872490525 0.4464207888 0.3592883646
-0.1699064076 -0.1288685948 1.042760015 0.3373622 0.4510523081 0.4611099362
-0.1669358909 -0.1308246404 1.034057617 0.170727253 0.4302829802 0.6782573462
-0.1647540033 -0.1241547242 1.045075774 0.4204258919 0.4547867775 0.3304098845
-0.1608819813 -0.128075242 1.030788064 0.1402981579 0.4209909141 0.6992509365
-0.1661676615 -0.127704829 1.039593697 0.2940505445 0.4426938295 0.507506907
-0.1617136002 -0.1208372638 1.047592998 0.4940358996 0.4596184492 0.2197501361
-0.1614486128 -0.1256107241 1.036939621 0.268078655 0.4352099597 0.5269424319
-0.1672151089 -0.1341947615 1.027242899 0.02326273359 0.4148046374 0.8802683949
-0.1714625657 -0.1328319162 1.03660655 0.1957070529 0.4374688864 0.6595231891
-0.1574901342 -0.1183308586 1.044637561 0.4706086516 0.4521703124 0.2394388318
-0.1571525484 -0.1212951988 1.035703778 0.2948329449 0.4322762489 0.480132848
-0.1561524868 -0.1211452112 1.027927637 0.1766505986 0.4161682725 0.6448329687
-0.1559126377 -0.1229853779 1.022136807 0.06375129521 0.4033091366 0.7995142341
-0.1614325792 -0.1314132661 1.021019578 -0.0236196164 0.4094178975 0.9119357467
-0.170403555 -0.1321451962 1.019182563 -0.01218305435 0.4288640022 0.9031541348
-0.1897440106 -0.09961751103 1.047728777 0.5317078233 0.4896886349 0.09277188778
-0.1959562749 -0.1050800681 1.035313487 0.3858532608 0.4319284558 0.4291700721
-0.2000668943 -0.10515441 1.026658297 0.3147340119 0.3802773356 0.6414814591
-0.1938694566 -0.1016826332 1.039289832 0.4460551441 0.4454031885 0.3116300702
-0.1977588832 -0.1015016139 1.03106916 0.3805653453 0.3955774903 0.5117880106
-0.2025171518 -0.1108766049 1.022204876 0.2316171527 0.3710311353 0.7845252752
-0.2027358562 -0.1052415222 1.021043539 0.2682785392 0.3468882143 0.779445529
-0.1933998168 -0.1232229397 1.020762682 0.09908813238 0.4124954045 0.8891515732
-0.1901586056 -0.1172760203 1.030197501 0.2275966257 0.4490373135 0.6234486103
-0.1895247847 -0.1236958951 1.024239659 0.1193220988 0.4374456406 0.8059731126
-0.1852724254 -0.09635676444 1.056721687 0.6316356063 0.5336641073 -0.1467616856
-0.1893645674 -0.1044937894 1.04416275 0.4583260715 0.4859748185 0.2081428468
-0.19011648 -0.1086555123 1.039111257 0.3795680106 0.470622927 0.3558134437
-0.1961334497 -0.1100680232 1.031503081 0.3103795946 0.4265764058 0.5513566732
-0.1862009615 -0.1090037674 1.042757988 0.4022940099 0.4961541295 0.267757386
-0.1872983873 -0.09858993441 1.052351356 0.5774183273 0.5144902468 -0.02657133155
-0.191991955 -0.1119375303 1.033815622 0.3080072403 0.4498716593 0.5046390295
-0.1976100802 -0.1191388816 1.020658612 0.1399145126 0.3942089677 0.8691240549
-0.1989191473 -0.1140356958 1.024570823 0.2200488597 0.3979957402 0.7443579435
-0.1844450533 -0.1172388121 1.036080003 0.2703535259 0.4876402318 0.4780918658
-0.1687213182 -0.03130406514 0.9764786959 0.2521332204 -0.1560470909 0.9533796906
-0.1633411348 -0.03300365061 0.9766164422 0.1742407084 -0.1711543202 0.9683927298
-0.1642280221 -0.02732047066 0.9764837027 0.1521189362 -0.2288019806 0.9611080885
-0.15806669 -0.03048571013 0.9763726592 0.1025448665 -0.2068887502 0.9718849659
-0.1680476218 -0.06260603666 0.9813787341 0.4690851271 0.0723208189 0.8474633694
-0.1671372056 -0.04581052065 0.9821691513 0.4097202122 -0.05174420401 0.9043309689
-0.1675860435 -0.05538323894 0.9816771746 0.4423444569 0.01811177097 0.8726156354
-0.1713687479 -0.05183073506 0.9841992259 0.4985114634 0.04042363167 0.8451129794
-0.1614314616 -0.04853103682 0.979788959 0.3185892105 -0.09102651477 0.9340766072
-0.1612664461 -0.05389686674 0.9781033397 0.3292506039 -0.06855084747 0.9388647079
-0.1479857415 -0.06133341789 0.9739290476 0.1205309853 -0.1380734593 0.9819373488
-0.1535802037 -0.06136709079 0.9738102555 0.1960630268 -0.08884216845 0.9734351635
-0.1456084847 -0.05565134808 0.9734227061 0.02069037035 -0.1104232967 0.9921184182
-0.1539516598 -0.05463005602 0.9732791185 0.1247011721 -0.08913864195 0.9869864583
-0.1509492993 -0.05080863833 0.9757838845 0.1062819585 -0.09830258787 0.9727050066
-0.1571104676 -0.02485987544 0.9814443588 0.1083714738 -0.2520530522 0.9529927373
-0.160819456 -0.028234642 0.9823552966 0.1842661798 -0.2048356235 0.9457324743
-0.1713803113 -0.0904648006 1.000387549 0.125682041 0.2575238049 0.9414743185
-0.1639949381 -0.08382809162 0.9907905459 0.2450570613 0.2392740995 0.9105303288
-0.1692198366 -0.09623193741 1.007501245 0.02979785763 0.2898123264 0.9505979419
-0.1631321907 -0.07835255563 0.984978497 0.324226141 0.2155710757 0.8991641402
-0.1752030551 -0.08519618213 1.003199577 0.1147934943 0.2336201668 0.9591540694
-0.1663157642 -0.08682652563 0.9965642095 0.1751168668 0.2510634065 0.9262887836
-0.1748227328 -0.1053913236 1.008190036 0.0261739511 0.3173721731 0.9468876123
-0.1694915146 -0.1058247611 1.008546472 0.01077341661 0.3289991617 0.9430342317
-0.167758286 -0.1111997887 1.010952353 -0.006802965421 0.356785357 0.9329507351
-0.1736330241 -0.1103152111 1.010646224 0.001396733802 0.3501248658 0.935136497
-0.163014695 -0.1071256101 1.027540565 0.2466664463 0.384942323 0.5524785519
-0.1609336585 -0.1078093126 1.045230865 0.5548849702 0.4332610667 0.1395062357
-0.1652124524 -0.1020777747 1.025129437 0.2379356325 0.3569247723 0.6035675406
-0.1638886184 -0.1064040139 1.02174592 0.1490486711 0.3669624031 0.6872299314
-0.1636241376 -0.1041570306 1.032772899 0.359128058 0.3855183423 0.4270035625
-0.1676114053 -0.09579604119 1.057406425 0.6928940415 0.6230893135 -0.1218066961
-0.1655440629 -0.1001238525 1.044185162 0.5142986178 0.4955950677 0.1727036685
-0.1654644608 -0.1008082107 1.036652327 0.4048020244 0.4415159523 0.3431264162
-0.1587126255 -0.1100846231 1.059382081 0.7844791412 0.4865251184 -0.1878131777
-0.1632707417 -0.1040656269 1.040734529 0.4799073935 0.4330187142 0.2454251498
-0.1746726483 -0.08521205187 1.045607448 0.4707370102 0.6598297358 0.162301451
-0.1668771803 -0.09750519693 1.0503757 0.5953477621 0.5614620447 0.03567910194
-0.1746676862 -0.0847786814 1.051596522 0.5582743883 0.7016720772 0.02664222009
-0.170208469 -0.09429108351 1.020672083 0.1378902495 0.4098237157 0.7163966894
-0.1710257977 -0.09204736352 1.033126354 0.3140894175 0.5108225942 0.4362725019
-0.1675340831 -0.09719455242 1.040134192 0.4410870075 0.5008689165 0.269208312
-0.1630261391 -0.1034208313 1.05486536 0.688087225 0.5278074145 -0.07521004975
-0.1707060635 -0.09211694449 1.039218545 0.405351311 0.5480669141 0.2975266576
-0.1681016088 -0.09686755389 1.032081246 0.3194305599 0.4540859163 0.4529567659
-0.1701824218 -0.09238314629 1.047130585 0.5246400833 0.5946053267 0.117073901
-0.164128229 -0.1020230949 1.049575686 0.6030344367 0.5094024539 0.04723135009
-0.1678786725 -0.09772674739 1.025330424 0.2223711014 0.4030596316 0.605322957
-0.1608273983 -0.1072772816 1.050930858 0.6460998058 0.4631038904 0.008650339209
-0.1645416319 -0.1006687209 1.058852792 0.7356622219 0.5813337564 -0.1618995816
-0.1698103398 -0.09257171303 1.052760124 0.6095118523 0.6277266741 -0.01131916512
-0.168002218 -0.09821565449 1.015978813 0.08486962318 0.3396813571 0.8174250722
-0.1588030756 -0.1084122956 1.018331766 0.1077412739 0.3786412179 0.7461563945
-0.1590570211 -0.1078593954 1.01038146 -0.02370554768 0.357819885 0.9276610017
-0.164098531 -0.1058695167 1.012268305 -0.008176326752 0.3427926004 0.9035146832
-0.1600422859 -0.1090760827 1.039286017 0.4483285248 0.4260489941 0.274854809
-0.1570724994 -0.1139474437 1.017194152 0.05999193341 0.3833812177 0.8032256961
-0.1575573683 -0.1123968959 1.048016071 0.5867891312 0.4578429163 0.08122629672
-0.1575883627 -0.1114860103 1.033634901 0.350959748 0.4218417704 0.4072699845
-0.1578513086 -0.1093349829 1.023959279 0.201673612 0.3964357674 0.6164391637
-0.1631126404 -0.1137115881 1.012173414 -0.02498543821 0.3761023283 0.9261994362
-0.1243028119 -0.04891839996 0.9781134129 -0.2426255196 -0.06235504523 0.9672350883
-0.112605758 -0.04292218387 0.9848626256 -0.3287329078 -0.04726621136 0.9431790709
-0.118372336 -0.04166758806 0.9827668667 -0.291508913 -0.08107791841 0.9512679577
-0.1237132996 -0.04262979701 0.9787077904 -0.2467771024 -0.0826041773 0.9640151262
-0.1685925722 -0.07622779161 0.9844808578 0.3701346517 0.1937011629 0.8881910443
-0.1717926562 -0.08636632562 0.9954071045 0.1990997493 0.2220892459 0.928334713
-0.1754796356 -0.0784143135 0.9948862195 0.299559027 0.2889243662 0.8958064318
-0.1690353602 -0.08203036338 0.989053607 0.2789987624 0.1928140372 0.9113981128
-0.180791527 -0.08620357513 1.003454208 0.1704982221 0.3165588081 0.9255875349
-0.1781224757 -0.09090650827 1.005250216 0.1030137315 0.291157335 0.9452562928
-0.1614948511 -0.06423730403 0.9778133631 0.3456332386 0.004034794401 0.9148505926
-0.1742329597 -0.07250060141 0.9925100803 0.3349035978 0.2288343161 0.8850037456
-0.1681203544 -0.07074243575 0.9869967699 0.2903588712 0.1387999207 0.9194703698
-0.1764903814 -0.06158689409 0.9864823818 0.6116960049 0.1686241031 0.7667410374
-0.1706561446 -0.07560643554 0.9894927144 0.3391973376 0.2696997523 0.8904743195
-0.1626030207 -0.06914254278 0.9811933041 0.2882038653 0.07582109421 0.9344242215
-0.160617888 -0.07232721895 0.9768029451 0.4300663471 0.1942691356 0.877581358
-0.1570114642 -0.06643721461 0.9745559096 0.310418725 0.003231385723 0.9396888614
-0.1818581522 -0.04148386791 0.9858421683 0.5557216406 -0.001882169512 0.8259342313
-0.1798394918 -0.03475429118 0.9836677909 0.483769387 -0.1104404032 0.8583821058
-0.1707256585 -0.02939624153 0.9841223955 0.3232280314 -0.1603934914 0.9023471475
-0.1712313443 -0.03600008786 0.9850250483 0.4027879238 -0.09844028205 0.8779195547
-0.1658762097 -0.03310154751 0.9836425781 0.2966208458 -0.1416197121 0.921366632
-0.1692161858 -0.04097944126 0.9837208986 0.4162871242 -0.07380832732 0.8914874792
-0.156992808 -0.1055791304 1.071643829 0.8818488121 0.381532222 -0.1863815933
-0.1582395732 -0.1094843149 1.066722751 0.7918968797 0.5175228715 -0.2837995291
-0.1625850201 -0.1092630252 1.070359588 0.6586998105 0.5860993862 -0.3723025024
-0.1928423196 -0.1281396002 1.018062115 0.09042066336 0.42920807 0.8983873129
-0.1889204979 -0.1134348661 1.008938789 0.06301377714 0.3482011259 0.9342689514
-0.1900006384 -0.1216840595 1.013597012 0.06921694428 0.3894414604 0.9165891409
-0.02747631818 -0.09274300933 1.090000033 0.0774853304 0.2580241263 0.9427476525
-0.02827763185 -0.08517906815 1.090000033 0.1700651646 0.2866419554 0.9258468747
-0.0169253014 -0.09215311706 1.090000033 0.1098404303 0.2634138167 0.9501706958
-0.01710144803 -0.09798365831 1.090000033 0.04092847928 0.2395551652 0.9632819891
-0.02297937311 -0.08592146635 1.090000033 0.1666754484 0.2877906263 0.930670023
-0.02188635431 -0.0939770788 1.090000033 0.07506546378 0.2550673783 0.9499596357
-0.02683266066 -0.1016481966 1.090000033 -0.02830223925 0.2228287011 0.963065505
-0.02447837032 -0.09527222067 1.084687114 0.08599990606 0.2274907231 0.9623231888
-0.01855910942 -0.09643075615 1.083964825 0.03760296106 0.2449817359 0.9589333534
-0.0217116382 -0.1012265682 1.085535884 -0.02660769969 0.2227814347 0.9664818048
-0.02159113251 -0.08718004823 1.079904437 0.2032724917 0.2912303805 0.9262102246
-0.0215099249 -0.1048329398 1.090000033 -0.04628394544 0.209531635 0.9745049477
-0.01957984082 -0.1089761183 1.086640835 -0.05038339272 0.1765673906 0.9818078279
-0.02611002326 -0.1187391281 1.090000033 0.003576380899 0.08441253006 0.9957129955
-0.03534308448 -0.1195056587 1.090000033 0.0231847167 0.0827934593 0.9943861961
-0.02791395597 -0.1089256182 1.090000033 -0.07314512134 0.1785377115 0.9797663689
-0.08355209976 -0.1616222262 1.099113703 0.1935643405 -0.2995396554 0.9342423677
-0.08828799427 -0.1714048088 1.093969226 0.1935643405 -0.2995396554 0.9342423677
-0.08657959104 -0.1670708805 1.099095583 0.1935643405 -0.2995396554 0.9342423677
-0.0906091556 -0.1666737646 1.09339571 0.1935643405 -0.2995396554 0.9342423677
-0.09010047466 -0.1737805754 1.088999987 0.1935643405 -0.2995396554 0.9342423677
-0.0834197104 -0.170818463 1.086788177 0.1935643405 -0.2995396554 0.9342423677
-0.08833514899 -0.167943418 1.087000012 0.1935643405 -0.2995396554 0.9342423677
-0.09377616644 -0.1705686897 1.087978721 0.1935643405 -0.2995396554 0.9342423677
-0.1072741449 -0.02924130298 0.987651825 -0.3060029745 -0.07387019694 0.9488925338
-0.1108623222 -0.03769742697 0.9860418439 -0.3246932924 -0.06069415808 0.9435220361
-0.1307578981 -0.006712995935 0.9874846935 -0.100242421 -0.2545178235 0.9606161714
-0.129614383 -0.01310191303 0.9860355258 -0.1111485735 -0.2277354449 0.9629335999
-0.1232250929 -0.01898201928 0.9855793715 -0.1955249012 -0.1598287523 0.9576495886
-0.1405270249 -0.0105932029 0.9871862531 -0.03558063507 -0.3048145771 0.9512814879
-0.1268226206 -0.02648421749 0.9836670756 -0.1775574684 -0.1760072857 0.9619554281
-0.1167160124 -0.02556459978 0.9849004149 -0.2840085626 -0.09133568406 0.9527511597
-0.1296574175 -0.01881322823 0.9853695035 -0.1216835678 -0.2068384737 0.9615854025
-0.1342032105 -0.01384125836 0.982919395 -0.082258977 -0.260949403 0.9591260552
-0.1394348741 -0.01601626724 0.9827256203 -0.05444232002 -0.2852822244 0.9540966749
-0.1341425031 -0.02353470959 0.9768387079 -0.09400621802 -0.2438520342 0.9642933011
-0.132364884 -0.0181687288 0.9794734716 -0.101549767 -0.2434525937 0.961171329
-0.2134818882 -0.0926470682 1.011650324 0.2234795988 0.1900757998 0.9527645111
-0.2085427046 -0.08696920425 1.010827184 0.2306183726 0.143691957 0.9600042701
-0.2072403133 -0.09310101718 1.012256265 0.2275221497 0.1997600198 0.9479883909
-0.1796430349 -0.08036190271 1.002579451 0.2191221118 0.3098575175 0.9172283411
-0.1864064038 -0.09262096882 1.005884767 0.07958425581 0.2616277933 0.9611111879
-0.189477846 -0.0867279321 1.005075097 0.1403796524 0.208288461 0.9661573768
-0.1880950481 -0.09763411433 1.006426573 0.07094427198 0.2745102048 0.9582212567
-0.1917556375 -0.101640597 1.006844282 0.07686644047 0.277215004 0.9573950768
-0.1931560636 -0.09513622522 1.006646752 0.09690756351 0.244586423 0.9645177722
-0.1662825495 -0.1217663884 1.051895142 0.4777059555 0.5196301341 0.105616942
-0.1635940969 -0.1145850569 1.061886191 0.53855443 0.6474537849 -0.3156991899
-0.2025664896 -0.1095943004 1.013468146 0.1715433449 0.3253678381 0.92467767
-0.2010175288 -0.1174702346 1.015432119 0.1323445439 0.3831606507 0.9112009406
-0.1969605833 -0.1116761342 1.012518764 0.1200483441 0.3444452286 0.9275313616
-0.1954464912 -0.1193491966 1.013808727 0.0987495929 0.3908450902 0.9133034348
-0.1992584318 -0.1228069216 1.016559958 0.1178164408 0.4147958159 0.9015412927
-0.1616014093 -0.04548672959 0.9749624729 0.215198189 -0.08800501376 0.9644501209
-0.1606721282 -0.03977571055 0.9758341908 0.1592755616 -0.1346508265 0.9749332666
-0.1558751464 -0.04937853292 0.9741860628 0.1266701669 -0.1025874391 0.9842767119
-0.1666891128 -0.04101750627 0.975867331 0.2853412032 -0.08667834103 0.9490478039
-0.1583224386 -0.05921712145 0.9737536311 0.2557011247 -0.05196407065 0.9621239305
-0.1627386361 -0.02219476551 0.9812896252 0.1197966933 -0.2461726069 0.9609143138
-0.1514654458 -0.03980219737 0.9810397625 0.1452613622 -0.1265566051 0.9458752275
-0.1523592174 -0.04383382946 0.9774295092 0.1250410676 -0.1133931279 0.9645419121
-0.1449068338 -0.03951280937 0.9793480635 0.02555935644 -0.1463425159 0.9659255743
-0.1572958827 -0.04379555956 0.9789492488 0.2174842507 -0.09917173535 0.9480773211
-0.1398704052 -0.03629815578 0.9809279442 -0.03897734731 -0.1693821847 0.9652824402
-0.1456223428 -0.02781002596 0.9810000062 -0.02186567895 -0.2412428111 0.9647305012
-0.1479573548 -0.03407871723 0.9812964797 0.05930263922 -0.1800810993 0.9542765021
-0.1545233876 -0.03099423461 0.9813246131 0.1246905848 -0.2022954971 0.9483391643
-0.1605451256 -0.03499523923 0.9816239476 0.2410586476 -0.1585319191 0.9346027374
-0.1620396376 -0.04037408903 0.9818739295 0.306158036 -0.1064842194 0.9258692265
-0.1443389803 -0.04383710399 0.9751170278 -0.02359614521 -0.1343194246 0.9898658395
-0.1375281662 -0.04044050351 0.9774637818 -0.1081954464 -0.1367060542 0.9815957546
-0.123676531 -0.03820255026 0.9814015627 -0.2380521446 -0.1343634278 0.9613562822
-0.1348108798 -0.04856223986 0.9757857323 -0.1559272557 -0.0689233169 0.9826264381
-0.1333112866 -0.03779905662 0.9800378084 -0.1407975405 -0.1641249806 0.9742723107
-0.128635481 -0.04449393973 0.9767258763 -0.212298736 -0.07161579281 0.9738885164
-0.1735693067 -0.09988378733 1.008331656 0.02159736305 0.2970307767 0.9542800784
-0.179829821 -0.0967476517 1.006658554 0.04813098535 0.2782040536 0.959231019
-0.176754266 -0.08592877537 1.011198401 0.1368104964 0.2933563292 0.8593853712
-0.1765706837 -0.08558934927 1.016745687 0.1922480166 0.3526645601 0.7460947037
-0.1730283946 -0.09061044455 1.017298579 0.1447010785 0.3672895133 0.7634230852
-0.1739902943 -0.08726640791 1.035375953 0.3488536477 0.5567013621 0.3815681338
-0.1749738306 -0.08649548143 1.029487014 0.3018797338 0.4917912185 0.4954297543
-0.1729345918 -0.09003411978 1.023840904 0.2119293064 0.4369311035 0.6288173199
-0.1732667387 -0.09089427441 1.011539936 0.08787127584 0.3056040406 0.880641222
-0.1775990427 -0.04602907225 0.9814862013 0.4995386899 -0.004892922938 0.8607296348
-0.1740344614 -0.04998094589 0.9786248803 0.4600038826 0.008429895155 0.8846482635
-0.1784873307 -0.03939585388 0.9814274311 0.482955277 -0.06696338952 0.8689444661
-0.1737055779 -0.03754272312 0.9779646993 0.3960427046 -0.05924865231 0.9134218693
-0.1705672592 -0.05353669822 0.976539731 0.4211996794 0.02781532891 0.9044771194
-0.1682950705 -0.04780771583 0.9752827883 0.359516263 -0.02412374504 0.9310312867
-0.1722534299 -0.04312202334 0.9772046804 0.3989357054 -0.027071191 0.9134121537
-0.1834421903 -0.05346152186 0.9902063608 0.6158754826 0.1572088003 0.771604538
-0.184486419 -0.04753898457 0.9896843433 0.589861095 0.1105111018 0.7972410321
-0.1782099158 -0.05303604156 0.9873793721 0.6007711887 0.0994900912 0.7872175574
-0.175362736 -0.06031642109 0.9807360172 0.5587004423 0.1649981588 0.8122419119
-0.1763525158 -0.05365294591 0.9813343883 0.5348507762 0.09769117087 0.8352566361
-0.1682068259 -0.1042850614 1.073513627 0.611920774 0.6459038854 -0.4502434731
-0.1631275266 -0.1024262831 1.073359847 0.6869930029 0.5393586159 -0.3334919512
-0.1608929634 -0.09649191052 1.074779749 0.9577090144 0.2216723561 -0.06646540761
-0.1715032458 -0.09899049252 1.07349205 0.8277500868 0.4012255967 -0.2879331112
-0.17516011 -0.1278914362 1.01817739 -0.00990812853 0.4379492998 0.8987067342
-0.1844391078 -0.1214645877 1.012966037 0.03864857927 0.3878106177 0.9186025858
-0.1805211306 -0.1305811554 1.018185616 0.01776120253 0.4382466674 0.8979789019
-0.1840540618 -0.1148408428 1.010263562 0.0336818099 0.3639391959 0.9286043644
-0.1810761839 -0.1254614294 1.015809178 0.01923676021 0.4164254069 0.9070242643
-0.1883241236 -0.1325753629 1.018836617 0.06199519709 0.4377916157 0.8966742754
-0.1815971732 -0.1390475333 1.021274209 0.03764628991 0.4300463498 0.9019212127
-0.1759269387 -0.1344557256 1.019789934 0.008897102438 0.4335460365 0.900744617
-0.059439376 -0.1594037861 1.091956496 0.1957188696 -0.2982553244 0.9341658354
-0.0631127879 -0.1583710313 1.095876336 0.2085400075 -0.2906125188 0.9337103367
-0.06771925837 -0.160642609 1.097763538 0.2003856003 -0.2954734266 0.9340000749
-0.04299069941 -0.1338727921 1.091798186 0.09166000783 0.02355100773 0.9954600334
-0.08192546666 -0.165163368 1.087757945 0.1935643405 -0.2995396554 0.9342423677
-0.0741578266 -0.1661114842 1.088412046 0.1935643405 -0.2995396554 0.9342423677
-0.0700699091 -0.1606018394 1.090714693 0.1935643405 -0.2995396554 0.9342423677
-0.07902193069 -0.1595579088 1.093870044 0.1935643405 -0.2995396554 0.9342423677
-0.0737977922 -0.1577060521 1.093813658 0.1935643405 -0.2995396554 0.9342423677
-0.08785367757 -0.163584888 1.090026379 0.1935643405 -0.2995396554 0.9342423677
-0.207268998 -0.07842136919 1.006231546 0.2708884478 0.1344056129 0.9522434473
-0.1952628493 -0.07590615749 1.002977014 0.241283223 0.1921165884 0.9509992003
-0.2003061175 -0.07906909287 1.004650593 0.2439624369 0.1570838541 0.9558191299
-0.2000116855 -0.07342793792 1.003406525 0.2924690247 0.1941990554 0.930662632
-0.1831762642 -0.06853657216 0.9971454144 0.4909743071 0.2666611969 0.81350106
-0.1925969124 -0.06754669547 0.9998062849 0.3633952439 0.2748836875 0.8811805248
-0.1866511852 -0.0722463876 0.9987196922 0.4032699764 0.3180240989 0.8527602553
-0.1797180772 -0.06711495668 0.9929610491 0.5143121481 0.2400621921 0.8025443554
-0.1796023399 -0.07565613836 0.998519659 0.3356792927 0.3193527758 0.8708729148
-0.1701300293 -0.06744780391 0.9788191319 0.5011655092 0.1704879701 0.8438081145
-0.1742928922 -0.06757267565 0.9833596349 0.4924354255 0.2109875679 0.8374702334
-0.176817894 -0.06986830384 0.9877045751 0.4661518633 0.248871997 0.8415674567
-0.1805864424 -0.07252947986 0.9940525293 0.4214342833 0.303016752 0.8482834101
-0.194674328 -0.08477252722 1.005379915 0.1855333149 0.1293396652 0.9731057882
-0.1870304346 -0.07999274135 1.002140284 0.2560314536 0.2552176416 0.9164902568
-0.1363570988 -0.03189994022 0.9810336232 -0.09980209917 -0.2113630921 0.9699494839
-0.1430405378 -0.02175318822 0.9819189906 -0.0210083127 -0.2867859304 0.9558534026
-0.1378280222 -0.02550765872 0.9827871323 -0.08042640239 -0.2402260453 0.9645038247
-0.1343343556 -0.02208325081 0.9841077924 -0.08263775706 -0.230981499 0.967551589
-0.1312260032 -0.03301107138 0.9816351533 -0.1530483961 -0.1823582649 0.969545722
-0.06417691708 -0.1636230052 1.091921449 0.1935643405 -0.2995396554 0.9342423677
-0.07252982259 -0.163004458 1.098833919 0.1935643405 -0.2995396554 0.9342423677
-0.04314503446 -0.144745782 1.09216249 0.1610762328 -0.01699549519 0.9858863354
-0.03643647954 -0.1442707032 1.09117806 0.1015573442 0.01381983887 0.9942778945
-0.04347388446 -0.1391738504 1.092568874 0.1304753423 -0.0003355658555 0.9900120497
-0.03825142607 -0.1380345821 1.092229486 0.1226575971 0.004344331101 0.9911923409
-0.07573190331 -0.171585083 1.087518692 0.1935643405 -0.2995396554 0.9342423677
-0.07873827964 -0.1655649841 1.098967075 0.1935643405 -0.2995396554 0.9342423677
-0.0790495649 -0.1708974093 1.091817021 0.1935643405 -0.2995396554 0.9342423677
-0.2139045447 -0.08843372762 1.00792253 0.2251942605 0.1273988485 0.965738833
-0.2006959468 -0.09169189632 1.006487489 0.1835624576 0.1659227014 0.9663342237
-0.1951386631 -0.09050933272 1.00622201 0.1414802074 0.1883188039 0.9692015648
-0.2058068812 -0.09245795012 1.006715894 0.2235938609 0.1429030895 0.9638845921
-0.2040022165 -0.08594466001 1.00653398 0.2259067297 0.1146730408 0.9671504498
-0.2086215317 -0.0992975384 1.009446025 0.2183005512 0.2187416703 0.9469924569
-0.2114362866 -0.09454208612 1.006686449 0.2214590013 0.1515212357 0.9627076387
-0.2031943202 -0.1027997732 1.010321736 0.1815709174 0.2697739601 0.940985322
-0.2013235688 -0.09752969444 1.006964684 0.1640559733 0.203928411 0.9600633979
-0.18775253 -0.075737454 1.038065076 0.4947690964 0.5262721777 0.3205834031
-0.1819695085 -0.0784740299 1.048737168 0.5647587776 0.664575994 0.09248173982
-0.1923341304 -0.07308457047 1.027502298 0.4298483729 0.4053493738 0.5325924158
-0.1976015121 -0.07014136761 1.01582253 0.3572958112 0.2688262463 0.7694439888
-0.1909624934 -0.0540635176 0.9956960082 0.5299382806 0.1656969339 0.8193196654
-0.2060027272 -0.07157670707 1.00458169 0.3394877613 0.1854036301 0.9143561721
-0.1964121759 -0.06357317418 1.000612378 0.4122931659 0.2804566324 0.8605801463
-0.1804486066 -0.07981558144 1.024193764 0.3879255354 0.4861846864 0.5214630961
-0.1778036505 -0.08104491234 1.043567657 0.5059280396 0.6490278244 0.1720626801
-0.1800209284 -0.08117195219 1.016630292 0.2943270504 0.3985413909 0.686583519
-0.1771635413 -0.0826183483 1.036466956 0.4102901518 0.5628143549 0.3317715228
-0.1807390004 -0.08109145612 1.009030581 0.2376396954 0.3293970227 0.8299251199
-0.07161933929 -0.1569486558 1.099957108 0.1951227486 -0.2509722412 0.9444221258
-0.07737720758 -0.1608181447 1.102032661 0.1937752515 -0.2929668128 0.9356200695
-0.05437818542 -0.1480515003 1.093571782 0.2014827728 -0.1579476148 0.9633679986
-0.0558947362 -0.1545809656 1.093007684 0.2165342569 -0.267054975 0.93746382
-0.06632155925 -0.1549600363 1.098607302 0.1975569427 -0.2207175195 0.9505241513
-0.06446973234 -0.1523670256 1.094407797 0.1960231215 -0.2229121029 0.9503035545
-0.1904288977 -0.07076700777 1.019052029 0.4145439565 0.4221073389 0.6188127995
-0.1939662695 -0.06907962263 1.012290955 0.3693597317 0.333188355 0.763201654
-0.1882290989 -0.07437019795 1.032359958 0.4683658779 0.4913114309 0.4099205136
-0.1822351813 -0.07671543956 1.0419842 0.5397516489 0.6391812563 0.1892292798
-0.1781670898 -0.07970678806 1.053505301 0.602298975 0.7471634746 -0.02582756616
-0.1992287487 -0.06844181567 1.008907318 0.3210004866 0.2111032605 0.8906805515
-0.1840154231 -0.0757746771 1.02584517 0.4517526031 0.5156418085 0.4692360163
-0.1815689206 -0.07747229934 1.036509991 0.5095890164 0.6058780551 0.2775823474
-0.1866425723 -0.07453051955 1.005525827 0.3388104141 0.3529397547 0.826902926
-0.1848510057 -0.07546366006 1.018084884 0.4083917141 0.454264164 0.6052168012
-0.1872655302 -0.07280354202 1.022644043 0.4377920926 0.4771513343 0.5360181928
-0.1832146645 -0.07618653029 1.031538606 0.4833120108 0.5615245104 0.3687788248
-0.1887983233 -0.07194615901 1.012803197 0.3834448755 0.3971721828 0.7101984024
-0.192814216 -0.06844709069 1.006211042 0.3510783315 0.3300449848 0.8378742933
