# .PCD v0.7 - Point Cloud Data file format
VERSION 0.7
FIELDS x y z normal_x normal_y normal_z
SIZE 4 4 4 4 4 4
TYPE F F F F F F
COUNT 1 1 1 1 1 1
WIDTH 512
HEIGHT 1
VIEWPOINT 0 0 0 1 0 0 0
POINTS 512
DATA ascii
-0.08913440257 -0.2709589005 0.983135283 -0.2070311159 0.3394539654 0.917368114
-0.07077977806 -0.1144124568 0.9596396089 0.05753801391 -0.306185782 0.9496060014
-0.06779759377 -0.1202491894 0.9563143253 0.03617254272 -0.3011822999 0.9523308277
-0.06717763841 -0.1088436246 0.9612749815 0.05928338319 -0.311876148 0.9480538368
-0.06344333291 -0.1137936339 0.9590916038 0.04176564515 -0.30346784 0.9513719082
-0.07899650931 -0.143275857 0.9414945245 -0.08634277433 -0.2690278292 0.9570500851
-0.08928017318 -0.1421622634 0.9383773208 -0.09425652027 -0.3490325511 0.9312190413
-0.08350288868 -0.1386614293 0.9419794679 -0.07243595272 -0.3089332879 0.9458696842
-0.05759363621 -0.1311918348 0.9533493519 -0.007888590917 -0.2543631196 0.9666028619
-0.05567290634 -0.136378333 0.9487652779 -0.07862000912 -0.2303418219 0.9670549035
-0.06168870628 -0.1062429324 0.9496784806 0.04171112552 -0.3069189489 0.9506613016
-0.06276409328 -0.1087553427 0.9547315836 0.04402406886 -0.3073987365 0.9503051639
-0.05597629026 -0.1186951846 0.954146862 0.01406000741 -0.2895864248 0.9568124413
-0.0570191294 -0.1135522053 0.9500958323 0.02075492777 -0.29518345 0.9550154805
-0.05812840164 -0.1071903706 0.9440200925 0.02857904509 -0.2994667292 0.9535108209
-0.1037513986 -0.2643307149 0.9758610129 -0.1108904034 0.3721570969 0.9196484685
-0.1006266251 -0.2683613598 0.9790226817 -0.1573044211 0.3500998914 0.922944665
-0.1008807197 -0.2264844775 1.029221654 0.6920889616 0.6857653856 -0.1852918267
-0.09680504352 -0.2307547629 1.031792879 0.6613228917 0.6796176434 -0.295732677
-0.08488851041 -0.2555350363 1.001171231 0.1610079408 0.4478837848 0.4714083076
-0.08524951339 -0.2667835355 0.9892047644 -0.1207098961 0.3652925789 0.8018345237
-0.08366372436 -0.2517929971 1.005939841 0.2620802522 0.4795860052 0.3498401642
-0.08265908808 -0.2448973507 1.012980819 0.4244870842 0.5275096893 0.1578024924
-0.07881873101 -0.2568819821 0.9954900742 0.01154360548 0.4038496017 0.6359590292
-0.08525954932 -0.2610960603 0.9966669083 0.04859924316 0.4166689515 0.6027063131
-0.08286248147 -0.2657538652 0.9826365113 -0.2221236974 0.3326100707 0.9165059924
-0.09003141522 -0.1425108314 0.9496822357 -0.05938443169 -0.3118363619 0.9438685179
-0.08930507302 -0.1547204405 0.9439741969 -0.1152836233 -0.2543136179 0.9581918716
-0.09113495797 -0.1483849287 0.9460540414 -0.08692071587 -0.2845101357 0.9511290193
-0.09592188895 -0.149855122 0.9424077272 -0.09580839425 -0.2787520587 0.9540932775
-0.1063117534 -0.235340476 0.96620965 -0.1415185332 0.1893646121 0.9714236856
-0.1094777063 -0.2405657321 0.9667693377 -0.1075353473 0.2117048651 0.9712728262
0.0477986373 -0.2261599302 1.038216472 0.06343255937 -0.01657347567 0.9944371581
0.04942268506 -0.2175492346 1.038987279 0.1469848603 -0.01937948354 0.9853641391
-0.1032120958 -0.2579314709 0.9764503837 -0.1310101449 0.3544173241 0.924562037
-0.1040215045 -0.2516569495 0.9717856646 -0.1309374422 0.3157331049 0.9337438345
-0.09553004056 -0.2643381357 0.9762227535 -0.2091751695 0.3404184878 0.916259706
-0.09616687149 -0.2576595545 0.9751881361 -0.204624787 0.3419255018 0.9165167809
0.04648644105 -0.231688112 1.038151979 0.01213872526 -0.01445187815 0.9998205304
-0.09641446173 -0.1655138433 0.9349057674 -0.0446107313 -0.1575059295 0.9842258692
-0.1180268601 -0.2283722013 0.9636415839 -0.09199568629 0.2364817411 0.9636856914
0.0371411927 -0.1467907429 1.027576923 0.2176403999 0.1861982197 0.958103776
0.04178713635 -0.1529272199 1.029201269 0.2176403999 0.1861982197 0.958103776
0.04036940262 -0.156752795 1.034214497 0.2176403999 0.1861982197 0.958103776
0.04430598393 -0.1613506377 1.034214139 0.2176403999 0.1861982197 0.958103776
-0.06502888352 -0.1336171776 0.9504609704 -0.02810724825 -0.2477165908 0.9681137204
-0.06711412966 -0.1279045045 0.9516550899 0.000261722249 -0.2832206488 0.958427906
-0.07483100891 -0.1494968385 0.9393772483 -0.1259115636 -0.2409263402 0.9619309306
-0.07409380376 -0.1348951757 0.9467076063 -0.05135770515 -0.2451375127 0.9678251147
-0.06226032972 -0.124683097 0.9537947178 0.01659530215 -0.2922368944 0.956153512
-0.1531177759 -0.2071419209 0.9673945308 0.3940011561 0.1473289281 0.907158792
-0.1078627333 -0.1329091638 0.9468904138 -0.0135761844 -0.3730508089 0.9265514612
-0.09827265888 -0.1244336814 0.9461928606 0.04446486384 -0.426666081 0.8992646933
-0.09689272195 -0.1209951788 0.9526460171 0.06175035983 -0.4831331968 0.8701561689
-0.1013317332 -0.1258132309 0.9516896009 0.02889255993 -0.4306267798 0.9012486935
-0.08819948137 -0.2322585732 1.030965209 0.8171533346 0.5561742187 -0.1307167113
-0.08783277124 -0.2250167131 1.027721524 0.786770761 0.6120064855 -0.07015223056
-0.08613760024 -0.2197946906 1.024368167 0.7391536236 0.6674411893 -0.04027233273
-0.08187697828 -0.2255818248 1.024798393 0.7866486311 0.6054592133 -0.06652683765
-0.07825349271 -0.2377684265 0.9840151072 -0.006630488206 0.2963851392 0.7345864177
-0.0782893002 -0.2377201766 0.9958707094 0.2160545886 0.3721328676 0.5122744441
-0.07712426782 -0.2490924895 0.9815382957 -0.1974435151 0.2966252863 0.8999961019
-0.07725441456 -0.2479599863 0.9883641601 -0.05514276773 0.3386687338 0.7603829503
-0.07801370323 -0.2408182323 1.007932305 0.4024734199 0.4536658823 0.3191905022
-0.07789441943 -0.2412600964 0.9790924191 -0.1433690488 0.2698625326 0.8633990884
-0.07779473811 -0.2428080589 0.9996477365 0.2219166011 0.4035116732 0.4951080382
-0.07669827342 -0.253611654 0.9899690151 -0.09715908766 0.3569568694 0.7897843122
-0.07852242887 -0.2358752042 1.01505661 0.59896034 0.4922068715 0.1339274794
-0.07774396241 -0.2431068271 0.9915642738 0.06669264287 0.352242142 0.6494824886
-0.07717906684 -0.2493760884 0.9987190366 0.1296492517 0.4058283567 0.5742443204
-0.07621653378 -0.2609268129 0.9866146445 -0.1941674054 0.3387755454 0.8809251785
-0.07994096726 -0.2473310232 1.007768273 0.3192062974 0.4807602465 0.3129721284
-0.07998024672 -0.2369062901 1.020377755 0.6749874949 0.5409150124 0.006986569148
-0.08391501755 -0.2349216789 1.025844812 0.7420380712 0.6102814674 -0.1836299151
-0.109806709 -0.2175176889 1.024575114 0.7564028502 0.5423545837 -0.1396103054
-0.1301994026 -0.2005065531 0.9752525687 0.4084610343 0.3808641732 0.6541369557
-0.1191652641 -0.2091560364 1.001438379 0.4811325371 0.6668846011 0.1739036292
-0.1167547926 -0.2097835094 0.9942985773 0.3552586138 0.6214384437 0.3150827587
-0.1166924983 -0.2072181404 0.967807889 0.06205235422 0.3994917572 0.822114408
-0.123650901 -0.2059883922 0.9943452477 0.4907405674 0.5804201365 0.3011609018
-0.125552997 -0.2037853152 0.9825755358 0.3982390761 0.4702222943 0.5227867365
-0.1232758611 -0.2042347044 0.9743695259 0.263223201 0.4150279164 0.6841154695
-0.1190792695 -0.2078996599 0.9881532788 0.3330175579 0.555906713 0.4282842875
-0.1331556141 -0.1978944838 0.965233624 0.3558872342 0.2790295184 0.8402698636
-0.1161122397 -0.2122207284 1.015526056 0.5766581297 0.8034471273 -0.08990388364
-0.1158749387 -0.2086985409 0.978302896 0.1617299169 0.4924793839 0.6228315234
-0.1217391118 -0.2044050395 0.9674770236 0.1571758687 0.3664111197 0.8189105988
-0.126795724 -0.2018509656 0.9698418379 0.282206893 0.3558935225 0.7641052604
-0.1046191603 -0.2447366714 0.9692258239 -0.1374584734 0.2441540956 0.9571254253
-0.09722364694 -0.2475834936 0.9721292257 -0.1857381016 0.2785435319 0.9403803349
-0.08222052455 -0.2483798414 0.9750849605 -0.2391662896 0.3082686067 0.9203750491
-0.08884850889 -0.248955369 0.9743472338 -0.2153572589 0.2960955501 0.9296245575
-0.127820462 -0.2485803068 0.9779676795 0.1323429942 0.400205791 0.8569391966
-0.1252631843 -0.2383808196 0.9883345366 0.2624279559 0.512622416 0.5927348137
-0.1278887391 -0.2435339838 0.9825206399 0.2037487477 0.4521410465 0.7341093421
-0.1193923131 -0.2232030332 1.004653811 0.4450953305 0.6856147647 0.1873566955
-0.1086012125 -0.2627453804 0.9795799255 -0.1007056236 0.3594595492 0.9254007936
-0.1177054048 -0.2577412426 0.9776998162 -0.008303664625 0.3681277335 0.9242556691
-0.1134514809 -0.2567825019 0.9726548791 -0.01829321124 0.3802972436 0.9238840342
-0.1228629053 -0.253608048 0.9752802849 0.05413826555 0.3780927062 0.9228132367
-0.1245797649 -0.2489905804 0.9713025093 0.06993715465 0.3530641794 0.9308307171
-0.1273994446 -0.2435839772 0.968146503 0.09136097133 0.3293920755 0.939414084
-0.125821203 -0.2371257842 0.9658333659 0.08241366595 0.3323922157 0.9394898415
-0.1174844801 -0.2355122566 0.9650034308 -0.07123938948 0.2540044785 0.9598901868
-0.1183965057 -0.24907206 0.9690966606 0.01679296792 0.339133352 0.9387274981
-0.1177076772 -0.2426837236 0.9667044878 -0.01364161633 0.2755768895 0.9583294392
-0.1119809374 -0.2461311221 0.9681636095 -0.0616995506 0.2739172578 0.9567187428
0.02967021987 -0.222887218 1.043411374 0.1086605713 -0.06151214987 0.9906081557
0.02047569863 -0.2413466275 1.038364887 0.3383489847 -0.1448999941 0.9278728962
0.02429748327 -0.2370655835 1.038250208 0.2850565612 -0.09571550041 0.9508583546
0.03659391776 -0.2304348052 1.037860155 0.1822824031 -0.07764998823 0.9740960002
0.03874585405 -0.1833539754 1.041636109 0.2252717763 0.08840592951 0.9699984193
0.03710336611 -0.1758341789 1.041431665 0.2183221579 0.1708885282 0.9600926638
0.0336266458 -0.2102089077 1.043857217 0.1759619564 -0.03212892264 0.9815673828
0.03584249318 -0.2019119114 1.049386024 0.2132074535 -0.006668976508 0.9768784642
0.04059749469 -0.2134756446 1.037987709 0.1671864092 -0.03119088337 0.9847771525
0.03459283337 -0.2140136808 1.039147615 0.1684144735 -0.04063753784 0.9832174778
0.03946490213 -0.2234253883 1.039740443 0.1071198285 -0.06318695098 0.9915938973
-0.0888293311 -0.2561903298 0.9762890935 -0.2242449075 0.3318585157 0.9162599444
0.03922424465 -0.2416066527 1.040656567 0.08074591309 -0.04296240211 0.9866974354
0.04188777879 -0.2368092388 1.038000107 0.1247250885 -0.06435826421 0.9735152721
-0.1237260997 -0.1869839728 0.9468191266 0.4707004428 0.3248759806 0.8127574325
-0.1249214113 -0.1969345361 0.9517685175 0.3349054754 0.3365308642 0.8665915132
-0.1347860992 -0.1811224967 0.9472616911 0.5240027905 0.2617168128 0.8094052076
-0.1286169738 -0.1813280284 0.9436271191 0.4779137373 0.2640882134 0.8328415155
-0.124466531 -0.1781600565 0.940784812 0.4692261815 0.2355861515 0.8467408419
-0.1192069873 -0.1825255156 0.9386512041 0.4105919898 0.2794458866 0.8631759882
-0.07338654995 -0.11208608 0.9477621913 0.09713320434 -0.3930414319 0.909206152
-0.07894340158 -0.1125597358 0.9513947964 0.1224183589 -0.4036399424 0.9037784934
-0.07093946636 -0.1079539135 0.9517768621 0.07751374692 -0.3238697946 0.9414024949
-0.0551183708 -0.1250716746 0.9532142878 0.01390012354 -0.2692386806 0.9627682567
-0.06817379594 -0.1113661155 0.9453010559 0.07040818781 -0.3565579951 0.9265442491
-0.0885238871 -0.1145632118 0.9573933482 0.1056317016 -0.4667950273 0.8743084669
-0.08373539895 -0.1254514605 0.9543217421 0.02524208836 -0.3398220837 0.9392512441
-0.08625828475 -0.1313386112 0.9512366652 0.005264414474 -0.3484191298 0.9371353388
-0.07329533249 -0.1223940551 0.9554384947 0.03127082437 -0.314553827 0.9478552341
-0.07588206232 -0.1176581383 0.9581657052 0.04953946546 -0.3181567192 0.9457625747
-0.07845653594 -0.1096398383 0.9620670676 0.1067625731 -0.3472976685 0.9303190708
-0.09237902611 -0.1326775849 0.9512822628 -0.009365986101 -0.3563102186 0.9342119694
-0.08268145472 -0.1132338718 0.9596848488 0.1122169346 -0.3876211941 0.9123641849
-0.08779773116 -0.1211911663 0.9554181695 0.06662674248 -0.4133688807 0.902623713
-0.08449181914 -0.1493188739 0.9483661652 -0.08453890681 -0.2767999172 0.9516227841
-0.07867183536 -0.1477430314 0.9465603828 -0.09890764207 -0.2446888387 0.9614933133
-0.07890346646 -0.1549615562 0.9463703632 -0.1218205467 -0.230536744 0.9630935788
-0.08440230787 -0.1387522221 0.949107945 -0.03996597975 -0.307466656 0.946387589
-0.09295515716 -0.1263697594 0.9528427124 0.0268833302 -0.4320670962 0.898837626
-0.08780083805 -0.1246854216 0.9455429316 0.04479677603 -0.4099709988 0.9096568823
-0.1027876958 -0.1293605268 0.9428212643 -0.007193988189 -0.3840217292 0.9227229953
-0.09647165239 -0.1314234585 0.9422053695 -0.01921623573 -0.3832746446 0.9218930006
-0.09033634514 -0.1335253865 0.9415635467 -0.03165520355 -0.382342726 0.9211458564
0.03470372036 -0.1540018916 1.034018874 0.2176403999 0.1861982197 0.958103776
0.03558703512 -0.1605911553 1.037667155 0.2176403999 0.1861982197 0.958103776
0.03699336201 -0.1697435975 1.041254759 0.2176403999 0.1861982197 0.958103776
0.04193273932 -0.1701794118 1.037945151 0.2176403999 0.1861982197 0.958103776
0.04755134508 -0.1725667566 1.037205458 0.2293359935 0.177225858 0.9570021033
0.03770214319 -0.2082366347 1.038000107 0.2033465505 -0.02684470825 0.9786955118
0.04283294827 -0.1991137564 1.038000107 0.2316267639 0.001271940651 0.9723837972
-0.08266212046 -0.2543270886 0.976230979 -0.2314897776 0.3172722757 0.9194192886
-0.0912790969 -0.2596858442 0.9807599783 -0.1965970844 0.3404971361 0.9182307124
-0.08793996274 -0.2568097711 0.9875660539 -0.08395720273 0.3740157485 0.7780400515
-0.08314929157 -0.2570637465 0.9845438004 -0.1744658053 0.3476651609 0.8604482412
-0.09820485115 -0.2619623244 0.9835010171 -0.1183340251 0.3619818687 0.8704853654
-0.09717746824 -0.2528371811 0.999838233 0.2301509082 0.4667033553 0.4546602368
-0.1000090316 -0.2573509514 0.9934635162 0.1058036163 0.4287362099 0.6155595779
-0.09194509685 -0.2552647889 0.9972810149 0.1365342736 0.4376102984 0.5390120745
-0.09473580122 -0.2605378926 0.9896039963 -0.01652087085 0.3909876943 0.7335453033
-0.1042796895 -0.2631349564 0.9849071503 -0.05689681321 0.3792601228 0.8288673162
-0.09331367165 -0.2492228448 1.005565405 0.3314695656 0.4973095953 0.3158443868
-0.09173990041 -0.264128983 0.9849247932 -0.1417338401 0.3525036275 0.8663169146
-0.08500753343 -0.2411758006 1.017734647 0.5476962924 0.5628919601 0.01921902224
-0.09048915654 -0.2464538664 1.009749055 0.4060170352 0.5199226737 0.2137738615
-0.08751653135 -0.2412218302 1.010755777 0.4449110031 0.534140408 0.1370371431
-0.08940071613 -0.2463618368 0.9983388782 0.206567198 0.4633183777 0.4161169529
-0.09284956753 -0.2515041232 0.9845238924 -0.0420573689 0.3897191882 0.7087908983
-0.08955495805 -0.2488114834 0.993083477 0.09781484306 0.4308713973 0.5427163839
-0.08242683113 -0.251909703 0.9929577112 0.007914253511 0.4026908576 0.6397585273
-0.08288277686 -0.2474259883 1.001919627 0.2021663785 0.4607841671 0.414395541
-0.08486757427 -0.262269944 0.9786092639 -0.2206316292 0.3289299607 0.918207407
-0.07748851925 -0.2546964586 0.9819154143 -0.2269489318 0.328440994 0.9168394804
-0.07674558461 -0.1585077941 0.9381150603 -0.1456092894 -0.2204322964 0.9643343687
-0.07284079492 -0.1549905092 0.9414351583 -0.1379994899 -0.222111091 0.9650844932
-0.07718089968 -0.1613105386 0.9442651272 -0.1481587589 -0.2120120078 0.9659463167
-0.0717677027 -0.1478134841 0.9455828667 -0.1183082238 -0.2210532129 0.9679825306
-0.06193907931 -0.1372514665 0.9461117387 -0.1397861242 -0.2219717354 0.9647619724
-0.06451144069 -0.1446301043 0.9483944774 -0.09007843584 -0.2262606919 0.9685540795
-0.06864283234 -0.1418237239 0.9433857799 -0.1331841946 -0.2275416106 0.9643850327
-0.06901367754 -0.1498566121 0.9402570128 -0.1491135508 -0.231808573 0.9610475898
-0.05876841769 -0.1432993561 0.9453164935 -0.1601006687 -0.2171742916 0.9628331065
-0.07447341084 -0.1412412077 0.94592309 -0.08596403897 -0.2308581024 0.9686357379
-0.08793958277 -0.1697651148 0.9375579357 -0.1071019396 -0.1822123975 0.9772520065
-0.08630999178 -0.1597428769 0.9432640076 -0.1375665367 -0.2297251225 0.9629314542
-0.09965721518 -0.2364146262 0.9669266939 -0.1624610871 0.1815090925 0.9693262577
-0.09844310582 -0.2415385395 0.9695668221 -0.1688667238 0.2275134474 0.957578063
-0.09298018366 -0.2371347994 0.9684303999 -0.1924157739 0.1972695887 0.9594697952
-0.07990166545 -0.2411025763 0.9730370045 -0.2317929119 0.2561593056 0.9370037913
-0.08959631622 -0.2431043535 0.9718860388 -0.2088713348 0.2591833472 0.9412950277
-0.1050447598 -0.2144521773 1.023735285 0.6104796529 0.7881182432 -0.07238446176
-0.1103362292 -0.2132579237 1.019405365 0.5895342231 0.8027807474 -0.08417236805
-0.1009352431 -0.2186791301 1.026827693 0.6579539776 0.740755558 -0.08553957194
-0.09413133562 -0.2187502086 1.026496291 0.6534369588 0.7448635101 -0.05389544368
-0.1087244004 -0.1380269229 0.9488267303 0.06419914216 -0.2898444831 0.918548584
-0.1213620678 -0.1548960209 0.9501208067 0.3364250362 -0.03947951272 0.8821757436
-0.1145746037 -0.1439035535 0.947702527 0.1370681077 -0.2130303681 0.9105777144
-0.1205538362 -0.1483711451 0.9441592693 0.1979185045 -0.1680680662 0.9165358543
-0.117388092 -0.1419541389 0.9406016469 0.09111098945 -0.2832495868 0.9429537654
-0.0939855054 -0.2404282689 0.9971430898 0.2649202645 0.4328152537 0.4173606038
-0.09860558808 -0.2419768721 0.9900304675 0.1643895656 0.3896140158 0.5745893717
-0.09479627758 -0.2441000789 0.9759711623 -0.118205823 0.2893058062 0.8617465496
-0.08941474557 -0.2436088473 1.003965735 0.3254381418 0.4980475307 0.2791616619
-0.09561939538 -0.2469006479 0.9874821901 0.06305669993 0.3928890824 0.635399878
-0.09518604726 -0.2525311708 0.9790426493 -0.1261789948 0.3564362526 0.8227820992
-0.1073932871 -0.2303129882 1.007478714 0.5077956915 0.3799394667 0.2160839438
-0.1096625626 -0.2238794118 1.021798253 0.8171355724 0.3186749518 -0.1216557026
-0.1088054031 -0.2275430411 1.013473272 0.6551329494 0.3208040595 0.06306450814
-0.1058523059 -0.2337224185 1.000023007 0.3328561783 0.4378836751 0.4009831846
-0.1067923009 -0.2396260947 0.9856969714 0.1473041326 0.2665455937 0.6580626369
-0.1122627556 -0.2426023781 0.9835734367 0.1460198313 0.283557713 0.7136571407
-0.1141680628 -0.2362369895 0.9979935884 0.4398398995 0.2566224337 0.3856649101
-0.1220296174 -0.2483523041 0.9792716503 0.1225821078 0.3418590426 0.8341023922
-0.113411814 -0.2311489731 1.007789135 0.6266902685 0.2283526808 0.1583778709
-0.1205532625 -0.2452414185 0.9844907522 0.2154674381 0.3215761185 0.7106556892
-0.1075066552 -0.2453025877 0.9744583368 -0.06177372113 0.2833096385 0.9132174253
-0.1150957793 -0.2482373863 0.9742401838 -0.0188868735 0.3207673132 0.9348362088
-0.1140338555 -0.2390513867 0.9921556711 0.3248474896 0.2706257999 0.5198435187
-0.1214584336 -0.2378834039 0.9935914278 0.3536827862 0.422807157 0.4879096448
-0.115675047 -0.2269573361 1.013032198 0.7086923122 0.3174316287 0.03104543686
-0.119482331 -0.2341491878 1.000234365 0.4749780297 0.386831224 0.3317960799
-0.1185233891 -0.2297526747 1.00418663 0.5168082714 0.4500531256 0.2288455218
-0.1161881909 -0.220155865 1.013498306 0.6259835362 0.5693740845 -0.01018329337
-0.1143065766 -0.2179466784 1.019443989 0.7503526807 0.4930835962 -0.144665122
0.04186718538 -0.2295649201 1.041040301 0.04809284583 -0.03824795038 0.9971857667
0.03638528287 -0.2186628431 1.043972731 0.1231246069 -0.0508428514 0.9889692068
0.03213563189 -0.2336114049 1.041144848 0.05137837678 -0.02710457332 0.9972048998
0.03275203705 -0.2408442497 1.041000128 0.1837896556 -0.06505051255 0.9775816202
0.02663193084 -0.2311795056 1.041742086 0.1322474182 -0.09099514037 0.9792346954
0.0437169224 -0.1945620626 1.04358077 0.2255476564 0.02747200243 0.9728227258
0.05054169148 -0.1884492636 1.039014101 0.2475584298 0.06019408628 0.9661406875
0.04395091906 -0.1798997074 1.040277958 0.2268539518 0.1512179375 0.9607566595
0.03783561662 -0.1898104399 1.042573452 0.2246026695 0.04388083145 0.9725518227
0.03664824367 -0.1961192191 1.047122955 0.2176739126 0.0199993737 0.974996984
0.03778266907 -0.2018978596 1.039454699 0.2198004127 -0.01276236493 0.9752937555
0.04396032169 -0.1884454787 1.039074779 0.2468585521 0.0565539524 0.966611445
-0.1179869175 -0.185906738 0.9440661073 0.4849171042 0.3421764076 0.8024539351
-0.1326606125 -0.1686974019 0.9505890012 0.5309372544 0.1859219819 0.8261824846
-0.1445745677 -0.1918009818 0.9619893432 0.4549161196 0.2085869312 0.8651410937
-0.1467193812 -0.2002699971 0.96097368 0.4266144335 0.1970003694 0.8803985715
-0.1297073513 -0.2036416382 0.9561650753 0.2775728106 0.2642824352 0.9181822538
-0.1349080205 -0.1916401982 0.9520266652 0.4266594648 0.2279245853 0.8636090755
-0.1334194094 -0.1991694123 0.9547274113 0.3510243893 0.2075329274 0.9043874145
-0.1278299093 -0.1913609505 0.9498924613 0.4354519248 0.2721528113 0.8459858894
-0.1318292916 -0.2089413851 0.9574465156 0.2323787957 0.2006089836 0.9455125332
-0.1262669414 -0.208721295 0.9561722279 0.1667414308 0.3126026988 0.9293971658
-0.1397793293 -0.1881290376 0.95654881 0.4730217457 0.2334890366 0.8475899696
-0.1422485858 -0.2109769732 0.9602177739 0.3162166476 0.1625358015 0.9327279329
-0.1368270963 -0.2133562565 0.9597116709 0.2719695866 0.1445588917 0.949598968
-0.1500636041 -0.2122108787 0.962300837 0.3648252487 0.1640215069 0.9155859351
-0.1394845694 -0.2047990859 0.9589333534 0.3385058343 0.1847049892 0.9196656346
-0.1400721222 -0.1985766888 0.9589266181 0.3885279298 0.201957345 0.8941546679
-0.1159216985 -0.1777666509 0.9356713295 0.4140587747 0.2165174633 0.8803885579
-0.1049753726 -0.1798296869 0.9323408008 0.1697811782 0.1418007016 0.9707671404
-0.1173432395 -0.1718248427 0.9355409145 0.4358132482 0.1211416721 0.8862439394
-0.1211054698 -0.1673807949 0.9368362427 0.4312229455 0.09180106968 0.8843899369
-0.1517536789 -0.2275183946 0.9691573977 0.3130459189 0.2226109505 0.9223772287
-0.1526073664 -0.2219710201 0.966391027 0.3396274447 0.1852428764 0.9212756753
-0.1534073055 -0.2158204615 0.9647788405 0.367911309 0.166078642 0.9142905474
-0.121786043 -0.1503698975 0.9369776845 0.2655721307 -0.1678630263 0.9463501573
-0.0635477975 -0.1239555925 0.9465995431 -0.00790407788 -0.2566781342 0.9653018713
-0.05749088153 -0.1305872202 0.9463584423 -0.05029639229 -0.2360262424 0.9694907665
-0.05696188658 -0.124227263 0.94536376 -0.03295816481 -0.2523708344 0.9651702046
-0.05753427371 -0.1139534786 0.9441123009 0.00190680963 -0.2797133029 0.9583076239
-0.05234446377 -0.1277014613 0.9475247264 -0.008458519354 -0.2459534854 0.9688671827
-0.08022643626 -0.1308716536 0.95081532 -0.001840056735 -0.3204415739 0.9460083842
-0.07356360555 -0.129188031 0.9513480663 0.0004854378931 -0.3031198382 0.9518675208
-0.08222198486 -0.1247207895 0.9458953738 0.03735470772 -0.3815702498 0.9222031832
-0.07822592556 -0.1191208959 0.9478951693 0.1024407893 -0.3861595094 0.9119534492
-0.08338367939 -0.1304456592 0.9433477521 -0.01160007715 -0.350238353 0.9331398606
-0.06904982775 -0.1295865774 0.946604073 -0.05471047759 -0.2516280413 0.9630795121
-0.07404052466 -0.1255859137 0.9465948343 0.01105840597 -0.277628243 0.9597257972
-0.06805787235 -0.1178570166 0.9456865788 0.02400649339 -0.2840516269 0.9583452344
0.04567768797 -0.2053558528 1.038000107 0.2254664451 -0.01517422032 0.9739308357
0.05010014772 -0.2097139657 1.038000107 0.208702758 -0.01632535271 0.9774523377
0.04374538362 -0.2087066323 1.043978453 0.2052008063 -0.01577460393 0.978494525
0.01671084575 -0.2581724226 1.047032356 0.3710671365 -0.2366902679 0.8978352547
0.02876860276 -0.2552583218 1.037522435 0.3730510473 -0.2138559073 0.9026329517
0.0198966451 -0.2619261444 1.041394114 0.3649596572 -0.2391909659 0.8997194767
0.006519509945 -0.2664417624 1.04813838 0.3642034531 -0.2415587455 0.8994472027
0.0009454007377 -0.2748745978 1.03878355 0.3642034531 -0.2415587455 0.8994472027
0.00331989117 -0.2710390687 1.043540716 0.3642034531 -0.2415587455 0.8994472027
0.01112673804 -0.258707583 1.05156064 0.3830664456 -0.2536876798 0.8881540298
-0.1101759076 -0.2116864622 0.9658985734 -0.1030063257 0.3374327719 0.9208363295
-0.1123303995 -0.2116304338 0.9817407131 0.1203284562 0.4913206398 0.5937820673
-0.1127017662 -0.2134583592 1.000755191 0.3346022367 0.6353498697 0.2370282561
-0.1135355979 -0.211434409 0.989143312 0.2295061946 0.5668731332 0.437751621
-0.1110279486 -0.2141695619 0.9943640828 0.2249628752 0.5584897399 0.3819728196
-0.1079041436 -0.2151975036 0.9797837734 -0.008291315287 0.395904392 0.701415956
-0.1126770154 -0.2101532817 0.9712795019 0.01582088508 0.422198534 0.7811542153
-0.1088862121 -0.2152022123 0.9872729778 0.09640263021 0.4679838419 0.5473936796
0.02137563936 -0.2433158308 1.044840574 0.2174486369 -0.1096215248 0.9539267421
0.02877847292 -0.2461419255 1.042935491 0.2698026597 -0.1229927763 0.9496517777
0.02116044797 -0.2519213259 1.046350121 0.3287255466 -0.1907067448 0.9174736738
0.02624076791 -0.2428451926 1.038000107 0.3351431489 -0.1355244517 0.931309998
0.03117137216 -0.2487856597 1.037854433 0.363417536 -0.1798835695 0.9139184356
0.02345539443 -0.2479239702 1.037734151 0.3654578626 -0.1972298324 0.909313798
-0.1344076097 -0.1758252829 0.951171577 0.520463109 0.2572888136 0.8139042854
-0.1370105147 -0.1811816096 0.9535238147 0.5029722452 0.2476227582 0.8270901442
-0.1368890256 -0.1945699453 0.9617555141 0.4094850719 0.2353597134 0.8810414672
-0.1462424546 -0.2236184329 0.9641593099 0.278742075 0.2193507701 0.9291402102
-0.1381420046 -0.2264416963 0.9642464519 0.2056173235 0.2882469893 0.9309641719
-0.140952155 -0.220637992 0.9624697566 0.2513268888 0.2088634074 0.9397921562
-0.1344994009 -0.2187729776 0.9610652924 0.2094455212 0.2173071355 0.9494256377
-0.1326710135 -0.2304400206 0.9648329616 0.1562955379 0.3282149732 0.9301643968
-0.1256480813 -0.2292727381 0.9641461372 0.05669995025 0.2944152355 0.9523667097
-0.127523616 -0.2219789624 0.9615833759 0.07293219119 0.2849685848 0.9533419013
-0.1258792132 -0.1558339298 0.9400900602 0.3875569999 -0.08889900148 0.90546453
-0.1281329393 -0.15903382 0.9448882341 0.4161588252 0.008114441298 0.8803510666
-0.1258072555 -0.1694981307 0.9411799312 0.4835918546 0.1356376559 0.8547340035
-0.1302816719 -0.1742984056 0.9455598593 0.5116398335 0.2318305075 0.8242619038
-0.1262712032 -0.1624316871 0.9401673079 0.4619614482 0.00605850108 0.8793224692
-0.1326091439 -0.2365353107 0.9787034392 0.2309919894 0.4373825192 0.7524117231
-0.1292968988 -0.2367830575 0.9837669134 0.2556435466 0.4790743291 0.6623721123
-0.1281951368 -0.2261729091 0.9905022979 0.359262228 0.5609955788 0.4636909962
-0.1224154904 -0.2252672017 0.9999697208 0.4142179489 0.6422610283 0.2854633629
-0.1277553141 -0.2321650237 0.9883595109 0.309356451 0.528603971 0.5457728505
-0.1244336516 -0.2327920347 0.9932585359 0.3307001293 0.5680052042 0.4614504576
-0.1326205581 -0.2430938184 0.975587368 0.1723721474 0.3954913616 0.8562306762
-0.1197376996 -0.2151434571 1.010259032 0.5369428396 0.7428952456 0.03338703886
-0.1377335489 -0.2316265106 0.9783183336 0.2761905491 0.4065986574 0.754380703
-0.1252149791 -0.2173980922 1.001738787 0.5002169609 0.6320271492 0.2184839696
-0.1292502284 -0.221281141 0.9954915047 0.4407504797 0.5666337609 0.3675079048
-0.1424788684 -0.2306030393 0.9748882651 0.2953616381 0.3265467882 0.8377975821
-0.1374711543 -0.2275321037 0.9827041626 0.3437399268 0.4208863378 0.6622213125
-0.1133028641 -0.1515022516 0.937138021 0.1520145684 -0.1850053817 0.9650876522
-0.0970935151 -0.1584814638 0.9368585944 -0.05826438591 -0.1945231706 0.9778133631
-0.1028583571 -0.1633263081 0.9348090887 0.0008714065771 -0.1704752147 0.9847781658
0.04558211192 -0.2014097124 1.044419527 0.2257070839 -0.008366631344 0.974082768
0.05092805624 -0.2000083178 1.041499734 0.235051319 -0.007787996437 0.9719132185
0.01072476711 -0.267549634 1.043367386 0.3642034531 -0.2415587455 0.8994472027
-0.09120952338 -0.1617368311 0.9359709024 -0.09046695381 -0.2049469501 0.972140193
-0.08394836634 -0.160790652 0.9366618991 -0.1242514402 -0.2183271646 0.9672589898
-0.08766808361 -0.1561064571 0.9377479553 -0.1372213215 -0.2713524997 0.9513089657
-0.08038241416 -0.1531837732 0.9367104769 -0.1299920529 -0.2673692703 0.9534291029
-0.08688978851 -0.1493562311 0.9377334118 -0.1243674979 -0.3148885965 0.9393374324
-0.121211715 -0.1570455879 0.9356532693 0.3165219426 -0.09915816039 0.9415557981
-0.1124724001 -0.1634780616 0.9356411695 0.2118292004 -0.1052190661 0.9645093083
-0.1104531288 -0.1581186056 0.9354633093 0.1034213677 -0.1582578123 0.9718352556
-0.1112969741 -0.1706681997 0.934536159 0.2872087359 0.02446310036 0.9450009465
-0.1055876166 -0.1692008674 0.933269918 0.09734008461 -0.06599098444 0.9842303395
-0.09296112508 -0.1747086048 0.9353231192 -0.05559015274 -0.03837510198 0.9799515009
-0.1258078068 -0.1854158044 0.9522650838 0.4935513735 0.2755849361 0.8218619823
-0.129448384 -0.1790885776 0.9518872499 0.5029891133 0.2447818071 0.8260186315
-0.1166332215 -0.1959118098 0.9547447562 0.3102907538 0.3738680184 0.834254384
-0.1275985688 -0.1917382181 0.9561614394 0.457331419 0.2929238379 0.8352540135
-0.1264804006 -0.1973790526 0.9598271847 0.3060639799 0.2991296649 0.8729157448
-0.120429948 -0.1997947991 0.9592372179 0.2141159922 0.3364723921 0.8760473728
-0.1206037179 -0.1909586787 0.9530501962 0.4611021578 0.3398823142 0.8088772297
-0.08516468853 -0.2316891998 0.9692952633 -0.218955785 0.1864795238 0.9571160674
-0.0843161121 -0.2371756583 0.970864296 -0.2077792883 0.2078669816 0.9552510381
-0.08038327098 -0.2311597317 1.006054759 0.4307285845 0.4685674608 0.2925455272
-0.07935906202 -0.2315940559 1.023767591 0.8003057837 0.5529984236 -0.06312762201
-0.08285158873 -0.2261182368 1.009836912 0.4832694829 0.5417487025 0.2237727493
-0.08250382543 -0.2262410223 1.016138196 0.6145833135 0.5721257925 0.09728666395
-0.08026276529 -0.2328760028 0.9887688756 0.08105256408 0.3631819487 0.6366561055
-0.08513522893 -0.2210585624 1.017934918 0.6252267957 0.6368350387 0.06850776821
-0.08031927794 -0.2320489585 0.9971334934 0.2502776384 0.4141407013 0.4701370299
-0.08285363019 -0.2269025594 1.00066781 0.2971401215 0.4872021675 0.4064785838
-0.09767971188 -0.2255912274 1.015826941 0.5291220546 0.5836904049 0.1263646632
-0.09568356723 -0.2271300256 1.009019375 0.4121861756 0.5227195024 0.2556620836
-0.08740285039 -0.2334733009 0.9809938669 -0.06911499798 0.2714330852 0.7882316113
-0.0931788981 -0.2253787071 1.020107985 0.6120458841 0.5964285135 0.07023499906
-0.09441971034 -0.2344717681 0.9985611439 0.2546882033 0.4497062266 0.4618650079
-0.0917718038 -0.237763226 0.9820815325 -0.0326580368 0.3114686608 0.7648743987
-0.08906302601 -0.2318139672 0.990880847 0.1047242433 0.3554740548 0.6070904732
-0.09285058081 -0.2305778265 1.004891276 0.3549973965 0.4841075242 0.3479872942
-0.09386498481 -0.2359181494 0.9930244088 0.1594502777 0.4056830704 0.5633433461
-0.09282305837 -0.2301916033 1.015740275 0.5474232435 0.5694400668 0.1190896854
-0.08863481879 -0.2351052463 1.01495862 0.5431726575 0.551204741 0.06012288481
-0.08794670552 -0.2335970849 1.020757675 0.6416583657 0.5907196999 -0.05620755255
-0.08626025915 -0.2203853428 1.011392951 0.4994675219 0.5973035097 0.194068104
-0.07946612686 -0.2357164025 0.97757864 -0.1312204897 0.2709819376 0.8544647098
-0.08601199836 -0.2265625149 0.9864212871 0.06534250081 0.3514294326 0.6606478095
-0.08393250406 -0.2270944118 0.993653059 0.1767942011 0.4248390496 0.5350538492
-0.08657608926 -0.2230918109 0.9985163212 0.2785550058 0.4700636864 0.4326944351
-0.08204813302 -0.2316539437 0.9829754829 -0.02062762156 0.321528554 0.7424322963
-0.09581691772 -0.221238777 0.9693971276 -0.2178220004 0.2228635699 0.9499430656
-0.1071979105 -0.1940000951 0.9438399673 0.1353079379 0.4325836301 0.867098093
-0.1045137718 -0.1886752248 0.938603878 0.1125924364 0.32458058 0.9168103337
-0.1129930317 -0.1931265295 0.9463841915 0.3173910379 0.4529019892 0.8126698136
-0.1138544306 -0.1853066087 0.9383485913 0.378138721 0.3214892149 0.8629690409
-0.1088982895 -0.1836237758 0.9342698455 0.2602265179 0.2488986552 0.9243539572
-0.1135796458 -0.2040808648 0.9582858086 0.07201111317 0.4290836155 0.8781947494
-0.09925326705 -0.1850132346 0.9407618046 0.01173360087 0.2131624222 0.9155037403
-0.09761190414 -0.181459859 0.9358541369 -0.004442268051 0.1571841687 0.9590002894
-0.1113057956 -0.1990552247 0.9504966736 0.1965428144 0.539714098 0.8038502932
-0.1201992407 -0.2002887577 0.9524701834 0.2827444077 0.4012970626 0.8579018712
-0.08905115724 -0.1744310856 0.946328938 -0.07634933293 0.01786310412 0.9191564322
-0.08602785319 -0.1686999202 0.9441470504 -0.1241214797 -0.1096002683 0.9454706311
-0.09528631717 -0.1802865714 0.9418672323 -0.03136064112 0.0695136413 0.9207242131
-0.1009643674 -0.1899421364 0.948056221 0.03987741098 0.3332027793 0.857318759
-0.09211270511 -0.1796119213 0.9477754235 -0.03395605087 0.1278054267 0.8972194195
-0.1026067734 -0.2099956721 0.9589280486 -0.05398464948 0.406164974 0.8761790991
-0.09982123971 -0.1766893864 0.9464575648 0.1348626912 0.06989154965 0.8830236793
-0.1093540788 -0.1885858625 0.9494735003 0.2612151504 0.3287731409 0.8253663182
-0.1013660058 -0.1834244728 0.9475496411 0.1015329957 0.2111894041 0.8648597598
-0.1297844648 -0.2038051188 0.9883451462 0.4901635051 0.4800337255 0.4368903339
-0.1253882647 -0.2075189948 1.000089884 0.5293319225 0.6039700508 0.2229871303
-0.1455508322 -0.1995766312 0.9724658132 0.4400546849 0.2075989395 0.820520103
-0.1338596493 -0.1981153488 0.9709717631 0.4315190017 0.3226206005 0.7299697399
-0.1307958961 -0.2017676234 0.9822281599 0.4693924785 0.429130286 0.536010921
-0.1418830901 -0.1964530051 0.9651319385 0.4187454283 0.198669672 0.8853469491
-0.1492296904 -0.1958649307 0.9668024778 0.4367839992 0.1771075875 0.8819553256
-0.151002422 -0.2007585019 0.9701122046 0.4218162 0.1539469808 0.8933306336
-0.1397420615 -0.2187704593 0.980134964 0.4015567303 0.3479004204 0.6913346052
-0.1450895965 -0.2088564932 0.9738767743 0.4119587839 0.2363118976 0.815574348
-0.1373133957 -0.203823477 0.9861389995 0.4840997458 0.3854772151 0.5419053435
-0.1431190073 -0.2146305591 0.9758381844 0.3986102641 0.2788617015 0.7799319625
-0.1394527406 -0.2075734884 0.9823809862 0.4536397457 0.3460331857 0.6285063028
-0.1453638822 -0.2266965806 0.9705729485 0.3301649988 0.2429496348 0.9096858501
-0.1364424676 -0.2191881835 0.9849230051 0.4207111895 0.4129145145 0.5874207616
-0.1434720755 -0.2034189105 0.9771412015 0.4466650486 0.2643816769 0.7376534343
-0.1238956228 -0.2111520171 1.004694223 0.5367304683 0.6536481977 0.1462629884
-0.1366376728 -0.2114603072 0.9858919978 0.4541408718 0.4038785398 0.5567337275
-0.1429956555 -0.2216835171 0.9748731852 0.3677508533 0.2860331237 0.8096984029
-0.1303800195 -0.2087378055 0.9955437779 0.5062369704 0.5248088837 0.3428561687
-0.1325152963 -0.2126681805 0.9917624593 0.4749936461 0.4855664074 0.4301886261
-0.1281556785 -0.2144357115 0.9978910089 0.4948472679 0.5722852349 0.298705101
-0.1464965343 -0.2183318585 0.9703289866 0.3606416881 0.2156847119 0.9048117995
-0.1503551006 -0.2115867734 0.9703720808 0.3783262968 0.1787488312 0.9061461091
-0.1301136762 -0.1671919376 0.9459681511 0.5096996427 0.1331150234 0.8410372734
-0.1324346513 -0.2486080825 0.9739472866 0.1267946661 0.3650766313 0.9220417738
-0.1371880621 -0.2412059307 0.9724042416 0.1769965589 0.3506807387 0.9179020524
-0.1329385638 -0.2404849976 0.9673816562 0.1371489614 0.3435024023 0.9285806417
-0.1397105455 -0.2349181622 0.9676252007 0.2092033178 0.3257387578 0.9169838428
-0.1456347406 -0.2353809476 0.9699731469 0.23844181 0.2947893441 0.9196392894
-0.09964831173 -0.1367361099 0.9401535988 -0.04298799112 -0.3603383601 0.9298069477
-0.09710229188 -0.1431781352 0.9381578565 -0.05991138145 -0.3321439624 0.9387869239
-0.1072523892 -0.1535081118 0.9368689656 0.03765920922 -0.1961302757 0.9780505896
-0.1106429026 -0.1371535361 0.9418101311 -0.01929776743 -0.3369366229 0.9401527047
-0.1109827831 -0.1461676359 0.9390261173 0.06992451847 -0.2747211754 0.9547627568
0.0238988325 -0.25967893 1.037258267 0.3642034531 -0.2415587455 0.8994472027
0.0103233289 -0.2700338662 1.036954641 0.3642034531 -0.2415587455 0.8994472027
0.01677737385 -0.2659813762 1.037685633 0.3642034531 -0.2415587455 0.8994472027
-0.1061340421 -0.226263836 0.9658058286 -0.1994143277 0.2006417811 0.958938241
-0.1126745269 -0.2307502329 0.9643525481 -0.1471529156 0.2159092128 0.9647547007
-0.09387283772 -0.2330922633 0.97886765 -0.05786094442 0.2711524367 0.7973957062
-0.09496947378 -0.2317382842 0.9852455258 0.04110537469 0.3273884654 0.6796805859
-0.0975067988 -0.2290015668 0.9979378581 0.2411965877 0.4400773942 0.4438572824
-0.1032944843 -0.2238111496 1.021404624 0.6208555102 0.650826931 0.003010642249
-0.1004417464 -0.2323370427 1.002118707 0.3060548604 0.5017152429 0.3704968393
-0.1018502787 -0.2279244661 1.011009693 0.4540699124 0.5685700774 0.1992457807
-0.1041474789 -0.2366002947 0.9932854176 0.1951579005 0.4381977022 0.5486065149
-0.09855874628 -0.2398937196 0.9843314886 0.02163627185 0.3623620868 0.7124197483
-0.1015558988 -0.2437178344 0.9758551717 -0.08759842813 0.2997179925 0.8819791675
-0.09829056263 -0.1375250816 0.9486247897 -0.02718937211 -0.3267553151 0.9420898557
-0.1135208011 -0.1519672722 0.948069036 0.1983534247 -0.1186465845 0.91092062
-0.1034386232 -0.1423069984 0.9466999173 0.003186394693 -0.2772072554 0.9415544271
-0.1082525477 -0.1483541876 0.9466095567 0.09103003144 -0.191846773 0.9306929111
-0.1023511961 -0.1471080333 0.9435220957 -0.03962121159 -0.2549977601 0.9601922631
-0.1076538786 -0.1546350867 0.9429734945 0.05391674116 -0.1551449001 0.9505003691
-0.1018409133 -0.1530679613 0.9405289888 -0.06420969218 -0.2187868804 0.9734048247
-0.1000523716 -0.1584334522 0.9418170452 -0.03160398453 -0.1636767387 0.9571354985
-0.09272608161 -0.1690886617 0.9441444874 -0.008880286478 -0.08331883699 0.9275609851
-0.09960395843 -0.1691585183 0.9445892572 0.07284254581 -0.03265123069 0.9131032228
-0.107951127 -0.1661981642 0.9443340898 0.1408687532 -0.009283171035 0.908321023
-0.09247249365 -0.160570696 0.9419049621 -0.09901406616 -0.1917946637 0.9637875557
-0.1117450967 -0.1816869676 0.9486130476 0.3440199494 0.2120945901 0.8355836272
-0.1220420301 -0.1755664349 0.9502959251 0.4612129927 0.2031601518 0.8349494934
-0.1159510911 -0.1774064749 0.9485122561 0.3665106893 0.186993897 0.8434096575
-0.1253148764 -0.1700022519 0.9506090283 0.4774549603 0.15313977 0.8485258222
-0.11324054 -0.1586802155 0.9449619055 0.1763758361 -0.07098002732 0.9245876074
-0.1145733595 -0.1645743102 0.9462403059 0.2447759956 0.01334970724 0.8977966309
-0.1238781735 -0.1628746092 0.9491218328 0.3978618681 0.05230417848 0.8804711699
-0.1122220829 -0.1719632298 0.9464936852 0.258787185 0.09280119091 0.8746102452
-0.1193099022 -0.1844191253 0.9506280422 0.4795148969 0.2989059985 0.8069501519
0.01557970792 -0.252124995 1.041683674 0.3769598603 -0.2368003428 0.8953974843
0.01101954374 -0.2603492141 1.044829488 0.373298645 -0.2422445416 0.8954309225
0.01719671488 -0.2476421744 1.038193703 0.3615556359 -0.1925812215 0.9118393064
0.01244788989 -0.2572410107 1.037475586 0.3625338972 -0.2106764764 0.9072608948
0.0184313599 -0.2565036714 1.037922502 0.3637919724 -0.2339475453 0.9013729692
0.009376076981 -0.2638299763 1.036886454 0.363209188 -0.22316733 0.9041005373
-0.1197900921 -0.209976241 0.9549546838 0.07228384167 0.4013724923 0.901646018
-0.116613932 -0.2145160735 0.9577873349 -0.1127535924 0.3459523618 0.9300217032
-0.1185919717 -0.222309798 0.9615979791 -0.09090798348 0.2489301115 0.9573483467
-0.1232668981 -0.2167675942 0.9583221078 0.02209629677 0.2983858287 0.9494299889
-0.09579598904 -0.2287098467 0.9669775963 -0.1887440532 0.1693548858 0.9672638774
-0.10840597 -0.2049495727 0.9538836479 0.04382511973 0.5077345967 0.8384466171
-0.09809020907 -0.2169748992 0.9646722674 -0.1867433041 0.270785898 0.9331553578
-0.1112268791 -0.2115999311 0.9575023055 -0.07838090509 0.3879467547 0.9021021128
-0.1051287428 -0.2154284567 0.968115747 -0.1724002808 0.2801149786 0.9400157928
-0.08852046728 -0.2272026241 0.9731744528 -0.1547628492 0.223052904 0.8996241093
-0.08979623765 -0.224566102 0.9797355533 -0.04280331358 0.292996645 0.7760432363
-0.09164986014 -0.2215334773 0.9858747721 0.06126723066 0.3610605001 0.6596705914
-0.09328971058 -0.2226297408 0.9752365947 -0.1241504401 0.262358278 0.8559067249
-0.08971459419 -0.2216719538 0.9923394322 0.1749257147 0.4173175097 0.541469276
-0.09103430808 -0.217307359 1.006088376 0.4109590054 0.5585190058 0.2840122879
-0.09725537151 -0.2152677029 1.018409252 0.6256219745 0.7220672369 -0.008508032188
-0.1058311835 -0.215211913 1.000024199 0.303209722 0.5824335814 0.2972542942
-0.09690382332 -0.2178550363 0.9849066734 0.03985945135 0.3739647865 0.6664089561
-0.1012469754 -0.2174506485 0.9805800319 -0.03627137467 0.3547307253 0.7212346792
-0.1087738052 -0.213816002 1.011960149 0.5115891695 0.7229646444 0.03604273871
-0.09592789412 -0.2175381035 0.9912829995 0.1514587253 0.4341048896 0.5456400514
-0.09978691489 -0.2156106681 1.008219004 0.4471638799 0.6316511631 0.1773364395
-0.09590008855 -0.2167425901 1.001886845 0.336871773 0.5434665084 0.3330491185
-0.09351278841 -0.2163663656 1.012196064 0.5173953772 0.6359574795 0.1437530667
-0.1067285314 -0.2146431357 1.00556016 0.3999102414 0.6448737979 0.1795455068
-0.1003981084 -0.2163697332 0.9967970252 0.2473804206 0.5172579288 0.4020481408
-0.1026531756 -0.2165143341 0.9898520112 0.1256964654 0.4587408006 0.5248047113
-0.1024502888 -0.2146642357 1.014821172 0.5623129606 0.7154547572 0.02521860786
-0.08979853243 -0.225653246 0.966971755 -0.2191400528 0.1636111736 0.9616777301
-0.1035297588 -0.2173129022 0.9748304486 -0.1302082539 0.3048611283 0.8357179165
-0.1036519334 -0.2198970914 0.9643059373 -0.1925884187 0.250482738 0.9458675385
-0.1122509614 -0.2182017118 0.9606975317 -0.148523882 0.297467649 0.9386709332
-0.1112928316 -0.223747313 0.9635266662 -0.180300802 0.2282447368 0.9551438093
