# .PCD v0.7 - Point Cloud Data file format
VERSION 0.7
FIELDS x y z normal_x normal_y normal_z
SIZE 4 4 4 4 4 4
TYPE F F F F F F
COUNT 1 1 1 1 1 1
WIDTH 512
HEIGHT 1
VIEWPOINT 0 0 0 1 0 0 0
POINTS 512
DATA ascii
0.09392726421 0.1394660026 0.6058111787 0.2717023492 -0.4585374296 0.8276106715
0.1001570821 0.1385025978 0.6054594517 0.2101971507 -0.5095677972 0.8145878911
0.09946102649 0.1367692202 0.599629879 0.1796195507 -0.4710189998 0.8463468552
0.1071452051 0.1341077536 0.5959370732 0.08560833335 -0.5212125182 0.8442124128
0.1084756926 0.1379656941 0.59958601 0.0792292282 -0.5176952481 0.8408209085
0.08531944454 0.1413848847 0.6061455011 0.3519859016 -0.3794435561 0.8504725099
0.1098221764 0.1420280933 0.6034358144 0.07313571125 -0.5136889219 0.8372780085
0.1154040769 0.1411077231 0.6029893756 0.008416226134 -0.5415177941 0.8357520103
0.1817617267 0.0396697931 0.670568347 -0.63565588 0.6193753481 0.4603874385
0.1671966761 0.04661539197 0.6284859776 -0.5075627565 0.5211168528 0.6662980914
0.1730074435 0.04902524501 0.6339713931 -0.5739043355 0.5079709888 0.6150621176
0.1780788451 0.03977923468 0.6516987681 -0.5810848475 0.5886024833 0.5377727151
0.1655250639 0.04198161885 0.6306157708 -0.4693285227 0.5663568377 0.6634483933
0.1737303734 0.03926822171 0.6457999349 -0.5365860462 0.5918188691 0.577262342
0.1774769425 0.05343650654 0.6357511878 -0.6372975707 0.471347332 0.5868060589
0.1844805628 0.04060872272 0.6602976918 -0.6469454765 0.5832056403 0.4798821211
0.1774662733 0.04752219096 0.6422541142 -0.6103228927 0.5220522881 0.5681371689
0.1815606952 0.04820635542 0.6475844979 -0.6531441808 0.5172833204 0.5315989852
0.1673628986 0.03956511617 0.6360103488 -0.4761749804 0.5875676274 0.6384040713
0.1794683188 0.04588815197 0.6542342901 -0.6488935947 0.525819242 0.5259442329
0.1814688146 0.04504890367 0.6615995169 -0.6483131647 0.5595505834 0.4999456704
0.08605161309 -0.01273590326 0.722189188 0.2244001478 0.1301829219 0.9228602052
0.1165130734 0.003395304317 0.7136253119 0.2568763494 -0.1237707734 0.9576360583
0.09542693943 0.0002373472089 0.7177706361 0.2898018658 -0.1107670814 0.9506553411
0.09362087399 0.1184947491 0.5900649428 0.2727030516 -0.3943186104 0.8743203878
0.09958581626 0.1202635095 0.5887528658 0.1275646687 -0.3706965446 0.9138966203
0.06830003113 0.07091619074 0.6157954931 0.6633934379 0.3678251803 0.6512231231
0.1224878356 0.1356589794 0.5999208689 -0.1749559939 -0.4062884152 0.8883379698
0.1287546903 0.0003026029735 0.7154753804 0.2886918783 -0.003781458829 0.9487859011
0.1200763881 -0.01192472782 0.7101441026 0.24740161 -0.1260113716 0.9605338573
0.1370032728 -0.001832043752 0.7164832354 0.3100984693 0.07360340655 0.942974627
0.1204852462 -0.004350867122 0.7124602795 0.2584214807 -0.1005193666 0.9572563171
0.1339250058 -0.005216892343 0.7129131556 0.3090477884 0.02637888677 0.9474337697
0.1840975881 0.03399425372 0.6681025028 -0.6259131432 0.6327015758 0.4559318125
0.1325140297 0.001179138082 0.7110775113 0.3101648092 -0.003905526828 0.9486999512
0.09654723853 0.1070015579 0.5868602395 0.1294350177 -0.067297481 0.9817219377
0.1037830487 0.1071855202 0.5859236717 -0.01690753177 -0.05539917201 0.9915246367
0.1001405418 0.1119182333 0.5871557593 0.07704392076 -0.1669674814 0.9719060063
0.04878954962 0.008066359907 0.7096605897 -0.07369600981 0.3250490129 0.923114121
0.06599644572 -0.0004268326447 0.7161697745 0.0908119306 0.1874830425 0.9271934032
0.05503210425 0.005359907635 0.71262604 -0.01541306544 0.279208988 0.9241521358
0.06106188893 0.002073849784 0.7152537704 0.03372434154 0.269991219 0.920891881
0.07003986835 -0.003452568781 0.7198582292 0.08967478573 0.3351565599 0.9065475464
0.07608328015 -0.004349228926 0.7198745012 0.2040258348 0.02752649412 0.9391745329
0.180898279 0.05604020134 0.6489022374 -0.64206177 0.395825088 0.6162706614
0.1792261899 0.06279754639 0.6384814978 -0.6342823505 0.281046927 0.7039001584
0.1817533523 0.04998779297 0.6587477922 -0.6378421187 0.4860446453 0.5546827912
0.181105569 0.05196972191 0.6537233591 -0.6482789516 0.4621757567 0.569427371
0.1558889151 0.04387533292 0.6211670637 -0.05620289221 0.5801408887 0.8068896532
0.1685608178 0.05618721619 0.6285110712 -0.3741715848 0.3839882314 0.7721905708
0.1644218117 0.05153766274 0.6263263822 -0.2692534924 0.4560120404 0.7785525322
0.1582386941 0.1083822101 0.6208640933 -0.4599145651 -0.1830540001 0.8640788794
0.0682118237 0.1356362402 0.607339263 0.4746131897 -0.238006413 0.8467283249
0.07353579998 0.1381425411 0.604501605 0.4708180428 -0.2630107999 0.8418732882
0.09689873457 0.1243393868 0.5915236473 0.242667377 -0.4403093755 0.8625105023
0.1040107682 0.1260317713 0.5906154513 0.1261800975 -0.4981858134 0.8562880754
0.09027869254 0.1357922405 0.5985649228 0.297932595 -0.3868102133 0.8454418778
0.1000376493 0.1312030405 0.5944892764 0.1798261106 -0.4704078436 0.848585844
0.09491018951 0.1323760003 0.5960178971 0.2471639216 -0.4269215167 0.8485417962
0.08290857077 0.1392259002 0.6018121243 0.3874101341 -0.3257099986 0.8436587453
0.1546790302 0.1124374866 0.6215948462 -0.4741602838 -0.09874466062 0.8731554747
0.1557258964 0.1053202897 0.616553247 -0.4271317124 -0.1944418848 0.8782368898
0.1490437686 0.1131184325 0.6215023398 -0.4964712858 -0.04270391911 0.8635653853
0.1457688212 0.1064425409 0.6156846881 -0.4040740728 -0.07811234891 0.9086056352
0.1141681522 0.1337196082 0.5966663957 -0.05726819485 -0.4803730845 0.8751198053
0.09417838603 0.1323879957 0.6050708294 0.312425822 -0.4557684064 0.8196763396
0.1292533726 0.130452022 0.6013335586 -0.4320551157 -0.3067691624 0.7942220569
0.1219950393 0.1402414739 0.6042211056 -0.09250292182 -0.4500742555 0.8805190325
0.1372611076 0.1217837334 0.6069767475 -0.5976067781 -0.1522777528 0.7714047432
0.1343063712 0.1247377843 0.6016813517 -0.6233104467 -0.2153968215 0.7403582335
0.1276299357 0.1338897347 0.6080258489 -0.207145825 -0.3378615379 0.8699316978
0.1398261636 0.1088617817 0.6166984439 -0.5015114546 0.05989242345 0.8566704988
0.1332147121 0.1191927344 0.6117321849 -0.353833735 -0.1174042299 0.871552825
0.1352867931 0.1077016219 0.6128900051 -0.4597430825 0.05276593566 0.8597684503
0.1393569559 0.1152919233 0.6166211963 -0.4498731196 -0.03179730102 0.8626415133
0.1333895177 0.1254840046 0.6121805906 -0.3103137016 -0.2038689107 0.8768224716
0.1039784551 -0.0125207901 0.7134100795 0.2898018658 -0.1107670814 0.9506553411
0.09565838426 -0.01180920936 0.7164162993 0.2898018658 -0.1107670814 0.9506553411
0.09678517282 -0.005826713517 0.715741694 0.2898018658 -0.1107670814 0.9506553411
0.08975335211 0.108184956 0.5883190036 0.3093328774 -0.1374154389 0.9285383821
0.02484773472 0.04295797646 0.6894381642 0.3409004807 0.7034521103 0.6193076968
0.08498252183 0.07208094001 0.5983593464 0.4022643864 0.4103706181 0.8139648438
0.1074925587 0.1195270047 0.5886758566 -0.05633996055 -0.2766206861 0.9516208172
0.1155300513 0.114884682 0.5889319777 -0.2588392794 -0.1862645745 0.9452102184
0.08040262014 -0.009852554649 0.7225918174 0.1776558161 0.3023962975 0.9029942751
0.08616572618 -0.007475568913 0.7195944786 0.2641765773 -0.01635960117 0.9397647977
0.03403099254 0.01875782572 0.7022331357 -0.1866284609 0.2937158644 0.9374914765
0.02791550569 0.0196233578 0.702108264 -0.1865571141 0.2937410772 0.9374979138
0.02907191589 0.02738850005 0.6981011629 -0.1909729242 0.2921809554 0.9371017218
0.03476184979 0.024894448 0.6987541914 -0.1909729242 0.2921809554 0.9371017218
0.1243537143 0.003438608022 0.7100869417 0.2802918553 -0.1075802818 0.9538391829
0.1277419329 -0.001027609105 0.7069534659 0.2931536436 -0.04485158622 0.9509968162
0.1212512702 -0.0005168332718 0.7076504827 0.2576558888 -0.1207025945 0.9584835768
0.1779306382 0.07859332114 0.6322661638 -0.6210700274 0.03785926849 0.782186985
0.1894738525 0.07578247041 0.6350209713 -0.6584641337 0.18298994 0.6874271631
0.1881749928 0.06813839078 0.6350034475 -0.682115078 0.3131219745 0.6408041716
0.1907952279 0.08331359178 0.6347391605 -0.634157598 0.0501601845 0.7371145487
0.1843638867 0.07760100067 0.6342620254 -0.6400849819 0.116433993 0.7311531305
0.1820496172 0.07073094696 0.6338049173 -0.652707696 0.1984290034 0.7115614414
0.1907699406 0.09036746621 0.6349881887 -0.6085287333 -0.07595994323 0.7880531549
0.1559007019 0.0992064774 0.6146211028 -0.280146122 -0.2718702555 0.9118457437
0.1788163632 0.09430902451 0.6312872171 -0.5737251043 -0.0909390077 0.8078805804
0.1838794947 0.09219264239 0.6333373189 -0.5962050557 -0.08206815273 0.796033144
0.1648078263 0.1038001999 0.62520504 -0.4969131649 -0.1526408195 0.8482221365
0.1665673256 0.09731759876 0.6265654564 -0.5278280377 -0.09081912786 0.8321506381
0.1764087677 0.08401167393 0.6315867305 -0.6084750295 0.02037313394 0.7900019288
0.1863804162 0.08475667238 0.630022645 -0.6107301116 -0.02276342548 0.7857940197
0.1825390607 0.08974670619 0.6283513308 -0.5901053548 -0.1091365293 0.7867236733
0.1754662693 0.09565836936 0.6260265112 -0.5650550723 -0.1994909197 0.7882603407
0.1684275717 0.09934131801 0.6218727231 -0.5397058725 -0.2762546241 0.7880896926
0.1606648713 0.102137953 0.6162250638 -0.4405974746 -0.2983595133 0.8442264795
0.08015999198 0.1326675713 0.6006826758 0.4697872102 -0.3083643913 0.8258833885
0.08077850193 0.1255715787 0.5990360975 0.4755389392 -0.3280771971 0.8146653771
0.07617419213 0.1207719445 0.6001659632 0.5211535096 -0.3074004948 0.7931841016
0.07000244409 0.1289754659 0.6039184332 0.4855075181 -0.2642001808 0.8311774135
0.08514913917 0.1158888415 0.593513608 0.4917338192 -0.3459909558 0.7960488796
0.08827710152 0.1135921255 0.5898740292 0.3788619041 -0.2801609337 0.8791606426
0.02747929282 0.05424526334 0.6910241246 0.5249035954 0.5215595365 0.6116071343
0.02987911366 0.04569850489 0.6907604933 0.3368588388 0.646714747 0.6517742276
0.03258008137 0.03987104818 0.6910369396 0.08730424941 0.5112674832 0.7678986788
0.0298973117 0.03514663503 0.6937362552 -0.1841231883 0.2983364165 0.9331482053
0.127214089 0.04588036984 0.6229068637 0.170769006 0.530723691 0.8296785355
0.1252699345 0.06826096773 0.6155870557 0.1312281191 0.2303254157 0.9333343506
0.1215628013 0.07324717939 0.6176408529 -0.1914827675 0.2227300107 0.9091186523
0.124622494 0.07577460259 0.6137493849 0.0607688427 0.1348636299 0.9652122259
0.1044330895 0.001931142993 0.7157925367 0.2898018658 -0.1107670814 0.9506553411
0.1064516976 -0.003627777798 0.7141850591 0.2863791883 -0.1120575294 0.9514558911
0.07544855773 0.1344421208 0.6089000702 0.4260458648 -0.3027696311 0.8474646807
0.07365647703 0.1258005798 0.6102993488 0.4724241793 -0.2699056864 0.8371633887
0.06984426826 0.1296169311 0.6106789708 0.4637765586 -0.2562887967 0.8446441889
0.07934664935 0.1389183551 0.607531786 0.3943879902 -0.3379398584 0.8509095907
0.05820395052 0.1062640771 0.6158481836 0.6877216697 -0.03754733875 0.6868439317
0.06147741526 0.1218962818 0.6140651703 0.5160079002 -0.1403674185 0.8314130902
0.05696609244 0.09571953863 0.6169888973 0.7990476489 0.02291940153 0.5945780277
0.05866207555 0.1130988598 0.6151308417 0.6171593666 -0.07358685881 0.7447857261
0.1493819952 0.1088549867 0.6120128036 -0.4736768901 -0.1796265543 0.8516458869
0.1383996606 0.117315568 0.6031322479 -0.6163203716 -0.1930569708 0.7542544007
0.1456678957 0.1138846502 0.6119402647 -0.5191634893 -0.1264172792 0.8319457173
0.1339174807 0.116659224 0.5985465646 -0.658346355 -0.1309013069 0.733827889
0.1395303309 0.1110217348 0.6021366119 -0.5466404557 -0.1667774618 0.7797282338
0.1489606947 0.1030196473 0.6080491543 -0.3557696342 -0.2724116445 0.8618366718
0.144575417 0.1083047986 0.605496347 -0.4525173903 -0.2530913949 0.8174715638
0.1370544583 0.1059131995 0.5996780992 -0.5599244237 -0.001674885047 0.7866729498
0.1344828308 0.1103225872 0.5983457565 -0.6233515739 -0.01530711446 0.7554770708
0.14947927 0.04317208007 0.6197787523 -0.01513112988 0.5907258987 0.8059555888
0.1341458708 0.0421073474 0.6206967831 0.07690492272 0.5926684141 0.8016334176
0.1436763853 0.04096673429 0.6208198667 0.02362728305 0.595330596 0.8028691411
0.1392544806 0.03897287324 0.6229716539 0.04746863991 0.5948670506 0.8018088937
0.1695556939 0.03582970798 0.6449281573 -0.4955227673 0.6135182381 0.5917640328
0.1673092991 0.03159887716 0.6485688686 -0.4771139026 0.6391841173 0.5784694552
0.1819774359 0.03585344926 0.6618728042 -0.6015848517 0.6230740547 0.4879673421
0.134064585 -0.002473539906 0.7065110803 0.3014374971 0.04109154642 0.9398251772
0.1546099186 0.002819494111 0.6964280605 0.2081202716 0.4009999037 0.8455719948
0.1413992643 -0.0013261165 0.7029567361 0.2664829791 0.157147482 0.9062543511
0.1508640051 0.0008378981147 0.7000566721 0.2310098559 0.3191949725 0.8664626479
0.1427396089 -0.001398115535 0.7153844237 0.3107021153 0.1471813321 0.9297357202
0.1476054341 0.002230478451 0.7083213329 0.2755064666 0.241925329 0.9003431797
0.1389510036 -0.0001086803022 0.7114840746 0.31071648 0.122582905 0.9348022342
0.1439025402 0.004062491469 0.7017731667 0.266330719 0.2357048988 0.8988791704
0.1636255682 0.004892183468 0.6984875798 0.2021936178 0.4618892074 0.8343387842
0.1705374569 0.006978468504 0.6925339699 0.1643460244 0.5713347793 0.8010919094
0.1537369937 0.001926352154 0.7061847448 0.2517067492 0.3187098801 0.877833128
0.164199993 0.009163249284 0.6945979595 0.184905082 0.5118831992 0.8191518188
0.1576318294 0.004993886221 0.7019225359 0.2275970727 0.3884289265 0.8566541672
0.02469869517 0.03664544225 0.6933935881 -0.09735352546 0.365370959 0.8785642385
0.1098775119 0.1256024688 0.591199398 -0.03651284054 -0.425958842 0.8855794072
0.113315925 0.1200204194 0.5897079706 -0.1897370368 -0.2562180161 0.9459710717
0.1211356893 0.119640559 0.6071238518 -0.2379087061 -0.1752877682 0.8259769082
0.10302113 0.1313095838 0.6033806801 0.1838005036 -0.4279720783 0.8410810828
0.1167526022 0.115304172 0.6081689 -0.1855867207 -0.1084286645 0.8176345229
0.1169433594 0.1357408613 0.6026066542 -0.04726568237 -0.473318696 0.8519250751
0.1093121618 0.128782168 0.6042650938 0.04793478549 -0.3674823642 0.8383910656
0.09900161624 0.1224788055 0.605661571 0.1980764717 -0.2798804343 0.8252971768
0.1096695065 0.1173636615 0.6073873043 -0.03807378933 -0.1624801755 0.8193459511
0.1074930653 0.1225806475 0.6058981419 0.03908440471 -0.261041373 0.8275530934
0.1036525518 0.1169205084 0.6073207855 0.07201028615 -0.1691970229 0.8171257973
0.1191347018 0.1092757657 0.6098855734 -0.272247225 0.005139041692 0.8081182837
0.1143831015 0.1213706881 0.6064422727 -0.09889869392 -0.2226469517 0.8272176981
0.1224963367 0.1136322916 0.6088032126 -0.3052187264 -0.06456536055 0.8162436485
0.1180051565 0.1030385941 0.6115497947 -0.2943135798 0.1138950586 0.7973898649
0.10945867 0.1066891551 0.5866954923 -0.1156468093 -0.04409395158 0.9873669744
0.1051737666 0.1136331111 0.5873778462 -0.02244701423 -0.1732741445 0.9821173549
0.1203690097 0.1113298014 0.5906017423 -0.3519139886 -0.109225437 0.9112474322
0.1264078468 0.1115908101 0.5932854414 -0.5350563526 -0.04806965217 0.8292586207
0.1180763096 0.105649814 0.5896517634 -0.3050256371 0.0219262857 0.9230643511
0.09016307443 -0.01358944736 0.7188625932 0.2898018658 -0.1107670814 0.9506553411
0.08998159319 -0.002468768507 0.719405055 0.2898018658 -0.1107670814 0.9506553411
0.115115203 -0.008864182979 0.7093744874 0.2589387298 -0.1224033684 0.9578740001
0.1092191264 -0.01263362821 0.7119615674 0.2730728686 -0.1170743927 0.9545681477
0.1241132095 -0.007702528965 0.7072333097 0.2656193674 -0.1160860807 0.9568496346
0.1107745171 -0.005919530522 0.7108376026 0.2717646956 -0.1175676137 0.9548740983
0.1129477546 -0.0001065303004 0.7110094428 0.2677351236 -0.119086884 0.9558166265
0.1451432109 0.1000988409 0.6117603779 -0.2178138793 -0.2244260609 0.9380673766
0.1447627842 0.09909978509 0.6044800878 -0.3663390577 -0.1251411736 0.8616819978
0.1535802931 0.09434651583 0.6115035415 -0.2002754807 -0.2723103464 0.9291292429
0.1422551721 0.09061744809 0.6107680202 -0.2320913821 -0.0391478464 0.9068558216
0.1364943981 0.09054920822 0.6114316583 -0.3098234236 0.08928264678 0.8740147352
0.1485131532 0.09069895744 0.6100512743 -0.1478987485 -0.1786235124 0.9424446225
0.1295925826 0.09316645563 0.6137585044 -0.4937945306 0.2576558292 0.8029190302
0.1622203439 0.04233974218 0.6256016493 -0.4391932189 0.5588889718 0.6982605457
0.162753135 0.0481826514 0.6220787168 -0.4493254125 0.4840762913 0.7379015684
0.1650864035 0.05421944335 0.6208053827 -0.4856449366 0.4103884399 0.7565085888
0.1738524586 0.05583100021 0.632140696 -0.5616188049 0.4161705971 0.6628889441
0.1770707071 0.06059962139 0.6265063286 -0.5867689848 0.3868546784 0.6898329258
0.1626383662 0.05606582761 0.6155971289 -0.4425292909 0.3853581548 0.805505991
0.1801448613 0.06055324152 0.6335900426 -0.6713292599 0.3750332296 0.6334007978
0.1262000948 0.05533030629 0.6157031059 0.306429565 0.3320873082 0.8909018636
0.1182659566 0.05824029446 0.6118641496 0.3109187186 0.3548760712 0.8794042468
0.1096143574 0.05890801921 0.6102716327 0.2863127291 0.4487833977 0.8449625373
0.08742634207 0.06796987355 0.6019106507 0.4141961932 0.4223261476 0.7995402217
0.09232381731 0.06571781635 0.6044048667 0.3951685727 0.427570641 0.8048776984
0.09928607941 0.0635862276 0.6051948667 0.329039216 0.4375550747 0.8323817253
0.131513536 0.05602615699 0.6142601967 0.2082558721 0.3601883948 0.8995829821
0.1282719225 0.07127445191 0.6118264198 0.214235127 0.1473243088 0.9623593092
0.1297591478 0.06240091845 0.6132107377 0.2610890269 0.2530657947 0.9214220643
0.1377736032 0.06063695624 0.6091777086 0.1475802958 0.2762386501 0.9449474216
0.1600159109 0.09231882542 0.612277329 -0.3223705888 -0.2600503564 0.9034759998
0.02889556997 0.04989555106 0.6874631047 0.5207680464 0.583291173 0.5777132511
0.02430596016 0.0561867021 0.6863312125 0.7239260674 0.4030876458 0.5598673224
0.01763855852 0.06174485385 0.6874338388 0.7239260674 0.4030876458 0.5598673224
0.1298671961 0.05146058649 0.6183000207 0.2024583817 0.4536148906 0.8637239933
0.1442854404 0.04660208523 0.6189421415 0.04085344449 0.5545008183 0.8191781044
0.1375092119 0.0480783172 0.6195307374 0.1180853769 0.5210662484 0.8307372332
0.1465264559 0.05305147544 0.6113452911 -0.005746785551 0.4377942085 0.8900678158
0.1399704963 0.04937503487 0.6142452359 0.04845996201 0.50844419 0.8567300439
0.1384845972 0.05555829033 0.6113232374 0.09295549244 0.3842734396 0.9166206717
0.1086352915 0.1092095077 0.6095692515 -0.06847064942 -0.04986825958 0.818678081
0.1152754799 0.0923107788 0.6143386364 -0.273581177 0.100475572 0.864587009
0.09300994873 0.124065876 0.6050376892 0.3262498975 -0.3430433869 0.8352233171
0.1041815802 0.1062021554 0.6102230549 0.01847128384 -0.1158119887 0.8596125841
0.1217912883 0.0972975716 0.6132243872 -0.3987053335 0.1955233216 0.801763773
0.1002198085 0.09964036942 0.6107696891 0.06405373663 -0.05555275455 0.8332589269
0.09775824845 0.1050433517 0.6093619466 0.1392017603 -0.1222603768 0.8303642869
0.08774260432 0.1178992391 0.6053100824 0.3997718692 -0.2927541435 0.8051211834
0.09511172026 0.0971025154 0.610373199 0.1519188583 -0.04194803163 0.8069686294
0.09244243801 0.1045871899 0.6085481048 0.2414578795 -0.1322609782 0.806227982
0.08400497586 0.1104517803 0.6060465574 0.4363840222 -0.2209850699 0.7776373625
0.1004744321 0.1116688251 0.6086039543 0.1186025292 -0.1878314614 0.8521270156
0.08703380823 0.09971897304 0.6085287929 0.3236938417 -0.09373982251 0.7751734257
0.1064803079 0.09306981415 0.6130333543 -0.09156633914 0.03481616452 0.8511992693
0.09125632048 0.1103891134 0.6072824597 0.2935044467 -0.1997699589 0.809551537
0.0962061286 0.1155941561 0.6071624756 0.2219569385 -0.2433138937 0.8390778303
0.1081827208 0.0994290635 0.6121530533 -0.09355189651 -0.0306803789 0.8680946231
0.1206898242 0.08032547683 0.6174041033 -0.3883172572 0.1988997906 0.8960729837
0.1225550398 0.08596217632 0.6162856817 -0.4536729455 0.2348520458 0.8539581299
0.125770539 0.08203973621 0.6130936146 -0.1389640868 0.176020965 0.9581604004
0.1148656532 0.07143666595 0.6015396714 0.1148914993 0.3546708822 0.8954858184
0.1247306466 0.06613891572 0.6100774407 0.307079792 0.2173675448 0.9128918648
0.123676911 0.0597611703 0.6124507785 0.2755850255 0.3166307807 0.8950228691
0.1053675264 0.0695329234 0.6005254388 0.1416678876 0.4268448353 0.8687524199
0.1065839678 0.06306175888 0.6057001948 0.3189365566 0.3778767586 0.8660965562
0.09468109906 0.06857258081 0.599065721 0.2924283445 0.4202152193 0.8497965336
0.1116323024 0.06717145443 0.6036070585 0.1396939605 0.4086338878 0.8777258396
0.1161565706 0.06246560812 0.6081162691 0.226921007 0.3728106916 0.8820112944
0.1005405262 0.07087513804 0.5985143185 0.1572910845 0.4372698963 0.861489296
0.09817472845 0.07553245872 0.5944845676 0.04677774385 0.472599864 0.8608551621
0.1053021774 0.07429874688 0.5968846679 0.001603003591 0.4628596902 0.8721270561
0.1248091757 0.06853187829 0.604582727 0.1634506732 0.2725928724 0.9249018431
0.1307922155 0.06607388705 0.6075116992 0.2214491665 0.2173253149 0.9391866326
0.1099969372 0.0812837854 0.5939612389 -0.2137434334 0.4574238062 0.8301720023
0.1160947457 0.08497872204 0.593852222 -0.3725735843 0.4465293586 0.7884221673
0.1162864193 0.07758826762 0.5973342061 -0.1092590913 0.3860619664 0.8624194264
0.103999041 0.07878587395 0.5935407877 -0.09813693911 0.4772425592 0.8598360419
0.08001435548 0.125722751 0.6082112789 0.4438046813 -0.3213342428 0.8308048248
0.08783896267 0.1310955286 0.6066971421 0.3795454502 -0.4294623137 0.8130845428
0.06738822907 0.1063602045 0.6092752218 0.6665861607 -0.1531731933 0.7131921053
0.06321404874 0.1008061394 0.6118456125 0.735016346 -0.07999567688 0.6525761485
0.06404687464 0.1073160321 0.6136550307 0.6565126181 -0.1048799455 0.7200838923
0.06709515303 0.1127938926 0.6123891473 0.5894696712 -0.1610264629 0.7789363861
0.07149586827 0.1024008095 0.5972572565 0.6506216526 -0.1038511544 0.7488636374
0.0776867941 0.110738568 0.5966799855 0.5624703169 -0.2515115142 0.7808849812
0.1419935524 0.116672121 0.6080670953 -0.5641876459 -0.1551178098 0.7966617346
0.1424483955 0.03525742516 0.6280938387 0.04101903737 0.5855703354 0.8073276281
0.1337513328 0.03946420178 0.6256676316 0.09811381996 0.5693416595 0.8134954572
0.1875103563 0.04529904947 0.6564517021 -0.6859516501 0.5292531848 0.4892560542
0.1886601299 0.03776813298 0.6659317613 -0.6609413028 0.5917070508 0.4583367109
0.1844221354 0.05494585633 0.643482089 -0.708111465 0.4560267329 0.5326763988
0.1899526119 0.05591595545 0.6464151144 -0.6910039783 0.4621655047 0.5430759192
0.1879178882 0.05120504275 0.6498277783 -0.6932852268 0.4873894751 0.5189702511
0.188590169 0.06287721545 0.6366701126 -0.7067487836 0.4053456485 0.5781006813
0.1902496964 0.04271393642 0.6610223651 -0.6748129129 0.5513539314 0.4802316725
0.1838727593 0.05932968855 0.6382886171 -0.7159808278 0.4247076213 0.5526919961
0.02132291161 0.05539991334 0.6908589005 0.590012908 0.5218701959 0.5716305971
0.0174862165 0.05188169703 0.6873943806 0.619443357 0.5004914403 0.5676932931
0.02065298706 0.04743327573 0.6878432631 0.4192397296 0.7016031146 0.5755547881
0.1205779091 0.1182595864 0.5917274952 -0.3293676674 -0.2207914889 0.9121448398
0.1173154339 0.1233679056 0.5922247767 -0.2408145964 -0.3088670373 0.9148367047
0.1247723177 0.1302002072 0.5974616408 -0.3014734089 -0.3192100525 0.8899050951
0.115927279 0.1289807409 0.594384253 -0.1519725919 -0.397446543 0.900030911
0.1293723285 0.1240303293 0.5974562764 -0.5503083467 -0.2112826258 0.7985423803
0.1272121966 0.1166674271 0.5942670107 -0.5396069884 -0.1522328854 0.822734952
0.1262434423 0.1192941517 0.6080794334 -0.2924321592 -0.1304852366 0.8602514267
0.1248586252 0.1255974025 0.6063545942 -0.2247256935 -0.2351895422 0.8743702769
0.1315795481 0.1006454602 0.6133908033 -0.5000994205 0.176326707 0.8242148161
0.1264400333 0.1082395911 0.6107291579 -0.3979307413 0.05848479643 0.8251577616
0.1322401464 0.1115693226 0.6109160781 -0.4009206891 -0.01245458517 0.862850666
0.1201670617 0.129327178 0.6046312451 -0.1451793909 -0.3354163468 0.8523547649
0.1352425814 0.09603443742 0.5994374752 -0.3671000004 0.0494058542 0.858746767
0.1298349053 0.09507700801 0.596108973 -0.4059643149 0.1334392279 0.8467168808
0.1299250871 0.1013627425 0.5953662395 -0.5494779348 0.1466417313 0.7933086753
0.118960619 0.09298939258 0.5916550756 -0.4933535755 0.3456636965 0.7894665003
0.1226702929 0.1039637849 0.5916721225 -0.5179306269 0.1317279339 0.8392857313
0.138613537 0.1027471945 0.6138783097 -0.461604178 0.06417492032 0.8720558286
0.139146924 0.09742304683 0.6122178435 -0.2976984978 -0.07196567953 0.8907048702
0.147319451 0.09442257881 0.6060251594 -0.218289271 -0.1996106654 0.9105940461
0.1403122097 0.09412509948 0.6027946472 -0.2683319151 -0.04070773348 0.8933792114
0.1391183138 0.09962396324 0.6009773612 -0.4147126377 -0.02298713475 0.8399956822
0.0818003118 0.1196100116 0.6051981449 0.4891530871 -0.3154018223 0.7975212336
0.07449323684 0.1100208461 0.6046519279 0.6173192859 -0.2417034507 0.7367853522
0.0764349252 0.1205209568 0.6090341806 0.4528764486 -0.2873715162 0.8407648802
0.07558522373 0.1151596829 0.606708169 0.5374032259 -0.2648730278 0.7867974043
0.08642783761 0.1256178617 0.6054819822 0.4102560878 -0.3616471589 0.8344938159
0.1044349 0.07591383904 0.6142539382 -0.03985142335 0.2721754909 0.8286117911
0.1078637913 0.06400603056 0.6156216264 0.2011559755 0.3770044446 0.8133968711
0.1130755693 0.06990848482 0.6167014241 -0.04286905378 0.2967972159 0.8543276191
0.1106720045 0.07531221956 0.6159469485 -0.1453493088 0.2458089888 0.8609429598
0.1226528063 0.06264507771 0.6192574501 -0.01208356768 0.3454822004 0.8727295399
0.111521095 0.05973164737 0.6166450381 0.2526218295 0.4118437469 0.8157163262
0.1035087183 0.06878917664 0.6144126058 0.1479877383 0.3388392925 0.8096725941
0.08890815079 0.07079028338 0.6108023524 0.3411120772 0.3628412187 0.7531585693
0.1186803132 0.06685267389 0.6181595325 -0.05646990612 0.3123518825 0.8688450456
0.09753655642 0.06916051358 0.6129499674 0.2388157248 0.3534986377 0.7851534486
0.09143023193 0.06380077451 0.611635685 0.4835562408 0.4306278229 0.7420781851
0.1161521748 0.07630842924 0.6172468066 -0.26407215 0.2178821713 0.8876364231
0.1196291894 0.05370331928 0.6188051701 0.2754862607 0.4517517388 0.8316746354
0.09717614949 0.06208864972 0.6109644175 0.4271147251 0.4328179359 0.7785342336
0.1024443135 0.05983399227 0.6133728623 0.4004321992 0.4399411678 0.7855855823
0.08659142256 0.06585070491 0.6092329025 0.5081766248 0.4244587719 0.7370795012
0.08007252961 0.0690555647 0.6050692797 0.5312036276 0.4125441313 0.7386388779
0.07234208286 0.07170044631 0.611045897 0.6419391632 0.3854281306 0.6603649259
0.08596930653 0.07629071176 0.6099406481 0.3348957002 0.3283427358 0.7485286593
0.08090619743 0.07423858345 0.6120152473 0.4455864429 0.3452355266 0.705098033
0.09526000172 0.07770037651 0.6122154593 0.1302437037 0.2919814885 0.7866744995
0.08276960999 0.0772132948 0.6055223942 0.4062958062 0.3440709412 0.7602235079
0.08875626326 0.07911518216 0.6044235229 0.275072068 0.32290259 0.8023251891
0.07581377029 0.0747923404 0.6073443294 0.5586256981 0.3681854904 0.7075816989
0.09521235526 0.07984598726 0.6066464186 0.1326975226 0.2970689237 0.8244456053
0.1052952558 0.08054104447 0.6112701297 -0.08994954824 0.2557067573 0.8511217833
0.07831069082 0.07442036271 0.6019174457 0.5283743739 0.3877697587 0.7528104186
0.08214109391 0.1317450702 0.6079362035 0.4506182671 -0.3098511696 0.8333228827
0.08886864781 0.1282573491 0.5957729816 0.3599639535 -0.3786693811 0.8436070681
0.08908367902 0.1223125309 0.5944470763 0.4067605436 -0.3851361275 0.8218060136
0.08522722125 0.1334267706 0.5984279513 0.3807649016 -0.3453641534 0.8482019901
0.06853052974 0.1184761003 0.6133060455 0.5184370279 -0.1944272965 0.8317287564
0.05988341942 0.1305310577 0.6121479869 0.4748670161 -0.1842330545 0.860195756
0.06601720303 0.1256654412 0.6120184064 0.4640597403 -0.2323042005 0.8542204499
0.06154796109 0.08615613729 0.61742872 0.7163584828 0.1944756508 0.6415379047
0.06631816179 0.09508695453 0.6114802957 0.6884046793 0.01369405817 0.6787480712
0.06065620854 0.09161376208 0.6159415245 0.7476784587 0.08797000349 0.6272262931
0.05679911748 0.088822335 0.6195813417 0.7696272135 0.1439201385 0.610384047
0.05740951002 0.08231069893 0.6222480536 0.7260719538 0.2624337077 0.6352216005
0.08200836182 0.1004971117 0.5909543037 0.4691030681 -0.0337042138 0.8696361184
0.0783668533 0.1043451577 0.5925869942 0.5489103794 -0.1395838112 0.8227711916
0.08450891823 0.1084585562 0.5901021957 0.4536945522 -0.2039085627 0.862621665
0.07718659192 0.08557490259 0.596855998 0.5072532892 0.3224290013 0.796980679
0.08111450821 0.0993129611 0.6063453555 0.4443406165 -0.07565312088 0.7568536401
0.1083799377 0.08551923186 0.6134812832 -0.1600184143 0.1540478915 0.8568570018
0.08939804882 0.09371766448 0.6078300476 0.2584697306 0.03236161172 0.7914507389
0.07819337398 0.09212278575 0.6013641953 0.4951438904 0.1356531084 0.7721505165
0.101881355 0.09042435884 0.6125673056 -0.01337009761 0.05527760834 0.8281680346
0.07693174481 0.09704186767 0.6031164527 0.5299962163 0.008513933048 0.7546772957
0.113267839 0.08342354745 0.6149440408 -0.2677555978 0.1849623471 0.873652935
0.08829605579 0.08894467354 0.6049485803 0.2743200958 0.1681573093 0.8034046292
0.07305462658 0.1031610221 0.6041243076 0.6226248741 -0.1373088807 0.7279804945
0.09800466895 0.0864597708 0.6086699963 0.06302572787 0.1839004457 0.831731379
0.08391612768 0.08568175137 0.601137042 0.3625898659 0.2803725004 0.8037806749
0.08366408199 0.0920721516 0.6041177511 0.3782529533 0.1077928618 0.7840625644
0.08246978372 0.08134526759 0.5957481265 0.4217345417 0.3398565352 0.8355209231
0.07202781737 0.08192331344 0.6046779156 0.6356184483 0.2999839187 0.7033768892
0.0757246986 0.08159010857 0.6005240083 0.5452643037 0.3462864161 0.7589404583
0.07726054639 0.09794151038 0.593644619 0.5365934372 0.005145689473 0.8343119025
0.08290281147 0.0945904851 0.5909991264 0.4113102853 0.1171014532 0.9031223655
0.07900098711 0.09122204781 0.5941503048 0.4834115207 0.1836654097 0.8437443972
0.09091955423 0.1010998562 0.5879628062 0.2354333252 0.04266527668 0.9642812014
0.06186421588 0.09589383751 0.6083227992 0.7883003354 0.03555640951 0.6068946123
0.06352051347 0.1020156592 0.6064078212 0.7610195875 -0.1057572886 0.6311243176
0.06669341773 0.1005017087 0.6018139124 0.7201058269 -0.06382580101 0.6820111275
0.1694028527 0.03346658126 0.6538695097 -0.4726771712 0.6282626987 0.5665323138
0.1593997777 0.03076669201 0.6413393617 -0.3857498169 0.6348673701 0.6430127025
0.1758946627 0.03846474737 0.6575606465 -0.5732825994 0.5921109915 0.5226469636
0.1679071635 0.04066576436 0.6426668167 -0.448043108 0.5412089229 0.6467626691
0.1615585536 0.03799510747 0.6364433765 -0.3347612619 0.5495482087 0.7152699828
0.1635864377 0.03379479423 0.6448503137 -0.355238378 0.602673471 0.6589261293
0.1574852318 0.03326222673 0.6362857819 -0.2526935637 0.588232398 0.7386344671
0.1730835587 0.04946114868 0.6393347979 -0.5609789491 0.4613489211 0.6360343695
0.1721584052 0.04490545392 0.6437203884 -0.5315199494 0.5085621476 0.6176044941
0.1673066169 0.04602644593 0.6349478364 -0.4547754824 0.4800272584 0.6915224195
0.15836519 0.03791223466 0.6286841631 -0.3198690414 0.5661257505 0.7403866053
0.1515197456 0.03234384954 0.6308227777 -0.1210929975 0.5889680386 0.7945876122
0.1523421258 0.03682797402 0.62597996 -0.04241614416 0.5890845656 0.8056676388
0.1475957483 0.02892411686 0.6342816949 -0.2032157779 0.6092551351 0.7488847971
0.1610970646 0.02574198321 0.6597521305 -0.3161312044 0.7524629831 0.5288537145
0.163232848 0.02511097863 0.6649323702 -0.3219862878 0.7791440487 0.4899029732
0.1556862295 0.02754509076 0.6445372105 -0.3205789924 0.6819019318 0.6287929416
0.158013314 0.0267642159 0.6511359811 -0.318157196 0.7123270035 0.5857779384
0.1680673361 0.02369015291 0.6765814424 -0.3359461427 0.8394295573 0.4017816782
0.16780366 0.025908323 0.6714518666 -0.3633584976 0.785633862 0.4453155398
0.1625493914 0.0315640606 0.6522040367 -0.3818872571 0.6208184958 0.6184726954
0.1691947132 0.02897525206 0.6666689515 -0.4214807451 0.7219088674 0.4816117883
0.1719580144 0.03337337077 0.6608347893 -0.513543427 0.6351729035 0.5232228637
0.1587826908 0.03122247383 0.6479203701 -0.3344648778 0.6060685515 0.6634936333
0.149040997 0.02884953097 0.6400653124 -0.1912492067 0.6029570103 0.7531248927
0.1417275816 0.02992588654 0.6332425475 -0.05801035836 0.5859680772 0.8007830381
0.1368898749 0.03151987121 0.6296166182 0.06184151396 0.5939171314 0.8021423817
0.157232061 0.007923599333 0.6940621138 0.02907283232 0.553501308 0.6740426421
0.1651840806 0.01287508197 0.6891469359 -0.1833884567 0.7748826146 0.4729777873
0.1522019655 0.007866985165 0.6967228651 0.07315729558 0.4560334086 0.7160016894
0.1086446866 0.1008898914 0.5871296525 -0.07697240263 0.03578126803 0.9946002364
0.1123040989 0.09443278611 0.5895472765 -0.1666237116 0.163377434 0.9471744299
0.1143085063 0.1006861851 0.5887315273 -0.1857133657 0.05414833874 0.9624091387
0.1095457003 0.08921519667 0.5901252627 -0.1588649303 0.2750141025 0.9075379372
0.1047666967 0.08560524136 0.5902763009 -0.1238857359 0.4022082984 0.8778146505
0.1780792028 0.08403897285 0.6255870461 -0.5803545117 -0.02132027037 0.8008660078
0.166633904 0.09520184249 0.6184145808 -0.4749959409 -0.2443806827 0.830385685
0.1712008417 0.09392482787 0.6223552227 -0.5424063206 -0.1930389404 0.7969733477
0.1749051809 0.08940716088 0.6236248612 -0.5497331023 -0.1205596477 0.8031271696
0.1688252836 0.08808201551 0.6207914948 -0.5279844403 -0.1051928475 0.8231967092
0.1634102464 0.08834186196 0.6162418723 -0.4372770488 -0.1629112661 0.8579711318
0.171181649 0.0899316296 0.6283337474 -0.5713918209 -0.03037301823 0.8098262548
0.1619869471 0.09779018909 0.6203618646 -0.4371096492 -0.163109675 0.8616048098
0.130254522 0.07186123729 0.6037065983 0.03636023775 0.2458827347 0.9099337459
0.1217149943 0.08104562014 0.5978024006 -0.21338889 0.347356379 0.8387421966
0.1273974031 0.07829609513 0.6020296812 -0.04226698726 0.2190128118 0.8962587714
0.1471757144 0.08562356979 0.6074594259 -0.04186941683 -0.1545029581 0.9826473594
0.185766682 0.07166877389 0.6276403069 -0.6194689274 0.1198613197 0.7623637915
0.1850692183 0.06638717651 0.6300168037 -0.6617029309 0.3102895617 0.660243094
0.1749953032 0.06902409345 0.6203348637 -0.5806754827 0.1463724822 0.7929154038
0.1806042641 0.06771598756 0.6256362796 -0.6243883371 0.2317270935 0.7223068476
0.1721887439 0.06059337035 0.6217788458 -0.5467575788 0.3592851162 0.734257102
0.1656211764 0.06499047577 0.6148554683 -0.5538244843 0.2262043357 0.7924312353
0.08946429193 0.09522553533 0.5886090398 0.2563591897 0.1422083527 0.9531880617
0.06544471532 0.07657406479 0.6145727038 0.6876021624 0.3533734977 0.6336328983
0.06181799248 0.07846966386 0.61916399 0.7060816884 0.3202845156 0.6305780411
0.07073188573 0.09735875577 0.6067607999 0.6664249897 -0.05242386833 0.6962014437
0.06940620393 0.08616025746 0.6098453999 0.6697512865 0.1534805596 0.6686788797
0.07108373195 0.08015202731 0.6100643873 0.6585293412 0.2437236905 0.6666933298
0.07117471099 0.08888734132 0.603936553 0.6584665179 0.1742040217 0.7046800256
0.06690449268 0.09226712584 0.6027650237 0.7048849463 0.1213038117 0.6860463023
0.06401547045 0.08837874234 0.608060658 0.7429979444 0.2068423182 0.6251776218
0.06459631771 0.0823976323 0.609949708 0.7008548379 0.3225671649 0.6351633668
0.06724198163 0.1194712892 0.6030889153 0.5637114644 -0.1747907102 0.7959749103
0.06568577141 0.1242873222 0.6061063409 0.5468215942 -0.2134139985 0.798795104
0.06544692069 0.1133455634 0.6061598063 0.6363195181 -0.1794831902 0.7378312349
0.06404235214 0.1308617294 0.6076286435 0.4900694489 -0.2204434574 0.8412923813
0.07110568881 0.1094357669 0.5996089578 0.6193848848 -0.1655623466 0.7555282712
0.07498507202 0.1147770882 0.5995222926 0.5691034198 -0.2655936778 0.7692172527
0.07170543075 0.1234274507 0.6024591923 0.520572722 -0.2734175622 0.8045471311
0.0596858114 0.1106284559 0.6103295088 0.712846458 -0.1139489561 0.6551887393
0.06149510667 0.1161087677 0.6092751622 0.6357168555 -0.1515477151 0.7276362181
0.1780008674 0.03290800005 0.6710916758 -0.6046007276 0.6540371776 0.4473523498
0.1741836816 0.02811339498 0.6765236259 -0.4986432493 0.740236342 0.4146999717
0.1796434075 0.01998123527 0.6790333986 -0.3811274767 0.8379436731 0.3894383609
0.1817238927 0.0271695964 0.6739248037 -0.611741662 0.6491268277 0.4509226978
0.1682417542 0.02877940051 0.6581126451 -0.4846747518 0.6737186313 0.5350896716
0.1752111018 0.03066145629 0.6667170525 -0.5559140444 0.6707572937 0.4763319194
0.1739584208 0.0264460668 0.6707484722 -0.5173742175 0.7039017677 0.474408716
0.1753567606 0.01651910692 0.6839386821 -0.3086664081 0.8805664182 0.3572925031
0.1713956445 0.02274142951 0.6810235381 -0.3563946784 0.8531405926 0.3794129193
0.1729437709 0.01308683585 0.6870259643 -0.158302322 0.7974458933 0.4835980833
0.1013399959 0.1011904851 0.5859363079 0.01543296315 0.048369959 0.9927088618
0.1059503928 0.09468200058 0.5874684453 -0.02786109596 0.09485875815 0.994400084
0.09897205234 0.09391193837 0.5873026252 0.07574206591 0.1350246519 0.9848230481
0.1581380665 0.08180584013 0.6085921526 -0.308968693 -0.08869887888 0.9374656081
0.1760548353 0.07324873656 0.6310209632 -0.5893206596 0.08749810606 0.7848953009
0.1653214842 0.06081663817 0.6221279502 -0.3323084116 0.3235165477 0.8308128119
0.1730225384 0.06850792468 0.6286560893 -0.5136876702 0.1775581539 0.794451952
0.177624166 0.06710106134 0.6332773566 -0.6072915792 0.2045832723 0.7560378313
0.169734329 0.06321131438 0.6261102557 -0.4312880337 0.2781821191 0.8043823838
0.1679128557 0.06695005298 0.6225873232 -0.4528574049 0.1989552975 0.8192665577
0.1574079841 0.05550611019 0.6130025387 -0.2493259907 0.3986593187 0.8654882908
0.1482820809 0.04854283854 0.6146451235 -0.01707005501 0.5304109454 0.8405030966
0.1534626186 0.04795732349 0.616597712 -0.06005313247 0.5622668862 0.8211330175
0.1522696167 0.05279459432 0.6135661006 -0.06070014462 0.4690758288 0.8767561913
0.1603575498 0.06748630852 0.6110537052 -0.3973313272 0.1543046832 0.8852565289
0.1697362214 0.07241072506 0.6174659729 -0.5839529037 0.07303602993 0.8039577603
0.1795041263 0.07420181483 0.6252346635 -0.6100013256 0.06172811985 0.7878058553
0.1706426293 0.07295949757 0.6227134466 -0.5950039625 0.07168252021 0.796690166
0.1638768315 0.07295272499 0.6129878759 -0.5760458708 0.04771633819 0.8123263121
0.1622710377 0.08411169052 0.611947 -0.48644647 -0.1387369782 0.8589562178
0.1873966008 0.07907043397 0.6272851825 -0.6148913503 0.03499068692 0.7853695154
0.1770594567 0.07875345647 0.6209409833 -0.5899860859 -0.0009270649753 0.8018912673
0.1818129867 0.0790740326 0.6238760948 -0.6001356244 0.01279294025 0.7948644161
0.1715807021 0.07924211025 0.6176452041 -0.5718910694 -0.0304690823 0.8127915859
0.1691138297 0.08417195082 0.6168236732 -0.5301294327 -0.116371043 0.8323933482
0.09664669633 0.08520837873 0.5902720094 0.1656692028 0.2574386895 0.9497174025
0.09016454965 0.07197914273 0.5961828828 0.3055467606 0.4079991877 0.8574621081
0.09327057004 0.07835043967 0.5934691429 0.2424418479 0.3398933709 0.9029414654
0.08724817634 0.07715861499 0.5948525071 0.3375705481 0.3651562333 0.8640854955
0.0891719237 0.08413311839 0.5922083855 0.2924823761 0.2959591746 0.9048525095
0.08706106991 0.09018813819 0.5907558203 0.3135844469 0.2210291624 0.9178319573
0.1534070671 0.08524077386 0.6098427176 -0.2365466654 -0.1504886001 0.9238917828
0.157999441 0.07812136412 0.6137892604 -0.2514558434 0.01335911918 0.9237921238
0.1539677382 0.07581777126 0.6091927886 -0.13001059 0.01736149192 0.9787427783
0.1714090407 0.08304397017 0.6240196824 -0.5728845 0.007773175836 0.8050045967
0.1626401693 0.08039584756 0.6183134913 -0.3797030449 0.009065519087 0.8698263764
0.1382882744 0.08002085984 0.609174788 -0.08023530245 0.05108670518 0.9812689424
0.1326867789 0.08423630148 0.6110418439 -0.1535033137 0.08097498119 0.9657905698
0.129946366 0.07885678113 0.6111956239 0.009590467438 0.1283021718 0.9583881497
0.1327081323 0.07366601378 0.6096500754 0.2480459213 0.07873061299 0.9609334469
0.1377035677 0.0712498799 0.608764708 0.1625496447 0.08881511539 0.9688157439
0.1350802928 0.09031628072 0.6000489593 -0.2393804491 0.04017696157 0.9063665867
0.1249985695 0.0950737074 0.5929012895 -0.4785686135 0.2247509211 0.82238096
0.1421847939 0.0815403834 0.6049774885 -0.06530284882 -0.009906648658 0.9708509445
0.1372625232 0.0839016214 0.601488471 -0.1821225733 0.07964164764 0.9298084378
0.1327096969 0.07849474251 0.603166461 -0.04986103624 0.1503066272 0.9263826609
0.125564009 0.08876860887 0.5953800678 -0.3742054701 0.2613252997 0.8401863575
0.1326350123 0.08471953124 0.5992068648 -0.250929594 0.1648358405 0.8959522843
0.1445238143 0.07531580329 0.6066418886 -0.0004115977208 0.02071536891 0.9956956506
0.1437224299 0.06561543792 0.6090682745 0.06801902503 0.1731430888 0.9611089826
0.1508436948 0.06714247167 0.6079483032 -0.07818469405 0.1486961693 0.9820719957
0.155532077 0.06190717965 0.6110173464 -0.1282672286 0.2790819108 0.9390505552
0.1464050263 0.05824412033 0.6084452868 -0.006782219745 0.3366393149 0.939768374
