# .PCD v0.7 - Point Cloud Data file format
VERSION 0.7
FIELDS x y z normal_x normal_y normal_z
SIZE 4 4 4 4 4 4
TYPE F F F F F F
COUNT 1 1 1 1 1 1
WIDTH 512
HEIGHT 1
VIEWPOINT 0 0 0 1 0 0 0
POINTS 512
DATA ascii
-0.002141024685 -0.2215202749 1.202000022 -0.1693072915 -0.03900567815 0.9845778346
-0.1142570302 -0.1757340729 1.085683942 -0.230642885 0.2629450262 0.9362580776
-0.1163920835 -0.1722305566 1.082560062 -0.2200312018 0.2755095363 0.9350159168
-0.1195215061 -0.1789682508 1.084501624 -0.2345941514 0.2532249689 0.9379641414
-0.1188504323 -0.1690081358 1.079519629 -0.2099788934 0.2872359753 0.9338877797
-0.1220712066 -0.1744076759 1.081893802 -0.2222558707 0.2700200379 0.9360435605
-0.1300554276 -0.1873235106 1.085040092 -0.2301772237 0.1927809417 0.9526853561
-0.1348159015 -0.1901004165 1.084606171 -0.2219634354 0.1615576148 0.9611067772
-0.127254948 -0.1751464307 1.080414176 -0.2037734687 0.2402991652 0.9454658031
-0.1370609552 -0.1815348417 1.0802598 -0.1828702241 0.1694468856 0.9645370245
-0.1320466846 -0.1728634238 1.077198625 -0.1743096858 0.2150879502 0.9554511309
-0.1364899129 -0.1762753874 1.077429295 -0.1666805297 0.1820830703 0.9640287757
-0.1260368377 -0.180076316 1.083758593 -0.2267545909 0.2391345501 0.942391336
-0.1319969743 -0.1795314252 1.081092358 -0.1982796192 0.2037801296 0.9545286298
-0.05133238807 -0.07709863782 1.079637289 -0.4211588204 -0.2046380639 0.8834192753
-0.1208570749 -0.1761894971 1.090000033 -0.2384041101 0.254425168 0.9370533824
-0.1188784242 -0.1821795404 1.090000033 -0.2498107255 0.2409271002 0.937834084
-0.1132269949 -0.1799092442 1.087854505 -0.2414582819 0.2480703443 0.9379848838
-0.1114823893 -0.1378172189 1.073859096 -0.08920130134 0.1546098143 0.9609314203
-0.1075324491 -0.1324073076 1.071925521 0.03484103829 0.1490608007 0.9673372507
-0.05952252075 -0.08123422414 1.070527434 -0.2973060608 -0.2406844944 0.9175643921
-0.05491713434 -0.0837938711 1.071588874 -0.3707848489 -0.1965142787 0.904129684
-0.05978449062 -0.09283532947 1.067056775 -0.3508284986 -0.1738244295 0.9175592661
0.005069895647 -0.2065514475 1.197000265 0.1083252355 -0.01402116474 0.9904949069
0.002740473021 -0.2208032906 1.197000027 -0.1061954051 -0.02645093389 0.985427916
0.00681377342 -0.2124615461 1.197000027 0.01090486813 -0.007871690206 0.9880693555
0.01310455333 -0.1995168328 1.196071744 0.2257987708 0.01897116564 0.9654248357
0.01681879535 -0.1921273321 1.189822078 0.4288275242 0.02199611068 0.8969821334
-0.02646513656 -0.09253073484 1.084936738 -0.4866827726 -0.1299353987 0.8638259172
-0.109759815 -0.1377474964 1.078256369 -0.05621875077 0.192253232 0.9482796192
-0.1030366272 -0.1254272759 1.076648712 0.1769878864 0.1479260176 0.9579762816
-0.09984399378 -0.1268171966 1.073265553 0.1840806603 0.1716604084 0.9498319626
-0.1030975729 -0.1304968745 1.074869394 0.1038989648 0.178994 0.9491584301
-0.1130613461 -0.1416151077 1.079835534 -0.1394959837 0.2005217224 0.9473608136
-0.09568853676 -0.1277021468 1.069196343 0.2065419406 0.1968364865 0.9408587217
-0.119994171 -0.141207844 1.08061862 -0.162338987 0.1646119356 0.9595543146
-0.1354410648 -0.1353294104 1.080239892 0.04391406104 0.04441300035 0.9750337601
-0.1257673651 -0.1370396912 1.080350161 -0.06822051108 0.1082798243 0.9705566168
-0.1305866241 -0.134961158 1.080216169 -0.001758900587 0.06936382502 0.9760332704
-0.1201843098 -0.1336541176 1.080132008 -0.09515342861 0.1198318824 0.9795458317
-0.07262264937 -0.1224148571 1.062501907 -0.09266967326 0.1238282174 0.9829027653
-0.05614940077 -0.1210821569 1.064419627 -0.3753564358 0.03049873747 0.9226993322
-0.1455342919 -0.1822834462 1.077348709 -0.1478163898 0.1165256128 0.9816073775
-0.1417212635 -0.184699744 1.080828786 -0.1875690818 0.1358261555 0.972486496
-0.1389680654 -0.1887978315 1.082493901 -0.2029388994 0.143664971 0.9680323005
-0.1370482296 -0.1709520072 1.077000022 -0.1188835427 0.1983465999 0.9674406052
-0.1427414715 -0.1744158715 1.077000022 -0.1037536487 0.1584740877 0.9786741138
-0.1269008964 -0.1673157513 1.077000022 -0.1683605462 0.2596803904 0.9462749958
-0.05080238357 -0.2446564883 1.182033539 -0.03046381287 -0.5540655851 0.8319097757
-0.04474308342 -0.2434091866 1.18197155 -0.03031661548 -0.5555387735 0.8309258223
-0.03390071914 -0.2497719079 1.177155256 -0.03546600044 -0.5628136396 0.8258034587
-0.01627580263 -0.2403158695 1.193495393 -0.08858021349 -0.3757406771 0.9147133827
-0.01358445175 -0.2358356714 1.194147944 -0.1093566716 -0.3238250315 0.9270169735
-0.0711383298 -0.2563312948 1.177488923 -0.03055225126 -0.5531805158 0.8325009942
-0.06246150658 -0.2487986237 1.184435964 -0.03055225126 -0.5531805158 0.8325009942
-0.05568010733 -0.2531074286 1.181697369 -0.03055225126 -0.5531805158 0.8325009942
-0.04918398336 -0.2391934842 1.186331153 -0.03055225126 -0.5531805158 0.8325009942
-0.05378313735 -0.2415760159 1.189546704 -0.03055225126 -0.5531805158 0.8325009942
-0.05791191757 -0.2448008657 1.182096243 -0.03055225126 -0.5531805158 0.8325009942
-0.06573459506 -0.2455233485 1.186222672 -0.03055225126 -0.5531805158 0.8325009942
-0.05916008726 -0.2435045242 1.189764023 -0.03055225126 -0.5531805158 0.8325009942
-0.06872266531 -0.2472402006 1.181511641 -0.03055225126 -0.5531805158 0.8325009942
-0.07419754565 -0.2522039115 1.178934932 -0.03055225126 -0.5531805158 0.8325009942
-0.05948894471 -0.2504287362 1.178671241 -0.03055225126 -0.5531805158 0.8325009942
-0.1301689744 -0.1736133844 1.088678718 -0.2222087234 0.2322972119 0.9461158514
-0.1333604157 -0.1817013323 1.087023735 -0.229428187 0.1916754246 0.9530836344
-0.1422833055 -0.1788038313 1.083122015 -0.1785822958 0.1372702569 0.9717023969
-0.1242724955 -0.1800637394 1.089922547 -0.2466229051 0.2397461981 0.9389173388
-0.1290932894 -0.1793968827 1.089371562 -0.2418545187 0.2317670137 0.9417632818
-0.1262200475 -0.1860447526 1.087489963 -0.2370229661 0.2035788149 0.9487137794
-0.1503087431 -0.1630231589 1.083783746 -0.04265301302 0.1615703255 0.9826973081
-0.1544202864 -0.1595931053 1.083140254 0.01139834058 0.1310291886 0.9896811843
-0.1527905017 -0.1680295765 1.082228541 -0.06069061533 0.1289675236 0.9865036011
-0.1474927813 -0.169200018 1.084571481 -0.09679881483 0.1628433317 0.9744008183
-0.144026801 -0.1737709492 1.084254622 -0.1526314318 0.1581525058 0.9694381356
-0.1368193924 -0.1737005562 1.088250279 -0.1876810193 0.2159738839 0.9516811967
-0.1363461465 -0.1677781045 1.086173415 -0.1681195349 0.2099863291 0.9603078365
-0.1417819113 -0.1654693037 1.085053086 -0.1176599413 0.1904105544 0.9698098302
0.02154167742 -0.176376462 1.185024858 0.3811107278 0.02380348556 0.9242229462
0.0197535418 -0.1668597162 1.187384009 0.3811107278 0.02380348556 0.9242229462
-0.1401740313 -0.1425975114 1.072952032 0.07301457226 0.1250256449 0.9879457355
0.01523026545 -0.1928013563 1.197438121 0.3506142199 0.02935753949 0.9352474809
0.01678887755 -0.1914369911 1.202219486 0.3359577358 0.0220605433 0.9295706749
0.01328510884 -0.2014147937 1.204801798 0.1623268276 0.01572637074 0.983861208
-0.1407333761 -0.1331144273 1.074166059 0.110639371 0.01864570379 0.9896486998
-0.1310188621 -0.1226970926 1.07245779 0.05908734351 -0.1017177552 0.9911406636
-0.1265079379 -0.1210754588 1.071711421 0.05004829913 -0.05743313581 0.9939044118
-0.1077054664 -0.125254482 1.079487324 0.1197105199 0.1597403437 0.9655854702
-0.1149799675 -0.1360837966 1.080407023 -0.1203150675 0.1695310473 0.96615237
-0.112186417 -0.1318202168 1.080349803 -0.02317693457 0.1725473851 0.9646333456
-0.1032602787 -0.1179778427 1.07633853 0.2360708863 0.1391975731 0.961643815
-0.05263670906 -0.089714095 1.072084308 -0.4082434475 -0.1738294512 0.8950527906
-0.04894784838 -0.08159789443 1.075651288 -0.4219249189 -0.1931050718 0.8852317929
-0.1157003492 -0.1669567674 1.082970023 -0.203689009 0.2953810692 0.9331156611
-0.1290676147 -0.1385012716 1.072932363 -0.05915907398 0.118420884 0.9891670942
-0.1342206299 -0.1397924125 1.072898626 0.007763154339 0.1317696422 0.9902319312
-0.1344226003 -0.1347653419 1.072767973 0.02686827816 0.09173001349 0.9952681065
-0.1206845045 -0.1338059604 1.073881269 -0.08282865584 0.08606698364 0.9916061759
-0.1197467521 -0.126230374 1.073625922 0.00988676399 0.0561500378 0.9955018759
-0.1265850961 -0.132307753 1.072639704 -0.0616354309 0.06065257639 0.9938904643
-0.1306536645 -0.1286229789 1.072506785 0.01321819611 -0.002952795243 0.9960305691
-0.1205826104 -0.139704749 1.074418306 -0.09254518151 0.1386082023 0.984882772
-0.1093870178 -0.1432375461 1.074241996 -0.02998125553 0.2535786033 0.9378905892
-0.1154008135 -0.146126017 1.080294013 -0.2226471305 0.2176335454 0.9435918331
-0.1023531556 -0.1358810216 1.070484161 0.1034408286 0.2308866531 0.9391188622
-0.1149449721 -0.1421338171 1.075297117 -0.1626278609 0.1679930091 0.9580180049
-0.1135250032 -0.1475022137 1.074648619 -0.07790523767 0.2680826783 0.9390729666
-0.1231107861 -0.1514088511 1.075818896 -0.1347736567 0.2595048249 0.9528511167
-0.1186261773 -0.1469400227 1.076426983 -0.2006569803 0.1990935355 0.9553254247
-0.1240381822 -0.1443218589 1.073965788 -0.09780789167 0.1704903245 0.9786915183
-0.1416330636 -0.1679744571 1.076804042 -0.07729939371 0.1836480647 0.9767900109
-0.1227704436 -0.1641479731 1.076956511 -0.181266278 0.2893387973 0.9377228022
-0.1367590576 -0.1633698344 1.076745033 -0.100384362 0.2180713266 0.9660483003
-0.1261665672 -0.1603699327 1.076934338 -0.1591920257 0.2782524228 0.9444477558
-0.1310733259 -0.1628332436 1.076837897 -0.132679835 0.2485153079 0.9544991851
-0.1537361145 -0.1537608504 1.082435369 0.04983140901 0.1028843895 0.9913381338
-0.1465874016 -0.1440342218 1.081237197 0.08314859867 0.07263638079 0.982208252
-0.1417429298 -0.1478401124 1.081402898 0.02351819351 0.1501565427 0.9710287452
-0.1372537464 -0.1562030017 1.082011104 -0.06997665763 0.267582804 0.9583469033
-0.1459855586 -0.1532964259 1.082084179 0.006245574448 0.1651267856 0.976598978
-0.1403329074 -0.1600922793 1.08357811 -0.08906002343 0.2031481713 0.9688634872
-0.1474234611 -0.1584918648 1.083453298 -0.03148908168 0.1447921842 0.9817944765
-0.1167679802 -0.1706623286 1.088917732 -0.2123905569 0.2722334564 0.9373515248
-0.12213853 -0.1714955866 1.088805318 -0.2152772248 0.2608464658 0.9396300912
-0.1282426715 -0.166431874 1.086495638 -0.1811534762 0.2412374765 0.9515606761
-0.1319080144 -0.1635357887 1.085039973 -0.1603507251 0.2242095321 0.9604110718
-0.123673901 -0.1640675962 1.086301804 -0.1715120375 0.2630067766 0.9472813606
-0.1120432764 -0.1676169187 1.088133931 -0.2005393952 0.2849989831 0.9363141656
-0.1148078963 -0.159987554 1.08573544 -0.1544817537 0.2931265831 0.9424210191
-0.1107257381 -0.1721591651 1.089925647 -0.2271651328 0.2763566077 0.9337453246
-0.1183201149 -0.1600008607 1.079976797 -0.1736828536 0.3107523322 0.9344307184
0.01870352589 -0.1846993119 1.18728888 0.42775473 0.02403907105 0.9024787545
0.02048128843 -0.1815186888 1.194744468 0.4330275059 0.02406570315 0.9000207186
0.01898509078 -0.1866063327 1.193983197 0.456129849 0.0241823867 0.8892510533
0.02119282074 -0.1789193898 1.190124273 0.4070749581 0.02393462323 0.9121190906
-0.02399813756 -0.2451521307 1.189171791 -0.03094949201 -0.4853430092 0.8722646832
-0.02728700638 -0.2467188686 1.183325529 -0.02426051721 -0.5267611146 0.8486920595
-0.02271283418 -0.2420578301 1.194841623 -0.04262975231 -0.4190421999 0.8966832161
-0.01433110517 -0.2354314178 1.199899673 -0.1271112114 -0.2130224854 0.9564164877
-0.03886941448 -0.251662761 1.177462816 -0.0371976383 -0.5613779426 0.8266912103
-0.0539945811 -0.2486011684 1.17994678 -0.03110026568 -0.553856492 0.8320218921
-0.05316530168 -0.2535941601 1.176553488 -0.0318027176 -0.5547230244 0.8314077854
-0.04772368446 -0.2528221309 1.176652908 -0.03402889892 -0.5574691296 0.8294615149
-0.04346941411 -0.2498432547 1.178314686 -0.03560053557 -0.5594078302 0.8280875087
-0.05855882913 -0.258439362 1.178692698 -0.03055225126 -0.5531805158 0.8325009942
-0.05186022073 -0.2481600046 1.187069654 -0.03055225126 -0.5531805158 0.8325009942
-0.04764806479 -0.2527259588 1.18348515 -0.03055225126 -0.5531805158 0.8325009942
-0.122686848 -0.107912384 1.070493221 0.201684311 -0.03216041997 0.9734634161
-0.1119109094 -0.1015955061 1.065787911 0.2299601883 0.09063577652 0.9612483978
-0.0549749881 -0.07610464841 1.076066613 -0.3671620488 -0.2164084613 0.8974056244
-0.06408249587 -0.07995328307 1.072579622 -0.2643500566 -0.2395079881 0.9241456985
-0.08379940689 -0.08561753482 1.067656159 -0.03218551353 -0.1703401059 0.9784989953
-0.09257280082 -0.09654384851 1.063018918 0.1377914995 0.008522543125 0.9734928012
-0.08686928451 -0.09612532705 1.06298852 0.07755398005 -0.06455989927 0.9847193956
0.01914713718 -0.1708184928 1.192311168 0.4002564847 0.02390018478 0.9152976871
0.02063043788 -0.1756644547 1.194838762 0.4236690402 0.02401843481 0.9043833613
-0.06504502147 -0.2584187388 1.176904202 -0.03055225126 -0.5531805158 0.8325009942
0.002577109262 -0.2027852088 1.203894258 0.04394444078 0.01067469735 0.99523592
-0.002459299518 -0.205889225 1.202329874 -0.03439982608 0.000364122825 0.9978046417
0.01105834637 -0.2043043077 1.197862387 0.1189501733 0.01089952607 0.9912441373
0.006419853307 -0.2107433528 1.201532722 -0.01008805539 -0.01122486405 0.9946580529
0.009948866442 -0.2062548995 1.202403426 0.07311164588 0.003040230833 0.992456913
-0.005591103341 -0.2112340778 1.202000022 -0.1098452881 -0.009123413824 0.9923223853
-0.009909261018 -0.2065548748 1.201800942 -0.1010052487 -0.0198946055 0.9928852916
0.0009275706252 -0.2153899521 1.201999903 -0.1058972627 -0.01827321202 0.9935762286
-0.01339105796 -0.2227158248 1.201291323 -0.1388693601 -0.08367498219 0.9821062088
-0.02037436329 -0.2270949334 1.198541522 -0.1064736918 -0.2041483968 0.960188508
-0.01224813331 -0.2278569341 1.201741338 -0.14799501 -0.09818303585 0.9819172621
-0.04205183685 -0.2353271842 1.187754869 -0.04248120263 -0.49878335 0.8580200076
-0.03241425008 -0.2294997573 1.193310261 -0.05819536373 -0.378639549 0.9199004173
-0.03489044309 -0.2394952178 1.183998108 -0.06256779283 -0.4726089835 0.8623838425
-0.03006892838 -0.2366048545 1.18604672 -0.09370720387 -0.3916756511 0.893419385
-0.03249545395 -0.2439421862 1.180580378 -0.05024375767 -0.5064624548 0.8487017155
-0.04290127382 -0.239662081 1.184089303 -0.03272961453 -0.5487242341 0.833747685
-0.02980133332 -0.2315258086 1.189868927 -0.1186727583 -0.3252647519 0.9194715619
0.009856918827 -0.1754264235 1.195705533 0.3811107278 0.02380348556 0.9242229462
0.01381764282 -0.1691699177 1.192626238 0.3811107278 0.02380348556 0.9242229462
-0.06642242521 -0.1169496775 1.062920928 -0.1994982064 0.02113757096 0.9674324393
-0.06785245985 -0.1223589405 1.066374421 -0.1821887344 0.1139420271 0.9732165933
-0.06685956568 -0.08581411093 1.066082239 -0.2086194158 -0.2643897831 0.9414114952
-0.07242358476 -0.08504091948 1.067039013 -0.1624601334 -0.2641896009 0.9499582648
-0.0982465297 -0.1186018139 1.073179126 0.3288615942 0.1284142882 0.9328299761
-0.08147167414 -0.1219405308 1.072718501 -0.01357245259 0.1191204712 0.9575698376
-0.08782792836 -0.1219578832 1.074104309 0.0618121475 0.122660175 0.9596367478
-0.1057558358 -0.1275351793 1.071112275 0.1187648401 0.1461470425 0.968693912
-0.1160381436 -0.1300502419 1.074501276 -0.007059805561 0.1086793244 0.9902900457
-0.07923104614 -0.1237241179 1.066603422 0.03619371727 0.156253323 0.9568958282
-0.08375822008 -0.123863712 1.06479156 0.1264713109 0.1696916521 0.9598607421
-0.07311616838 -0.1232451648 1.067277074 -0.08646072447 0.1356107742 0.962859273
-0.08976002783 -0.1247099638 1.066427708 0.2477849275 0.1931794882 0.9410957694
-0.09308736771 -0.1222191304 1.070111394 0.2937947512 0.1629919261 0.9308004379
-0.1365570724 -0.1194869652 1.073563814 0.08185894787 -0.2092967182 0.9702960849
-0.1440298855 -0.1258160472 1.080000043 0.1931586713 -0.1714431792 0.9584061503
-0.1373006999 -0.128268674 1.080000043 0.1124614403 -0.07188460976 0.9696423411
-0.1295809746 -0.1277918518 1.080000043 0.03729268163 -0.04087429121 0.9675040841
0.01641592942 -0.1752212942 1.198939085 0.4182341099 0.02399098501 0.906916976
0.01689543948 -0.1814952344 1.202000022 0.4482553601 0.02414261363 0.8929219246
0.01255394984 -0.1702529043 1.19866538 0.3811107278 0.02380348556 0.9242229462
0.01240627561 -0.1763862073 1.202236295 0.4044511914 0.02392137237 0.9133422375
-0.1616654694 -0.1518448889 1.083663702 0.08760452271 0.08433068544 0.9917363524
-0.1583666056 -0.1260319501 1.081679344 0.2424288839 -0.1028124094 0.9504310489
-0.1594606787 -0.1570781171 1.084019542 0.04854142293 0.1114627942 0.9915446639
-0.1529545635 -0.1431368738 1.082166553 0.1205390915 0.03284643218 0.9890419841
-0.1545910686 -0.1224486381 1.084887147 0.269130975 -0.1696687639 0.9374292493
-0.1572774351 -0.1351564378 1.084672213 0.1909711361 -0.06351567805 0.9603453279
-0.153241083 -0.1313370466 1.083427072 0.2028594166 -0.07784808427 0.9620104432
-0.1587458104 -0.1459238976 1.084162474 0.1218425781 0.03082528338 0.9819020629
-0.14860937 -0.1267795265 1.08201611 0.2177090198 -0.09595564753 0.9635081291
-0.1587432176 -0.1406569332 1.084702134 0.1582290083 -0.01921703294 0.9694617391
-0.1608294547 -0.1313167661 1.076719522 0.1918531209 -0.02906651795 0.9754592776
0.008004589938 -0.180272311 1.196388125 0.3811107278 0.02380348556 0.9242229462
0.01295188628 -0.1832955927 1.191078782 0.3990243375 0.02389396168 0.915872097
-0.1508444399 -0.1291400939 1.075068474 0.2073504478 -0.07113156468 0.970546782
-0.1361591071 -0.1254773736 1.073346496 0.06433752924 -0.1257209182 0.9882012606
-0.141726926 -0.1188491732 1.073924899 0.1512796432 -0.229118526 0.9569282532
-0.151992023 -0.1238785014 1.074920416 0.2226229161 -0.1625646204 0.9586706758
-0.1418570429 -0.1237781942 1.073904157 0.1260154843 -0.1563077122 0.9740834832
-0.1471850723 -0.1221970171 1.074449658 0.1855908334 -0.1837658286 0.9602270126
-0.1571388543 -0.1267762035 1.075394988 0.228541702 -0.1173273474 0.964802444
-0.0452708602 -0.08477193117 1.078175545 -0.4418323636 -0.1879137605 0.8770430088
-0.04253491387 -0.08076056838 1.080030799 -0.4377975166 -0.1867469549 0.8788884878
-0.0381126292 -0.08621115983 1.080442429 -0.4622598588 -0.1672022343 0.8699452281
-0.03296463192 -0.08792876452 1.081924677 -0.4787227511 -0.1512971371 0.8641585708
-0.03790657967 -0.08601345867 1.085270643 -0.4721274674 -0.1565140933 0.867236495
-0.03636167198 -0.08003403246 1.088008761 -0.4861106277 -0.1565399021 0.8597269058
-0.03925883025 -0.09040610492 1.083084226 -0.461620599 -0.156846419 0.8728199005
-0.03676791117 -0.09685144573 1.082385421 -0.4696840048 -0.1327532828 0.8725627065
-0.03212187067 -0.09005659819 1.088062406 -0.4856930077 -0.135940209 0.8633657098
-0.03316633031 -0.09787351638 1.085974693 -0.4802644849 -0.127717033 0.8676534891
-0.03038167022 -0.08412428945 1.089788795 -0.4907202721 -0.1412023306 0.8597657084
-0.1475040317 -0.1773030758 1.077000022 -0.1276603639 0.1127983555 0.9847954512
-0.1509290487 -0.174187988 1.080234408 -0.122153528 0.1001800448 0.9867326617
-0.1478956342 -0.1665325463 1.076767325 -0.05623704195 0.1451931298 0.9865563512
-0.1570572704 -0.1575445235 1.078765988 0.004533133935 0.09994039685 0.9898574352
-0.1544807106 -0.1636864543 1.07937324 -0.04428644478 0.109081693 0.9885544777
-0.1586895138 -0.1516522914 1.078572154 0.072264947 0.1020991579 0.9900906086
-0.1508019567 -0.1556001902 1.077000022 0.05062887073 0.1356740743 0.9886683822
-0.1510421634 -0.1603513211 1.077000022 0.01431176346 0.1347672045 0.9894233346
-0.1268030405 -0.1550992876 1.076968551 -0.1507441401 0.2832053006 0.9457816482
-0.1382010281 -0.1559794843 1.076866627 -0.01417744439 0.1709803641 0.9846952558
-0.1316664517 -0.1570133269 1.076889396 -0.1136328503 0.247114867 0.9580261111
-0.128465414 -0.1495713741 1.075230598 -0.09598907083 0.2356844991 0.9618516564
-0.1232577935 -0.1483314782 1.081171155 -0.1780041456 0.2162388712 0.9496282935
-0.1300660223 -0.1409403533 1.080624819 -0.05540226772 0.1140277982 0.9624477029
-0.1367591918 -0.1465711743 1.081166148 -0.01180809271 0.1638541818 0.9645769596
-0.1391286105 -0.1388746351 1.080547452 0.06142828241 0.06856110692 0.9731997252
-0.1332778782 -0.1528779864 1.081656814 -0.08957634121 0.2455750704 0.9559693933
-0.1437080503 -0.1328091621 1.080088496 0.1504203975 -0.01293907035 0.9827108979
-0.1281158179 -0.1498327553 1.081347823 -0.1309381723 0.22226879 0.9532735348
-0.1272594184 -0.1008009613 1.081725955 0.1513443291 -0.1222674921 0.9601664543
-0.1200371012 -0.1002173871 1.074703693 0.192445606 -0.02288916148 0.9587041736
-0.1065670177 -0.09733536094 1.063835144 0.252173841 0.1518267989 0.9527990818
-0.1234060377 -0.1040521935 1.073553205 0.2068970799 -0.0481296517 0.9656983018
-0.1189241633 -0.1031946614 1.069810867 0.2277273685 0.01060424652 0.9639131427
-0.1180110648 -0.1560423523 1.08434844 -0.1291607767 0.290602684 0.9476997256
-0.1237870306 -0.1564640999 1.083672047 -0.1160840541 0.2861687243 0.9504745603
-0.1290852278 -0.1555044353 1.082538843 -0.1072136387 0.281917572 0.9520888925
-0.1175812185 -0.1501720995 1.08207643 -0.2012048215 0.2463096231 0.9452626109
-0.1195296422 -0.1552877277 1.077637315 -0.1688129306 0.3083101511 0.9356826544
0.01829077862 -0.1870556027 1.199199557 0.4281103313 0.02584680356 0.9014006257
-0.03325634822 -0.2503017187 1.183212161 -0.02386685461 -0.5405116081 0.8407287002
-0.03105300665 -0.2479999065 1.187596083 -0.02277876996 -0.5133590698 0.8566579223
-0.04584292695 -0.2466982007 1.188990474 -0.0333840549 -0.5600581169 0.8277357817
-0.08826296777 -0.1201184168 1.064738393 0.2720943093 0.1886107624 0.9379442334
-0.1104103476 -0.1147764772 1.068497777 0.2470359653 0.0140667269 0.9539788365
-0.1194081828 -0.1208203658 1.070584059 0.08603551239 -0.009180312976 0.9818336368
-0.1135947555 -0.1207301915 1.06963408 0.1311758906 0.0242548883 0.9681939483
-0.09805251658 -0.1153477356 1.066558003 0.3312164545 0.08882436156 0.925855875
-0.1139301285 -0.1079008132 1.067266583 0.2091157585 0.04127262905 0.9660072327
-0.1161721721 -0.112540327 1.06885159 0.2007294893 -0.004516767338 0.9685651064
-0.1003496796 -0.1039981022 1.064120531 0.3127682805 0.1420118511 0.9357706904
-0.1038956195 -0.1106581092 1.066446424 0.298024714 0.07453883439 0.9402289987
-0.1215116456 -0.1135239974 1.06994164 0.1587730497 -0.04010510445 0.9807888865
-0.1066901162 -0.1029087305 1.064812899 0.2580159605 0.1162274331 0.9516612887
-0.09867797047 -0.110452354 1.065582633 0.3406739235 0.1038015708 0.9278238416
-0.1018052846 -0.1235252023 1.067983031 0.2048488706 0.1214709505 0.9536224008
-0.1067004576 -0.1191816032 1.068353653 0.2096789479 0.05840162933 0.9513089657
-0.1090043783 -0.1241372898 1.069221735 0.1331620365 0.07816696167 0.9683042169
-0.1130300388 -0.1252194494 1.073233485 0.08329299092 0.1110365167 0.9854428172
-0.09341558814 -0.1124797314 1.065391541 0.390117079 0.1098332405 0.9138539433
-0.0954901576 -0.1055755243 1.064376354 0.3672066033 0.1060472056 0.9224596024
-0.05611346662 -0.08106644452 1.078719139 -0.3818030655 -0.2087617218 0.8938161731
-0.07249114662 -0.08278129995 1.072664857 -0.1910746396 -0.2476260066 0.942091763
-0.06081319228 -0.08329341561 1.076288819 -0.3327732384 -0.2157031149 0.9070333838
-0.05012776703 -0.08495245129 1.080067039 -0.4330099821 -0.1884536147 0.8812980056
-0.04438965023 -0.08871757239 1.081042886 -0.4484187663 -0.1712860614 0.8769191504
-0.04693566635 -0.07982734591 1.082711458 -0.4470134079 -0.1857826561 0.8742101789
-0.04097320139 -0.07895882428 1.085618615 -0.4715981781 -0.1702705771 0.8645980358
-0.06860809028 -0.09336920083 1.064870715 -0.2249233425 -0.2011252046 0.9481391311
-0.07243151963 -0.08989035338 1.064535737 -0.1394583136 -0.218230918 0.9627614617
-0.07771933079 -0.08926261961 1.064241529 -0.08810549974 -0.1998284012 0.9734520316
-0.07710904628 -0.08463801444 1.067508817 -0.1190395206 -0.2490461022 0.9596506357
-0.08400767297 -0.08916902542 1.06384933 -0.01396266185 -0.1483447701 0.9879232049
-0.09388560802 -0.08950614184 1.068848968 0.1195770577 -0.01839684322 0.9878177047
-0.1013350263 -0.09483394027 1.063642144 0.207495451 0.105802983 0.9607355595
-0.09223718196 -0.09127708524 1.06366241 0.08598072827 -0.03452856466 0.9739593863
-0.03424373269 -0.1129534021 1.083533287 -0.4748917222 -0.07706407458 0.8763045073
-0.03250396997 -0.1073352993 1.085215807 -0.4798327982 -0.1140890345 0.869743824
-0.01998416707 -0.2208691388 1.194530964 -0.1507772356 -0.136577338 0.9752621651
-0.01923580468 -0.2161635309 1.198035002 -0.1015441567 -0.1668662876 0.9661493301
-0.02838112973 -0.2255464643 1.19493711 -0.06295959651 -0.320699662 0.9376752973
-0.01532059163 -0.2096981108 1.196914792 -0.09272515029 -0.09797779471 0.9815019965
0.00671552401 -0.1874379367 1.195613503 0.3670292199 0.02032757364 0.9247314334
0.0008253209526 -0.1985304952 1.195339918 0.1611617208 -0.004167000763 0.9735150337
0.007377851289 -0.2009954751 1.194757104 0.2152083069 -0.002118567005 0.9626618028
0.0007814106066 -0.2043187916 1.196568489 0.1140584648 -0.01010621525 0.9890093207
0.004791354761 -0.1937941462 1.194007874 0.2356576324 0.001835400704 0.9542625546
0.01049969625 -0.1915006936 1.191632152 0.3433307707 0.01245225314 0.9219845533
-0.007153242826 -0.2163274288 1.202000022 -0.1541376561 -0.03472002968 0.9872300625
-0.007566655986 -0.2121501416 1.196562767 -0.09519401938 -0.02287508361 0.9896184206
-0.005010273773 -0.2076999843 1.196997881 0.0008375213365 -0.01388471108 0.9944596887
-0.01098752953 -0.2077835649 1.196508646 -0.07825879008 -0.03152742237 0.993789494
-0.01132464968 -0.2130190134 1.202000022 -0.1490815431 -0.04173407704 0.9879150987
0.0006213157903 -0.2145034522 1.197000146 -0.0575061217 -0.0218510516 0.9868466258
-0.000316660211 -0.2097844481 1.197000265 -0.02037627622 -0.016283907 0.987889111
-0.1496127546 -0.1108657867 1.087277055 0.2153775692 -0.2553323209 0.9344401956
-0.1500024945 -0.1177381873 1.083993554 0.252890408 -0.2432166785 0.9331772327
-0.1452330798 -0.1086584479 1.08770144 0.1531966329 -0.2639380991 0.9454415441
-0.1429889202 -0.1152244136 1.083714604 0.1586791724 -0.2602683902 0.949610889
-0.149009034 -0.1347866803 1.075389147 0.156904161 0.04415158182 0.9863182306
-0.1528414339 -0.1182760596 1.07458365 0.2487629503 -0.242383346 0.9370841384
-0.1447855532 -0.1402993798 1.073927522 0.1305868477 0.0861999616 0.9866223931
-0.1524030566 -0.1488972306 1.076063037 0.09981878102 0.1120738238 0.9871297479
-0.1474210471 -0.1483421028 1.074718237 0.09490521252 0.1252968162 0.9868945479
-0.1537411809 -0.1431331336 1.075056791 0.1367368996 0.08851910383 0.9858378768
-0.1599944085 -0.1371144205 1.075838447 0.1596179008 0.05335139111 0.9854086637
-0.1618851125 -0.1424372941 1.076841712 0.1559772789 0.06120822579 0.9858014584
-0.1539682299 -0.1366508752 1.075561166 0.1545867175 0.06468660384 0.9853375554
-0.09672634304 -0.1129245386 1.071476221 0.3395978808 0.1136062369 0.9309676886
-0.09938649088 -0.1088384241 1.072959542 0.2675928473 0.1091581881 0.9543495774
-0.08699376881 -0.1030313075 1.070361733 0.1354770362 0.03547697142 0.9454005957
-0.07854601741 -0.1018617079 1.070136786 -0.0364994593 -0.007970103994 0.9426473975
-0.08831132203 -0.1091796607 1.070747495 0.1827934384 0.06231583282 0.9317711592
-0.08911409229 -0.09701231867 1.070047021 0.1569573134 0.0251536984 0.9609672427
-0.08293145895 -0.09914232045 1.070057988 0.04135059938 0.003397629596 0.951915741
-0.09431402385 -0.1061562672 1.070680737 0.2917537391 0.08022591472 0.9428106546
-0.08327453583 -0.1110041365 1.070761681 0.08891906589 0.044891987 0.924186945
-0.08005486429 -0.1066486239 1.070446134 0.009943395853 0.01518515963 0.9323509932
-0.08835612237 -0.08930778503 1.070380449 0.09036965668 -0.07432436198 0.9722828865
0.007178222295 -0.1814982444 1.203622103 0.3205466866 0.0196459759 0.9414462447
0.008681989275 -0.1973357648 1.20510304 0.1685354412 0.01053245645 0.9839732647
0.004846593831 -0.1869051456 1.203831792 0.2562610507 0.01205512229 0.9614165425
0.01177388057 -0.182991311 1.203248143 0.3640612066 0.02208975889 0.9234277606
0.01177338418 -0.1916734725 1.20458293 0.2531788945 0.01810644753 0.9567291141
0.003951278981 -0.1831087321 1.198974133 0.3343296051 0.01664363034 0.9396247268
0.007968663238 -0.1741401106 1.200800419 0.3811107278 0.02380348556 0.9242229462
-0.04650155455 -0.0954573825 1.074997425 -0.4331826568 -0.1675211638 0.8854110241
-0.04847297445 -0.09032375365 1.075003386 -0.4356714487 -0.1777883619 0.8816196918
-0.03176753968 -0.09954977781 1.080453038 -0.4785238802 -0.1029727757 0.8711324334
-0.03115973063 -0.09385943413 1.081465721 -0.4751616716 -0.1391328573 0.8683556914
-0.05486243218 -0.1071595475 1.072257638 -0.434757024 -0.07916909456 0.8967981935
-0.02917898074 -0.1204644591 1.083651185 -0.4628379047 -0.03903705999 0.885569334
-0.03484934941 -0.1039833054 1.078809977 -0.4774808586 -0.07620108128 0.8746930957
-0.03748152778 -0.1102380976 1.077369571 -0.4684401751 -0.0597641468 0.8812729716
-0.1374323815 -0.1506414115 1.075780153 0.01875320449 0.171126619 0.9847089052
-0.1364590526 -0.1463493407 1.073731542 0.01072512195 0.1670626998 0.9855757952
-0.1424375921 -0.1476219743 1.07391572 0.07870350778 0.1447464675 0.9851291776
-0.1441207677 -0.1544441879 1.076010585 0.06344431639 0.1705480665 0.9830654263
-0.145080328 -0.1615832746 1.076497436 -0.006080965512 0.1690904945 0.9841926694
-0.1133009493 -0.125505209 1.080000043 -0.0007620001561 0.1278284192 0.9865029454
-0.04464911297 -0.2426767796 1.192528725 -0.03632967174 -0.5641274452 0.8247843385
-0.03975895792 -0.2483839989 1.187781811 -0.04149686918 -0.5306487679 0.8460116386
-0.03893244639 -0.2440098375 1.191599846 -0.04467527568 -0.5318867564 0.844876647
-0.02720426209 -0.2436885089 1.193234205 -0.02726637758 -0.481903404 0.8754838109
-0.0336641185 -0.2436130792 1.191895008 -0.05036981031 -0.5086320043 0.859277904
-0.04241515696 -0.2531680465 1.182573318 -0.02917626686 -0.5526263118 0.8329048753
-0.08327618986 -0.1183541939 1.062919855 0.1236148849 0.1519395709 0.9731151462
-0.07728120685 -0.1191831231 1.061784148 0.008847731166 0.09854865074 0.9857062101
-0.08899477124 -0.1155207232 1.071073413 0.215713039 0.09366676211 0.9203752875
-0.06156584993 -0.1148906052 1.070022821 -0.3526343405 0.02131069265 0.9303340316
-0.06985804439 -0.1084358692 1.070340395 -0.1875710636 -0.0239365045 0.9226530194
-0.07301563025 -0.1132184416 1.070461392 -0.1173542812 0.03196777403 0.9248168468
-0.07811480761 -0.1127737537 1.070656657 -0.01226691995 0.03974422067 0.9225705862
-0.06666952372 -0.1137745231 1.070218325 -0.24813658 0.02231640369 0.927614212
-0.07594598085 -0.1184160188 1.070527911 -0.04344527423 0.09157305956 0.9356837869
-0.08117355406 -0.1166258603 1.070768118 0.05595911294 0.08601931483 0.9251630306
-0.05664061755 -0.1146137044 1.070890784 -0.4228632152 -0.02943418548 0.9044640064
-0.05963790417 -0.1085724384 1.070515275 -0.3853027821 -0.04536955059 0.9197145104
-0.08500852436 -0.09291109443 1.070258021 0.06162340567 -0.05559680611 0.9559251666
-0.06917990744 -0.09079737216 1.070614815 -0.2591007948 -0.210501641 0.9300731421
-0.07684443891 -0.09525793046 1.070129395 -0.09037505835 -0.08844246715 0.9378101826
-0.07826144993 -0.08870095015 1.070711136 -0.08801304549 -0.1669265032 0.949508667
-0.06634277105 -0.09559511393 1.070207953 -0.2963683903 -0.1674023122 0.9182386398
-0.05860402808 -0.08762273937 1.074054003 -0.3801533282 -0.1973246634 0.8992292285
-0.06331733614 -0.09181427211 1.071587086 -0.3378026485 -0.1967483163 0.9127044678
-0.05334482342 -0.0878335759 1.077983737 -0.4279517829 -0.1718762368 0.8861854076
-0.05482431501 -0.09246613085 1.075763226 -0.42356354 -0.1562834531 0.8908417225
-0.05668569729 -0.09977065772 1.072582841 -0.419634819 -0.1278486103 0.8973421454
-0.05919596925 -0.09508348256 1.072030306 -0.3986520171 -0.1760709882 0.8998230696
-0.03283217922 -0.1169687435 1.080843925 -0.4641583562 -0.04754091799 0.8844057322
-0.02894303761 -0.1146354824 1.083979845 -0.4885306656 -0.08766362816 0.8676624894
-0.02935672551 -0.1035243198 1.08187604 -0.4798548818 -0.1024607122 0.8706845641
-0.03304788843 -0.1088887826 1.080058336 -0.4744400978 -0.08051851392 0.8758984208
-0.007191570476 -0.2250102162 1.202000022 -0.1672623754 -0.06921898574 0.9830033183
-0.01247595437 -0.2160069048 1.195559621 -0.1508271992 -0.0386583358 0.9876603484
-0.007937602699 -0.2191753983 1.196351051 -0.1691080481 -0.04702785611 0.9839907289
-0.003113469342 -0.220674932 1.196929216 -0.1755622625 -0.03439955041 0.9836518168
-0.003547970206 -0.2263632715 1.196643829 -0.181116581 -0.06784502417 0.9808798432
-0.02273461968 -0.2248444557 1.194000602 -0.1601485908 -0.1832351387 0.9682509303
-0.0226006899 -0.240626514 1.186773419 -0.03704997525 -0.4764661193 0.8743996024
-0.01807328127 -0.2336949855 1.19177115 -0.07635943592 -0.347042501 0.919624567
-0.02676756866 -0.2402893454 1.183222413 -0.07615444064 -0.4110611677 0.8810151219
-0.02424049005 -0.2292419225 1.191464543 -0.1427701414 -0.2471188456 0.9468818307
-0.02216245979 -0.2332736254 1.188427329 -0.1147005707 -0.2834622562 0.9264463186
-0.0141772572 -0.2211265266 1.194935799 -0.1537453383 -0.08469957858 0.9834485054
-0.01068648417 -0.2255794555 1.195440054 -0.1696490049 -0.103010565 0.9795649648
-0.01005130354 -0.23170726 1.195277214 -0.1938527822 -0.1666080207 0.9637687802
-0.01516404282 -0.2290784121 1.194216132 -0.1335256845 -0.2147210389 0.9569221139
-0.0008467434091 -0.1992854029 1.202922225 0.07335790992 -0.02016473375 0.9930012226
-0.0058610579 -0.2014782429 1.202198267 -0.007623987738 0.001409692224 0.9977045655
-0.005815716926 -0.1953813583 1.201529264 0.0744034797 -0.001444471651 0.9860450029
-0.007101480849 -0.2001316845 1.197186589 0.005440427456 -0.02190651372 0.9941188097
-0.00350669981 -0.188569054 1.202028394 0.1874964237 -0.003314432222 0.9748895764
-0.0005121597205 -0.192102924 1.19789803 0.190118283 -0.0007922570221 0.9739148021
-0.1351725459 -0.1084015295 1.087531686 0.09135109931 -0.2016854733 0.9636396766
-0.1279679388 -0.1151171103 1.085592628 0.01029733848 -0.08454371989 0.972535193
-0.1239242405 -0.1258984357 1.081466675 -0.03002659418 0.01304381434 0.9753838181
-0.1366164684 -0.1231779754 1.080936193 0.1194795743 -0.1519554853 0.9569271207
-0.1342906058 -0.1161175594 1.084307909 0.08651075512 -0.1560423523 0.962620616
-0.1384273767 -0.1180710718 1.082904696 0.1373327523 -0.196924001 0.9557366371
-0.1381561905 -0.1119893864 1.0855757 0.1296125203 -0.2212776095 0.9580083489
-0.1283160299 -0.1223844439 1.08239758 0.01980944537 -0.05573121086 0.9697840214
-0.1221451759 -0.1179068759 1.083553076 0.01895326376 -0.007078140508 0.979013741
-0.1168242767 -0.1215562671 1.081471801 0.01547175832 0.06954458356 0.9848408699
-0.1293016374 -0.1104798764 1.086693764 0.05710908398 -0.1239982843 0.9712423086
-0.1409776807 -0.1043972671 1.086846471 0.09188122302 -0.2928042412 0.9511595368
-0.1118316799 -0.1200157404 1.080088735 0.08450241387 0.123459354 0.9871689081
-0.1317949444 -0.1147100404 1.072877765 0.08467691392 -0.2068881094 0.9697441459
-0.1269398332 -0.1114051268 1.072045803 0.1692922562 -0.09125869721 0.9782457948
-0.1287092119 -0.1072619185 1.074867845 0.1974715292 -0.1088598445 0.970882833
-0.1323300153 -0.1051699966 1.081357121 0.1544502676 -0.1727459431 0.9674044251
-0.1197491884 -0.1087486744 1.081383348 0.1504530162 0.02085329592 0.9688667655
-0.116231896 -0.111952357 1.080969691 0.1574885994 0.07200828195 0.9714012742
-0.1240894943 -0.1051231176 1.0821383 0.1413193494 -0.04309992865 0.9659823179
-0.1104392186 -0.1098297834 1.07542491 0.1826582551 0.1595545858 0.9695521593
-0.1066258922 -0.1037203446 1.071972251 0.2248815149 0.1418562084 0.9618061781
-0.1040291041 -0.1126716509 1.075094819 0.2405028641 0.1412756443 0.9599853158
-0.1098643243 -0.1143886372 1.078889728 0.182311222 0.1425864697 0.9720385671
-0.1103212759 -0.1015165895 1.074489355 0.2221602052 0.056609191 0.959011972
-0.1144504547 -0.1052402034 1.075116754 0.1755037755 0.1054999232 0.9660342336
-0.1142499372 -0.1005985141 1.077317715 0.2126054466 -0.01622970775 0.9578419924
-0.1109559163 -0.09834049642 1.070022941 0.2304710895 0.06677789986 0.9544723034
-0.119754374 -0.1004546881 1.080483198 0.1898121685 -0.08410108089 0.9582479596
-0.1035861447 -0.09825631976 1.069118738 0.2699944675 0.09914734215 0.9529561996
-0.1321393996 -0.1016183272 1.086764574 0.1267053336 -0.1954700202 0.9617935419
-0.09409414977 -0.09452722967 1.070000052 0.235152781 0.03693780676 0.9700122476
-0.09906387329 -0.09473441541 1.068009615 0.2173015922 0.06989232451 0.9657312632
-0.09849235415 -0.09956858307 1.070883989 0.2625803947 0.08339215815 0.9602136016
-0.0883070007 -0.1141171977 1.063966393 0.2292320728 0.1227328405 0.9543259144
-0.09107095003 -0.108361043 1.063876152 0.2957858145 0.104889594 0.9399252534
-0.08998922259 -0.101126872 1.063637614 0.2336048037 0.01416603662 0.9522773623
-0.08404209465 -0.1008600295 1.06278193 0.06798102707 -0.04045119509 0.9930664301
-0.07636978477 -0.09941657633 1.062829852 -0.08299648762 -0.1011755615 0.9890556335
-0.08169025928 -0.09649858624 1.062837362 -0.01190784667 -0.1012174934 0.9924756289
-0.07855158299 -0.1119765267 1.061197758 0.01967291534 0.01477785408 0.996574223
-0.08170706034 -0.1054233834 1.06268692 0.05441996828 -0.004905567039 0.9923774004
-0.05029175803 -0.1000903919 1.071658373 -0.4220468104 -0.1278570741 0.8961560726
-0.0523112677 -0.09513548017 1.071231246 -0.4051216841 -0.1619615108 0.8990498781
-0.05730418488 -0.1050283685 1.066138268 -0.382039994 -0.08388622105 0.9157184958
-0.05159187689 -0.109913066 1.069004655 -0.4151160717 -0.05583274737 0.904206574
-0.04635001719 -0.1056344956 1.073239326 -0.4458706081 -0.0927323848 0.8892173171
-0.05813903362 -0.09776630998 1.066918492 -0.3775068223 -0.1348067969 0.914093256
-0.04599381611 -0.1115096211 1.073048115 -0.4567050934 -0.05209450796 0.8869085312
-0.05225802958 -0.1183298379 1.067230821 -0.4137072861 0.004851791076 0.9086923003
-0.04092311114 -0.1018408611 1.080490947 -0.4586906731 -0.1274112314 0.8788339496
-0.04251443967 -0.09466028959 1.079771161 -0.4485525191 -0.1590768099 0.8793677092
-0.04518895224 -0.09978856891 1.07811749 -0.448107034 -0.1302055717 0.8836874962
-0.04362458736 -0.1057444289 1.07884717 -0.456140995 -0.1038794219 0.8832239509
-0.03912489861 -0.1073616892 1.081351876 -0.4650346339 -0.1026171744 0.8785585761
-0.04314022511 -0.1133779734 1.078857183 -0.4552298188 -0.06330156326 0.8871383071
-0.05031441897 -0.1083445325 1.074949026 -0.441664964 -0.07862363756 0.8931230903
-0.04875737801 -0.1200252995 1.070947647 -0.4421738386 -0.008057199419 0.8958043456
-0.04404947162 -0.1165575534 1.074381232 -0.465174675 -0.0335136652 0.8844989538
-0.03637945652 -0.120465003 1.080697417 -0.4583152533 -0.02584285289 0.8883667588
-0.04100967571 -0.1207437664 1.078772664 -0.459310174 -0.02682813257 0.8878613114
-0.0267789159 -0.231502682 1.195999146 -0.08004695922 -0.3343023062 0.9285052419
-0.02132146806 -0.2325947881 1.198149204 -0.1085866541 -0.2683040798 0.9429831505
-0.03026125953 -0.2351796478 1.194581628 -0.0679333657 -0.4190380275 0.8940479755
-0.02554459311 -0.2362726629 1.196382999 -0.0907600373 -0.3558247089 0.9111147523
-0.02083996683 -0.2380066365 1.197608471 -0.09834043682 -0.3134737313 0.9238032699
-0.03657280281 -0.2392039448 1.193000078 -0.04813957959 -0.5221760869 0.8501287699
-0.03734175116 -0.2329934984 1.19238615 -0.045841638 -0.466581285 0.8756189346
-0.06224516034 -0.1216445714 1.065853953 -0.2695610523 0.07992101461 0.9547636509
-0.0623065941 -0.1224643439 1.07094717 -0.2769365609 0.09358800948 0.9528345466
-0.05759292841 -0.1196473464 1.072006941 -0.3515966237 0.03397002071 0.9268805385
-0.05249392614 -0.119795166 1.07440865 -0.3843813241 0.01415657625 0.9150233865
-0.04724052176 -0.1212426871 1.075579762 -0.4256828129 -0.003187158844 0.8996647596
-0.06776675582 -0.1045399383 1.065218806 -0.2723775208 -0.09485705197 0.9536827207
-0.06763751805 -0.09846002609 1.065030098 -0.2623752058 -0.1549596936 0.946485579
-0.07332999259 -0.1039511636 1.063310623 -0.1469698697 -0.0648618862 0.9816604853
-0.0730156973 -0.09936933219 1.070000052 -0.1531562209 -0.06223161146 0.9348493814
-0.06322461367 -0.09950074553 1.070000052 -0.3444975019 -0.1385281384 0.9125933647
-0.06816143543 -0.1109720021 1.064139009 -0.2136447281 -0.02828967758 0.9692739844
-0.07196054608 -0.1142888442 1.0620507 -0.1097880006 0.008139890619 0.9884444475
-0.06297076494 -0.1034426466 1.066007257 -0.3354737461 -0.1051644683 0.9339843392
-0.05923284218 -0.1133859232 1.065214396 -0.3626988828 -0.0313090235 0.9276079535
-0.0636029169 -0.1082791984 1.065529823 -0.3281772137 -0.07399611175 0.9392696619
-0.02570717968 -0.09736262262 1.083669901 -0.4833494723 -0.1246963814 0.8664820194
-0.02443471923 -0.1124020591 1.089638948 -0.4973825812 -0.1024208441 0.8614439368
-0.02687339671 -0.0874388963 1.088754773 -0.491224438 -0.1344140321 0.8605729938
-0.0246360749 -0.09724329412 1.089154005 -0.4865804911 -0.1245134771 0.8646226525
-0.02312074602 -0.1036049798 1.089770198 -0.48381567 -0.1180603132 0.8671095967
-0.02695186622 -0.1058920324 1.087788939 -0.479704529 -0.1172680333 0.8695257902
0.001553591574 -0.190981254 1.203103065 0.2046273202 -0.009757452644 0.9776876569
0.003643803531 -0.1953961998 1.202489972 0.1753293574 -0.03223085403 0.9834926724
-0.141162008 -0.110235773 1.078992724 0.1178328693 -0.2778984904 0.9530501366
-0.1374661028 -0.1065358669 1.080657363 0.1077111438 -0.2667547762 0.9571311474
-0.137693584 -0.1143673584 1.074071527 0.1071854904 -0.2648294568 0.9564122558
-0.1435155421 -0.1124666482 1.075150728 0.1742686331 -0.2456761152 0.9503507614
-0.148045972 -0.1120959818 1.079619765 0.1829730421 -0.2810823619 0.938716054
-0.1546658128 -0.1172060743 1.079745889 0.2808125615 -0.2407889813 0.9282981753
-0.1556925774 -0.1165424809 1.085333467 0.3111680746 -0.2340425402 0.9209263325
