# .PCD v0.7 - Point Cloud Data file format
VERSION 0.7
FIELDS x y z normal_x normal_y normal_z
SIZE 4 4 4 4 4 4
TYPE F F F F F F
COUNT 1 1 1 1 1 1
WIDTH 512
HEIGHT 1
VIEWPOINT 0 0 0 1 0 0 0
POINTS 512
DATA ascii
-0.131993264 -0.1801158339 1.10220468 -0.1215458363 0.5648822188 0.8149595261
-0.1327401549 -0.1884780973 1.108237386 -0.1469274461 0.5849941969 0.7949296832
-0.1252822578 -0.181491673 1.103334069 -0.087432459 0.5540202856 0.8263453841
-0.1289126128 -0.184604302 1.105512381 -0.1156628206 0.5684579611 0.8116879463
-0.04195362702 -0.2383972406 1.191343546 -0.0906920284 -0.3144476414 0.9431623816
-0.1375314295 -0.2029658407 1.112240076 -0.1601240039 0.6138938665 0.7721843719
-0.1246929616 -0.1878069192 1.103809834 -0.1251414567 0.5923435688 0.7909129262
-0.1326138526 -0.1967995018 1.110657334 -0.1361516118 0.5941390991 0.7895339131
-0.1264577508 -0.1906942427 1.108360648 -0.1034534946 0.5728448033 0.8091908097
-0.1487920731 -0.1907956451 1.092898846 -0.05544216186 0.5252552629 0.8470791578
-0.1460031569 -0.1838140935 1.085084319 -0.04912359267 0.5179176927 0.853730619
-0.1468323022 -0.1984649897 1.101650596 -0.0679211095 0.553140521 0.8278033137
-0.1431345642 -0.2084252387 1.113621593 -0.09632375091 0.5962147117 0.7961973548
-0.1411175132 -0.1972635388 1.103358269 -0.1270353943 0.584151566 0.797280252
-0.1339120418 -0.1893429458 1.098818541 -0.1501699388 0.6025763154 0.7792233229
-0.1395695359 -0.1927796304 1.099202752 -0.1228848472 0.5801299214 0.7999759316
-0.1297967881 -0.1900262088 1.102177262 -0.1804516166 0.62803334 0.756605804
-0.1432206035 -0.1862509698 1.089453459 -0.07660419494 0.5405578613 0.8340380192
-0.1346672028 -0.1940199435 1.103691339 -0.1603558809 0.6116786599 0.7720250487
-0.1403545737 -0.1885415763 1.093866944 -0.1036426798 0.5634922385 0.8139976263
-0.1552621871 -0.1756890416 1.085098863 -0.08477535099 0.3823935091 0.9074888825
0.01192484982 -0.1958690137 1.193555236 0.4749580324 -0.2836908996 0.8325611949
-0.1570425779 -0.115936473 1.08428514 0.1917279959 -0.2094112337 0.9583908916
-0.14971596 -0.1099198312 1.085852265 0.1865725219 -0.2338065952 0.953281641
-0.1455194056 -0.106692411 1.085281968 0.190531671 -0.2471804768 0.9491425157
-0.1475134343 -0.1091809124 1.079145908 0.2188195437 -0.2382099032 0.9458164573
-0.03814744204 -0.2497097105 1.177377105 -0.1094408706 -0.4053152502 0.8988583088
-0.05580301583 -0.251531899 1.182040095 -0.0884681344 -0.5546457171 0.8249737024
-0.04503634945 -0.2475122958 1.182534456 -0.1020191833 -0.4743545949 0.8637242913
-0.04882124811 -0.2531631291 1.177497029 -0.0961458683 -0.486882627 0.8592896461
-0.05144816265 -0.2474610806 1.185046196 -0.09458938986 -0.5312265158 0.8353465796
-0.03838215768 -0.2440951169 1.183007121 -0.1061668545 -0.4025520682 0.9028763771
-0.04936203361 -0.2405830175 1.189958572 -0.08800689131 -0.4763174951 0.8712542653
-0.04465935379 -0.2425126433 1.18665421 -0.09647134691 -0.447722435 0.8826465607
-0.03503523394 -0.2333513647 1.196168184 -0.1811189055 -0.2247738391 0.9535925388
-0.03476173803 -0.2350992709 1.190437317 -0.1749935299 -0.224266544 0.9502698779
-0.03189777955 -0.2410089821 1.183913469 -0.1422948092 -0.2803668082 0.9438877702
-0.05642517284 -0.2489915341 1.193000078 -0.08874126524 -0.5649510026 0.8196796775
-0.02994655631 -0.2318962663 1.198458791 -0.249818176 -0.1312619746 0.9451932311
-0.02336225845 -0.2347381413 1.202884793 -0.2952836752 -0.05629342049 0.9259982705
-0.02334124781 -0.2176459879 1.201337457 -0.2903206646 0.1314914674 0.9430224299
-0.01945689321 -0.2210833281 1.204049587 -0.3255454302 0.1587607712 0.929964602
-0.02728835307 -0.2269029766 1.199450731 -0.2972689271 -0.0244159475 0.9436779022
-0.01895611174 -0.2297632694 1.204960823 -0.3576994538 0.07945667207 0.9201325178
-0.0235185679 -0.224180311 1.201669812 -0.3111440837 0.06296733022 0.9369989038
-0.0620572269 -0.2566484511 1.17756629 -0.08596904576 -0.5668541789 0.8192696571
-0.08075159043 -0.2524994612 1.177580357 -0.08286584914 -0.4994195998 0.8619590998
-0.07252678275 -0.2490096837 1.184036255 -0.08928499371 -0.5710154772 0.8157670498
-0.06615250558 -0.2528179884 1.186239719 -0.08968120068 -0.5754345059 0.8129159808
-0.06136219203 -0.2507459819 1.190049648 -0.08968120068 -0.5754345059 0.8129159808
-0.0750715062 -0.2553773522 1.177791595 -0.08968120068 -0.5754345059 0.8129159808
-0.06771974266 -0.2563276291 1.17818749 -0.08968120068 -0.5754345059 0.8129159808
-0.1253513396 -0.1861815155 1.09852159 -0.167712599 0.6003391147 0.7800214887
-0.1198423654 -0.184357509 1.101498961 -0.09441204369 0.5584196448 0.8210361004
-0.1297171861 -0.1855107844 1.095973372 -0.1570289135 0.5933625102 0.7861062884
0.00750000542 -0.203399688 1.19157064 0.2470167279 -0.09190348536 0.9141533971
0.003654804081 -0.2104734927 1.19540441 0.0824220255 0.04853498191 0.9703740478
0.01579411328 -0.1902495921 1.185270429 0.4820069075 -0.2914713919 0.8262649775
0.004502654541 -0.1920434982 1.196192026 0.4820069075 -0.2914713919 0.8262649775
-0.00321662752 -0.193350479 1.204056382 0.4820069075 -0.2914713919 0.8262649775
-0.01021844149 -0.2036523819 1.199064851 0.02243820205 -0.003557892749 0.9191713929
-0.004095491022 -0.2000256628 1.197095394 0.1919779629 -0.1097722352 0.8848972321
0.0006771602202 -0.1954713315 1.198170543 0.4394864738 -0.2648329139 0.8348608613
0.01014282461 -0.1952697784 1.187416673 0.3660683036 -0.2177478224 0.8522235155
-0.005423694849 -0.20401375 1.19425118 0.02832232229 -0.003522120183 0.9265914559
0.001024443307 -0.2033632845 1.194407463 0.3847596943 -0.2101440877 0.8931192756
-0.08651015908 -0.08710260689 1.070842505 0.1124934852 -0.310016036 0.9425315857
-0.1366062313 -0.09933055192 1.086118817 0.1535812616 -0.2986793518 0.9413360953
-0.141167298 -0.1033747569 1.08387351 0.182134375 -0.2709057927 0.9438513517
-0.1423788071 -0.103264764 1.091635466 0.1612612903 -0.2601484954 0.9516399503
-0.01045932248 -0.2137315124 1.19690764 -0.2407255173 0.1628720313 0.9559763074
-0.01748409495 -0.2123245299 1.197085142 -0.2507331073 0.1565578729 0.9540218711
-0.01583582722 -0.2251189649 1.205784798 -0.3523163795 0.1544274986 0.9203111529
-0.01356523018 -0.2203996927 1.204003215 -0.3200548887 0.1648053825 0.9307703376
-0.01122567523 -0.2296908945 1.207700253 -0.3545842767 0.1572242081 0.9201566577
-0.05537268519 -0.2561088204 1.179533005 -0.0824533999 -0.5619782805 0.8228293061
-0.04342431575 -0.2533390224 1.185980678 -0.08095890284 -0.5298469067 0.8422319293
-0.04213768616 -0.2522043586 1.180665255 -0.09401213378 -0.4640750289 0.8744010925
-0.03231519461 -0.2487986088 1.18008852 -0.107902728 -0.384706676 0.9122518897
-0.05130811408 -0.2558964193 1.183523655 -0.08007095009 -0.5648108125 0.8212842941
-0.04978410527 -0.2547325194 1.18990624 -0.08349841833 -0.5693989396 0.8177205324
-0.05975132808 -0.2543219626 1.186627984 -0.08968120068 -0.5754345059 0.8129159808
-0.1453641206 -0.2004840672 1.106645107 -0.08757981658 0.5722948909 0.8127859235
-0.1447882354 -0.2046328485 1.109918475 -0.08546940982 0.5810912251 0.8076824546
-0.1515065283 -0.1836834848 1.085086584 -0.04480302706 0.4968660176 0.8661293983
-0.1420628577 -0.203015551 1.114454985 -0.1017368436 0.5978420973 0.7944895029
-0.138338089 -0.1978032291 1.112710834 -0.1656859517 0.6067626476 0.7765902877
-0.1502322853 -0.1853654683 1.090037346 -0.06568557024 0.5041744709 0.8558453918
-0.1453059912 -0.1927340329 1.106486797 -0.1266410798 0.549377203 0.8144214153
-0.1473064721 -0.1894587725 1.101577878 -0.1134282202 0.5207934976 0.8322541714
-0.1523214579 -0.1799448878 1.097426414 -0.133443132 0.4020423293 0.8816154003
-0.1546678245 -0.1758465469 1.093275666 -0.1284168065 0.3592363 0.9034489989
-0.1495099962 -0.1853177696 1.099508047 -0.1206208915 0.4700351357 0.8538025618
-0.1528149694 -0.1802855879 1.089027524 -0.08334475011 0.4365029633 0.8819102049
-0.1401560307 -0.1922264695 1.108977914 -0.1406327486 0.5936967134 0.7919655442
-0.1496721804 -0.1728660017 1.094818711 -0.1435295492 0.3882446885 0.8883916736
-0.1579672545 -0.1687620133 1.090649366 -0.1455324143 0.2739533484 0.9382198453
-0.1376041919 -0.1826380789 1.10328114 -0.1393483877 0.574569881 0.8056973219
-0.1426886916 -0.1879183054 1.105640888 -0.1379771531 0.5456310511 0.8153175116
-0.1450029463 -0.1782769263 1.099120617 -0.141368404 0.4689328372 0.8520217538
-0.1527518034 -0.1697482467 1.092265725 -0.1448045671 0.3374052942 0.9111691117
-0.04656945542 -0.2397698313 1.194258213 -0.08447468281 -0.3837554753 0.9112166166
-0.04365605488 -0.2497475147 1.193099737 -0.08004366606 -0.5004098415 0.8599351645
-0.05109273642 -0.2450699955 1.193065524 -0.08754786104 -0.5302051902 0.840567112
-0.06449326873 -0.2523751855 1.181274176 -0.08662392944 -0.5683678985 0.8181487322
-0.06059997156 -0.2484757304 1.185510278 -0.08844830841 -0.5725848079 0.8150261641
-0.05642605573 -0.245518133 1.188567519 -0.0887222141 -0.5680546165 0.817766726
-0.05522744358 -0.2409623265 1.191519499 -0.08293619007 -0.5235279799 0.8470337391
-0.06425768137 -0.2429271638 1.192478776 -0.08289732039 -0.5002411604 0.8614417315
-0.06854160875 -0.2474242598 1.18748939 -0.08807916939 -0.5575663447 0.8244441152
0.002481348114 -0.2057050765 1.202000022 0.35101071 -0.1431400329 0.9175729156
-0.004394467454 -0.2141878307 1.202000022 -0.07145763189 0.08308108896 0.9391857982
-0.001858160133 -0.2087008655 1.202000022 0.1444608569 -0.03231684864 0.9415385723
-0.00312356255 -0.2087949365 1.196919322 0.1930844337 -0.08336930722 0.9290139675
-0.003142761765 -0.2029907107 1.20235455 0.2671972513 -0.1155663505 0.9340752363
-0.001963174669 -0.2171571255 1.204995394 0.07747794688 -0.02792784013 0.9160074592
-0.009204951115 -0.2347793728 1.209629178 -0.3494570851 0.1517228633 0.9187036753
-0.005900263786 -0.2271645665 1.207245231 -0.1675633788 0.07780334353 0.9184506536
-0.003698581131 -0.2236585766 1.203551054 -0.1378009766 0.09691283852 0.9365611672
0.0008097090758 -0.1975316703 1.203758955 0.4247730374 -0.2181998193 0.8734427691
0.01268370729 -0.1846572161 1.202000022 0.4804848433 -0.2895228267 0.8275195956
0.007505121641 -0.1934512258 1.202000022 0.4492559433 -0.2495431751 0.8532615304
0.00760302972 -0.1991749108 1.200067043 0.425652355 -0.2193255424 0.8727179766
0.01201055571 -0.1925242096 1.198421121 0.4729247689 -0.2798443437 0.8337513208
-0.1533564031 -0.1711279601 1.083869457 -0.1433755606 0.2569377422 0.9530185461
-0.1547500491 -0.1602751911 1.082249403 -0.05733224377 0.2074329853 0.9663121104
-0.1553210467 -0.1548229009 1.081059933 -0.006621354725 0.1843843013 0.9723526239
-0.1485837251 -0.172303021 1.081993818 -0.1255727559 0.2800825238 0.9481839538
-0.1508635134 -0.165068239 1.080842257 -0.0619596839 0.2446766645 0.9568932056
-0.1568457037 -0.1665845215 1.085783362 -0.1504437178 0.2275703698 0.9617160559
-0.007061671931 -0.1995732486 1.202667594 0.2248308957 -0.1303541511 0.8782556653
-0.01920980588 -0.2133874744 1.202000022 -0.2714199722 0.1613131016 0.9480835795
-0.01511281915 -0.2090659291 1.200712919 -0.2334681749 0.1497537047 0.9599943757
-0.009528736584 -0.2080470622 1.202000022 -0.1358383 0.1097024232 0.9698979855
-0.01187162008 -0.2150897682 1.202000022 -0.2718881369 0.1738236547 0.9461330771
-0.1371565312 -0.1779964566 1.085189223 -0.110145174 0.4076581001 0.8992260695
-0.1428401172 -0.1800664067 1.083797336 -0.07662823796 0.4547127187 0.8810940981
-0.1241950393 -0.1831142306 1.092893362 -0.1131540313 0.5352203846 0.8359990716
-0.1343608201 -0.1830743998 1.089035749 -0.0898052007 0.5339269638 0.8387592435
-0.1394386888 -0.1828489155 1.086494088 -0.06697230786 0.5226862431 0.8490432501
-0.1147113368 -0.169896856 1.087308049 -0.07222996652 0.3930918872 0.915730834
-0.1119668484 -0.1673858762 1.090969443 0.01947527751 0.3970223665 0.9158113003
-0.1150130257 -0.1696801037 1.095122933 0.00443693297 0.425489068 0.8986344337
-0.1189972013 -0.1601514667 1.091997504 0.0216724705 0.3647383749 0.9246633053
-0.1192075983 -0.1719266921 1.098461866 -0.01956111938 0.4577587843 0.878780067
-0.1209598705 -0.1772711277 1.10128665 -0.04793773592 0.5058817863 0.8536719084
-0.1196155623 -0.1663142294 1.095347285 -0.002871728968 0.4152331948 0.8993356824
-0.1309648156 -0.1735868901 1.098600149 -0.09376636147 0.5126630664 0.8419929147
-0.1273812503 -0.177471295 1.100973487 -0.08606536686 0.5303318501 0.8363006711
-0.08717417717 -0.09025071561 1.079626918 0.1567195952 -0.1140924245 0.9301277399
-0.08168853819 -0.08563604951 1.074910164 0.01629944704 -0.2322631776 0.9463461041
-0.07605641335 -0.08449982107 1.076484799 -0.08083545417 -0.2150538564 0.9429470301
-0.1417048872 -0.1131832972 1.075753212 0.1688899547 -0.1847719997 0.957963407
-0.01154194679 -0.2188628167 1.196813107 -0.28444013 0.1604039073 0.9422531128
-0.02779094502 -0.2470367998 1.184234142 -0.1742559522 -0.2813217342 0.9419261813
-0.03387646377 -0.2508176565 1.189164758 -0.1219045147 -0.4059862494 0.8966667056
-0.0417304486 -0.2549650371 1.190858841 -0.07657328993 -0.5490231514 0.8313052654
-0.04455744475 -0.2443262935 1.193357825 -0.08453699946 -0.4406575561 0.8922982216
-0.03936731443 -0.2360874414 1.195772052 -0.1228777245 -0.2772527933 0.9519271255
-0.03725232929 -0.2408791333 1.195652246 -0.1214941293 -0.2905932069 0.948556304
-0.03883152455 -0.2488252372 1.194357395 -0.1000540629 -0.4107142985 0.8966082931
-0.03185436502 -0.2385863066 1.19748807 -0.2107405812 -0.2160256505 0.9410585761
-0.02657357417 -0.2406838685 1.19990921 -0.3238864839 -0.1140813529 0.9216461778
-0.03349061683 -0.2450556308 1.196380258 -0.1636755466 -0.2710825503 0.9354826212
-0.1323246807 -0.1754734665 1.085646391 -0.132558018 0.3762161732 0.9128824472
-0.1232112795 -0.1761858463 1.089203596 -0.1395208091 0.4349668324 0.8851132393
-0.1206950173 -0.1699941307 1.086748838 -0.1114426479 0.3751651943 0.9187262654
-0.1389896572 -0.1164368168 1.085328341 0.08241176605 -0.1267016232 0.9793844223
-0.1418854147 -0.1131211445 1.087460518 0.1462095231 -0.1539919376 0.9682748318
-0.1405551732 -0.1689715683 1.094099522 -0.1343291104 0.3821389079 0.8984705806
-0.1464699507 -0.16873537 1.092823744 -0.1394134015 0.3554287255 0.9071368575
-0.151854068 -0.1650070548 1.089446306 -0.1402736902 0.2685454488 0.9457643628
0.0127469562 -0.1729462445 1.20071435 0.4820069075 -0.2914713919 0.8262649775
0.01389741246 -0.1789299548 1.202598929 0.4820069075 -0.2914713919 0.8262649775
0.007992302068 -0.1762882322 1.201245666 0.4820069075 -0.2914713919 0.8262649775
0.004280994181 -0.1812206358 1.204638124 0.4820069075 -0.2914713919 0.8262649775
0.01460442226 -0.1699847728 1.196739316 0.4820069075 -0.2914713919 0.8262649775
0.007474157959 -0.1875185966 1.195991158 0.4820069075 -0.2914713919 0.8262649775
0.003745876951 -0.1875143498 1.203567624 0.4820069075 -0.2914713919 0.8262649775
-0.078261666 -0.1153250933 1.063713908 0.02164847218 -0.01849282905 0.9918872118
-0.02770540118 -0.1164209098 1.097497702 -0.5482341647 0.0104309693 0.836047411
-0.0325778164 -0.1206339821 1.090899229 -0.5520487428 -0.002696391661 0.8337615132
-0.06067233533 -0.123658143 1.07087636 -0.3301339447 -0.08650516719 0.933891356
-0.05412213132 -0.1231136024 1.074412346 -0.4263094366 -0.05326447263 0.8926569223
-0.117294699 -0.1743207127 1.089653373 -0.1488041133 0.3886527419 0.9090640545
-0.1140028983 -0.1757641733 1.093633413 -0.03849580139 0.4681217372 0.8766625524
-0.1162556261 -0.1804124415 1.098921776 -0.05601153895 0.5125175714 0.8527728319
-0.1442221254 -0.1273358464 1.080340505 0.18069233 -0.009899568744 0.9826276898
-0.1381058097 -0.1259347647 1.080358744 0.05351582542 -0.03576076776 0.9943493605
-0.03275358677 -0.09085223079 1.092275858 -0.4362666011 0.01382339094 0.8984962106
-0.02883968502 -0.09902881086 1.095709443 -0.47210747 0.0142002292 0.8788900971
-0.02632860467 -0.1035638005 1.097623229 -0.4924965501 0.01441460382 0.8677366376
-0.02884614654 -0.0934856981 1.090733767 -0.4615321457 0.01408903766 0.8846751451
-0.02842770517 -0.1017017886 1.086554527 -0.5017197132 0.02695072442 0.8637850285
-0.03164073452 -0.08562943339 1.09006834 -0.4168916941 0.01263252273 0.9087676406
-0.0003054212139 -0.2148696035 1.196480989 -0.03930443153 0.1086151153 0.9835092425
-0.01279087923 -0.2258579135 1.19677341 -0.297195226 0.08915971965 0.9288313389
-0.004892226774 -0.2189004868 1.196588278 -0.1340115368 0.101561971 0.9634339809
-0.007481303066 -0.223953709 1.199258566 -0.2471452504 0.1125314385 0.9439296126
-0.01961922646 -0.2189983279 1.196646214 -0.33270818 0.1335389912 0.9288418293
-0.02625401877 -0.2343953252 1.187824488 -0.3015628159 -0.1167879254 0.9159473777
-0.02273546346 -0.2274431735 1.194253087 -0.3790623248 0.04131644592 0.9099474549
-0.02704783715 -0.2448839247 1.178588867 -0.1420042515 -0.2875435054 0.9358540177
-0.02153292857 -0.2353750467 1.189834476 -0.3008206189 -0.04987517744 0.9186255336
-0.02311913483 -0.2399709523 1.187639236 -0.2920086682 -0.1342493445 0.9154688716
-0.01866144314 -0.2310551703 1.196107268 -0.3976394236 0.0687379539 0.906611383
-0.02648033015 -0.2211413682 1.198225379 -0.2846422195 0.05856632814 0.9462787509
-0.1179993153 -0.1792028993 1.092707753 -0.1425468326 0.4627242982 0.8704966307
-0.0516561158 -0.1148414239 1.072156906 -0.4330640435 -0.07655342668 0.8962080479
-0.04908047616 -0.1187477708 1.074009299 -0.4921129346 -0.0574868992 0.8682534695
-0.03988876939 -0.08379179984 1.087804198 -0.3857708871 -0.01843850501 0.9203552008
-0.08771122992 -0.1051259115 1.066671491 0.2477432936 -0.1116812229 0.9514524937
-0.1532866955 -0.1136471629 1.080347061 0.2117658257 -0.2201759964 0.9517197013
-0.153350994 -0.1136328503 1.088660121 0.1801618487 -0.1828928143 0.9614881873
-0.1424052119 -0.1568380296 1.089305758 -0.08235223591 0.2726611197 0.9533832669
-0.1471175998 -0.1538277417 1.087830544 -0.03239535168 0.2228522748 0.9635301232
-0.1556667238 -0.1457386762 1.084733367 0.08038430661 0.1180590838 0.9826104641
-0.1522078663 -0.1547143906 1.086899877 -0.01331242826 0.1917749196 0.9734325409
-0.1490341425 -0.1600121409 1.088584542 -0.1095456257 0.2549121976 0.9579177499
-0.1592265666 -0.161289975 1.086823225 -0.1052471548 0.2026087344 0.9693378806
-0.1613653898 -0.1408682019 1.083825946 0.1515644342 0.09190806746 0.9815211296
-0.1607416123 -0.1454270333 1.081402898 0.1208203286 0.1330070347 0.9835709333
-0.1565210372 -0.1470353156 1.078364253 0.08994677663 0.1571720839 0.9789851308
-0.1597853452 -0.1546864361 1.083588243 -0.0007148344303 0.159756422 0.9799329042
-0.1253769249 -0.1663960665 1.085791469 -0.07250484824 0.3273063302 0.940936923
-0.1269061267 -0.1718031317 1.085780859 -0.1313892603 0.3654283285 0.9202262163
-0.1392737031 -0.1608451456 1.091263294 -0.1067620665 0.3286024928 0.9328714609
-0.1268625259 -0.1613631099 1.092208624 -0.0305495169 0.3697439134 0.9177467227
-0.1325633079 -0.1582287848 1.090210676 -0.05676905066 0.312833786 0.9443638325
-0.1360905766 -0.177389428 1.100366235 -0.1370030344 0.5545395613 0.8175400496
-0.1238421276 -0.1576637477 1.090373397 -0.0003971413826 0.3295508921 0.9400449395
-0.1273574829 -0.1669767648 1.095212936 -0.05068163201 0.4420484304 0.8800865412
-0.1362832636 -0.1714464873 1.097147346 -0.1201814935 0.4760106504 0.8580795527
-0.134146288 -0.1665650308 1.094626427 -0.09197971225 0.4178591073 0.8892317414
0.0147235943 -0.1871296167 1.194270253 0.4820069075 -0.2914713919 0.8262649775
0.01417085156 -0.1917494386 1.191596031 0.4820069075 -0.2914713919 0.8262649775
0.01613736153 -0.1851319224 1.188660145 0.4820069075 -0.2914713919 0.8262649775
0.01575179212 -0.1807805151 1.191493869 0.4820069075 -0.2914713919 0.8262649775
0.01269907877 -0.1783111691 1.197802305 0.4820069075 -0.2914713919 0.8262649775
-0.1399647295 -0.1738624722 1.082457304 -0.1231748611 0.3225284219 0.9378328323
-0.1451385617 -0.1637533307 1.079859495 -0.06372791529 0.2731345594 0.9541010261
-0.1444469094 -0.1589268148 1.079329848 -0.03089716844 0.2638515532 0.9577833414
-0.1507319063 -0.1458261013 1.077212691 0.08584254235 0.1884980947 0.9755938053
-0.1480590105 -0.1510660648 1.07798028 0.03547833115 0.2206756622 0.968536377
-0.150357157 -0.1570892632 1.078847408 0.01040194836 0.2197054476 0.9645448923
-0.1216793731 -0.1623810977 1.085781932 -0.0193937365 0.3393123746 0.9393844008
-0.1171415672 -0.157253474 1.083313227 -0.06408875436 0.3266356587 0.9379917383
-0.1165510789 -0.164117828 1.086089611 -0.0230187308 0.3675377071 0.9281875491
-0.121667996 -0.1517722756 1.08227253 -0.03919320926 0.3008130193 0.9481130242
-0.1225228682 -0.1571653932 1.084836364 0.01183692552 0.335172385 0.9411557317
-0.1225949079 -0.1429033875 1.078163266 -0.07709947973 0.2549186647 0.9621559978
-0.1305896044 -0.1670563221 1.084353685 -0.07053416967 0.321592629 0.9426686764
-0.1122441888 -0.09615629166 1.082338095 0.2451052368 -0.09188081324 0.9541972876
-0.126130417 -0.09942848235 1.087050438 0.1721142232 -0.1835160106 0.9567021728
-0.1069021672 -0.09600626677 1.081288338 0.2660540342 -0.04148475453 0.9578764439
-0.1329603493 -0.102295354 1.089418173 0.1268184036 -0.2270046324 0.9600225091
-0.1151293367 -0.101973787 1.084259987 0.1927386373 -0.09032770246 0.9661287665
-0.1145627797 -0.1074111238 1.084650159 0.1546725929 -0.072673738 0.9766856432
-0.1085597277 -0.1014153287 1.082314849 0.2202697098 -0.04104597867 0.9675415754
-0.1158887967 -0.112974599 1.085597157 0.1089314893 -0.06930169463 0.9867694378
-0.1233397201 -0.1034470573 1.086769938 0.1526156664 -0.1500231177 0.9658380747
-0.1270366609 -0.1090997532 1.089011192 0.1194807142 -0.1526809931 0.9736240506
-0.1197210029 -0.1169028208 1.086253524 0.08872563392 -0.04521540925 0.9864997864
-0.1327048838 -0.1077800766 1.090752125 0.129983604 -0.1807167381 0.9663832784
-0.139431119 -0.1086883545 1.090087175 0.1124626696 -0.2001245767 0.9655249119
-0.1357099712 -0.112259239 1.088402629 0.09451137483 -0.1518464833 0.9725245237
-0.12972866 -0.119175747 1.084918976 0.05690302327 -0.06473118812 0.9862892032
-0.1256323904 -0.1242816597 1.082289934 0.02840085328 -0.002086016582 0.9965044856
-0.1195601746 -0.1224184111 1.084611773 0.05631542578 0.01451917086 0.9914991856
-0.128062129 -0.1145416945 1.088274598 0.09523288161 -0.09350572526 0.9761089087
-0.1351704597 -0.1202003434 1.083263636 0.036686223 -0.08482892811 0.9893965721
-0.1311779767 -0.1235487759 1.081774592 0.02101769112 -0.03693411499 0.9958752394
-0.1058912277 -0.1062423512 1.082550168 0.2245415598 -0.0484896116 0.9626443982
-0.1228032708 -0.1010116935 1.079249144 0.1687863022 -0.1337902695 0.9670625925
-0.1323326528 -0.1009002998 1.083864093 0.1282031387 -0.2496352494 0.9563400745
-0.1140444279 -0.09878496081 1.076568842 0.2305657864 -0.04618373886 0.9664257765
-0.1181896999 -0.0970576182 1.08197403 0.2187722027 -0.1361248195 0.9528793693
-0.1052334085 -0.1038713232 1.07450211 0.294549644 0.004289727658 0.9552862644
-0.09559772164 -0.09002155811 1.073739171 0.1943690628 -0.1843611598 0.9578514695
-0.1082576141 -0.09734285623 1.075372934 0.2406312078 -0.03271238133 0.9672551751
-0.1024467275 -0.09635912627 1.072313309 0.1982312351 -0.1082230881 0.9621519446
-0.09258360416 -0.09164945036 1.069398761 0.127981782 -0.2186812609 0.9556850195
-0.09339665622 -0.09673073888 1.070210695 0.2092700452 -0.1496088058 0.9509202838
-0.08802099526 -0.09384345263 1.068064094 0.1547407806 -0.245732218 0.9469385147
-0.09829043597 -0.1023152769 1.071715951 0.2935558856 -0.03176101297 0.9518486261
-0.09028316289 -0.1001920402 1.068187833 0.2378520519 -0.1525912285 0.9439312816
-0.09216065705 -0.1083783731 1.067786455 0.33991611 -0.04717551917 0.9387649298
-0.1105910167 -0.1022538766 1.075511932 0.2139888406 -0.01975504868 0.9758768082
-0.1365747899 -0.1099195182 1.076352954 0.1374924779 -0.1768596023 0.9662097096
-0.1263215691 -0.1106838137 1.075518847 0.0627971366 -0.09994790703 0.9872848988
-0.1180002615 -0.1025504619 1.075743079 0.1832713932 -0.07632864267 0.9735355973
-0.1271539927 -0.1044067666 1.079170942 0.1145284623 -0.1623153836 0.9768967628
-0.01306722872 -0.2300565541 1.19962728 -0.3705043495 0.09287630022 0.9179294705
-0.01828431897 -0.2361693531 1.197314024 -0.4299416244 0.02115599625 0.9008065462
-0.01346282661 -0.2356702685 1.20014143 -0.3702271283 0.06275014579 0.9198616147
-0.01668829471 -0.2404711843 1.203034759 -0.4128504395 0.001964151161 0.9082363844
-0.01272495836 -0.2378193438 1.205489397 -0.3832582831 0.0941246599 0.9143228531
-0.02100179531 -0.2413373291 1.192376375 -0.358543247 -0.08095009625 0.9106254578
-0.02455799654 -0.2456955165 1.193977237 -0.3036374748 -0.1662886739 0.9119537473
-0.0284611471 -0.2479063272 1.190403819 -0.2064708173 -0.2697509825 0.9287689924
-0.02125576325 -0.2435562909 1.198854685 -0.3725510836 -0.09191037714 0.9009947181
-0.03100214526 -0.2494921684 1.195407748 -0.2097002417 -0.3132550418 0.8828061223
-0.02765735798 -0.2465505898 1.198325038 -0.2820793092 -0.2148784101 0.8908900619
-0.02991007268 -0.2306362391 1.192141414 -0.2799960077 -0.119405508 0.9385880828
-0.145478338 -0.1214749739 1.083016038 0.1845841706 -0.0786331743 0.9750794768
-0.1447360814 -0.1084811091 1.090740919 0.159770906 -0.222904712 0.9589054585
-0.1474442482 -0.1162775904 1.086630106 0.1713676602 -0.1598973125 0.9673987031
-0.1517322958 -0.1232293099 1.083398819 0.1789829135 -0.1232194304 0.9739687443
-0.1620306373 -0.1251476705 1.086110473 0.2069506794 -0.04092783853 0.9742228985
-0.1556994766 -0.1332469434 1.083561897 0.1722997278 0.04058041051 0.9824491739
-0.1456827968 -0.1386428177 1.082446337 0.0828185901 0.1590374708 0.9678477049
-0.1412274837 -0.1516072154 1.087069392 -0.05272715539 0.271404475 0.9516227841
-0.1465672255 -0.147244364 1.08649087 0.01819472387 0.1952521354 0.9639346004
-0.1407018602 -0.1440302581 1.083561063 -0.003758358536 0.261482805 0.9514122605
-0.1512797922 -0.1380531937 1.083602071 0.1181085557 0.1164253801 0.9754683375
-0.1498927474 -0.1307848394 1.081812263 0.1784356385 0.02571787126 0.9826289415
-0.1515016705 -0.1378673613 1.077000022 0.1351635754 0.09536883235 0.981418848
-0.1480687112 -0.1320639104 1.077000022 0.144666329 0.04596241936 0.9818613529
-0.1500332654 -0.1254077107 1.077000022 0.1746015698 -0.04392612353 0.9803003073
-0.1463619471 -0.1384872943 1.077000022 0.116388008 0.13164258 0.98330158
-0.1568759382 -0.1402929574 1.078805804 0.1499741375 0.1121505573 0.979678452
-0.153915748 -0.1318141222 1.078184366 0.1683959663 0.02209772915 0.9796646833
-0.1521907449 -0.1205181256 1.078278422 0.197257936 -0.1303610355 0.968791008
-0.1611977369 -0.1319101304 1.083762288 0.1991342157 0.02354960516 0.9741675258
-0.1577983797 -0.1210645884 1.082069278 0.1905560642 -0.1443449557 0.967531383
-0.1584371626 -0.1276794672 1.082169294 0.1944689304 -0.03453090787 0.9735662341
-0.07853700221 -0.09428010136 1.068835258 -0.05489268154 -0.286752075 0.9469111562
-0.07715043426 -0.09980766475 1.067624927 -0.053146597 -0.2071384788 0.9668523073
-0.08218191564 -0.1048625484 1.065907478 0.1043922156 -0.1162534729 0.9831293821
-0.08344709128 -0.09181424975 1.067515373 0.06798242778 -0.3016504645 0.9457378387
-0.07510197163 -0.09025908262 1.070486426 -0.1088403687 -0.2854461074 0.9509549141
-0.0808955133 -0.08719800413 1.069152236 0.02170834877 -0.2969926596 0.9515560865
-0.07714347541 -0.08875653148 1.079898119 -0.03963415325 -0.1141567007 0.9367473722
-0.07145670056 -0.08500491083 1.081143737 -0.1481551975 -0.1197609231 0.9359644651
-0.07761535048 -0.09413285553 1.076668262 -0.0454717055 -0.1226318106 0.9498467445
-0.09160684794 -0.0939598605 1.079407811 0.2490843236 -0.09224581718 0.9275740981
-0.08739805222 -0.09719849378 1.076616764 0.1511407644 -0.1070108265 0.9424744248
-0.07646325231 -0.09870265424 1.073630691 -0.08307591081 -0.133174777 0.963404119
-0.06681940705 -0.08592453599 1.073843718 -0.2403828502 -0.1567512751 0.9524748921
-0.07225195318 -0.08446019143 1.071638107 -0.09571748227 -0.2581928968 0.9562157393
-0.05670223385 -0.0776277557 1.075972915 -0.2647154629 -0.1448918879 0.9443866014
-0.06892362982 -0.09417039156 1.071548223 -0.2467403114 -0.2330602854 0.9349244237
-0.135653317 -0.1433917582 1.082145333 -0.02781239524 0.2913815975 0.9470849633
-0.1391956806 -0.1396303177 1.081386209 0.04668213427 0.1850724518 0.9642921686
-0.1257272959 -0.1305816025 1.08173883 0.0459407419 0.09737674147 0.9934854507
-0.1308638006 -0.1290703714 1.080983281 0.03052921407 0.04716841877 0.9948926568
-0.1335204691 -0.1382214725 1.080970287 0.01277107466 0.1876712441 0.9762639999
-0.05246706307 -0.1186135188 1.078262806 -0.4714846015 -0.04730368778 0.86709553
-0.05669442937 -0.1166467816 1.075262427 -0.4293791056 -0.08015421778 0.8846101761
-0.06264606118 -0.1195895225 1.073700666 -0.2946793437 -0.05777663365 0.9225643873
-0.07220105082 -0.1244859099 1.071127415 -0.07797876745 -0.02244894765 0.984356463
-0.06640188396 -0.1239212006 1.073761344 -0.1783386022 -0.01587926783 0.9526129961
-0.0801999867 -0.1224981546 1.065821886 0.07558864355 -0.02107422985 0.9926874042
-0.06534289569 -0.1225748062 1.067916751 -0.2624183595 -0.1023707613 0.9585261345
-0.06721001863 -0.1184861585 1.06538403 -0.2141191512 -0.1278169006 0.9662590623
-0.07377231121 -0.1191224605 1.064320683 -0.07122320682 -0.05664652586 0.9930868149
-0.1124120057 -0.1610267609 1.088164687 -0.02343233675 0.3569072485 0.9295887351
-0.117863901 -0.1546563953 1.089039922 0.0318711251 0.3261676133 0.9440720081
-0.1059696823 -0.1349374205 1.076669812 0.06263406575 0.1761710495 0.9534768462
-0.1156871542 -0.1396642327 1.077886343 -0.08168199658 0.2197728902 0.9594116211
-0.09962486476 -0.1315600574 1.075478196 0.1569319665 0.1452971399 0.9497225285
-0.1074972004 -0.13820149 1.080301404 0.03934475034 0.203854233 0.9533643723
-0.1171790659 -0.1499689817 1.083642602 -0.09117481112 0.2891692221 0.9499973655
-0.1189810187 -0.1370602697 1.08353126 -0.03429329768 0.1942239851 0.9711630344
-0.1179368496 -0.1280459613 1.082754135 0.02155273035 0.09472244978 0.9923084378
-0.1252118796 -0.135617584 1.081122994 -0.04045121372 0.1853176206 0.9778345823
-0.122277312 -0.1462700069 1.083773494 -0.07737611234 0.2976072431 0.9505930543
-0.08198185265 -0.1005761027 1.073533297 0.02796303108 -0.1240776479 0.9593631625
-0.08862065524 -0.1100089476 1.072362423 0.2305517197 -0.0372364819 0.9314501882
-0.07828936726 -0.1035030931 1.071517229 -0.04527328908 -0.1244518831 0.9666870832
-0.09340248257 -0.09856469929 1.077470899 0.2884590328 -0.08163069934 0.9296451807
-0.09472310543 -0.1036067232 1.076204896 0.3440351188 -0.04579392821 0.9209163189
-0.08860592544 -0.1020178646 1.074965954 0.1916404516 -0.08416333795 0.9395092726
-0.08480291814 -0.1068656296 1.072291374 0.1250585616 -0.0737997219 0.9452130795
-0.1267463118 -0.1506665945 1.085691929 -0.02181992494 0.3318139911 0.941632092
-0.1279599965 -0.1553780884 1.087754488 -0.03738308698 0.3260303438 0.9424979687
-0.134970665 -0.1549748778 1.086633325 -0.08828824013 0.322417587 0.942399621
-0.1354789287 -0.1484546512 1.084167123 -0.07111354172 0.3332802057 0.9397890568
-0.1332741976 -0.1064671278 1.078707814 0.1250688285 -0.1986951083 0.9700316191
-0.1387581825 -0.1061902717 1.07915771 0.1682984829 -0.2261216193 0.9564518332
-0.03046671301 -0.111151427 1.09233427 -0.546079278 0.01409650035 0.8374146223
-0.03104748204 -0.1029541567 1.092467427 -0.5021296144 0.01451588701 0.8624670506
-0.05899201334 -0.1097764969 1.070449948 -0.3168710172 -0.1277730465 0.9303069115
-0.06471046805 -0.1138269305 1.066730738 -0.2382083684 -0.1443600506 0.9562718868
-0.05711931735 -0.1019859686 1.073547363 -0.3566619158 -0.1210478172 0.9211983681
-0.04913240671 -0.1077708527 1.07538414 -0.4451102018 -0.09703683853 0.8860333562
-0.0567272678 -0.1197448 1.068097591 -0.3733609319 -0.07724010944 0.9215239286
-0.06142926589 -0.1185273677 1.066548228 -0.2981230319 -0.1087071225 0.9422791004
-0.03529858589 -0.09791924804 1.082998157 -0.4489030242 -0.001232390525 0.8918328881
-0.04238796979 -0.1036287844 1.079006672 -0.4708055258 -0.06009132043 0.8783056736
-0.03380646184 -0.09290867299 1.084110856 -0.4275153875 0.006249922328 0.903416276
-0.02855577506 -0.09704847634 1.084161401 -0.4759657681 0.03193795681 0.8783494234
-0.02856580168 -0.08644343913 1.08590281 -0.4309221506 0.0173365213 0.9017336369
-0.04927326366 -0.07640972733 1.079324722 -0.3373096883 -0.09571391344 0.936378181
-0.05396177992 -0.08164557815 1.081889272 -0.336938411 -0.1001060382 0.9361567497
-0.04797993973 -0.08297684044 1.083377123 -0.3554179966 -0.08054810017 0.9309855103
-0.0327540189 -0.08205872774 1.08388865 -0.4018648565 -0.01128250454 0.9141284227
-0.0350252986 -0.08727607131 1.083303809 -0.4057483375 -0.01150929742 0.9125320315
-0.03885030746 -0.08157943934 1.081044316 -0.3798641562 -0.04537917301 0.921113193
-0.04453739151 -0.07902832329 1.078665853 -0.3549387157 -0.08091739565 0.9295216799
-0.09788936377 -0.09251517057 1.077738881 0.2767109573 -0.1031482294 0.9469572306
-0.1409527808 -0.1346831322 1.076999903 0.1036188379 0.06009840965 0.9890435934
-0.06018909439 -0.08044119179 1.081860662 -0.3192192018 -0.1207434535 0.9397839308
-0.0596048981 -0.08236437291 1.075355887 -0.2971436977 -0.120313637 0.9468163252
-0.06215052679 -0.09074441344 1.074556589 -0.3267691731 -0.158341825 0.9307780266
-0.1277093738 -0.1468760371 1.080113053 -0.008335308172 0.2779658139 0.9581961036
-0.1300829798 -0.141459316 1.077182531 -0.02870749123 0.2462736368 0.9668833613
-0.1361169219 -0.1392378658 1.076757312 0.02394182608 0.1867550164 0.9774919152
-0.1249239743 -0.1374424696 1.076176286 -0.07181448489 0.1789329499 0.9786311388
-0.1410152316 -0.1443449855 1.077320933 0.03423088416 0.2413016707 0.9686132669
-0.1428116411 -0.1504828781 1.078262329 0.01516832598 0.2493431717 0.9641551375
-0.1407567561 -0.1678992212 1.081416607 -0.08575421572 0.3035992086 0.9445426464
-0.1366359293 -0.1498023719 1.079237819 0.002541538328 0.2721323073 0.9593928456
-0.1388285756 -0.1592468023 1.080151081 -0.05123053864 0.2892153263 0.9515002966
-0.1356453747 -0.1632287949 1.082001805 -0.05793964863 0.3099234402 0.9451604486
-0.1295313686 -0.1552369595 1.082748413 0.004111003596 0.3094696105 0.9487162232
-0.1339757591 -0.1575089097 1.081570625 -0.02404558845 0.3007007241 0.9496898651
-0.1351633221 -0.1338239759 1.076830268 0.06344228238 0.03567694873 0.996884346
-0.1287583113 -0.1284077615 1.075380802 0.01205055322 -0.003162479727 0.9985740185
-0.1441174001 -0.1232898161 1.077000022 0.1476137936 -0.05794339627 0.9817264676
-0.1385512203 -0.129785791 1.076999903 0.08898998797 0.006818025839 0.9919276834
-0.1293741167 -0.12287312 1.075434804 -0.003920372576 -0.0009507866343 0.9994835854
-0.1357225776 -0.1152734235 1.074932814 0.09928409755 -0.1189265102 0.975191772
-0.1343827546 -0.1242714897 1.076693416 0.01107731275 0.02132766694 0.9975427389
-0.1446853727 -0.1177512258 1.076247454 0.1751291454 -0.1673990935 0.958116591
-0.0898052901 -0.1157977283 1.072065592 0.2916565537 0.01207763422 0.9300089478
-0.08462436497 -0.1137831211 1.071536422 0.1605989635 -0.02199070342 0.9482751489
-0.08566341549 -0.1139867157 1.064586997 0.2202933729 0.006642266642 0.9737199545
-0.09555438906 -0.1284208298 1.074828267 0.2501842678 0.09246978164 0.943623662
-0.1128129736 -0.126633808 1.083359003 0.0827806145 0.08563419431 0.9844292402
-0.1086909398 -0.1321057379 1.081267357 0.1125884801 0.1225882098 0.9581829906
-0.114778623 -0.1405157745 1.083911896 -0.03549884632 0.2191833854 0.9603008032
-0.1124554425 -0.1353959292 1.083165884 0.03609572724 0.1691570282 0.9631259441
-0.1076960936 -0.1263077706 1.08144486 0.1717105359 0.07632166892 0.9662500024
-0.09749024361 -0.1108988151 1.074964166 0.3982433379 -0.01442954876 0.9150636792
-0.09947833419 -0.1021564379 1.078611612 0.3728939295 -0.07220099121 0.924261868
-0.03713129088 -0.121010296 1.087344646 -0.5586884618 -0.009465204552 0.8292417526
-0.03175875172 -0.1146449223 1.088160753 -0.5445466042 0.004558204673 0.8384976983
-0.02873107977 -0.1070541441 1.087172627 -0.5320904255 0.01825406961 0.8464413285
-0.06394526362 -0.09642488509 1.072331548 -0.3193285465 -0.1825526506 0.9287027121
-0.0751587227 -0.1071101651 1.065948486 -0.04875258356 -0.1032617167 0.9906700253
-0.06741117686 -0.108558856 1.067373395 -0.2202398479 -0.1590466201 0.9578255415
-0.06793282926 -0.09143763781 1.076603293 -0.2403485477 -0.1391711235 0.9568178058
-0.06756288558 -0.1017672867 1.072989941 -0.2566632926 -0.172767356 0.9476002455
-0.06487836689 -0.08583447337 1.079579711 -0.2874124646 -0.1363239437 0.9459750652
-0.07103703916 -0.1104013771 1.072377324 -0.1443909258 -0.1211276054 0.939124167
-0.07773727924 -0.1247067079 1.070403576 0.04187548161 -0.001884125406 0.9881569147
-0.08131187409 -0.1205392852 1.071784139 0.1285702884 0.006580613088 0.9514142871
-0.08470376581 -0.1243362203 1.071495414 0.2191630006 0.05084366351 0.9578716755
-0.07276793569 -0.1153423116 1.07161057 -0.09493386745 -0.08450189233 0.9584300518
-0.0765453279 -0.1106309444 1.071521044 -0.03348061815 -0.08337892592 0.9554730058
-0.07276789844 -0.1053097844 1.071170688 -0.1521508843 -0.1413346827 0.9633383751
-0.04757746309 -0.1026211306 1.076909304 -0.455744803 -0.09612761438 0.8835321069
-0.04741071537 -0.09385420382 1.076987743 -0.4177094102 -0.09859646857 0.9001668096
-0.04523427784 -0.08492955565 1.078676462 -0.3749927878 -0.07898788154 0.9209596515
-0.04054305702 -0.09238635004 1.081567526 -0.407305032 -0.0357369557 0.910378933
-0.0612246953 -0.09963686764 1.075702667 -0.3254251182 -0.157134071 0.9304490685
-0.05521480739 -0.09725135565 1.078380466 -0.361984998 -0.1121901721 0.9234927297
-0.05424278229 -0.089119412 1.076179862 -0.3633295 -0.1151887998 0.9242819548
-0.05351832882 -0.08282422274 1.076951861 -0.3453703225 -0.116713427 0.9310718775
-0.03405638039 -0.1099130213 1.08852613 -0.537702322 -0.003422307316 0.8417901993
-0.03793285042 -0.1029489115 1.086941242 -0.4659147859 -0.02341413498 0.8787760735
-0.03453801945 -0.096582748 1.089539051 -0.4617362022 0.004640297033 0.883640945
-0.04365523532 -0.08845955878 1.084667802 -0.374247998 -0.05895787477 0.9249670506
-0.03964626417 -0.09107486904 1.087205052 -0.3956349492 -0.02495858446 0.91696769
-0.04888182506 -0.08846250921 1.082823992 -0.3571873009 -0.08148612827 0.9301328659
-0.05249230564 -0.09276693314 1.081155896 -0.3674167395 -0.08949611336 0.9249490499
-0.05704466254 -0.08883550763 1.080924153 -0.3488853276 -0.1071935073 0.9299329519
-0.09917742014 -0.09717591852 1.080301762 0.3643121421 -0.07113054395 0.9256979227
-0.1093657166 -0.1197487861 1.083214045 0.1755630225 0.02508465946 0.9822503924
-0.1072273031 -0.1135175154 1.082741022 0.2106764019 -0.008271757513 0.9699688554
-0.1022954285 -0.1084460244 1.079071522 0.3319469094 -0.05912420154 0.9380228519
-0.1210397854 -0.1156576499 1.073372602 0.05743611231 -0.02895438299 0.990198195
-0.1158791259 -0.1161548123 1.072817087 0.1144178435 -0.03058261983 0.9808817506
-0.1021683067 -0.1206418499 1.073030233 0.2944453955 -0.03956187144 0.952700913
-0.10753306 -0.1199537963 1.073516369 0.2336613089 -0.0376175791 0.9625712037
-0.09627586603 -0.1135614812 1.068316221 0.2903296053 -0.0301806666 0.9503462911
-0.1018771008 -0.1122803986 1.069749594 0.2440803796 -0.0243697837 0.9586248398
-0.1118365303 -0.1085966155 1.074209094 0.1975389272 -0.005560045596 0.9691453576
-0.1113694757 -0.1134145409 1.07147789 0.1507716477 -0.02531646378 0.974373281
-0.1185292229 -0.1093229726 1.074965596 0.09919889271 -0.02702586725 0.9897282124
-0.09524007887 -0.1218612567 1.073561668 0.3742711842 -0.01083862595 0.9265656471
-0.1016407236 -0.1162197515 1.076179266 0.3472529352 -0.06247844175 0.9346873164
-0.1260004491 -0.1163480803 1.074149609 0.003452531528 -0.02762502432 0.9989288449
-0.1185034588 -0.1217903867 1.074379444 0.09084617347 -0.0311587099 0.9843353033
-0.1132051349 -0.1214217022 1.074327588 0.1667861193 -0.03538483754 0.9730203152
-0.1243725643 -0.1217284501 1.074412823 0.008307339624 -0.0266702231 0.9967574477
-0.1040475368 -0.1217659339 1.079619646 0.2574887872 0.01924046502 0.9621546268
-0.1115402952 -0.127409339 1.074860334 0.1275662035 0.04234680161 0.9679615498
-0.1195365414 -0.1299134493 1.075139284 -0.01173430495 0.08216051012 0.9842417836
-0.09091056138 -0.1224073395 1.068758488 0.2066151947 -0.02263330854 0.9751538634
-0.08885161579 -0.1181783751 1.066993713 0.2416175604 -0.02198608033 0.9658375978
-0.08525151759 -0.1221004501 1.066164494 0.1640242934 -0.01370272692 0.9853343368
-0.1152075753 -0.1344197392 1.075601935 -0.02567300387 0.1825288683 0.9720926881
-0.1049499959 -0.1255545765 1.074546814 0.2352781594 0.01111567672 0.9543321133
-0.03806918487 -0.1148985997 1.08573699 -0.5548070073 -0.02377590723 0.8315538764
-0.03308496624 -0.107110925 1.083329082 -0.5267224312 0.009504863061 0.8496106863
-0.04120075703 -0.1137874573 1.080649972 -0.5282584429 -0.009147454984 0.8485358953
-0.04353050888 -0.1172622666 1.076654196 -0.5078624487 -0.02514120936 0.8604015112
-0.0451541841 -0.1120809615 1.078019738 -0.5127609372 -0.02847588249 0.8577870727
-0.0408294946 -0.1209519133 1.083084941 -0.5410843492 -0.02462791838 0.8399540186
-0.04609087855 -0.1219915599 1.077163696 -0.5164839625 -0.03704988584 0.8548329473
-0.06221162155 -0.1062180996 1.073601246 -0.3460684121 -0.176176995 0.9177799225
-0.06702436507 -0.1185920909 1.071233392 -0.2152704448 -0.0873401165 0.9537579417
-0.06457658857 -0.1107526422 1.071543813 -0.2933043838 -0.1611629426 0.9390410185
-0.07128274441 -0.1130746379 1.064929605 -0.1254829317 -0.1144546196 0.9809449315
-0.05448601395 -0.1097545922 1.076249957 -0.4568461776 -0.1275638193 0.87923944
-0.04638873786 -0.1054724529 1.081943154 -0.4487081766 -0.09896744043 0.8838065863
-0.04044244811 -0.1086437628 1.085159421 -0.4952111542 -0.04777856544 0.8616719246
-0.04446876794 -0.09842052311 1.083708882 -0.3993290365 -0.06656276435 0.911621809
-0.04685458541 -0.1161707267 1.082139492 -0.5081558824 -0.03447974101 0.8555713296
-0.05146862566 -0.1131810546 1.078342438 -0.4782691002 -0.08218391985 0.8713760972
