# .PCD v0.7 - Point Cloud Data file format
VERSION 0.7
FIELDS x y z normal_x normal_y normal_z
SIZE 4 4 4 4 4 4
TYPE F F F F F F
COUNT 1 1 1 1 1 1
WIDTH 512
HEIGHT 1
VIEWPOINT 0 0 0 1 0 0 0
POINTS 512
DATA ascii
0.01743731834 -0.01397925988 0.9558775425 0.5125141144 0.2342983037 0.4159892499
0.01642327197 -0.01359701995 0.9616524577 0.4105896056 0.3178287446 0.5253223181
0.01959332079 -0.00885504391 0.9528268576 0.5907885432 0.1105829701 0.3600316644
0.01334490627 -0.02090881951 0.9660154581 0.2987208962 0.4945127666 0.6053563952
0.02213379368 -0.003296081442 0.9484875798 0.6941908598 -0.03954146057 0.2798542678
0.008436037228 -0.02590222284 0.9763759971 -0.01303426176 0.3327730596 0.8472849131
0.01456463058 -0.02181041241 0.9735979438 0.173780039 0.615488708 0.7670157552
0.001298147487 -0.01736396179 0.9742498994 0.09504786879 0.4781027436 0.8001183867
-0.003102383344 -0.01547027566 0.9691643119 -0.07780388743 0.2830512226 0.8340713978
-6.529781967e-05 -0.02158183977 0.9686639905 -0.002196318703 0.4157270491 0.7766259313
0.005696553271 -0.02092124335 0.9716154337 0.06894356012 0.5142547488 0.7739155293
0.005818094593 -0.02676543593 0.969813168 0.1050043777 0.5895547271 0.7230587602
-0.0108528696 -0.01690455154 0.9671977162 -0.1764977872 0.1256482452 0.8657745123
-0.01814749651 -0.01380114723 0.9669867754 -0.2962952852 -0.08139964938 0.9375830293
0.1000869274 0.0729688406 0.870447278 -0.6769111753 -0.32366243 0.6588141918
0.09447829425 0.0817964673 0.8706504107 -0.6712189913 -0.3818995953 0.633130312
0.01013980899 0.08829120547 0.8780995607 0.6776064038 -0.497728616 0.5392689109
0.01696741395 0.0936935544 0.8746909499 0.6513879299 -0.5015220642 0.5669265389
0.02969511226 0.1009219214 0.8591513634 0.5776128173 -0.4133633375 0.6958964467
0.01997121051 0.09287322313 0.8641527295 0.6107574701 -0.5013622046 0.6103434563
0.02481347881 0.1005147472 0.8695258498 0.6072596312 -0.4914618731 0.6220923662
0.02485309355 0.09710400552 0.8620528579 0.5947971344 -0.4589556158 0.6516824365
0.03003713489 0.01654589176 0.94524616 0.8916022182 -0.4376723766 0.1112271175
0.02525604889 0.007629788015 0.9591209292 0.6126794815 -0.1052531227 0.3582989275
0.0226524584 0.002693793736 0.9530479908 0.6619386673 -0.1018081307 0.3152332902
0.02914380841 0.01561285276 0.9544788003 0.7499876618 -0.3158175647 0.2362411916
0.02252175659 0.002022222616 0.9622293711 0.5185154676 0.04049473256 0.4420167208
0.0191448275 -0.02519542724 0.9710721374 0.2313060313 0.6113170385 0.7485483885
0.02046808973 -0.01751565747 0.9684351087 0.3173103631 0.4464505911 0.6595410705
0.01948904619 -0.004518291913 0.9662790895 0.4034386873 0.2157973498 0.5450345874
0.02217364497 -0.0108581353 0.9657488465 0.4021775723 0.2951371372 0.5761125684
0.01668490283 -0.01016848441 0.9695312977 0.3063635826 0.3646041453 0.6310693026
0.02567402087 -0.003741170513 0.9616751075 0.5238674879 0.1081771702 0.4680995345
0.02637009323 -0.01001575403 0.9127216935 0.9268379211 0.1073325202 0.3390286267
0.03217944503 -0.01564032212 0.9070657492 0.7085020542 0.3303063512 0.6177960634
0.003046876285 -0.02937099896 0.9774656892 -0.1200387552 0.1521433145 0.8720633388
0.01018742472 -0.03084528819 0.9722058773 0.08128431439 0.5369226933 0.7481507659
-0.003159146756 -0.02323496714 0.9807299376 -0.2410903722 -0.07540301979 0.9445789456
-0.008866178803 -0.01257711276 0.9710617065 -0.1292932034 0.1536535174 0.874081552
-0.006290279794 -0.02195686847 0.9690913558 -0.09862805903 0.2393891215 0.834169507
-0.00176071364 -0.0266403798 0.9738073349 -0.08277251571 0.2208934873 0.8462376595
-0.01026514731 -0.01745525375 0.9797867537 -0.2753466964 -0.1246524006 0.9531059265
-0.01032827515 -0.02257733606 0.9758757353 -0.2588922083 -0.110485591 0.959553957
0.05801197514 0.06100442633 0.8380206823 -0.04995594174 -0.133438915 0.9865914583
0.005028324667 0.08172931522 0.8782584667 0.7124322653 -0.4621251225 0.5246989131
0.001212950097 0.07476587594 0.8785862327 0.7455060482 -0.3700652122 0.5443493724
0.1013792828 0.06092870981 0.875090003 -0.6565139294 -0.1081931442 0.6523029208
0.09031131119 0.08731153607 0.8698945642 -0.655264616 -0.4202561378 0.627245605
0.05722156912 0.04964417219 0.8371884823 -0.05564394593 0.09485047311 0.9861311913
0.04974463955 0.04871441424 0.8377239108 0.07992108166 0.09922323376 0.9847337604
0.09722337872 0.05548032746 0.8743995428 -0.6154363751 0.01191886701 0.6515907049
0.09287781268 0.04251883551 0.8803339601 -0.5406572223 0.3326484263 0.6334351897
0.09889974445 0.05574066564 0.8622664809 -0.7251123786 -0.06727655232 0.6769260764
0.102284722 0.06590220332 0.8699662685 -0.6887452006 -0.2384439707 0.6683718562
0.09679719806 0.03826108202 0.8866663575 -0.5781579018 0.4202523232 0.611253202
0.09988554567 0.05680181459 0.8686596751 -0.6913170815 -0.05667823553 0.6641125083
0.09826863557 0.04635614157 0.8802175522 -0.6194696426 0.2193085253 0.6313115358
0.005746112205 0.06864690781 0.8635268211 0.7649704814 -0.2410750985 0.5920076966
0.002748093568 0.06979386508 0.8693587184 0.7627059221 -0.2830100358 0.5737867951
0.06835737824 -0.001845551538 0.8780000806 0.02051604725 0.2953366041 0.9479893446
0.07071962953 0.004490221851 0.8780001402 -0.1482415646 0.3066723645 0.9326304793
0.07575216889 -0.008269224316 0.8780000806 -0.0499359481 0.3227810264 0.9382241368
0.06295055151 0.02241934091 0.8768669963 -0.2011951357 0.6647550464 0.679014504
0.06659658998 0.02410654537 0.8827438951 -0.1254577339 0.5458310843 0.7846307755
0.07391640544 0.02607769333 0.8834213018 -0.2553427219 0.596535027 0.7089986801
0.07113564759 0.02368246019 0.8763180375 -0.3506180346 0.739677906 0.5702954531
0.08682987094 0.03275739402 0.8657220602 -0.5513672233 0.6676666737 0.4822422862
0.08756776154 0.03210933879 0.8720303774 -0.5274778605 0.6580939293 0.5210806727
0.0807447806 0.03029007837 0.8674356937 -0.4491843879 0.7167897224 0.5008361936
0.07584682852 0.02811587602 0.8701099157 -0.3597267568 0.7556108832 0.5239685178
0.08077654988 0.02724461444 0.879714787 -0.4036402106 0.7099294662 0.5667493939
0.025012061 -0.01347009465 0.9175692797 0.9269753098 0.08709718287 0.3182796836
0.01961378381 -0.01012777723 0.9330578446 0.804817915 0.1087416634 0.2830275297
0.02184001729 -0.005309333093 0.9359647632 0.8265914321 -0.02764263563 0.2254756838
0.02305733226 -0.00258509093 0.9427304864 0.7844408154 -0.1046314687 0.2072584331
0.02375255898 -0.001301249024 0.9308617115 0.9246694446 -0.1412659883 0.1565744728
0.01986623742 -0.00941286236 0.943133533 0.7055063248 0.08873193711 0.3014535308
0.01475389395 -0.02007245086 0.9599133134 0.4105557203 0.3909908235 0.4936674833
0.01782244816 -0.013860167 0.9390916228 0.6998580694 0.2145794928 0.3507730663
0.01473196223 -0.02024097182 0.952883184 0.4834596217 0.39559865 0.476308912
0.01616875827 -0.01765108854 0.943777144 0.6080679893 0.3214185536 0.4163134694
0.01190688275 -0.02809931524 0.9636130333 0.2802865803 0.6146153808 0.6180542111
0.02738851868 -0.0142726237 0.9274890423 0.8207890987 0.07397403568 0.3723737001
0.02658764087 0.002594298683 0.9402971268 0.8696354032 -0.2519916296 0.1422537118
0.02544464543 -0.01337006036 0.9429277778 0.6742419004 0.1392882615 0.4151352048
0.02743790671 -0.02108439431 0.9244432449 0.7795594335 0.2175466418 0.4732481539
0.02444231696 -0.01568264328 0.9498026967 0.5802823305 0.232395187 0.4789066911
0.0255772993 -0.01911512949 0.939652741 0.6466088295 0.2564164102 0.497576654
0.02496669069 -0.009323872626 0.9482185841 0.6635319591 0.07353589684 0.3682130277
0.02631043829 -0.01053795964 0.9373155236 0.7609283328 0.04101125896 0.3475168049
0.02362700365 -0.01964830235 0.9545800686 0.4900508821 0.3527245522 0.5620874166
0.026485838 -0.01896055415 0.932662189 0.718919754 0.2135582268 0.4689333439
0.02245690115 -0.02319688909 0.9622739553 0.3747428358 0.4795767069 0.6492829323
0.02464192733 -0.02406887338 0.929082334 0.6889571548 0.3149842918 0.5099539757
0.02152132802 -0.01102956757 0.9270458221 0.8562934995 0.1029440835 0.2884261906
0.01844097674 -0.02314856835 0.9488299489 0.4843133986 0.4290275872 0.5278059244
0.02478425764 -0.02503611147 0.9433841705 0.5461756587 0.4169429839 0.6088348031
0.02251864225 -0.02643883973 0.9562114477 0.3977190554 0.5199417472 0.6706334949
0.02373067476 -0.02568819188 0.949573338 0.4750851989 0.4662006199 0.6388956308
0.02768934332 -0.0232462734 0.9184293151 0.8144929409 0.2332422733 0.4793848097
0.0163374152 -0.03028876334 0.969096303 0.1953144968 0.6667554379 0.7087379098
0.02417502925 -0.02542391792 0.9365876913 0.6001464725 0.3824573159 0.5649828911
0.02052778006 0.003707657568 0.9420287013 0.7436212897 -0.2951642275 0.2079395503
-0.01364571881 -0.005325843114 0.9615164399 -0.1923701167 -0.1414464414 0.8376344442
0.005538191646 -4.169470412e-05 0.9502931237 0.3367598653 -0.2365342975 0.4800053537
-0.005204032641 -0.01040101517 0.9664276838 -0.08786915243 0.1222600788 0.8240309358
0.01019040029 -0.007660740055 0.9594179392 0.3107254505 0.1078905389 0.5661876202
0.002292893594 -0.01211016532 0.9670650959 0.0534597002 0.2409282476 0.7575925589
-0.001549757202 -0.005796672311 0.9595011473 0.07531546801 -0.04439862072 0.686013341
0.01254897099 -0.01667728834 0.9709038138 0.2081487775 0.4952995479 0.7100039721
0.008325893432 -0.01301679295 0.9669541121 0.1753207296 0.3170691729 0.6950207353
0.01857070811 -0.002617034363 0.9579327106 0.5127491355 0.04928547144 0.4366301894
0.01498554461 0.001692170394 0.9539773464 0.4949032962 -0.1380922049 0.4118406475
0.009627548046 -0.001638577087 0.9575918317 0.3365260363 -0.06196601689 0.5252697468
0.004731842782 -0.004218262155 0.9604423642 0.1980639249 -0.009309969842 0.6217710376
0.009241464548 0.004308332689 0.9518205523 0.4085109532 -0.2820026278 0.4381607175
0.02393198572 0.007679092698 0.9475274086 0.765086472 -0.2807112336 0.2158917934
-0.006383798551 -0.001951389597 0.9581076503 0.002812870545 -0.1979303658 0.7057358027
0.01440919843 0.00674381759 0.9484475851 0.557779789 -0.3358554542 0.3334397376
-0.000476430956 -0.0009344331338 0.9541482329 0.1694360077 -0.2198847085 0.5925899148
-0.01905195601 -0.005864242557 0.9701971412 -0.3377436697 -0.1279026717 0.9313722253
-0.01831315085 -0.01927704178 0.9718420506 -0.2888461947 -0.1060541123 0.9511322975
-0.01501473133 -0.01635656506 0.9759463072 -0.2844043374 -0.1290988028 0.9499242902
-0.0298036132 0.002961934544 0.9718880057 -0.3557610214 -0.1350066364 0.92381078
-0.02188487723 -0.004343424458 0.9758246541 -0.3249131143 -0.1336351186 0.9349080324
-0.02029961348 -0.01277109981 0.9740726352 -0.3089956939 -0.1187783778 0.9429293275
-0.02694239095 -0.004593054764 0.9715178013 -0.3377400041 -0.1242203265 0.9319133759
-0.01653328724 -0.009192086756 0.9784796834 -0.3043750226 -0.1328531653 0.9422714114
-0.02957861684 -0.014369254 0.9663706422 -0.3520037532 -0.1200907528 0.9271860719
0.06430124491 0.09547439218 0.8460458517 -0.3033648431 -0.3382221758 0.8563131094
0.06928808987 0.09390533715 0.8515875936 -0.4291290045 -0.3991570771 0.784406662
0.06850126386 0.09523516148 0.857399404 -0.3000780046 -0.2963809967 0.7953516245
0.05691038445 0.09626501799 0.8431110978 0.009650134481 -0.1331408769 0.9789600968
0.04674246535 0.07271336764 0.8381661177 0.1628148258 -0.1840378046 0.9659202695
0.04959404841 0.0827159062 0.8384984732 0.1993219852 -0.1469143033 0.9642089009
0.05526956171 0.07883509994 0.8386098742 0.09631145 -0.1230918989 0.9836130142
0.05775294453 0.07192920893 0.8384774327 0.01418872178 -0.1322637051 0.9827011228
0.05520679802 0.08768022805 0.8388918638 0.142421484 -0.1051123366 0.9810848236
0.06577607244 0.08651591092 0.8431526423 -0.2632848918 -0.205092594 0.9276385903
0.06030933931 0.09112205356 0.841303885 -0.1090583056 -0.2394817472 0.9110298157
0.04606662318 0.05637614429 0.8376501799 0.1264752001 -0.08388525993 0.9854308367
0.05168364942 0.05805647001 0.8368686438 0.03398506716 -0.08999930322 0.9887975454
0.04888621718 0.06419891864 0.8380909562 0.07929714024 -0.1925071329 0.9747157693
-0.04129538685 -0.007961016148 0.9619140029 -0.3778876066 -0.1394899338 0.9152833223
0.0739127174 0.01905840449 0.8844454885 -0.233562246 0.4272905588 0.8085500002
0.07033304125 0.01422206871 0.8838602304 -0.178767994 0.3325293958 0.8781880736
0.08030299842 0.02256947383 0.8855766058 -0.3322444856 0.4918356538 0.738901794
0.08402459323 0.01729538664 0.8863589168 -0.3909525573 0.3799513876 0.7764453292
0.06425542384 0.01756717265 0.8826716542 -0.08378425241 0.4076583087 0.8730941415
0.08513552696 0.01098164357 0.8866724372 -0.4092786014 0.2497600019 0.8382300138
0.04921613261 0.09718269855 0.8682075739 0.09744347632 -0.4807040393 0.6380158067
0.04234362021 0.09692910314 0.8667351604 0.2737566829 -0.4674349427 0.6601999998
0.06131324172 0.09500943869 0.8682616949 -0.1872877479 -0.4758056402 0.6334510446
0.0606533885 0.09804462641 0.8513631225 -0.06486169249 -0.1722846478 0.9037545323
0.04911109433 0.100434266 0.8513807654 0.2053468972 -0.1763398796 0.9076550007
0.03850575909 0.1008698866 0.862080574 0.385763973 -0.3716826737 0.7406417131
0.03379409388 0.1009757742 0.8673662543 0.4625391364 -0.4680109322 0.6579462886
0.05750307068 0.09667104483 0.8636649251 -0.06921572983 -0.3939441741 0.7084601521
0.05430938303 0.09862795472 0.8558046222 0.05550489202 -0.2540002167 0.8351310492
0.04981122166 0.09851326048 0.8621606231 0.1204818562 -0.3694554269 0.7352678776
0.06748943776 0.09452425689 0.8641309142 -0.3060562313 -0.3990670145 0.6974009275
0.04081558809 0.1022690833 0.8512263298 0.4137507975 -0.2703128457 0.8252249956
0.03500861302 0.1026773527 0.8560635448 0.5192394257 -0.3604732156 0.7486662865
0.09396154433 0.0418038182 0.857444346 -0.6860413551 0.3887488246 0.5653412342
0.0973008126 0.04731826112 0.8686150312 -0.6846546531 0.1624635011 0.6314697862
0.09357120842 0.03381510451 0.8737154603 -0.6410840154 0.5585523844 0.5103656054
0.09493260831 0.04022498429 0.8686653972 -0.67520082 0.3777028918 0.5505174398
0.09529457241 0.02371660061 0.8809973598 -0.6166381836 0.4089890718 0.6487731338
0.09705223888 0.02280732803 0.8885855079 -0.588367641 0.4449313581 0.6601284742
0.06372900307 0.05283886939 0.8503608108 -0.1795023978 0.1522181481 0.8103212714
0.06490030885 0.04366216436 0.855690062 -0.2003582418 0.3784857094 0.7078661919
0.05844436586 0.06048853695 0.8456476331 -0.06704758853 -0.05233774334 0.9078688025
0.05089088902 0.04702043533 0.8478042483 0.05546478927 0.2203540355 0.850499928
0.06286849827 0.03690923005 0.8584589958 -0.1616872847 0.5294929743 0.6534013152
0.0475009419 0.05192031711 0.8439559937 0.1192056984 0.0852194801 0.9239035845
0.0582311973 0.04573904723 0.8523257971 -0.07211133838 0.2949177623 0.7722021937
0.05488510802 0.05463885516 0.8468672633 -0.004646230489 0.06655413657 0.8797837496
0.05394646525 0.06343457103 0.8427625299 0.02133084089 -0.1447446793 0.9644187689
0.06629031152 0.02511127107 0.8690910339 -0.2148335725 0.7544694543 0.5781365037
-0.02471093088 -0.00321061234 0.9649292231 -0.3828037083 -0.1211558953 0.9156083465
-0.02400651947 -0.01670753025 0.9694850445 -0.3146077991 -0.1064756587 0.9429465532
-0.03425736725 0.007952098735 0.9699946642 -0.3743589222 -0.137648955 0.9168258905
-0.02472983859 -0.01064155344 0.9646829367 -0.3489388227 -0.1084242091 0.930274725
-0.03447569907 -0.01065922249 0.9635161757 -0.3859211206 -0.1331629604 0.9128417373
0.04086602852 -0.02436527796 0.9056911469 0.6399067044 0.358089298 0.6792525649
0.0320353955 -0.02367645875 0.9107250571 0.715993166 0.3194959462 0.6059302092
-0.05459014326 -0.0003114504798 0.9621436596 -0.3778876066 -0.1394899338 0.9152833223
-0.064135544 0.01387135964 0.961785078 -0.3778876066 -0.1394899338 0.9152833223
-0.04729184136 -0.003950925544 0.96201092 -0.3778876066 -0.1394899338 0.9152833223
-0.05374278873 0.006753124762 0.9626331329 -0.3778876066 -0.1394899338 0.9152833223
-0.05122771859 0.01536876336 0.9636865854 -0.3778876066 -0.1394899338 0.9152833223
-0.03934371844 0.01393735502 0.9681656957 -0.3778876066 -0.1394899338 0.9152833223
-0.04534621164 0.01268373709 0.9653629661 -0.3778876066 -0.1394899338 0.9152833223
-0.04570720717 0.001476847217 0.9650272727 -0.3778876066 -0.1394899338 0.9152833223
0.07620803267 0.08963815868 0.8522405028 -0.5535145402 -0.384531796 0.7283291221
0.07968313992 0.09175177664 0.8605984449 -0.5815421939 -0.4292189479 0.6820289493
0.08624604344 0.0926585719 0.8708654642 -0.6493550539 -0.4432298541 0.617724359
0.08093388379 0.08223123848 0.8595858812 -0.6149784327 -0.4168047607 0.6670678854
0.0540606603 0.07181233168 0.8446993232 0.04878526926 -0.1637858301 0.9833272099
0.04661104828 0.06834702939 0.8422653675 0.1632882655 -0.2178741992 0.9617331624
0.06611768156 0.07971303165 0.8522459865 -0.2729169428 -0.2862406373 0.8383752704
0.07363615185 0.08496116102 0.8447661996 -0.515019238 -0.3419061899 0.785161078
0.04047785327 0.07986021787 0.8416810036 0.287874043 -0.2263833731 0.9256483316
0.03939746693 0.07298436761 0.8401501775 0.2611249983 -0.2045609206 0.9399098158
0.04088879004 0.06589928269 0.8382899165 0.1957390606 -0.1952432096 0.9589239955
0.04233274609 0.09054160118 0.8438739181 0.3676539063 -0.166186586 0.9098857641
0.05093331262 0.09698039293 0.8422347307 0.2286439389 -0.1142848581 0.9582592249
0.04607892781 0.1004184708 0.8465226293 0.3779350519 -0.2016902417 0.8723624945
0.0009116989677 0.06391120702 0.8723527193 0.7839573026 -0.174544543 0.5888792276
-0.001410862664 0.06469233334 0.8790555 0.7872853279 -0.2215656191 0.5739358068
0.00118751952 0.05776298791 0.8700637817 0.7800580859 -0.1206087247 0.603422761
0.002528412966 0.05363405868 0.8644561768 0.7755060792 -0.0634342581 0.6198725104
0.01307432167 0.07528328151 0.8558065891 0.6158570647 -0.3740034401 0.6785957217
0.01144644339 0.07979568839 0.8609067202 0.6626060605 -0.4524176419 0.5855554342
0.008905991912 0.07338606566 0.8601155877 0.7383152246 -0.3206341863 0.5918121934
0.007232236676 0.07420318574 0.8675765395 0.7274779677 -0.3541295528 0.5758097172
0.0159959197 0.04001928493 0.8540381193 0.4922513366 0.1746185273 0.8524437547
0.01717388816 0.06639941037 0.8499038219 0.5457538366 -0.1964366287 0.8098111749
0.007073477842 0.04435121641 0.8577628136 0.6760000587 0.08027972281 0.7201703191
0.09144958109 0.0125647923 0.8848044872 -0.5396436453 0.295209527 0.7753840685
0.08942203224 0.004131041467 0.882922709 -0.4171676934 0.317759335 0.8170753121
0.09198216349 0.02400459722 0.8742145896 -0.6357750297 0.4012737274 0.6211035252
0.09147679806 0.02817526273 0.868706882 -0.6577819586 0.4476445019 0.5603673458
0.0883493796 0.0167345535 0.8809424043 -0.541323781 0.2602886856 0.7797347307
0.08414684981 0.003926062491 0.87735039 -0.3353817761 0.3140951991 0.8473027349
0.08497070521 0.01050357614 0.8805906773 -0.4341159165 0.2285494953 0.8539718986
0.08290122449 -2.21019618e-05 0.8712963462 -0.2459376901 0.4515793622 0.8024849892
0.08327899128 0.007355718408 0.8719420433 -0.3347337544 0.4182779491 0.7802779675
0.08324585855 -0.00597854564 0.8743288517 -0.2003497034 0.4039683044 0.8557135463
0.08394948393 0.01381146349 0.8743668199 -0.4260909855 0.3501538932 0.7793188691
0.08429149538 -0.002217618283 0.879324913 -0.2798904777 0.2891631424 0.8907490373
0.08190729469 0.01426051091 0.8631080985 -0.3485175073 0.5849602222 0.6657454371
0.08305882663 0.02676977217 0.8612149954 -0.4927638173 0.586152792 0.5862081051
0.0862217173 0.03126612306 0.858730495 -0.5768953562 0.6099001169 0.5041539669
0.08553624153 0.02249147184 0.8705171943 -0.5260616541 0.3982503116 0.684491992
0.07766819 -0.001589859137 0.8763780594 -0.1873978972 0.3578262925 0.8993350863
0.07544908673 0.01503486838 0.8690912724 -0.3044745922 0.4681028724 0.7721784711
0.08061958104 0.02129561454 0.8599593639 -0.393280983 0.6334654093 0.6135106683
0.07547551394 0.0250603985 0.8583414555 -0.3617503941 0.6767065525 0.5959922075
0.04613177106 -0.01083719078 0.8887287378 0.5220826864 0.4146251976 0.7443394661
0.03749721125 -0.00643844204 0.8928978443 0.665597558 0.3331672847 0.6668237448
0.03534550592 -0.02079706639 0.9052121043 0.6608169675 0.359410733 0.6586263776
0.03577848896 -0.0159224961 0.9016664028 0.666592598 0.3584733605 0.6534666419
0.0497341454 0.01760566793 0.8562846184 0.1064609811 0.4916208982 0.8531993032
0.0488997288 0.02169259265 0.8505277038 0.07405219227 0.549752295 0.8226704001
0.05635272712 0.007315669209 0.8681991696 0.09965006262 0.4252486229 0.8807245493
0.08426245302 0.00234003854 0.8878815174 -0.3414851129 0.1710744351 0.911213398
0.07473320514 -0.00595625164 0.8861456513 -0.09116864204 0.3684825897 0.9245616198
0.08109501004 -0.00948508177 0.8847308755 -0.1700941622 0.3163965344 0.9252510071
0.0830469057 -0.003581066383 0.8876364827 -0.2791780829 0.2296763211 0.9311469197
0.02054638416 0.08687224984 0.8550402522 0.5363668203 -0.4770752788 0.6919921637
0.0390824452 0.09347820282 0.8631109595 0.381742239 -0.4341545701 0.7038293481
0.05434776098 0.08930972964 0.8621398211 0.001353129046 -0.4416297674 0.6859404445
0.06301175058 0.08854106069 0.8620995879 -0.2105344236 -0.4387747943 0.6853572726
0.04501374066 0.08960363269 0.8614354134 0.2293432057 -0.4407998323 0.6932090521
0.0708091408 0.08892221004 0.8635650873 -0.4006583691 -0.4440496862 0.6714957952
0.07744920999 0.09029002488 0.866273284 -0.5620091558 -0.4561688304 0.6467241645
0.01832001843 0.08392225951 0.864043355 0.6382290125 -0.4464412928 0.6186844707
0.01529135648 0.08452454209 0.8701347709 0.6557489038 -0.4638593793 0.5836690068
0.02640504949 0.04153430834 0.8468856215 0.4135045111 0.2236929387 0.8820474148
0.033317063 0.03976151347 0.84436059 0.3560667038 0.2642493546 0.8945996165
0.09558042139 0.02937510982 0.8845113516 -0.6017680168 0.566047132 0.5567682981
0.09046132863 0.01974820159 0.8887040019 -0.4809357226 0.44971627 0.6988355517
0.08784196526 0.02504769526 0.8869528174 -0.4486153126 0.5341612101 0.6745266318
0.09180954099 0.007361997385 0.8908287883 -0.4452007413 0.1815861464 0.8647415638
0.09484108537 0.01410377491 0.8899780512 -0.5081201196 0.2622255087 0.8044666052
0.07970514894 0.08413763344 0.8492116332 -0.5561303496 -0.3577626348 0.7420503497
0.07166654617 0.09178867936 0.8443514109 -0.4891111553 -0.3646994829 0.7914907932
0.0831835568 0.07878280431 0.850620985 -0.5824670792 -0.3402487934 0.7308247685
0.08991095424 0.07600484788 0.8593254685 -0.6574323177 -0.3833093643 0.647779882
0.06181574985 0.04499784485 0.8383232951 -0.1483461261 0.201789096 0.9655807018
0.05115902424 -0.007379745133 0.8844303489 0.3624862134 0.3923224211 0.8317263126
0.03437745571 0.01288935076 0.8689282537 0.4632835984 0.3373477161 0.8067781925
0.03737987205 0.001674780506 0.8822958469 0.575158298 0.342407316 0.7323166728
0.04653907567 0.003633668413 0.8786159754 0.3684883118 0.3445219994 0.8468264937
0.04750016332 -0.002280281624 0.8844698668 0.4337394536 0.3664173186 0.8080279827
0.04079378024 0.01157874055 0.8700104356 0.3607790768 0.3343283534 0.8596779108
0.04169167206 0.006972883828 0.8745943308 0.4089159667 0.350736022 0.8307782412
0.05521677062 0.004808822647 0.8789286613 0.1963287592 0.3018989861 0.9327317476
0.06868494302 -0.009849423543 0.8873381019 0.05204439163 0.4280171096 0.8904392123
0.06276635081 -0.009136192501 0.8901186585 0.1845264882 0.4043894708 0.8335363269
0.06066189706 -0.003845745698 0.8921289444 0.2141861767 0.317042768 0.7971779108
0.04848907515 -0.00372443581 0.8975747228 0.4913243055 0.2895379961 0.6844531298
0.05432378128 -0.001155517879 0.8939616084 0.3466683328 0.2725659013 0.7493782043
0.04244090244 0.0008210423985 0.8990141749 0.6096358299 0.2211877853 0.6414393187
0.04695023596 0.001094474341 0.894138515 0.5006961823 0.2473608404 0.7189199924
0.04927749187 0.002759439405 0.8872176409 0.430852294 0.2708083093 0.8132804036
0.05634939298 0.0006212295848 0.8869909048 0.28294909 0.2951110005 0.8431968689
0.06914238632 -0.01630254649 0.8867968321 0.1047443971 0.4717431068 0.8564403057
0.07966405153 -0.0154457083 0.8808320761 -0.0629126206 0.3859938085 0.908423841
0.0447954461 0.03400931135 0.8561020494 0.206861645 0.3287362456 0.904101491
0.05013203248 0.03071883693 0.8641495705 0.1351764053 0.3826704919 0.8959460855
0.03855011612 0.03182920814 0.8547652364 0.2749275863 0.3169286549 0.8933301568
0.0391208455 0.03641496971 0.8490096331 0.2802185416 0.2806870341 0.909090817
0.06365958601 0.02935920283 0.8635000587 -0.1753849238 0.6828392148 0.6037405729
0.06033152342 0.02780755423 0.8682578206 -0.08744254708 0.5901693702 0.7097306252
0.05782897025 0.03271563351 0.8614741564 -0.0576329641 0.5227810144 0.7239168286
0.04404059798 0.04696065187 0.8459248543 0.1831185818 0.1466549337 0.9400882721
0.05474006385 0.02758197114 0.872189641 0.04607184604 0.435375005 0.8621226549
0.05091543123 0.03579408303 0.8606093526 0.08737803251 0.3326546252 0.8761342168
0.05236952752 0.03879331797 0.8545714021 0.03507620469 0.3740209639 0.8047913909
0.04533016309 0.03890234977 0.8504813313 0.2094696313 0.2841430902 0.9216148853
0.05602704734 0.02307487279 0.8787894845 0.04287785664 0.472677052 0.8739203215
0.03841227293 0.02838782221 0.8473629355 0.2337694019 0.4013920724 0.8796601295
0.04250649735 0.03610291705 0.8420090079 0.2063549906 0.3318449259 0.9121549726
-0.04855395108 0.007022203412 0.9597916603 -0.3778876066 -0.1394899338 0.9152833223
-0.06117336079 0.008075812832 0.9579894543 -0.3778876066 -0.1394899338 0.9152833223
-0.03739540279 0.003620861098 0.9670600295 -0.3778876066 -0.1394899338 0.9152833223
-0.03929371014 -0.0005342654767 0.9622361064 -0.3778876066 -0.1394899338 0.9152833223
-0.02999936789 0.003880807199 0.9655488729 -0.3845779598 -0.1347665191 0.913177073
-0.03348987922 -0.00337670953 0.9638105035 -0.3804825842 -0.1349012703 0.9148344994
-0.03971627727 0.009011393413 0.9644975066 -0.3778876066 -0.1394899338 0.9152833223
0.03142504767 0.08146397024 0.846888423 0.4145051837 -0.3013450801 0.8497389555
0.03820824623 0.08481647074 0.844917953 0.357772857 -0.2273710072 0.8972047567
0.09425959736 0.07410658896 0.8661965132 -0.6737123132 -0.3451145291 0.6505454183
0.09173827618 0.07991356403 0.8651661277 -0.6601938009 -0.3919388354 0.6405615211
0.09999656677 0.06158265471 0.8642441034 -0.7071946263 -0.1789447963 0.675388217
0.09810759127 0.06876895577 0.8633844256 -0.6793463826 -0.3013231754 0.6678218842
0.06020129099 0.06860440224 0.8433074355 -0.1248281077 -0.1993606687 0.9634744525
0.04076462984 0.05737611651 0.8420019746 0.2272482961 -0.02222480252 0.9638524055
0.02733026817 0.03186035156 0.8509780765 0.3907864392 0.2774412632 0.8764033318
0.02143289708 0.03611115366 0.8520117998 0.4507400393 0.220677048 0.8640478253
0.01109087467 0.05129607394 0.8547884226 0.6445659399 0.0385617055 0.7574439049
0.006082711741 0.05082032457 0.8586403131 0.7548143268 0.0004466261016 0.6533988118
0.007706720848 0.06066761911 0.8607471585 0.7521782517 -0.1148012802 0.6417239904
0.0127210021 0.06037214026 0.8539221883 0.6351103187 -0.1030087173 0.7585180998
0.06819422543 0.01223996561 0.8668370843 -0.1062010974 0.5037609339 0.7666666508
0.06782249361 0.0255707074 0.8543515205 -0.269190371 0.7314109802 0.5902709961
0.07290514559 0.0201319512 0.8632347584 -0.2977527082 0.5924622416 0.6826595664
0.07025621831 0.009267416783 0.8731418252 -0.1618169248 0.3958898485 0.8539816737
0.07118964195 0.03178119287 0.8486383557 -0.3450676799 0.6353719234 0.6668383479
0.07820922881 0.03662009537 0.8477767706 -0.4428637326 0.5054943562 0.7299095988
0.08062709123 0.03031593189 0.8539797068 -0.4575385153 0.6843730807 0.5561878085
0.0622060895 0.001594678266 0.8749237657 0.09038900584 0.3344790637 0.9273967743
0.05706435442 0.01705003716 0.8564720154 0.002882370958 0.5545600653 0.8029760122
0.05740522593 0.01324102003 0.8610717654 0.03290276602 0.5066130161 0.8307344913
0.05566364527 0.02197523788 0.8505785465 -0.02717408352 0.6230783463 0.7640724182
0.06124534458 0.02128310129 0.8531166911 -0.101026915 0.6170527339 0.7442753911
0.0618738234 0.0257760752 0.8486197591 -0.1600221395 0.6863014698 0.6941061616
0.06237960607 0.009063842706 0.8663634658 0.01655564085 0.4328938127 0.8649954796
0.06405668706 0.0158786159 0.8603189588 -0.08783840388 0.5454013348 0.7734811306
0.03555133566 -0.01137117855 0.9220600724 0.823777914 -0.01947762817 0.4091557264
0.03549707308 -0.01705248281 0.9163991213 0.7966042757 0.1147497669 0.479788512
0.03922630474 0.005549150985 0.9370824695 0.8555349112 -0.3938738108 0.2443141043
0.04212242365 -0.01245151088 0.9175418019 0.7264978886 0.05356378481 0.5078577995
0.04131201655 -0.007398855872 0.9230254292 0.7626824975 -0.07201053947 0.4339155853
0.0403107591 -0.01440193597 0.8963888288 0.6308225989 0.3738634884 0.678119421
0.03131528944 -0.01001382433 0.9041340947 0.7722760439 0.2726521492 0.5681551099
0.03573355451 -0.01047042757 0.8980867863 0.699192524 0.3253026009 0.6305319667
0.02114482224 0.08765428513 0.8681328893 0.6152448058 -0.4610051513 0.6282455325
0.009700160474 0.08308985829 0.8742846251 0.6893830895 -0.4751716256 0.5400547981
0.0318720825 0.09224870056 0.8614900112 0.5535367131 -0.4335028231 0.7108079195
0.02732884139 0.086792849 0.8589591384 0.549824059 -0.4529877603 0.6978277564
0.02989367582 0.09303419292 0.8517808914 0.5429294705 -0.3777761757 0.7407691479
0.03532168642 0.09723569453 0.8501964808 0.5481924415 -0.3222602606 0.7673585415
0.01639977098 0.04636843503 0.8525298238 0.5139837265 0.1396198422 0.8444976807
0.0173820015 0.05415577814 0.8498654366 0.551804781 0.02833467908 0.8313706517
0.09520970285 0.0556935221 0.8570977449 -0.704177022 -0.01469702832 0.7045352459
0.09441913664 0.06305966526 0.8603177071 -0.6995341778 -0.1660231054 0.6710345745
0.09433487803 0.0514341034 0.8615936637 -0.6713058949 0.09737802297 0.6916688085
0.09026767313 0.03790900111 0.8772933483 -0.5338972211 0.4528006911 0.6453706026
0.08914057165 0.03277838603 0.8829596639 -0.4889487922 0.5847210288 0.6165482998
0.09151618928 0.04427536204 0.865873754 -0.6124011874 0.3117119968 0.6438704729
0.07459230721 0.03720477968 0.8591091633 -0.3860481679 0.5159506798 0.6274092793
0.08660050482 0.04553228244 0.8587741852 -0.5751495957 0.2910137475 0.6395771503
0.08658728749 0.03774601594 0.8603510857 -0.573440969 0.5339859724 0.5215127468
0.07848879695 0.03391661122 0.8626034856 -0.4381355643 0.6171236634 0.5367593765
0.07227467746 0.02869480476 0.8647934794 -0.3338765502 0.7521892786 0.5137991905
0.0797547251 0.04081281275 0.8591415286 -0.4747500718 0.4121949673 0.6295950413
0.08591040969 0.04648569599 0.8496681452 -0.5714480877 0.1989300251 0.7910076976
0.09029908478 0.05408595502 0.8526938558 -0.6630476713 0.03775031865 0.7463741899
0.08962598443 0.04097307846 0.8532820344 -0.6260681152 0.4138581753 0.6338328123
0.08099201322 0.04946469888 0.8458733559 -0.4959584773 0.1442999095 0.8440271616
0.08066577464 0.04219996184 0.8465964794 -0.4757316113 0.3544880748 0.7976698875
0.07462948561 0.04192692786 0.8441621065 -0.4177672863 0.3576473296 0.8264696002
0.07686370611 0.04711863399 0.8528519869 -0.4300269485 0.2601177692 0.7412507534
0.07085628808 0.04247731343 0.8561620116 -0.3180826604 0.400664717 0.6890118718
0.07272684574 0.05679307505 0.8475927114 -0.3561750352 0.03741556779 0.8474376202
0.07008655369 0.04868837446 0.8525997996 -0.3054501414 0.2497336566 0.7574903965
0.07332474738 0.05109308288 0.8407644629 -0.3730003536 0.1071650758 0.908108294
0.06479902565 0.05039967224 0.8380083442 -0.1971268952 0.07434529066 0.9690390229
0.06766477227 0.04554656893 0.8401872516 -0.2674746811 0.2296236306 0.926718235
0.06662648916 0.05880913883 0.8380509615 -0.2165684104 -0.09424940497 0.9695878029
0.06744943559 0.06794443727 0.84434551 -0.2799597979 -0.1634715348 0.9356389642
0.09225250036 0.06938888878 0.8555544019 -0.6530727744 -0.3183071017 0.6849097013
0.08345415443 0.07087378204 0.848757863 -0.5679666996 -0.2912736535 0.7694357634
0.08650972694 0.06544280797 0.8505821228 -0.5858197808 -0.2700492144 0.7631106377
0.08443682641 0.05942903832 0.8489015698 -0.5593605042 -0.08723411709 0.8073125482
0.0657581389 0.07384686917 0.8464978337 -0.2850746512 -0.1998423636 0.932744801
0.0752074644 0.06542199105 0.8474122882 -0.4258500934 -0.1144632623 0.8734147549
0.0768398419 0.07819893956 0.8540292382 -0.5297625661 -0.3626880944 0.7485638857
0.07322467119 0.07162204385 0.848433435 -0.3896351755 -0.2426057458 0.8689665198
0.06396886706 0.03558482602 0.8424518108 -0.256164819 0.4570305347 0.8420010209
0.0702374205 0.03756615892 0.8438506722 -0.352964133 0.4343104661 0.8137951493
0.07607715577 0.07769116014 0.8457912207 -0.5116640329 -0.3005534708 0.8029145598
0.0710773766 0.06364952028 0.8394952416 -0.3209151924 -0.1298227012 0.9309939742
0.06706720591 0.07833289355 0.8419820666 -0.2977666855 -0.2154810578 0.9091786742
0.04277419299 0.0507548824 0.8386152983 0.1966964006 0.06411059201 0.9710884094
0.04004234821 0.04432216287 0.8412208557 0.2858185768 0.2209473699 0.9295444489
0.02252428979 0.04841651767 0.8483633399 0.4635201693 0.1229908168 0.8740823269
0.02755520493 0.05255428329 0.8441135287 0.437627852 0.08279202133 0.890275836
0.03138833493 0.04706330597 0.843586266 0.3970509171 0.1836446673 0.8953505158
0.03519582748 0.05393687636 0.8406426907 0.3255276978 0.04055969045 0.9407088757
0.07873654366 0.003134975443 0.8841231465 -0.2509417534 0.1763504893 0.9404926896
0.07412804663 0.008612052538 0.8833001256 -0.2057995796 0.2299498767 0.9233832359
0.06717541069 0.007301818579 0.883438766 -0.05248706788 0.3969853818 0.9069837332
0.06934257597 -0.002094279975 0.8855446577 -0.001982573187 0.3504033685 0.9087120891
0.05812345073 0.01372645143 0.8828351498 0.09042454511 0.4291226566 0.8704496026
0.06306243688 -0.0006612277357 0.8856213093 0.1349189281 0.3241625726 0.8849685788
0.06063743681 0.006919580512 0.8841424584 0.1071450934 0.380589813 0.8780016899
0.05682997033 -0.0008931919583 0.8791359663 0.1831592321 0.3377507627 0.9216620922
0.06204317138 -0.0052931807 0.8815829754 0.1584437788 0.3635058701 0.9159061313
0.05797094107 -0.01150028873 0.8868281841 0.2321727127 0.4543098807 0.8564971685
0.06963902712 -0.008141642436 0.8808789849 0.06194272265 0.3606229126 0.9239811301
0.04275757819 0.02504372597 0.8662015796 0.2058435977 0.3952816725 0.8741684556
0.03222793713 0.02786731534 0.8514513373 0.3351168334 0.3235172033 0.8845969439
0.03482266888 0.03360165283 0.845764935 0.3103167415 0.3298341334 0.8902127147
0.04560883343 0.02077112533 0.8729724884 0.2311404943 0.3655367494 0.875359416
0.03895731643 0.02023613825 0.8682867885 0.3523994386 0.2866537571 0.8796567917
0.04613360018 0.01425963454 0.8805360198 0.3821209967 0.2270966619 0.8862989545
0.04164073244 0.008750583977 0.8921579123 0.5582491159 0.2101221234 0.7347181439
0.03412470222 0.002834398532 0.9035116434 0.7876394987 0.1812708974 0.5553094149
0.03818657994 0.006035950501 0.8974605203 0.6632534862 0.1984250396 0.6506607533
0.04860961437 0.01031592675 0.8849546909 0.3610993028 0.3373933434 0.8220871687
0.05379686877 0.01758278534 0.8830580711 0.1510741562 0.4390846789 0.8446020484
0.04660274088 0.0128080612 0.8914372921 0.3749704957 0.3558725715 0.7240018249
0.0395479016 0.01941394433 0.8607521653 0.275011152 0.346988529 0.8850916028
0.04885075241 0.01520670485 0.8633247018 0.1690736264 0.4092720449 0.8808169961
0.0522781983 0.008621646091 0.873559773 0.1968268752 0.331304878 0.9162610769
0.03606769815 0.02258256078 0.8568482995 0.2934906185 0.3556498587 0.874966085
0.04359900206 0.0224345699 0.8529213071 0.1645121723 0.4713726938 0.8475511074
0.04295665771 0.02171303704 0.9488425851 0.8856546879 -0.4458512366 0.1220823303
0.04141977429 0.01047576126 0.9412114024 0.8665804267 -0.4557187557 0.1970975846
0.04619889706 0.01501169708 0.9442778826 0.8862096071 -0.4298464954 0.1578443646
0.05109565705 0.02101206034 0.9470339417 0.9123939276 -0.3958728909 0.09455362707
0.03613517433 0.02318843454 0.949138999 0.8784602284 -0.4607471228 0.1207531989
0.03434318677 0.01065950189 0.9528741837 0.7608017921 -0.2479037195 0.2481418103
0.04172455147 0.01167539693 0.9482781887 0.8440625072 -0.3049928248 0.1814815104
0.03547606617 0.00416235067 0.9538249373 0.7073575258 -0.1156905144 0.3076278269
0.03072240762 -0.009356638417 0.9565072656 0.5442803502 0.1128779054 0.4839563966
0.03518402949 -0.0009355988004 0.9501060843 0.6812916994 -0.1260541975 0.3611746728
0.03387424722 -0.003661852796 0.9554480314 0.6203745604 0.02839870565 0.4012593627
0.03687622771 0.0165779721 0.9422574043 0.8724945188 -0.4579311311 0.1598950624
0.02813468687 0.006050854921 0.9254958034 0.9336102605 -0.2455278635 0.1923848391
0.03081253357 0.008271452039 0.9314884543 0.9008486271 -0.3470012844 0.1905850023
0.03060818277 0.01172354352 0.9407937527 0.8809888959 -0.4462716579 0.1451553404
0.05417981744 -0.01114424877 0.8939898014 0.3721482456 0.4174510837 0.7579194903
0.06226882711 -0.01657538675 0.8907080889 0.2122643441 0.5201444626 0.8243433833
0.04632343724 -0.01540818159 0.893057704 0.521660924 0.4290858507 0.7360724807
0.04472795501 -0.01943543926 0.8983858228 0.558608532 0.4157271981 0.7131524086
0.01866252907 0.07325554639 0.8503115773 0.4986328185 -0.3586398363 0.7829582095
0.01987326518 0.08057174087 0.8535407782 0.481606245 -0.4770870805 0.7281281948
0.0338185057 0.08853167295 0.8480905294 0.4913520217 -0.3136799037 0.8068978786
0.01029323414 0.0668086037 0.8578906059 0.7149618268 -0.2049987763 0.6577522755
0.02103212476 0.06008720398 0.8470895886 0.5092778802 -0.05821448192 0.8530909419
0.03481873497 0.06370835006 0.8402032256 0.2572003305 -0.1937551945 0.9437858462
0.02738369256 0.0611962527 0.8437005877 0.3902240098 -0.09872294962 0.9053010941
0.08452195674 0.03750837222 0.8510005474 -0.5226825476 0.5027811527 0.664781034
0.05545342341 0.03646072 0.8391960859 -0.08775687218 0.3636299968 0.9167803526
0.05988912284 0.03114639781 0.8436393738 -0.1504872441 0.5563946962 0.7829117179
0.0536275059 0.02891379595 0.8438401818 -0.04412612692 0.579916358 0.7932734489
0.04668821022 0.02867485955 0.8439372778 0.08536805212 0.5148165226 0.8434160352
0.04845004901 0.03628151119 0.8400858045 0.1109310463 0.3540228009 0.9211102724
0.04679355025 0.04340416938 0.8387495279 0.1382185817 0.2031609565 0.9669108391
0.08143055439 0.06471671909 0.8463385105 -0.5361871123 -0.2046856582 0.8141769767
0.07883749902 0.05722110718 0.8439467549 -0.4605922699 -0.05674087629 0.8762577176
0.0736130029 0.06898079813 0.8424665928 -0.4136786461 -0.1969856471 0.8807969093
0.03429105878 -0.002113921568 0.898021102 0.7496590614 0.2219731957 0.6049339771
0.03668043017 0.001850363798 0.8932455778 0.6902428865 0.2089727521 0.6899266839
0.03241149709 0.001686641481 0.9093214869 0.8812978864 0.06596706063 0.4246898293
0.03734336048 0.007343138102 0.9303780794 0.8506416678 -0.2973098755 0.2956438661
0.03486836702 0.005729829893 0.9218813777 0.8453835845 -0.143689394 0.368044883
0.0292809587 -0.004598292988 0.9089912772 0.8952138424 0.1241805777 0.4021001756
0.03421493992 0.000703826081 0.9164206386 0.9026079178 -0.08451099694 0.3254330754
0.03875140846 -0.01290405449 0.9087578654 0.7718679905 0.1663131863 0.5165299177
0.03917714208 -0.0004701993603 0.9253954887 0.8268614411 -0.1804297566 0.3455401659
0.03794537485 -0.004332519602 0.9179093838 0.8252865076 -0.04444221035 0.3977837861
0.05115289614 -0.02219329402 0.8987007141 0.4554306567 0.4838804305 0.7306313515
0.04174244404 -0.01793645509 0.9050956368 0.690872252 0.2820513844 0.5994674563
0.03672649711 -0.007065328304 0.9070718288 0.8101933002 0.1365816593 0.4494812489
0.04777409136 -0.01380457822 0.8990470767 0.5291561484 0.3771160245 0.6424033642
0.05422106013 -0.0179768987 0.8939980268 0.362365365 0.5164867043 0.7686434388
0.04312876239 -0.008062056266 0.9004269242 0.6163628101 0.3149343133 0.6138346195
0.02962361649 -0.002060121158 0.9459350109 0.7090324163 -0.1683906317 0.335344851
0.02601309679 -0.01288405247 0.9562898278 0.5134531856 0.1700132787 0.5110598207
0.03508369997 0.003369082464 0.9429305792 0.7759364843 -0.3232462704 0.286028564
0.02559757046 -0.01780609787 0.9617414474 0.4141323268 0.3291728497 0.6037968993
0.0304616373 -0.007428085897 0.9262744784 0.8704397082 -0.1314621419 0.3164105117
0.03026534989 0.000513081206 0.932646215 0.8869253397 -0.2862659097 0.214704439
0.02413741685 -0.001858940232 0.9230374098 0.9680000544 -0.1054944471 0.1760067791
0.02711724676 0.0001647224854 0.9146658182 0.9650171995 -0.09485241026 0.2389443219
0.03492605314 -0.003903597826 0.9294073582 0.8599613905 -0.2009447366 0.3140690029
0.04519176111 0.0752703771 0.8458011746 0.212531969 -0.1850754619 0.956594348
0.04795108363 0.07895256579 0.8495748639 0.2003860325 -0.2161745578 0.9167197347
0.04498288035 0.08266078681 0.8536317945 0.258893162 -0.2966817617 0.8379469514
0.06231872737 0.08336278051 0.8561123013 -0.1736121625 -0.3353002965 0.7914475203
0.05464066938 0.08299998939 0.8549571633 0.01818999276 -0.3170327246 0.813177526
0.07631075382 0.08637589216 0.8607789874 -0.5342628956 -0.421336472 0.7003708482
0.07041879743 0.08320964873 0.8567472696 -0.3734225631 -0.3425546885 0.7802511454
0.05466854572 0.07753941417 0.8490125537 0.04332176968 -0.1946091801 0.9326409101
0.04023024067 0.01408243924 0.8770030737 0.462053746 0.2219410241 0.847437799
0.03888960183 0.009460005909 0.8825442791 0.5643231869 0.200021401 0.7883400917
0.03552363813 0.009255782701 0.8759843707 0.5328351259 0.2973705232 0.7746163011
0.03873348236 -0.002513713902 0.887575984 0.6175279617 0.3395207822 0.7059658766
0.03201050684 0.0195926223 0.8636472225 0.4397154152 0.2942881584 0.8352646828
0.02372321859 0.07020282745 0.8509619236 0.5071828365 -0.2391821742 0.807947576
0.03455980495 0.07424185425 0.8456507325 0.292568624 -0.3239677548 0.8991498351
0.02463404834 0.06602662057 0.8458220959 0.4100493193 -0.188970238 0.8880208135
0.04017707333 0.07803953439 0.8484034538 0.3131693602 -0.2567739785 0.8982313275
0.0254442282 0.07639377564 0.852997005 0.5123032928 -0.3478440642 0.7662234306
0.02969936281 0.07131064683 0.848313272 0.4250826538 -0.2607365549 0.8438789248
0.03314808756 0.0844880119 0.8543763757 0.482567668 -0.375214994 0.7881142497
