# .PCD v0.7 - Point Cloud Data file format
VERSION 0.7
FIELDS x y z normal_x normal_y normal_z
SIZE 4 4 4 4 4 4
TYPE F F F F F F
COUNT 1 1 1 1 1 1
WIDTH 512
HEIGHT 1
VIEWPOINT 0 0 0 1 0 0 0
POINTS 512
DATA ascii
0.05457344279 0.01035219431 0.7276023626 -0.007742838468 0.4235502481 0.9058395028
0.1448367089 0.09734357893 0.6149680614 -0.11686261 -0.0483264029 0.9884253144
0.1364747584 0.09793045372 0.6140975356 -0.007234390825 -0.0464293994 0.9937798381
0.0873029083 0.09521084279 0.6443712711 0.7284221053 -0.06976427138 0.6484377384
0.08901622891 0.1103968546 0.6430938244 0.6059817672 -0.2001215219 0.7462213635
0.08419494331 0.08554238081 0.6493293643 0.7585580945 0.05805706978 0.6220005751
0.09095416963 0.09945618361 0.6460411549 0.6563801169 -0.1038644463 0.7132655382
0.09534177184 0.103223078 0.6440730691 0.6340985894 -0.1689309478 0.7384246588
0.08500300348 0.0916974023 0.6490642428 0.7051964402 0.006840670947 0.664952755
0.08927576989 0.1163816452 0.644341886 0.5360059142 -0.234608382 0.8019918203
0.08686634153 0.1034039706 0.646879077 0.6248030066 -0.106435582 0.7297585607
0.05614337698 0.02291407995 0.7214229703 -0.01009399723 0.4226768315 0.9062003493
0.05656731874 0.01752755791 0.7251347899 -0.007742838468 0.4235502481 0.9058395028
0.2060187757 0.01148409117 0.7041899562 -0.5397191644 0.7097218633 0.4457516968
0.08964760602 0.1048832089 0.641925931 0.6678434014 -0.1545992345 0.7025434375
0.09831171483 0.09697765112 0.6290700436 0.664262116 -0.1426485032 0.7284952998
0.1001235321 0.1023375914 0.6282305121 0.621894598 -0.2103136629 0.7419480085
0.1017277315 0.1081742346 0.6279593706 0.5761860013 -0.2838216424 0.7572411299
0.09772880375 0.1112939641 0.6313631535 0.5689019561 -0.2525827587 0.7690720558
0.1049492285 0.1018438935 0.6246280074 0.608242631 -0.2761502862 0.736918807
0.09588053077 0.09452023357 0.6424123049 0.6498376131 -0.0320632048 0.7145922184
0.09556629509 0.0998146385 0.6355968118 0.6535805464 -0.1830711663 0.7317919135
0.09168024361 0.09589893371 0.6390836239 0.7532955408 -0.09289199859 0.646007359
0.144470036 0.1328754574 0.6299608946 -0.008948666975 -0.6007174253 0.7977927923
0.1102676764 0.1178618371 0.640622735 0.4538027346 -0.3907182515 0.7960387468
0.1015726253 0.1170268804 0.642200768 0.4923289418 -0.3086196184 0.8082822561
0.1387625188 0.08539392054 0.6150704622 -0.1232679933 0.2142731696 0.9352487922
0.1482112706 0.0934618637 0.6402779222 -0.3455505967 0.09405773878 0.7777115107
0.1377079487 0.1028162986 0.6403079629 -0.06918673962 -0.08232435584 0.7895670533
0.1343218982 0.107970953 0.6404366493 0.05734394863 -0.1577991545 0.8009716272
0.1411518157 0.09580026567 0.6400784254 -0.2289154977 0.00987042021 0.7716811895
0.1508691311 0.08851735294 0.6401269436 -0.4605939686 0.1611188203 0.7655747533
0.1590966731 0.09509134293 0.6408767104 -0.4337697923 0.1783157587 0.8055687547
0.1373232901 0.113267161 0.6378390789 0.03498300537 -0.2299010009 0.7954859734
0.1409772038 0.1079659164 0.6394664645 -0.04911510274 -0.120020628 0.8016368151
0.155406639 0.1012074575 0.6399399638 -0.3173422515 0.07235934585 0.8087083101
0.1270542145 0.1124701276 0.6398565173 0.2006086111 -0.2712814212 0.7972633839
0.1491941363 0.1022871584 0.6405045986 -0.210105285 0.02071343735 0.8078866005
0.1179353446 0.1195293516 0.638386488 0.3826816976 -0.4403635859 0.7894080281
0.1227185652 0.1230481714 0.6361250877 0.3197183609 -0.4747184515 0.7847570777
0.1580352932 0.1171908602 0.62386024 -0.3539339602 -0.3466925025 0.8530214429
0.1566116959 0.1227891445 0.625790894 -0.2801077366 -0.4058180451 0.8619529605
0.1660271883 0.1177305132 0.6402814388 -0.2797113955 -0.2255322039 0.8788667917
0.1590977609 0.1257517934 0.6365825534 -0.1727370769 -0.3794080019 0.8629929423
0.1670090258 0.09853496403 0.6416379213 -0.4714841843 0.1581021994 0.8362432122
0.1711665243 0.1032969058 0.6437982917 -0.4117180705 0.0537760593 0.8779008985
0.1685504764 0.1119250059 0.6421362758 -0.3171574473 -0.1164213493 0.8856598139
0.2147524953 0.02352467738 0.6970911622 -0.6599028111 0.6146761179 0.4314395785
0.2207684368 0.06176211312 0.6600316763 -0.7280661464 0.1140016019 0.6606262326
0.2076248676 0.02033881843 0.6863101721 -0.5729649067 0.6525153518 0.4699758887
0.2106033713 0.01940551959 0.6912757754 -0.6092582345 0.639611721 0.4529341161
0.1450031698 -0.01048821583 0.7363871336 0.2989928722 0.07911580056 0.8864331841
0.144137606 -0.006512435619 0.7405943871 0.3468572199 -0.01646625064 0.9264152646
0.130150497 0.1079318523 0.6158310175 0.1449607164 -0.285150826 0.9370393753
0.1287406832 0.1144823432 0.6183948517 0.2334153354 -0.4601981342 0.849219203
0.1355070621 0.1180697232 0.618388474 0.06788356602 -0.4688540101 0.873619318
0.1269006729 0.1198098511 0.6228045225 0.2722329795 -0.5142201781 0.8107924461
0.1262756884 -0.01872802153 0.7456215024 0.1577892452 0.2728453279 0.8786861897
0.1307463497 -0.01340406854 0.7479221225 0.1818802208 0.3596207798 0.8343946338
0.1282382309 -0.02408624068 0.7428030968 0.2313901335 0.04359709099 0.9103506207
0.1235237271 -0.0230401177 0.7399073243 0.07736192644 0.4760885835 0.8649464846
0.1144031137 0.1005623862 0.6191537976 0.4606716335 -0.2039361894 0.8589665294
0.1092977002 0.09931882471 0.6211188436 0.5394920111 -0.2223933041 0.8055101633
0.1040255353 0.08525139093 0.6232497096 0.5493593812 0.0988996923 0.8270602226
0.1010177881 0.09005463123 0.6254006028 0.6311173439 -0.03732304275 0.7648709416
0.09507318586 0.06941925734 0.6420301199 0.7039675117 0.3016076386 0.6425052285
0.09321181476 0.08650228381 0.6431052685 0.6952179074 0.07877584547 0.6717941165
0.09536521137 0.1160000265 0.635392189 0.5411492586 -0.2817840874 0.7860150933
0.09320177883 0.1079504639 0.6377219558 0.599881053 -0.2138373703 0.7668873668
0.1117612198 0.08693507314 0.6205486655 0.3948521316 0.1265223026 0.9022907615
0.0910314545 0.06695643067 0.6477714181 0.7081417441 0.2926779091 0.6417601109
0.09542242438 0.05965902656 0.6475051045 0.6797281504 0.3208720088 0.6590864062
0.1499590427 0.09939637035 0.6163229346 -0.3892147839 0.03574921563 0.8712592125
0.1525829881 -0.008316458203 0.7406380773 0.3581831157 0.009643815458 0.9299650788
0.1573826522 -0.01354433037 0.7371006608 0.3640683889 -0.04231431708 0.929551661
0.1501947045 -0.01419595536 0.7382773161 0.3599688709 -0.08611917496 0.9260282516
0.1467615813 -0.02207057923 0.736681819 0.3576930165 -0.1758058518 0.9154968262
0.2075984776 0.01665259153 0.7025400996 -0.6048529148 0.6508678198 0.4573768675
0.2148972005 0.03022490442 0.7000132203 -0.6761472821 0.5943846703 0.4344165027
0.2086349875 0.02229050547 0.7007779479 -0.6448619366 0.6193295717 0.4469641447
0.211147964 0.02732546069 0.6955170631 -0.6679586172 0.6041327715 0.4331306219
0.2130708098 0.01737118699 0.6994063854 -0.6312426925 0.6383887529 0.439535439
0.1576381326 0.08469130099 0.6401521564 -0.5608630776 0.2466725856 0.7872197032
0.1629152 0.1210482419 0.6279278994 -0.512516737 -0.3489068747 0.7766236067
0.1740716398 0.1133721769 0.6378643513 -0.5712527633 -0.1482569724 0.7834551334
0.1759386212 0.1142978519 0.6435667276 -0.4326830506 -0.1581129283 0.8588759899
0.1664926857 0.1222316697 0.6343459487 -0.5045010448 -0.2993614376 0.7808021307
0.180445388 0.1087841839 0.6452770829 -0.4846172035 -0.06454212219 0.8545495272
0.1748430133 0.107445769 0.6450721025 -0.4058501422 -0.03004324064 0.8960109353
0.1985255629 0.02577888966 0.6657397747 -0.466914773 0.6495457888 0.5470575094
0.2172971219 0.03873228282 0.6772601604 -0.7459405661 0.4523836076 0.4594330192
0.2038634121 0.0284025576 0.670660913 -0.5438428521 0.6052533984 0.51660043
0.205462113 0.03371563554 0.6651064754 -0.5772013068 0.541695416 0.5311470032
0.210729152 0.03224256262 0.6762681603 -0.6438509822 0.5431135297 0.4798583388
0.208850354 0.03419810906 0.6700665355 -0.6233357787 0.5267212391 0.5056299567
0.2095826119 0.03864493966 0.6643970013 -0.6432037354 0.4752447009 0.5228179693
0.2110911757 0.02639504895 0.6859560013 -0.6353354454 0.6070446968 0.4462917447
0.2140887827 0.04264999181 0.6657722592 -0.7122257352 0.4179669321 0.506465435
0.2069902718 0.02602928132 0.6796138883 -0.5799944401 0.6227446795 0.4783166945
0.200605914 0.03016644344 0.6626948714 -0.5061197281 0.5933207273 0.5532400608
0.2168691605 0.0357215628 0.6833383441 -0.7259434462 0.4984340966 0.4471529424
0.2158575356 0.03145847842 0.6892471313 -0.6992942691 0.5539957881 0.433199048
0.2201152742 0.05125399306 0.6638658643 -0.7779478431 0.2681469619 0.563485384
0.2201556861 0.07350914925 0.6576721668 -0.6956076622 -0.02076679841 0.7149916291
0.2177823335 0.06619363278 0.66213274 -0.7191643715 0.08742564172 0.6711063385
0.1108490676 0.1276115179 0.6293519139 0.3973712623 -0.4490482211 0.7987253666
0.1159388125 0.1233989596 0.6263054609 0.3622192442 -0.4652100801 0.8054241538
0.1238316894 0.1233752891 0.6254599094 0.302064091 -0.5090197921 0.8034448028
0.1153117418 0.1066768318 0.6206421256 0.4737325609 -0.3284410238 0.8149681687
0.1346989423 0.1032942906 0.6144677997 0.01904974505 -0.1490010321 0.9844810963
0.1201027036 0.1138067618 0.6223329902 0.3875271976 -0.4363997877 0.8074569702
0.05989705399 0.02688650228 0.7194208503 -0.02054380812 0.4187949002 0.9078040123
0.1369228512 -0.01220083423 0.737978518 0.2453404516 0.2487284541 0.849755466
0.06411816925 0.01510580722 0.7266082168 -0.007974775508 0.4234640896 0.9058750868
0.06428684294 0.006922075991 0.7276316285 -0.008121646941 0.4234095514 0.9058976769
0.06156696007 0.02071310766 0.7237073183 -0.02183746174 0.4183143079 0.9080025554
0.1523106098 0.1199956238 0.6226543188 -0.2199174613 -0.3944546878 0.8886035681
0.1221399084 0.1294800341 0.630597055 0.3111052215 -0.5148770809 0.7908141017
0.1289910078 0.1288414896 0.628836751 0.2236555815 -0.5714592934 0.7797697783
0.1347418427 0.1305878013 0.6289964318 0.1379614919 -0.6307819486 0.7625541091
0.1308516711 0.1246170402 0.6250796914 0.2137418538 -0.5577135682 0.7978426814
0.1265615523 0.1308817863 0.6356326938 0.2795651853 -0.5735664368 0.757820487
0.1184964105 0.1321610063 0.6346175075 0.3554931581 -0.5004526973 0.782828033
0.09242729843 0.0778291598 0.6381043196 0.7381403446 0.2386186272 0.6253051758
0.1208591908 0.1046829 0.6173939705 0.3496579826 -0.260320127 0.8934370279
0.1261226535 0.0868653059 0.6149474382 0.1548756659 0.112087287 0.9790316224
0.1350724101 0.09182570875 0.614151597 0.02019208483 0.04076788202 0.9977684617
0.1254500747 0.09771382809 0.6151351929 0.1988204569 -0.06344980747 0.9705756903
0.1123210117 0.1315311342 0.6347136497 0.4001824856 -0.4510588944 0.7952105403
0.1097652763 0.1265249699 0.6395748258 0.4367401302 -0.4230203032 0.782124877
0.09496509284 0.119948037 0.6419424415 0.5047120452 -0.2885415554 0.8111681342
0.1014943272 0.1225057766 0.6410092115 0.4760895371 -0.344589293 0.7989624739
0.1160941496 0.1283117086 0.6388944387 0.4117439389 -0.4707422853 0.7715167999
0.09392989427 0.1247307882 0.6392529607 0.4882875383 -0.3171393573 0.8090128303
0.08849678189 0.1217850223 0.6427393556 0.5160419345 -0.2594004571 0.8162900805
0.09998109192 0.07933050394 0.6280896664 0.6314313412 0.2239149213 0.7371022701
0.1066951379 0.1093977317 0.6352350116 0.5512833595 -0.3279623985 0.7612705827
0.1038807482 0.09634356201 0.6236902475 0.611625731 -0.1854645908 0.7644468546
0.1024860591 0.1029699892 0.6346819401 0.6064020991 -0.2127148211 0.7390120625
0.09835381806 0.08598653972 0.6351011395 0.6657235622 0.1145598069 0.6780742407
0.09905455261 0.09305029362 0.6372346282 0.6393964887 0.003550444962 0.7070844769
0.1018735543 0.1071029454 0.638248384 0.5893368721 -0.2524428666 0.7596672177
0.1017991304 0.09085430205 0.6323683262 0.6076581478 0.02056258731 0.7263417244
0.1052701995 0.09920337051 0.6305602789 0.5512514114 -0.1390862018 0.7768671513
0.1064818874 0.08946185559 0.6275435686 0.5045242906 0.06783054769 0.8043773174
0.1157037467 0.09476657212 0.6185845733 0.3874336779 -0.0554917641 0.9182975888
0.1091386601 0.1040557399 0.6314504147 0.4937231243 -0.2217606455 0.8015428782
0.1130515486 0.09973709285 0.6283183694 0.4109029174 -0.1237396896 0.8510676026
0.1101504564 0.09523847699 0.62593925 0.4488306046 -0.05044108257 0.8450216055
0.1348089874 0.08895738423 0.6311496496 -0.09646628797 0.1207043603 0.8415080309
0.1268925667 0.1052040458 0.6386758685 0.1167168245 -0.1843162328 0.7924236655
0.1367983669 0.09277264029 0.6352207065 -0.1350840777 0.05591239408 0.8102599978
0.1167859212 0.1072464362 0.6341679692 0.3534749448 -0.2388479114 0.8329454064
0.1262746304 0.1004679278 0.6347305775 0.1219886467 -0.1005962864 0.8217252493
0.122243382 0.08854651451 0.6233178973 0.1923092753 0.1057388783 0.9081684947
0.1247276589 0.09210152924 0.6274886727 0.1417945474 0.04648673534 0.8758203387
0.1235861704 0.09713746607 0.6306071281 0.1776335686 -0.04572827369 0.8538805842
0.1200159192 0.1109711677 0.6389132738 0.2860976458 -0.2998147309 0.7958392501
0.1150613278 0.1135140434 0.6378672123 0.405082792 -0.3541564643 0.8071972132
0.1422358751 0.0859003216 0.6332874894 -0.2733951211 0.1886467636 0.8203180432
0.1321987361 0.09628548473 0.635119319 -0.02244194411 -0.01516958885 0.8144463897
0.1186716855 0.09706877172 0.6276134849 0.2907495797 -0.05322893336 0.8794442415
0.1452091634 0.07781639695 0.6351594329 -0.3303532004 0.1637545079 0.8624622822
0.1304856688 0.08461651951 0.6256287098 -0.003570450237 0.181050688 0.8883260489
0.1473718733 0.08376795053 0.635197103 -0.393853128 0.2233907133 0.8066828251
0.1511951834 0.07939075679 0.6381838322 -0.4728869796 0.1955385804 0.8194964528
0.1203063577 0.09029093385 0.6168947816 0.2834205329 0.03287811577 0.9467061162
0.1250496209 0.07050299644 0.6212453246 0.242234841 0.3577094376 0.8951954246
0.173794806 0.0728880614 0.6369483471 -0.2611248791 0.01946149953 0.9178572893
0.1800400168 0.07281485945 0.6384975314 -0.3706394732 -0.02157255448 0.8712387681
0.1680910885 0.07183142751 0.6354647279 -0.1288514882 0.05077053234 0.961871922
0.1511385292 0.09295776486 0.6170035005 -0.5234932899 0.2444113791 0.8080098629
0.1449935287 0.09147629887 0.6153551936 -0.2123709768 0.1392066926 0.9368424416
0.1806881875 0.05214863271 0.635897696 -0.1113254428 0.2248970866 0.9632566571
0.1878551394 0.05063275993 0.6371008158 -0.2381113619 0.2527627647 0.9337707758
0.1319948882 0.07571335882 0.6181542277 -0.05358691141 0.3652171493 0.9150828719
0.1278964728 0.07968507707 0.6167327166 0.08890718222 0.2313892394 0.9543601871
0.2122157067 0.07925013453 0.6623372436 -0.678725183 -0.0464390032 0.7329226136
0.1597495973 0.1267426759 0.6298187971 -0.3553598523 -0.4257606864 0.8125880957
0.1598345637 0.1307980269 0.6338723898 -0.3396388888 -0.4494231939 0.8203735352
0.1576999873 0.09650529176 0.6196570396 -0.6118488908 0.160760805 0.7715096474
0.1649225801 0.09278123826 0.6409166455 -0.5101529956 0.2464579642 0.8227910399
0.1647292376 0.08010674268 0.639193058 -0.3318440318 0.004486071877 0.9068863392
0.167736575 0.08521346003 0.6401416063 -0.3464150131 -0.007669390179 0.8941425681
0.185633406 0.08085582405 0.6407458782 -0.3942378163 -0.1664619744 0.8644342422
0.1789219826 0.08729291707 0.6397707462 -0.205908969 -0.2132525593 0.9437471628
0.1715157777 0.08162315935 0.6372646689 -0.1774033159 -0.06371554732 0.9670631289
0.1878899783 0.07444648445 0.6405985355 -0.5171535611 -0.08387323469 0.8164284825
0.1773281246 0.08131936938 0.6386992931 -0.266505599 -0.1062081307 0.9248709679
0.1556690931 0.06989429891 0.6393046379 -0.3595646918 0.1331470609 0.9125689268
0.1624767482 0.07029589266 0.6359444261 -0.1338288337 0.0847890377 0.9753085375
0.1139449552 0.1178895384 0.6264518499 0.4511860907 -0.4327613115 0.7802696824
0.1129218265 0.1125549972 0.624448359 0.475764215 -0.3827016056 0.789973855
0.1098873094 0.1055121794 0.6226091981 0.5475680232 -0.3326510489 0.7657273412
0.1761831045 0.09802203625 0.6441123486 -0.3485658169 -0.0220478829 0.9155098796
0.1723329127 0.0941010341 0.6417510509 -0.3826641738 0.04124202579 0.8809970617
0.1794597656 0.09353842586 0.6423127651 -0.241062969 -0.1543766707 0.9443649054
0.1783847958 0.1028538793 0.6469066739 -0.3882640004 0.0403951779 0.9191787839
0.2115630656 0.0466138646 0.6730885506 -0.6811258197 0.291523248 0.6465706229
0.217908293 0.0452618897 0.6744403243 -0.7573429346 0.3771633506 0.5068831444
0.2162672281 0.03839756176 0.6892062426 -0.6985325217 0.4858312607 0.4891951978
0.2166288346 0.0479291603 0.6691501737 -0.7549529672 0.3164705634 0.5529136658
0.215446353 0.03533992171 0.6938770413 -0.6860188842 0.5246236324 0.4748949111
0.210103631 0.03023068979 0.6902548671 -0.6639330983 0.5462465882 0.4782689512
0.2109871805 0.03629826382 0.6846235394 -0.6732478142 0.453491509 0.5371445417
0.212058872 0.04174936935 0.6800415516 -0.6832354069 0.3728201687 0.586728394
0.06127054617 0.03186002001 0.7172163129 0.1338988245 0.5135254264 0.7965025902
0.06061146036 0.03890999779 0.7122778296 0.5750826597 0.5312867761 0.5939667821
0.05822820589 0.04448357224 0.7130164504 0.6234647036 0.4912347794 0.5899469852
0.1355997026 -0.01885386184 0.7439833283 0.2813807726 0.07744004577 0.8678322434
0.1400721818 -0.02163345367 0.7401340604 0.3254501522 -0.08311138302 0.8946571946
0.1408406794 -0.01182153728 0.7427402735 0.2975176573 0.07587663829 0.8851109147
0.1394561082 -0.006662554108 0.745164454 0.2773190439 0.1805317104 0.8768640161
0.1352233589 -0.02600927465 0.7405490279 0.3564429879 -0.1960230619 0.9135224819
0.1321401745 -0.005508036353 0.7512499094 0.1464145184 0.5762465596 0.7873307467
0.1410838366 0.1239706874 0.6219584346 -0.0308700297 -0.5221892595 0.8491799235
0.1474281698 0.1267632395 0.6257251501 -0.1115781143 -0.5205776691 0.8392452002
0.1534398794 0.1293936372 0.629560113 -0.09181962162 -0.5327346921 0.8389866948
0.1377568245 0.1260832101 0.6337609291 0.03535406291 -0.5146015882 0.7633529305
0.153087154 0.1211143509 0.6357069612 -0.1732553244 -0.3176568151 0.8201476932
0.158294946 0.1092474237 0.6380756497 -0.32210958 -0.07144021243 0.8164582849
0.1461592764 0.1258554757 0.6344088912 -0.05986218527 -0.4506213069 0.8001166582
0.148160845 0.1167860627 0.6360755563 -0.1516156942 -0.276568681 0.7885190845
0.1516627669 0.1272008866 0.6345825791 -0.110776417 -0.435043633 0.8275709152
0.156457454 0.1162028909 0.6367754936 -0.2483777255 -0.2070824206 0.8240106702
0.1616372913 0.1044146121 0.6391289234 -0.3963186145 0.03754929826 0.8203749061
0.1436398476 0.1130158678 0.6371567845 -0.08002775162 -0.2048962861 0.7919217348
0.1329914629 0.1198268458 0.6358864307 0.1322776824 -0.3697218001 0.7866049409
0.1408511996 0.1201701164 0.6352458 -0.02703889087 -0.3753896952 0.774774909
0.1490168869 0.1081763878 0.6382097602 -0.18655321 -0.08846919984 0.7987139821
0.1351887435 0.1125766858 0.6165297627 0.05533628538 -0.3674795628 0.9216852188
0.1404028684 0.1063084453 0.6149554849 -0.0580486767 -0.217309162 0.967708528
0.1496639997 0.1066015735 0.6165674925 -0.2162822336 -0.2203833908 0.9480537772
0.1516715139 0.1118154228 0.6179222465 -0.2785889208 -0.2776294649 0.9189863205
0.1456826031 0.1138282865 0.6176623106 -0.1765879542 -0.3533024192 0.9167655706
0.09774918109 0.08511758596 0.6285247207 0.666490674 0.08726204187 0.7377862334
0.09277626872 0.08422249556 0.6342772245 0.7387858033 0.1087968349 0.6633471847
0.09202335775 0.08977328241 0.636310041 0.7654770017 -0.01306521427 0.6284928918
0.08383017033 0.07819119096 0.6502972245 0.7868098021 0.151704222 0.5972880125
0.08665399998 0.08177493513 0.6437277794 0.7887598276 0.1314976662 0.600114584
0.08955955505 0.07252906263 0.6461875439 0.7325322628 0.2599942684 0.6278620958
0.05387705937 0.02890522778 0.7175095677 0.3636279404 0.7018537521 0.6116129756
0.05472140387 0.03870318085 0.712785244 0.5825771689 0.5355678797 0.5916569829
0.1098805889 0.07820209116 0.6245917678 0.4480830431 0.2687513232 0.8328325748
0.1148032248 0.07548105717 0.6220287681 0.3812425733 0.2938530147 0.8756216168
0.122880809 0.07524678856 0.6257732511 0.1959176213 0.2678856552 0.868394196
0.1384230703 0.07685244828 0.6323242784 -0.1700138748 0.1923735738 0.8665677905
0.1345103532 0.079405047 0.6292446256 -0.08514614403 0.1731890887 0.8883029819
0.1281524003 0.07878044248 0.6265491247 0.06446826458 0.2036628872 0.8892820477
0.1199966595 0.080064632 0.6220825911 0.2512714565 0.2158155143 0.9055431485
0.131455496 0.06989911944 0.6281294823 0.07407383621 0.3267475665 0.8638125062
0.09797295928 0.1217054501 0.6331744194 0.4955680966 -0.3408244848 0.797385633
0.1048973873 0.1198137999 0.6302152276 0.4775848389 -0.3946343958 0.7809570432
0.1037477255 0.1134507507 0.6280938387 0.5306861401 -0.3484106064 0.7686861157
0.1021013856 0.127662167 0.6330207586 0.4504128397 -0.392077595 0.7996832132
0.09765242785 0.1086660847 0.6427610517 0.5925595164 -0.227874577 0.7714225054
0.1381175071 0.06611789018 0.6366470456 -0.06741435826 0.2600474954 0.8480519652
0.1310707778 0.06625371426 0.6350941062 0.05412618816 0.317317903 0.8128907681
0.1493436843 0.06815980375 0.6391944289 -0.3063246608 0.1757651418 0.8832277656
0.1435623169 0.06554959714 0.6378318667 -0.1520341933 0.2143692523 0.8794957399
0.1236913353 0.0664736107 0.633449614 0.1801156998 0.3775800765 0.7755647302
0.1177806407 0.06503657997 0.6274112463 0.3736703098 0.4318298995 0.808313489
0.1370197535 0.0705480203 0.6316040754 -0.0730369091 0.2941448092 0.8524667621
0.1421790868 0.071887739 0.6352921128 -0.2232228667 0.2507727742 0.8393124342
0.1877868474 0.06875444204 0.6361636519 -0.3054458201 -0.03670339659 0.9416750669
0.1388136148 0.07549586147 0.6181496382 -0.2489978671 0.4783575237 0.826471746
0.1554836482 0.08257718384 0.6211066842 -0.451366514 0.2882166803 0.8020370603
0.1460649073 0.08114159107 0.6176356673 -0.4193746746 0.4115947485 0.7969576716
0.1589888185 0.07709635794 0.6236234903 -0.3224583864 0.2448512614 0.8586204052
0.1672855616 0.06746561825 0.629733026 -0.07286936045 0.1210686713 0.9639700651
0.1537572443 0.072165519 0.6248282194 -0.1454720497 0.2609010041 0.8983554244
0.1791662127 0.06568627805 0.6334017515 -0.1093210131 0.02065592073 0.9892431498
0.1647564769 0.07488793135 0.6264680028 -0.2670460343 0.1756690741 0.8896497488
0.1830479354 0.0596075356 0.6348344684 -0.1723039895 0.1040927172 0.9749647975
0.1730731577 0.07028570026 0.6317372918 -0.07474612445 0.005911549088 0.9749656916
0.1718923599 0.07641364634 0.6314120889 -0.1077650785 -0.05906638503 0.9525592327
0.2025344074 0.08316382766 0.6581170559 -0.5945130587 -0.05260205269 0.7821935415
0.1939237714 0.09071201831 0.6521542072 -0.4746951461 -0.05768429488 0.8526521325
0.1872291416 0.09883470088 0.6433013678 -0.5027251244 -0.2503679991 0.8045040965
0.1703143269 0.1152717024 0.6323224306 -0.6336252689 -0.2142087221 0.7300857306
0.1816491485 0.09949719906 0.6399014592 -0.4250973463 -0.2126286775 0.8622267842
0.1844019145 0.1034624428 0.6485544443 -0.3766604066 0.02638605796 0.9243811369
0.190350458 0.09878908098 0.649241209 -0.4931916296 -0.1202611476 0.8406665325
0.1999994218 0.09033893049 0.6523446441 -0.5711835027 -0.1754303426 0.7793468237
0.1958983243 0.09457084537 0.6555131674 -0.5394073725 -0.009160095826 0.8315024972
0.2093842328 0.08469260484 0.6605063677 -0.6386392117 -0.03550395742 0.7613407373
0.1772160232 0.08981633931 0.6327587366 -0.3669817746 -0.1209258363 0.8776775002
0.1740310043 0.09548858553 0.6321098208 -0.4812563956 -0.04950312525 0.8376746774
0.1832873672 0.08396179229 0.6362614036 -0.2136626691 -0.2292158753 0.9409618974
0.1692668051 0.04844937846 0.6368182302 0.06085345149 0.3366465867 0.933050096
0.1485753357 0.07157947123 0.6227406859 -0.2195129395 0.3943884075 0.8538161516
0.1579276323 0.0628073886 0.6297020316 -0.02923713252 0.2596717775 0.9272737503
0.1715449244 0.06047105417 0.6336506009 0.01377444435 0.110047482 0.9890820384
0.1666948348 0.1089590862 0.62736094 -0.6584171653 -0.1388974637 0.7245095968
0.1714328825 0.1060763597 0.6315264106 -0.5750591159 -0.1605431139 0.7744759321
0.1764077693 0.1047355011 0.6362345219 -0.4922213554 -0.1989762038 0.8220338225
0.1781981587 0.09696649015 0.6365386248 -0.4392997324 -0.1352476329 0.8622241616
0.169424966 0.09844723344 0.6283051372 -0.5703275204 -0.01647990942 0.7891945839
0.1650597155 0.1034746617 0.62469244 -0.6663634181 -0.06153806299 0.7279628515
0.1644650102 0.1151248887 0.6268496513 -0.6664097309 -0.2043614239 0.7162888646
0.1609268636 0.1110044569 0.6234792471 -0.5649092793 -0.1893671602 0.7636909485
0.1562796235 0.1087293774 0.6198511124 -0.4532349408 -0.1870395541 0.8317392468
0.159709692 0.1021817103 0.6207220554 -0.5606518984 -0.03250940889 0.7864343524
0.1987135261 0.05264885351 0.6443104744 -0.5608446002 0.2308847904 0.7727523446
0.2067102343 0.05438580364 0.6497006416 -0.6128191352 0.1773097217 0.7529253364
0.1935695559 0.05132759735 0.6407443285 -0.5103567839 0.2670564651 0.7945901155
0.2128320783 0.05885959417 0.6539357901 -0.6765676737 0.09601908922 0.7261012793
0.2160703838 0.06311567873 0.6567240953 -0.6952531338 0.03050420061 0.716943562
0.2111219913 0.05231829733 0.6654679775 -0.7009278536 0.1903746724 0.6741582751
0.2124647796 0.06087322161 0.6636960506 -0.7050828338 0.1080081984 0.679574728
0.2164455801 0.05583292618 0.6647655964 -0.7551603913 0.2120390087 0.58656919
0.2151177227 0.07282639295 0.6626330018 -0.6986004114 0.02083839662 0.6948638558
0.2110249996 0.06766986102 0.6628133059 -0.677931726 0.02470458299 0.7311866283
0.1927682608 0.03292944655 0.6510884166 -0.2058652788 0.6041328907 0.7433470488
0.2107121646 0.04672144353 0.6615394354 -0.6593829989 0.3492297828 0.5991838574
0.198725149 0.04020898789 0.6527975202 -0.3495221436 0.4998715222 0.7124851346
0.2164294869 0.05304020271 0.6582234502 -0.6263039112 0.1929426789 0.7091366649
0.2115724087 0.04952884465 0.6563346386 -0.5403240323 0.2786389589 0.7159653902
0.2053319067 0.04604718089 0.6531692743 -0.4136549234 0.3541359603 0.7534214854
0.1907103509 0.03731871769 0.6462499499 -0.1745126545 0.5623701811 0.799680829
0.1936603487 0.04268149287 0.6452769637 -0.2850543559 0.4290385246 0.8280873299
0.19976601 0.04604263976 0.6483494639 -0.3780877888 0.3487966061 0.8068085909
0.1990717351 0.04364367574 0.6589452028 -0.4260310829 0.3770698607 0.7226584554
0.2042425871 0.04883939028 0.6621729732 -0.5574119687 0.2578314841 0.7203253508
0.2034112066 0.04038774967 0.6671599746 -0.5064443946 0.3674393892 0.6950978041
0.2078247219 0.04176005721 0.6728504896 -0.6268713474 0.3459318578 0.6425722241
0.2070797384 0.03250028566 0.6824803352 -0.6162230968 0.4932383895 0.5455267429
0.2018386573 0.03581625968 0.6699214578 -0.4679129422 0.4400731325 0.6659194231
0.1979863942 0.02552361041 0.6756231785 -0.3725509048 0.6035836339 0.6050713062
0.2039230466 0.03236874193 0.6774132252 -0.529178381 0.4950945675 0.5930660963
0.1980596781 0.03010744229 0.6703674197 -0.3696605265 0.5306407809 0.6577060223
0.1988157034 0.03598216549 0.664726615 -0.3842427731 0.4372056723 0.7148689628
0.2067946047 0.03744897991 0.6762036681 -0.6030421257 0.4144620895 0.608014822
0.1935317665 0.02389461547 0.6701657772 -0.2512635887 0.6291731 0.6552248001
0.2049620301 0.02767151594 0.6846418381 -0.5629106164 0.5699256063 0.5218066573
0.1919962615 0.02619205602 0.6649309993 -0.2063909471 0.5924956203 0.7060518265
0.2060122639 0.08474774659 0.6520205736 -0.6082470417 -0.1838664263 0.7515217662
0.2161400467 0.07771535963 0.6561866999 -0.6689330935 -0.07528160512 0.7297459841
0.1827718168 0.04275623336 0.6391153336 -0.1288660765 0.4405964911 0.8758144379
0.1835437566 0.03659242392 0.6450693011 -0.1113744006 0.5794148445 0.8046122193
0.1782225668 0.03860109299 0.6399322748 -0.03386449814 0.5357596874 0.8399262428
0.2041342109 0.005557454657 0.7073069811 -0.4447703063 0.7963321805 0.4023795426
0.1607565582 -0.01780197583 0.734685123 0.363971144 -0.08525627851 0.9239710569
0.1525687724 -0.01971148886 0.7341420054 0.3564429879 -0.1960230619 0.9135224819
0.130128026 -0.01394289825 0.7384527326 0.1963804364 0.3344306946 0.8668242097
0.1202052236 -0.01268034335 0.7486584783 0.07415173948 0.4837525785 0.8597627282
0.1088120639 -0.02144660987 0.7469257712 0.02730726451 0.3833702505 0.9231898189
0.04783082381 0.02898304909 0.7160061598 0.3287940919 0.6689043045 0.6464009881
0.04783183336 0.03684001416 0.7153565288 0.4626143575 0.643738091 0.6017009616
0.0531059429 0.04670941457 0.7146827579 0.5897516608 0.525200963 0.5916270018
0.04703965411 0.04624753445 0.7136703134 0.6526780725 0.4685141444 0.5877153277
0.0535794124 0.05266452581 0.7144092917 0.6745401621 0.4483222961 0.5860866904
0.1061141789 0.07439414412 0.6282789707 0.5318298936 0.3145061135 0.7647666335
0.1010208651 0.07302938402 0.6319261193 0.6194072962 0.3326593637 0.7007596493
0.096572496 0.07585019618 0.63428545 0.6905921698 0.3056447804 0.6541209221
0.1183822453 0.07083434612 0.6229079962 0.3586837053 0.3466538787 0.8611310124
0.1905375272 0.09002483636 0.6422442198 -0.4922021329 -0.2831193805 0.8149209619
0.1854281276 0.0935742408 0.643155992 -0.3415859938 -0.1834009439 0.917424798
0.1989216655 0.07967627794 0.653773725 -0.5343136191 -0.09705962241 0.7940891385
0.1851059943 0.08601542562 0.6440547109 -0.2912115753 -0.196934253 0.9027317166
0.1900548786 0.08358463645 0.6474298835 -0.3797829449 -0.1600332409 0.8629505038
0.2033750862 0.07684168965 0.6563811898 -0.6200435758 -0.05930360407 0.7547948956
0.194475323 0.08321791142 0.6516429782 -0.4420948327 -0.1397574693 0.8371642828
0.1743958294 0.08228865266 0.6315939426 -0.2115902007 -0.1133528799 0.9230099916
0.176904574 0.07707859576 0.6340648532 -0.070243828 -0.1671460867 0.9778742194
0.1670187712 0.09284783155 0.6252952814 -0.5082931519 0.02714703418 0.8034095764
0.1726678312 0.08876097947 0.6293061972 -0.3809813559 -0.06559111923 0.8599454165
0.1614132524 0.08712924272 0.6241469979 -0.4450938702 0.1824859977 0.8042712212
0.1623886824 0.09541731328 0.6223611236 -0.6057254672 0.123191759 0.757301867
0.1670732945 0.08596681058 0.6269623041 -0.3515612781 0.02892319858 0.8558282852
0.206386894 0.07393624634 0.6487463117 -0.6535397172 -0.08374252915 0.7472781539
0.1974439621 0.07989783585 0.6419685483 -0.4703752995 -0.1886379421 0.8443880677
0.2009344101 0.07352965325 0.6456474662 -0.6452029943 -0.09973397851 0.7542605996
0.2110702395 0.07779994607 0.6513280869 -0.6207926869 -0.1122375354 0.7568192482
0.1968203485 0.08514743298 0.6440024376 -0.5623341203 -0.2557019293 0.7770682573
0.2028437704 0.08222091943 0.6471973062 -0.5912570953 -0.1972788274 0.7655647993
0.1911872774 0.07804369181 0.6381039619 -0.43637079 -0.171259135 0.8773040175
0.1911158413 0.08454592526 0.639185369 -0.4508064091 -0.2648309171 0.8468498588
0.1565547585 0.06174857914 0.6396111846 -0.1919565797 0.1484132558 0.9443687797
0.1681835204 0.05594742671 0.6367189288 0.02134556137 0.1937440187 0.9627532363
0.1621424705 0.06131405756 0.6375905871 -0.1565779895 0.1326450855 0.9625242352
0.1610124707 0.05084280297 0.6407861114 0.2260968983 0.3122560382 0.9052039385
0.134027645 0.06261888146 0.6271744967 0.167269662 0.4401366115 0.8688505292
0.1441977024 0.053924907 0.6347742677 0.2366286963 0.3980632424 0.8814603686
0.1280614287 0.06371254474 0.62686795 0.2903114557 0.3995505571 0.867416203
0.1208081543 0.06017796323 0.631934762 0.4103165865 0.4432576895 0.7880376577
0.1360435635 0.05632419512 0.6335238814 0.3071932197 0.4030753374 0.8556174636
0.1276620626 0.05844129622 0.6326528788 0.3639642 0.4251946509 0.8184133768
0.1515300721 0.05393595994 0.6410416365 0.3333674967 0.2712901831 0.8976202607
0.1314473599 0.05206436291 0.6396779418 0.4015423059 0.392129004 0.80838871
0.1215362996 0.05524009094 0.6385300159 0.4629186392 0.3930638731 0.7767053246
0.1392897666 0.04983334616 0.6405535936 0.3548833728 0.3873531222 0.8343085051
0.1112542376 0.05767862871 0.6374382973 0.520801425 0.4062920213 0.7412561774
0.1486699134 0.04752511531 0.6409581304 0.2932894528 0.389567256 0.8655614853
0.1054595858 0.0587656498 0.6366261244 0.5483298898 0.4228716493 0.7200927734
0.1149084643 0.06039982662 0.6327861547 0.4612413347 0.4508775175 0.7582450509
0.1316937059 0.06043325365 0.6387373209 0.1645046324 0.2753865421 0.8369549513
0.1487895995 0.06061328202 0.6400659084 -0.02530558594 0.1945299655 0.9096261859
0.1248845756 0.06069171801 0.6381706595 0.2182116657 0.3032133281 0.8091970682
0.1411555409 0.05596389994 0.639991045 0.3624107838 0.2912145555 0.8607586026
0.1182674095 0.06031103805 0.6375830173 0.3167936802 0.3409086168 0.7797532678
0.1880830675 0.02913358063 0.6561972499 -0.1276523769 0.6223003864 0.7257990837
0.1922299564 0.03400131315 0.6571960449 -0.2371194661 0.5460679531 0.722240746
0.1786942482 0.01795212552 0.6645320058 -0.05024471879 0.692630291 0.7139485478
0.1824145615 0.02021114342 0.6606119275 -0.1715033352 0.7343139648 0.6424720287
0.1991565526 0.02280440181 0.6807770133 -0.409553498 0.6473089457 0.5538918376
0.1844259053 0.01917074062 0.6731113791 -0.1930827647 0.6645141244 0.6497301459
0.1899671853 0.019776389 0.6753842235 -0.3022233248 0.6916720867 0.5833380222
0.1994436383 0.01661903225 0.6966533661 -0.4760620296 0.7115299702 0.4626562893
0.2034258395 0.02084325068 0.6939985156 -0.5576938987 0.662846446 0.455524385
0.1963735372 0.01737662964 0.6914648414 -0.4184911251 0.6985495687 0.5031021237
0.1942656338 0.01926990226 0.6854276061 -0.3807978332 0.6723589301 0.5428261161
0.1982175857 0.01888464391 0.675993681 -0.4302432835 0.6997902989 0.5303679705
0.1927792877 0.01975072175 0.6658060551 -0.3693934381 0.723952949 0.5677729845
0.1842553914 0.01742198318 0.6654673219 -0.1946004927 0.7706701756 0.605659306
0.199049741 0.01551731024 0.6849428415 -0.4135478735 0.7206838727 0.5053014755
0.2016124278 0.01359301992 0.6909044981 -0.4459380507 0.7269507647 0.4781935811
0.204948619 0.01270414051 0.6960420012 -0.4937165976 0.7199790478 0.4527608156
0.1983057261 0.04893107712 0.6559352875 -0.4533466995 0.294301331 0.7546705008
0.1927950233 0.04701428115 0.6502025127 -0.3409918845 0.3608100116 0.7910037637
0.1989883631 0.05488132685 0.6542156935 -0.5015518665 0.1973506063 0.7783266902
0.2071946561 0.06267068535 0.6619760394 -0.6861026287 0.0516089797 0.7247098684
0.207899943 0.07369140536 0.6615328193 -0.6831201315 -0.01997531764 0.7287689447
0.1731540263 0.02681681886 0.6503639221 -0.009326033294 0.687353313 0.7261881828
0.1696682721 0.02322313748 0.6542930007 -0.002654256532 0.686180532 0.7272200584
0.1797993332 0.02716723084 0.6517208219 -0.0290997941 0.6851266026 0.7275797129
0.175594762 0.0308127068 0.6466626525 -0.01916791312 0.6517276168 0.753202498
0.1234878451 -0.01582303643 0.7385823727 0.07302639633 0.4776302278 0.8706802726
0.1174664423 -0.02190276794 0.7429888844 0.02523011528 0.3759948611 0.9262781739
0.1179147884 -0.01516977232 0.7404670715 0.02562283352 0.377389282 0.9256942868
0.1130987182 -0.01837562583 0.7438539863 0.02652947977 0.3806085289 0.9243462682
0.1240230426 -0.01117448043 0.7435997725 0.06347998977 0.4592682421 0.8743646741
0.1293637604 -0.008768783882 0.7440798879 0.1188877672 0.5730494857 0.8074502945
0.1000387967 0.06789607555 0.6365637779 0.6514647603 0.3454447985 0.6701928377
0.1105664596 0.07099639624 0.6257813573 0.4584644735 0.3644894958 0.8039183617
0.106665507 0.06566941738 0.6306791902 0.5234847665 0.4180026054 0.7418082952
0.1611474156 0.04009688646 0.6438242197 0.1679947823 0.484231025 0.8539838195
0.1746628135 0.04379308596 0.6371561289 -0.007686396595 0.4225680232 0.9025650024
0.1000456885 0.05943222716 0.6417171955 0.6246737838 0.3673665822 0.6885600686
0.157986775 0.05829676986 0.6346066594 0.1470903158 0.2329792082 0.9329301119
0.1534681767 0.06574667245 0.6279423833 -0.1025119722 0.3451317251 0.8839956522
0.1463159025 0.06581047177 0.6278223991 0.0028889901 0.3789099753 0.8702004552
0.1400832534 0.06504092366 0.6264280677 0.06558646262 0.4152168632 0.878400743
0.1330157965 0.07095458359 0.6207755208 -0.09047934413 0.5230847001 0.8355932832
0.1428945214 0.07226844877 0.6229290366 -0.1930061281 0.4664637744 0.8218730092
0.2022808045 0.07000727952 0.6509442925 -0.6803443432 -0.04773914069 0.7307723165
0.2059344947 0.06727096438 0.6581184268 -0.6906469464 0.01159118582 0.7217427492
0.2166031748 0.06961746514 0.6560186744 -0.6960729957 -0.01495412551 0.7173826694
0.2074510306 0.06836919487 0.6519107819 -0.6856030822 -0.03467321768 0.7262283564
0.1937355846 0.07723286748 0.6468301415 -0.4973396361 -0.1210227013 0.8120031953
0.1747967303 0.02576911263 0.6560484767 -0.02369253896 0.6707511544 0.7380161285
0.1691639423 0.03072664514 0.652048111 0.02193780802 0.6445091963 0.7583788037
0.1606973708 0.03123182058 0.6526280642 0.07637044042 0.6260002255 0.7734173536
0.1836030781 0.03118146211 0.6498416066 -0.07205222547 0.6680112481 0.7387681603
0.1642023176 0.03572884947 0.647755444 0.06049765274 0.5684916973 0.8143998384
0.1702946723 0.03927336633 0.6433988214 0.03026373312 0.5151868463 0.8516105413
0.1751666218 0.03698160499 0.6454089284 -0.0312023107 0.5615048409 0.8182488084
0.156978339 0.0366169326 0.6490339041 0.1486028135 0.539018631 0.8149965405
0.1560210139 0.04709231108 0.6426603794 0.265111953 0.3521043658 0.8911743164
0.1912547797 0.02424499765 0.6580337882 -0.2694246471 0.663358748 0.6865369678
0.2034164816 0.03942290694 0.6592609286 -0.5029678345 0.4616390765 0.637033999
0.1983371824 0.03459949046 0.6571421623 -0.3841258287 0.5383946896 0.6719648838
0.184780255 0.02424046956 0.6559932232 -0.1201421916 0.6822172999 0.7134239078
0.200923413 0.007486328483 0.7030131221 -0.4130144715 0.8007950187 0.4188507199
0.1915469617 0.01302327216 0.6819912791 -0.2899602652 0.7844033241 0.5234923363
0.1952333748 0.0115695186 0.6873476505 -0.341563046 0.7761523128 0.5021420121
0.1996241957 0.009181035683 0.6963698268 -0.4000979066 0.7796751857 0.4587331712
0.1850501299 0.0144395791 0.6765857935 -0.183142662 0.7670725584 0.5816860199
0.1948485374 0.008029682562 0.7014996409 -0.3171567917 0.8388940692 0.4157115221
0.1792956293 0.0153392572 0.6727273464 -0.07760869712 0.7110901475 0.6685578823
0.1873738617 0.01135680638 0.6883705854 -0.2002904415 0.7765765786 0.5365408063
0.1848585606 0.01284105144 0.6825813651 -0.1643785089 0.7573629022 0.578550756
0.1910415143 0.01092119049 0.6942644715 -0.2754441798 0.7832806706 0.4947192073
0.1625246108 0.05489684269 0.6362646222 0.1685440987 0.1951380819 0.9627314806
0.151558131 0.05784005672 0.6335312724 0.1950217485 0.2984013557 0.9159936905
0.1562687755 0.05225419626 0.636313796 0.2185253948 0.3183184564 0.9152454734
0.1616334319 0.04515651613 0.6398283243 0.1959154159 0.3931593299 0.8958905935
0.2016577572 0.0653893277 0.6466791034 -0.66317904 0.003114030929 0.7473036051
0.1964104027 0.06568305939 0.643112421 -0.6487645507 -0.003054521745 0.760253787
0.2036536932 0.06004107371 0.6473845243 -0.6680911779 0.1108203083 0.7280828357
0.2085359842 0.06207784638 0.6511407495 -0.6827669144 0.07120192051 0.7204850316
0.1678643227 0.06558907032 0.6350241899 0.04893392697 0.02208695188 0.9715045691
0.1921281815 0.06362164766 0.6389369369 -0.4774540365 0.02876984328 0.8665049672
0.1930170357 0.07088181376 0.6397743225 -0.5356294513 -0.06775232404 0.8283783197
0.1855437607 0.06373406202 0.6390748024 -0.3859260082 0.03667813912 0.8462935686
0.177364856 0.05950108916 0.6361879706 -0.1294977367 0.1128521338 0.9351134896
0.1970131844 0.06038369611 0.6475683451 -0.5790746212 0.09368710965 0.772613883
0.1925876588 0.05784272775 0.64245224 -0.4962958395 0.1466282904 0.8015218377
0.1954775155 0.05481627584 0.648855567 -0.4677537382 0.2015328109 0.7981761694
0.2037042975 0.06193021312 0.6568036079 -0.6637712121 0.05747241154 0.736514926
0.1892251372 0.04695795849 0.6444174647 -0.2755628228 0.3578353226 0.8531653285
0.1841820776 0.04800375178 0.6408363581 -0.226667583 0.3451019824 0.8545879722
0.1750522554 0.0500789471 0.6368326545 -0.013077599 0.2968601584 0.940423727
0.1698660553 0.0185196884 0.6622872949 -0.004886387847 0.6864546537 0.726993084
0.1640908122 0.02021585964 0.657787919 0.0168775674 0.6822749376 0.7305472493
0.198273629 0.005364090204 0.7098466158 -0.3771971762 0.8405596614 0.3783455789
0.1618237793 0.0265953429 0.6555911899 0.05476940423 0.6572079659 0.7505460382
0.1624921709 -0.01360413432 0.7300228477 0.2414752245 0.03664180636 0.8157194257
0.1699843258 -0.006307984237 0.7266836762 0.08728743345 0.386328131 0.6934431195
0.1613625735 -0.007367314305 0.7308158278 0.2280010432 0.1489385962 0.8172370195
0.1677452028 -0.01157734264 0.7270631194 0.1370308995 0.2171031535 0.7260912657
0.1775501519 -0.008667319082 0.7226007581 -0.02750014886 0.5238018632 0.5851387978
0.1683845371 -0.01512791216 0.7324908972 0.2833721638 0.1038234383 0.8562390208
0.1842837185 -0.007603313774 0.7230808735 -0.0609353371 0.6770247817 0.5579824448
0.1743691415 -0.01362808794 0.7305313945 0.1925858259 0.2811968625 0.777533412
0.179339394 -0.01264766324 0.7275483012 0.09264802188 0.4403983355 0.6909791827
0.1721223295 -0.0128943352 0.7372358441 0.3339061439 0.164181307 0.8996732235
0.1658360213 -0.009567327797 0.7343670726 0.2898966372 0.1468252987 0.8674098253
0.1573371589 -0.007812874392 0.7345738411 0.3318341672 0.01935637556 0.9092453122
0.1882599294 -0.005458970554 0.7180869579 -0.1998113096 0.8555729985 0.4378660023
0.20137012 -0.001931934268 0.7133411169 -0.3155169785 0.8833535314 0.3459650576
0.1939339787 -0.004597678315 0.7153383493 -0.2656498253 0.8869777918 0.3757176101
