# .PCD v0.7 - Point Cloud Data file format
VERSION 0.7
FIELDS x y z normal_x normal_y normal_z
SIZE 4 4 4 4 4 4
TYPE F F F F F F
COUNT 1 1 1 1 1 1
WIDTH 512
HEIGHT 1
VIEWPOINT 0 0 0 1 0 0 0
POINTS 512
DATA ascii
-0.03867097571 -0.1098618954 1.076226473 -0.5027000308 -0.130529955 0.8488463759
-0.03785333037 -0.1034943759 1.076917171 -0.4578751028 -0.1944728047 0.8666956425
-0.04472010955 -0.1181416139 1.067121983 -0.5089084506 -0.06509055942 0.8554503322
-0.0405902043 -0.1153005213 1.073627114 -0.5282341838 -0.08025051653 0.8409010768
-0.04536568746 -0.1119470596 1.066228151 -0.4910812378 -0.1292207986 0.8554537296
-0.04262968153 -0.1092616096 1.070049644 -0.4766103625 -0.1493031383 0.8617525697
-0.04099743441 -0.1045864373 1.072638512 -0.4738909304 -0.1910687536 0.8563361764
-0.03107687645 -0.1120686159 1.079147696 -0.5330696702 -0.06909519434 0.8406726718
-0.02285303548 -0.1065046787 1.081765771 -0.4957793951 -0.09510922432 0.8611846566
-0.03586447239 -0.1168355495 1.07817173 -0.5605564117 -0.05408288911 0.8254668117
-0.04470618069 -0.08774293959 1.084515691 -0.4848087728 -0.2599311769 0.8349723816
-0.05482739583 -0.0870026499 1.075593829 -0.4887400568 -0.2349949181 0.8400523663
-0.04653412104 -0.09628389776 1.069190621 -0.5189007521 -0.2581867576 0.8147770762
-0.04798421264 -0.09143412113 1.074859142 -0.513066113 -0.2464850098 0.8218960762
-0.04323678464 -0.09172419459 1.077183247 -0.4996486604 -0.2648404539 0.8242665529
-0.05058531836 -0.08649463952 1.079990268 -0.5104441047 -0.23030819 0.8284722567
-0.08805762231 -0.09420964122 1.064253569 0.2020426393 -0.2361678928 0.943143785
-0.03053114004 -0.1061445549 1.078903079 -0.4909922183 -0.1197698638 0.8587431908
-0.01829217561 -0.1064992696 1.086393237 -0.4770331085 -0.1121076345 0.8713119626
-0.02064019814 -0.1013880149 1.087149501 -0.4641454518 -0.1139890179 0.8783335686
-0.02328331955 -0.1095287129 1.087931633 -0.5026710629 -0.09887984395 0.8583769798
-0.1431477815 -0.184789449 1.094290733 0.005271544214 0.4481839538 0.8892123103
-0.1449155957 -0.1822208464 1.084417462 0.008854942396 0.4029526711 0.9145702124
-0.1512443572 -0.1777358353 1.088512659 0.02470202744 0.4000512958 0.9138751626
-0.1394639015 -0.1891922951 1.107367873 -0.005127025768 0.5099056363 0.8548595309
-0.1458999664 -0.1831209809 1.101392269 -0.002762832679 0.4533816576 0.8837314844
-0.1506330669 -0.1785503775 1.094167829 0.008832609281 0.4102536738 0.9068225026
-0.1442501396 -0.11239025 1.075843453 0.0693134889 -0.07800533623 0.9779420495
-0.1376182437 -0.1099085212 1.08203733 0.1366291344 -0.2371838838 0.9496514201
-0.1406290084 -0.1082061455 1.07488966 0.02999044023 -0.1039969623 0.9789698124
-0.1474894434 -0.1127400845 1.071496367 0.01324355509 0.01831452921 0.9967821836
-0.1096863374 -0.107971482 1.079748154 0.2623899877 -0.1247281805 0.9514967203
-0.10481406 -0.1043645814 1.07822144 0.2813504338 -0.1271750331 0.9491183162
-0.1152900755 -0.1066109911 1.080601215 0.2381129116 -0.1820859015 0.9463745952
-0.1352102757 -0.1073019952 1.076661468 0.04416771978 -0.09682281315 0.9794273973
-0.1322513372 -0.1072326824 1.081364393 0.1304734051 -0.2285454124 0.9519233108
-0.1264716089 -0.1056197807 1.080379844 0.1596067697 -0.2136454135 0.9507589936
-0.1295481175 -0.1055856869 1.074759245 0.05985224247 -0.05713144317 0.983132422
-0.1005312651 -0.09836732596 1.076595545 0.2477964461 -0.1740345508 0.9402834773
-0.08588884771 -0.09139817953 1.068039894 0.07878535241 -0.2279590219 0.9503936768
-0.07130075991 -0.08834321797 1.0700773 -0.214902088 -0.2324989587 0.9166058302
-0.08060603589 -0.09151104093 1.072089195 -0.06685630977 -0.214181602 0.9244058728
-0.09441463649 -0.09623743594 1.075143933 0.1520153284 -0.1866770387 0.9356931448
-0.09167076647 -0.09436793625 1.068596959 0.1870684773 -0.2304375619 0.9487209916
-0.08766653389 -0.09478846192 1.074471354 0.03366836905 -0.1912622005 0.9267953038
-0.06637256593 -0.09225678444 1.070650697 -0.3275239766 -0.1896131188 0.9058897495
-0.07536170632 -0.09257083386 1.07232523 -0.1734780222 -0.1970284879 0.9144244194
-0.06537492573 -0.08723177016 1.070872664 -0.3342360854 -0.2332191616 0.9030214548
-0.05124222487 -0.0938808322 1.069061637 -0.4813974202 -0.2532547712 0.835909903
-0.0585847944 -0.09157916158 1.066580653 -0.4089268744 -0.2361073643 0.8746988177
-0.06354405731 -0.08937438577 1.065763831 -0.365672946 -0.2236361355 0.8988310695
-0.05999277905 -0.08787868172 1.072461605 -0.4231183827 -0.2248552591 0.8752627373
-0.06083747 -0.09793351591 1.066110373 -0.3878878951 -0.2372539937 0.883323729
-0.0658280924 -0.09424680471 1.064351678 -0.295542568 -0.2415743321 0.9111434221
-0.07123750448 -0.1025463864 1.060945988 -0.1777014583 -0.2262261212 0.9464210272
-0.07213579118 -0.107870169 1.059829235 -0.1521265358 -0.2155725062 0.9539996386
-0.06374883652 -0.1044510081 1.064340711 -0.3228976727 -0.2331467867 0.9028235078
-0.07274255157 -0.09178870171 1.061589599 -0.1637647897 -0.2431913167 0.9507938623
-0.09384038299 -0.09963812679 1.070510864 0.1965507567 -0.2079207599 0.9415586591
-0.08611970395 -0.1022432074 1.069837213 0.01156064402 -0.1494420171 0.9599958658
-0.07414545864 -0.1030945927 1.066238999 -0.1962294877 -0.1339991838 0.9652739763
-0.07255800068 -0.09621354192 1.069310546 -0.2093023062 -0.1807219982 0.9251806736
-0.08201792836 -0.09270662069 1.062560201 0.08269059658 -0.220118165 0.9658317566
-0.07352413237 -0.08773011714 1.064885497 -0.1616330743 -0.2339181155 0.9372875094
-0.07853352278 -0.08814910054 1.062473774 -0.02819712274 -0.2499766052 0.960223794
-0.07668039948 -0.1123823673 1.058018208 -0.04451934621 -0.1984860897 0.9758405685
-0.07619128376 -0.09604808688 1.060464263 -0.07679855824 -0.2277027965 0.9651579261
-0.07684592158 -0.1048360988 1.059257746 -0.04825869948 -0.210566178 0.971067369
-0.0807146728 -0.1013091952 1.060896993 0.0582016781 -0.2024820447 0.9704061747
-0.01890205592 -0.09966412932 1.081668258 -0.4607768357 -0.114474535 0.8797468543
-0.02750244178 -0.099221766 1.077010036 -0.4797405005 -0.1619172841 0.8582826257
-0.04229838029 -0.09938491881 1.070211291 -0.501755476 -0.2395327836 0.8291474581
-0.03976574168 -0.0895280242 1.082136869 -0.4853594899 -0.2675144374 0.8315734863
-0.0328700617 -0.0986552164 1.074262857 -0.4920400977 -0.1927552521 0.8442748785
-0.02861775644 -0.09447293729 1.082353473 -0.4718776941 -0.1877218634 0.8570255041
-0.0344857052 -0.09380025417 1.079692364 -0.4837513864 -0.2216424346 0.8426607847
-0.08438301831 -0.1185359359 1.059095383 0.1623829454 -0.1023510173 0.9757128358
-0.1297288388 -0.1119915396 1.083538294 0.1297761202 -0.2218769491 0.942032218
-0.1234043837 -0.1160405129 1.082280755 0.109276168 -0.1189118624 0.9476359487
-0.1209101677 -0.1262200475 1.081176877 -0.03472832963 0.04616298899 0.951362133
-0.1120523661 -0.1189692095 1.080330968 0.1411937326 0.002979966346 0.9569278359
-0.1191586331 -0.1110171229 1.081984997 0.2181127667 -0.1620582491 0.9500302672
-0.114009358 -0.1125659719 1.081084967 0.2291004509 -0.1035720333 0.9542840123
-0.1183281541 -0.120861575 1.081160188 0.06793956459 -0.01348241791 0.952411294
-0.05266007036 -0.09117981046 1.078016281 -0.4905858338 -0.2255336046 0.8404916525
-0.04795654491 -0.09314134717 1.080419302 -0.4754443765 -0.23745884 0.8463321924
-0.05828680471 -0.1019380242 1.072708488 -0.4411534369 -0.2123800516 0.8704282045
-0.05897687376 -0.0959604755 1.072692275 -0.4304083884 -0.2051934004 0.8768696189
-0.08311550319 -0.111581929 1.059712052 0.1403949559 -0.1328101009 0.9787221551
-0.1396513134 -0.1139472649 1.106633067 0.102054894 -0.1666392088 0.9457390904
-0.134012118 -0.1290481091 1.083331704 0.005670754239 0.08708766103 0.9696383476
-0.1275466233 -0.1309267431 1.084728599 -0.07291209698 0.1182186827 0.9600722194
-0.1394196749 -0.116878435 1.101467013 0.09331607819 -0.1173241585 0.9522554874
-0.1354986876 -0.124971658 1.089648485 0.03127668798 0.01859189942 0.963109076
-0.129645586 -0.1335836649 1.078325033 -0.05415775999 0.1630936712 0.9710019231
-0.1350234896 -0.1315385848 1.078041792 0.01220419351 0.1290794611 0.9778033495
-0.1306105256 -0.1271374822 1.089346766 -0.0296769049 0.05467514321 0.9576622248
-0.1363348067 -0.1217671558 1.094861865 0.04756454006 -0.03527786955 0.9572530985
-0.1216744184 -0.1350664794 1.081564903 -0.1493172348 0.1874495298 0.9572122693
-0.1337650418 -0.1150107011 1.093542576 0.0773665756 -0.1681205332 0.9429789782
-0.1337520331 -0.110497646 1.08653307 0.1311849654 -0.2626462877 0.9394946694
-0.1298028529 -0.1225895658 1.092923641 -0.01405368559 -0.02839677595 0.9475740194
-0.1392017007 -0.1076577976 1.09909606 0.1664776355 -0.2960770726 0.9390230179
-0.1262174249 -0.1242436692 1.08432734 -0.03471785411 -0.01088720653 0.9477190375
-0.1363548785 -0.1117170528 1.096510887 0.1173232049 -0.2246994376 0.9412556887
-0.1336949915 -0.1186913773 1.09900856 0.03345317766 -0.09141373634 0.9457951784
-0.1294096261 -0.1175452396 1.0839113 0.04600116238 -0.1358575076 0.943560183
-0.1046346202 -0.1096068546 1.077802062 0.2879575491 -0.1008094996 0.9510885477
-0.1081038713 -0.107307516 1.073159814 0.2523309588 -0.1504034698 0.9444735646
-0.1219370142 -0.1170220673 1.067970157 0.05380545929 -0.04994898289 0.9909409285
-0.1016544923 -0.102201134 1.072387338 0.2763076127 -0.1970970184 0.9368926883
-0.1088075042 -0.1089147031 1.06588614 0.1550669223 -0.123769924 0.9644838572
-0.1050928161 -0.1049185544 1.068867087 0.1987051219 -0.1637316942 0.9538120031
-0.1001355127 -0.1023683026 1.067348361 0.2381409556 -0.1863480955 0.9435979128
-0.1343728155 -0.1064351797 1.070931554 0.03245507181 -0.0498540625 0.9844626188
-0.1277295202 -0.1099191383 1.07121408 0.04694865271 -0.04942074046 0.983404994
-0.1187328175 -0.1103531048 1.072112799 0.1184493154 -0.08124469966 0.9702179432
-0.1155043989 -0.103235662 1.075253844 0.1848604232 -0.1156566516 0.9598938227
-0.1244478449 -0.105315581 1.074414492 0.1064595729 -0.07437446713 0.9742526412
-0.1134097651 -0.1127561182 1.066217661 0.1131609529 -0.08723119646 0.9771847129
-0.0899509266 -0.1038792729 1.063196778 0.2582815886 -0.1810353249 0.9441095591
-0.09163457155 -0.1046887413 1.071609616 0.1240398362 -0.1476416737 0.9540035725
-0.08536251634 -0.1085348055 1.068426013 0.03962407261 -0.1343951374 0.9599707127
-0.09647873044 -0.1072273925 1.072717428 0.2342940569 -0.1513980925 0.9472564459
-0.07975634933 -0.1063732877 1.066953659 -0.08162321895 -0.1291352957 0.9674777985
-0.06650200486 -0.110798724 1.069421411 -0.30772385 -0.1577227116 0.9136043787
-0.07918032259 -0.1120033041 1.069958687 -0.05587688461 -0.1506534368 0.9283484221
-0.07135115564 -0.1085099801 1.067974448 -0.228991285 -0.1435867846 0.9393793941
-0.08791600168 -0.1130105704 1.062393904 0.2698191106 -0.1238034219 0.9543318748
-0.09728120267 -0.1083972603 1.065435171 0.2501898408 -0.1290501803 0.9534322619
-0.1094246432 -0.1199844331 1.065710425 0.1619160473 -0.0545774214 0.9729389548
-0.1060400233 -0.1146253198 1.065764308 0.1817655712 -0.0848819688 0.9678191543
-0.09300291538 -0.1115598157 1.064893723 0.2974638045 -0.1228064597 0.9454810619
-0.1001247689 -0.1149574891 1.065263629 0.2381073833 -0.09436410666 0.9574272633
-0.09450989217 -0.1168617979 1.064690828 0.2951356173 -0.09624060243 0.9473264217
-0.1035089195 -0.1213119105 1.065148592 0.2204843313 -0.05959806964 0.9623979926
-0.04957565293 -0.1095858812 1.064170122 -0.4919382036 -0.1591882408 0.8479981422
-0.0558681339 -0.1021307781 1.066712379 -0.4448899031 -0.2386249304 0.8607718349
-0.04765437916 -0.1040665656 1.065535784 -0.5067771077 -0.2096048445 0.8300899267
-0.1113411114 -0.1830548048 1.091335893 -0.2245031297 0.5038540363 0.8322390318
-0.1306130141 -0.1926819682 1.110753417 -0.04832952097 0.5499770045 0.8301897049
-0.1254909635 -0.1894530803 1.102308273 -0.1035042703 0.530133009 0.8360894918
-0.1423400193 -0.1843936443 1.088922381 -0.001271651709 0.4303306937 0.8996457458
-0.1381839961 -0.1877894849 1.096704841 -0.0194007419 0.4771571755 0.8739788532
-0.1362708211 -0.1901241243 1.102738857 -0.02245944925 0.5069821477 0.8575764894
-0.1426555365 -0.1850691438 1.105587363 -0.008799759671 0.4824436307 0.8683640957
-0.144971326 -0.1786825955 1.095534325 -0.006299584173 0.4547601044 0.8826501369
-0.1367158294 -0.1914391816 1.111882806 -0.01355133299 0.5350560546 0.8412135243
-0.114703998 -0.130962804 1.077784657 -0.01461540442 0.1560035944 0.9671345949
-0.1034601182 -0.12070968 1.072946072 0.1961003095 -0.02648635209 0.9568418264
-0.108220987 -0.121972315 1.076012731 0.1632704586 0.03090705909 0.9646764398
-0.1010252684 -0.1150065362 1.074071646 0.2715543807 -0.09471730888 0.9511903524
-0.1091022864 -0.1304762065 1.072345614 0.08692670614 0.1137050986 0.9693188071
-0.09864487499 -0.1197867841 1.069862723 0.2563724816 -0.07136867195 0.9496435523
-0.09985724837 -0.1247901171 1.068373322 0.2273908705 -0.009477307089 0.9538210034
-0.1169719398 -0.1291379035 1.072005391 0.01658198237 0.1148241833 0.9839383364
-0.1058460996 -0.1260535866 1.068097115 0.162785247 0.02185407095 0.9653711915
-0.1156025603 -0.1208117977 1.066643834 0.09836532176 -0.03057104908 0.9835530519
-0.06220363453 -0.1066865548 1.06967032 -0.3970058858 -0.1989033818 0.8934162259
-0.06514711678 -0.0994226262 1.06896317 -0.3487707675 -0.1777521819 0.9146909118
-0.03425629064 -0.09343177825 1.087391973 -0.4607108831 -0.1766682118 0.868885994
-0.03629427031 -0.08808869123 1.089398503 -0.4665755332 -0.2603757083 0.8445735574
-0.03072416037 -0.09006837755 1.090970755 -0.4688363969 -0.1821675003 0.8608722091
-0.02415691875 -0.09542705119 1.087161303 -0.4659656882 -0.1184242517 0.8766465187
-0.04009046033 -0.105410099 1.081102848 -0.5382713079 -0.08103815466 0.8339822292
-0.03822517768 -0.09508265555 1.084388852 -0.4684165716 -0.2148179114 0.8561977744
-0.03574294969 -0.1008732319 1.084285975 -0.4920088649 -0.1505400985 0.852616787
-0.06220157444 -0.1239119098 1.063292861 -0.3067512214 -0.111305207 0.9368758202
-0.05583698675 -0.1227617562 1.061540723 -0.3972942531 -0.09010224044 0.9109041095
-0.04816025123 -0.1223907694 1.069567561 -0.5131261349 -0.03345370293 0.853309989
-0.04864471033 -0.1219695732 1.063078642 -0.5012062788 -0.03902979568 0.8632549644
-0.04960567877 -0.1134108678 1.074795365 -0.5023321509 -0.1153351218 0.8534898162
-0.04442549497 -0.1131478474 1.077826977 -0.5403888822 -0.07262055576 0.8352396488
-0.04524276778 -0.1192248613 1.076813698 -0.5418917537 -0.06430265307 0.8346210718
-0.05709378794 -0.1089050919 1.071803689 -0.4393874407 -0.190729782 0.87689358
-0.05260439217 -0.1080315337 1.07419157 -0.462046355 -0.1787117869 0.86760813
-0.05069606006 -0.103219904 1.07656467 -0.4584108591 -0.2058374286 0.8631979227
-0.04393521324 -0.1003036499 1.08079052 -0.497153759 -0.1720281094 0.8438153863
-0.04593505338 -0.1069387123 1.077884316 -0.5102624893 -0.1188425794 0.8460769057
-0.1149958447 -0.1713559777 1.084980845 -0.1547014862 0.3643995225 0.9167931676
-0.1125967503 -0.1633865982 1.083494067 -0.1416516155 0.3151935041 0.9379935265
-0.116114974 -0.1589187682 1.080388188 -0.1483250111 0.3205145001 0.9346836805
0.01029040664 -0.1911097616 1.194664955 0.5872283578 -0.2246752232 0.7767449617
0.02126160823 -0.1871135831 1.202119946 0.6051962376 -0.2289526612 0.7609326839
0.01921930164 -0.1924997568 1.198748946 0.5661706924 -0.2433427721 0.7815958858
0.01704594493 -0.1980389059 1.195531249 0.5247129202 -0.2586297393 0.8035469055
0.01406216063 -0.2034441531 1.1953336 0.4686175883 -0.2793141305 0.833248198
0.02227994055 -0.1872172952 1.193971634 0.6144377589 -0.2255449593 0.7560395002
-0.007924269885 -0.2301461548 1.184628129 0.3703064024 -0.6246981025 0.6684312224
-0.003293223912 -0.2247293293 1.186766148 0.415122807 -0.5421759486 0.7115473747
-0.008586759679 -0.2212786376 1.190053225 0.3602391779 -0.5027974248 0.7701003551
0.0009726417484 -0.2216115743 1.187622905 0.4571149647 -0.4921181202 0.7303285599
0.009648160078 -0.2137886137 1.198141694 0.4263092577 -0.3412998915 0.8358728886
0.007417149376 -0.2164257914 1.193570971 0.4290135503 -0.3734793365 0.8185915351
-0.1384792328 -0.1231379807 1.071062684 0.01183559094 0.02748804539 0.9987353683
-0.1333383173 -0.1242559776 1.070239782 0.01134032849 0.04186291248 0.9957118034
-0.1375060081 -0.1299590617 1.072523594 0.004650245886 0.1185632199 0.9902561307
-0.1322846711 -0.1294313818 1.071281075 0.005931727588 0.1109300405 0.9891748428
-0.1480177641 -0.1246762425 1.072228909 0.03338108212 0.05793307349 0.9968893528
-0.1491719633 -0.1177968457 1.070753098 0.02957543917 0.03522003815 0.9960653782
-0.1409426332 -0.1171300411 1.070903063 -0.01005165838 0.01506391633 0.9987856746
-0.1354506314 -0.1179281846 1.069638014 0.0001565924176 0.0002180209558 0.9989560843
-0.1283147037 -0.1178461984 1.067850471 0.009988711216 -0.02284255251 0.9992014766
-0.139108479 -0.1122691259 1.069821239 -0.0223670993 -0.00717198709 0.998952806
-0.1542909592 -0.1267098635 1.071980596 0.07608389854 0.08488502353 0.9929215908
-0.1449067891 -0.1127940789 1.08614397 0.1271438152 -0.1428562701 0.9634580612
-0.1393846571 -0.1097156778 1.088604808 0.1495137364 -0.2453170568 0.9475516081
-0.1455854923 -0.1104716882 1.098679781 0.1476074606 -0.1949316114 0.955106914
-0.1409249306 -0.1094079837 1.093462706 0.1532989293 -0.2446656674 0.9475374818
-0.1430195123 -0.1072781757 1.108204126 0.1731557846 -0.284758389 0.940987587
-0.1490164697 -0.1167682186 1.076311588 0.09602903575 -0.02630072273 0.981719017
-0.149271816 -0.1146181822 1.095523357 0.127266556 -0.11222101 0.9655399919
-0.1471138597 -0.1097696349 1.10544467 0.1548606753 -0.2040333897 0.9535222054
-0.1512642056 -0.1179438084 1.085318565 0.1019651666 -0.0273599606 0.9785571694
-0.1483673304 -0.1141739935 1.101123452 0.138589859 -0.1508307308 0.9578517675
-0.1530558616 -0.1220714524 1.077173948 0.07903920114 0.04886028171 0.9883646965
-0.1534018219 -0.127630055 1.079923987 0.07388544083 0.06319504231 0.9823092818
-0.1496373415 -0.1247191802 1.098842144 0.1469879448 -0.02732248977 0.9477671385
-0.1516250968 -0.1302837878 1.090634346 0.1219020635 0.05851719901 0.9569197297
-0.1532650441 -0.1331891119 1.083351374 0.09378444403 0.1086216718 0.9685689211
-0.1486042738 -0.1203194484 1.102650523 0.1533876657 -0.09046401083 0.9466758966
-0.1509672254 -0.1246061176 1.092187047 0.1133158207 -0.01703523286 0.9632167816
-0.1436818689 -0.1705832928 1.088371515 -0.05242628977 0.3442443311 0.9352321029
-0.1384209692 -0.1735842079 1.088876009 -0.05943418294 0.3591182828 0.9298200607
-0.1385488212 -0.1796859801 1.094070077 -0.02836823836 0.4408763051 0.8907106519
-0.1336701512 -0.1782495379 1.090537667 -0.05522783473 0.3912635446 0.9175170064
-0.1509805024 -0.1719312519 1.09043324 -0.01192962378 0.365849942 0.929056704
-0.1334765106 -0.1853581816 1.098330855 -0.02364880405 0.5157512426 0.8516305685
-0.1297255903 -0.1801780611 1.093476057 -0.1203623042 0.4094357789 0.8948842287
-0.1323779076 -0.1705969125 1.087252975 -0.135901168 0.3233861327 0.9345905185
-0.06740125269 -0.1149301007 1.061715841 -0.2331032157 -0.1850856096 0.9493547082
-0.06666658819 -0.1093517244 1.062338591 -0.2578457892 -0.2183770388 0.9239406586
-0.06185891479 -0.1181269735 1.061886311 -0.315747261 -0.1444271803 0.9330205917
-0.07082834095 -0.1172498316 1.058753133 -0.1561254859 -0.1779251248 0.9626184702
-0.05521095172 -0.1119143963 1.063876033 -0.439037621 -0.1494531929 0.8778656721
-0.05795926973 -0.1076597944 1.065218925 -0.4141328931 -0.1960376054 0.8826215267
-0.06219778582 -0.1128031239 1.063646674 -0.3298498094 -0.1795433313 0.9209179282
-0.06446362287 -0.1154532582 1.067964435 -0.3178442121 -0.1771699339 0.9158152342
-0.05441709235 -0.1203199551 1.071524143 -0.4321930408 -0.08481161296 0.8700177073
-0.05961839855 -0.1175302044 1.069720268 -0.3755051196 -0.1336730421 0.8935992718
-0.06888449192 -0.1242084131 1.064821124 -0.1661693603 -0.1756400466 0.9411646128
-0.08049666882 -0.122240454 1.064255238 0.02765553817 -0.2009655833 0.9650642276
-0.0785177201 -0.1175713018 1.067320108 -0.03671567515 -0.1789945364 0.941665411
-0.09098180383 -0.1149172932 1.07016778 0.1891771257 -0.1525676101 0.941572547
-0.07395828515 -0.1143244505 1.06919229 -0.1429666579 -0.1669813395 0.9223003387
-0.08368083835 -0.1152681783 1.069331288 0.05011739954 -0.1618599147 0.9360904694
-0.06949349493 -0.1184943393 1.065948129 -0.2058577389 -0.192995429 0.9371400476
-0.08493878692 -0.1244641617 1.061980724 0.1598968655 -0.1637869328 0.9723039865
-0.09613217413 -0.1146396399 1.070764422 0.2875463665 -0.1452870667 0.9452066422
-0.08876930177 -0.1191841364 1.066828609 0.1768638045 -0.1683058143 0.9576436281
-0.07540947199 -0.1250993907 1.061659455 -0.05399668589 -0.2187846899 0.9738016129
-0.07078531384 -0.1232599318 1.059029698 -0.144007504 -0.1707734317 0.9696676135
-0.08019981533 -0.1223008633 1.059026003 0.06327734888 -0.1638602018 0.9783329368
-0.07610367984 -0.1184325293 1.057000041 -0.04360358045 -0.1810902953 0.9801415801
-0.1088336036 -0.1739682555 1.087828159 -0.1442032158 0.3839758933 0.9050100446
-0.1133206636 -0.1714320332 1.090000033 -0.1476805806 0.3898215592 0.9047127366
-0.1182110682 -0.1702191979 1.091794133 -0.1125245616 0.3619908392 0.9190331697
-0.1257912964 -0.1768267453 1.092715859 -0.1461920589 0.3795942366 0.9055112004
-0.124324277 -0.183082819 1.101537228 -0.07597745955 0.4664340019 0.8737404943
-0.1315245479 -0.1884703487 1.102983594 -0.02295397781 0.5488860011 0.8337337971
-0.1188089997 -0.1773144156 1.094671249 -0.1136003658 0.4184111059 0.8961070776
-0.1152666584 -0.1832318306 1.095154762 -0.1781033576 0.4938482344 0.8438311815
-0.1204337031 -0.1868364662 1.10090518 -0.1351278126 0.517387569 0.8362701535
-0.1145146862 -0.1775047332 1.091573119 -0.1626261175 0.4336290658 0.8805671334
-0.1187795922 -0.1852054149 1.090216637 -0.1860973388 0.4900128245 0.8512528539
-0.122444436 -0.1871484071 1.095068812 -0.1446780413 0.5090541244 0.8452503681
-0.003503084416 -0.2291688323 1.196527004 0.4015962481 -0.5383684039 0.7315028906
0.004613545258 -0.2206038237 1.198763013 0.429620862 -0.4226312041 0.792535007
0.001373249921 -0.224496901 1.196092844 0.4128317535 -0.4691628218 0.7740130424
-0.001736303209 -0.2285729796 1.190879107 0.3957907856 -0.534124732 0.7361840606
-0.006435818039 -0.2355014384 1.181529403 0.3867101967 -0.693733573 0.6061158776
0.02234389074 -0.1741145253 1.197661638 0.5998444557 -0.2209821939 0.7685395479
0.02295297943 -0.1679119021 1.196407557 0.5806071162 -0.2149673998 0.7850174904
-0.03033864498 -0.1147029102 1.090198398 -0.514271915 -0.0811939463 0.8527448177
-0.02686556987 -0.1056411937 1.088989377 -0.4953253567 -0.09633446485 0.8627107739
-0.03132420778 -0.1008990556 1.090111136 -0.4783572853 -0.117453739 0.8687605858
-0.03942470998 -0.1109307557 1.081220865 -0.5581599474 -0.03847109526 0.8287353516
-0.03578033298 -0.118034102 1.085373402 -0.5478292108 -0.0507507734 0.8347875476
-0.03185760602 -0.1074911579 1.089612246 -0.4928997755 -0.109505251 0.8608366847
-0.03470233828 -0.1099942401 1.084127903 -0.5232240558 -0.08145753294 0.843730092
0.02201861516 -0.1912201941 1.190211296 0.6144377589 -0.2255449593 0.7560395002
0.01334638055 -0.1861772239 1.192660809 0.5902844071 -0.2189895958 0.7763217092
0.0207458064 -0.1855151355 1.186175346 0.6196308732 -0.2312045395 0.7499445081
-0.1550842226 -0.1335639209 1.073359013 0.053094998 0.1353323907 0.9890365005
-0.1496973783 -0.1320042908 1.072634935 0.04837338254 0.118775174 0.9909814
-0.1428149194 -0.129207477 1.072943807 0.01163249929 0.09835343063 0.993660748
-0.1543214321 -0.1536011249 1.08149457 0.09571422637 0.2758567333 0.9563328028
-0.1292711645 -0.1550514698 1.082504749 -0.07053635269 0.346719563 0.9324486256
-0.1185920984 -0.1461561024 1.083014727 -0.1487444937 0.2707332969 0.9476702809
-0.1242426634 -0.1512865126 1.082892776 -0.1053198278 0.3131122589 0.939260304
-0.1196882948 -0.15269503 1.084926367 -0.1135896295 0.3073855042 0.9413827658
-0.1256049722 -0.1762117147 1.085173249 -0.1728615016 0.3756593168 0.9079309702
-0.1354084313 -0.181823045 1.080426574 -0.06536449492 0.386010021 0.9146444201
-0.129511252 -0.179147616 1.083317637 -0.1292446554 0.3773383796 0.9116744995
-0.1151338443 -0.182264179 1.086963415 -0.1946785897 0.377854228 0.9051389098
-0.1213264242 -0.1805876344 1.086751103 -0.1960556507 0.3599695265 0.911925137
-0.1289033443 -0.1489205062 1.074537873 -0.1003464088 0.294516176 0.9473471045
-0.1223078445 -0.1315115243 1.071065307 -0.03793533146 0.1350719631 0.9772146344
-0.1208146662 -0.1363842338 1.072944045 -0.05503711477 0.2018241435 0.969592452
-0.1343995929 -0.1343785226 1.072941303 0.0001272283844 0.1772537231 0.9839149714
-0.1263780892 -0.1254913956 1.06898129 -0.006505396683 0.05392286181 0.9889684319
-0.1272765994 -0.1328992397 1.070858598 -0.04349284619 0.1469553262 0.9754655361
-0.1321645081 -0.1397416443 1.073085189 -0.03853846341 0.2263498008 0.970559895
-0.1272289604 -0.1439411044 1.073045611 -0.1038375124 0.2761301994 0.9536749125
-0.1215746105 -0.1422579587 1.073960066 -0.109771125 0.2703269422 0.953712225
-0.130022049 -0.184945941 1.086996436 -0.1122436821 0.4695263207 0.8700195551
-0.1243228093 -0.1847338825 1.086997986 -0.1502725929 0.4418041408 0.8785372972
-0.1284802556 -0.1858142614 1.092572331 -0.137658447 0.505037725 0.8503079414
-0.1335995644 -0.1883880794 1.093481064 -0.05931288376 0.4902588427 0.8657367826
-0.1393623501 -0.185898006 1.082980633 -0.01290877722 0.4309959412 0.899166286
-0.1291311681 -0.188713938 1.097646475 -0.1043503135 0.5193068981 0.8469679952
0.008141962811 -0.1839114875 1.201999903 0.573636651 -0.2127879858 0.7909881473
0.01616843976 -0.1981814206 1.202630997 0.5420041084 -0.2832396328 0.7832322717
0.01364689507 -0.1797528714 1.202257037 0.5801899433 -0.2148369551 0.7853748798
0.02190577425 -0.1815200597 1.19991231 0.6144377589 -0.2255449593 0.7560395002
0.02241401002 -0.1801280975 1.193283796 0.6144377589 -0.2255449593 0.7560395002
0.01789792441 -0.1702172905 1.198127508 0.573636651 -0.2127879858 0.7909881473
0.01919728331 -0.1691560894 1.192026496 0.5919083953 -0.2185008824 0.7753372788
0.02259735391 -0.1753664762 1.189077139 0.6144377589 -0.2255449593 0.7560395002
0.01119053923 -0.180892393 1.196605325 0.573636651 -0.2127879858 0.7909881473
0.0138727501 -0.1730303615 1.196339965 0.573636651 -0.2127879858 0.7909881473
0.0171592515 -0.1751838475 1.19186902 0.5883187652 -0.2173785418 0.778412044
0.01973799057 -0.1798846722 1.18764329 0.6053776741 -0.2227122188 0.7637999654
0.01472411677 -0.1804058999 1.192854643 0.5863032341 -0.2167483568 0.780138433
0.008030756377 -0.2141704857 1.187996268 0.5020532608 -0.379150182 0.7708268166
0.01212579943 -0.2095378786 1.194950223 0.439291358 -0.304669857 0.841321826
0.01266030036 -0.2071130872 1.188200474 0.5358803868 -0.3168522716 0.7766491771
0.006937951781 -0.1995450556 1.194351912 0.5490421057 -0.286557585 0.7816200256
0.01354505867 -0.1960641295 1.190356851 0.6092780828 -0.2529271841 0.7508701086
0.01853471808 -0.1960819215 1.187719822 0.6131544113 -0.2451669872 0.7503210306
-0.1556498259 -0.1386967301 1.075456858 0.07375241071 0.1937823445 0.9756368995
-0.1591103971 -0.1438226104 1.075015187 0.1101438552 0.2639273703 0.9581943154
-0.142151922 -0.1237082854 1.094189644 0.09315084666 -0.02972800657 0.9594171643
-0.1442196369 -0.1351883411 1.084850669 0.06122870371 0.1134462059 0.9638344049
-0.1448467523 -0.1076390743 1.114492536 0.1745344698 -0.2733428478 0.9414243698
-0.142614916 -0.1305445582 1.087634325 0.06909638643 0.06147047877 0.9636710286
-0.1422416866 -0.1373899281 1.079987764 0.03951492906 0.1592594087 0.9696987271
-0.1461798549 -0.1137877852 1.108923912 0.1618987471 -0.1870310307 0.9438475966
-0.1470101327 -0.1275905818 1.094753861 0.1154199541 0.008499621414 0.9531545043
-0.1507144868 -0.1415917575 1.082091689 0.09397865832 0.2110888213 0.9577862024
-0.149282679 -0.1343475878 1.088932991 0.109426558 0.1069894284 0.954575181
-0.1349451542 -0.1441214532 1.073405385 -0.02113739029 0.2486975938 0.9682379365
-0.138887167 -0.1390019953 1.073142886 0.0007523935637 0.193314895 0.9792750478
-0.1238435656 -0.1409802437 1.079629779 -0.144979924 0.2481783628 0.9528198242
-0.1384222358 -0.1486527026 1.078064919 -0.02044534869 0.2910822332 0.9517742991
-0.1321899146 -0.1436134428 1.078253269 -0.07457764447 0.2564049959 0.956782341
-0.1290744692 -0.1492343396 1.080571055 -0.09749989957 0.3146535456 0.9381825924
-0.128750965 -0.1390066147 1.077528238 -0.09628693759 0.2220861316 0.9643481374
-0.1495456845 -0.1458632052 1.078287721 0.07046019286 0.2676370144 0.959023118
-0.1402275711 -0.1567403823 1.080594897 0.01764941216 0.350759536 0.9337465167
-0.1453990042 -0.1526459754 1.080400229 0.05026236922 0.3241828084 0.9410537481
-0.1540638208 -0.1464011669 1.075105429 0.09452813119 0.280223012 0.9544791579
-0.1446623653 -0.1402432323 1.074391723 0.02717505395 0.1966169775 0.9786859155
-0.1493857056 -0.1672671586 1.087712169 -0.04195449874 0.3275019228 0.9413878322
-0.1423473209 -0.1652909666 1.085420966 -0.07596387714 0.3055235445 0.9463575482
-0.1434065849 -0.1605017483 1.082324743 0.003576777177 0.3095977306 0.9457657337
-0.1542416066 -0.1731001288 1.084990859 0.03762644157 0.3694477975 0.9276922345
-0.1585795283 -0.1622969806 1.084925652 0.06015203521 0.3188795149 0.9434794784
-0.1579954326 -0.1683137417 1.088603258 0.01924702898 0.3403414488 0.9389528632
-0.1252254993 -0.1599512398 1.078730106 -0.1640096307 0.3468210995 0.9226500988
-0.12752226 -0.1715040654 1.082211256 -0.1490723789 0.3726927042 0.9121883512
-0.1332198828 -0.1754301339 1.079751134 -0.0872637704 0.3802354932 0.9153065085
-0.1346458346 -0.171517238 1.076939344 -0.06689546257 0.3709129095 0.9218409061
-0.1292769909 -0.1674494296 1.079092145 -0.1247686893 0.3629620373 0.9193355441
-0.118610166 -0.1647425443 1.081754565 -0.1714415252 0.3468719125 0.9215656519
-0.1234334335 -0.1660442054 1.082144976 -0.1792313755 0.3599770963 0.9150446653
-0.1198584214 -0.1740277261 1.086074948 -0.1873520017 0.3747117817 0.9078855515
-0.1234797835 -0.1474076211 1.07425642 -0.1417738646 0.2979040444 0.9437705278
-0.1194390878 -0.1504443288 1.076632977 -0.1704086512 0.3081996739 0.9358435273
-0.1174223125 -0.1405674517 1.081100345 -0.1830868274 0.2402964383 0.9522790909
-0.1088889912 -0.1682582051 1.086769581 -0.1324630082 0.3121032715 0.9407422543
-0.1147129536 -0.1394202411 1.0748142 -0.09046043456 0.2382850498 0.9503853321
-0.1035981923 -0.1320385337 1.069361091 0.1074575707 0.08756898344 0.9424496889
-0.1114596426 -0.1605314314 1.088309169 -0.1211067885 0.3159838021 0.9405865669
-0.11381457 -0.1535889655 1.081950307 -0.1775835901 0.3005674481 0.9365676641
-0.1163532212 -0.1451909691 1.077170372 -0.1840615422 0.2925752997 0.9366038442
-0.1016329229 -0.1376494169 1.07159245 -0.03144330159 0.08739284426 0.9523659348
-0.1111350581 -0.1449417472 1.077294827 -0.1345645487 0.2293328941 0.9397588968
-0.09440282732 -0.1318214685 1.067281723 0.06285576522 -0.02167733572 0.960540235
-0.1075404063 -0.1415116936 1.074950218 -0.0719339326 0.1730439514 0.9427219033
-0.1073661447 -0.1369614005 1.07151258 -0.03355964646 0.1531919837 0.9442666769
-0.09357731044 -0.1259690225 1.064819574 0.2265567333 -0.05421254039 0.9507986307
-0.1446918398 -0.1587738395 1.076774836 0.09524405003 0.2823593318 0.9544742107
-0.1506705284 -0.1505961567 1.076421738 0.09905513376 0.298692286 0.9489696026
-0.1594359577 -0.1491282284 1.077508569 0.113853313 0.2742699981 0.9547986388
-0.1255939305 -0.1542347223 1.076053739 -0.1532877088 0.3325821757 0.9300717711
-0.1367684156 -0.1540851146 1.075527072 0.00975954812 0.2778351307 0.9556768537
-0.1441244632 -0.1799912155 1.078303695 0.02332719229 0.3799836338 0.9233283401
-0.1478435099 -0.1681689322 1.080989838 0.06345654279 0.3273293078 0.9407542944
-0.1427844167 -0.1722334325 1.077243328 0.0535104759 0.3359830976 0.937353313
-0.1502095014 -0.1772804558 1.082826853 0.02719950862 0.3809877336 0.9237393141
-0.1497899443 -0.1631302983 1.081883669 0.06023131683 0.2965639234 0.9525502324
-0.153436929 -0.1589481384 1.081241012 0.08056885749 0.2910729051 0.9525436163
-0.1384918094 -0.1671005189 1.076781154 0.008368381299 0.3298985064 0.9373019338
-0.1327100843 -0.159929961 1.076462269 -0.05901317298 0.323821336 0.9363855124
-0.1393432319 -0.1769890338 1.07683301 -0.0129665304 0.3763622046 0.9227783084
0.01416681428 -0.1890178919 1.203397751 0.5473169684 -0.2494778186 0.7923515439
0.003902901197 -0.1962488294 1.198639393 0.5205125809 -0.2731252909 0.8043676019
0.005453250371 -0.1911662072 1.198872089 0.5332285166 -0.2354821265 0.8086420894
0.005728895776 -0.2089001834 1.202187657 0.4323461056 -0.3405628502 0.8336550593
0.005196033511 -0.1999739408 1.202912927 0.4502210617 -0.307579726 0.8359264135
0.01014602743 -0.2013764083 1.202800393 0.4894805253 -0.3063304126 0.8100091219
0.01189570501 -0.1944079399 1.20317471 0.5162165761 -0.275565505 0.8034671545
0.01213376783 -0.20654504 1.202499628 0.4973115921 -0.3245384097 0.7979857326
0.0002584203612 -0.2052906156 1.202000022 0.4053480923 -0.3130515814 0.8580792546
-0.004575955216 -0.2035681903 1.199624896 0.4026573896 -0.3341251612 0.8482543826
-0.0003464472538 -0.1978466213 1.202439904 0.4282540977 -0.2933602333 0.8546218872
-0.01779279485 -0.2316600829 1.196181059 0.3486140966 -0.6189394593 0.6991350651
-0.02308285236 -0.231855303 1.196377873 0.3394418061 -0.6437805295 0.6785215139
-0.002609399147 -0.2082018852 1.196043968 0.4328707159 -0.3460904062 0.831153214
0.003525820561 -0.2063759565 1.192726374 0.4829987884 -0.3258269429 0.8076546788
-0.0008733514696 -0.2152185589 1.191866517 0.4350636601 -0.3916790485 0.8065037727
0.007766847499 -0.2075810581 1.189224958 0.5116273165 -0.3241648972 0.7883543372
-0.003877939656 -0.2225575745 1.196288228 0.3744141757 -0.4418209791 0.8129720092
0.0007752783131 -0.2167243958 1.199427605 0.4063432217 -0.3884050548 0.8232841492
-0.1431841254 -0.1450744569 1.075345039 0.02533569373 0.2500878274 0.9671244025
-0.06435362995 -0.2623983622 1.175871015 0.08848588169 -0.8094096184 0.5793639421
-0.05854240805 -0.2609449625 1.172688723 0.126231581 -0.8637481928 0.4856823087
-0.06486447901 -0.2599631548 1.169340968 0.1241542473 -0.8580685258 0.4958074689
-0.07214931399 -0.261069864 1.175412178 0.0904392302 -0.8102768064 0.5781098604
-0.07491146773 -0.2597818673 1.166884899 0.1258797199 -0.8535339832 0.5044949651
-0.07519461215 -0.2531991601 1.179077148 0.08507593721 -0.804500699 0.5878270864
-0.07966056466 -0.2554338276 1.176054835 0.08507593721 -0.804500699 0.5878270864
-0.06450219452 -0.2502308786 1.180744171 0.08507593721 -0.804500699 0.5878270864
-0.06953189522 -0.2517742515 1.181000113 0.08507593721 -0.804500699 0.5878270864
-0.0595212169 -0.2530702949 1.176005244 0.1056363657 -0.8301226497 0.5425717235
-0.01027125865 -0.2238401175 1.195199609 0.3150546849 -0.476403147 0.8173004985
-0.006576549262 -0.2176008821 1.197405696 0.3554217219 -0.4143016338 0.8312585354
-0.007389222737 -0.2100778818 1.200053573 0.3618792892 -0.3644488454 0.8483992219
-0.01553957816 -0.2185330242 1.197982073 0.332349956 -0.4752921462 0.800775528
-0.01126622409 -0.2134039849 1.199572086 0.356446892 -0.4137791693 0.822766602
-0.01527044829 -0.2257001102 1.194993377 0.2857239842 -0.5164250731 0.8048620224
-0.009623969905 -0.2301180363 1.195564628 0.3674634099 -0.5598803163 0.737001121
-0.02795227244 -0.231128037 1.193891883 0.2896505892 -0.6351132393 0.708716929
-0.00944124721 -0.2368467897 1.189039111 0.386420846 -0.6672780514 0.6334499121
-0.007380652241 -0.2348140925 1.194122434 0.394700706 -0.621173799 0.6755313277
-0.03989199549 -0.2562611997 1.188587666 0.22188209 -0.7918562889 0.5607357621
-0.03577150032 -0.2528884411 1.186555982 0.2548599243 -0.7949094772 0.5421660542
-0.02802665532 -0.1242601573 1.088728428 -0.5457164645 -0.06514401734 0.8351240754
-0.03225293756 -0.1229735389 1.085902214 -0.5502457619 -0.01084310841 0.8335781693
-0.02390368469 -0.1206258684 1.087599516 -0.5425618887 -0.08305907995 0.8352712989
-0.02073649317 -0.1147629842 1.087292194 -0.5129670501 -0.09808830917 0.8525301218
-0.02579144761 -0.116526708 1.083822966 -0.5395975113 -0.08372465521 0.8365626931
-0.03126254678 -0.1186788604 1.081581116 -0.5586030483 -0.06486818194 0.8261630535
-0.1227630153 -0.1609547287 1.086903811 -0.1044249907 0.3180919886 0.9415752292
-0.1344234645 -0.1590738446 1.082265139 -0.06450422853 0.3519201577 0.9323011637
-0.1173523068 -0.1606448591 1.088580489 -0.1096006483 0.3151783049 0.942504108
-0.1298709959 -0.1602654308 1.084260106 -0.08525105566 0.3337704837 0.9372266531
-0.1343299896 -0.1644605547 1.084450006 -0.1250440925 0.2941745818 0.9475195408
-0.1154987141 -0.1653756946 1.089966536 -0.1309307963 0.3122168779 0.9409373403
-0.1251643747 -0.1698417515 1.088892341 -0.1552684456 0.3195956945 0.9338859916
-0.1283293664 -0.1653919369 1.086413383 -0.1303103864 0.301569432 0.9442971945
-0.07640134543 -0.2604312301 1.172258854 0.1054279879 -0.8264192939 0.5509532094
-0.08155924082 -0.2601796389 1.166171074 0.1259554923 -0.8485268354 0.5137614608
-0.08129582554 -0.2574377954 1.171360731 0.09926702082 -0.8197841048 0.5621156693
-0.0383656472 -0.2487059534 1.19025588 0.2395427227 -0.7919958234 0.5590538979
-0.03555881232 -0.2438914925 1.191528201 0.2655546367 -0.7816957235 0.5636221766
-0.04350742698 -0.2502264082 1.186710596 0.2200720757 -0.8032850623 0.5518516898
-0.07089670002 -0.2547221482 1.176587462 0.09022747725 -0.8119168282 0.5750414133
-0.06434339285 -0.2558310628 1.173955917 0.1081649959 -0.8377396464 0.5305220485
-0.02378601208 -0.2388213575 1.180773139 0.3269158602 -0.7027776241 0.6191703677
-0.02614252456 -0.2282357365 1.189274669 0.2838155329 -0.6005184054 0.7209169269
-0.02468377911 -0.2342722714 1.184391737 0.3089193702 -0.6585180759 0.6629649997
-0.03085197508 -0.2346995175 1.18594873 0.2820176482 -0.6797822118 0.655051887
-0.01497612428 -0.2257903218 1.187685966 0.3274106681 -0.5448534489 0.7515390515
-0.02182695828 -0.2298407257 1.186784863 0.3084510565 -0.6051927805 0.7078957558
-0.02078931034 -0.2234473526 1.191172957 0.2936732769 -0.5366983414 0.770843029
-0.0172382649 -0.2377040535 1.179608583 0.3534460068 -0.6733883619 0.6340402961
-0.02899663523 -0.2399647236 1.181512833 0.3065797389 -0.7287758589 0.6048591137
-0.01116377022 -0.2388433516 1.1809057 0.3802639842 -0.705550909 0.5979474783
-0.01388277486 -0.23349002 1.182009935 0.3549177945 -0.6285979152 0.6712101698
-0.01330582146 -0.2396792918 1.187243581 0.3789247274 -0.6980570555 0.6062227488
-0.02138183266 -0.241987288 1.191030264 0.3613757789 -0.7083024979 0.6044326425
-0.01260199584 -0.2367016524 1.194549561 0.380400449 -0.6447165608 0.6592150927
-0.01920484751 -0.2374350429 1.193610072 0.3538187444 -0.6793587804 0.6411703825
-0.01642894372 -0.242148459 1.182011604 0.3760607839 -0.7107176781 0.5945198536
-0.05761374161 -0.2527522743 1.182302117 0.1069412827 -0.8096856475 0.5756687522
-0.05132342502 -0.2520348132 1.183979392 0.162227869 -0.8092913032 0.5608668923
-0.04652603343 -0.2556753159 1.185799837 0.1879954785 -0.8134337068 0.5489737391
-0.06166006997 -0.256627053 1.181521535 0.1013510898 -0.809333384 0.5776282549
-0.05628019199 -0.2619518638 1.181342125 0.1220211163 -0.8137557507 0.5667589307
-0.02466613054 -0.2427755892 1.177035689 0.3241235614 -0.742528677 0.5826058984
-0.03919726983 -0.2402097285 1.184334278 0.259763211 -0.7589251399 0.5964843631
-0.01929265074 -0.2440666556 1.17384553 0.3465995789 -0.7392666936 0.5746870041
-0.03497381508 -0.2418557405 1.180920959 0.274987042 -0.761528492 0.5851198435
-0.02584761195 -0.2493827194 1.172026277 0.2979919016 -0.7906828523 0.534217
-0.03162851185 -0.2443354875 1.176713586 0.282779634 -0.7719112635 0.5676983595
-0.04783357307 -0.2442773283 1.182086229 0.1597264856 -0.7798717618 0.5993916988
-0.03724649921 -0.2455239147 1.177736163 0.2431823462 -0.7818733454 0.5697896481
-0.03561843187 -0.2493991256 1.17284441 0.2299694568 -0.7970622778 0.5518035889
-0.04315666109 -0.2459707558 1.178854465 0.1885132939 -0.7853725553 0.5821472406
-0.04360664636 -0.2435254306 1.184950233 0.2368136793 -0.7873008251 0.5677130818
-0.04832703993 -0.2611260414 1.181144476 0.1638389528 -0.8405144215 0.5132775903
-0.04304231703 -0.2592597604 1.181674719 0.1933000237 -0.8319215775 0.5164061785
-0.03434262797 -0.2540897727 1.176730871 0.2519453466 -0.8352777958 0.4871281981
-0.04024697095 -0.256379962 1.176707149 0.2180380076 -0.843167007 0.4869988561
-0.03351375461 -0.2539030015 1.169273138 0.2479830235 -0.8194416165 0.5128056407
-0.02851699665 -0.2522053123 1.167679191 0.2731640935 -0.8065280914 0.5241431594
-0.05144414678 -0.2598519623 1.17277348 0.1564176232 -0.8604102731 0.4809569418
-0.04722530767 -0.2566064 1.168869019 0.1888479143 -0.8454427123 0.4929533899
-0.0415966548 -0.2495213747 1.174364209 0.1801690608 -0.7997350693 0.5637782216
-0.05445246026 -0.2500197589 1.177486181 0.1084835008 -0.8118827939 0.5684416294
-0.04869656265 -0.2522908449 1.173340321 0.1562850028 -0.8214208484 0.5390639305
-0.05538892373 -0.2579444647 1.169022322 0.1529340148 -0.8601346016 0.4824733138
-0.03929870203 -0.2527523935 1.170148015 0.2138892114 -0.8174998164 0.5266186595
-0.02587185241 -0.2483278662 1.17803216 0.3114194572 -0.7744936943 0.5469172001
-0.02078848146 -0.2446304411 1.184003353 0.3572803736 -0.7296891212 0.5802205801
-0.03010012209 -0.2514864802 1.175232768 0.2737000585 -0.808914721 0.5198204517
-0.02980969101 -0.2480692118 1.186271667 0.3022099733 -0.7679494619 0.5577256083
-0.02561143041 -0.2444205433 1.188456178 0.3370078802 -0.7287105918 0.5952278972
-0.02558311075 -0.2375782281 1.195100427 0.3674296141 -0.7151016593 0.594463408
-0.02968470193 -0.241217047 1.193549037 0.3298668861 -0.7341488004 0.59248209
