# .PCD v0.7 - Point Cloud Data file format
VERSION 0.7
FIELDS x y z normal_x normal_y normal_z
SIZE 4 4 4 4 4 4
TYPE F F F F F F
COUNT 1 1 1 1 1 1
WIDTH 512
HEIGHT 1
VIEWPOINT 0 0 0 1 0 0 0
POINTS 512
DATA ascii
0.05503683537 -0.003028615844 0.9807988405 -0.1022961587 0.1764818728 0.9527797699
0.07266596705 0.004792975262 0.9808036685 0.1197822541 0.6957224011 0.6770458817
0.08975025266 0.0320697315 0.9602426291 0.6204340458 -0.08631264418 0.1107474491
0.08649174869 0.02588506974 0.9607005119 0.5635864735 0.02442144789 0.1823794395
0.09148859233 0.0345396027 0.9532285929 0.7308741808 -0.2612110376 -0.006845945492
0.09198646992 0.04134950414 0.9551885724 0.7619302869 -0.3468483388 -0.06375678629
0.08322668821 0.03489085287 0.9611130953 0.6328015924 -0.1455485225 0.06468261033
0.08419068903 0.02608026005 0.9664250612 0.4917471409 0.1231768653 0.2478377223
0.08645049483 0.04413804039 0.9546293616 0.7923573256 -0.4295183122 -0.1249429211
0.08253202587 0.01985336281 0.9706811905 0.3856971264 0.3141640425 0.3758433461
0.09682258219 0.0510000512 0.9570629001 0.8249810934 -0.5426266193 -0.1488104761
0.09000124782 0.05041904747 0.9548310041 0.8246415854 -0.543882966 -0.1469612569
0.1373666078 0.07992888242 0.8533989191 -0.5527930856 -0.1336344182 0.8174116015
0.1286628097 0.0912405327 0.8489103913 -0.485924542 -0.3537748754 0.7985291481
0.1181686521 0.1025228351 0.8480892777 -0.5108405352 -0.2760141492 0.8117623329
0.1162296906 0.08342927694 0.8418257833 -0.3199382126 -0.2429642826 0.9114874005
0.08709955215 0.119158119 0.8516322374 0.2735284269 -0.2151925564 0.8837897778
0.09516339749 0.1146389395 0.8510722518 0.02707932331 -0.2561557889 0.8559440374
0.08924450725 0.1117954776 0.8511164784 0.236432448 -0.2085012496 0.8636621237
0.09315666556 0.1231382564 0.8493660688 0.07024357468 -0.2946094871 0.9146768451
-0.01175790746 0.02216898836 0.9648497105 -0.2788073123 -0.06520242989 0.9581310749
0.1109817773 0.1175974086 0.8509198427 -0.4614270926 -0.3102076352 0.8250095248
0.1243310943 0.09932525456 0.8491190672 -0.5025312901 -0.3039571345 0.8054563999
0.1183835343 0.1124646217 0.8535912633 -0.5413957834 -0.3186022639 0.7725499868
0.1070091203 0.1072033122 0.8428047299 -0.3804571033 -0.1969005167 0.8856346607
0.1119265258 0.1072964147 0.847419858 -0.5168923736 -0.2447544485 0.8190068603
0.1058168262 0.1168264821 0.8465893269 -0.3795157671 -0.2841011584 0.8792247772
0.1097769812 0.08772148192 0.8387645483 -0.2523452044 -0.18409352 0.9492015243
0.1035769135 0.09338685125 0.8379513621 -0.1959493309 -0.1899379641 0.9604337215
0.08279248327 -0.001450482057 0.9048947692 0.6203597784 0.4409846663 0.6282817125
0.09115868062 -0.001623658463 0.9024215341 0.4808230698 0.4728223979 0.7118163705
0.141215086 0.06374711543 0.873821497 -0.6163691282 0.2965908349 0.6291015148
0.04381555319 0.009110318497 0.9822881818 -0.1149546653 0.2347036004 0.8269690275
0.06461837143 0.005315562245 0.9797045588 0.1414503604 0.7585269809 0.5858431458
0.04939198866 0.007429385092 0.9825932384 -0.1326597482 0.1617079824 0.9098532796
0.0592039749 0.008096231148 0.9822268486 -0.01901094988 0.4198001325 0.7884713411
0.02515628189 0.007166057825 0.9737964869 -0.2753047645 -0.04871512577 0.9593431354
0.035290353 0.008310486563 0.9821079373 -0.2249525934 0.0004688492045 0.9734541774
0.03111161105 0.01214824058 0.979830265 -0.2532446086 -0.03883316368 0.9663053155
0.01925835013 0.01450027712 0.9715711474 -0.2753183246 -0.06022841856 0.9593037367
0.04032601789 0.002593209036 0.9798395038 -0.1869340837 0.04426757246 0.9756159782
0.04623894766 -0.0004866839445 0.9811742306 -0.1329662651 0.1142919809 0.9837116003
0.08938709646 0.1164954007 0.8418768644 0.2321169078 -0.2056402713 0.9428215027
0.09665007889 0.1156555638 0.8404307365 0.008229983039 -0.2249793708 0.9600973725
0.09783069789 0.1200508475 0.8451954126 -0.06570426375 -0.3154492378 0.937800467
0.007842256688 0.01051592175 0.9670001268 -0.2788073123 -0.06520242989 0.9581310749
0.09722608328 0.04863106087 0.9496614337 0.8376159668 -0.5301455259 -0.1213661656
0.1032187864 0.04581078514 0.9514519572 0.8540263772 -0.4953675568 -0.158428207
0.1080322266 0.04751407728 0.9567074776 0.846162796 -0.5025788546 -0.1756307632
0.1111468822 0.05015695468 0.9615819454 0.8323564529 -0.522054553 -0.181012705
0.08471381664 0.05220064893 0.952277422 0.8171921372 -0.5659665465 -0.1079186127
0.06729122251 0.115844138 0.8595505357 0.33367908 0.05221135914 0.9360181689
0.07161450386 0.1191324145 0.8558077812 0.3601572514 0.01500026044 0.9264487624
0.07778595388 0.1219108254 0.8547296524 0.3584291339 -0.1185818613 0.9156133533
0.08193667233 0.1245915592 0.8515880704 0.3772382438 -0.1646608561 0.906722486
0.07933480293 0.1122499779 0.8538473248 0.4364700913 -0.1452459693 0.8857612014
0.07395461947 0.1093634665 0.8573354483 0.4344174862 -0.1092026234 0.8931073546
0.1025261432 0.1124170646 0.8534818292 -0.14494434 -0.2883042991 0.8266389966
0.1070759147 0.1082455516 0.8566257954 -0.1982232183 -0.2932450771 0.7976825237
0.119950518 0.1139800474 0.8592344522 -0.5002909303 -0.3683541715 0.7808695436
0.004737667739 0.02589134872 0.9670004845 -0.2788073123 -0.06520242989 0.9581310749
0.08090422302 -0.001848430256 0.9728613496 -0.01188835222 0.8557605147 0.507252872
0.07490008324 0.0008019730449 0.9767475128 0.1439752579 0.7954078317 0.583522141
0.06648411602 -0.003713243408 0.9765231013 0.1703001857 0.8370960951 0.5192932487
0.07805104554 0.00612165546 0.9757840037 0.1504770815 0.6802769303 0.551471293
0.08962851763 0.02749875188 0.9522336125 0.6507989764 -0.1386046261 0.03199945018
0.08359399438 0.01954020187 0.9637731314 0.4596778154 0.1967328638 0.2817630172
0.08473475277 0.01048260462 0.9640321136 0.2647112608 0.4368443489 0.3042158782
0.08806645125 0.02218846977 0.9559716582 0.5302132368 0.04159354419 0.1180903465
0.09347831458 0.001939066336 0.8977490067 0.3995217383 0.5038049817 0.7530629039
0.08564901352 0.003637218382 0.8995919824 0.5403138995 0.4467170835 0.6968237162
0.1041653529 0.0563933067 0.841968894 -0.1673949063 0.3329894543 0.9241416454
0.1083329916 0.07138747722 0.8394414186 -0.2282358408 0.06880987436 0.9532487988
0.1159232333 0.07655661553 0.8411185741 -0.3669784665 -0.06371166557 0.9241902828
0.1039468348 0.001247627544 0.8993825912 0.2670540214 0.4904331267 0.7842185497
0.1192334443 0.006984935608 0.8936350942 -0.04837163538 0.5704639554 0.8073763251
0.1110012904 0.003995814361 0.8970345259 0.1269160807 0.5199570656 0.7949521542
0.1332473457 0.08739107847 0.8506369591 -0.508027494 -0.3009916842 0.80416435
0.1405256689 0.08523433656 0.8572957516 -0.5205466151 -0.2420689315 0.817288518
0.05014732108 0.002411051653 0.9778764248 -0.03095940873 0.3381417096 0.8146367073
0.04246843234 0.001154686674 0.9742564559 -0.05124443397 0.3825929165 0.7429671288
0.01467337366 0.007487388793 0.967440784 -0.2841612399 -0.05774153769 0.9569586515
0.01228073332 0.01430670265 0.9670000672 -0.2794603407 -0.064241983 0.9579902291
0.1405349225 0.08620040864 0.8666141629 -0.5320804119 -0.1666547209 0.7496709228
0.1411481351 0.05915368721 0.8780531287 -0.6376241446 0.4197948575 0.5797762871
0.1410257965 0.07192210853 0.8725099564 -0.5868856311 0.1401218772 0.66158849
0.1352887601 0.02890211158 0.8851830363 -0.2646743357 0.3517916799 0.8968929052
0.1399692595 0.0405882597 0.8850393295 -0.2828071415 0.5075006485 0.7960027456
0.07996436208 0.05531900376 0.8430287838 0.2600439191 0.3586188257 0.888536334
0.0768147707 0.1211148128 0.8480187654 0.3827528656 0.01233945787 0.9193089008
0.06485105306 0.1214232296 0.8546177745 0.3603362441 0.08682850003 0.9258180857
0.1131466925 0.1030529141 0.8535298705 -0.4138653576 -0.2928039134 0.8248052597
0.1033737212 0.1032365412 0.8531548381 -0.1260101944 -0.2317398041 0.8630996346
0.09927339852 0.09796801209 0.8487628698 -0.05982327834 -0.1634414196 0.9428729415
0.09263986349 0.09983636439 0.8487478495 0.143904373 -0.1455712914 0.9303356409
0.08751265705 0.1030266732 0.8499276042 0.3176108897 -0.1473232657 0.8968520164
0.09615212679 0.1063243821 0.8538575172 0.1055793613 -0.2216786295 0.8350914717
0.1134631261 0.107890062 0.8582917452 -0.3661637008 -0.3257255852 0.7800412774
0.1010680646 0.1094644517 0.8378117681 -0.194832027 -0.1322686523 0.9667053819
0.08238428831 0.1143718362 0.8422991633 0.26830405 -0.08661560714 0.9414359927
0.08258860558 0.108049944 0.84140414 0.2677093446 -0.2157669514 0.9236764312
0.07654441148 0.1131417602 0.8448510766 0.3126503229 -0.04494116455 0.9208292365
0.07510004193 0.1012824625 0.8440195322 0.3253555298 -0.2664516568 0.8821824789
0.07122972608 0.1147425175 0.847517848 0.3525995612 0.04755829275 0.9099738002
0.004660358652 0.03338108957 0.9683442116 -0.2788073123 -0.06520242989 0.9581310749
-0.003292759415 0.03094679303 0.9680776596 -0.2788073123 -0.06520242989 0.9581310749
-0.009876964614 0.03098118119 0.9672361016 -0.2788073123 -0.06520242989 0.9581310749
-0.006010469981 0.01876759715 0.9662178159 -0.2788073123 -0.06520242989 0.9581310749
-0.001597987604 0.02384312265 0.9661812186 -0.2788073123 -0.06520242989 0.9581310749
0.07434032857 0.02637769841 0.9525973797 0.4526639879 -0.2931229472 0.3633787036
0.07873732597 0.03605638072 0.9561030269 0.6483006477 -0.2933269739 0.04893435165
0.07521676272 0.0276597701 0.9585443139 0.5106401443 -0.1084502116 0.222036019
0.07765238732 0.03433817998 0.9498047233 0.580377996 -0.4845054746 0.2079626024
0.08022628725 0.04000365734 0.9518585205 0.6949052215 -0.4845663011 0.02386908978
0.07443530858 0.02502990887 0.9652988911 0.5025530457 0.1512480825 0.1673354805
0.07168337703 0.01916581951 0.9615357518 0.3744357526 0.09615124017 0.3876548707
0.07775286585 0.0298123844 0.9637671709 0.5613378286 0.012075698 0.1192189381
0.07672076672 0.01928163134 0.9715592861 0.3717825115 0.3342694044 0.3639010489
0.06872574985 0.008396046236 0.9753205776 0.2461178452 0.6704218388 0.4517781734
0.07367462665 0.01363594923 0.9741919637 0.2954458892 0.5081182122 0.4356920421
0.1033652797 0.02007745206 0.8818743229 0.1795807928 0.4169772267 0.8866363764
0.1090024486 0.01103126723 0.8862556219 0.0889647603 0.5232089162 0.8444781303
0.1051442772 0.003548055887 0.8916871548 0.1500488818 0.5941441059 0.7870491147
0.1366788596 0.09027196467 0.8559981585 -0.4957039356 -0.3300563991 0.8026820421
0.03234989941 0.002021329477 0.9730790854 -0.2243405879 0.02305809408 0.9669938684
0.02112529986 0.02183207124 0.9740290642 -0.2699554563 -0.05551459268 0.9609825015
0.02965335548 0.01808756031 0.9768390059 -0.2719819844 -0.04202862829 0.9609460831
0.1166428626 0.07011776417 0.8404805064 -0.3743007481 0.07920628786 0.9121050835
0.1128350571 0.06170451269 0.8395165801 -0.3064591587 0.2531045973 0.9151393175
0.1200025752 0.0597496815 0.844897747 -0.4219271541 0.3426943719 0.8320861459
0.1381262243 0.07880272716 0.8666682839 -0.4882189333 -0.02992007695 0.7584583759
0.1371350437 0.07115899026 0.8679416776 -0.5105184913 0.1449485868 0.7211188078
0.1359813809 0.07094980031 0.861525476 -0.5751110315 0.1172062457 0.7255367637
0.1337469816 0.06448078901 0.8542769551 -0.6797129512 0.2301539481 0.6877006292
0.1386306882 0.07420235872 0.8561810255 -0.602007091 0.01236166526 0.7562007904
0.1347199529 0.05773606151 0.8616053462 -0.6942335963 0.4643199742 0.528985858
0.1388835162 0.06105090678 0.8686923981 -0.6494012475 0.3612734973 0.6019793749
0.1389662176 0.06593450159 0.8644330502 -0.6303108931 0.2332011461 0.6575238109
0.1335573196 0.07146983594 0.8516142368 -0.6259272695 0.06190939248 0.7663024068
0.1320516467 0.09453997016 0.8578769565 -0.4975765347 -0.3521881402 0.7919310927
0.135525763 0.09970383346 0.8635129929 -0.5095148683 -0.351159662 0.7851948142
0.1278343946 0.1086478308 0.8636321425 -0.5208927989 -0.3675340712 0.770203948
0.140024811 0.09420396388 0.8629609346 -0.5028989911 -0.3380267918 0.795399487
0.1295892447 0.06636986881 0.8499062061 -0.5730944276 0.1438551694 0.804684937
0.1250705123 0.0790797621 0.8452776074 -0.4670965075 -0.1069510356 0.8624209166
0.1240925491 0.06804852933 0.8448578119 -0.4908778667 0.1536011547 0.8527158499
0.08716595918 0.07128151506 0.8374376297 0.0850115642 0.0645705685 0.9893425107
0.09329371154 0.07484031469 0.8365107179 -0.01014784444 -0.02893809788 0.9967900515
0.0884643048 0.06523731351 0.8382739425 0.07271234691 0.1653248817 0.981814146
0.09920734167 0.05971774831 0.8388377428 -0.07389953732 0.2624328434 0.9570688009
0.09536998719 0.06536076218 0.8374885917 -0.01321572904 0.176479578 0.9834655523
0.07530893385 0.07507935166 0.8374546766 0.2801122665 0.02619911544 0.9569748044
0.08224981278 0.07321184874 0.8411578536 0.1907865405 0.04804244265 0.94303298
0.0743381381 0.08064569533 0.8417083025 0.3010010719 -0.1371633708 0.9176890254
0.07430262864 0.06346295774 0.8409349918 0.3274189234 0.2379764915 0.9104655385
0.08137493581 0.06190521643 0.8411503434 0.2179218382 0.2719197571 0.9350394607
0.04929958656 0.1115890667 0.8624092937 0.4311226904 0.005876546726 0.9005892277
0.05905658379 0.1184331477 0.8585207462 0.337169528 0.1198303923 0.9325555563
0.05481768027 0.1142350957 0.8607305288 0.4170236588 0.04363115132 0.9076139331
0.05344670266 0.1217965707 0.8562939167 0.3539693058 0.1364749372 0.9233027697
0.04662888125 0.1207800061 0.8551028371 0.3975818753 0.06315492839 0.9141843915
0.08607840538 0.09777831286 0.8464346528 0.2143739611 -0.1642270088 0.9479427338
0.08183731139 0.09027505666 0.8426334858 0.18768695 -0.2212508917 0.9517461061
0.08044348657 0.09762404859 0.8394137621 0.2678889334 -0.266279459 0.922299087
0.08681911975 0.1037283242 0.8379843235 0.2194031924 -0.1981832832 0.9523302317
0.09251970798 0.1053216681 0.8378867507 0.05566776171 -0.1667254269 0.9760214686
0.07950259745 0.0389777422 0.9435582161 0.6084003448 -0.7182267904 0.2385424525
0.08158226311 0.04575738311 0.9480894208 0.7140908837 -0.6416230798 0.06227979809
0.03916635364 0.0135150766 0.9739348292 -0.221004203 0.006400930695 0.9677523971
0.03028264642 0.02091846801 0.969876349 -0.3057245314 -0.06826087087 0.9496475458
0.01685896888 0.02821666002 0.9706394672 -0.283267349 -0.06102827936 0.957049787
0.02209255286 0.005714238621 0.967268765 -0.2947680354 -0.04577213526 0.9544349909
0.02673650533 0.0134588303 0.9686341882 -0.3008564413 -0.05733563751 0.9518319368
0.08729108423 0.01548535749 0.9583157897 0.3697604835 0.2234770358 0.2057947367
0.09193021059 0.03193534911 0.9466331005 0.7318224907 -0.3541942239 -0.03729120269
0.09024956822 0.02539588325 0.9437454939 0.4012884498 -0.521232307 0.3464027643
0.09541607648 0.03574397415 0.9426354766 0.5541906357 -0.7037560344 0.2204539776
0.0990159139 0.04090719298 0.9471869469 0.7476942539 -0.5674005747 -0.02036846243
0.08741769195 0.0119527569 0.9207261205 0.537545383 -0.1104637682 0.5376301408
0.08892318606 0.02355686948 0.9323632121 0.4628828168 -0.5962401628 0.4458617568
0.08720401675 0.007074042223 0.9158607125 0.5606727004 0.09252581 0.5813916326
0.09184566885 0.01708357222 0.9253422618 0.4390181005 -0.3466435373 0.5475943685
0.09271273017 0.01166665275 0.9173883796 0.4477582872 -0.08386536688 0.6254870892
0.09321460128 0.006836092565 0.9125111699 0.4630998075 0.09722354263 0.6777813435
0.1084827706 0.008826184087 0.9015315771 0.1590705365 0.3556842804 0.7462361455
0.107809484 0.01238402445 0.9066652656 0.1558131576 0.1809320748 0.6993862391
0.1145927012 0.01350063924 0.9042791128 0.02343325503 0.2258981317 0.7157978415
0.09636320174 0.017204592 0.9196412563 0.3492293656 -0.2061620355 0.5890479684
0.09530237317 0.006133283488 0.9054698348 0.4186350405 0.2925974429 0.7207962871
0.1074222624 0.01656295545 0.9124644995 0.1444073915 -0.01856711321 0.6461532712
0.0960278213 0.02513511665 0.929808557 0.3172603846 -0.5721293092 0.4940893352
0.1170627922 0.01136716735 0.8990579844 -0.01786974072 0.371104598 0.7598441243
0.1047232524 0.02017542906 0.9187973142 0.1788029969 -0.224403739 0.5898402333
0.09855560213 0.02256617881 0.9240575433 0.2772057056 -0.4062642753 0.5430637002
0.09974952042 0.01713930629 0.914213717 0.2699772716 -0.09296228737 0.6247310042
0.09645336121 0.01273714472 0.9081543684 0.3416853845 0.1243666038 0.67235744
0.1022316515 0.01213411894 0.9045111537 0.238191098 0.2079166323 0.7060822845
0.0993815884 0.006106152665 0.895462811 0.3061255813 0.5198690295 0.7785609365
0.07490284741 0.01732568815 0.9350149632 0.3729845285 -0.603048563 0.4378300607
0.07813277096 0.01675496437 0.94029814 0.3553491235 -0.4247488678 0.4246381819
0.07930149883 0.01035347115 0.9502190948 0.2280380875 -0.01016312931 0.4435114861
0.07982922345 0.02229794301 0.9355191588 0.4601403177 -0.6612653136 0.3954072595
0.07399748266 8.657801664e-05 0.9667825103 0.1805354506 0.5819425583 0.5220968723
0.07398664206 0.007696725894 0.9467282891 0.1944506913 -0.08741119504 0.4796800911
0.07117991149 0.01203779783 0.9366192818 0.2773427367 -0.4724173546 0.4757400453
0.07753396779 0.003123872681 0.9571439624 0.09136079997 0.3199748099 0.4796053767
0.06719070673 0.01386378985 0.9416975975 0.3426197469 -0.4381416142 0.4827625453
0.07020266354 0.008297259919 0.952282846 0.2761712372 -0.01244465262 0.4994725585
0.06910312176 0.00286590727 0.9630110264 0.2267614007 0.3722189963 0.5084562302
0.06913780421 -0.00110222213 0.9707659483 0.1874618828 0.6596227288 0.5165387392
0.06236148998 0.002516636625 0.9649380445 0.2366952747 0.4042756855 0.4749774039
0.05883514136 -0.001937066554 0.9745043516 0.1952766478 0.7510144711 0.4581812322
0.06317449361 0.006649956573 0.9567285776 0.2754092216 0.1065686047 0.4699119329
0.0580804646 0.0086665079 0.9628935456 0.2273074836 0.2742796838 0.4995081723
0.06214266643 0.01347030606 0.9485777617 0.2806691527 -0.2740211487 0.5248254538
0.05734817684 0.01124080736 0.9570058584 0.133888185 -0.2467418909 0.7092502117
0.04445593804 0.0124305347 0.9533346295 0.001256291755 -0.3884337246 0.7386876941
0.05017694086 0.01794251613 0.9496431947 0.06659066677 -0.4561231434 0.6940634251
0.03951016068 0.01484535914 0.9593116045 -0.108990781 -0.2742126584 0.8139879107
0.05615843832 0.01859807968 0.9438019991 0.1731459945 -0.5665193796 0.6212846637
0.03427935392 0.0178718809 0.965816319 -0.2291298956 -0.1497429907 0.8960445523
0.04406092688 0.008877308108 0.9652792811 -0.08108752221 -0.1579692364 0.8629447818
0.05063867196 0.009301401675 0.9639409781 -0.00257537677 -0.1808915287 0.836694181
0.03729564324 0.008988333866 0.9647989869 -0.1496674567 -0.1702471226 0.8707393408
0.05054772645 0.01102711167 0.9580839872 0.03485162556 -0.2940286994 0.7762871385
0.06140232086 0.01653370447 0.9395653605 0.2713210583 -0.6467972994 0.5642741919
0.04994727299 0.006935902406 0.9719569087 -0.0624483861 -0.02641342767 0.9209068418
0.05491346493 0.01345255133 0.9499208927 0.1346458346 -0.4497166574 0.683621347
0.0316121839 0.00814511627 0.9675731063 -0.2281096429 -0.1192021593 0.9101537466
0.03756855056 0.006446226034 0.9734289646 -0.2033412904 -0.003484339453 0.9594836235
0.1226760373 0.07344610989 0.8480269909 -0.4350834787 -0.02941676602 0.8624140024
0.1230790988 0.08936437219 0.847384274 -0.4222934246 -0.340935111 0.8367807269
0.1223866418 0.09489168972 0.853130579 -0.4945797622 -0.3028894663 0.8052079678
0.1316848695 0.08158486336 0.8528746367 -0.5804459453 -0.1149672493 0.7915207148
0.1274323165 0.07260155678 0.8521524668 -0.5288241506 0.03205104917 0.8185225725
0.1245284453 0.07964283228 0.8522948623 -0.5092605352 -0.06668638438 0.8198342919
0.1062651128 0.09595270455 0.8472462296 -0.3238711357 -0.2027799189 0.9189531803
0.1189305931 0.1038208678 0.8566067815 -0.504319787 -0.3511828482 0.7872230411
0.1375487745 0.05448372662 0.8707150221 -0.6520470977 0.4958137274 0.5538067222
0.140710786 0.05209783837 0.8797257543 -0.5988091826 0.4965516925 0.5971323252
0.1384367794 0.03987211362 0.878839612 -0.3431255221 0.4109812379 0.8042025566
0.1339342445 0.04877974093 0.8673008084 -0.5461744666 0.4730398357 0.6359128356
0.1363848597 0.04472453147 0.8727588654 -0.4507908225 0.4398559332 0.7157480121
0.09414415807 0.05181318894 0.8510655165 0.07518906891 0.3074361384 0.9403589964
0.09362287819 0.04776747897 0.8647449017 0.2032374442 0.2671740055 0.9376801252
0.09260966629 0.05010183156 0.8574383855 0.1581978947 0.2906561792 0.9364799261
0.09754372388 0.04503688216 0.8720708489 0.1958714724 0.2391829938 0.9448007941
0.08746491373 0.05200978369 0.8437722921 0.1281237751 0.3847397566 0.9062821269
0.09757824242 0.05416975915 0.8415323496 -0.06405724585 0.373339653 0.9033050537
0.09667707235 0.01385743264 0.8871010542 0.3375562727 0.4677541256 0.8091526628
0.1026115119 0.0113576958 0.886787951 0.1963687241 0.5257647038 0.8153163791
0.07491974533 0.00620220229 0.9158676863 0.5354037285 -0.1107542813 0.5413246751
0.0955010727 0.03261223808 0.8847244978 0.4044276476 0.2539732456 0.8673582077
0.1025915667 0.02410508879 0.8884166479 0.2583040297 0.3436189592 0.8403939009
0.1090555638 0.02202228643 0.8882477283 0.1368501484 0.3610833287 0.8572685122
0.1155469939 0.0113580795 0.8902106881 0.009598718025 0.5114771724 0.8382226825
0.1160509735 0.01919024438 0.8882087469 0.005055166781 0.3889413178 0.8731036782
0.1232848167 0.01079458371 0.8911095858 -0.1027152538 0.5437133312 0.8325161934
0.1282511353 0.01506234612 0.8891000748 -0.1871555597 0.428363502 0.8818298578
0.1195961758 0.01487596426 0.8857395649 -0.06263872236 0.4624323845 0.8783236742
0.01535747293 0.01921050437 0.9700961709 -0.2788073123 -0.06520242989 0.9581310749
0.007825119421 0.02084485441 0.9685049653 -0.2788073123 -0.06520242989 0.9581310749
0.0008870090242 0.01659044623 0.9667389989 -0.2788073123 -0.06520242989 0.9581310749
0.009878800251 0.03084648587 0.9700543284 -0.2788073123 -0.06520242989 0.9581310749
0.123569712 0.1066872627 0.8598923087 -0.5221566558 -0.3694455624 0.7685455084
0.1291739196 0.1001821533 0.8553452492 -0.5247678757 -0.3750191629 0.763589859
0.05565017834 0.1076099277 0.8665462136 0.4025232494 0.003688313067 0.909774065
0.05038362369 0.1031158119 0.8703168035 0.4450367093 -0.05095611513 0.8919490576
0.06269159913 0.1130023748 0.8620260358 0.3428025842 0.07321061194 0.9342920184
0.0589899756 0.1030956283 0.8636932969 0.4799993932 -0.1169469804 0.863394618
0.06783851236 0.1080154255 0.8607232571 0.4301680028 -0.09805893153 0.8955361247
0.1014452055 0.09180022776 0.8441184759 -0.189329356 -0.1949896663 0.9524536729
0.0948516205 0.09267511964 0.844404757 0.0217997767 -0.1476774365 0.9874196053
0.09824054688 0.06984999776 0.8409926295 -0.05518584698 0.09606831521 0.9638621807
0.1045192182 0.06553245336 0.838340044 -0.1450401992 0.1862241775 0.9690411687
0.09270774573 0.06131852418 0.8422237635 0.02747665718 0.2318820059 0.9486996531
0.09257785231 0.07757481933 0.8418028951 0.03396698087 -0.02231941 0.9649298191
0.1023990214 0.07665298134 0.8399562836 -0.132439062 -0.004079024773 0.9667665958
0.09232158214 0.08632278442 0.8415932655 0.03522490337 -0.171194315 0.972171545
0.08080347627 0.07797798514 0.8372793794 0.1728763878 -0.05224370956 0.9775816798
0.09765414894 0.09101240337 0.8379818201 -0.1057067513 -0.1676570922 0.9759113193
0.1040542424 0.08655413985 0.8378459215 -0.1773558259 -0.2167632878 0.9589647055
0.1000813171 0.1030561328 0.838098824 -0.1799551845 -0.1404754966 0.9700417519
0.095946908 0.0813300088 0.8374550343 -0.05355258659 -0.1469533592 0.9844440222
0.08303334564 0.03311292082 0.9389175773 0.5356801152 -0.7635633349 0.3572544456
0.08971168846 0.03381545097 0.9398629069 0.4314061105 -0.7960039973 0.3766764998
0.08745066077 0.04406958818 0.944875896 0.6143933535 -0.6895594001 0.1578239948
0.08455362916 0.01365435869 0.9523397088 0.2492936254 -0.0177095551 0.4264731109
0.08691071719 0.01976509579 0.9463105798 0.3168134391 -0.3407833278 0.4215645194
0.08304887265 0.002859328408 0.9647417665 0.05990784988 0.5571089387 0.4632986784
0.08396983892 0.009592094459 0.9569951892 0.1784884036 0.19857274 0.4401452243
0.06949842721 0.01384826656 0.9653408527 0.300478816 0.2896872163 0.4558477998
0.06440149993 0.00973269064 0.9701963663 0.2549823225 0.5198938251 0.4575921595
0.05799222738 0.008001214825 0.9724811316 0.2379526347 0.6444745064 0.4340558052
0.06595614552 0.02823549137 0.9440143108 0.3964072764 -0.6320175529 0.4560622275
0.06071835011 0.02288720384 0.9417226315 0.3786197007 -0.5988340378 0.4787459373
0.07256475091 0.03072685003 0.9407149553 0.5072024465 -0.725789547 0.3756324649
0.06157721579 0.02772527002 0.9478592873 0.2993191779 -0.5559756756 0.5232381225
0.05129140615 0.02689099871 0.9574206471 0.063706249 -0.3729174137 0.6854627132
0.0562607646 0.02633119933 0.9514009356 0.1975226551 -0.4730985463 0.5953682661
0.05137872696 0.02206615731 0.9622013569 0.07631638646 -0.1019719169 0.6445554495
0.06895369291 0.02861651778 0.9501379132 0.3965119421 -0.4409050941 0.4245884418
0.05604606867 0.01700661518 0.9650316238 0.1823694855 0.1689528674 0.5292063951
0.04410913214 0.01599294506 0.9701763391 -0.04572810978 0.216789484 0.7073743939
0.03996278346 0.02027505077 0.9678507447 -0.1392855644 -0.01260389201 0.8080668449
0.05843648687 0.02395648509 0.958013773 0.2071888 -0.1987885535 0.5500231981
0.05469529331 0.0121306479 0.9698391557 0.1712775975 0.4271203279 0.5094988942
0.04486683756 0.02308492362 0.9636130929 -0.05297549814 -0.1593130827 0.7549116015
0.0654598996 0.0249029845 0.9546760321 0.3403137624 -0.2455187589 0.4481247962
0.06588511914 0.01917832345 0.9341396093 0.363504827 -0.7481360435 0.4911790192
0.1156367213 0.08930455893 0.8457730412 -0.3572660089 -0.2816174328 0.8869763017
0.1186936945 0.09554325789 0.8479816914 -0.4417063296 -0.3397680521 0.8270555735
0.1112627536 0.09325800091 0.84184587 -0.2954077721 -0.2293810695 0.9230132699
0.107043758 0.1007297635 0.840783596 -0.2727025151 -0.198321268 0.9345147014
0.1112016588 0.1011110246 0.8455811143 -0.4096902311 -0.2738714218 0.8584182262
0.09477641433 0.03351780772 0.8678015471 0.2363961488 0.4205360413 0.8316169977
0.09281249344 0.03906233609 0.859038949 0.167176649 0.4644390345 0.8325439095
0.08846481144 0.04377968237 0.8520229459 0.1771252304 0.4517226517 0.8603955507
0.08966190368 0.01432037819 0.8900966644 0.4894422889 0.4220325947 0.7609596252
0.08659230918 0.009670770727 0.8948633075 0.5214015245 0.4221346676 0.7410021424
0.1138445884 0.01726457104 0.8828043342 0.00875975471 0.4439174235 0.892549336
0.0703618899 0.09292995185 0.8433902264 0.3604877293 -0.3675849736 0.8489203453
0.07168015093 0.1074805707 0.8463888168 0.3502978384 -0.1033485904 0.8901785612
0.06730876118 0.0997556448 0.8466797471 0.3948806822 -0.2902168036 0.8353067636
0.05176179111 0.1135556623 0.851934731 0.4012255669 -0.09030435979 0.8826057911
0.0637992993 0.1069390699 0.8483219147 0.3926913738 -0.1576138139 0.8602331877
0.05578830838 0.1195378527 0.8513293266 0.3820206523 0.05188398436 0.908569634
0.06034443527 0.1153155565 0.8500051498 0.3834253848 -0.002212627791 0.8937775493
0.0571253486 0.1096369252 0.8498039842 0.3961599469 -0.1554485112 0.8668552637
0.06547247618 0.07160799205 0.8439111114 0.5259681344 0.1395247281 0.8345947862
0.05857571587 0.06535497308 0.853300333 0.6238361001 0.1519665867 0.7560766935
0.08064723015 0.08569918573 0.8379631639 0.1702268273 -0.2046583891 0.9604622126
0.08831363171 0.08306394517 0.8377562761 0.04240657017 -0.1711978167 0.9811936021
0.08507379144 0.09283964336 0.8380650282 0.1308203638 -0.2083289921 0.9603485465
0.09514092654 0.0986391753 0.8380880356 -0.02477654628 -0.1567535847 0.9867703915
0.0914253965 0.09328173101 0.8380758762 0.01427950431 -0.1729941368 0.9828801751
0.08347564191 0.0300881844 0.9312945604 0.5959604383 -0.567689538 0.3977361321
0.07858424634 0.02256195806 0.908496201 0.777202189 0.07023824006 0.5281910896
0.07978081703 0.02541102655 0.919513166 0.7298134565 -0.3124140203 0.4195275307
0.07663509995 0.02595273033 0.9244821072 0.722089529 -0.5163974762 0.3477143049
0.07467995584 0.02720091492 0.932277441 0.6092558503 -0.6772308946 0.3464135826
0.07287674397 0.02204323187 0.9207156301 0.7607017756 -0.4683927 0.3493308127
0.0833272934 0.02882963046 0.9252437353 0.6195385456 -0.4160693884 0.4478886127
0.0910051018 0.02837606892 0.9364286661 0.4038997889 -0.7705244422 0.4336516261
0.09016659856 0.01452818047 0.9027678967 0.5062240362 0.2559394538 0.6807476282
0.09042034298 0.02425101772 0.9256058931 0.4450820088 -0.4436849952 0.510915041
0.09288911521 0.01642797142 0.913580358 0.40888533 -0.04891497269 0.6183772087
0.08640822768 0.02041174658 0.907294333 0.594198823 0.07867144793 0.6206916571
0.08991710842 0.02171412855 0.9186087251 0.4749970138 -0.2336453646 0.5599998236
0.08531840891 0.02480911277 0.9147616029 0.6050286293 -0.1619700342 0.5570341349
0.09329084307 0.01078874618 0.8971455097 0.4486743212 0.4360250533 0.7351769209
0.09436436743 0.01666373014 0.8972235918 0.4597391486 0.3579262495 0.7085128427
0.1085051522 0.008930801414 0.8930603266 0.1478409022 0.5200154185 0.7955013514
0.09980668128 0.01283078454 0.8955690265 0.3350934386 0.4322955608 0.7464027405
0.1026131213 0.01752012968 0.891507566 0.2668506205 0.4180740416 0.7956782579
0.088881962 0.02190605551 0.8968245387 0.5690530539 0.2878851593 0.7013316751
0.09418299049 0.02398905717 0.8913760185 0.4327579439 0.3261274993 0.7825683355
0.09120105952 0.0294587668 0.8884684443 0.4749071002 0.2834784389 0.8156866431
0.08660124242 0.02794729359 0.8929300904 0.5916348696 0.2493527234 0.7487084866
0.07185367495 0.09602827579 0.8491073847 0.3793325722 -0.2637064159 0.8568605781
0.07805271447 0.09449050575 0.84633255 0.2665369213 -0.2259732187 0.9150265455
0.07936585695 0.1000875905 0.8490722775 0.3302836716 -0.1977785379 0.9035828114
0.07225063443 0.1019882038 0.8521524072 0.4765460789 -0.2345609814 0.8376842141
0.05559704825 0.1016372666 0.8509714603 0.4899632633 -0.2041237652 0.8146717548
0.1349386871 0.05385776237 0.876275897 -0.4846271873 0.5600227714 0.641730845
0.1298173368 0.04897257313 0.8795479536 -0.3533714414 0.6394956708 0.6686415672
0.1383496374 0.04824684188 0.883808732 -0.3503721356 0.6388173699 0.6815321445
0.1318781078 0.0434422344 0.8824718595 -0.2930698693 0.6015582085 0.7287416458
0.1362003237 0.03590911627 0.8851132393 -0.2956536412 0.4724982083 0.8090093136
0.1081032231 0.02328093536 0.8794029951 0.09411021322 0.3633731604 0.921020031
0.1161246002 0.05244362727 0.8465495706 -0.3718473315 0.4960662127 0.7655650973
0.1052595451 0.04895342514 0.8444734812 -0.1985051483 0.5310789943 0.8167489767
0.1001329124 0.05256302282 0.8478608727 -0.08452510834 0.4027983844 0.892226994
0.1072629914 0.0446193777 0.8708299994 -0.1278382391 0.6727098227 0.7110474706
0.1058997214 0.05160546303 0.8513721228 -0.1731120348 0.4595373869 0.8494895101
0.1105196998 0.05767536536 0.852784574 -0.2381980866 0.3430320323 0.8379119039
0.1067410111 0.04918943346 0.8586938381 -0.1614959985 0.5363168716 0.7967402935
0.1140292063 0.06561987102 0.8471696973 -0.3098565936 0.1617607474 0.8770576119
0.1096467376 0.06040203199 0.8447465301 -0.2517154813 0.2572486699 0.8958060741
0.1001964584 0.04697630182 0.8647992611 0.04248664901 0.3923806548 0.8744644523
0.11188481 0.05186829343 0.8655545115 -0.2169740349 0.5048155189 0.7451989055
0.1143780798 0.0560664162 0.8606848717 -0.2715643346 0.3962830603 0.7783503532
0.1234396473 0.06408046931 0.8504181504 -0.4467012584 0.1658778638 0.843739748
0.1178641245 0.05962001532 0.8562524319 -0.3404521346 0.2969883084 0.8070850968
0.124384582 0.05712354928 0.849586308 -0.4840088785 0.3929361701 0.7667860985
0.1272951365 0.02505809814 0.8831396103 -0.220745489 0.3331347108 0.9158571959
0.1233512387 0.04501088709 0.880215466 -0.2330894023 0.6351121664 0.7203500867
0.125299871 0.03127235174 0.8818904161 -0.2249776572 0.4353328347 0.8507490158
0.1182170957 0.03555154055 0.8814274669 -0.1323513538 0.4803102016 0.8393929601
0.1320073307 0.0230980143 0.8865073323 -0.2491013408 0.3549377024 0.8994395733
0.06736572832 0.06277921051 0.8449276686 0.4819791615 0.266218096 0.8275967836
0.07371719927 0.05609588325 0.8441447616 0.3674675226 0.3623829484 0.8543499112
0.06395240128 0.05593459308 0.8523716331 0.5557481647 0.2839992046 0.7746479511
0.09044987708 0.04601322114 0.872315824 0.3086980581 0.2343667448 0.9064537883
0.07897073776 0.05211801827 0.8574857712 0.3693659306 0.2808960378 0.8599715233
0.08602976799 0.05279010907 0.8515651226 0.2194533795 0.3125850856 0.9145491719
0.09439291805 0.04387103021 0.8775635362 0.2890092134 0.2177681178 0.9221547842
0.07953505218 0.05432993546 0.849678874 0.3024759293 0.3128322065 0.8770089149
0.07917318493 0.04965670407 0.8657450676 0.4281741381 0.2480096668 0.8469690681
0.08495592326 0.05029837042 0.8605853319 0.3030488789 0.2752102315 0.892213881
0.07221399993 0.004242558032 0.9074527621 0.7707600594 0.364036411 0.5125587583
0.07262725383 0.01863250881 0.914108634 0.8373287916 -0.3409141898 0.3888599575
0.06940183789 0.02145112865 0.9281340837 0.6424905062 -0.6341136694 0.3607535958
0.08014209569 0.009542213753 0.9181331396 0.593586266 -0.1449756026 0.5005353093
0.07914473116 0.01752185635 0.9258509278 0.5714566112 -0.4964258671 0.4173221588
0.07386323065 0.01101621054 0.9217663407 0.4618548155 -0.4276675582 0.5089611411
0.08142679185 0.003405041294 0.9125694633 0.5837682486 0.1298282146 0.582500875
0.08284790814 0.02447846718 0.8983216882 0.692718327 0.232563898 0.6720202565
0.06316175312 0.0864360705 0.8453670144 0.5243159533 -0.2338103503 0.8138683438
0.07404321432 0.08670508862 0.8392246962 0.3418021798 -0.1927981824 0.9100366831
0.06539133191 0.09316289425 0.8491836786 0.4783154726 -0.2930876911 0.8163582683
0.05787801743 0.08177767694 0.852580905 0.6376102567 -0.08386076987 0.7343568802
0.06011750177 0.08903827518 0.85243994 0.5917121768 -0.1969359517 0.7546699047
0.06009955704 0.07639795542 0.8506341577 0.5869253278 -0.03178406134 0.7679787874
0.05895228311 0.06961581856 0.8483713865 0.6440370679 0.14572227 0.7483936548
0.06683062017 0.1038707644 0.8559870124 0.4698072374 -0.2394929081 0.8492075205
0.04718914255 0.0959623307 0.8692899942 0.6380550861 -0.1241238713 0.7586318254
0.0468595624 0.1007391587 0.8637399077 0.6043516994 -0.08370875567 0.7741394043
0.04771856591 0.1069623083 0.8664060831 0.4476159215 -0.0328406617 0.8913602233
0.1266827732 0.03605846688 0.875628531 -0.2491147667 0.3492270112 0.8725927472
0.1246566027 0.0424223803 0.8651586175 -0.3841602802 0.4977539778 0.7129492164
0.1051591411 0.0425449945 0.8781081438 0.003023836296 0.5573422313 0.7753047347
0.1014250368 0.03190140799 0.8833202124 0.2711674273 0.2754201591 0.8986256719
0.1208104491 0.02604784258 0.882689476 -0.1287506968 0.3309455812 0.9215333462
0.1132901609 0.02852180041 0.8826263547 0.0003113324346 0.3252335191 0.9267767668
0.1112214327 0.0341630429 0.8813719153 -0.007956149057 0.4026835859 0.8932520747
0.1039315015 0.04066595063 0.8561304212 -0.063407287 0.4761661589 0.8543566465
0.0985063836 0.04663739726 0.8464343548 -0.0953560546 0.5846635699 0.7998235822
0.1034717932 0.03555432707 0.8642323613 0.02814993821 0.4208684266 0.8847810626
0.09682724625 0.03040665202 0.8727876544 0.2606737316 0.3746438026 0.8545704484
0.1062068194 0.02826585434 0.8759228587 0.1167014763 0.3166779578 0.9385278821
0.09694048762 0.04170550033 0.8542918563 0.0153579656 0.5348155499 0.8201707006
0.09858015925 0.03740634769 0.8612633348 0.07460891455 0.4689275026 0.8471211195
0.05787857622 0.05936850235 0.854978919 0.6145722866 0.2470285743 0.7482190728
0.07495102286 0.04817080125 0.8716816902 0.4660208523 0.2351028025 0.8306518197
0.07986222953 0.0387917608 0.8802360296 0.5311210752 0.254935652 0.8041496277
0.06723967195 0.05141862482 0.867467165 0.5187422037 0.2401985526 0.8018057942
0.08086775988 0.04665516689 0.8741313815 0.4123904109 0.2281107903 0.8587776423
0.05705236644 0.05499524623 0.862472713 0.5980289578 0.2491844445 0.7593152523
0.08538062125 0.04258929193 0.8783364296 0.4107619524 0.2319637239 0.8623687625
0.09249847382 0.03863116726 0.8829976916 0.3750598431 0.2302915752 0.8831003904
0.08834701777 0.03460022062 0.8853694797 0.4814530015 0.2512796223 0.8320956826
0.05616923422 0.09802833945 0.860430479 0.5528973937 -0.2074791491 0.8043786883
0.05357668549 0.09094437957 0.8545122147 0.6701505184 -0.1895106584 0.6994511485
0.04956761375 0.1051661521 0.8551383615 0.5362684727 -0.07138351351 0.809538424
0.04907973111 0.09546517581 0.8603884578 0.6568655968 -0.1123539433 0.7249594927
0.04622902721 0.1147927418 0.8564305902 0.4525323212 0.01960400119 0.8808888197
0.05016276985 0.08744625002 0.8600846529 0.7416790128 -0.1479177773 0.6526142955
0.04747403786 0.09077654779 0.8655256629 0.7065352201 -0.1321921647 0.6898160577
0.0604428947 0.09569723159 0.8534023762 0.5785749555 -0.3028057218 0.7526826262
0.1277690083 0.05397480354 0.8553371429 -0.6222589612 0.5599054098 0.53843683
0.1283134669 0.0482673645 0.8615995049 -0.5228921175 0.5605701804 0.6021481752
0.1325388998 0.03860936686 0.8758600354 -0.341609329 0.4897084832 0.7769752741
0.1304732263 0.04317088053 0.8690463305 -0.427048713 0.5242758393 0.6938895583
0.1105216295 0.04227704927 0.8547608852 -0.1985883713 0.5269458294 0.8012964725
0.1110339612 0.0368838273 0.8623836637 -0.1265032738 0.4480557442 0.8646224141
0.1070048437 0.04513336346 0.8495554924 -0.1886610836 0.541022718 0.8079553246
0.1107073426 0.03138919175 0.8706458807 -0.02955258824 0.3695976138 0.9173163176
0.1185794696 0.05141763762 0.8645489812 -0.3274395168 0.4980009496 0.7254401445
0.1226900443 0.0542200841 0.8607882857 -0.4057216346 0.4310956597 0.7295361757
0.1187442541 0.04766966775 0.8701617718 -0.3280463219 0.6737189293 0.6016864181
0.1285670847 0.05346910655 0.8696622849 -0.4312990606 0.4967444241 0.6906157136
0.1281398386 0.05875144154 0.8594251871 -0.5506944656 0.3742830753 0.669721663
0.07492318749 0.03905241564 0.8720652461 0.5482309461 0.2881880999 0.783823967
0.06664233655 0.04550524056 0.8687016368 0.5737555027 0.2708348632 0.7710642219
0.08375401795 0.02852266468 0.8826875091 0.5245112777 0.2976438701 0.7971490622
0.06558466703 0.05198803544 0.8573602438 0.5715869069 0.2826550007 0.7698720098
0.07187691331 0.04458355531 0.8644794226 0.5457005501 0.2950161397 0.7814735174
0.07860207558 0.04364917055 0.8549112678 0.3841786087 0.4024814367 0.824436903
0.07508618385 0.04952995479 0.8467293978 0.3681747615 0.4173226655 0.824888289
0.08109775931 0.03241012245 0.877992034 0.5271385312 0.298895359 0.7940977812
0.06955933571 0.05167075619 0.8512359262 0.4753418863 0.3470889032 0.7954139113
0.07759353518 0.04024950042 0.8650009036 0.4743399322 0.3397416472 0.8029528856
0.07315360755 0.04768697545 0.8546414971 0.4539230168 0.3586297929 0.8035701513
0.06040813401 0.04988726601 0.8669192195 0.5984010696 0.2634412944 0.7556016445
0.08171600103 0.02453904226 0.8915609717 0.5670204163 0.3220995963 0.757437706
0.0699981153 0.0401057601 0.8772131205 0.581821382 0.2815084457 0.7610906959
0.0765055865 0.03239896521 0.8848077059 0.5725598931 0.2992866635 0.7614611983
0.08775348216 0.02470932715 0.8859835863 0.504146874 0.3028685749 0.8077198863
0.08796802163 0.03374627605 0.8686182499 0.3909164369 0.3506465554 0.8470137715
0.09298927337 0.02517813817 0.8823891282 0.4368308485 0.3026521206 0.8454520106
0.08423697948 0.03693451732 0.864454329 0.3957358301 0.369466275 0.8348699808
0.08899935335 0.02936191298 0.87645787 0.4324988127 0.3268809319 0.83570683
0.08638361841 0.04025113583 0.8581210971 0.2980216444 0.398784101 0.8567870855
0.08025720716 0.04662202299 0.848651886 0.3053629696 0.4303205609 0.8443798423
0.09261857718 0.01883827522 0.8858477473 0.43230775 0.3906960189 0.8062762618
0.08431498706 0.0176476296 0.892262876 0.5406177044 0.3899247646 0.7445556521
0.07864483446 0.007678775117 0.901535213 0.6107363105 0.4182751477 0.6624428034
0.05292319879 0.06379603595 0.8590016961 0.6956811547 0.1134948134 0.7073045373
0.04903672636 0.06078939885 0.8638346195 0.7300149798 0.08520893753 0.6778450012
0.05288838968 0.07130590826 0.8559792042 0.7137211561 0.06034059078 0.6950728297
0.07822182775 0.01363359671 0.8990582228 0.5742925406 0.3947685659 0.7037411928
0.07101841271 0.01113090292 0.9046800137 0.7524795532 0.2796106339 0.5517343879
0.07397832721 0.01726630703 0.9050015807 0.7915574312 0.2220942229 0.5523577929
0.07817082107 0.0203062389 0.9014710784 0.7149940729 0.2617366612 0.627022624
0.06654901057 0.01084382087 0.9084162116 0.8692247272 0.126494199 0.4553115964
0.06862462312 0.01344492007 0.9152861238 0.7219635248 -0.3371038139 0.468300581
0.06823244691 0.01450343709 0.9247659445 0.4467943907 -0.6328954697 0.4711873531
0.06090980768 0.0800422132 0.845390439 0.6020617485 -0.04998957366 0.7804519534
0.06771685183 0.07852016389 0.8405361176 0.46064502 -0.04121419042 0.8778142333
0.1150057986 0.04392378777 0.8743075132 -0.2351489961 0.7611117363 0.5999410748
0.1111604571 0.04369644448 0.8791341186 -0.08299607784 0.6258446574 0.7533330321
0.1167639121 0.04453034699 0.8563743234 -0.3472506404 0.6067822576 0.6663897038
0.1144149601 0.04724770784 0.8502843976 -0.3387599885 0.6336653829 0.6776076555
0.1178446114 0.03983564302 0.8631411791 -0.2946143448 0.5264351368 0.7237392664
0.1163905784 0.03332972527 0.8703851104 -0.1652834415 0.4233262539 0.8367230296
0.1219960973 0.03667870909 0.8690041304 -0.2688908279 0.4504727125 0.7909224033
0.1223293692 0.04630070552 0.8574668765 -0.4673585594 0.6088296175 0.6004991531
0.1181251332 0.02861269936 0.8763549328 -0.09085679799 0.3427991569 0.9240704179
0.04672673345 0.07681562006 0.8635166883 0.7763088346 -0.03698958457 0.6276421547
0.05073633417 0.07905164361 0.8583816886 0.7457281947 -0.02296383306 0.660356462
0.04762183875 0.06766390055 0.8635146618 0.7437482476 0.03800639883 0.6651473641
