# .PCD v0.7 - Point Cloud Data file format
VERSION 0.7
FIELDS x y z normal_x normal_y normal_z
SIZE 4 4 4 4 4 4
TYPE F F F F F F
COUNT 1 1 1 1 1 1
WIDTH 512
HEIGHT 1
VIEWPOINT 0 0 0 1 0 0 0
POINTS 512
DATA ascii
0.1194474325 0.1363677979 0.6039866209 -0.2085789442 -0.5125051141 0.7902692556
0.1300169379 0.1245946512 0.6109275818 -0.4564261436 -0.285490036 0.7656667829
0.1307158023 0.126698941 0.6044366956 -0.57261163 -0.3484107852 0.6913716197
0.01954473741 0.03454706445 0.6877815127 0.2895774245 0.7408254147 0.6051646471
0.01370317861 0.04035002366 0.6871951818 0.3697072268 0.7088143826 0.594558835
0.1768545955 0.06517817825 0.6312269568 -0.696249485 0.1286136061 0.7019135356
0.1815634519 0.07062139362 0.629408896 -0.6994145513 0.05851707235 0.703134656
0.181839183 0.06240830198 0.6292690039 -0.6962803602 0.136296168 0.703315556
0.07685566694 0.06886716932 0.5975661278 0.4774343371 0.4525303841 0.7510988712
0.1649203897 0.03173416108 0.642390132 -0.3856955469 0.6340847611 0.6316254139
0.1692513674 0.03084089421 0.6461862922 -0.4372616708 0.6270656586 0.5998830795
0.1778744161 0.02887705155 0.6586709619 -0.5419611335 0.6403590441 0.5174094439
0.162155807 0.0331145674 0.6349747777 -0.343185693 0.6142219901 0.676328063
0.1742829531 0.03029882163 0.6530991197 -0.4910588562 0.635880053 0.5578675866
0.1712597907 0.06385863572 0.6312912703 -0.6949717402 0.1567878872 0.701513648
0.02496623807 0.01301342621 0.6986870766 -0.08259676397 0.3666377962 0.9266901016
0.02264252119 0.01764387637 0.6962885261 -0.08259676397 0.3666377962 0.9266901016
0.0311579369 0.01271516178 0.6998581886 -0.08259676397 0.3666377962 0.9266901016
0.02242768742 0.04330148175 0.6846273541 0.3410056531 0.7331255674 0.5878908038
0.08300282061 0.1334917396 0.5967274308 0.3323087394 -0.5073647499 0.7790094614
0.08856912702 0.1354594529 0.6005653739 0.2612384558 -0.5475118756 0.7861742377
0.0969228372 0.131875217 0.5942619443 0.1793024391 -0.5705667734 0.7985753417
0.0788173005 0.1367138624 0.6025176048 0.3679676652 -0.5039286613 0.7724363804
0.1000645161 0.09731050581 0.5828889608 -0.03856229037 0.05009816587 0.9899203181
0.09768550843 0.1033511311 0.5827073455 0.02825836278 -0.08168630302 0.9877195358
0.1783484071 0.0511645712 0.6323033571 -0.6742574573 0.275428921 0.6709376574
0.178039372 0.05128634349 0.6407575011 -0.6509317756 0.3179772198 0.6528060436
0.1806125194 0.04517313465 0.6482152939 -0.6067647338 0.4389395416 0.609554112
0.181651935 0.04084611684 0.6537703872 -0.575761795 0.5251191854 0.5787290931
0.1790239811 0.05811600015 0.6322701573 -0.6922951937 0.1892932206 0.6959779263
0.1751576662 0.07320023328 0.6309723258 -0.6999921799 0.04519511014 0.7037544847
0.1758616269 0.08055529743 0.6301708817 -0.7036690116 -0.03570694476 0.7047761083
0.01024318114 0.05265150964 0.6857247949 0.6191133857 0.5193826556 0.5785160661
0.01578060165 0.05185142905 0.6839095354 0.612382412 0.5254887938 0.5788857937
0.02180353925 0.05029326305 0.6834529042 0.5780097246 0.5470561385 0.5793998241
0.01216404606 0.04575033486 0.6852651238 0.445153892 0.6756751537 0.5861203074
0.08222511411 0.07011386752 0.5949490666 0.3657251596 0.413146615 0.8280784488
0.1675180048 0.04602180794 0.6324703097 -0.4949433506 0.4098144174 0.7022763491
0.1742909551 0.03753428906 0.6558480859 -0.5136483312 0.5972567201 0.5775406361
0.1595229954 0.03676316887 0.6309117079 -0.3237269223 0.5823463202 0.7135846019
0.1662188917 0.04109637812 0.6368376017 -0.4406566024 0.5077317953 0.6799911261
0.1677493304 0.03857295588 0.6429380178 -0.4401985109 0.5624569058 0.6475354433
0.1703723967 0.03842319548 0.6477544308 -0.4717139602 0.5709623694 0.6213496327
0.1731676757 0.05097077042 0.6357241869 -0.6036043167 0.3204492927 0.6830480099
0.1719836295 0.04259447753 0.636069119 -0.5166974664 0.455794692 0.6648362875
0.1779638082 0.04567945004 0.6395512819 -0.6159098744 0.3931017816 0.6378711462
0.1747029573 0.04108390212 0.6419985294 -0.5283413529 0.4929850996 0.6340155005
0.1791073233 0.03745476529 0.659752965 -0.5496769547 0.5993865132 0.5521510243
0.1780797094 0.08738005906 0.6263546944 -0.6861406565 -0.08780483902 0.7187272906
0.1538113058 0.1052756533 0.6167408228 -0.5455453396 -0.2091850936 0.8099341393
0.1726767421 0.0919476673 0.6246969104 -0.6625137329 -0.1085423157 0.7349524498
0.1631389707 0.1010355279 0.6231779456 -0.6407379508 -0.1287102252 0.7526963353
0.1823213995 0.08354467154 0.6277186871 -0.704505682 -0.07162049413 0.705943048
0.1694359332 0.08328264952 0.6273527741 -0.6738116145 -0.04449964315 0.7297200561
0.1655445248 0.08613727987 0.6225054264 -0.6492676735 -0.09536609054 0.7450305223
0.06889938563 0.07947386056 0.5962050557 0.5470952988 0.3638201058 0.7506244183
0.02599138021 0.03284968063 0.6888347268 0.1335754693 0.605887115 0.7282561064
0.02540433966 0.02578925714 0.6932293177 -0.07632335275 0.3737407923 0.9209090471
0.0203721039 0.02952018939 0.6912366748 0.04262247309 0.5052245855 0.811745882
0.08897136152 0.1304319501 0.5934446454 0.2719593942 -0.5275360346 0.7916178107
0.1263274103 0.1310066283 0.6011782289 -0.4581903517 -0.42240116 0.7283343673
0.1032081619 0.1146021858 0.5850957036 -0.08469415456 -0.2355371118 0.9607516527
0.09652647376 0.1098449156 0.583912313 0.09324087203 -0.2355366796 0.9546199441
0.170800671 0.07704281807 0.6272251606 -0.6983214617 -0.002262032824 0.7141453624
0.1583478749 0.08387634158 0.6099752188 -0.5089555383 -0.1823707521 0.8147776723
0.08257118613 0.08330973983 0.5883815289 0.3027202189 0.2665125132 0.9134401679
0.07853759825 0.07440650463 0.5950027108 0.4119304419 0.3833715022 0.8096781373
0.08244535327 0.07796783745 0.5906324387 0.3160483241 0.3333305418 0.8874166012
0.0751279369 0.07989639044 0.5929111242 0.4465165138 0.335097611 0.8273327351
0.1510216445 0.005177258514 0.6937747598 0.2690778375 0.4246331155 0.8510064483
0.13395603 -0.00206919224 0.7002016306 0.2507185042 0.2841047645 0.9129088521
0.1385816932 -0.01062563621 0.7053644061 0.2403568625 0.3473873138 0.8902882338
0.1259336919 -0.01244642586 0.7042474747 0.2349699885 0.1473608762 0.9534931779
0.1323245764 -0.01099180058 0.7039210796 0.2338807881 0.2651102245 0.9141218662
0.1237346381 -0.003175543156 0.711499393 0.2338003814 0.141548261 0.9542090893
0.1337482631 -0.005031206645 0.7114819288 0.258384496 0.2456072122 0.9303150177
0.1297338456 -0.006395162549 0.7071502209 0.2567918599 0.2068867683 0.9434946179
0.1202511564 0.04661984369 0.6179628968 0.3310626149 0.4655363858 0.8187546134
0.1385312676 0.03257004917 0.6214405894 0.09726352245 0.5590882897 0.8183802962
0.1372025013 0.02881621011 0.6264548898 0.1257355809 0.5609965324 0.8158828616
0.1490143538 0.03173818439 0.6238088012 -0.09614685923 0.5794228315 0.7957944274
0.1541543752 0.03231617063 0.6287525296 -0.2017139196 0.5993893743 0.7433979511
0.1562435627 0.03098336235 0.6340179443 -0.2166151553 0.6056218743 0.7169280052
0.1422303468 0.02646785788 0.6335844398 0.0548886247 0.5711306334 0.7894902825
0.1667082012 0.03219353408 0.6541690826 -0.3474275172 0.6360717416 0.614730835
0.1609213501 0.03101067431 0.6478576064 -0.2485568225 0.618198514 0.6641201973
0.150881201 0.02897397988 0.6367754936 -0.07667391002 0.5869588852 0.7505464554
0.145103544 0.02809874155 0.6278865933 0.02876992337 0.5646011233 0.8143148422
0.1488110572 0.02531686053 0.6405482888 -0.08218207955 0.6078208685 0.7166883945
0.1646732688 0.02231637947 0.6661096811 -0.4273032546 0.7061828971 0.4979049563
0.1385922581 0.02373856865 0.6375696659 0.08591096848 0.5807082653 0.7687062025
0.1368221939 0.02482972667 0.6318117976 0.1361068785 0.5619227886 0.8122754097
0.1558420658 0.02775190398 0.6403411031 -0.1673737615 0.6060116291 0.7035600543
0.1709387153 0.02513918281 0.6654955149 -0.4862969518 0.6931878328 0.4945687354
0.1670704186 0.0262918938 0.6577831507 -0.3951738179 0.6645444036 0.5580407381
0.1685125232 0.02209817991 0.6705266237 -0.5023898482 0.7243388891 0.4571031034
0.1297096312 0.0301167164 0.6277948618 0.1749639213 0.5607007146 0.8092502356
0.1779930294 0.02187767625 0.6717470884 -0.4726330042 0.7294250727 0.4768376946
0.1819238365 0.02693542838 0.6659557819 -0.5875170827 0.653678596 0.4742791951
0.171467796 0.01363045257 0.6787188649 -0.3609377444 0.8175002933 0.4398712516
0.1690244526 0.03215527162 0.6606596112 -0.4075215161 0.6512281299 0.5697168112
0.1549625546 0.02842797711 0.6520929933 -0.1973739862 0.6209367514 0.6481152773
0.1503281146 0.0275142286 0.6471161842 -0.1083098948 0.6056836843 0.6902915835
0.1709800959 0.03194116428 0.6668636799 -0.482848078 0.6677076817 0.5207825303
0.1506856978 0.02327126637 0.6513257623 -0.1529318541 0.6382830143 0.641430676
0.164862439 0.02891365066 0.6638318896 -0.3987077177 0.6638947725 0.5438550711
0.1593604833 0.02563266642 0.6595304608 -0.3090916276 0.6612437367 0.5730716586
0.1449514776 0.02365506813 0.6449182034 -0.03942497075 0.6101152301 0.7020379305
0.1653376818 0.01815189794 0.6817592978 -0.07278592885 0.6127171516 0.6604466438
0.1684706807 0.02259143442 0.6782268286 -0.2708516419 0.6696847081 0.5730739236
0.1618640125 0.01347340178 0.6855598092 0.1504600495 0.5409786105 0.762363553
0.1745488942 0.01862131804 0.6760984659 -0.3902262151 0.7849925756 0.4764785469
0.1731062979 0.02463015914 0.6744837165 -0.4552557468 0.7450909019 0.4724412262
0.1775960773 0.0278612636 0.6713662744 -0.5113294721 0.6959610581 0.5021320581
0.1775531024 0.03315583616 0.6672974825 -0.536529541 0.6735907197 0.5076293349
0.14677082 -0.005259118509 0.7055991292 0.2277372181 0.4623146355 0.8451470733
0.1467614174 0.0008046040894 0.7015063763 0.2668426931 0.383887589 0.8738892674
0.1525096595 0.0009521475295 0.6988375783 0.2404620349 0.4860777855 0.8306187987
0.1384197026 -0.004065673798 0.7075224519 0.2660600245 0.2906655967 0.913926363
0.1529669017 -0.005080179311 0.7023903728 0.2028315663 0.5592153668 0.803532064
0.1420201808 -0.002343544504 0.697902143 0.2002198845 0.410327971 0.8636348248
0.1655719727 0.007457655389 0.6850442886 0.05259250477 0.6491854191 0.7109321952
0.1575302333 0.003922074568 0.6940396428 0.2356764376 0.541434288 0.8055196404
0.1727817804 0.08600201458 0.6220008135 -0.6665363908 -0.1156541631 0.7316057086
0.1651702225 0.0950602442 0.6202986836 -0.6092271209 -0.1569694281 0.7680627704
0.1632595807 0.0881068036 0.6163844466 -0.6313642859 -0.1578641534 0.7555679679
0.1595019996 0.09764513373 0.6174588203 -0.5830181837 -0.1834634691 0.7854513526
0.1677541435 0.08381148428 0.6177861691 -0.6605340242 -0.1337205619 0.7368827462
0.1827157438 0.0776097104 0.6254435778 -0.7019971013 -0.02262839861 0.7111424208
0.1580696851 0.1040388942 0.6227368712 -0.6250202656 -0.1472006589 0.7622207403
0.07282029092 0.121147275 0.5946391225 0.4597934783 -0.3683517575 0.798499465
0.06698750705 0.1309078634 0.6000082493 0.4925920069 -0.4606469274 0.7368729711
0.06843023002 0.124378711 0.5990820527 0.4842464626 -0.4245865643 0.7583449483
0.07136694342 0.1149539277 0.5953425169 0.4890856147 -0.338747859 0.7925025821
0.1089068949 0.1346220523 0.5961834788 -0.01782814041 -0.5790085196 0.8125833869
0.1298176199 0.1146077961 0.6054255366 -0.6438550949 -0.1341538727 0.7143746614
0.1346770227 0.1103359684 0.6148929596 -0.6226804256 -0.03111440875 0.7628973126
0.1285319179 0.105441235 0.6077864766 -0.6175128222 0.02723726444 0.74252069
0.1355163455 0.1158602163 0.6160732508 -0.5894089341 -0.1237001717 0.7681786418
0.1233257949 0.1260128915 0.6086735129 -0.3257980943 -0.3439320922 0.788874507
0.1319222003 0.119172357 0.6124444604 -0.5380667448 -0.1967237145 0.7617123723
0.119468756 0.1300560385 0.606095314 -0.2395494282 -0.428530544 0.7964652181
0.100274533 0.1271312833 0.5897276402 0.1196741834 -0.5247320533 0.8362826109
0.1344493628 0.1227733642 0.6056402922 -0.6819108725 -0.2800381482 0.6694309115
0.1423199028 0.1183765903 0.6117815375 -0.6449996233 -0.2384341657 0.7182809711
0.1379070133 0.1171812564 0.6055204272 -0.6709027886 -0.2098260373 0.7078195214
0.1159240603 0.07890492678 0.6086325049 -0.3577625155 0.2936320901 0.8439362049
0.09862408787 0.07552300394 0.5993780494 0.02527464554 0.3299127221 0.8768718243
0.1091549173 0.07818014175 0.6048057675 -0.2179651856 0.310469538 0.8489671946
0.08904380351 0.07665406913 0.5913546085 0.1934835613 0.3279117048 0.9037439823
0.1452054828 0.1128253937 0.6120548248 -0.6116434932 -0.2132734358 0.756849885
0.08920695633 0.1399020553 0.6090538502 0.2284408957 -0.5688906312 0.7800809741
0.1068740413 0.1385119259 0.6023159623 -0.004801142029 -0.5881131291 0.7971225977
0.1150279939 0.1406191289 0.6010619402 -0.1120933369 -0.5959005356 0.7941240668
0.1017195433 0.1407641023 0.6051235795 0.06280915439 -0.5793328881 0.7872889638
0.09533300251 0.1398465037 0.6063183546 0.1464668065 -0.5712413788 0.7884393334
0.1006562784 0.1364549398 0.6005732417 0.09221176803 -0.5774527192 0.7985904217
0.1036281139 0.1329416335 0.5946674347 0.07707855105 -0.5808256865 0.8043795824
0.1468086839 0.09134468436 0.6049898267 -0.2110375762 -0.2171686292 0.9269185066
0.1417195201 0.09241442382 0.6018021703 -0.2606387138 -0.1398462206 0.909827292
0.133577317 0.1064346209 0.5959679484 -0.5870098472 -0.02910520136 0.7749451995
0.1426470876 0.09861486405 0.602001667 -0.3799427748 -0.1606772691 0.8570674658
0.1367136091 0.09479115903 0.5986790657 -0.3688241541 -0.06112500653 0.8639756441
0.1299872845 0.09662780911 0.5946343541 -0.512383461 0.04922534153 0.8006871343
0.1433797032 0.08628240973 0.603218019 -0.1395390481 -0.1575998813 0.9599994421
0.1313291192 0.09008210897 0.5955344439 -0.4361390173 0.06112733111 0.8364064097
0.143298775 0.08046274632 0.602509141 -0.158079505 -0.08270288259 0.9666012526
0.133333683 0.07821278274 0.6005350351 -0.08099164814 0.05641179904 0.9588785768
0.1372383833 0.08232491463 0.5987297297 -0.3017926216 0.02710808441 0.9060313702
0.1426335275 0.09039498866 0.6095656157 -0.3639533818 -0.1074096188 0.8795461059
0.1493061185 0.08616234362 0.6120061278 -0.5311120749 -0.07272145897 0.8000559807
0.1315508783 0.08576332778 0.6104233265 -0.483623147 0.1259752512 0.8186256886
0.1383799314 0.08614719659 0.610935092 -0.4940387905 0.04380280152 0.8152954578
0.1367869824 0.08010711521 0.6118680835 -0.5003509521 0.1047934517 0.8208471537
0.1260482073 0.08103782684 0.6109097004 -0.4974313378 0.2318662405 0.8164912462
0.1223495975 0.07620258629 0.6105886102 -0.383510977 0.2456198037 0.8832446933
0.07118543983 0.06862974167 0.6001238823 0.5464655161 0.4435911477 0.7080928087
0.1212464944 0.05458131805 0.6128714085 0.3501108885 0.341788739 0.871338129
0.06567596644 0.06433691084 0.61483711 0.63183254 0.4260276556 0.6469739079
0.1086697876 0.06717811525 0.6115031242 0.06393802911 0.3142981827 0.8587253094
0.0913637951 0.063880153 0.6109648347 0.3602002859 0.3731688261 0.7711345553
0.1174661666 0.07256694138 0.6118169427 -0.2342202067 0.2780947089 0.8915508389
0.1000245735 0.06487524509 0.6112271547 0.2379872203 0.344815731 0.8170339465
0.110537976 0.07238729298 0.6116138101 -0.1609564573 0.2997330725 0.8528918624
0.1163316295 0.06519269198 0.6117041111 0.06973398477 0.2940632403 0.9083585739
0.100440897 0.07122749835 0.6038668156 0.01448431332 0.3526360393 0.8550940156
0.08264495432 0.06694631279 0.6003041267 0.3677965403 0.4226794541 0.7902849317
0.09576868266 0.06934082508 0.610155344 0.105514437 0.3530250192 0.7863322496
0.0857828632 0.0672044605 0.6056373715 0.3043712974 0.3986049294 0.7680092454
0.07913574576 0.06523311138 0.607832551 0.4354957938 0.4159816206 0.7185449004
0.1026344523 0.07114610821 0.6100751162 -0.03044688702 0.3296267688 0.8217564225
0.1063005701 0.06077400967 0.6116116643 0.3297870457 0.3347846866 0.853415966
0.06694434583 0.06586449593 0.6086613536 0.6234247684 0.433689326 0.6504932642
0.06300700456 0.0697921142 0.6104027033 0.643866241 0.4165878296 0.6414911151
0.07322115451 0.06397484243 0.6064966917 0.553154707 0.4408063293 0.6956294179
0.0775539279 0.06047890335 0.6113628745 0.5735475421 0.4411987364 0.6805822253
0.1092395931 0.05123982579 0.6158560514 0.4018212855 0.4466590583 0.7885794044
0.09949149936 0.05511563644 0.6122030616 0.4281044304 0.4476362169 0.771869123
0.09433796257 0.05920476466 0.6066587567 0.4029887617 0.4427272081 0.7914791107
0.1056344286 0.05531508103 0.6092800498 0.3526072204 0.4466973841 0.8218460083
0.08893612027 0.06269094348 0.602350235 0.3932871521 0.4386523366 0.8004683256
0.08341953903 0.06029406935 0.6091416478 0.5071738362 0.4424635768 0.7235239744
0.1212807521 0.04121936485 0.6206299663 0.2488899082 0.5209256411 0.8114806414
0.126434043 0.03589515761 0.6214450002 0.1916335225 0.5593169928 0.8064993024
0.1216658875 0.03639471158 0.6244024634 0.1957804412 0.5565364361 0.8068600893
0.1259517968 0.04256547615 0.615567565 0.1960961074 0.5351243615 0.820584774
0.1309345663 0.03739055246 0.6177273393 0.1807732135 0.560218513 0.8082915545
0.1320224851 0.03269569576 0.6222650409 0.1719694585 0.5609493256 0.8097444177
0.05164587498 0.07702086866 0.6208491325 0.7457085848 0.2183425426 0.6126874089
0.1282940507 0.05607396737 0.6077273488 0.2582885027 0.3324610889 0.9046431184
0.1336716413 0.05558779463 0.6058908701 0.1208243817 0.2971169949 0.9440234303
0.1165269315 0.05928454921 0.605019629 0.2711630166 0.3531149626 0.89308846
0.09719796479 0.06722322106 0.5947951674 0.2210050523 0.3935259879 0.8898655176
0.1003497243 0.07261379808 0.5918168426 -0.0709682852 0.5016640425 0.8159104586
0.1133912504 0.06539902091 0.599147141 0.05211424083 0.4415626228 0.8445882797
0.1039076596 0.06823325902 0.5950157046 0.07413575798 0.4433466196 0.8538278341
0.1148039252 0.05267542228 0.6124576926 0.3216950893 0.427559644 0.8409079313
0.1027792692 0.06399508566 0.5998466611 0.25514552 0.3770363629 0.8858761191
0.1079286858 0.06032552943 0.6046048999 0.283380419 0.3778190613 0.8761422038
0.09667334706 0.06239646301 0.6006197929 0.3042214811 0.4327533245 0.8447102308
0.1008777469 0.05854770169 0.6054297686 0.3392491341 0.4414237738 0.8292012215
0.09144151956 0.06663585454 0.5954290628 0.2734300196 0.424102813 0.8588448763
0.1695766896 0.07065147161 0.6273574233 -0.7007027864 0.06743833423 0.7091523409
0.1637580693 0.08065304905 0.6137587428 -0.6487596035 -0.1273873746 0.7487636805
0.1334330887 0.07371967286 0.6144615412 -0.4383486807 0.2005019933 0.8543729186
0.1470714062 0.07994106412 0.6133515239 -0.5355476737 0.006002096459 0.8050974011
0.1564013213 0.0744484365 0.6201252937 -0.6083469987 0.06385305524 0.7628921866
0.1623273641 0.07436611503 0.6217794418 -0.652208209 0.03334835172 0.7390893102
0.1507334858 0.07625411451 0.617200613 -0.5651910901 0.05893524736 0.7871810794
0.154651016 0.08046465367 0.6149783134 -0.5912085176 -0.04542996362 0.7752074003
0.1402527839 0.07629625499 0.6143555641 -0.487691164 0.1149277389 0.8291870952
0.148476705 0.07543130964 0.6043952107 -0.2404181957 -0.05236236379 0.9550353885
0.1511440426 0.08239769191 0.6053704023 -0.2571284771 -0.1424680948 0.9500983953
0.1531252265 0.0715579316 0.6052590013 -0.370210439 0.005797095131 0.8941069841
0.1578947306 -0.002564823255 0.6926943064 0.1710319817 0.5821845531 0.7937829494
0.1609776467 0.001191142946 0.6887856126 0.1576751322 0.5958825946 0.7874404788
0.1454954594 0.1126154512 0.6198960543 -0.6307231784 -0.1556095183 0.7599924803
0.1483970433 0.1074657738 0.6167957187 -0.5777981877 -0.1801639795 0.7937007546
0.0743964985 0.1030597687 0.5894078016 0.5202319622 -0.2114248872 0.8261544704
0.07862767577 0.109825395 0.5888450146 0.4341617227 -0.2625239193 0.8610678911
0.0646058917 0.1331344694 0.6201427579 0.4783211648 -0.3419695795 0.767847538
0.07227804512 0.1290136278 0.6137655973 0.4485198557 -0.40998438 0.7578158975
0.06243909895 0.1214162409 0.6156013608 0.5850532055 -0.2986938953 0.7422615886
0.06711976975 0.1243441552 0.6143900752 0.5253388286 -0.3503556252 0.7481470108
0.0782809332 0.1323944032 0.6120279431 0.3747931421 -0.475540638 0.7645382881
0.06094179675 0.1268730164 0.6191365719 0.5553610921 -0.2941121459 0.7544833422
0.05338390544 0.1305837333 0.6252470613 0.5873801112 -0.2264588177 0.7635962367
0.05833414197 0.1325658262 0.6230260134 0.5369024277 -0.2791960537 0.7670309544
0.08361604065 0.1377300322 0.6116203666 0.2915934622 -0.5381640196 0.7756459713
0.07534255087 0.1375964135 0.6147698164 0.3743713498 -0.4569529891 0.7751187086
0.1153976694 0.1232515126 0.6012285948 -0.2468875945 -0.3246868253 0.8120937943
0.1125090495 0.1307697594 0.5997831821 -0.1496985108 -0.4663358629 0.8147503138
0.1182559058 0.116383791 0.5980306864 -0.3950777352 -0.1958935112 0.8409439921
0.1245519593 0.1111259386 0.6053032279 -0.518189013 -0.08625951409 0.7490175366
0.1244537905 0.1169493794 0.6034716368 -0.5154457092 -0.1915951818 0.734534204
0.1237669811 0.1236808226 0.6014727354 -0.4936829805 -0.3145464957 0.7227637768
0.1178553104 0.1173694879 0.6046993136 -0.3015036583 -0.2128926069 0.7906413674
0.1160053536 0.1358033866 0.5973594785 -0.2070289403 -0.5121469498 0.8273771405
0.1179158092 0.1273200661 0.5946880579 -0.3848594725 -0.3681797087 0.8431671262
0.1276131719 0.09476609528 0.6109055281 -0.5871698856 0.2062571645 0.7785147429
0.1415014118 0.107398577 0.616178751 -0.591130197 -0.08248416334 0.8005873561
0.1349420398 0.1020255461 0.6131863594 -0.6105632782 -0.01397613343 0.7912663817
0.1410751045 0.1027245596 0.61302948 -0.5785208941 -0.07847355306 0.8095082641
0.1255348623 0.08735895157 0.5944749117 -0.3805597425 0.1811660528 0.8370464444
0.13511087 0.09167407453 0.6092804074 -0.4016509652 -0.01971869543 0.866645515
0.07952919602 0.09916167706 0.5907770395 0.3813765347 -0.00351929944 0.8835804462
0.08311403543 0.09280110151 0.586079061 0.2919723094 0.1062706262 0.9439826608
0.0859304145 0.08760967106 0.5860307217 0.2478700578 0.1901288331 0.9451239109
0.0927561745 0.08914726228 0.5843473077 0.1049323231 0.1780677736 0.9720711112
0.09072052687 0.09544925392 0.5834646821 0.151106596 0.06964975595 0.9792126417
0.08577504754 0.09977975488 0.5846550465 0.2820160687 -0.04951028526 0.9485716224
0.09141945094 0.1012779251 0.583457768 0.1717971563 -0.05826502666 0.9674009085
0.121714212 0.0960637182 0.5901077986 -0.6385942101 0.1998593658 0.74122715
0.02997776493 0.02948203497 0.6911036968 -0.08259676397 0.3666377962 0.9266901016
0.03166694194 0.02393335477 0.6941534281 -0.08259676397 0.3666377962 0.9266901016
0.03192001581 0.01895464957 0.6979491115 -0.08259676397 0.3666377962 0.9266901016
0.09461803734 0.00440263655 0.7071734071 0.1087552458 0.3503400087 0.9286458492
0.09944114089 -0.0008217649884 0.7074426413 0.1961231679 0.09424749762 0.9695637226
0.1170345843 -0.004195228219 0.7056563497 0.2221938223 0.1057334095 0.9657229781
0.1124104634 0.0006369144539 0.710473299 0.2136448622 0.06465203315 0.9727778435
0.1071990356 0.002610699739 0.7073227763 0.2170878202 0.09445495158 0.9699105024
0.1242241263 -0.00695340056 0.7045530677 0.2404534519 0.1872506887 0.9515554905
0.1197444722 -0.01302841306 0.7058153152 0.2213845998 0.07953341305 0.9693057537
0.1174595356 -0.002623606939 0.7112145424 0.2182488739 0.07520464063 0.9693486094
0.1441146582 0.04003820941 0.6140571237 -0.04239714146 0.5282625556 0.8439762592
0.136539191 0.04089447483 0.6140361428 0.1341153085 0.5489524007 0.822134614
0.1388980001 0.04737283662 0.614882648 0.05149394646 0.473616302 0.8093859553
0.1423108876 0.05540240929 0.618927598 -0.06696425378 0.3257650435 0.7975744009
0.1277833283 0.05050421506 0.6123586893 0.2723807395 0.4190079868 0.8493942022
0.1508474648 0.05917515606 0.6231129169 -0.2714050114 0.2545966804 0.7671715021
0.1335618943 0.05241213366 0.6149569154 0.137628451 0.3826590776 0.8287799358
0.05999839678 0.1316469461 0.6118984222 0.5276497602 -0.3764011562 0.7449263334
0.07049107552 0.1354930252 0.6115862131 0.4244166613 -0.4490317702 0.760718286
0.06505021453 0.1337818056 0.613584578 0.4768050015 -0.3971480727 0.7566741705
0.0614124909 0.130980283 0.6041717529 0.5273704529 -0.4270785153 0.7333630323
0.07587382197 0.137011975 0.6080083847 0.376060456 -0.5060828924 0.7630918622
0.07132057101 0.1350635439 0.6030403376 0.4412982166 -0.4675573111 0.7585599422
0.06681696326 0.1334333718 0.6064439416 0.4671219289 -0.455399245 0.7459745407
0.04839333892 0.1275442392 0.6258168817 0.6136139035 -0.1795642376 0.7682034373
0.1408427507 0.03738546371 0.6177068949 0.03653718159 0.5673858523 0.7985209227
0.1479477286 0.03765920922 0.6189373136 -0.1473717988 0.5759401917 0.7819800377
0.1548357159 0.0376197435 0.6209975481 -0.2741574347 0.5627727509 0.7622588873
0.1720795333 0.05691362545 0.6316184402 -0.6470585465 0.2306815535 0.7026140094
0.1588511616 0.04441278428 0.6244485378 -0.3840874434 0.4540213645 0.7456024885
0.1693246514 0.05193138495 0.6299082637 -0.5674042702 0.3058666885 0.7140517235
0.1462355852 0.05067130923 0.6077904701 -0.1197767034 0.3766374886 0.9144479036
0.1387316734 0.04940710217 0.607804656 0.031292703 0.4049876928 0.9092681408
0.1650626212 0.04647662491 0.6229636073 -0.4711205363 0.4010392129 0.7368599176
0.1547415107 0.04393821582 0.6158239245 -0.2867493033 0.501424253 0.8074328303
0.1477411687 0.04477315769 0.6115051508 -0.1538344771 0.4790841639 0.8615524769
0.163592726 0.05951526761 0.627606988 -0.5520650744 0.2416923046 0.7225408554
0.161075145 0.05424402282 0.6253575087 -0.4836321771 0.3284452558 0.7343257666
0.1512043029 0.05024958402 0.6204098463 -0.2418736517 0.4090498388 0.7680215836
0.1443260759 0.04608351737 0.6166411638 -0.07120899111 0.4867395461 0.7925390601
0.1552513093 0.05499754101 0.6231607199 -0.3459465206 0.3275874853 0.7518727779
0.1173116863 0.07359501719 0.5949147344 -0.1683604419 0.3876594901 0.8424734473
0.1085647866 0.07908492535 0.5909872651 -0.3419926465 0.51200068 0.765578866
0.1184834763 0.08144848049 0.5924209952 -0.3645405173 0.3788560927 0.800434351
0.1220445335 0.07667687535 0.5949118137 -0.2290442288 0.3259144425 0.8471973538
0.1179818362 0.06941337883 0.6001172662 0.005359920207 0.3321363926 0.8856117129
0.1242664233 0.0682098344 0.5997804999 0.02063865401 0.2714018226 0.9153709412
0.1296249628 0.06614769995 0.6019411683 0.09757915139 0.1938956678 0.9553984404
0.1343673021 0.0724491626 0.6018725038 0.03564703837 0.07830668241 0.9864571095
0.1294791549 0.07366797328 0.5988672972 -0.07434406132 0.1876274645 0.9260436296
0.1279063374 0.08005899936 0.5976849198 -0.1833020747 0.1699406654 0.9056009054
0.1165432855 0.09122974426 0.589057982 -0.5456004739 0.3308784068 0.7659463286
0.1071012244 0.07399923354 0.5934151411 -0.2098620981 0.5274884701 0.7846198082
0.124172397 0.06043957919 0.60547328 0.1823227853 0.338981837 0.8947143555
0.1211433783 0.06025936082 0.6111747026 0.3081476688 0.270948112 0.9069976807
0.1357254386 0.0608876422 0.6167516112 0.05673147738 0.2334562093 0.8366221189
0.1262688786 0.05831978843 0.6129882336 0.2722283006 0.2818565071 0.8682138324
0.1532537937 0.06463216245 0.622992754 -0.3400475681 0.1620086879 0.7705975771
0.1452693045 0.06296001375 0.6205213666 -0.1595612466 0.1934095621 0.8022578359
0.1643570513 0.06573656201 0.6274043322 -0.5887235403 0.1374142021 0.724750042
0.13649939 0.06701482832 0.6159406304 -0.1563370675 0.1945737302 0.8409169316
0.1247916445 0.06997543573 0.6117115617 -0.1427189559 0.2329456657 0.8889935017
0.1419307292 0.06939631701 0.6179414392 -0.3665355742 0.1809412986 0.8189679384
0.1494532675 0.07042793185 0.6206891537 -0.5345858932 0.1595434994 0.788354218
0.1309568137 0.06341186911 0.6138865948 0.1218397915 0.2071833909 0.8632048368
0.1599255502 0.07661624998 0.6088065505 -0.5790213943 -0.05506903678 0.7993378639
0.1797924042 0.07127130032 0.6229330301 -0.6877307892 0.03906007856 0.7218282819
0.1710703522 0.06924775243 0.6155459285 -0.6472348571 0.05729320645 0.7562087774
0.16863814 0.07573509961 0.6150215268 -0.6625672579 -0.06965475529 0.7436913848
0.1758132726 0.07486336678 0.6196104884 -0.6799157858 -0.002429535612 0.7320283055
0.05263296887 0.08146689087 0.6152541637 0.7534057498 0.1933995336 0.6274113059
0.0534049347 0.08868899941 0.6179382205 0.7555344105 0.03677285463 0.6253257394
0.0586390011 0.1017554104 0.6141265631 0.6813079715 -0.09494093806 0.6804057956
0.05812897906 0.1085269824 0.6153408289 0.661272049 -0.1836058795 0.7000418305
0.04946653917 0.0848589763 0.620757103 0.7813506722 0.0875331983 0.6050678492
0.05349786952 0.08621111512 0.6119212508 0.7809084654 0.1039469391 0.6091145873
0.07035516202 0.0912201032 0.592492342 0.5307691693 0.1028004959 0.8265836835
0.06648173928 0.08533079922 0.5959445834 0.5577447414 0.2992576361 0.7734820843
0.07532102615 0.08669108897 0.590740025 0.4301479757 0.2464651912 0.8638595939
0.07650131732 0.09282468259 0.588837266 0.413043052 0.09089337289 0.9002131224
0.07248795778 0.09724926949 0.5905171633 0.5093283653 -0.04540897906 0.8471625447
0.07257524133 0.1036026105 0.5953316689 0.4708187878 -0.1264691353 0.838537395
0.07395090908 0.1167356223 0.6005317569 0.4513856173 -0.3722848296 0.8016385436
0.06939626485 0.1100846753 0.6007888317 0.5294229388 -0.2666485608 0.7783987522
0.09920587391 -0.01488632616 0.7092843652 0.2076366842 0.02994643711 0.9777474999
0.09451066703 -0.0118946135 0.7116751075 0.1779375374 0.1252109706 0.9629829526
0.08416707814 -0.005048435647 0.7190005779 0.04931504279 0.4359231293 0.8913767934
0.09065125138 -0.005713268183 0.7149128318 0.08881957829 0.371094197 0.9156717658
0.08966042846 -0.01463939343 0.7136640549 0.1321928054 0.2369229347 0.9306245446
0.0812677592 -0.01675713435 0.7193418145 0.03975505009 0.4390498996 0.8881376386
0.08499729633 -0.01063023694 0.7157478929 0.03948797286 0.4757306278 0.8786219358
0.09815204889 -0.007245101035 0.7080708742 0.1899707764 0.08698771149 0.9689933658
0.1291912794 0.117640987 0.5958630443 -0.6378763914 -0.1274804324 0.7270879149
0.1250235587 0.1219432801 0.5952248573 -0.4263869226 -0.3030349314 0.8363781571
0.1334636956 0.118361108 0.6006768942 -0.7021923065 -0.1903000325 0.6830463409
0.1183401123 0.1213902757 0.5919219255 -0.3589570224 -0.3353848159 0.8707273602
0.08692865074 0.1311686635 0.6045978069 0.2882109582 -0.5234153271 0.7916707397
0.09416672587 0.1317686141 0.6021585464 0.1880305111 -0.5348133445 0.799169898
0.08037108183 0.1281202137 0.6061918736 0.3889221251 -0.4703224897 0.7814585567
0.07439848781 0.1223644242 0.606365025 0.4608618021 -0.4167649746 0.7723189592
0.1004232466 0.1288138926 0.5986844301 0.02458666824 -0.4698328674 0.8240389824
0.07889032364 0.1223466545 0.6014971137 0.3934094608 -0.4602645338 0.7944797873
0.1401963383 0.0972654745 0.6100156307 -0.4586596489 -0.123672232 0.8562335372
0.1479109675 0.100203909 0.6071485877 -0.4070470333 -0.2156722248 0.8632335663
0.1441355944 0.1047642753 0.6054033637 -0.4842935503 -0.2024601698 0.8182423711
0.1331479549 0.1124995351 0.5977350473 -0.6656863689 -0.08078458905 0.7283220291
0.1389816254 0.1062313393 0.6007958055 -0.5524306297 -0.1128997356 0.7920749784
0.155247584 0.08885663003 0.6118988395 -0.4902456105 -0.1902440637 0.8235887885
0.1531377137 0.09784570336 0.6115739942 -0.3496141136 -0.2693710327 0.893212676
0.1415800005 0.1114245206 0.6060587168 -0.5838054419 -0.222260505 0.7581941485
0.1490926445 0.1018215045 0.6130586267 -0.4647419155 -0.2148993462 0.8531758785
0.103131257 0.07987179607 0.5962052941 -0.1109046936 0.3007419407 0.893183887
0.09362076968 0.07860613614 0.587479353 0.1107618064 0.3078747392 0.9378774762
0.09753505886 0.08376310766 0.5944960713 -0.004329177551 0.2606375217 0.8901982307
0.1070784852 0.08427060395 0.6010298729 -0.2182460874 0.2651123703 0.8489346504
0.09294679761 0.09020953625 0.5907453299 0.08916857094 0.1455000937 0.9205402136
0.09810898453 0.08954967558 0.5941952467 -0.02423643321 0.16182293 0.8989011049
0.1066951454 0.08509864658 0.586695075 -0.259613663 0.3268007636 0.8878455162
0.1136764586 0.08545674384 0.5896984935 -0.4827308655 0.4396492541 0.7550870776
0.1083660796 0.09049911052 0.5859691501 -0.2843934298 0.2342311591 0.8920482397
0.0984390229 0.0843462646 0.5856434703 -0.04048173502 0.2729755342 0.9505047798
0.1032675058 0.09261986613 0.5841334462 -0.1097260118 0.1290431917 0.978877306
0.121234782 0.1023162231 0.5894110203 -0.6120197177 0.1280085146 0.7766218781
0.1156481504 0.08659323305 0.6071193218 -0.4044289887 0.229486689 0.8104122281
0.09748952836 0.09600732476 0.5960621834 0.0002179440198 0.04167864472 0.8771749735
0.08920893818 0.1065707132 0.5943142772 0.1999718398 -0.1608941406 0.8709438443
0.1028181165 0.09413705766 0.5997756124 -0.1163572147 0.08015148342 0.8523647785
0.08518960327 0.1129456311 0.5941212773 0.2999608517 -0.2824850082 0.8606225252
0.08910077065 0.0978359431 0.5896298885 0.1810318381 0.001916912152 0.9227594137
0.09373276681 0.1011618674 0.5954594016 0.09172234684 -0.05697777122 0.8722299933
0.1107740477 0.08874285966 0.6039531827 -0.2967306972 0.1861111969 0.8305393457
0.07882869244 0.1180467978 0.5973262191 0.4205177724 -0.395205915 0.8129388094
0.08157496899 0.1047079042 0.5861897469 0.3982682526 -0.1914859265 0.8935316801
0.09484256804 5.323781079e-05 0.7154428363 0.1586825252 0.1943768412 0.9469108582
0.09072419256 0.0006894678227 0.7109698653 0.07939524949 0.3995933831 0.9108563662
0.09928042442 0.002213223837 0.7128572464 0.2117830515 0.07708230615 0.9742721915
0.105147019 -0.01268182322 0.7098558545 0.2076366842 0.02994643711 0.9777474999
0.1124901846 -0.007249944378 0.7096005082 0.2076366842 0.02994643711 0.9777474999
0.1061703488 0.0005888433661 0.7132725716 0.2101559937 0.05858595669 0.9756358862
0.06625401974 0.07629240304 0.6000965834 0.6046910882 0.3939323723 0.6899648309
0.1307502687 0.04466978833 0.6121837497 0.1873464286 0.4918530881 0.8463389277
0.1317214817 0.0501027666 0.6082562208 0.1613792181 0.3962673545 0.9002845287
0.1427012384 0.06820372492 0.6029052138 -0.07655136287 0.08041851223 0.9838497043
0.1407033056 0.07432556897 0.6027386785 -0.05629108846 -0.006419314537 0.9927039146
0.1574104428 0.06618763506 0.6066507697 -0.5206660032 0.0991544947 0.8338650465
0.1412410289 0.0595510751 0.6042129993 -0.019831663 0.2269869894 0.9641996026
0.1356689334 0.06326080114 0.6026437283 0.1023631096 0.1652780324 0.9775165319
0.176601544 0.06135417148 0.6237930655 -0.6844275594 0.1542680115 0.7089816332
0.1648422331 0.06040317565 0.6149193645 -0.6471075416 0.1891124547 0.7357988954
0.1692977697 0.06366059929 0.6164119244 -0.6518651247 0.1325051934 0.7421273589
0.1640849859 0.06541503966 0.610722661 -0.6209670305 0.1035212651 0.7737856507
0.1740514785 0.05299681425 0.6259535551 -0.6616674066 0.2500205636 0.6982616782
0.1663310528 0.05551835522 0.6186701059 -0.6264725327 0.2492642254 0.7255828381
0.1690274924 0.05045993999 0.6232632995 -0.5528969765 0.3195580244 0.7324893475
0.1566889584 0.04952286556 0.6140596867 -0.3945613205 0.4016076624 0.7957091331
0.1604489386 0.05604471639 0.613801837 -0.5709096789 0.2728080153 0.7521899343
0.05629340932 0.07251022011 0.6173921227 0.6571033001 0.4005935192 0.6384956837
0.05896493793 0.07449712604 0.6125102043 0.680711925 0.3502911925 0.6352504492
0.06042578071 0.06765399128 0.6175065041 0.6502520442 0.4114414155 0.6385328174
0.1110190451 0.1005027965 0.5853821039 -0.3346801102 0.05096221343 0.9081036448
0.1251899302 0.1065466627 0.5912159681 -0.6415176392 0.04955495149 0.7538291216
0.1234030351 0.1165262908 0.5925841928 -0.446252197 -0.2406968325 0.8540821075
0.1105753779 0.124138914 0.5905513167 -0.2057771981 -0.3727909923 0.8956202865
0.1114048585 0.1057016775 0.607555151 -0.2552670538 -0.02658957615 0.7852659822
0.1055454537 0.1158999726 0.6025291085 -0.1282889098 -0.2256398797 0.8100519776
0.1202046573 0.1105204597 0.6008826494 -0.4444595277 -0.08588033915 0.8269290924
0.0989657566 0.1200990602 0.6020078063 0.01375602838 -0.3201196194 0.8094685078
0.1240735725 0.09943727404 0.6072731018 -0.5286275148 0.1229322404 0.7935225368
0.1106610745 0.1187358424 0.5986257792 -0.2382702529 -0.260722369 0.834407568
0.1177500784 0.1060829088 0.6049286723 -0.3919185102 -0.0143053038 0.8031878471
0.09403376281 0.1258633733 0.599768877 0.1204254925 -0.4374957681 0.819283545
0.1030970216 0.1224693805 0.5987989306 -0.07505655289 -0.3498771191 0.8294515014
0.110952571 0.1117378175 0.6034600139 -0.2450729012 -0.1353408396 0.8077443242
0.09273666888 0.07155755907 0.5904173255 0.1651262194 0.3857220113 0.9056477547
0.09190458804 0.07275206596 0.5970463753 0.1727598608 0.3635742664 0.8683524132
0.1104798988 -0.01401059981 0.7073255181 0.2076366842 0.02994643711 0.9777474999
0.1050634906 -0.00515509909 0.7077250481 0.2085775882 0.04064258561 0.9769588709
0.06342875957 0.1047053337 0.6040425897 0.6576204896 -0.1981478035 0.702042222
0.06709474325 0.1175366938 0.6079130769 0.5468991995 -0.3556862175 0.7541456819
0.0660072118 0.1119617075 0.6055656672 0.5851949453 -0.2882756293 0.7383031249
0.05974449962 0.1005188599 0.6017109156 0.7102214694 -0.1296274513 0.6717858911
0.06418658048 0.1166780144 0.6001152396 0.550619185 -0.3190968931 0.7651684284
0.06285706162 0.1224402115 0.6029670238 0.5331613421 -0.3922221959 0.7443864942
0.06391375512 0.09731043875 0.5969049931 0.645598352 -0.05989110097 0.749785006
0.0631538555 0.1105992943 0.5997431874 0.5831882358 -0.2198465317 0.7624199986
0.06887099892 0.1078655124 0.5944921374 0.5545735955 -0.2453416288 0.7903351188
0.05779534578 0.1269700676 0.6077256203 0.5575476289 -0.3851876259 0.7346826792
0.05161058903 0.1272297055 0.619546473 0.594471395 -0.2524663508 0.7556207776
0.05484694615 0.1267525554 0.6136108041 0.5768557191 -0.324056983 0.7430639863
0.05675411224 0.1151904687 0.608851552 0.6343740225 -0.2579948902 0.7029424906
0.05766830593 0.1067700461 0.6045187116 0.6951938868 -0.1636033356 0.6613041162
0.05558360368 0.1204512939 0.6130960584 0.5931421518 -0.3165868223 0.7318780422
0.053962484 0.09400434047 0.6110452414 0.7604537606 -0.01719093136 0.6231315732
0.05279846489 0.09913402796 0.6149433255 0.7153409719 -0.07497429848 0.6502088308
0.05594914407 0.1015171111 0.6080145836 0.725994885 -0.1025373414 0.6478454471
0.0559425801 0.09197279811 0.6059049368 0.7913290262 0.005397578236 0.6062588692
0.05071501061 0.1135869324 0.6218597889 0.6544644833 -0.1317329705 0.7194657922
0.04953731969 0.0947746411 0.6212571859 0.7370724082 0.01252999622 0.6436280608
0.05349874124 0.1148656011 0.6164397001 0.6293682456 -0.2229993939 0.7153449059
0.05206837505 0.1069629416 0.620074749 0.6810879707 -0.1015482247 0.6934571266
0.05257952586 0.1203758642 0.6208180785 0.6227571964 -0.2002269179 0.7474716306
0.1479252279 0.05738032982 0.6059378386 -0.1625919044 0.2699700296 0.9438887239
0.1485299915 0.06425640732 0.6046953797 -0.2560933828 0.1518295109 0.9373693466
0.1557920724 0.06092325598 0.6073624492 -0.4103634059 0.2025378793 0.8675712943
0.1516930014 0.05367767066 0.607881546 -0.2247159332 0.3409615457 0.9101373553
0.1189439148 0.113884896 0.589228034 -0.3658345044 -0.2415368706 0.8968078494
0.1157584935 0.1078723669 0.5870984793 -0.321573019 -0.1550268531 0.9323877692
0.1134223714 0.1180999428 0.5886605382 -0.2972875237 -0.2994356453 0.9040442705
0.1094693393 0.1132635772 0.5858854055 -0.2193383574 -0.2072284222 0.9477881193
0.106823273 0.106967181 0.5835072994 -0.1761546731 -0.1195476577 0.9726853371
0.107603386 0.1191159636 0.5874800682 -0.1700745821 -0.31044209 0.9271995425
0.1016920656 0.1125035957 0.6058208942 -0.04405970126 -0.1812179834 0.7874510884
0.08595894277 0.1245421097 0.6030493975 0.2960549891 -0.4436143935 0.7940276265
0.0968586877 0.1141267121 0.6020650268 0.0722745806 -0.2608226836 0.7868807316
0.09737598896 0.1192838177 0.5866142511 0.1210507527 -0.4056364894 0.8914538026
0.08503060043 0.1217957139 0.598225832 0.3339097202 -0.453137368 0.792336762
0.09143789858 0.1169839129 0.5998473763 0.1908743083 -0.3375149667 0.7943691611
0.1166830137 0.09912922233 0.6068540812 -0.3688366413 0.09517203271 0.7920942307
0.1055307835 0.105522424 0.6029229164 -0.1267993301 -0.06501600146 0.8070162535
0.09104898572 0.1166924983 0.5868199468 0.2543355525 -0.3825642765 0.879693985
0.07631774992 0.1295222193 0.5956879854 0.4141247272 -0.4314010739 0.7932633758
0.08507613838 0.1145516038 0.5875512958 0.3429209292 -0.3258084357 0.8783138394
0.0899553597 0.1232522205 0.5902051926 0.2729099393 -0.4699434042 0.8271186352
0.08189627528 0.1225921959 0.5916042328 0.3641333282 -0.3951752782 0.8323640227
0.08999472857 0.1113986373 0.5854104161 0.2461187243 -0.2814516127 0.917348206
0.1232535392 0.09156175703 0.6097480059 -0.5294632912 0.2274983227 0.7846448421
0.1120370179 0.09584340453 0.6057027578 -0.2954854667 0.09414325655 0.8056768179
0.1041347682 0.09982887655 0.6027035713 -0.1260448843 -0.009453424253 0.8201763034
0.1204674765 0.08473750204 0.6099580526 -0.508782804 0.2728927732 0.7924570441
0.09483329207 0.1084144711 0.5985735655 0.09188192338 -0.1701605767 0.8359653354
0.05705756694 0.08379822969 0.6071669459 0.6949594617 0.3100420535 0.6441972256
0.06063825637 0.09136295319 0.600313127 0.7368134856 0.008909628727 0.6580360532
0.06227993593 0.1070273593 0.6102859378 0.638653934 -0.1441702545 0.7057847977
0.05822370574 0.08958099037 0.610941112 0.6855224371 0.1529633701 0.656722784
0.06024846062 0.09591084719 0.6107567549 0.6543957591 0.06499237567 0.6773230433
0.06534299254 0.07326058298 0.6054261923 0.6162636876 0.4157989621 0.6668632627
0.06257878244 0.08242087811 0.6017247438 0.6210325956 0.3431263566 0.6989395022
0.06062505767 0.07816951722 0.6069213748 0.6509677172 0.3965559304 0.6462193131
