# .PCD v0.7 - Point Cloud Data file format
VERSION 0.7
FIELDS x y z normal_x normal_y normal_z
SIZE 4 4 4 4 4 4
TYPE F F F F F F
COUNT 1 1 1 1 1 1
WIDTH 512
HEIGHT 1
VIEWPOINT 0 0 0 1 0 0 0
POINTS 512
DATA ascii
-0.04698321968 -0.2608430982 1.076574445 -0.01581516117 0.07697857916 0.9750766754
-0.05606229976 -0.2587342262 1.077000022 -0.07534180582 0.2778902054 0.9347602725
-0.02946323343 -0.2638736367 1.074268937 0.008815066889 -0.06085863709 0.9952370524
-0.03490968049 -0.2593230009 1.075353861 0.03186235577 -0.08282085508 0.9947841167
-0.04115757346 -0.2595490813 1.076246142 0.04628954828 -0.04669170827 0.9954582453
-0.03667952865 -0.2648466527 1.075253487 0.02390827611 -0.01111337077 0.9961717129
-0.03544558212 -0.270976603 1.07504952 0.007705942262 0.04680006579 0.997305572
-0.172068134 -0.148728177 0.9987223148 0.2740548551 0.1850720048 0.9431904554
-0.05473614484 -0.2690146267 1.076698422 -0.101826176 0.2328917533 0.9563886523
-0.04458663985 -0.2694619 1.075627327 -0.04890656099 0.1565370858 0.9750471711
-0.04441671818 -0.2749938071 1.075609446 -0.007923714817 0.07857324928 0.996373117
-0.05299283564 -0.2766689062 1.076514363 -0.03773845732 0.1145926639 0.9884163737
-0.06634750962 -0.2817816734 1.075832009 -0.07878152281 0.2030905187 0.9652425051
-0.04137600958 -0.2710964978 1.082412124 0.03480885923 0.03874135017 0.9950057864
-0.03991394863 -0.2721745968 1.077598453 0.0525242947 0.071062617 0.9940106869
-0.03236819431 -0.2680492401 1.080425143 0.01494874619 -0.06117033586 0.9945055842
-0.04556353018 -0.2683869004 1.08296299 0.05565503985 0.06407278776 0.9958202243
-0.05019953474 -0.2744315863 1.084410906 0.01007698197 0.09700134397 0.9945029616
-0.05183853209 -0.2779798806 1.08119905 0.0002766169782 0.09390547127 0.9945966601
-0.07398508489 -0.2576251626 1.066518903 -0.07226168364 0.3143033385 0.9452728629
-0.06519003212 -0.2714729011 1.072080731 -0.04234178737 0.1732863337 0.9782643318
-0.06380081922 -0.2617434859 1.072980523 -0.1231334805 0.3166154027 0.9380918145
-0.05979122594 -0.2723985016 1.075577259 -0.0751645416 0.1925903857 0.9694883823
-0.05864980817 -0.2783496678 1.076316476 -0.04033006355 0.1167788282 0.9895254374
-0.0608449392 -0.2669484913 1.074894786 -0.1070038304 0.2619674504 0.9511579275
-0.06539770961 -0.2661975622 1.071946263 -0.07910978049 0.2452775389 0.9586712122
-0.07003982365 -0.2665849626 1.068960428 -0.04306922108 0.2134986073 0.9703456163
-0.06354074925 -0.2768806219 1.074079633 -0.05004196614 0.1644044667 0.9782153368
-0.07662119716 -0.2632337213 1.065897346 -0.0641252175 0.2934499085 0.9508599639
-0.07289752364 -0.2708070874 1.06933248 -0.07477483898 0.2724771202 0.9526433349
-0.07607062906 -0.2746576667 1.069494486 -0.1066513509 0.3343859017 0.9343504906
-0.06969736516 -0.2794808745 1.072933674 -0.09253232181 0.2637063861 0.9506514668
-0.07119413465 -0.2751181424 1.071157694 -0.08301126212 0.2665014565 0.952080965
-0.07773194462 -0.2679100335 1.06703651 -0.0897474438 0.331569016 0.9378208518
-0.05136790127 -0.2578915358 1.077998638 -0.02234068327 0.1445719153 0.9570987225
-0.0531819649 -0.2629585564 1.080263376 -0.02030304633 0.1158916503 0.9817544222
-0.04025179148 -0.2645019591 1.081461787 0.03967361152 -0.02161713503 0.9968981743
-0.05017586797 -0.2660901845 1.083038449 0.008758941665 0.03796455264 0.9947283864
-0.05327304453 -0.2707839012 1.084210634 -0.0150642721 0.08835928887 0.9943021536
-0.04519389942 -0.2618142366 1.082873821 0.04528233781 -0.03573935479 0.9945594072
-0.02064353414 -0.2564351559 1.074934721 0.005641580559 -0.107856907 0.9940884113
-0.01686569303 -0.2536497712 1.078541279 0.00513411127 -0.1057431102 0.9943802357
-0.01966881752 -0.2571564019 1.080957413 0.00513411127 -0.1057431102 0.9943802357
-0.02586558089 -0.2634127736 1.079007626 0.00513411127 -0.1057431102 0.9943802357
-0.01579892077 -0.2538022399 1.084871054 0.00513411127 -0.1057431102 0.9943802357
-0.04108985141 -0.1363409162 0.9755237699 -0.4423884153 0.07466282696 0.8926330805
-0.02296569012 -0.2504268885 1.075963736 0.01864907704 -0.1620380133 0.9866082668
-0.01567741483 -0.245550707 1.08165741 0.01632362045 -0.1523516178 0.9879455566
-0.02197223529 -0.24481453 1.079806805 0.01723533869 -0.1521938741 0.987950325
-0.02060583606 -0.2419393808 1.08360827 0.01380754169 -0.1283254176 0.9912043214
-0.02002183534 -0.240409255 1.089121819 0.01020212192 -0.1039292291 0.9945321083
-0.01636142842 -0.2456882894 1.087924838 0.007702889387 -0.1048237234 0.9944571853
-0.01355030388 -0.2498939633 1.086136699 0.007376480848 -0.1146234795 0.9931522608
-0.1501425654 -0.09905316681 0.9945283532 0.1490095109 -0.18286255 0.9714750648
-0.1250395626 -0.09610183537 0.9948617816 0.07042907178 -0.3035335839 0.9496384859
-0.1429186314 -0.09531118721 0.994009912 0.1106377542 -0.2220162749 0.9682637453
-0.1376973093 -0.09397085011 0.9953705072 0.1004743502 -0.2463223189 0.9625943899
-0.1420889795 -0.101237528 0.9942609072 0.1360458583 -0.1817870736 0.9700613618
-0.1254796684 -0.09289993346 0.9994283319 0.08656787127 -0.2964165807 0.9487624168
-0.1321502775 -0.09410572797 0.9973755479 0.09711171687 -0.2657144666 0.9563817382
-0.06414099038 -0.276984036 1.084097385 -0.05182572827 0.09449535608 0.994130373
-0.05991172418 -0.2811138034 1.081362128 -0.03757519647 0.09129149467 0.9950754642
-0.05606465042 -0.2768065929 1.085395694 -0.03012748435 0.1063588709 0.993811965
-0.06785324216 -0.2822006345 1.080806971 -0.06554628164 0.1113420054 0.9882953763
-0.07412711531 -0.2826581597 1.07493329 -0.1193911135 0.2788749039 0.9448779821
-0.09279450029 -0.2785291374 1.074339867 -0.1025452241 0.1241273805 0.9821674824
-0.08469178528 -0.2720248997 1.07070148 -0.0570349507 0.2502455413 0.9620597959
-0.08353827894 -0.2675172389 1.068489552 -0.05934219062 0.2783144116 0.9546906352
-0.08636707813 -0.2818085253 1.075444818 -0.04574368149 0.2003388256 0.9768352509
-0.0887901634 -0.2758885324 1.072813153 -0.07864672691 0.1848342419 0.9729523063
-0.09718175232 -0.267116338 1.069029331 -0.09540686756 0.3039264381 0.927623868
-0.1019507349 -0.2644413114 1.067961216 -0.09601788968 0.3748549223 0.9025569558
-0.1157037318 -0.2613317668 1.067113161 -0.1035942882 0.5149002075 0.8477262855
-0.09877269715 -0.2596369982 1.065479875 -0.08729372174 0.419853121 0.8942884207
-0.09732895344 -0.2763853967 1.073529601 -0.107233502 0.1751256734 0.9623048306
-0.089857243 -0.2694430947 1.069806099 -0.09221868217 0.2199475169 0.9593679905
-0.09852557629 -0.2716245055 1.071279049 -0.1022230089 0.2502078712 0.9405099154
-0.1093591675 -0.2603416145 1.066329002 -0.09703764319 0.4842568934 0.8638283014
-0.09338411689 -0.2629241943 1.066815019 -0.08693742007 0.3360030949 0.9236152768
-0.03523825854 -0.256480068 1.083929777 0.02875931934 -0.08179721981 0.995793283
-0.03561909124 -0.262486279 1.081671476 0.01354858 -0.07319422811 0.9970492125
-0.02776358835 -0.2493470311 1.087906599 0.009686314501 -0.09228890389 0.9955484271
-0.0323347263 -0.2511359453 1.086412072 0.02873022854 -0.08955221623 0.995131135
-0.03040901758 -0.2457498312 1.08306551 0.01706714556 -0.145696938 0.988794744
-0.03069984727 -0.2632771432 1.081528902 0.006846636068 -0.09285373241 0.995503962
-0.02918434329 -0.2574412227 1.084204555 0.007913561538 -0.09395156801 0.9954066873
-0.02653996646 -0.2432466447 1.087768435 0.01306345686 -0.1231442094 0.991910696
-0.04391948134 -0.2554126978 1.077804804 0.06298051775 -0.08074613661 0.9946668148
-0.04019960389 -0.2549018264 1.081047654 0.05191875249 -0.1010304242 0.9926559925
-0.03789868578 -0.2509921193 1.078999877 0.03929497302 -0.1241790205 0.9903612733
-0.01922798157 -0.2503293157 1.087456703 0.006926267408 -0.1051016822 0.9944339395
-0.02301998809 -0.2460317463 1.089447379 0.008973142132 -0.104369089 0.9944952726
-0.02200645953 -0.2556716204 1.085018992 0.006259969901 -0.105340153 0.9944139719
-0.03345970064 -0.2541599572 1.076999903 0.02099040151 -0.157744661 0.9870339036
-0.03388024494 -0.2484708428 1.079097986 0.02657434531 -0.1475052088 0.9880489111
-0.02659526095 -0.2476274818 1.076941729 0.01864907704 -0.1620380133 0.9866082668
-0.02839881927 -0.2573241591 1.075135231 0.01365115866 -0.1412198097 0.9894824028
-0.02197079174 -0.1571261138 0.9878070951 -0.3976624012 0.06110219285 0.9154352546
-0.02864561602 -0.1550094038 0.9891954064 -0.3772351146 0.0690112114 0.9224247336
-0.03391924128 -0.1608263701 0.9881436825 -0.3778396845 0.1079426706 0.9194164276
-0.0392479226 -0.1562290043 0.9850328565 -0.3656197488 0.1453665942 0.9186902046
-0.03326494247 -0.1564951092 0.9848986864 -0.3887711167 0.1165930405 0.9121900201
-0.03541759029 -0.1448063701 0.9796003103 -0.4222388268 0.1402085274 0.8949255347
-0.02793785371 -0.1599826664 0.9869674444 -0.3974814713 0.08321039379 0.9131505489
-0.01859055459 -0.1468827873 0.9891237617 -0.4013199806 0.02696483023 0.9149401188
-0.01805699244 -0.1421802193 0.9904211164 -0.4059067667 0.009627160616 0.9132604003
-0.01898610592 -0.1523825228 0.9882694483 -0.3971516788 0.04673701152 0.9162985682
-0.02483719215 -0.1305000782 0.9899595976 -0.4356773198 -0.04017081484 0.897115469
-0.02128134668 -0.1338657141 0.9906960726 -0.4192658365 -0.02228676714 0.9067771435
-0.1044162959 -0.1057216749 0.9882250428 0.2048770785 -0.3860874176 0.8906486034
-0.1092012599 -0.1155477166 0.9865033627 0.2682114542 -0.2486558706 0.9160544276
-0.1155725941 -0.1097255424 0.9895693064 0.1785259247 -0.2846565247 0.9274557829
-0.1145621389 -0.1157354042 0.9876413941 0.2395677567 -0.2200278044 0.9316814542
-0.1154689267 -0.1006536707 0.9921203852 0.09770025313 -0.386585176 0.9169860482
-0.1203106344 -0.1018500403 0.9887851477 0.09291873127 -0.3397104442 0.9354094863
-0.1173643768 -0.1203715354 0.9833522439 0.2538510263 -0.1715644747 0.9421710372
-0.1125074774 -0.120620437 0.9814674854 0.261901468 -0.2386008799 0.9255386591
-0.04498975351 -0.1327402294 0.9725052714 -0.4200300872 0.03595494106 0.9048656821
-0.1259103417 -0.09892523289 0.9890628457 0.07689556479 -0.3148247302 0.9456808567
-0.1357546449 -0.09327916801 0.99122262 0.09057283401 -0.2536085844 0.9628202915
-0.142190963 -0.09792736918 0.9900144339 0.1110894233 -0.2181519568 0.9694544077
-0.05531392619 -0.110127598 0.9746131301 -0.2494029254 -0.3590782881 0.8955595493
-0.09483409673 -0.2821331024 1.077065229 -0.1067492887 0.07026988268 0.9909477234
-0.08197348565 -0.2762189507 1.071887016 -0.06255821884 0.2769695818 0.9555720091
-0.0818971321 -0.2630526423 1.066213489 -0.06087629497 0.3129476905 0.9460119009
-0.08158877492 -0.2823128104 1.074356675 -0.06775416434 0.2664082646 0.957758069
-0.08101133257 -0.2573139966 1.063423395 -0.06910900027 0.3409909904 0.9373012781
-0.07705713809 -0.2802974284 1.071806192 -0.1150318012 0.3374563754 0.9322045445
-0.08702523261 -0.2762823403 1.081112862 -0.0475532189 0.1961018741 0.9754890203
-0.0206331443 -0.12420284 0.9895526171 -0.4619348645 -0.06892735511 0.8829782605
-0.1218340769 -0.09994742274 0.9932309389 0.08342196792 -0.2951733172 0.9481062293
-0.1190087125 -0.1131101474 0.9889578819 0.2033028752 -0.201204285 0.9474048615
-0.1172180921 -0.1060086638 0.9923647642 0.1561013013 -0.2734708786 0.9362360239
-0.1228326559 -0.1110775545 0.9861835241 0.1435763538 -0.2262416035 0.9586763382
-0.1156179681 -0.1254148185 0.981077373 0.2748775482 -0.1345402747 0.9374470115
-0.0455243811 -0.1164049357 0.9762097001 -0.4200083315 -0.2039895058 0.8740843534
-0.03939709067 -0.1094582379 0.9824635983 -0.4467872083 -0.286524266 0.8462082148
-0.04964930192 -0.1171095967 0.9724910259 -0.3587245345 -0.2103325874 0.8981944919
-0.054108724 -0.1146949977 0.9738255143 -0.308280766 -0.2883864045 0.9057315588
-0.0453944765 -0.1233559325 0.9738557339 -0.4357146621 -0.0972161144 0.8901597261
-0.04758183658 -0.1257326305 0.9689531922 -0.3893675208 -0.05931093544 0.9160340428
-0.08940410614 -0.2578989565 1.065489411 -0.07127432525 0.3809999526 0.918533504
-0.1246581674 -0.2603372335 1.064466834 -0.1015635505 0.4589498341 0.876110673
-0.124767676 -0.2658683956 1.066787124 -0.1465238184 0.3712305427 0.9007336497
-0.1305783838 -0.259568274 1.070312381 -0.1264841557 0.4058747888 0.9040279388
-0.1256980151 -0.260736376 1.072198749 -0.1320932359 0.3805760145 0.9125661254
-0.1137163267 -0.263582468 1.075850368 -0.1447994411 0.3311645389 0.9266844392
-0.11723838 -0.2622654438 1.072740555 -0.1313700527 0.3934791684 0.9016943574
-0.121907264 -0.2604576945 1.068353176 -0.112317279 0.4822719693 0.8658648133
-0.123625651 -0.2703365684 1.069330215 -0.1734090447 0.2822655439 0.9325841069
-0.1195774451 -0.2653185427 1.068234444 -0.1355368048 0.4169115722 0.8833436966
-0.1227634028 -0.2753006816 1.07364583 -0.1927616298 0.2134618759 0.9577457905
-0.1141653135 -0.278734535 1.075945377 -0.1927616298 0.2134618759 0.9577457905
-0.1342133433 -0.1687987298 0.9987045527 0.09493280947 0.3452292383 0.9319941401
-0.02676692605 -0.1174757481 0.9875261784 -0.5018270016 -0.126745522 0.8548840284
-0.03325953707 -0.1189989522 0.9829528928 -0.490657717 -0.1172128618 0.8621683717
-0.02642327175 -0.1223101616 0.9851102233 -0.4837455153 -0.08488010615 0.8679865599
-0.02492424846 -0.1271110475 0.9837245345 -0.4627970159 -0.04252041131 0.883161664
-0.03267996758 -0.1321334839 0.9785753489 -0.4661982656 -0.0009048768552 0.8829358816
-0.1577516794 -0.1226685643 0.995921731 0.2074957043 -0.03574994579 0.9767550826
-0.1675935388 -0.1253857613 0.9958033562 0.2680841684 0.001390159596 0.96248281
-0.1531215906 -0.1038737819 0.9947587848 0.1996661872 -0.1123257354 0.9718595743
-0.1087136269 -0.1297240406 0.9784500003 0.3018715084 -0.1333068162 0.9364260435
-0.1200600192 -0.1321661621 0.9835712314 0.2719167173 0.01333076507 0.9541591406
-0.1292425245 -0.09493147582 0.9909889698 0.08002563566 -0.2938002348 0.9519597888
-0.1208290011 -0.09045615047 0.998639226 0.07625929266 -0.3602500558 0.9287093282
-0.1173639745 -0.09441765398 0.9977535605 0.07731875777 -0.3627101779 0.9284751415
-0.1391445547 -0.1720120162 0.9998953342 0.07281205803 0.3799108267 0.9218327403
-0.1304463446 -0.1628702134 0.9953296185 0.131791234 0.2967090011 0.9454280138
-0.1386161149 -0.1664835066 0.9967923164 0.1053110212 0.3402273059 0.9329367876
-0.09660077095 -0.2779230177 1.080010056 -0.1259171367 0.09590160847 0.9829075933
-0.0894215703 -0.2813456655 1.079868317 -0.07455281913 0.04294034839 0.9938730001
-0.102909252 -0.2675588727 1.080243468 -0.1402219236 0.2647285461 0.9501804709
-0.09751370549 -0.2701546252 1.080827713 -0.07036548853 0.3098407686 0.9419441223
-0.09251919389 -0.2736341059 1.080893755 -0.05383140594 0.2714805007 0.9595572948
-0.05904806778 -0.2722325325 1.084082842 -0.07989695668 0.189312309 0.9690870047
-0.02606586739 -0.1422245204 0.9886868596 -0.3997893035 0.01251895726 0.915780127
-0.02984088846 -0.146698907 0.9867042303 -0.3957558274 0.05107544363 0.916352272
-0.02561056428 -0.1369952708 0.9886356592 -0.4080599844 -0.006527189165 0.9126220345
-0.03063449822 -0.1414116025 0.9858853817 -0.4065762162 0.03865533695 0.9117612839
-0.02182913758 -0.1539058238 0.9919546247 -0.3765568435 0.02053499036 0.9261425138
-0.02710771188 -0.1534630805 0.9848636389 -0.4056204259 0.08171551675 0.9092833996
-0.02151073702 -0.1490606368 0.9851478338 -0.3968499303 0.04639841989 0.9161453247
-0.03164801374 -0.1500081718 0.9823586345 -0.415432632 0.1133466661 0.9013679028
-0.03585328534 -0.1370115876 0.9763991237 -0.4572868645 0.04111460596 0.8872728944
-0.03153025731 -0.1406690031 0.9790800214 -0.4368532896 0.05073896423 0.8962494731
-0.02807993628 -0.1445826292 0.9816370606 -0.4142538309 0.07952941954 0.9044570327
-0.01681172661 -0.1277194917 0.9882246256 -0.4382711351 -0.04321317747 0.8975827694
-0.0178151615 -0.1373859793 0.9900933504 -0.4084931612 -0.004817334935 0.9125085473
-0.0281025935 -0.1373484433 0.9806957841 -0.4412472248 0.01442321762 0.8960401416
-0.01844382286 -0.1337081194 0.9863921404 -0.4286770523 -0.01922443695 0.9019258618
-0.02569482848 -0.1326016188 0.9821292758 -0.4478949904 -0.007323964965 0.8928598762
-0.02206394076 -0.1378247589 0.9842475057 -0.426376611 0.002963448642 0.9030514359
-0.02043354698 -0.143528983 0.9851868153 -0.4081569612 0.01927030459 0.9116936326
-0.02155942842 -0.1303573698 0.9845706224 -0.444259882 -0.0241159983 0.8945498466
-0.1012171581 -0.1263360083 0.9774805307 0.3114378452 -0.2418387234 0.9144152999
-0.1092638075 -0.124632813 0.9819574952 0.3039817512 -0.1804079413 0.9309092164
-0.09873484075 -0.1217755079 0.9782952666 0.2991293967 -0.3055947125 0.89796561
-0.1039942652 -0.1205270067 0.98127985 0.2938674092 -0.2666342258 0.9084441066
-0.09974476695 -0.1171124056 0.9807780981 0.2854134738 -0.3370817304 0.8900963068
-0.1129345074 -0.1128748655 0.9840523601 0.2112047523 -0.3041003346 0.9248173833
-0.1060036868 -0.1158312559 0.9807368517 0.2568415403 -0.3435095549 0.8994675875
-0.1042214483 -0.1094383523 0.9839262366 0.215063408 -0.3841708899 0.8938851357
-0.09990362823 -0.105707258 0.9866173267 0.2270698547 -0.4113252461 0.8788288236
-0.1101170629 -0.1024929732 0.9902017117 0.1417702287 -0.3962998986 0.9035919309
-0.0548129119 -0.1530237943 0.9780453444 -0.2670515776 0.3050912917 0.9124749303
-0.05984893069 -0.1509143412 0.9763201475 -0.2162647098 0.2960368693 0.9246306419
-0.06727831811 -0.1470862478 0.9736096263 -0.1393918693 0.2817069292 0.9453242421
-0.03611140326 -0.1521405131 0.9852635264 -0.3792856634 0.1207596734 0.9165869355
-0.04131935537 -0.1490394622 0.9825350046 -0.3711824715 0.1707687378 0.9119798541
-0.05316569656 -0.146086663 0.9763966203 -0.3162392676 0.2314429134 0.9193457365
-0.03334856033 -0.1365534514 0.9839082956 -0.44102633 0.01734064519 0.8940284252
-0.0342380926 -0.1451280415 0.9841740131 -0.4009637237 0.07740145177 0.9117798805
-0.05345642567 -0.112948969 0.9819400907 -0.2707537711 -0.2699002624 0.8777412176
-0.06756081432 -0.1078012213 0.9814338088 -0.03674901649 -0.3503353894 0.8859192133
-0.07926741242 -0.1110654399 0.981128037 0.154798612 -0.3851715028 0.8863448501
-0.07438806444 -0.1085166782 0.9812374711 0.07538273931 -0.3756848276 0.887170434
-0.06436821073 -0.1122468486 0.9815981984 -0.09088181704 -0.3182332218 0.8812990189
-0.07055831701 -0.1120533198 0.9814073443 0.01108441968 -0.3447844088 0.8831444383
-0.07297364622 -0.2662859857 1.08182025 -0.1265108436 0.3444654047 0.9300604463
-0.06875042617 -0.2622216642 1.078291416 -0.1290803254 0.3412563503 0.9310154319
-0.07311497629 -0.2622745633 1.07647717 -0.1228062063 0.343655318 0.9310017228
-0.06973527372 -0.2581321001 1.070717454 -0.09393555671 0.3292898834 0.9380914569
-0.06372447312 -0.2634637952 1.079031944 -0.1467806399 0.3168538809 0.9323331118
-0.05896231905 -0.2626896799 1.079066515 -0.0820331499 0.2190187424 0.9611565471
-0.1138579026 -0.2655064762 1.069155335 -0.113733843 0.4318862259 0.8737006783
-0.1062691435 -0.2722987533 1.072041273 -0.113390483 0.2881525755 0.9214487076
-0.1000164077 -0.2818394005 1.076606035 -0.1345686466 0.0846933201 0.9869764447
-0.1028011739 -0.2780693471 1.074838638 -0.1277431995 0.1649798155 0.9609730244
-0.1137211099 -0.2706210017 1.071944118 -0.1475405991 0.3224412203 0.9139502048
-0.111619249 -0.2751331031 1.07419467 -0.1633421928 0.2260964364 0.9461271167
-0.1061873958 -0.2810120881 1.076852322 -0.1640435904 0.1173772365 0.9778021574
-0.1073593199 -0.2748263478 1.079754829 -0.1876020581 0.1745093018 0.9658240676
-0.1293518096 -0.2610303164 1.065849781 -0.1369187683 0.3589505851 0.9116269946
-0.1313301772 -0.2704217434 1.071499825 -0.1908968687 0.2189004421 0.9562233686
-0.127880767 -0.2735966742 1.072733164 -0.1927616298 0.2134618759 0.9577457905
-0.1326998621 -0.2659216821 1.067802787 -0.1927616298 0.2134618759 0.9577457905
-0.1580580175 -0.1171396747 0.9953945875 0.2306677103 -0.04198373854 0.9718565345
-0.1630810946 -0.1196219474 0.9958589077 0.2417642325 -0.0299804993 0.9690513015
-0.1679219007 -0.1295433044 0.9933681488 0.2733768225 0.03876765072 0.9604846239
-0.1630752385 -0.1268877983 0.9926221371 0.2682547867 0.02568380162 0.9615410566
-0.1636413932 -0.1314450353 0.9912043214 0.2768589556 0.04678244516 0.9582633972
-0.1316028088 -0.09844473004 0.9946107864 0.1063992977 -0.2627317309 0.9513959885
-0.1471993476 -0.1048676893 0.992959857 0.1619703472 -0.1321223229 0.9762411714
-0.1424164921 -0.1065131649 0.993185401 0.1716173589 -0.139235571 0.9662485123
-0.1367893368 -0.1001696512 0.9940936565 0.1218449846 -0.2230432183 0.9599279165
-0.1394456923 -0.1106891334 0.9930666089 0.2006352544 -0.1148552969 0.9580831528
-0.1288227141 -0.1020280868 0.9923315644 0.09078725427 -0.2332177609 0.9615429044
-0.1334870309 -0.1068047062 0.9919662476 0.135543704 -0.1697387099 0.9641588926
-0.135550797 -0.1507384777 0.989690125 0.1473748088 0.2444164008 0.9558820128
-0.1287672669 -0.1546580791 0.9927381277 0.1694106907 0.2390212864 0.9523589611
-0.1273087412 -0.1448371708 0.9925040603 0.1348636448 0.2058922648 0.9663363099
-0.1036419421 -0.1332197338 0.9773251414 0.3018218875 -0.1548019052 0.9257367253
-0.125273332 -0.1513780057 0.9926407933 0.1221337765 0.234058246 0.9480362535
-0.1225620136 -0.1478779912 0.9906436801 0.1428508312 0.1770782769 0.9482210875
-0.1154026762 -0.1433404982 0.9857503176 0.2012261748 0.05900939927 0.937559545
-0.1212959364 -0.1427420825 0.9894282818 0.1497921348 0.1263641119 0.9566060901
-0.1114890426 -0.1391211599 0.9829348922 0.2317798287 -0.01750455797 0.9358527064
-0.1219522879 -0.1340084523 0.9890802503 0.2205692977 0.04048994929 0.9564453363
-0.1193806753 -0.1288611293 0.9878299832 0.2501064837 -0.0367051512 0.9519558549
-0.1099673882 -0.1347782314 0.9803903103 0.2895966172 -0.07635097951 0.9369726181
-0.1149265394 -0.1333384663 0.9817166924 0.2839690447 -0.03005911037 0.9451059103
-0.1201246455 -0.1379346699 0.9855211973 0.2570994794 0.0582161881 0.9530601501
-0.1448502541 -0.1493496448 0.9968104362 0.1760867834 0.253478229 0.9429045916
-0.1405528635 -0.1471062601 0.9949668646 0.1625211239 0.2216542065 0.956613481
-0.1382469535 -0.152483508 0.9952974916 0.1404915154 0.2906585038 0.942173481
-0.1486492008 -0.1563327312 0.999790132 0.1961494237 0.3536603451 0.9095932245
-0.1432677656 -0.153781265 0.9974271059 0.1726930141 0.3151486814 0.9273222089
-0.1313410997 -0.1485950351 0.9940333962 0.1328454316 0.2422663867 0.9594666958
-0.06161418185 -0.1079414263 0.9740306139 -0.1504048258 -0.3961857855 0.9034888744
-0.06247222424 -0.1059237272 0.9804947972 -0.1195722893 -0.3763337135 0.8748782277
-0.06021952629 -0.1038385704 0.9759168029 -0.152779296 -0.4421246946 0.8798226714
-0.06986667216 -0.09892681986 0.9782139063 0.002920357278 -0.4913055301 0.8690694571
-0.07932851464 -0.1031371951 0.9808769226 0.1587935984 -0.4207524955 0.8929032683
-0.07530167699 -0.1009901986 0.9793897867 0.09116800874 -0.447299093 0.8865117431
-0.07022912055 -0.1042928174 0.9754356146 -0.005521109793 -0.425870955 0.8973922133
-0.1287258863 -0.111288473 0.986200273 0.1494767219 -0.1857659817 0.9688764811
-0.1327937096 -0.1086246148 0.9866823554 0.1323462725 -0.198006466 0.9690686464
-0.1328681409 -0.09859991074 0.9882631302 0.08014298975 -0.2634471357 0.9612560272
-0.1374767125 -0.1089105085 0.9874694347 0.1594244689 -0.1542798728 0.9720666409
-0.1424246281 -0.1050791666 0.9881971478 0.1551178396 -0.1678369492 0.9730765224
-0.138259843 -0.1013251841 0.988104403 0.1052733585 -0.2277210653 0.9678308368
-0.1101463512 -0.1079820171 0.9851410985 0.168082878 -0.3612657785 0.9136987329
-0.09656252712 -0.1134489775 0.9789184332 0.2630890012 -0.3920546174 0.8806182742
-0.09610060602 -0.1098883152 0.9831833839 0.270371139 -0.4158025682 0.8682549596
-0.1608099043 -0.1489250362 0.9894542694 0.2571084499 0.194766283 0.9460474253
-0.1654037237 -0.1504778862 0.9926832318 0.2840149403 0.2185459584 0.9323141575
-0.1646922529 -0.1445049793 0.9890364408 0.278992027 0.1399021745 0.9491416216
-0.1661878377 -0.1390589625 0.9897255301 0.290440768 0.08428257704 0.952868402
-0.1683875322 -0.1349173635 0.9923654795 0.2816706002 0.06798889488 0.956089735
-0.170329541 -0.1389589906 0.9949890971 0.2808918655 0.1069515273 0.9512086511
-0.1706411839 -0.1447580755 0.995606184 0.285426259 0.1488972306 0.9452567697
-0.1727056503 -0.1401598006 0.9991759658 0.2597031295 0.121879369 0.9548200965
-0.1717076749 -0.1326551735 0.9971535206 0.2631500959 0.06734101474 0.9599832892
-0.1679176539 -0.1378710717 1.000291705 0.2666191161 0.103733331 0.9515188336
-0.1724932939 -0.1434305459 1.002659917 0.2540118396 0.1380500942 0.9519545436
-0.1749013811 -0.1507667005 1.006485462 0.2387009412 0.228672266 0.9429311156
-0.141629234 -0.1326302141 0.9932157397 0.1732280403 0.075125359 0.9759649038
-0.1358727664 -0.1422940642 0.993632555 0.1262558103 0.1480004787 0.9745226502
-0.1444774121 -0.1613746434 0.9935844541 0.07475989312 0.3332939744 0.9384188652
-0.1444442868 -0.1556993127 0.9906696081 0.06874962151 0.3042901456 0.9493376613
-0.1437702924 -0.1659177691 0.9960694313 0.08301369846 0.3539922237 0.930303514
-0.1363609731 -0.161853075 0.9954375625 0.1130824834 0.3079756796 0.9443411231
-0.136568889 -0.1565643251 0.99164325 0.1145406291 0.2834039032 0.9516367316
-0.1555745751 -0.1589601785 1.003121495 0.2384361476 0.3844898343 0.8901200294
-0.1490480751 -0.1666697711 1.002894044 0.1410709023 0.3853439391 0.907738328
-0.1535538137 -0.1637336165 1.002798557 0.2100960463 0.408464849 0.885430336
-0.1437884867 -0.1740022302 1.003302574 0.07634151727 0.3845200837 0.9199040532
-0.1430634707 -0.1666027755 1.001405358 0.112187244 0.3604252636 0.9234904647
-0.1453262419 -0.1606025994 1.000421882 0.1671464443 0.3484865725 0.9178157449
-0.1380854249 -0.1576147676 0.9964230657 0.110575065 0.3231392801 0.937749207
-0.08385550976 -0.2665299773 1.080129623 -0.04915232584 0.338717103 0.9391537905
-0.07945819199 -0.2620145977 1.074560285 -0.09497348219 0.3461353481 0.9326534271
-0.09006225318 -0.2605969906 1.072374582 -0.06409016252 0.3735530376 0.924796164
-0.08430834115 -0.2584291399 1.06768775 -0.07057371736 0.3555259109 0.9315069914
-0.08363774419 -0.2607062161 1.072673082 -0.08741874993 0.3603387177 0.9278780222
-0.09000667185 -0.2639706135 1.076940656 -0.04446785524 0.360822022 0.9311463833
-0.08501507342 -0.2639738619 1.076173425 -0.04809887335 0.3404906988 0.9388874769
-0.09327234328 -0.2661797106 1.079856038 -0.03844321892 0.3682668805 0.9287080765
-0.08868360519 -0.2671840191 1.081032395 -0.03473746404 0.3495040536 0.9360831976
-0.07852257788 -0.2585830688 1.06807816 -0.0918552801 0.3436526656 0.9342329502
-0.07225417346 -0.2712975442 1.083262086 -0.1038163379 0.2833548486 0.946557343
-0.06691998243 -0.2688062191 1.081804395 -0.1366739571 0.2742108107 0.9430607557
-0.07049625367 -0.2781102955 1.08253777 -0.0842545256 0.1483433247 0.9803740978
-0.08084786683 -0.2805001438 1.080878377 -0.07187508792 0.1124091819 0.9811114073
-0.0739575699 -0.281650424 1.080746412 -0.08968820423 0.1151727065 0.98742342
-0.0785933584 -0.2674875259 1.082215071 -0.0893618241 0.3426987529 0.934255302
-0.08437416703 -0.2712540329 1.081782579 -0.04093787447 0.2866724432 0.954806149
-0.07908668369 -0.2722677886 1.082577825 -0.08358185738 0.3267210126 0.9394198656
-0.05816659331 -0.1156955212 0.9796293974 -0.2024348229 -0.2489319742 0.8995246291
-0.07065463066 -0.1162606999 0.9776900411 -0.002917693928 -0.2779179513 0.9186463952
-0.06560897827 -0.1185230985 0.9762382507 -0.09289426357 -0.2259073853 0.9322987795
-0.04651520774 -0.1149322465 0.9816505313 -0.3876978755 -0.2257056981 0.879658699
-0.06249714643 -0.1212516278 0.9741463065 -0.1533982009 -0.1722596586 0.9521619081
-0.0528742224 -0.1184854284 0.97773242 -0.2983782291 -0.187633276 0.9174227715
-0.05156549066 -0.1228611097 0.9768720865 -0.3249779642 -0.1237574518 0.9217048883
-0.04699682072 -0.1216265708 0.9791339636 -0.3917339742 -0.1321398616 0.8990235329
-0.02965585329 -0.1285710782 0.9874565005 -0.463403523 -0.07420024276 0.8798809052
-0.02808394469 -0.1212114394 0.9906381965 -0.4930022955 -0.104047142 0.8630309701
-0.03489504009 -0.1263154745 0.9796488881 -0.4798465073 -0.05305815488 0.8719725013
-0.04041300714 -0.1275132596 0.9759566188 -0.46173051 -0.04578112438 0.8838688135
-0.04000510648 -0.1230733171 0.9776102304 -0.4665010273 -0.08497106284 0.8790926337
-0.03778772429 -0.1388420761 0.9828181863 -0.4209877253 0.07107274979 0.8945247531
-0.03398363665 -0.1307048053 0.9844666719 -0.4721621275 -0.0491762422 0.8744726777
-0.04366445169 -0.1397497654 0.9806032181 -0.3980705738 0.1117764562 0.8997144699
-0.03806233406 -0.1277002543 0.9833649993 -0.4717156291 -0.06997720897 0.8701384068
-0.04896596447 -0.1509733796 0.9784497023 -0.35283494 0.2291675806 0.9063001275
-0.04447663203 -0.1545020491 0.9826315045 -0.3477466702 0.1960721016 0.9152911901
-0.05090492591 -0.1568543017 0.9806728959 -0.2961075604 0.3188875318 0.9001185894
-0.04581272975 -0.1448153853 0.9792086482 -0.374694258 0.1920904219 0.9066021442
-0.03942061588 -0.1409506351 0.977352798 -0.4239240587 0.1416429281 0.893440187
-0.04859441519 -0.1307788193 0.9687287807 -0.3702040017 0.0056743077 0.9239251018
-0.04848950356 -0.1366805136 0.9716350436 -0.3693257868 0.06967128068 0.9181369543
-0.0464383103 -0.1405852288 0.9755883217 -0.4020273387 0.1238969415 0.9027983546
-0.06355298311 -0.1009253711 0.9788152575 -0.09701883793 -0.468791306 0.859444201
-0.04484898224 -0.11020381 0.982652247 -0.390999645 -0.299192667 0.8560961485
-0.04966462404 -0.1059083045 0.9819253087 -0.3036204278 -0.3764383495 0.8483144045
-0.0560698621 -0.1041384563 0.9787419438 -0.2049890608 -0.4238654375 0.8630869389
-0.04796491191 -0.1082117036 0.9773349166 -0.3702411056 -0.338902235 0.8631518483
-0.1077536643 -0.2697314918 1.079961777 -0.1767325252 0.2373164594 0.9547977448
-0.1099534407 -0.2621746957 1.071296334 -0.1051773056 0.4420794249 0.8820203543
-0.1053017974 -0.2635476887 1.07522285 -0.1164780036 0.3618634939 0.9161590338
-0.09905739874 -0.2621066272 1.0744313 -0.07086527348 0.3834430873 0.9173143506
-0.09818889946 -0.2651317716 1.078701615 -0.07560576499 0.3465636969 0.9317825437
-0.1269331276 -0.26739043 1.073233962 -0.1643394828 0.2963546216 0.9345417023
-0.1154019758 -0.2732863724 1.078349948 -0.1920156777 0.2156374454 0.9571367502
-0.1215127409 -0.2699257433 1.075591922 -0.1761420816 0.2619325221 0.9441774487
-0.1584780365 -0.163374573 1.002273083 0.2207484394 0.3997657597 0.887370348
-0.1698560417 -0.1534582675 1.002049804 0.2557171881 0.269498378 0.9260870218
-0.1664855331 -0.1537703276 0.9975745082 0.2740286291 0.2728438079 0.9204465747
-0.1652027518 -0.1572878361 1.000634432 0.2573440075 0.3330279589 0.902554214
-0.1500130296 -0.1613095701 0.9946256876 0.1594798416 0.3784998357 0.9037702084
-0.155101493 -0.1554226875 0.9921160936 0.2167205662 0.2949318886 0.9208885431
-0.1508801728 -0.1541444957 0.9907704592 0.1536689848 0.2911219597 0.9355239272
-0.1490226537 -0.1692954451 0.9982563257 0.1303901225 0.403739363 0.9017736316
-0.1529620588 -0.1699541807 1.000978231 0.1450635791 0.4053574204 0.9003868103
-0.1594544947 -0.1608234793 0.9980659485 0.2546621561 0.3915922344 0.8839640617
-0.1559626013 -0.1598750502 0.9948156476 0.2435009331 0.3536080122 0.8947021365
-0.1610492319 -0.1527264118 0.9922086 0.266690582 0.2519647777 0.9271262288
-0.1378938854 -0.1462954432 0.9890000224 0.09566004574 0.2184429169 0.9702172279
-0.1348689646 -0.1373515874 0.9883534312 0.1463967562 0.135765925 0.9779459834
-0.1303982139 -0.1387751848 0.9873244762 0.1857092083 0.1397733092 0.9671577215
-0.1432299018 -0.1512673199 0.9890000224 0.07167373598 0.2743732631 0.9582846761
-0.07884088904 -0.1094038412 0.973952353 0.1506190896 -0.4023267627 0.9006605744
-0.08311448246 -0.1135093868 0.9724904895 0.2015278935 -0.3845020235 0.8992184401
-0.08024515957 -0.1068247855 0.9777024388 0.1697504818 -0.4094285071 0.8949913979
-0.08583118767 -0.1055935845 0.9831479192 0.2172308862 -0.4156289101 0.8821613789
-0.08710508794 -0.1126337051 0.975669384 0.2325663716 -0.3903320134 0.890003264
-0.09371501207 -0.1065756306 0.9853613377 0.2684158087 -0.4288202524 0.862434268
-0.08851154894 -0.1189900562 0.9700830579 0.2319756597 -0.3640514016 0.9011619687
-0.09418188035 -0.1192821562 0.9739763737 0.2637605071 -0.3716463447 0.8893305063
-0.09515678138 -0.1255745143 0.9735924602 0.2551117539 -0.3020192981 0.9178052545
-0.09845556319 -0.1305709183 0.9745024443 0.3055696189 -0.2301460057 0.9227269888
-0.09030364454 -0.1177389249 0.9790528417 0.2618992627 -0.3393995464 0.897582829
-0.09334670752 -0.1219958812 0.9777182341 0.2819542289 -0.2984126508 0.9054808021
-0.08934270591 -0.112681441 0.980879724 0.2468082905 -0.3905674517 0.8847795725
-0.1620821655 -0.1377764493 0.9978373647 0.222013697 0.08210735768 0.9670979977
-0.1665273458 -0.1433087885 1.001437902 0.2197051495 0.1388096064 0.9591376781
-0.1659925133 -0.1477046162 1.002951622 0.221016705 0.1977304071 0.9450370669
-0.160116747 -0.1488865316 1.001488447 0.2243519574 0.2316327095 0.9309037328
-0.1562796235 -0.1441649348 0.998806119 0.20585078 0.1624141335 0.9463351965
-0.1615826637 -0.1436854303 1.000311255 0.2050511092 0.1415819973 0.9564547539
-0.1570468694 -0.1532050818 1.00188756 0.2400265336 0.3108953834 0.9069048166
-0.1611821055 -0.1552025676 1.00380671 0.2483297437 0.3340881765 0.9041502476
-0.1620563567 -0.1314077973 0.9964574575 0.2578309476 0.02505851164 0.9632799029
-0.1551583558 -0.127266556 0.995516479 0.1850575805 -0.01828406192 0.9819636345
-0.1468296796 -0.1451120675 0.9948664904 0.09867992997 0.1639398038 0.9763246775
-0.1525719911 -0.1520984471 0.9995998144 0.189070642 0.2876804769 0.9255763292
-0.1518682241 -0.1467188299 0.9976395965 0.1645101607 0.1984978616 0.9505259991
-0.1491117626 -0.1403765976 0.9945665002 0.1160366833 0.09032271057 0.9855972528
-0.07477292418 -0.1424689442 0.9716168642 -0.04935699329 0.1922600269 0.9556339979
-0.08375545591 -0.1351422817 0.9709176421 0.1073001996 -0.1125374213 0.9555750489
-0.08892471343 -0.1337742656 0.9713249803 0.1772026718 -0.161433652 0.942804575
-0.0801839307 -0.1366917789 0.9671587944 0.06728694588 -0.04277827591 0.9850459695
-0.08601420373 -0.1211781055 0.9761299491 0.2049538195 -0.32520926 0.9180676341
-0.05760252103 -0.1255251616 0.9736142755 -0.2363741249 -0.08653154224 0.9530647993
-0.05145692453 -0.1283473074 0.9755337834 -0.328189373 -0.01021038648 0.9287641048
-0.05618580431 -0.1309967637 0.972833395 -0.2584045231 0.03435556218 0.9540772438
-0.05115287006 -0.1408329457 0.9755710959 -0.3368559182 0.1751309931 0.9225087762
-0.05201958865 -0.1349989325 0.9742680192 -0.3186175823 0.1088192239 0.9363592863
-0.04578744993 -0.1349605769 0.978400588 -0.4059499502 0.07592216134 0.8987548351
-0.04416676238 -0.1255923361 0.9796121716 -0.4350938201 -0.0588224493 0.889999032
-0.03171513602 -0.115259327 0.9887597561 -0.4801097214 -0.1823122352 0.8529013991
-0.03598525003 -0.115691781 0.9861621261 -0.4990676343 -0.1320731342 0.8552244306
-0.032881286 -0.1211779341 0.9871690273 -0.5031508803 -0.1186738834 0.8559820652
-0.04074567556 -0.1173135564 0.9831497073 -0.4638077319 -0.1595644504 0.8692595363
-0.03683893383 -0.1227045506 0.9842069745 -0.4926473796 -0.118596442 0.8618379235
-0.1431590617 -0.1225638539 0.9914410114 0.2278630883 0.01046575606 0.9722859859
-0.1319310963 -0.1220248863 0.9865518212 0.2210200876 -0.009704213589 0.9735686779
-0.1262799948 -0.1187856942 0.9853406549 0.2160410434 -0.09442847967 0.9693915844
-0.1296893954 -0.1162200198 0.9878390431 0.1669585705 -0.08945728838 0.9726058841
-0.1269802153 -0.1070734859 0.989797771 0.1118744686 -0.1946240366 0.9670889974
-0.1346500069 -0.1178486496 0.9876153469 0.1999137551 -0.04311189428 0.9756271243
-0.1213722974 -0.1229736954 0.9862672091 0.2674643993 -0.08843676001 0.9558287859
-0.1296461374 -0.1279704422 0.9861480594 0.2183482051 0.03488657996 0.9724826217
-0.1343324631 -0.1265307814 0.9875575304 0.196324259 0.05154396594 0.9782883525
-0.1284497529 -0.1334617287 0.9866387248 0.2236128896 0.08677437156 0.9686268568
-0.1425970197 -0.1276754439 0.992488265 0.2129199356 0.06381905824 0.9718343019
-0.1364132017 -0.1344284564 0.992608428 0.1672271937 0.1252472699 0.9710822701
-0.1246944964 -0.1379962862 0.9910988808 0.1643928587 0.1106558815 0.9618938565
-0.124992691 -0.1275770366 0.9878502488 0.2304303348 -0.005843578838 0.9616051316
-0.1384777427 -0.1140773147 0.9877918363 0.2218859494 -0.08066717535 0.970951736
-0.1385733932 -0.1228454784 0.9882029295 0.2254335433 0.02122699283 0.9724115133
-0.1544719338 -0.1325173825 0.9889832735 0.2746112347 0.05960760638 0.9585167766
-0.1450578719 -0.1183627769 0.9888783693 0.2636177242 -0.03024413623 0.9624513388
-0.1500332505 -0.1289061755 0.9889678359 0.26795277 0.04297644645 0.9607781172
-0.1476251483 -0.1133955121 0.9903278351 0.2474435419 -0.06528808922 0.9654784799
-0.1459999233 -0.1088779122 0.9896487594 0.1958751231 -0.1164079756 0.9710988402
-0.1530235112 -0.1092718914 0.993753612 0.2213560939 -0.07356425375 0.9712397456
-0.1537388563 -0.11838568 0.991871357 0.2576598525 -0.02270962857 0.9646363854
-0.1584538072 -0.1255266517 0.991299808 0.2677363157 0.01570991613 0.9611235261
-0.1591282487 -0.1302537769 0.9895780683 0.2797603905 0.03345766664 0.9569433331
-0.1504514068 -0.1205942407 0.9890888929 0.2711604536 -0.02573287115 0.959952414
-0.1524570137 -0.1230814457 0.9944558144 0.2021088898 -0.0233503636 0.9783762693
-0.1377030015 -0.1300121844 0.988286674 0.1807736605 0.05810636654 0.9812557101
-0.1477425247 -0.1375805885 0.9890000224 0.1964604259 0.07998719066 0.974555552
-0.1564184576 -0.141903311 0.9890000224 0.2397557348 0.1191275939 0.960075736
-0.1525364816 -0.1375559121 0.9890000224 0.2227238119 0.0750240609 0.9692994356
-0.1606507301 -0.1376565844 0.9890000224 0.2770596445 0.07845747471 0.9568783641
-0.1454566717 -0.1308535486 0.9890000224 0.2416626215 0.06053744256 0.9675490856
-0.1556757838 -0.1470931321 0.9890000224 0.2265472859 0.1787056476 0.9547604322
-0.1486096382 -0.1483096778 0.9890000224 0.1382625252 0.2186635584 0.9584439397
-0.1438809633 -0.1431940347 0.9890000224 0.1230244264 0.1646190882 0.9697940946
-0.1431037188 -0.1356395781 0.9890000224 0.1701575518 0.06427261233 0.9817193747
-0.1511040628 -0.1424467117 0.9890000224 0.2096012384 0.1305342913 0.965285182
-0.1542959064 -0.1332688928 0.9954152107 0.1693010181 0.006494801957 0.9853078127
-0.1475601047 -0.1258027405 0.9933488369 0.2146360874 0.02326227166 0.9754998088
-0.147558108 -0.1324841231 0.9936752915 0.1455976516 -0.0008620541194 0.9886181355
-0.1383869648 -0.1413600296 0.988925159 0.1092979237 0.1619982421 0.9778511524
-0.144156754 -0.1379989684 0.9934799075 0.1289379746 0.05464405566 0.9859150052
-0.05981017277 -0.1365994662 0.9722248316 -0.2424435616 0.1124583408 0.9597170353
-0.06678225845 -0.1381846219 0.9670000672 -0.133311078 0.1442377269 0.9769118428
-0.06141872704 -0.1348819584 0.9670000672 -0.2037473917 0.08934313804 0.9627857804
-0.05392156169 -0.1332514137 0.9683235884 -0.3017711639 0.06246963888 0.9360929132
-0.05451745167 -0.1387652755 0.9714965224 -0.3032341301 0.1409950703 0.9302672744
-0.06127927452 -0.13969405 0.9690906405 -0.2039641291 0.1709210128 0.9506089687
-0.05984930322 -0.1442233324 0.9723641276 -0.2315354049 0.2292355448 0.9395232797
-0.07965943217 -0.1229978725 0.9746950865 0.1273993552 -0.2509896159 0.9432131648
-0.08230568469 -0.12662296 0.9729596972 0.1405633688 -0.2462878376 0.94957757
-0.08333458751 -0.1167833954 0.9780186415 0.1960813403 -0.348166436 0.9097728133
-0.06505851448 -0.1423685849 0.9723520875 -0.1631429791 0.2133045942 0.9529194832
-0.07146216184 -0.1327852905 0.9702612758 -0.01239653677 -0.0576899685 0.9910023212
-0.06833833456 -0.1383088976 0.9714235067 -0.08733650297 0.09309819341 0.969838798
-0.07427935302 -0.1245826408 0.974217236 0.03626769781 -0.1685541421 0.9519736767
-0.06704054773 -0.1232581511 0.9723329544 -0.08875091374 -0.151450485 0.9693315625
-0.06555339694 -0.1300789863 0.9717981219 -0.1508764625 -0.01293454971 0.9703130722
-0.0754769519 -0.118594341 0.9768710136 0.06196448207 -0.2469122708 0.9253290892
-0.07045187056 -0.1203361899 0.9741221666 -0.02166642062 -0.2110695094 0.9527090192
-0.07976050675 -0.1275495589 0.9664574265 0.08113183826 -0.1862463951 0.9765074849
-0.09094627947 -0.1250728965 0.9708830118 0.2139444351 -0.2939664423 0.9301078916
-0.0856153667 -0.12382669 0.9673227668 0.1811855584 -0.2867508829 0.9391500354
-0.08248989284 -0.1191768348 0.9669589996 0.1806066632 -0.3417469859 0.919421792
-0.06748655438 -0.1156170964 0.9705629945 -0.05532810837 -0.3306587338 0.9384544492
-0.07106280327 -0.1182076037 0.9686143994 0.001916296082 -0.2983584404 0.9474279284
-0.0749739185 -0.122999005 0.9665462375 0.03816184774 -0.2153535783 0.971447289
-0.07005409151 -0.1241523623 0.9669456482 -0.03855441511 -0.1612049937 0.9759945273
-0.07709661871 -0.118029885 0.9675493836 0.1054278314 -0.3255234957 0.9377897382
-0.0781699121 -0.113187924 0.9706458449 0.1331737489 -0.3722208142 0.9156345129
-0.07317178696 -0.1132927537 0.970184803 0.03885297477 -0.3543736339 0.9279090762
-0.07378461212 -0.1082444862 0.9736050367 0.06958317012 -0.3951111138 0.911488831
-0.06828416139 -0.1077029407 0.9728989005 -0.06288768351 -0.3976441622 0.9079889655
-0.07284096628 -0.128279388 0.9664387703 -0.0236473605 -0.09404867142 0.9844500422
-0.07111877203 -0.1422578692 0.9681289792 -0.07050602138 0.2115279734 0.9728446603
-0.07557573169 -0.1388459355 0.967000246 0.01867164485 0.0974002853 0.9915679097
-0.07823426276 -0.1328914762 0.9701017141 0.06469063461 -0.1292326897 0.9788899422
-0.06133408099 -0.1217274368 0.9689432979 -0.1732606739 -0.1725398898 0.9538336396
-0.05603962392 -0.1259221733 0.9672185183 -0.2671025395 -0.0611621514 0.9538440108
-0.06026222184 -0.1161512211 0.9717755914 -0.187113449 -0.288480103 0.9289640784
-0.05203681439 -0.1221778914 0.9695603848 -0.3314930499 -0.1336237639 0.9253704548
-0.0655682832 -0.1277308613 0.9670000672 -0.1274245083 -0.06023707241 0.9872258902
-0.06628376245 -0.1325295419 0.9670000672 -0.1354730129 0.02891840599 0.9864376783
-0.05921892822 -0.1292096525 0.9670001268 -0.2307988107 -0.008531428874 0.9649338126
