# .PCD v0.7 - Point Cloud Data file format
VERSION 0.7
FIELDS x y z normal_x normal_y normal_z
SIZE 4 4 4 4 4 4
TYPE F F F F F F
COUNT 1 1 1 1 1 1
WIDTH 512
HEIGHT 1
VIEWPOINT 0 0 0 1 0 0 0
POINTS 512
DATA ascii
-0.1009147689 -0.05676259473 1.021759033 0.138109237 -0.002091795905 0.9884673357
-0.09102386236 -0.04638662189 1.022841573 0.1614857465 -0.163831979 0.962520659
0.005326573271 -0.212204501 1.125173807 -0.1755878776 0.1984060258 0.963426888
0.009515450336 -0.2123339027 1.129969835 -0.1271062493 0.2000955343 0.9707849622
-0.001795398071 -0.1985906959 1.123651981 -0.1785302162 0.1900629997 0.964107573
0.002148011932 -0.2006803006 1.125168562 -0.1488696635 0.2078183591 0.9655264616
0.001378606074 -0.2073400021 1.128099442 -0.1782721281 0.1996908188 0.963131547
-0.09615729004 -0.05298175663 1.017372727 0.1412901878 -0.1083718091 0.9791871309
-0.09338411689 -0.1111968607 1.023023605 0.09386598319 0.1457519233 0.9846785069
-0.09817971289 -0.1101550832 1.021915197 0.0962068364 0.1393457055 0.9855079651
-0.1019869596 -0.1077840328 1.022652507 0.09691929072 0.1569871604 0.9827754498
-0.09845910966 -0.1043818593 1.019735217 0.1078000143 0.1631937027 0.9806503057
-0.1043743789 -0.09839764982 1.031994581 0.1185163483 0.1519157887 0.981081903
-0.09741058946 -0.1022871211 1.031536698 0.0965102613 0.1502303332 0.9836400151
-0.1095118076 -0.1025876775 1.032077909 0.09253094345 0.1627017707 0.9822338223
-0.1048951223 -0.08630215377 1.025362134 0.1765275747 0.1459973305 0.9732774496
-0.1072256789 -0.09222662449 1.028511405 0.1460118145 0.1549403816 0.9762893319
-0.1118562892 -0.09787435085 1.034698606 0.1159362718 0.1672206521 0.9790725708
-0.1049642041 -0.1017271727 1.026497245 0.100136362 0.1591047347 0.9815647602
-0.1037781537 -0.09159210324 1.024414778 0.152215302 0.1509885639 0.9758265615
-0.09968164563 -0.1001163349 1.021069884 0.1188455671 0.161824435 0.9791635275
-0.1041105837 -0.09633450955 1.025143027 0.1281447113 0.1547191292 0.9784815907
0.0210846886 -0.1833121777 1.122906327 -0.03566911072 0.1541983038 0.9832932949
0.02568701096 -0.1804463118 1.123009562 -0.01953560859 0.09743685275 0.9923502207
0.009955916554 -0.193749398 1.122999787 -0.08003665507 0.2112507224 0.9736095667
0.01394692436 -0.1912243813 1.122999907 -0.0615294911 0.210417375 0.9752293229
0.01172592863 -0.2017080635 1.125791788 -0.0919059515 0.1888124198 0.9765020609
0.006305950694 -0.2057610303 1.127714753 -0.1395864338 0.1989507079 0.9684724212
0.007718115579 -0.199101299 1.124801755 -0.106702514 0.205025658 0.9716661572
0.009470799007 -0.1893152595 1.119000077 -0.0806273371 0.1889555603 0.977663517
0.02188784629 -0.1936675459 1.122999787 -0.01451379526 0.2051113993 0.9782081246
0.01769788004 -0.1879038662 1.123027325 -0.04334261268 0.214684397 0.9748375416
-0.09195719659 -0.1169916615 1.027405262 0.1152740791 0.1536275744 0.9811344147
-0.0874421373 -0.1179583743 1.032105207 0.114982985 0.1594352424 0.9802626967
-0.1026382297 -0.1075170189 1.031739712 0.09053447098 0.1600603014 0.9828683734
-0.0947444886 -0.1134407744 1.031937838 0.1060204133 0.160269469 0.981099844
-0.09694327414 -0.1143826917 1.026396871 0.1076623276 0.1556656808 0.9817320108
-0.1014845744 -0.1106817722 1.027596712 0.09914540499 0.1569768488 0.9824461937
-0.09475031495 -0.1081398651 1.03159523 0.08679525554 0.1544035822 0.9841300249
-0.08441694081 -0.1140270084 1.031905174 0.09336896241 0.1527499855 0.9838020205
-0.08828803152 -0.1083610877 1.031415343 0.08440864086 0.1494140774 0.9850999117
-0.08998817205 -0.1128823683 1.031957269 0.09363534302 0.1559611708 0.9832897782
-0.1052871794 -0.1067459509 1.026589394 0.0890326649 0.1578882486 0.9834108949
0.01555702556 -0.1933404356 1.119000077 -0.04497348145 0.1973858625 0.9786045551
-0.0800658837 -0.04798550159 1.026637554 0.232313782 -0.1796299666 0.9241093397
-0.08330539614 -0.05380663648 1.024137378 0.2200187892 -0.0801308006 0.9405912161
-0.08823764324 -0.05588027462 1.024865746 0.2049565762 -0.03400557861 0.9463692307
-0.08476392925 -0.06034806371 1.020392656 0.212371245 0.02551204711 0.9591664076
-0.08509647846 -0.04926269501 1.0264678 0.193719998 -0.1585758775 0.9392557144
-0.09226892143 -0.05987116694 1.023746967 0.1885057688 0.03773521259 0.9590507746
-0.08766260743 -0.05657558516 1.01676631 0.1721704006 -0.06741216779 0.9728503227
-0.02969614044 -0.04820054397 0.9986850023 0.3299228847 -0.2929623425 0.8849718571
-0.02931913733 -0.04330217093 0.9999111295 0.2798838317 -0.3198975921 0.8923096061
-0.03463257477 -0.04594820365 1.001791358 0.3662962019 -0.2686264515 0.8839960694
-0.02460268885 -0.04293681681 0.9976696968 0.2216673791 -0.3555989563 0.8968479037
-0.03504942358 -0.05052623898 1.000677466 0.4138124287 -0.2429891378 0.8770832419
-0.04076943547 -0.04366076365 1.005654931 0.3991442323 -0.2262821496 0.887793541
-0.04664796218 -0.06179926544 1.00999999 0.3855310678 -0.1405625492 0.9105765224
-0.06126694754 -0.08196028322 1.013781786 0.2767424285 0.1848939657 0.9360703826
-0.04827920347 -0.07615442574 1.007334232 0.3667759001 0.05072629824 0.9139146805
-0.04113471508 -0.07200343907 1.003695726 0.41658777 -0.03285050392 0.9044148326
-0.0564587675 -0.08046768606 1.011457682 0.3098780811 0.141928792 0.9260238409
-0.05550526828 -0.07411772758 1.011792421 0.3200238943 0.06483729184 0.9407811165
-0.05179922283 -0.07777097821 1.010561109 0.3442625403 0.08026979119 0.9195300341
-0.05250796303 -0.07259707153 1.008702755 0.343349576 0.03468870372 0.9328698516
-0.05414867774 -0.06632260233 1.007189989 0.3678826094 -0.05246762186 0.9271563888
-0.04707489908 -0.07083359361 1.005844951 0.385397315 -0.0190578457 0.9179136157
-0.06452520192 -0.06931125373 1.012637496 0.2697964907 0.04724493995 0.9584002495
-0.05697046965 -0.0693166405 1.009274721 0.3357735872 0.007961745374 0.9370929003
0.008121485822 -0.07317566872 1.002385378 -0.3659406602 0.06389958411 0.9260552526
0.008036579005 -0.07861815393 1.002237439 -0.3461122811 0.1359199435 0.9246744514
-0.003414190374 -0.07608557492 0.9970206022 -0.2609907687 0.06272056699 0.9506406784
-0.04052528739 -0.1987070888 1.105065227 -0.361391902 0.09647595882 0.9272144437
-0.03130430728 -0.2084332705 1.1051476 -0.3682867885 0.04845997319 0.9279056787
-0.08335126191 -0.1145063639 1.025397062 0.08878039569 0.1740044504 0.980386734
-0.08362033963 -0.1197586507 1.028045058 0.1104134396 0.1712819338 0.9782284498
-0.07786786556 -0.1201174781 1.02592504 0.09049189836 0.197209239 0.9754530787
-0.07353523374 -0.1218175367 1.026227832 0.08622486144 0.2124368548 0.9731094241
-0.08737671375 -0.1169034988 1.025947452 0.1037403867 0.1622338295 0.9805051088
-0.06846407056 -0.1217859089 1.025699973 0.08414208144 0.2142801136 0.9730359912
-0.004722259939 -0.212710917 1.125946879 -0.257851094 0.1331365407 0.9522430897
-0.007100416347 -0.202718392 1.125231504 -0.2701440752 0.1517644376 0.9477846622
-0.01087280922 -0.2052594274 1.123445511 -0.3046875596 0.1070843562 0.94539994
-0.005361121148 -0.208027944 1.126054883 -0.2532715201 0.1439576447 0.9526287913
-0.002182423836 -0.2032009959 1.1257447 -0.1992978305 0.184718281 0.9617849588
0.02760942094 -0.1848691106 1.119000077 -0.01229261421 0.08468035609 0.9953579903
0.01539948676 -0.211965546 1.128127575 -0.08429396898 0.1995224208 0.9759221673
0.01850246638 -0.2009610087 1.125312567 -0.04568244517 0.196016565 0.9784414768
0.01352848392 -0.2072607428 1.127779484 -0.08745009452 0.1928301305 0.9770314693
0.02550571784 -0.1865928024 1.123184085 -0.01296304539 0.1288041174 0.9915154576
0.0285674464 -0.1922396421 1.123044729 0.0004658579128 0.1473594308 0.9883286357
0.03061454557 -0.1872278452 1.123075485 -0.006900226232 0.1146988571 0.9932717681
0.02867453918 -0.1978724897 1.12375474 -0.006830831524 0.1556946486 0.9865214825
-0.02070832811 -0.0724035427 0.9890000224 0.0377429314 0.0001191232732 0.9905318618
-0.02405836433 -0.06868615746 0.9908952713 0.1481664628 -0.05222902447 0.982829392
-0.02892310359 -0.06657107174 0.9943768978 0.2906719148 -0.08815293014 0.9401577711
-0.02235467359 -0.06373361498 0.991953969 0.07837420702 -0.1253264397 0.9830435514
-0.01659786701 -0.06225494668 0.9890000224 -0.1385095119 -0.09668072313 0.9787983298
0.03158657625 -0.05615045503 1.009445786 -0.3459972143 -0.01795147359 0.9360150099
0.03434574232 -0.04620626569 1.014979362 -0.3351092041 -0.08117972314 0.9367535114
0.02852021717 -0.04565918818 1.013874412 -0.3289792836 -0.09949949384 0.938134551
0.02794651873 -0.04971563071 1.01036334 -0.3323678672 -0.1039656103 0.9366621375
0.02475310117 -0.05363024026 1.007663369 -0.3202195168 -0.1060889289 0.9409682155
0.02393878624 -0.04481964931 1.011186004 -0.3221793473 -0.1466155052 0.9345222712
-0.09087645262 -0.09450884163 1.031000018 0.1629066914 0.1598281711 0.9732041359
-0.09625268728 -0.09483209997 1.031382561 0.154321909 0.1589872539 0.9748669267
-0.0900042206 -0.09992200881 1.031163812 0.1192007586 0.1517565846 0.9802168012
-0.09972619265 -0.09035775065 1.028285742 0.1745679677 0.1821934283 0.9663290977
-0.07971959561 -0.1230508834 1.031887412 0.1199015751 0.169121027 0.9781438112
-0.03380864859 -0.1978793889 1.110741019 -0.360627085 0.1018021703 0.9271377325
-0.03195628524 -0.201763466 1.108355522 -0.3634750545 0.0819689557 0.9274232984
-0.02643683925 -0.198127687 1.113485694 -0.361050874 0.09885095805 0.9271802306
-0.02036015317 -0.1973942518 1.116512895 -0.3515677452 0.109997943 0.9295387864
-0.02522271127 -0.2049373835 1.110244155 -0.3637543917 0.06721258163 0.9282228351
0.001708770404 -0.1912696511 1.119064927 -0.1453209519 0.1944012791 0.968456924
-0.002766957739 -0.1929783523 1.119142175 -0.1909541041 0.1907043904 0.9622002244
-0.01323860977 -0.1968615651 1.118865013 -0.3221133351 0.129781425 0.9364454746
-0.007812854834 -0.1957869083 1.121170759 -0.2570274174 0.1601609737 0.9509907365
0.002414371818 -0.1955628097 1.122752905 -0.130696848 0.2128428668 0.9669554234
-0.01414033957 -0.2022643089 1.113474131 -0.2827965021 0.1145966649 0.9452473521
-0.02177480049 -0.2078204155 1.108886123 -0.3322042227 0.06728155166 0.9356652498
-0.02515233122 -0.2107718587 1.10702002 -0.3579966426 0.04299337417 0.9306266308
-0.01753996685 -0.2104436755 1.113322496 -0.3502880633 0.05472547561 0.9317364693
-0.01847488619 -0.2035583556 1.111834884 -0.3184118867 0.09416855872 0.937979579
-0.007009875495 -0.2113596946 1.117962122 -0.288543731 0.1192543432 0.9465041161
-0.009121289477 -0.206450507 1.117482901 -0.2908465564 0.1128061712 0.9443211555
-0.01188931335 -0.2117034942 1.11668551 -0.3317425549 0.07626464218 0.9363074899
-0.003867683001 -0.2055986822 1.118864417 -0.2427743077 0.160249874 0.9555119872
-0.007936480455 -0.201004535 1.117870569 -0.2629802823 0.1361307949 0.9491606355
-0.08028069884 -0.1061563268 1.029904723 0.09246752411 0.1640019864 0.9809156656
-0.07722993195 -0.1107139885 1.029571056 0.1085840911 0.1807457805 0.976388514
-0.02936044149 -0.07486108691 1.005971313 0.1595347822 0.01007562131 0.9394261241
-0.02323628031 -0.07623837888 1.003465533 0.04833127931 0.04170063138 0.9542565942
-0.03384740278 -0.07274498045 0.9997765422 0.339941293 -0.002286367817 0.9321994185
-0.01789179444 -0.07757543772 1.002258897 -0.06078916416 0.06798025221 0.9667548537
0.007251372095 -0.1952712834 1.119000077 -0.1050369889 0.2187251747 0.968155086
0.007248582318 -0.2029627115 1.119000077 -0.1279723644 0.1953456104 0.9690518379
0.002516545355 -0.2025569826 1.119000077 -0.1579301506 0.2089759856 0.9636093974
0.01079943217 -0.1982543319 1.119000077 -0.09055650234 0.2003598213 0.9725492597
0.001319679432 -0.2076766342 1.119000077 -0.1817364395 0.1951143891 0.9629644156
-7.383366028e-05 -0.1980735958 1.119000077 -0.1726270467 0.2058961689 0.9621124864
0.004309074022 -0.2111315727 1.119507074 -0.1738033593 0.1801223308 0.9663731456
0.01949947327 -0.1960344613 1.119775653 -0.02990054712 0.1872462481 0.9817752242
0.01253922191 -0.2031551003 1.119710803 -0.09668679535 0.1835841537 0.9747092724
0.009411955252 -0.2070307136 1.119875431 -0.1295234114 0.1806140542 0.9715053439
0.01736941002 -0.201289475 1.12063694 -0.0632077232 0.180100441 0.979480505
0.02194801718 -0.2038400471 1.122752309 -0.04954185337 0.168337971 0.9838173985
0.01760246791 -0.2071533054 1.122580767 -0.08246386796 0.1741846949 0.9787858129
0.01366810966 -0.2104417235 1.123003244 -0.1031371281 0.1940627396 0.9725049734
-0.002825107658 -0.2133332938 1.121052027 -0.2432732582 0.1407120675 0.9583986402
-0.09446258098 -0.06450235099 1.019000053 0.1693085581 0.08113832027 0.980913341
-0.09885890782 -0.06310722232 1.019000053 0.1560422331 0.06909974664 0.984279573
-0.09238180518 -0.05037540942 1.016300321 0.145249933 -0.1601407975 0.9735398293
-0.09378410131 -0.05792617425 1.017828941 0.1559742242 -0.03219077736 0.9795333147
-0.08983140439 -0.06071120128 1.01769042 0.1761860549 0.01446107682 0.97699821
-0.08009074628 -0.06745859981 1.016279578 0.2348352522 0.1011255756 0.9648015499
-0.08098845929 -0.07364654541 1.016970158 0.2656884789 0.2063824832 0.9408442378
-0.07950945944 -0.06259506941 1.017431498 0.2324731797 0.02474907227 0.9634225965
-0.07820995897 -0.05545412377 1.021336079 0.2374758869 -0.0816430226 0.944021821
-0.0766909346 -0.05912141502 1.018807769 0.2444646508 -0.04405286908 0.9528539181
-0.07478297502 -0.04382284358 1.027382374 0.2513526082 -0.2651534379 0.9117435813
-0.07082291692 -0.05996903777 1.014129877 0.2329352349 -0.1442579627 0.9527477026
-0.09261569381 -0.05315633491 1.023514509 0.1164116785 -0.1043052524 0.977383256
-0.08101643622 -0.04332003742 1.027927518 0.200731501 -0.2637973428 0.9271703362
-0.08572521061 -0.04197074473 1.02459228 0.1648443639 -0.2367645502 0.9504761696
-0.08327105641 -0.03826641664 1.025056958 0.1821811497 -0.2819682658 0.9407399297
-0.0773730427 -0.0373471044 1.028461099 0.226213038 -0.3343074918 0.9129948616
-0.03907981142 -0.04950582981 1.003508091 0.4119987786 -0.1979300231 0.8888768554
-0.04279165715 -0.04840266705 1.006438613 0.4061892331 -0.1773805022 0.8963999152
-0.04621473327 -0.04804223403 1.010104537 0.3873889148 -0.1998403668 0.8993335366
-0.03887643293 -0.05422244966 1.010490417 0.3651796877 -0.1545175761 0.9126896262
-0.04048803076 -0.06115939841 1.010286689 0.3849713206 -0.1158733889 0.910889864
-0.04293043911 -0.06570260227 1.010078907 0.3990618289 -0.09394809604 0.9095039964
-0.04355821386 -0.05660691857 1.010199189 0.3753411472 -0.151305452 0.9114545584
-0.03866450489 -0.04945589975 1.010582566 0.3523088992 -0.1832557023 0.9137925506
-0.07808313519 -0.1018644869 1.028709054 0.1344333142 0.1845742315 0.9714578986
-0.0843821615 -0.1008018926 1.030496597 0.1222797707 0.1523293108 0.9790052176
-0.08631589264 -0.09591053426 1.030489564 0.1607533842 0.1526882648 0.9738072753
-0.08472660184 -0.08844120055 1.025917888 0.1938036978 0.2006925642 0.9591880441
-0.0664287135 -0.09802824259 1.022263527 0.2612297535 0.2419010997 0.9330496788
-0.07360213995 -0.1053415686 1.024597526 0.1048470438 0.2244798988 0.9672231674
-0.06787826866 -0.1040869877 1.023629665 0.1824871451 0.2331290841 0.9502568841
-0.06634765118 -0.1097084135 1.025397778 0.1229291037 0.2317729145 0.9638167024
-0.06620005518 -0.09182051569 1.019220948 0.2759178579 0.2405510992 0.9304782152
-0.06100104004 -0.08967649192 1.018451929 0.3102791905 0.174483642 0.9243479967
-0.05625541136 -0.08518223464 1.016385674 0.3311346173 0.1182992682 0.9216710925
-0.05253895745 -0.08202258497 1.014919996 0.3552620113 0.07065190375 0.9175956845
-0.08118569106 -0.09412124753 1.026209593 0.1691930741 0.2019958645 0.9631411433
-0.07379432768 -0.09539116174 1.024343252 0.2288785726 0.2193871886 0.9457758069
-0.07064598054 -0.1010079458 1.025798798 0.1797946692 0.2236352116 0.955648303
0.01395741105 -0.07462020963 1.004132032 -0.3438422382 0.08564707637 0.929974556
-0.009104523808 -0.07783834636 0.9937674999 -0.1796319932 0.0624986887 0.9698156714
0.001370677841 -0.08130043745 1.002254009 -0.3367079794 0.1389589906 0.9284200072
-0.002660338301 -0.08017320186 0.9998200536 -0.2890779674 0.1093739942 0.9418845177
0.03973132372 -0.08180322498 1.019454479 -0.3919622004 0.09100423008 0.915417552
0.03577015921 -0.07792842388 1.018181086 -0.3871283531 0.09788603336 0.9163754582
0.03431841731 -0.0825002566 1.017821193 -0.3826152682 0.118340984 0.9157254696
-0.02570140362 -0.2120228261 1.111970544 -0.3709435761 0.02995807491 0.9281720519
-0.02987570688 -0.2115573287 1.110021114 -0.3709435761 0.02995807491 0.9281720519
-0.04113990441 -0.2104540467 1.106939197 -0.3709435761 0.02995807491 0.9281720519
-0.04168042913 -0.2049553394 1.107783318 -0.3709435761 0.02995807491 0.9281720519
-0.0361533165 -0.2089206874 1.111519694 -0.3709435761 0.02995807491 0.9281720519
-0.04578981176 -0.2085315883 1.105000019 -0.3695622087 0.03957801685 0.9280335903
-0.03635655716 -0.203800261 1.105000019 -0.3650552928 0.07096409798 0.9275817275
0.0416473411 -0.1897826791 1.123000026 9.126352234e-05 0.09132508934 0.9957926273
0.03277151287 -0.1952572465 1.123380542 0.000309341558 0.1277911812 0.9910651445
0.02312611416 -0.2081683874 1.125666022 -0.04041703045 0.1987365931 0.9783659577
0.03281155974 -0.2020635456 1.124721766 -0.02391208522 0.1638011485 0.9842435718
0.04647310078 -0.1932117045 1.122660279 0.0006886869669 0.1100072935 0.9932360053
0.03701440245 -0.1985359639 1.120847702 -0.01256115828 0.126055643 0.9900886416
0.04132318497 -0.1967743784 1.123822451 -0.009220375679 0.1338800788 0.9893245697
0.02827211469 -0.2022761405 1.122403502 -0.03242278472 0.1503527313 0.9871771932
0.04139154777 -0.1919223219 1.11856246 -0.00171875977 0.08769791573 0.9960740805
0.03487586975 -0.1855354607 1.118960738 -0.01107462961 0.07955627888 0.9965921044
0.0348515287 -0.1937672198 1.118993402 -0.006654742174 0.1125803366 0.9935569167
0.03538408503 -0.1911058128 1.123000026 0.003159995889 0.1094851568 0.9938929081
0.03013400547 -0.1896929592 1.119000077 -0.01311549079 0.1124844849 0.993216157
0.02441806905 -0.198236078 1.120710135 -0.02834301442 0.1631783694 0.9856423736
0.009021009319 -0.03869322687 1.011121511 -0.2945153415 -0.28864941 0.9094402194
0.002290040255 -0.03822380304 1.006883621 -0.2734263539 -0.314665705 0.9068959355
-0.009280495346 -0.06602138281 0.9934628606 -0.2765618265 -0.04360949993 0.9545928836
-0.004589718301 -0.06865207106 0.9966223836 -0.3149478436 -0.007014320232 0.9426070452
0.000710006454 -0.07248276472 0.9994622469 -0.3467935026 0.04676445946 0.9315930605
-0.01304140873 -0.0724452436 0.9911399484 -0.1670527011 -0.004753689282 0.977937758
-0.01360827032 -0.06786300242 0.9904561043 -0.2008150071 -0.04179543629 0.9728227854
-0.01066728309 -0.06103420258 0.9919833541 -0.2444563955 -0.1050172895 0.9622602463
-0.002581222448 -0.05630051717 0.9990367889 -0.3222645819 -0.1485429108 0.9347429276
-0.005551954266 -0.05885003507 0.9951883554 -0.2693071961 -0.1265111119 0.9523354769
0.03290142119 -0.06065542251 1.008624077 -0.345538497 0.02313947678 0.9375831485
0.0364850089 -0.05148027092 1.013270974 -0.3496776223 -0.04569894075 0.9347794056
0.03296310082 -0.06549932063 1.014900327 -0.3662531376 0.01416211203 0.9263498783
0.03386214375 -0.05618983507 1.014080286 -0.3405157626 -0.04267654568 0.9384536743
0.03984535113 -0.04973798618 1.015831709 -0.3416098058 -0.03835641593 0.939036727
0.03161223233 -0.05123670027 1.013994694 -0.3335793614 -0.0668887496 0.9397441149
0.01943487301 -0.06340974569 1.003481388 -0.3472037911 -0.01659942791 0.9363513589
0.02475585602 -0.05920731276 1.005724192 -0.3235430717 -0.05534063652 0.9419122338
0.025828477 -0.06381004304 1.004783869 -0.3509193361 0.02492345311 0.9359791875
-0.09205532819 -0.09001536667 1.028936148 0.190607205 0.170317471 0.9662163258
-0.0724080205 -0.1168760657 1.025617123 0.08194416761 0.2177229226 0.9725645781
-0.07956282049 -0.1100606993 1.024172187 0.08924318105 0.2078942209 0.9737592936
-0.09158853441 -0.1059831902 1.020975709 0.1032779068 0.1769466996 0.9784994721
-0.0847267434 -0.1102441251 1.023685217 0.094048962 0.1862318814 0.9776558876
-0.07174344361 -0.1126498282 1.027947426 0.1198988855 0.2078678012 0.9699996114
-0.06779867411 -0.1144827008 1.02556181 0.08701939136 0.2219588906 0.9711617827
-0.03159566596 -0.2093163729 1.113769174 -0.3706580102 0.0319467783 0.9281434417
-0.02819208615 -0.2026280463 1.11431098 -0.3672124743 0.05594152957 0.9277979732
-0.03301194683 -0.2038778961 1.113212228 -0.3667044938 0.0594791621 0.9277470708
-0.02454640344 -0.2055304796 1.115597844 -0.3648557067 0.03699121252 0.929921329
-0.0265497677 -0.2103017271 1.116431713 -0.3550739884 0.04780188203 0.9328756928
-0.01903520897 -0.2097116113 1.119750857 -0.3371658921 0.06792066991 0.9381886125
-0.01307503227 -0.2124748081 1.122326493 -0.3292930424 0.07502946258 0.941033721
-0.01476552524 -0.2071500719 1.121675968 -0.3226288855 0.08544823527 0.9421502948
-0.02166868746 -0.2125011981 1.117091179 -0.354962647 0.04693356529 0.9332002997
-0.01799188554 -0.2011642903 1.119084597 -0.3420903981 0.08094322681 0.9343845248
-0.01182310656 -0.2001729459 1.122994184 -0.3141821325 0.1209572628 0.9414885044
-0.02082392573 -0.07610728592 0.9987668991 0.0443508327 0.0551157333 0.9653689861
-0.0259762425 -0.07308142632 0.9936392307 0.1953684837 0.01657010056 0.9754379988
-0.02554422244 -0.07484902442 0.9984949827 0.161103934 0.03637341037 0.9525655508
-0.03038538247 -0.07092805952 0.9951581359 0.2997447252 -0.02060536854 0.946634531
-0.01552245021 -0.0770803839 0.9960177541 -0.09886668622 0.05576600134 0.9858378172
-0.1026570946 -0.07388950139 1.022643447 0.210326001 0.1873299032 0.959330976
-0.0938134715 -0.08584181219 1.019099593 0.1676853299 0.1909001619 0.9654132724
-0.0937358439 -0.07324746996 1.020023108 0.2140442282 0.2059865743 0.954675138
-0.09828991443 -0.08059649169 1.020970821 0.1939242184 0.1911901832 0.9610082507
-0.1031850204 -0.06463975459 1.020842791 0.1659620702 0.1101619676 0.9760698676
-0.1013299525 -0.08488503098 1.021855831 0.1822659224 0.1788061112 0.9654732943
-0.100163646 -0.09185710549 1.021070004 0.1544386595 0.1701081842 0.9718600512
-0.1027259603 -0.07838317752 1.022856474 0.2082829326 0.1838932335 0.9601378441
-0.08294238895 -0.05440226942 1.016714692 0.1663933843 -0.1954059303 0.9649670124
-0.07468309253 -0.0505816713 1.016896009 0.2169207335 -0.276895225 0.9358133078
-0.08644943684 -0.04998029023 1.016109824 0.1652263254 -0.2125801146 0.9614666104
-0.08672972769 -0.04496465623 1.019753218 0.1602196693 -0.2279748023 0.9592475295
-0.03707781434 -0.06241378188 1.001043439 0.4521727562 -0.1796323806 0.8723111153
-0.04680560157 -0.06363665313 1.00425899 0.4022791684 -0.1167550087 0.9040955305
-0.04123351723 -0.05907168984 1.001932025 0.4020421505 -0.1651541442 0.8962089419
-0.03387286142 -0.05970564485 0.9989956617 0.4304032326 -0.2003171444 0.8783634305
-0.03729051352 -0.06917291135 1.00003171 0.3939956427 -0.0596450828 0.9120898843
-0.0337312445 -0.06559899449 0.9986518621 0.3943217099 -0.1248885766 0.9084325433
-0.07874660939 -0.04637622833 1.018970609 0.200825721 -0.2640084624 0.9420639873
0.02260022052 -0.04926100373 1.011806011 -0.3237520158 -0.1139925867 0.9391784072
-0.03753358126 -0.03886640072 1.011032224 0.3300685287 -0.247476086 0.9098510146
-0.04338882491 -0.03975214809 1.008281112 0.377998203 -0.2578559816 0.8881123066
-0.06921964884 -0.03765624762 1.027613044 0.2504802346 -0.3607592285 0.8983142376
-0.05598427728 -0.03857224435 1.020901799 0.277587235 -0.3140893579 0.9053145051
-0.05191421509 -0.04272347316 1.015613317 0.3251163363 -0.2571770847 0.9078387618
-0.04592458904 -0.03982879966 1.01531899 0.3087482452 -0.2666923702 0.9107703567
-0.06046460569 -0.04106147215 1.020852685 0.2929365337 -0.3036157787 0.9031497836
-0.04117247462 -0.03921207041 1.013688326 0.311865896 -0.2568400204 0.9132423997
-0.07360770553 -0.05081889778 1.022826672 0.2552357614 -0.1772728711 0.9298921227
-0.07236397266 -0.05486670882 1.01954627 0.2531864345 -0.1211745068 0.9415395856
-0.07030967623 -0.04343654215 1.025223851 0.2534101009 -0.2803227007 0.9121314883
-0.0657389164 -0.05020338297 1.0197649 0.2586354315 -0.2075430155 0.9284590483
-0.06680092961 -0.06342606992 1.013600588 0.2628651857 -0.0347106792 0.9609559178
-0.06650587916 -0.05902392045 1.015717149 0.2611550093 -0.0916402936 0.9502729774
-0.06952958554 -0.04805089161 1.021968007 0.2521400154 -0.2170920223 0.9248319268
-0.03509266302 -0.03959394991 1.005432248 0.3213635683 -0.2852444649 0.8979659677
-0.07889802009 -0.1047367379 1.023751736 0.09309233725 0.2132058144 0.9721642137
-0.08402694762 -0.1035772786 1.022177696 0.1044507697 0.2008753568 0.9729735255
-0.07501807064 -0.09924999624 1.02225256 0.1524267197 0.2304932624 0.9575266242
-0.08795721084 -0.1020191014 1.020688534 0.1203028187 0.1922642589 0.9721177816
-0.07506130636 -0.09346491098 1.01979816 0.2141671777 0.2376128733 0.9448052049
-0.08041996509 -0.09951748699 1.021224022 0.1484998763 0.2156446129 0.9616599083
-0.08914797753 -0.07995577157 1.023834348 0.2434296161 0.2158092409 0.9446588159
-0.0945713222 -0.07713992149 1.023614407 0.2402979881 0.2242901176 0.9438687563
-0.09262722731 -0.08574626595 1.027237654 0.2082194388 0.1848102808 0.9592279792
-0.08602658659 -0.06969095021 1.017879605 0.230141446 0.173862502 0.955039978
-0.09585541487 -0.06974801421 1.022326827 0.2038045079 0.1782812327 0.960868299
-0.07519932836 -0.06696635485 1.015270591 0.2565812767 0.05145589635 0.9627785683
-0.07536486536 -0.0715642646 1.015630484 0.2650716007 0.1253903359 0.9527676105
-0.09174468368 -0.06811222434 1.020843625 0.2007451802 0.148774147 0.966660738
-0.08894972503 -0.07259483635 1.021241546 0.2275591642 0.1810043454 0.954462111
-0.0342502296 -0.0726191923 1.007542491 0.2562146783 -0.02677259408 0.9274435043
-0.02421364002 -0.07161115855 1.00455296 0.06841300428 -0.01488734502 0.9501815438
-0.01724728383 -0.05769126862 1.002477884 -0.03021329641 -0.1552651823 0.9618628025
-0.02298543788 -0.06679967046 1.004187107 0.05668187141 -0.06613886356 0.9515097141
-0.03003143333 -0.06816216558 1.006285787 0.1869530231 -0.06712090969 0.9357500672
-0.01349544153 -0.07558915764 1.001360416 -0.1442726552 0.05462979153 0.9760318398
-0.01938347146 -0.07226443291 1.003114223 -0.02469964139 0.0036308649 0.9614775181
-0.01557976753 -0.06635516137 1.001981258 -0.08260905743 -0.0540044792 0.9683802724
-0.02947227471 -0.05446948484 1.007201433 0.2035914212 -0.1665854454 0.9327844977
-0.02745433897 -0.04471890256 1.007653594 0.1832724512 -0.2197825611 0.9343922734
-0.01839532144 -0.05274090543 1.003203511 0.001431055251 -0.1947189122 0.9576897621
-0.03271364793 -0.06391461194 1.007253051 0.2471072227 -0.1128098965 0.9282718897
-0.02441393398 -0.05811880156 1.004820466 0.1035076678 -0.1568190008 0.9455356002
-0.03466555104 -0.04468967393 1.010400653 0.3169010878 -0.2073494643 0.9178202748
-0.02854067832 -0.06150922179 1.005966425 0.1740175784 -0.1323455572 0.9371097088
-0.01357346401 -0.05212062597 1.001446724 -0.08680173755 -0.2062921524 0.9685721397
-0.03399986029 -0.05180929601 1.009256721 0.2921129763 -0.1722386479 0.9215595722
-0.03733000904 -0.06667829305 1.008663535 0.327783227 -0.09067522734 0.9185268879
-0.02315273136 -0.05333924666 1.004938602 0.08850838244 -0.1833699048 0.9469485283
-0.02903526649 -0.04892056063 1.007729411 0.2052053064 -0.1956180185 0.9320655465
0.009408628568 -0.08201698214 1.005823731 -0.3506105542 0.159897998 0.9224103093
0.01555790287 -0.07814733684 1.01066494 -0.3581462801 0.12089587 0.9256472588
0.01215293352 -0.08163351566 1.009721279 -0.354477942 0.1367199719 0.9245823622
0.03096680902 -0.1810632497 1.123000026 -0.008824491873 0.07486367226 0.9969339371
0.0433595404 -0.1726291776 1.120720267 -0.002972855465 0.1282360405 0.9907849431
0.04041498527 -0.1829649806 1.122999907 0.005653039552 0.0767987743 0.9968893528
0.03572193906 -0.1813998669 1.123000026 -0.008027833886 0.08076616377 0.9965484738
0.04969428852 -0.1812673509 1.123000026 -0.006639281753 0.1549228132 0.9875029325
0.04732207581 -0.185774833 1.122999907 0.007310898975 0.09865383059 0.9944342971
0.05034235865 -0.1902832091 1.123000026 0.004837535787 0.1060073003 0.9941771626
0.04346001521 -0.1869063377 1.118831873 -0.001884862082 0.1021328866 0.9944906831
0.004675318953 -0.06939122826 1.003599048 -0.3172811568 0.05092819035 0.9459788799
0.003784291912 -0.07431162894 1.004940629 -0.3342560232 0.07575053722 0.9383289814
0.0034198293 -0.07883623987 1.006354094 -0.3503958285 0.09947503358 0.9310190082
0.01290107239 -0.07457055897 1.008632421 -0.3458342552 0.0951642096 0.9323764443
0.009354666807 -0.0696509555 1.005537629 -0.3236882091 0.06157781929 0.9427124858
0.008534655906 -0.07761077583 1.007953405 -0.3518733382 0.1029612795 0.9299608469
-0.001597178169 -0.07818602026 1.004147649 -0.3421654403 0.086048536 0.9351397753
0.004776593298 -0.05872011185 1.00183177 -0.3134151399 -0.09316139668 0.9401847124
-0.003287512809 -0.06218754128 0.9986967444 -0.3243154585 -0.08125688881 0.9407470226
0.01441845577 -0.06557365507 1.002677321 -0.3427595794 -0.02334027737 0.938723743
0.01653555594 -0.05503704771 1.009905934 -0.3186010122 -0.09014758468 0.9397424459
0.01536863204 -0.06896506995 1.009494662 -0.3392766416 0.04567717016 0.9338586926
0.0130770728 -0.06489328295 1.007776856 -0.3252945244 0.01133928727 0.9399626851
0.01184496563 -0.06155171245 1.002437353 -0.3340641558 -0.07556907088 0.9371629357
0.01024042163 -0.05536169931 1.002941847 -0.3301059306 -0.1430605948 0.9324628711
0.03734777868 -0.06132364273 1.011030316 -0.3485306203 0.02378258295 0.9367249608
0.02301637828 -0.07777322084 1.012690187 -0.3715298772 0.1151560023 0.9207525849
0.03033983894 -0.0761898458 1.014951706 -0.3856449425 0.0981862247 0.9170304537
0.0303393323 -0.06955482811 1.014381886 -0.3757450581 0.03852924332 0.9216653705
0.02643728442 -0.05597619712 1.011876583 -0.3398213685 -0.08594191074 0.9346582294
0.02578915097 -0.07385931164 1.01289618 -0.382598877 0.07750411332 0.9191517234
0.02811644413 -0.06327161938 1.013058186 -0.3587952256 -0.01910184138 0.9277932644
0.02154096775 -0.05570971966 1.011000633 -0.33149755 -0.08735987544 0.9362281561
0.02353639528 -0.06116860732 1.01166153 -0.3481176496 -0.03796900436 0.9308968782
0.025331866 -0.06713714451 1.012325764 -0.3656510115 0.01612555794 0.9251731634
0.02004911005 -0.06793216616 1.01141119 -0.3533358872 0.02791349217 0.9281890988
0.01923498325 -0.06285496801 1.011015892 -0.3416398168 -0.01947752014 0.9320238829
0.02963286452 -0.08314667642 1.014916897 -0.3752866089 0.1347093284 0.916639924
0.02368572727 -0.08307603002 1.012763381 -0.3562878072 0.1596716344 0.9205658436
0.0180083029 -0.0822160095 1.008733153 -0.3501465321 0.1641765386 0.9221689701
0.03031926788 -0.06933356822 1.009375095 -0.3590794504 0.06752198935 0.9298545122
0.0224777218 -0.07314641029 1.007988334 -0.3654865324 0.1078356132 0.9244371057
0.01860393025 -0.07511882484 1.006259918 -0.355573833 0.1245315671 0.9254010916
0.01619199477 -0.06995943934 1.003801346 -0.3444261849 0.03882936016 0.9339230061
0.02041634917 -0.06807399541 1.004082799 -0.3499081433 0.04396017268 0.9333630204
-0.06377733499 -0.05387491733 1.016410708 0.2765884399 -0.1741044968 0.9321873784
-0.06257838756 -0.04633997753 1.018964171 0.2886759937 -0.2777263224 0.9092766047
-0.05923260376 -0.05414186046 1.014341116 0.3204403222 -0.1848326772 0.9217339754
-0.05873725936 -0.04761884734 1.016322017 0.3248102069 -0.2547490597 0.9070084095
-0.05425317958 -0.04933283105 1.013127327 0.3585088253 -0.2135543674 0.9084215164
-0.05134148151 -0.05308812484 1.008296132 0.3644706607 -0.1621694565 0.9124931693
-0.0591504015 -0.05670700595 1.010479689 0.3113398254 -0.1912564486 0.925080955
-0.05523417518 -0.06173757091 1.008050084 0.3548908234 -0.1084219962 0.9244020581
-0.04712266475 -0.05537801608 1.006882548 0.3945024908 -0.1373884976 0.9067676663
-0.0568590425 -0.04065316543 1.0164783 0.3075927496 -0.3065938652 0.8976061344
-0.06583562493 -0.04052145034 1.022450566 0.2608911693 -0.3448221385 0.9015194774
-0.07336523384 -0.03885289282 1.02402699 0.2253994048 -0.3479155898 0.9094470739
-0.05359565467 -0.0447553955 1.010848641 0.3372960389 -0.2286338061 0.9094728827
-0.04615866765 -0.04373871163 1.008171678 0.3810837567 -0.209729746 0.8982210159
-0.06794523448 -0.04394038394 1.017068505 0.2521072626 -0.2783943117 0.925979197
-0.07378679514 -0.04426972568 1.019007564 0.2273641676 -0.2804605663 0.9319598079
-0.07738228887 -0.04113667086 1.021532297 0.2099339068 -0.2822693288 0.9353662729
-0.07155061513 -0.05460216105 1.01466465 0.222269997 -0.2657742202 0.9376004934
-0.06709584594 -0.05017873645 1.014538765 0.2508577704 -0.2655772865 0.9304683208
-0.0585202463 -0.04967499524 1.011679649 0.3060136437 -0.2356734425 0.9191918969
0.01727012545 -0.04038091004 1.014138818 -0.3167693317 -0.2253802419 0.9190051556
-0.0201635547 -0.0437036939 0.9952605963 0.08656056225 -0.3362382054 0.9245404601
-0.07242304832 -0.08948474377 1.018808007 0.2508514822 0.2521959245 0.9345239997
-0.06828505546 -0.08774322271 1.017367244 0.2520528734 0.2434402406 0.9365364909
-0.06728921831 -0.08242912591 1.015628099 0.258837074 0.22529535 0.9377336502
-0.06663954258 -0.07767449319 1.014244199 0.2657955587 0.1738989204 0.9471201897
-0.07179065049 -0.07625164837 1.015143991 0.2690549493 0.1801297516 0.9456697106
-0.0882287845 -0.08598422259 1.018502831 0.2085034251 0.2161178589 0.949927628
-0.0860953778 -0.0757195726 1.018057704 0.2469833791 0.224338755 0.9414039254
-0.09551876038 -0.09538061917 1.018968105 0.1369304061 0.1776631922 0.9730528593
-0.08912575245 -0.07971232384 1.01844883 0.2145748585 0.2109382302 0.9511885047
-0.09491009265 -0.1004832312 1.018900871 0.128408134 0.1788719445 0.9734553695
-0.08545234054 -0.09021403641 1.018676162 0.2035244256 0.231606558 0.9467821121
-0.09073391557 -0.09575246274 1.018820405 0.1624879986 0.2025885731 0.961430788
-0.0823700279 -0.08567906916 1.018716931 0.2335221916 0.2514023781 0.9365957379
-0.08172050118 -0.09284651279 1.01863718 0.2048312128 0.2292898893 0.9474766254
-0.08600323647 -0.09635505825 1.018878102 0.1762329787 0.2075563371 0.9582405686
-0.07723753154 -0.07717390358 1.016803026 0.2666169405 0.2099358439 0.9396677017
-0.08264601976 -0.07992908359 1.020967603 0.2466033399 0.2233220488 0.9423699379
-0.07445218414 -0.08083826303 1.016967893 0.2666185796 0.2428385913 0.9313235879
-0.07651904225 -0.08545579016 1.019736052 0.2346099168 0.2618635893 0.9353193045
-0.002946236171 -0.04989974573 1.003757358 -0.2660854459 -0.1990531385 0.9370752573
-0.002037506551 -0.04166650027 1.002053499 -0.2960681021 -0.2768366039 0.911031425
-0.01487707626 -0.03860618547 0.9967644215 -0.0236485973 -0.4236974418 0.9008526802
-0.007157177664 -0.03808606416 1.001228452 -0.1889206171 -0.3642669618 0.9032287002
0.001857818454 -0.04642122984 1.002154112 -0.3184759617 -0.2421528995 0.9154203534
-0.005323705263 -0.05136629939 0.999347508 -0.3178936839 -0.2094133794 0.9211624861
0.00473084487 -0.05082298443 1.002211928 -0.3197776079 -0.1987239271 0.9256148934
-0.02227368392 -0.04355391115 1.005419493 0.1065847203 -0.2888072729 0.9285149574
-0.01883391291 -0.04777798057 1.003972769 0.01901940443 -0.2216855735 0.9543530941
-0.02857177518 -0.03833919019 1.008573532 0.2233022451 -0.288721025 0.91061759
-0.01630250923 -0.03788040951 1.004773021 -0.00934464857 -0.3504861891 0.9027076364
-0.02316765115 -0.03800712526 1.005612254 0.1399163753 -0.3514525592 0.9033842683
-0.01923946291 -0.04073026404 1.009315014 0.09311170876 -0.2667959332 0.9174894094
-0.009409865364 -0.04187858105 1.008587718 -0.05345024168 -0.2798772454 0.9177474976
-0.0173365362 -0.04294846952 1.004978418 0.04396313801 -0.3297266066 0.9192168117
-0.005302434787 -0.04108697176 1.010956645 -0.1014585644 -0.2468679547 0.9167867899
-0.01177404262 -0.03827272356 1.005337358 -0.1056349501 -0.3220009804 0.9060986638
-0.02351411059 -0.03930352628 1.010309458 0.1516128033 -0.2508508861 0.9155260921
-0.00632849196 -0.03892618418 1.005859613 -0.1757483631 -0.3163025081 0.9070668221
-0.01381646655 -0.03997040167 1.009997725 0.005146307405 -0.2576949298 0.9149051309
0.00164340972 -0.04148012772 1.010617018 -0.2089274824 -0.2533314526 0.9160231948
-0.009517447092 -0.04984917864 1.002325177 -0.1295539737 -0.2334930748 0.9590720534
-0.003513366682 -0.04448790848 1.005258083 -0.1607725769 -0.3145215809 0.9232833385
-0.02270984277 -0.03898633271 1.00018394 0.1590475291 -0.3830187917 0.9059892297
-0.03064201958 -0.05629744008 0.9969518185 0.3751599491 -0.2267409712 0.8864085674
-0.0268730931 -0.05822876096 0.9948323369 0.2439970821 -0.1942506433 0.9217711687
-0.02010241337 -0.05837555975 0.9910363555 0.02336040325 -0.1590876132 0.9610903263
-0.02348105982 -0.0495672971 0.9959099889 0.1843478382 -0.3142790794 0.9285631776
-0.02759350277 -0.0521511361 0.9968464971 0.3002418876 -0.2804281116 0.9007760882
-0.01995442994 -0.05147677287 0.9931464791 0.05235680565 -0.2538633049 0.9490880966
-0.02277983166 -0.05568704754 0.9939392805 0.1390490681 -0.2450276911 0.9501261711
0.04518434033 -0.06118037552 1.016609192 -0.3524902463 0.00960146077 0.9352560639
0.04671770334 -0.07141792029 1.019674778 -0.3700195551 0.04979246855 0.926990509
0.04954607412 -0.0667726025 1.018370748 -0.3580082655 0.02899054065 0.9330812097
0.04440933093 -0.07643915713 1.020233631 -0.3807827532 0.069239676 0.9215838313
0.04063975438 -0.06665182114 1.01805532 -0.3654011786 0.02875733003 0.9283832908
0.04099581763 -0.05599666387 1.014900923 -0.3443820179 -0.01574178226 0.938503921
0.03937707469 -0.06105667725 1.016298532 -0.3531874716 -0.000284652313 0.9339310527
0.03558060899 -0.06957183778 1.016503692 -0.3757827282 0.04821825027 0.9231213331
0.03464103118 -0.07139334083 1.012145042 -0.3620794713 0.06145519391 0.9291174412
0.03967166692 -0.071552068 1.014876366 -0.3585113287 0.0437624529 0.9321169853
0.03380396217 -0.06554905325 1.009583831 -0.3493219912 0.03950796649 0.9360300899
0.03912824392 -0.06546505541 1.012171984 -0.3541041911 0.03680856526 0.9344470501
0.008360384963 -0.05927313864 1.005085111 -0.3056337237 -0.03894395381 0.9460674524
0.01212240476 -0.05583975464 1.00724113 -0.3089127541 -0.07657065988 0.9441159964
0.009349264205 -0.04515283927 1.010077834 -0.3107473552 -0.2136026472 0.9220897555
0.01003757212 -0.05025374144 1.003729463 -0.3296946585 -0.1838513911 0.9240939617
0.02153357118 -0.04081140086 1.012021065 -0.3223796189 -0.1750127524 0.9300495982
0.01466346346 -0.04872637987 1.006307125 -0.3299280107 -0.1665704697 0.9279480577
0.007138748653 -0.04631567746 1.003749132 -0.3227040768 -0.2242484987 0.9185383916
0.01971206814 -0.05600666627 1.005153656 -0.3194215596 -0.1156028062 0.9403299093
0.01987309568 -0.05104817078 1.007341146 -0.3234995902 -0.1343292147 0.9361733794
0.01775844209 -0.048461698 1.011018157 -0.315056324 -0.1516408771 0.9356030822
0.01324784104 -0.04029375315 1.008233547 -0.3167965114 -0.2044703215 0.9255430698
0.005327017512 -0.04132391885 1.004221439 -0.3138742745 -0.233122468 0.9201558232
0.04078777879 -0.1780816764 1.123000026 -0.002314679092 0.1103911698 0.9928385019
0.04659681395 -0.1820588708 1.119000077 0.001529091154 0.1325305998 0.9910604358
0.03391686454 -0.1790139079 1.119048119 -0.004331798758 0.100166291 0.9946120381
0.03557921946 -0.1749531776 1.121443033 -0.005482943263 0.09542699158 0.9942596555
0.04823431 -0.1759198904 1.123000026 0.002484931145 0.1590026617 0.9872748852
0.05392844602 -0.1751728505 1.122897267 0.002499013208 0.1589974314 0.9872758389
0.04764091969 -0.1708869934 1.119000077 0.002499013208 0.1589974314 0.9872758389
-0.002066303277 -0.06899739057 1.00184226 -0.3445786536 -0.001552237431 0.936860919
-0.007163129281 -0.05954482406 1.001000047 -0.2375370264 -0.1149175391 0.9528648853
-0.0112941293 -0.05696013942 1.001000047 -0.1435621679 -0.1504523754 0.9689728618
-0.008875595406 -0.0676105395 1.001000047 -0.2205082029 -0.02692412958 0.9623767734
0.005042111035 -0.06405330449 1.002643704 -0.3049122393 0.0127622867 0.9504141212
0.006488351617 -0.05459127948 1.006218553 -0.3099431694 -0.1045968831 0.935005784
0.005447086878 -0.04897148907 1.007894516 -0.3230422139 -0.1900021434 0.9223065376
-0.000326526002 -0.0577066876 1.003252387 -0.3386259377 -0.1132718772 0.9298177958
-0.004505012184 -0.07462090999 1.002488017 -0.3309146464 0.0414971374 0.9387196302
-0.06039854512 -0.07266949117 1.012276649 0.2870773077 0.07452534139 0.9535124302
-0.06206819788 -0.0653173998 1.012330294 0.2867835462 -0.02513470314 0.9529644847
-0.05719766766 -0.06402263045 1.012208581 0.3278135061 -0.05462297052 0.9316927195
-0.0530254133 -0.05875290185 1.011467457 0.362269491 -0.1590558439 0.9154530168
-0.04521473497 -0.07124845684 1.010293603 0.395365566 -0.04530899972 0.914157927
-0.06306587905 -0.06043793634 1.011727333 0.2818064988 -0.1376093626 0.9422827959
0.05525183305 -0.1829366684 1.122446299 0.002373676049 0.1321265399 0.9907571077
0.05856141821 -0.1778587848 1.122343302 0.0008436468779 0.1495527476 0.9884697795
0.06201491877 -0.1725510508 1.1221807 0.002106928034 0.1591427922 0.9872497916
0.04899467528 -0.1863576323 1.118626595 -0.005789286457 0.1350051314 0.9903048277
0.05963492393 -0.1673057526 1.119398355 0.002499013208 0.1589974314 0.9872758389
0.05618871376 -0.1639470607 1.116905093 0.002499013208 0.1589974314 0.9872758389
0.05449281633 -0.1699935198 1.117904544 -0.001039313269 0.1603091657 0.9870406389
0.05158151314 -0.1802274138 1.118709803 -0.006814987864 0.1624503434 0.9866566658
0.05954834446 -0.1715213507 1.11718452 -0.003064855235 0.1610600799 0.9869059324
0.05516661331 -0.1766617149 1.117962241 -0.007425888907 0.1626768112 0.986616075
0.062531434 -0.163569659 1.115786672 0.002499013208 0.1589974314 0.9872758389
0.06045966968 -0.1575736403 1.113282561 0.002499013208 0.1589974314 0.9872758389
-0.008490067907 -0.05497631431 0.9968117476 -0.2860874832 -0.1711555868 0.9364728928
-0.01257816888 -0.05487959832 0.9930924773 -0.1758800149 -0.182741344 0.9581082463
-0.009608810768 -0.05011641234 0.9964607954 -0.2256238312 -0.2406163365 0.9337937832
-0.009766944684 -0.04488077387 0.9981665611 -0.1949563473 -0.3186592758 0.9121900797
-0.01499540173 -0.05044076219 0.9928893447 -0.09113779664 -0.2568904757 0.9469037652
