# .PCD v0.7 - Point Cloud Data file format
VERSION 0.7
FIELDS x y z normal_x normal_y normal_z
SIZE 4 4 4 4 4 4
TYPE F F F F F F
COUNT 1 1 1 1 1 1
WIDTH 512
HEIGHT 1
VIEWPOINT 0 0 0 1 0 0 0
POINTS 512
DATA ascii
0.07668146491 -0.152718693 1.035162807 0.08566713333 0.2035287172 0.9753139019
0.07769343257 -0.1470932066 1.03347683 0.08566713333 0.2035287172 0.9753139019
-0.04479812458 -0.1381158531 0.9587037563 -0.08037370443 -0.4565391839 0.8818283677
-0.09236182272 -0.2589215636 0.9738138914 0.2245855182 0.176083535 0.9575163126
-0.09018900245 -0.2559570372 0.9784193635 0.2213816643 0.1729074717 0.9591376781
-0.01503690518 -0.2912391126 0.9936837554 -0.3485668898 0.3241468072 0.8779768348
-0.02426901832 -0.2943837345 0.9870348573 -0.2627095282 0.3549797833 0.8963247538
-0.03023498319 -0.2940175533 0.9865002632 -0.2358480245 0.3728682101 0.8960548639
0.1058393121 -0.2309132069 1.036202312 0.2951048017 -0.09215090424 0.9508097768
-0.04729405418 -0.2458709627 1.031147003 -0.3672533929 -0.9053399563 0.1324549615
-0.03659489751 -0.2468225956 1.035845876 -0.5051851273 -0.8492205739 0.100849241
-0.04227624089 -0.2472147346 1.033521891 -0.4399499893 -0.8734849095 0.1218247488
-0.05281094834 -0.2473247945 1.028381705 -0.2869527638 -0.9273021817 0.1235964373
-0.0334417969 -0.2549784184 1.037460923 -0.5990964174 -0.7888157964 0.1352944374
-0.01603722386 -0.27223593 1.018963337 -0.4493072927 -0.4478734434 0.4916718304
-0.01323447563 -0.2800667286 1.008663416 -0.4291653931 -0.1267155856 0.6522029638
-0.02313622646 -0.2639179826 1.028486967 -0.4623534381 -0.7300506234 0.3512625694
-0.02153018117 -0.2696875632 1.012675524 -0.4114873409 -0.3963207901 0.5207118988
-0.02314383164 -0.2762774825 1.001270413 -0.3641005456 -0.08541864902 0.6785705686
-0.02448346838 -0.2806009054 0.9943301082 -0.3338845968 0.1128264442 0.7792283297
-0.01858942397 -0.2684103549 1.024536371 -0.4554983377 -0.6042984128 0.413588047
-0.0170196481 -0.2829838991 1.004565716 -0.3893710971 0.01545088273 0.7247537971
-0.0200197529 -0.275372088 1.015853167 -0.4223980308 -0.3018116951 0.5655637383
-0.01434155554 -0.2877001762 0.9990414381 -0.3763257265 0.1905720085 0.8119807839
-0.02087948471 -0.2856278121 0.9918524027 -0.3335138857 0.2540173531 0.8482984304
-0.02292410657 -0.2712742984 1.019617081 -0.4285039008 -0.4388457239 0.4978156388
-0.01926038414 -0.2785388529 1.01028049 -0.4042320251 -0.157020539 0.6385973096
-0.02384008467 -0.2751826644 1.009415388 -0.3893037736 -0.211617887 0.6137546897
-0.01562933624 -0.2633931339 1.026830435 -0.5072693229 -0.7079766989 0.3066902459
-0.01219488028 -0.2722069025 1.014791727 -0.4871887863 -0.3335208595 0.4867404699
-0.009271356277 -0.2836484611 1.000054836 -0.4433059394 0.1152387187 0.7424806356
-0.009437723085 -0.2896265984 0.995229125 -0.406950742 0.2840464115 0.8561908603
-0.009578489698 -0.2646985054 1.018168688 -0.5565516353 -0.4703338742 0.339473635
-0.04907088727 -0.1823600978 0.9426892996 0.1356926113 -0.229296267 0.9634937644
0.09775221348 -0.1656788439 1.039184093 0.1004304811 0.1996198148 0.9745102525
0.09681813419 -0.1734368503 1.044200778 0.1354644299 0.193059966 0.97135818
-0.05887087807 -0.1507277638 0.957015574 0.2083012164 -0.3906257451 0.8886994123
-0.05477369204 -0.1523984522 0.9534474015 0.1985327005 -0.3819261193 0.8983149529
-0.06305116415 -0.1746328175 0.938739419 0.1205315962 -0.1797727495 0.9738915563
-0.05786076933 -0.176079601 0.9439631701 0.1411970854 -0.2110984176 0.9658577442
-0.05886329338 -0.1701647043 0.9424042702 0.1385258287 -0.1913409233 0.9700589776
-0.07613087445 -0.1826029122 0.9293414354 0.07551873475 -0.1438618302 0.9848536849
-0.0535626635 -0.2427575141 1.018907785 -0.2165023088 -0.7759023905 0.2556970417
-0.04954989254 -0.2420268357 1.014201403 -0.2462121248 -0.6184254885 0.3705112636
-0.05217188597 -0.240152657 1.025033116 -0.2613909245 -0.8961363435 0.1542115808
-0.04318944365 -0.2919952869 0.9853107333 -0.06989201158 0.33772856 0.9349719286
-0.03663049266 -0.2909641862 0.9860997796 -0.1600182354 0.348905772 0.9152266383
-0.01384419017 -0.268805325 0.9827930927 -0.382119149 0.1584539711 0.9055621028
-0.01749657467 -0.2762889564 0.982991457 -0.3879998922 0.1929086745 0.8960931897
-0.06109107658 -0.2729096115 0.9907882214 -0.001909943996 0.04366131127 0.7704240084
-0.06189333647 -0.2659008801 0.9978188872 -0.03088308871 -0.1841822863 0.6232945323
-0.06188398972 -0.2786051929 0.9829103351 0.03451799229 0.278524667 0.9207729697
-0.05714610219 -0.2752113342 0.9939942956 -0.02522123419 -0.008169518784 0.7403010726
-0.05762425065 -0.278827101 0.9890308976 -0.002320260741 0.1400631368 0.8352110386
-0.06653983891 -0.2739481032 0.9860086441 0.01761255972 0.1686471105 0.8490693569
-0.07114966214 -0.2761667669 0.982278645 0.02692190744 0.2820841968 0.921664834
-0.06891810149 -0.2626419961 0.9999810457 -0.05127308145 -0.2543416917 0.5777106881
-0.06378118694 -0.2537995577 1.012270689 -0.09934758395 -0.6271023154 0.3388193846
-0.0680333972 -0.2688324749 0.9922494292 -0.013901948 -0.02023846842 0.7278795838
-0.007323788479 -0.2814100683 0.994946897 -0.4550669193 0.1853836328 0.8112636805
-0.008075190708 -0.2734553218 1.004730821 -0.5020268559 -0.1008424908 0.608166337
0.07846232504 -0.1597782969 1.037965536 0.08566713333 0.2035287172 0.9753139019
-0.01305017155 -0.2590945959 0.9902280569 -0.4393238425 -0.08120205998 0.7568204403
-0.00950886216 -0.2610878348 1.00560236 -0.7403231263 -0.3713253736 0.3483272791
-0.01398987044 -0.2564925849 1.01975286 -0.5605597496 -0.6328561306 0.2683211863
-0.01156536955 -0.255562067 1.026129603 -0.602260828 -0.7476451993 0.1561473757
-0.01256109867 -0.2566948235 1.007407665 -0.4754834771 -0.3986696601 0.4971721768
-0.01235683728 -0.2626407743 0.9845314622 -0.3501773179 0.1128296703 0.927239418
-0.007397823036 -0.2716754079 0.9979274273 -0.5713461041 -0.0005534213851 0.6529102921
-0.009119260125 -0.2602173984 1.013294697 -0.7231066823 -0.4971802831 0.2602562904
-0.008286476135 -0.2658250332 1.010272503 -0.5458301902 -0.2877473235 0.4768083692
-0.008155450225 -0.2666228116 1.00402236 -0.653873086 -0.2144559473 0.4760684967
-0.008460106328 -0.2662658989 0.9927640557 -0.748129189 -0.07060743868 0.5459697247
-0.00778554799 -0.2728517354 0.9898076653 -0.4266865253 0.2096713632 0.8787827492
0.09857939929 -0.2473325729 1.043872952 0.3117640615 -0.1789753139 0.9329910278
0.08713046461 -0.2492873371 1.039592266 0.3052941859 -0.1899386793 0.9327867627
0.09204069525 -0.2449838072 1.038585424 0.3002538979 -0.1655017138 0.9381791949
0.1025606468 -0.2361706346 1.036645293 0.2897312641 -0.1144847944 0.949436903
-0.07453709096 -0.2710899115 0.9880016446 -0.001336018322 0.1053543612 0.8115349412
-0.07500303537 -0.2657189071 0.9940227866 0.0008875360363 -0.1047845781 0.7016509771
-0.06969301403 -0.2583572268 1.004809141 -0.05459180847 -0.4188424945 0.488604784
-0.08123376966 -0.2693763077 0.984449625 0.0753621608 0.1540899873 0.8926212788
-0.07737097889 -0.2581174076 0.9948450923 0.05088111013 -0.1684301645 0.6872255802
-0.06912130117 -0.2516114414 1.009327054 -0.04794202 -0.5730262995 0.4009376466
-0.0841133669 -0.2602006197 0.9844324589 0.1402299553 0.1098387614 0.8931106925
-0.07935199142 -0.2525510192 0.9945049882 0.09352744371 -0.1867848188 0.6940430403
-0.07460781187 -0.2544780374 1.000338435 0.02165579796 -0.3276080489 0.5786498785
-0.08336231112 -0.2536774874 0.9883611798 0.1469701231 -0.02309714071 0.815523684
-0.07976847142 -0.2622355521 0.9896560907 0.07369054854 -0.01475580223 0.7897757888
-0.06584764272 -0.2490896732 1.01504755 -0.08731649816 -0.7326078415 0.2878528237
-0.06864271313 -0.1839218289 0.9351540804 0.1210073158 -0.1782007217 0.97178334
-0.06202921644 -0.1812009662 0.9405966997 0.1444580257 -0.2026892453 0.9650222063
-0.07736825943 -0.1787558198 0.9386106133 0.1128205881 -0.1769521087 0.9714302421
-0.08077526093 -0.1861029267 0.9310532212 0.04827545583 -0.09789168835 0.9903492928
-0.07085257769 -0.1801309884 0.9398482442 0.1191814914 -0.1976003796 0.9700106382
-0.07256639004 -0.1748683304 0.9454102516 0.150239408 -0.2203811556 0.9602092505
-0.06673140079 -0.1785499156 0.9443119168 0.1376254112 -0.218983233 0.9644036889
-0.0728591904 -0.171510309 0.9511086941 0.1672068983 -0.2252703756 0.9546403289
-0.07946518809 -0.1854790747 0.9427674413 -0.0167307239 -0.02639248408 0.991002202
-0.08085856587 -0.188184917 0.937212348 -0.02014882863 -0.01303606015 0.995980382
-0.07550918311 -0.1791322976 0.9491070509 0.08074747026 -0.1297103316 0.9838657379
0.08786252886 -0.153510496 1.034947753 0.08566713333 0.2035287172 0.9753139019
0.08333200961 -0.1491307467 1.033875704 0.08566713333 0.2035287172 0.9753139019
-0.02136914432 -0.1686910242 0.9517449141 -0.376057446 -0.2695099115 0.8841432929
-0.05882879347 -0.1584485918 0.9518306851 0.2533572614 -0.3121808171 0.9096884131
-0.01888734289 -0.2704314888 0.9800798297 -0.3576865792 0.140894264 0.9193768501
-0.0122135058 -0.2825362086 0.988835454 -0.4326814711 0.2533741295 0.8650761247
-0.01201805286 -0.2762936056 0.9875103831 -0.4383498132 0.2394717634 0.8662419915
-0.01632998884 -0.2869352996 0.9872989058 -0.4048146307 0.268881917 0.8728454709
-0.04365926981 -0.24815391 0.9854797125 -0.1902967095 0.1075982004 0.9358938336
-0.0462071225 -0.2532544434 0.9883736372 -0.1533336937 0.03520507365 0.861056149
-0.04644452035 -0.2598953247 0.9854824543 -0.1158153787 0.1284796298 0.9075241089
-0.05492349714 -0.2506724 1.008543134 -0.1375832707 -0.5374060869 0.4314096868
-0.04879296944 -0.2684321702 0.9861836433 -0.06054824218 0.1239729151 0.8717882633
-0.04890558496 -0.2576575279 0.9919507504 -0.1197062582 -0.05767182633 0.7731365561
-0.05248726532 -0.2590451837 0.9989833832 -0.09970185906 -0.2532436848 0.6178124547
-0.05092644319 -0.2645972967 0.9927623868 -0.07439377159 -0.06814050674 0.7388641834
-0.04899640381 -0.2511006296 0.9955085516 -0.1556300372 -0.1695684642 0.7120608687
-0.05271135271 -0.2516056299 1.003281832 -0.1400446296 -0.3875734508 0.5428594351
-0.0610794723 -0.2750942707 0.9780001044 0.02371620014 0.3384951651 0.9404336214
-0.05411501601 -0.2454497218 1.005176067 -0.1490966082 -0.4641707838 0.4940806627
-0.0571885705 -0.2407878488 0.9812040329 -0.009596105665 0.1083771139 0.8490849137
-0.05735075101 -0.2398772687 0.9750976562 0.01837642118 0.2589513958 0.946682632
-0.04924898595 -0.245673418 0.9909909964 -0.1479857862 -0.07443057001 0.7813459039
-0.05912012607 -0.244078204 1.011451483 -0.1148388684 -0.6583275199 0.3340559304
-0.05896053836 -0.2410930693 0.9891864657 -0.02199317329 -0.1035783216 0.6985904574
-0.06168385223 -0.241285339 0.9994379878 -0.03246099129 -0.3791969717 0.500146091
-0.06468161941 -0.2370011061 0.9779707193 0.09545245767 0.1316564381 0.8152229786
-0.05071238801 -0.2462573051 1.000000596 -0.1685150713 -0.3095719218 0.6176819205
-0.04739346728 -0.2453210503 0.9823935032 -0.1339880675 0.1534527242 0.9428244829
-0.05484980345 -0.2434665114 0.9931167364 -0.08880432695 -0.1699617356 0.6820389628
-0.06523317844 -0.2359568477 0.9721560478 0.1269269884 0.2720127702 0.9035733342
-0.05251961574 -0.2435009331 0.9857943058 -0.08601760119 0.02983946912 0.8282285929
-0.0227378048 -0.2604076862 1.020009756 -0.5460948348 -0.5912009478 0.2598508596
-0.03128156066 -0.2446841002 1.032002091 -0.4947213233 -0.856756866 0.08253704756
-0.02453351021 -0.2485137582 1.031289697 -0.5561407804 -0.8163547516 0.09892912954
-0.01676716469 -0.2515093684 1.031392694 -0.6173300743 -0.7768483758 0.1153998077
-0.03582698479 -0.2517871559 1.017168164 -0.4101670682 -0.6185190082 0.3062283993
-0.04247172549 -0.2501324415 1.021027088 -0.3485210538 -0.7660904527 0.2124505341
-0.03647692129 -0.2519684136 1.022724628 -0.424831301 -0.7612423897 0.1910835803
-0.05237408355 -0.2468368709 1.014255762 -0.206617862 -0.6758251786 0.3289228678
-0.04163482413 -0.2499097437 1.014034152 -0.3302856982 -0.5863229036 0.3574041128
-0.04453682899 -0.2481179833 0.9995828867 -0.2388856262 -0.2510574162 0.6466295719
-0.02844399959 -0.2541431487 1.020690918 -0.5098704696 -0.6480241418 0.2506091297
-0.04456976801 -0.2484989315 1.005475879 -0.2620501816 -0.3972886801 0.5259758234
-0.03820477799 -0.2504360378 1.007093191 -0.342333436 -0.387558639 0.5070748329
-0.04872571677 -0.2485579103 1.024400949 -0.28946805 -0.8985850811 0.129472971
-0.03809817508 -0.2498785555 0.9982159734 -0.3080991209 -0.1668292284 0.6889554858
-0.02486956678 -0.258864373 1.031382799 -0.6123491526 -0.7712001204 0.158600077
-0.04243948683 -0.256038487 1.032373548 -0.4257744253 -0.8509220481 0.1850992739
-0.04442391545 -0.2511570454 1.027133822 -0.3575222492 -0.8876343966 0.1301527172
-0.03273252398 -0.2563114166 1.030314922 -0.515529871 -0.8147018552 0.1540980339
-0.03821406886 -0.2535818815 1.02845645 -0.4382116795 -0.8507968783 0.1388974041
-0.05855599046 -0.246436879 1.025060177 -0.1821468323 -0.9666201472 0.1203881204
0.08566603065 -0.2674596012 1.03989768 0.3065767884 -0.1961570531 0.9314145446
0.09995134175 -0.2318702787 1.043616414 0.2969015241 -0.1082985774 0.9485755563
0.09340184927 -0.2267414182 1.049211025 0.3158270419 -0.101543501 0.9427458644
0.1021499783 -0.2384019792 1.042942524 0.3037956059 -0.1414554566 0.9416270852
0.09487910569 -0.2426116019 1.044811368 0.3085285723 -0.1831934899 0.9327582121
0.09377422184 -0.2331080437 1.047890067 0.3153686225 -0.1356271952 0.9377267957
0.09756684303 -0.2244482338 1.042386532 0.3101804554 -0.07362002134 0.9475522041
0.101940915 -0.2203421891 1.040754557 0.327286005 -0.06844449043 0.9418455362
0.09379124641 -0.1827661991 1.047253132 0.1565182507 0.1758703291 0.9716175795
0.1010366827 -0.179574281 1.04178381 0.1262858659 0.1867217869 0.9736678004
-0.08726137131 -0.2700163722 0.9772078395 0.1115025654 0.2390693426 0.9637594223
-0.09133408219 -0.2652997673 0.9750959873 0.1748016775 0.2259553373 0.9575831294
-0.08655949682 -0.2631638646 0.9800209999 0.1530514061 0.2097328603 0.9623430371
-0.07969922572 -0.2754049897 0.9794891477 0.06407605112 0.2728873491 0.959086597
-0.07732792944 -0.2563622892 0.9686524272 0.1760512143 0.2340351939 0.9536041021
-0.0899046585 -0.2643926144 0.9683340192 0.1818389744 0.2176199406 0.9565863609
-0.08474391699 -0.2629698813 0.969794333 0.1564645767 0.2390069366 0.9544794559
-0.07617150247 -0.2608989775 0.9724276662 0.1107247695 0.2768199444 0.9508417845
-0.03807555512 -0.152831167 0.9480000734 -0.06945163012 -0.3806634843 0.919465661
-0.04414995015 -0.15128766 0.9480000734 0.05425016209 -0.3873764575 0.9129271507
-0.04985567555 -0.1582076997 0.9479689598 0.2105403095 -0.3296800852 0.9179222584
-0.08133094013 -0.1973186731 0.9405722618 0.3302441537 0.1529812664 0.8935567141
-0.0783585459 -0.2039061785 0.9484783411 0.5063473582 0.2519253194 0.7996760607
-0.0824650526 -0.2030608207 0.9535158277 0.5581099987 0.2999352515 0.7631147504
-0.06684435159 -0.2005661279 0.9314039946 0.2454445362 -0.07327917963 0.9458675385
-0.0547610186 -0.2093145698 0.9371322393 0.3796803653 -0.05159582198 0.9170426726
-0.08040313423 -0.1892980188 0.9252969027 0.08264296502 -0.1095420867 0.9839527607
-0.07849926502 -0.1939282268 0.9314823747 0.1773956418 0.003078827169 0.973285079
-0.0732383281 -0.1962937415 0.929423511 0.1861255616 -0.06629687548 0.9609764218
-0.06291300803 -0.2056822777 0.9340976477 0.3184346557 -0.02926938981 0.9290059209
-0.05326795578 -0.2250545174 0.9475739598 0.2629697323 0.327719748 0.8481576443
-0.04924126342 -0.2212422639 0.9464118481 0.2881953418 0.06366043538 0.8914958835
-0.08219529688 -0.1920497864 0.9440888762 0.1888819933 0.1754636019 0.9571039677
-0.08223442733 -0.1969890594 0.9494590163 0.3565809727 0.2091349959 0.9041441083
0.08273717761 -0.1555261016 1.034838676 0.08566713333 0.2035287172 0.9753139019
0.08630912006 -0.1621460468 1.036988139 0.08566713333 0.2035287172 0.9753139019
0.08552928269 -0.1682792306 1.037905455 0.08566713333 0.2035287172 0.9753139019
0.0940053612 -0.1609036475 1.038075447 0.08566713333 0.2035287172 0.9753139019
0.09288175404 -0.1705772728 1.03968811 0.08566713333 0.2035287172 0.9753139019
-0.05496350676 -0.1833281815 0.9464848042 0.2199054807 -0.2399922162 0.9451259375
-0.04423866048 -0.1696055382 0.9487309456 0.05779537559 -0.2401600927 0.9679846764
-0.05266469344 -0.1725959927 0.9495588541 0.1285209954 -0.2517580986 0.9579016566
-0.05101776496 -0.1661549807 0.9515797496 0.131151408 -0.2356529534 0.9596005082
-0.04693846032 -0.1759640425 0.9477901459 0.0946880877 -0.2673493028 0.9576029181
-0.02965496294 -0.267526567 0.9768974781 -0.246074006 0.07800348103 0.9597460032
-0.02312525921 -0.2666877508 0.9777341485 -0.3199840486 0.08175606281 0.9422078133
-0.01927861571 -0.2599889636 0.9778774381 -0.3077721596 0.056647636 0.9493804574
-0.03979215771 -0.277908653 0.9810605049 -0.08300987631 0.2790906727 0.953645587
-0.03510943428 -0.2730895579 0.9814757109 -0.1441963464 0.2562428713 0.9537674189
-0.04145200923 -0.2630297542 0.9825040102 -0.1372044981 0.2149720788 0.961384356
-0.04035743698 -0.2691433132 0.9819067121 -0.1183849275 0.2411532253 0.9580160975
-0.04652510956 -0.289073199 0.9810864329 -0.02963785641 0.3069286942 0.9503642917
-0.05718517303 -0.2887978852 0.9838218093 0.009827591479 0.3096163571 0.9507516623
-0.0635028407 -0.284258455 0.9801006913 0.01043016277 0.3117627203 0.9500402212
-0.05243143067 -0.2869536281 0.9811404943 -0.00605341699 0.304038763 0.9523283243
-0.05788827315 -0.2808302045 0.9774129987 -0.0008432492032 0.310364902 0.9501713514
-0.05477073416 -0.273091048 0.9779391885 0.02646678686 0.333065927 0.9424052238
-0.09274103492 -0.253601402 0.9702448845 0.2430508137 0.2136433721 0.9426187277
-0.09103547037 -0.2399684787 0.9737248421 0.289871037 0.234577924 0.9217448235
0.09386578947 -0.2192465663 1.044535875 0.328666687 -0.0430146642 0.9418971539
0.08906176686 -0.2293221354 1.046010256 0.2979983091 -0.1049457341 0.9479922056
0.09635121375 -0.2361517698 1.038243771 0.2885413766 -0.1294705719 0.9477704167
0.0897000432 -0.2364930809 1.045923352 0.2940842509 -0.1572518647 0.9419189692
0.1066789925 -0.2256530225 1.039273024 0.3167288303 -0.07471177727 0.9455327392
0.08695802838 -0.1872547865 1.05115509 0.1690124869 0.1669819504 0.9712979794
-0.08394338191 -0.2717136145 0.9713825583 0.129018575 0.24407655 0.9549084306
-0.07290386409 -0.2786568999 0.9762563109 0.04563422501 0.2936288416 0.9512636065
-0.08047794551 -0.2667638063 0.9734863639 0.09561171383 0.2912469804 0.9469844103
-0.0258400552 -0.1760722548 0.9470209479 -0.214242965 -0.2650046647 0.9245182872
-0.03037001751 -0.1796832681 0.9478114843 -0.1157821715 -0.2768704593 0.9279707074
-0.03790133819 -0.1675529033 0.9475497007 -0.02765975706 -0.1945284307 0.974968791
-0.04069528356 -0.1741900742 0.9463583827 0.0249740798 -0.2693333328 0.9607551098
-0.04296982288 -0.1801800132 0.9432128072 0.06911995262 -0.2618108094 0.96219033
-0.04076784477 -0.1869373918 0.9389715791 0.08214617521 -0.2478611618 0.9647088647
-0.036665041 -0.1915539354 0.9361233115 0.06757327914 -0.2422536761 0.9656365514
-0.01624091342 -0.1563354433 0.959092021 -0.3847712576 -0.380862087 0.8378354311
-0.02149364538 -0.1602692604 0.953034699 -0.3311651945 -0.3153333068 0.8813660741
-0.02911262773 -0.161796838 0.9482522607 -0.2139299363 -0.2948904932 0.9239647985
-0.03130206093 -0.1554628313 0.9487979412 -0.2031147033 -0.3576110303 0.9012688994
-0.09256441146 -0.2483212799 0.9728934765 0.2519447207 0.2049503773 0.9448467493
-0.05485491827 -0.1927012503 0.9312474132 0.1265301257 -0.19360964 0.9683128595
-0.07446716726 -0.1883571744 0.9263187051 0.06421034783 -0.1446807832 0.9857447147
-0.06952260435 -0.1878793091 0.9306812286 0.1017590538 -0.1668511629 0.9760113955
-0.0595786497 -0.1879562289 0.9369555712 0.1526523978 -0.2036560774 0.961922884
-0.06053877622 -0.1904657781 0.9302896261 0.08803544939 -0.1812323034 0.9765864611
-0.05460274592 -0.1874488741 0.9414094687 0.1910668164 -0.2261653692 0.9519880414
-0.04641948268 -0.191326648 0.9373887181 0.142469272 -0.2278559953 0.9605550766
-0.05038132519 -0.2001096755 0.936199367 0.2761958539 -0.1606913507 0.9419184327
-0.05722396448 -0.2012998164 0.9354031682 0.2841706872 -0.1192545965 0.9437420964
-0.06195281446 -0.1969169974 0.9324886799 0.2159486264 -0.1347996145 0.9563602209
-0.03983973339 -0.1977394521 0.9416155219 0.2110973299 -0.2161195278 0.9375293851
-0.04114574194 -0.2000986487 0.9352809191 0.2101253122 -0.184343785 0.9434025884
-0.04614539072 -0.2099207491 0.9381002188 0.419588238 -0.09706064314 0.8966133595
-0.04319892079 -0.2042051256 0.939211309 0.3183627725 -0.1519108117 0.9169980288
-0.03579330444 -0.1892996877 0.9437048435 0.08482722938 -0.2772347033 0.9554255009
-0.03153033182 -0.1847061664 0.9420725703 -0.002900437452 -0.2734704316 0.9587715864
0.08744553477 -0.1818048656 1.049562812 0.1547747105 0.1778344065 0.9710134864
0.08977089077 -0.1730652452 1.044828296 0.1165627241 0.1920416951 0.9733913541
0.07952518761 -0.1661966741 1.042257428 0.09321506321 0.2007223815 0.9748442173
0.08208612353 -0.1741235107 1.045521617 0.1227881163 0.1897270828 0.9730039239
-0.05751964822 -0.1643872857 0.9492872357 0.1837517619 -0.2336471826 0.9521673322
-0.0628971383 -0.1634115428 0.9519555569 0.2151035368 -0.2725857794 0.9333354235
-0.06908822805 -0.1655307859 0.9539451003 0.2164720595 -0.2798656821 0.932748735
-0.05448871106 -0.1460241526 0.9618341327 0.07831040025 -0.4041157961 0.9051578641
-0.06071374938 -0.1571629345 0.9574142098 0.1713298261 -0.3434779644 0.9162815809
-0.05736620724 -0.1699100584 0.9516521692 0.1749303043 -0.251819402 0.9514403939
-0.02782165445 -0.1627052426 0.9539754987 -0.2432439327 -0.2844665945 0.9106575251
-0.01612984203 -0.1538381577 0.965816915 -0.3236625791 -0.4354277253 0.8326021433
-0.02914466709 -0.1689611673 0.9506757855 -0.2113806009 -0.233812049 0.9324580431
-0.0341091603 -0.1735685766 0.9489573836 -0.05050602555 -0.2480271757 0.9565634727
-0.03957478702 -0.1581556946 0.9477960467 -0.02548293769 -0.2983981371 0.9440684915
-0.04368183762 -0.1626446247 0.947360754 0.06883200258 -0.2157382816 0.9665230513
-0.05124134198 -0.291570127 0.9866524339 -0.001367681311 0.3169619143 0.9482553005
-0.05293447524 -0.2831429839 0.9870046973 -0.008683614433 0.2303116471 0.8952672482
-0.05104785785 -0.2748790383 0.9890146255 -0.02673008107 0.07823355496 0.8118584156
-0.05333773419 -0.2678804994 0.9972926974 -0.05554012582 -0.1720303744 0.646366775
-0.0571869351 -0.2567437589 1.011481643 -0.105024226 -0.5886877179 0.368683964
-0.05541944504 -0.263464272 1.005667329 -0.08500421792 -0.3870538771 0.4974787831
-0.05878558382 -0.2519623935 1.017306447 -0.1253134608 -0.762735188 0.253231883
-0.04083157331 -0.285810858 0.9850329757 -0.1113126799 0.3221493363 0.929746449
-0.0464223735 -0.2838132083 0.9866594672 -0.04619448632 0.2501535118 0.9151551127
-0.03093989007 -0.2754308879 0.9879395962 -0.1896753162 0.1158582345 0.8558980823
-0.03511222824 -0.2782954574 0.9848030806 -0.1384453624 0.2118397057 0.9080890417
-0.02978684567 -0.271661669 1.002531171 -0.2656033337 -0.2046327144 0.6633863449
-0.02927464247 -0.2733105123 0.9936951995 -0.2303919196 -0.01891428418 0.7766281962
-0.04174045473 -0.2797322571 0.9941732883 -0.121657975 0.05689833313 0.8047618866
-0.02953291498 -0.271474123 1.009047389 -0.3048309982 -0.3227400482 0.5805118084
-0.03649765626 -0.2818078697 0.9912627935 -0.1787470728 0.1545879543 0.835411191
-0.03594840318 -0.2781510651 0.9975676537 -0.2007546872 -0.01843043044 0.7485880852
-0.02871975303 -0.2837830782 0.9878089428 -0.2621755898 0.2653523982 0.8680664897
-0.02943493053 -0.2780089676 0.9977738857 -0.2782458067 -0.01123674121 0.7337634563
-0.03573137522 -0.2745938599 1.00370276 -0.2184177041 -0.1874160171 0.6646894813
-0.02700827457 -0.2676575482 1.015616059 -0.3508352935 -0.4991354346 0.4864530563
-0.0207623858 -0.2658637166 1.018673182 -0.4321796 -0.5711960196 0.4333217144
-0.03414046764 -0.2848470211 0.9860059619 -0.1936704367 0.3044140339 0.9026066661
-0.03185716271 -0.2791370153 0.9780231714 -0.1976859719 0.2467058152 0.9350869656
-0.02816051431 -0.2738129497 0.9777804017 -0.2860404551 0.1659393311 0.9336686134
-0.02363153733 -0.2815253139 0.9826897979 -0.3318692744 0.2547354996 0.8979417682
-0.0321653299 -0.2900171578 0.981069386 -0.1518304348 0.329621762 0.9263057113
-0.03845831752 -0.2898291051 0.9778085351 -0.08351837099 0.3161107898 0.9448842406
-0.02654375508 -0.2893223763 0.9834887981 -0.2455116808 0.3151971996 0.9052150249
-0.03497348726 -0.2849313915 0.9779627919 -0.1118547171 0.2984306812 0.9390926957
-0.03547362238 -0.2684433758 0.9758250117 -0.123644568 0.09164406359 0.9825900197
-0.04929755256 -0.2772679925 0.9772310853 -0.000553070684 0.31429106 0.9485063553
-0.04414323717 -0.2797268033 0.9768425822 -0.02535050735 0.2848416865 0.9580798149
-0.04492650181 -0.2660312355 0.9767615795 -0.09388510883 0.1315784156 0.9842320681
-0.04819798842 -0.2712979019 0.9772564173 -0.03735617176 0.2663809955 0.9616823196
-0.06616065651 -0.2399325222 0.9959856272 0.05097178742 -0.2957944274 0.5311477184
-0.07040062547 -0.2360163778 0.974701345 0.2046277374 0.2264641821 0.8501265049
-0.06252798438 -0.2437456995 1.016909003 -0.09098869562 -0.8075478673 0.2161797732
-0.06540997326 -0.2416911423 1.006006122 -0.0002222222538 -0.5378284454 0.3777258396
-0.06431149691 -0.2384755164 0.9866930842 0.05523075536 -0.0791971758 0.6800618768
-0.07205815613 -0.238953054 0.9923183322 0.1419725716 -0.1819943637 0.58398211
-0.07373357564 -0.2376492918 0.9854033589 0.2022912651 -0.0132111907 0.684225738
-0.08040707558 -0.2362506986 0.9791065454 0.277148366 0.179261893 0.795088768
-0.05793591216 -0.2651638985 0.9756433368 -0.06487318873 0.2693038285 0.9571992755
-0.06297521293 -0.2576721907 0.9703862667 0.02551127598 0.2879121304 0.9553579092
-0.07200069726 -0.2528115511 0.968226254 0.1675657928 0.2382943183 0.9538165927
-0.07101517171 -0.258575201 0.9717643261 0.07083915174 0.2861599624 0.9537377357
-0.06494382024 -0.265760541 0.9741062522 0.03140670061 0.3286101222 0.9426321983
-0.07237372547 -0.2665522099 0.9758862257 0.04967019707 0.323466152 0.9444516301
-0.06591463834 -0.2709414661 0.976670146 0.02851004153 0.3501453996 0.9356050491
-0.05649175867 -0.222406581 0.9430466294 0.4024266303 0.4194335341 0.8086590171
-0.06016982719 -0.226056546 0.9478820562 0.3922044635 0.3908540905 0.8131918907
-0.06170623749 -0.2353523523 0.9552740455 0.2675879002 0.3431390822 0.866496563
0.08074121177 -0.2538600862 1.044064164 0.3051732481 -0.1939112246 0.9322704673
0.08523739129 -0.2399116158 1.043263435 0.2886838317 -0.1675262451 0.9423260689
0.07755169272 -0.2673124373 1.040936112 0.3065767884 -0.1961570531 0.9314145446
0.08188064396 -0.2723563015 1.037332058 0.3065767884 -0.1961570531 0.9314145446
0.1029297188 -0.2074307799 1.043280959 0.40241763 0.004955498036 0.9143676758
-0.01861068979 -0.260319829 1.031573772 -0.4935511351 -0.8237461448 0.2661429942
-0.0281076394 -0.2615229189 1.036360741 -0.5444940925 -0.7967165112 0.249458313
-0.02184635773 -0.2540776134 1.035157681 -0.544244647 -0.8148240447 0.1755580902
-0.02130191214 -0.1552794576 0.9629526734 -0.2329020053 -0.379080385 0.8733039498
-0.03341273591 -0.1606616527 0.9533108473 -0.1090303138 -0.249507308 0.9511250854
-0.02905165218 -0.156691283 0.9572943449 -0.1705952734 -0.3199787736 0.9105130434
-0.01595691033 -0.1469472945 0.9689048529 -0.3158520758 -0.4843814969 0.8153693676
-0.01886249892 -0.1446938962 0.9641985297 -0.3143852949 -0.4846788049 0.8157169819
-0.04711909965 -0.1436414123 0.9557218552 0.02083400823 -0.4302729666 0.8987779617
-0.0409610644 -0.1446503401 0.9500439167 -0.05707817525 -0.4374038875 0.8961629868
-0.08783863485 -0.2448946983 0.9878835678 0.1917133629 -0.01812792756 0.8174334168
-0.0781493336 -0.2467050105 0.9996324778 0.07388044894 -0.3317318857 0.5893682241
-0.08779899031 -0.2503525019 0.9842866659 0.2031694502 0.0784689039 0.8933725953
-0.0756739527 -0.2445805222 1.004364014 0.03811064735 -0.4583077729 0.4946164787
-0.08308376372 -0.2487497628 0.9916651845 0.14038679 -0.1187472939 0.747356236
-0.08580898494 -0.2372776121 0.9774408937 0.3001969457 0.2425367981 0.8657306433
-0.08169602603 -0.2385195792 0.9850008488 0.2273612916 0.04352075607 0.7425354719
-0.07153196633 -0.2444480211 1.009784579 -0.01252806187 -0.6032866836 0.3867204487
-0.08136254549 -0.2408105135 0.9902875423 0.1755746007 -0.09134291857 0.6931952238
-0.07543357462 -0.2411534935 0.9980969429 0.1008987203 -0.2997738421 0.5416095853
-0.09300282598 -0.2416986376 0.9797570109 0.2688003182 0.1813497245 0.9452510476
-0.0609094277 -0.175611794 0.9512474537 0.1740114987 -0.1999503374 0.9586843848
-0.06031978875 -0.1844353229 0.9492806196 0.2254386693 -0.1503062248 0.9530531764
-0.07125023007 -0.1820349991 0.9521489143 0.1689416468 -0.1149680465 0.9710937738
-0.06620094925 -0.173752889 0.951932013 0.1435530037 -0.2216210216 0.9636387229
-0.07342034578 -0.2046855241 0.9437820315 0.4308445156 0.2004003227 0.8577330112
-0.07467290759 -0.2023793608 0.9388018847 0.3319655061 0.1610509455 0.9012331367
-0.06749477237 -0.2104120553 0.9423856735 0.4464633465 0.2187995315 0.8466230035
-0.06113169342 -0.2106228471 0.9389502406 0.4118398428 0.07764900476 0.8898811936
-0.05644878745 -0.2163708359 0.9407764673 0.4539653957 0.1754577756 0.8508651853
-0.08149973303 -0.215452522 0.9593427777 0.4935857952 0.4104602039 0.7662687898
-0.04222393781 -0.1910763085 0.9427024722 0.1665158719 -0.2580827177 0.9495031238
0.08714639395 -0.1889626384 1.044741035 0.1870070398 0.1478778273 0.9689108729
0.08632204682 -0.1831917614 1.043735147 0.1395436376 0.1736722887 0.9733167291
0.09355310351 -0.1782181561 1.041703582 0.1112881973 0.1932457238 0.9740845561
-0.06701990217 -0.2286325842 0.9648137093 0.3255218565 0.4557954669 0.8108801246
-0.05895859003 -0.2245686203 0.9564551711 0.3242356479 0.2494035363 0.8498082161
-0.05382795259 -0.2296839207 0.959161222 0.1203672811 0.195917815 0.8952636123
-0.05541763082 -0.2335529923 0.9640062451 0.03974528611 0.2676350176 0.8958237767
-0.04810984805 -0.2253792733 0.9517505169 0.1569439024 0.03514095768 0.9190582633
-0.05164037645 -0.2092147171 0.944347322 0.3602479696 -0.05210805684 0.8855683208
-0.06415605545 -0.222446993 0.9584688544 0.3746925294 0.3397426903 0.8119603395
-0.05051290989 -0.2159680277 0.9433549643 0.4312749207 -0.01072691008 0.8798043728
-0.0584159717 -0.2195500731 0.9532741308 0.3713441491 0.1876984984 0.8508178592
-0.0545608215 -0.2171893716 0.9485062957 0.3929749131 0.08475398272 0.8667073846
-0.06038910523 -0.236185804 0.9677975178 -0.01237864885 0.2957747579 0.9207638502
0.09094716609 -0.254869014 1.043914676 0.3065767884 -0.1961570531 0.9314145446
0.08527951688 -0.2554014325 1.039304376 0.3065767884 -0.1961570531 0.9314145446
0.0852837041 -0.261641562 1.039096355 0.3065767884 -0.1961570531 0.9314145446
0.08929394186 -0.217717737 1.050126433 0.3340702653 -0.06211130321 0.9404596686
-0.03663851321 -0.1414231807 0.9529584646 -0.1855853796 -0.4697585404 0.8607837558
-0.03860929981 -0.1380407214 0.9569754601 -0.1883275211 -0.4741472602 0.8574989438
-0.0514912419 -0.1411855966 0.9639609456 0.02867892571 -0.4301303327 0.9021944404
-0.05152082071 -0.1497652233 0.9585216641 0.1422683299 -0.3837494254 0.9016244411
-0.04417571798 -0.1585152 0.9536617398 0.05318293348 -0.2611569762 0.9560742974
-0.02990780026 -0.1393434852 0.9649418592 -0.2092993408 -0.4866871238 0.8412422538
-0.03848757967 -0.1564508229 0.9545900822 -0.06679036468 -0.2969520986 0.9442867041
-0.04478860274 -0.1531284451 0.9567968249 0.02659982257 -0.3169555068 0.939186573
-0.03895715997 -0.1406272948 0.9641957283 -0.1008835882 -0.4674203992 0.8669586778
-0.07537802309 -0.2002792209 0.953348279 0.4353002012 0.2609978318 0.8542265892
-0.07105304301 -0.1887474805 0.9517279863 0.2218033224 -0.0411141403 0.9653461576
-0.07699011266 -0.1936885118 0.9523111582 0.2384815663 0.160447523 0.9115683436
-0.07776656747 -0.1859806478 0.9515457749 -0.1403100938 0.04875715077 0.9487760663
-0.03201443329 -0.2553928792 0.976025641 -0.2265305817 0.09276238084 0.9683443308
-0.03346996382 -0.2622808218 0.9758459926 -0.1736976951 0.05929875374 0.9811805487
-0.03709426895 -0.252086103 0.9857468605 -0.2187311947 0.0977422595 0.9265906215
-0.02611555345 -0.2604510486 1.01059854 -0.4537053108 -0.3947781622 0.4369446933
-0.03160108253 -0.2680885196 0.9902027249 -0.2450302988 0.05398285389 0.8017551303
-0.03475107253 -0.2626611292 0.9851163626 -0.2009940743 0.1433739364 0.9114604592
-0.02869986184 -0.2530705035 1.008402467 -0.4401904345 -0.3716546893 0.4971782863
-0.03431973979 -0.2565177679 0.9904625416 -0.2602128685 0.01302314643 0.8264144063
-0.02811842971 -0.2659430206 1.001326323 -0.35663414 -0.1845612973 0.5976327658
-0.03202212602 -0.2615217566 0.9934667945 -0.2842600942 -0.03425237536 0.7570230961
-0.03083510511 -0.256760627 0.9999790788 -0.3534239829 -0.1846730709 0.6464738846
-0.02870681137 -0.258117348 1.004975557 -0.4010208845 -0.2846939266 0.5488597155
-0.02127106488 -0.2547876835 1.000767589 -0.4027006924 -0.2566046119 0.6272326112
-0.0184635371 -0.2556883991 1.010467291 -0.4824312925 -0.4490071833 0.4432858229
-0.02797066048 -0.2523390949 0.98592484 -0.2696418762 0.04620701447 0.9135990143
-0.0268367622 -0.2525586784 0.9938448071 -0.3294158578 -0.1068486199 0.7657578588
-0.02660528757 -0.2523688078 1.001975179 -0.3864886463 -0.2607126236 0.6158865094
-0.01495946012 -0.2576459646 0.9994447827 -0.4226139188 -0.2537406683 0.6387085319
-0.01838825457 -0.2563227415 0.9937933683 -0.3679137528 -0.135378018 0.7495290041
-0.03362454847 -0.249642387 0.9908925295 -0.2778626382 -0.02757052891 0.833807528
-0.01638074405 -0.2575865388 0.9835292697 -0.3064384758 0.05083698407 0.9340580702
-0.01928918064 -0.2550679445 1.017482996 -0.5269647837 -0.5781985521 0.3160440326
-0.02222277969 -0.2547463477 0.9901529551 -0.3252018094 -0.0534581542 0.8242189884
-0.0384631753 -0.2579176426 0.9829729199 -0.1805942953 0.1859241128 0.963181138
-0.03744415566 -0.2451413721 1.001751184 -0.2943699062 -0.2426996976 0.6462477446
-0.03388797119 -0.24664855 1.011844039 -0.3829295933 -0.4470656216 0.4525673389
-0.02790995687 -0.2496756315 1.026546478 -0.5230314136 -0.7441814542 0.16783759
-0.03715857491 -0.2388471216 1.031992793 -0.4154747128 -0.8626673818 0.09963230789
-0.03299728781 -0.2498911619 1.001227736 -0.3542001545 -0.2286986709 0.6412341595
-0.03616248071 -0.2424295098 1.020321846 -0.3841264844 -0.6225937605 0.3069877625
-0.03285332024 -0.2447188646 1.025644898 -0.4507757127 -0.7293260098 0.2001768947
-0.03214004263 -0.2467156351 1.019895673 -0.4384296536 -0.6108998656 0.3015984297
-0.02327693813 -0.2542206645 1.027852535 -0.5925370455 -0.7675615549 0.129207179
-0.04338170215 -0.2404084951 1.021528244 -0.3225362897 -0.7195627689 0.2623220682
-0.04587589577 -0.2425611913 1.009243131 -0.2525470853 -0.4935356081 0.475425601
-0.04157816619 -0.2394187748 1.027349234 -0.3606878817 -0.8190326095 0.1642953604
-0.04856944829 -0.2387467772 1.029140353 -0.3118702471 -0.9422002435 0.09837797284
-0.03860925511 -0.2461807877 0.9916012883 -0.2390964627 -0.03589057177 0.8328481913
-0.0412376374 -0.2417405546 1.014896393 -0.3127645552 -0.5547326803 0.3938999176
-0.02664361708 -0.2539470196 1.014239192 -0.4959129393 -0.4888808727 0.3848439753
-0.06852053106 -0.2154198885 0.9546775818 0.4488628209 0.3824087977 0.7858218551
-0.06180974841 -0.2074632198 0.948798418 0.3931871355 0.1587459594 0.8606262207
-0.06213397905 -0.2146953493 0.9509941936 0.4281663299 0.2339100689 0.8086435795
-0.06921937317 -0.2042210996 0.9522143602 0.3915435672 0.2918647826 0.8672568798
-0.06994782388 -0.2227369994 0.9626932144 0.3759950101 0.4488343298 0.8060504198
-0.07122205943 -0.2165247053 0.9596455097 0.4017098248 0.4069423676 0.8135534525
-0.05069993809 -0.2026910931 0.9420895576 0.3345313072 -0.1180397272 0.9172436595
-0.0561093539 -0.1984481812 0.9452801347 0.3163578808 -0.007354570087 0.9156473875
-0.04666960612 -0.1970479488 0.9410943389 0.2720943093 -0.2010185122 0.9360186458
-0.06185232848 -0.1981960833 0.9481705427 0.3313437998 0.1070988849 0.9044679999
-0.05311414972 -0.1901848614 0.9466257095 0.2159136385 -0.1190706864 0.9286399484
-0.0679840371 -0.1985470206 0.9505460858 0.3476209044 0.1669508964 0.9071025848
-0.06061875075 -0.1911213547 0.9477917552 0.2778241038 -0.07202720642 0.9311285019
-0.07600617409 -0.2216289043 0.9632772207 0.4419380128 0.435782522 0.7816315889
-0.08890444785 -0.233386755 0.9739730358 0.3069511354 0.2680490911 0.9066339135
-0.08627776802 -0.2286310792 0.9706272483 0.3498191535 0.3249814212 0.868021667
-0.08457612246 -0.2229081988 0.9663485885 0.4191471934 0.3722691238 0.8181393147
-0.07255473733 -0.2300221324 0.9609324932 0.4170065224 0.3776912987 0.8028758168
-0.06765162945 -0.2257310897 0.9534087777 0.4610241354 0.3869034946 0.7853354812
-0.0706730783 -0.2355573028 0.9606323838 0.351584971 0.3038549125 0.8650382757
-0.07551680505 -0.2385983616 0.9661146998 0.3119938374 0.2797744274 0.8939154744
-0.07803270966 -0.22732611 0.9634823799 0.4332215488 0.3901120126 0.7985284328
-0.08291668445 -0.2575497329 0.9670000672 0.2064519078 0.2101086676 0.9555271268
-0.08766039461 -0.2421195656 0.9660747647 0.3454158604 0.315125227 0.8639173508
-0.08779327571 -0.25339818 0.9666823149 0.2612161338 0.2429062873 0.9231133461
-0.08509750664 -0.2321044952 0.9656643867 0.4071138799 0.3664886355 0.8222204447
-0.08888332546 -0.2477992773 0.9663196802 0.3091937006 0.2847926319 0.8885889649
-0.08146619797 -0.2417888939 0.966383934 0.3147953153 0.2849229872 0.8896971941
-0.09150138497 -0.2582689822 0.9667518735 0.2443680018 0.2307782918 0.9324504733
-0.07550849766 -0.246885106 0.9669763446 0.2445830703 0.2208723575 0.9431931973
0.07920927554 -0.2608571947 1.042727709 0.3065767884 -0.1961570531 0.9314145446
0.08454088867 -0.1745872498 1.039064527 0.1086993366 0.1939559877 0.9728389382
0.09076506644 -0.1940602064 1.045378327 0.252597481 0.1226395592 0.9583820701
0.1000755206 -0.1901323497 1.04334116 0.2708072662 0.1286137998 0.9452044368
0.09496992826 -0.2141311318 1.047484636 0.3593162894 -0.03546474501 0.9307593703
0.0954728201 -0.2099545151 1.043357611 0.3657169342 0.002447601175 0.9293560982
0.1036229134 -0.2142917514 1.041844606 0.3548962176 -0.04485803097 0.9332771301
0.08964974433 -0.2054127753 1.049060464 0.2762120068 0.0352634266 0.9507483244
0.08788302541 -0.1968161166 1.049785495 0.1970287561 0.103063114 0.9677045941
0.08889152855 -0.2111643404 1.048393726 0.2978283167 -0.0200429894 0.949819088
0.09563095123 -0.2023610622 1.044526935 0.3568890989 0.05739825964 0.9311139584
0.0982273072 -0.1964526176 1.044041514 0.3345077038 0.09335421026 0.9359498024
0.1039360315 -0.195522368 1.042884111 0.3822867274 0.08135443181 0.9197446108
0.1034523472 -0.2012044489 1.042818069 0.3952003717 0.04676227644 0.9158674479
-0.03255259246 -0.1525039673 0.9553576708 -0.1890500337 -0.3982680738 0.8923708797
-0.03475362808 -0.1473214328 0.9596064091 -0.1652016491 -0.4357601106 0.8730869293
-0.04134728387 -0.1468192637 0.9594957232 -0.07532974333 -0.4217057824 0.8961978555
-0.04530863836 -0.1426048726 0.9627729654 -0.02613603137 -0.4461743236 0.8890177608
-0.02486207336 -0.1433905661 0.9622989297 -0.2888945937 -0.4842827022 0.8251920342
-0.0228292048 -0.1490446627 0.9586718082 -0.333612144 -0.4533824027 0.8248861432
-0.0167554114 -0.150179714 0.9609731436 -0.3607815504 -0.4336588681 0.8230568171
-0.03048180416 -0.1481439322 0.9510923624 -0.2196317017 -0.4345322251 0.8642322421
-0.02067354508 -0.15307872 0.9551177621 -0.3513381183 -0.3884987235 0.8448054194
-0.03193668276 -0.1419738978 0.9577471018 -0.2740092576 -0.4793066382 0.8328798413
-0.02633153088 -0.2557495832 0.9774935842 -0.2784267664 0.04099225625 0.9594705701
-0.02259563282 -0.2548068464 0.9821788669 -0.2772568166 0.07800194621 0.9563288689
-0.03718989342 -0.2481658161 0.9802467227 -0.227137059 0.09582900256 0.9686408639
-0.06420892477 -0.2412859201 0.9603706002 0.2112041563 0.3061504364 0.8966838717
-0.06506888568 -0.2508190572 0.9668765068 0.07871696353 0.2577166259 0.9597874284
-0.07056986541 -0.2419506162 0.9621891379 0.289583981 0.2638249099 0.905361712
-0.0678261593 -0.2327656895 0.9560141563 0.3831800818 0.3191969693 0.8470683098
-0.05418835208 -0.2606688738 0.9736626744 -0.1232257411 0.2224463522 0.96562922
-0.05679329485 -0.2320172936 0.9509037137 0.2181665599 0.3628789485 0.8604279757
-0.05800481886 -0.2500007153 0.9662015438 -0.1257023662 0.2528905571 0.9519639015
-0.05815669149 -0.2426244617 0.9599145651 0.03960678354 0.3005827367 0.9151467681
-0.05452677235 -0.2350783199 0.9557746649 0.07829035074 0.3120514452 0.8892056942
-0.05201654881 -0.2384298295 0.9616046548 -0.07344074547 0.2513066828 0.9242524505
-0.05472556129 -0.2446060479 0.9643495083 -0.1181495786 0.2473861873 0.940525353
-0.04199991375 -0.2545563579 0.9727532268 -0.1836712062 0.1494276673 0.968646884
-0.03871599957 -0.2590779066 0.9740872979 -0.1645362079 0.1038524732 0.9776519537
-0.04956487566 -0.2519274354 0.9698719382 -0.1766679585 0.1996721923 0.9615155458
-0.04224539921 -0.2488978207 0.9714022279 -0.2066590488 0.1561224312 0.9645127654
-0.04701410979 -0.2417611182 0.9679247141 -0.2200069577 0.1798335165 0.9583956003
-0.0824676156 -0.2096057087 0.9567499757 0.5412555933 0.3685799837 0.7524027228
-0.07531480491 -0.2067400366 0.9552394748 0.4726974666 0.3513687253 0.8074252009
-0.07282047719 -0.212090984 0.9520394802 0.5433992147 0.3380353749 0.7628640532
-0.06517060101 -0.2214931548 0.9487627149 0.5056158304 0.4086461365 0.7593457103
-0.06711415946 -0.2150199115 0.9477984309 0.5301664472 0.3140436709 0.7846180797
-0.07317974418 -0.2279567569 0.9671177864 0.3688240647 0.4545739889 0.8095216155
-0.07581806928 -0.232356444 0.9705821872 0.3251790106 0.3636843562 0.8687027097
-0.06939461827 -0.2321446389 0.9689990282 0.2486136854 0.3836887777 0.8778838515
-0.08181378245 -0.2329027951 0.972405076 0.3467781246 0.3583540916 0.8654098511
-0.04226009175 -0.2445344329 0.9752575159 -0.2217573524 0.1383223385 0.9640921354
-0.0533660613 -0.2395220697 0.9678235054 -0.2302347273 0.2107467949 0.9498669505
-0.0480805859 -0.2426971197 0.9738019705 -0.2155382484 0.1807617843 0.9590077996
