# .PCD v0.7 - Point Cloud Data file format
VERSION 0.7
FIELDS x y z normal_x normal_y normal_z
SIZE 4 4 4 4 4 4
TYPE F F F F F F
COUNT 1 1 1 1 1 1
WIDTH 512
HEIGHT 1
VIEWPOINT 0 0 0 1 0 0 0
POINTS 512
DATA ascii
-0.03304708004 -0.0686519146 1.084020019 0.5374578238 0.06659736484 0.840656817
-0.03612118959 -0.08053171635 1.086494207 0.5374578238 0.06659736484 0.840656817
-0.2312702388 -0.07672897726 1.006887436 0.1105585024 0.1882469058 0.9758248925
-0.09203533828 -0.1730382293 1.093357921 0.3256030679 -0.4992966652 0.8019917607
-0.02924725413 -0.1071531028 1.087549448 0.4332099855 0.06422185153 0.8967913985
-0.04121746868 -0.09838259965 1.094504237 0.4508132935 0.04361186549 0.8835303783
-0.03766746074 -0.08991002291 1.090192676 0.5337523818 0.06561435759 0.842490375
-0.04482562467 -0.1025064662 1.097845554 0.3865391612 0.02656089514 0.9153346419
-0.04138731211 -0.09218712151 1.092808127 0.4834394157 0.05226708204 0.8673862815
-0.04468626902 -0.1070515811 1.099325538 0.3580723405 0.0190090742 0.92942065
-0.03738431633 -0.103472285 1.095179558 0.4340191185 0.0354174301 0.8926789761
-0.1710919589 -0.06853343546 0.9793230295 0.2981738746 0.1845736802 0.9103555083
-0.1599803269 -0.06291859597 0.9762840271 0.06699710339 0.02926463261 0.9817822576
-0.1767234206 -0.05807622895 0.9774163365 0.3431893885 0.05388823897 0.9323988557
-0.176327616 -0.0645364821 0.9789687991 0.3907508254 0.1500322819 0.9032481313
-0.2255169451 -0.07995253801 1.006801724 0.1059558094 0.1885490566 0.9761008024
-0.03549114987 -0.08126009256 1.09159565 0.5374578238 0.06659736484 0.840656817
-0.2115741074 -0.05462466925 1.000510454 0.3248752058 0.2102697492 0.9135935903
-0.2073416412 -0.05215707794 0.9981299639 0.3864343464 0.2096874416 0.8900579214
-0.1796969771 -0.05309111997 0.9775907397 0.3551710844 0.04047489911 0.9259352684
-0.1461383551 -0.02757648751 0.9842232466 -0.06539619714 -0.2071506977 0.9716761708
-0.1529058665 -0.02222446539 0.9850720763 -0.02769223228 -0.273807466 0.9586486816
-0.1009925231 -0.1673971266 1.097862959 0.3000481427 -0.4524639249 0.8397901654
-0.1062448993 -0.1731357723 1.101530313 0.3005839586 -0.4529454708 0.8393202424
-0.09902503341 -0.1741702855 1.096054077 0.3216079772 -0.4718406498 0.8208820224
-0.2167669088 -0.06070562825 1.003390789 0.2500483394 0.1882389337 0.9472523928
-0.1751506627 -0.1106964052 1.076139688 0.5718096495 -0.487280637 0.0840074867
-0.179985851 -0.1106430739 1.079921842 0.581748426 -0.7531066537 0.1203789636
-0.1720872223 -0.1140649766 1.053093433 0.276943624 -0.2239758372 0.4796207249
-0.1729076654 -0.1118851677 1.060866714 0.4533905387 -0.1433851719 0.3036520183
-0.1712452918 -0.1155247539 1.04568243 0.1561281532 -0.2012745291 0.6226516366
-0.1737491935 -0.1076016203 1.070330501 0.7931409478 0.2170187533 0.02422441542
-0.1776379049 -0.1092347652 1.058956981 0.2328861952 -0.5243932009 0.4291310012
-0.1762915999 -0.1106376797 1.067071199 0.3408166766 -0.6056001782 0.2902110815
-0.1800050586 -0.1022888049 1.043923497 0.3426062763 0.2768455148 0.5243489146
-0.1760969758 -0.1046349928 1.066446424 0.7625997663 0.3041782677 0.07595556974
-0.172793448 -0.1103091836 1.043581486 0.3659989536 0.3224531412 0.5312811136
-0.1771906912 -0.1042130291 1.055982947 0.5795193911 0.3151378632 0.2795145214
-0.1821741462 -0.1008206829 1.026502371 0.06253451109 0.3479118943 0.8495290875
-0.1764038056 -0.1046704277 1.061606765 0.6780411601 0.3090490401 0.1704746336
-0.1752473414 -0.1090200841 1.024344206 0.02913153172 0.3430441916 0.9047113061
-0.1727250516 -0.1093898192 1.055944681 0.581572473 0.3107234836 0.2885071039
-0.1803776324 -0.1022915542 1.03406024 0.1953892708 0.3389925361 0.7043528557
-0.1789106578 -0.1026723981 1.050386429 0.4809048772 0.3221309185 0.3862964213
-0.1744904816 -0.1058112606 1.074926019 0.9114075303 0.2945788503 -0.08768051863
-0.1732022613 -0.111017324 1.02895081 0.1106864884 0.3366608918 0.8179783225
-0.1705637574 -0.1132254377 1.039458394 0.2954779565 0.3241200745 0.6164022088
-0.084099181 -0.1720428616 1.089715362 0.3313510418 -0.5320248604 0.7791787982
-0.07894267142 -0.1684536487 1.094660878 0.328010112 -0.5056098104 0.7970640063
-0.07362899184 -0.1672098786 1.093320608 0.3336167932 -0.4948223829 0.8008915782
-0.07041656971 -0.1652041972 1.09631896 0.3356277943 -0.4585398436 0.8220898509
-0.06895305961 -0.1608647704 1.101000071 0.3359626234 -0.4497002065 0.827406764
-0.08006490767 -0.1637015492 1.101219177 0.3133263588 -0.4676745534 0.8258872628
-0.08606107533 -0.1632107198 1.102370024 0.3045700192 -0.4606054127 0.8331692219
-0.09798621386 -0.1639526784 1.10370028 0.3000481427 -0.4524639249 0.8397901654
-0.09480438381 -0.1692143381 1.099061012 0.3121806383 -0.4633679092 0.8291498423
-0.06239099428 -0.1548167765 1.098587871 0.3124800324 -0.3279500306 0.8783874512
-0.02876991965 -0.1013086364 1.089302063 0.5087496638 0.05463334545 0.8584393263
-0.03026345745 -0.09882242233 1.084793329 0.4701665044 0.0668957755 0.8790724874
-0.02846206725 -0.09312708676 1.082200766 0.4925514162 0.06679650396 0.8662932515
-0.02742178366 -0.0876410082 1.081813693 0.5287483931 0.06663598865 0.8456289172
-0.02776480466 -0.0960855633 1.088418365 0.5327373147 0.06070447713 0.8440331817
-0.1811579168 -0.06530242413 0.9828388095 0.486368686 0.1997782588 0.845362246
-0.1766671985 -0.07055309415 0.9809495807 0.4091725647 0.2604615986 0.8733385205
-0.1685706824 -0.05506692082 0.9768084288 0.1618750244 -0.02643694915 0.9848394394
-0.172173351 -0.0612946935 0.9770274758 0.2897797823 0.03541322425 0.9518025517
-0.1668905318 -0.06248388812 0.9761446714 0.2123121321 -0.01370402426 0.9753695726
-0.1640117764 -0.05825953558 0.9766255021 0.1293080002 -0.02614944056 0.989716351
-0.2322652787 -0.08997984976 1.010051489 0.07413075864 0.2294618934 0.969895184
-0.05003990233 -0.146576792 1.093467951 0.3259599209 -0.1889368594 0.9241797328
-0.05839379877 -0.1526221782 1.09589088 0.3109659553 -0.2990720868 0.8887810111
-0.06062942371 -0.1578669995 1.094980359 0.3315511346 -0.3756652772 0.8596025705
-0.0695284158 -0.1640033424 1.088443756 0.3125211 -0.4147630036 0.8467928171
-0.06435743719 -0.1611334532 1.096036911 0.3400447369 -0.4384586513 0.8312674761
-0.04529024288 -0.1350706369 1.095712066 0.3361824453 -0.07866413891 0.9384912252
-0.03888849914 -0.1296357661 1.092139006 0.3173749447 -0.05897539109 0.9462619424
-0.1141614541 -0.03593130782 0.9890469909 -0.4771372378 0.009688250721 0.8782606125
-0.1106122136 -0.03827971593 0.9930915833 -0.4780811369 0.002915985417 0.8769370914
-0.124094367 -0.006280605216 0.9935181141 -0.3319605589 -0.2174341083 0.9175134301
-0.1095584258 -0.01671183482 0.9996837974 -0.4288307428 -0.1275017112 0.8919623494
-0.1134983525 -0.01395753119 0.998052299 -0.402939707 -0.1518254429 0.8986611366
-0.03014289401 -0.0742495656 1.082724214 0.5374578238 0.06659736484 0.840656817
-0.0280737225 -0.07692688704 1.077826738 0.5374578238 0.06659736484 0.840656817
-0.1124996766 -0.02830257639 0.9885461926 -0.4736774862 -0.03292461857 0.8784392476
-0.1087517664 -0.01814363338 0.9915108085 -0.4611738622 -0.09872424603 0.881444633
-0.1084579602 -0.02426902391 0.9915808439 -0.4734096229 -0.07598464936 0.8768083453
-0.224112764 -0.06620889157 1.00503242 0.18674393 0.1810090244 0.9651149511
-0.2271756679 -0.07012737542 1.006533146 0.1394965649 0.1833550036 0.9726091623
-0.1449137926 -0.01199227292 0.9882320166 -0.03590366617 -0.3259313703 0.944626987
-0.1418415606 -0.008028795943 0.9911249876 -0.05363951623 -0.3202087879 0.9456644654
-0.1501137763 -0.01200439036 0.9892764688 -0.02637887001 -0.3040004075 0.9513046741
-0.1563207656 -0.01583876088 0.9878239632 -0.009896547534 -0.2977645099 0.9538294673
-0.1773546338 -0.04587152973 0.9769646525 0.2205758542 -0.05649717152 0.9727492332
-0.1761409491 -0.03842173144 0.9777499437 0.1997568011 -0.08215153962 0.9748141766
-0.1747911721 -0.05140970275 0.9765985012 0.2182612866 -0.03225193545 0.9744722843
-0.1905917078 -0.07869802415 1.00280273 0.3154361248 0.43530339 0.8352175951
-0.191243127 -0.08198897541 1.007392526 0.1436411142 0.4377740622 0.8826374412
-0.1951069534 -0.07463242859 1.003296614 0.2763239145 0.4227804244 0.8562936783
-0.178549841 -0.1211761013 1.04184413 0.1207308397 -0.1213526651 0.6645183563
-0.1781105548 -0.1212301925 1.035275102 0.08069621027 0.03311316669 0.7551612854
-0.1780774593 -0.1196350157 1.052066922 0.1862154901 -0.3637832403 0.5242267251
-0.1762037128 -0.1177746207 1.046651125 0.1573703438 -0.2391146123 0.5999605656
-0.1745072752 -0.1173509136 1.028120995 0.04569784179 0.1957982183 0.8559536338
-0.1811415255 -0.1261275113 1.023628354 -0.0007714857929 0.3137287796 0.9133372307
-0.1776612699 -0.1218176559 1.022804499 0.003635775764 0.3270320892 0.9269818664
-0.1751684695 -0.1170950383 1.039894104 0.1177959442 -0.08126237988 0.6935850978
-0.1697347462 -0.1177694723 1.031634808 0.05970590562 0.1462208927 0.8282783031
-0.1736014634 -0.1177225634 1.059391618 0.2261963189 -0.5027090311 0.4469914138
-0.1735217571 -0.1312426627 1.03924036 0.04303971678 0.1117732674 0.7950965762
-0.1708730757 -0.1229976043 1.032214522 0.03903231025 0.1882559061 0.8479585052
-0.1730878353 -0.1330409646 1.033528924 0.0005199234001 0.2643183768 0.8830099106
-0.1721752733 -0.1263295859 1.036713839 0.0505961515 0.1185670197 0.803807199
-0.1726429462 -0.1253014207 1.041551828 0.08432599902 -0.005383410491 0.731957376
-0.1712812185 -0.1202056631 1.039180517 0.09365626425 -0.004158949014 0.737570703
-0.172677502 -0.1209769398 1.048062205 0.1432983726 -0.2034448385 0.6197232008
-0.1748336405 -0.1153761819 1.071613073 0.310244292 -0.8131597042 0.2668140531
-0.1783429235 -0.1075472608 1.028513312 0.03813176975 0.191845119 0.8485800028
-0.1761371493 -0.1113492548 1.051887751 0.1906436533 -0.3635797799 0.5282101035
-0.1772709936 -0.1095254049 1.04587245 0.1498935521 -0.2197990566 0.6103400588
-0.1767446101 -0.11002893 1.032886624 0.06981191784 0.08615536243 0.7892993689
-0.1740632653 -0.1140931472 1.035671353 0.09439776838 0.01637280546 0.7524784803
-0.1791100949 -0.1065799072 1.036703229 0.08748305589 -0.0004639613326 0.7354719043
-0.1768034846 -0.1100910828 1.03978622 0.1129462793 -0.0767326206 0.6943385005
-0.09240981936 -0.162061125 1.098783016 0.3000481427 -0.4524639249 0.8397901654
-0.03734709695 -0.1082455963 1.093644142 0.394041568 0.03561713174 0.9122923017
-0.04231629521 -0.1109535471 1.096432686 0.3372015953 0.02518188953 0.9395985603
-0.03274810314 -0.1039652303 1.091747642 0.4642451704 0.0436302349 0.8786867857
-0.1803119034 -0.07126994431 0.9857019186 0.5079299808 0.3120929897 0.7998357415
-0.1668227911 -0.06446307153 0.9831485152 0.2447661012 0.1335683614 0.8980435729
-0.162113741 -0.06268047541 0.9811590314 0.1461703777 0.07433300465 0.9446405768
-0.2276234031 -0.09832540154 1.012463093 0.0734860599 0.2710371912 0.9597392678
-0.2261651456 -0.09493368864 1.008985758 0.07717046142 0.241882056 0.9668319821
-0.2322508693 -0.08381997049 1.010105252 0.09760195762 0.202450648 0.9741069078
-0.2264730185 -0.0892734006 1.006928682 0.08349248767 0.2152387798 0.9728771448
-0.07437010109 -0.1664798707 1.087391496 0.3160682023 -0.4500048757 0.831774354
-0.06732382625 -0.1541589648 1.090740561 0.3123047054 -0.3535342216 0.8745156527
-0.0728597492 -0.1545733213 1.092390895 0.3281895816 -0.4041633904 0.851391077
-0.05650119111 -0.1536151469 1.087391138 0.2808785439 -0.2552781105 0.919423461
-0.06563446671 -0.1602976918 1.087341785 0.2987155616 -0.3550988138 0.8745028973
-0.07153371722 -0.1489541978 1.094546199 0.3320863843 -0.3770453632 0.8631587029
-0.06250213087 -0.1542628407 1.089088321 0.2978207767 -0.3106992841 0.8941323757
-0.07833267003 -0.1533630192 1.096130967 0.3162958026 -0.4210906923 0.8490225673
-0.07581733167 -0.1623855084 1.089972138 0.3215351403 -0.4474498928 0.8333153725
-0.08185751736 -0.1579368711 1.095923662 0.3042922914 -0.4495388567 0.839502275
-0.1073629111 -0.03505547717 0.9954192042 -0.4873981178 -0.03860406205 0.8722451329
-0.1090477929 -0.04014876857 0.9977154732 -0.4782075286 -0.00731775444 0.8780791163
-0.1065738946 -0.02656423673 1.001117706 -0.468454957 -0.08273272961 0.8790525198
-0.106542632 -0.02136170492 0.9999118447 -0.4596170485 -0.09470043331 0.8826304078
-0.1279960871 -0.0101988893 0.9938601255 -0.2659409046 -0.2240826339 0.9306661487
-0.1129893288 -0.0202333089 0.9992210865 -0.4030479193 -0.1400799602 0.8979234099
-0.1202687472 -0.01169307623 0.9956403971 -0.3574820161 -0.1901160628 0.9101532698
-0.1138188764 -0.02356261015 0.9945818186 -0.455867976 -0.1099356636 0.8795133829
-0.1181323379 -0.01843292266 0.9966008067 -0.3654417694 -0.1590616852 0.9053113461
-0.1188138649 -0.03834985569 0.9864599705 -0.4470321536 0.01853862591 0.8931644559
-0.03393291682 -0.07123187184 1.08920455 0.5374578238 0.06659736484 0.840656817
-0.03212441504 -0.07578939945 1.087818861 0.5374578238 0.06659736484 0.840656817
-0.03029033542 -0.08022277057 1.08631289 0.5374578238 0.06659736484 0.840656817
-0.03606718406 -0.0748828575 1.091701388 0.5374578238 0.06659736484 0.840656817
-0.02912032045 -0.08524920791 1.085951328 0.5374578238 0.06659736484 0.840656817
-0.03240821883 -0.08591655642 1.09102273 0.5374578238 0.06659736484 0.840656817
-0.03022627905 -0.09018063545 1.089949965 0.5374578238 0.06659736484 0.840656817
-0.02903057449 -0.06996557862 1.077281952 0.5374578238 0.06659736484 0.840656817
-0.1121468842 -0.01224666927 0.9933524728 -0.4021385908 -0.1464366466 0.9016588926
-0.1106132641 -0.01389352698 0.9874477983 -0.4452780187 -0.1188153177 0.8860577345
-0.2152548879 -0.07301872224 1.004216552 0.1670335233 0.1863217801 0.9679442644
-0.2167488635 -0.06690678746 1.004271865 0.2011326104 0.1839256436 0.9618884325
-0.2247166634 -0.07460855693 1.006484509 0.1310355961 0.1831341386 0.9742026925
-0.1773270667 -0.02500848845 0.9797138572 0.1262825131 -0.1710438132 0.9754135013
-0.1807326227 -0.02832001634 0.986579299 0.2510752082 -0.1108509526 0.9343284369
-0.1760330945 -0.02396032773 0.9867684841 0.1589782536 -0.1610959172 0.9540132284
-0.1906351894 -0.03916574642 0.986471653 0.4600394666 0.01029846724 0.8875164986
-0.1857008487 -0.04879356921 0.9820519686 0.4475833774 0.06255032122 0.8902981877
-0.1818506867 -0.04765110463 0.9784633517 0.3585704565 0.02075569704 0.9229442477
-0.1865162551 -0.0397365056 0.9826545715 0.3792719841 -0.01446849387 0.9151005745
-0.1832510233 -0.04264790937 0.9796732068 0.3391232491 -0.01259361021 0.9290140867
-0.1825661957 -0.03758044913 0.9872348905 0.3574938774 -0.002878832631 0.908778131
-0.1867778599 -0.03453162685 0.9870183468 0.3789153695 -0.03675361723 0.905041635
-0.1834756732 -0.03191949427 0.9800475836 0.2634550929 -0.09946417809 0.9510172009
-0.1862010509 -0.05878094956 0.9844708443 0.5269615054 0.1680263877 0.8284060359
-0.1884486228 -0.05286354199 0.9847295284 0.5115194917 0.1417642683 0.8415541053
-0.1846399456 -0.05483347178 0.9812168479 0.4677870572 0.1169677526 0.8706789613
-0.1912973076 -0.0483413972 0.9872273803 0.5285518765 0.1312554032 0.8358963728
-0.1889423728 -0.06977891177 0.9922486544 0.5159772635 0.3036605418 0.7960029244
-0.1945558935 -0.04254177958 0.9896438122 0.4768229425 0.08715754002 0.8693979979
-0.1954300106 -0.05020842329 0.9905927777 0.5282567143 0.1829358637 0.8261241317
-0.1694815457 -0.1105610207 1.01135385 -0.01306233928 0.3271903098 0.9447584748
-0.1684369594 -0.1161780059 1.020796299 0.006371902302 0.3357776999 0.9418296814
-0.1660408974 -0.1211155951 1.01900363 -0.007687270641 0.340290606 0.9401923418
-0.1502075195 -0.03046571836 0.9826316237 -0.04407111555 -0.193223387 0.977520287
-0.1544762254 -0.05948280916 0.9761047363 -0.01060236711 -0.02964871004 0.9983341098
-0.1482910216 -0.05512113497 0.9777644277 -0.05842736363 -0.07118432969 0.9951248765
-0.150082469 -0.04134618863 0.9812488556 -0.03831691295 -0.08670080453 0.9935076237
-0.1485086679 -0.04949801415 0.9812060595 -0.0730529353 -0.06050049886 0.9940823913
-0.1501044035 -0.03338380903 0.9780000448 -0.0225915052 -0.1573362947 0.9849511981
-0.1538419127 -0.03868316114 0.9780001044 0.00629867008 -0.1212007701 0.9895827174
-0.03293029219 -0.09237585962 1.085771322 0.5216124654 0.06666763127 0.8497027159
-0.03609796241 -0.0869396776 1.085165739 0.5374578238 0.06659736484 0.840656817
-0.03197716922 -0.08332914114 1.081343174 0.5374578238 0.06659736484 0.840656817
-0.03516405821 -0.09473920614 1.090000033 0.5374578238 0.06659736484 0.840656817
-0.2124899477 -0.1152579635 1.020072103 -0.03192261234 0.30706653 0.9499413967
-0.2171001732 -0.1161471158 1.018062353 -4.939780774e-05 0.3142668903 0.9479585886
-0.2239478528 -0.113256231 1.014914751 0.0430524908 0.3172338605 0.9466683269
-0.2270639688 -0.1076846346 1.014456272 0.05699389055 0.2949775159 0.9529486895
-0.1815669835 -0.09030437469 1.003619075 0.2184892744 0.3807225525 0.8700932264
-0.1890523583 -0.09289819002 1.00576961 0.06897699833 0.3814969659 0.904184401
-0.191433534 -0.08708550781 1.004209995 0.1779027134 0.4022672772 0.8713364601
-0.1943670064 -0.09224276245 1.006452441 0.02169078402 0.389767617 0.911952734
-0.1781214029 -0.09491783381 1.004628301 0.1492320001 0.363060236 0.8928088546
-0.1862279326 -0.08359118551 1.002846479 0.2989964187 0.4196149111 0.8400310278
-0.1752973795 -0.09980442375 1.006277561 0.05191266909 0.3532377481 0.920953691
-0.1906848699 -0.0840619579 0.9994993806 0.211183235 0.3701056838 0.8621179461
-0.1863587648 -0.07759890705 0.9945399761 0.3878067732 0.3617475629 0.8168305755
-0.1837604493 -0.07428683341 0.990041256 0.4590196013 0.336614877 0.7979866862
-0.2073338032 -0.1128878966 1.020385623 -0.06793048233 0.3050953448 0.9497106075
-0.2003437132 -0.1054498106 1.017408609 -0.07058993727 0.3204245567 0.9437350035
-0.2048333734 -0.1089373603 1.018036485 -0.07547950745 0.3109455109 0.946942091
-0.1997408122 -0.1093926132 1.021716475 -0.04737013951 0.3204431832 0.9454621077
-0.1864400357 -0.1013532877 1.021931291 -0.02232194878 0.3473960459 0.937171638
-0.1925964355 -0.1080200598 1.02058053 -0.04225147888 0.3244915605 0.9442431331
-0.1986565739 -0.1140558347 1.019509673 -0.06018267944 0.3038905561 0.9506107569
-0.2086064219 -0.1109210178 1.014186859 -0.06392972916 0.320255816 0.943641305
-0.1981509477 -0.1050372943 1.011989713 -0.05229710415 0.3263517022 0.9433025718
-0.2126075178 -0.1198495775 1.015405416 -0.009161238559 0.334224999 0.941563189
-0.205071494 -0.1151003093 1.014185667 -0.01612308435 0.335296005 0.941678822
-0.2006831169 -0.1114596128 1.013423085 -0.02785809152 0.3337985277 0.9420340657
-0.2076036781 -0.1216475889 1.016738057 -0.02125737816 0.3371548951 0.9409115911
-0.1827697009 -0.1252387613 1.035913944 0.06990056485 0.02538471669 0.7433312535
-0.1780387461 -0.1166922152 1.064583898 0.2630036175 -0.6605166793 0.3521435559
-0.1860237271 -0.1227208003 1.043507218 0.1021179184 -0.1512020379 0.6369076371
-0.1834275126 -0.1269724816 1.030153632 0.03233113885 0.1628678441 0.8221124411
-0.186436817 -0.1315179616 1.022958755 -0.0278003104 0.3593276441 0.9325847626
-0.1774426401 -0.132084623 1.021636963 -0.02227418683 0.3564611971 0.9340293407
-0.1742266268 -0.1351870149 1.023996115 -0.02336544916 0.3564037085 0.9340239167
-0.1794750541 -0.1365314871 1.026001811 -0.01994983107 0.3565835953 0.9340408444
-0.1875250787 -0.105439283 1.010394812 -0.02918637916 0.3264018595 0.9446527362
-0.1917919219 -0.1076437682 1.01292479 -0.02327005938 0.3200533092 0.9467059374
-0.1766692102 -0.1081184745 1.01003623 -0.0119242724 0.3139822185 0.9491528273
-0.181539461 -0.1112282649 1.013359308 -0.002857069951 0.3046897054 0.9521927238
-0.199159652 -0.1304630786 1.02416575 -0.05703423545 0.34115839 0.9379584789
-0.2050219625 -0.1234099269 1.023144603 -0.05791946128 0.3277982175 0.9423822761
-0.2071124166 -0.1177764013 1.022368073 -0.06038641557 0.3102771938 0.9484810233
-0.2154793888 -0.127381444 1.019878149 0.002575455699 0.348728925 0.9366422892
-0.208558172 -0.1341300756 1.022392392 -0.01515574008 0.3646447659 0.930431366
-0.196845904 -0.1420009583 1.026921391 -0.03498535976 0.3742919564 0.9266133904
-0.202246815 -0.141024828 1.026143909 -0.03555743396 0.3809779584 0.9238783717
-0.1957900524 -0.1370199621 1.025328994 -0.05133429915 0.3569678366 0.9325941205
-0.05162085593 -0.1211476028 1.097574711 0.3217392862 -0.04281969368 0.9451622963
-0.04630060121 -0.1211273223 1.098292708 0.3290272653 -0.03187873587 0.9427470565
-0.06880319864 -0.1533689499 1.100695491 0.3370243907 -0.4047372937 0.8471381068
-0.0557378158 -0.1453323811 1.095430493 0.2732550502 -0.1786896884 0.9428067803
-0.06500940025 -0.1491423994 1.099012494 0.3157598972 -0.3246217966 0.88187325
-0.09152474254 -0.1658944041 1.096025348 0.302285403 -0.4581691325 0.8354461789
-0.08719474822 -0.1676448733 1.092309594 0.3143233359 -0.4888672829 0.8120723367
-0.08597803861 -0.1632188112 1.094648123 0.3071340919 -0.4705338478 0.8260315657
-0.08181251585 -0.1674679071 1.089516044 0.321995616 -0.5052396655 0.7992796302
-0.08098284155 -0.1625111848 1.092781305 0.3092890084 -0.4676370323 0.8273787498
-0.08685220778 -0.1576655805 1.102346063 0.3000481427 -0.4524639249 0.8397901654
-0.09155143052 -0.1596219242 1.104547977 0.3000481427 -0.4524639249 0.8397901654
-0.0321489796 -0.116583176 1.088551164 0.3497309685 0.03268076852 0.9344967604
-0.1152675301 -0.02405800484 0.9873346686 -0.4734585881 -0.07649934292 0.8762101531
-0.1069014817 -0.03302165493 1.000328898 -0.4839634895 -0.04599588737 0.873527348
-0.1163165942 -0.03200610727 0.9926594496 -0.431809932 -0.04191824794 0.8988557458
-0.1126017496 -0.02946179733 0.9955130219 -0.4433450699 -0.07016395032 0.8917447329
-0.1159126982 -0.03824893013 0.9929696918 -0.4439815283 -0.001155977836 0.8950533271
-0.1073443517 -0.02912829071 0.9957066774 -0.4764998257 -0.06237142906 0.8762325048
-0.1400217265 -0.0191337429 0.9817276001 -0.09096053243 -0.2567973733 0.9597215056
-0.1431960016 -0.01594108902 0.9854218364 -0.05651630461 -0.2949335873 0.952086091
-0.1197715029 -0.0448641479 0.9867774248 -0.4282124937 0.05185827985 0.8993695378
-0.1156983227 -0.04326107353 0.9909588695 -0.4460244775 0.04884190112 0.8920207024
-0.1438621283 -0.03972398117 0.9784526229 -0.113715522 -0.1009015813 0.9813684821
-0.1351180226 -0.04753814638 0.9800649881 -0.2454192042 -0.01070260908 0.9600849748
-0.1444321573 -0.04656935856 0.9785158634 -0.1255314946 -0.05121077225 0.9855690598
-0.1433245987 -0.03286352009 0.9783705473 -0.1011352614 -0.151035592 0.9773772359
-0.1385471821 -0.03509856761 0.9789410233 -0.16115354 -0.1214111894 0.96747756
-0.1338668913 -0.03981512412 0.9797229171 -0.2309019566 -0.0706134662 0.9571766257
-0.1366243362 -0.02612344548 0.9785495996 -0.1469526887 -0.1912643164 0.9642108679
-0.1515358239 -0.01766684651 0.9858655334 -0.02538757958 -0.3103013337 0.949675858
-0.1483989507 -0.02083160169 0.9828637838 -0.04034206644 -0.2822591364 0.9571564198
-0.1471005529 -0.02785070986 0.9784092903 -0.0377083756 -0.2208193839 0.9727084041
-0.2022192925 -0.07134161144 1.005517244 0.1875869483 0.327860713 0.9216537476
-0.1908116341 -0.08593479544 1.011055708 0.05582511425 0.3946887553 0.9140366316
-0.1985439807 -0.07566366345 1.007235885 0.1482220143 0.3506301343 0.9181354046
-0.2199154794 -0.0707776323 1.005532503 0.1660474092 0.1874928623 0.9669542909
-0.1746730804 -0.02967792377 0.9863402247 0.1666556299 -0.1193187609 0.9587872028
-0.1833599657 -0.04348014668 0.9869605303 0.4049391448 0.05278616771 0.901653409
-0.1762773246 -0.03874604404 0.9851439595 0.218706429 -0.05473136902 0.959484756
-0.1785514951 -0.04383976758 0.985008657 0.2829147577 -0.002226146637 0.9470818043
-0.1846366823 -0.05901978537 0.9906346202 0.4704823196 0.2215073854 0.8088325858
-0.1833522767 -0.0510818772 0.988194406 0.4202038646 0.1240632832 0.8675471544
-0.1623994261 -0.05724592879 0.9839292765 0.1178041324 0.0234646406 0.9411644936
-0.1793235689 -0.05681576952 0.9884243608 0.3636186719 0.1490008682 0.8576848507
-0.1748971343 -0.05831005797 0.987668395 0.3110355437 0.1336340904 0.8682194948
-0.1801197976 -0.06270867586 0.990432024 0.4252887666 0.2296532243 0.8054045439
-0.1662621349 -0.05032396317 0.9828823805 0.1160864756 -0.03414076939 0.9779106379
-0.1764724404 -0.0512192063 0.9859450459 0.2741707563 0.05619189516 0.918104887
-0.1711675078 -0.04869318008 0.9837277532 0.1745725572 -0.01679291762 0.9660301208
-0.1584109813 -0.05416636914 0.9819036722 0.03292023018 -0.04632920399 0.9868488312
-0.1683929712 -0.05847776309 0.9859416485 0.2165861428 0.08541914821 0.9002822042
-0.176868856 -0.06729568541 0.9873949885 0.4270449579 0.2492290735 0.812707603
-0.1572086364 -0.05923083797 0.9820272923 0.06142577529 0.004321544431 0.9602338672
-0.1718462408 -0.0656440407 0.985701859 0.3384638727 0.1901601702 0.8505929112
-0.1831974387 -0.06669165939 0.9916431308 0.5069656372 0.3006762266 0.7636792064
-0.1881757379 -0.05411112309 0.9907971621 0.5080097914 0.197151646 0.8234333992
-0.1889382154 -0.06341277808 0.9933511615 0.5661027431 0.3089163005 0.753860116
-0.1925582737 -0.05509670079 0.9928573966 0.507060945 0.2189637423 0.8254065514
-0.1984998435 -0.05415761471 0.9935845733 0.4897853732 0.2307193279 0.8358680606
-0.2022786587 -0.05168898776 0.9962905049 0.4441406429 0.2333680987 0.8640176058
-0.1990068108 -0.04866920039 0.9941729307 0.4903565049 0.1864725202 0.8496998549
-0.2120039314 -0.05863721669 1.003829718 0.2350121737 0.2655629814 0.9343392849
-0.1746045053 -0.1083198264 1.016314507 -0.0192396082 0.3134635687 0.9489408135
-0.1778656691 -0.1052790806 1.018961072 -0.01653692313 0.3308079541 0.9430502653
-0.1808740497 -0.1025651023 1.02176857 -0.01291764062 0.3485667109 0.9370335937
-0.1708465517 -0.1116814092 1.016821861 -0.005955101456 0.3236887157 0.9457892179
-0.162140727 -0.05326714739 0.9771326184 0.04488110915 -0.05479212478 0.9949732423
-0.1724973917 -0.1044203416 1.007682443 -0.0164108146 0.3284626007 0.944011569
-0.1795997322 -0.09777779877 1.010123849 8.576589607e-05 0.3657053113 0.9292878509
-0.1867533773 -0.08665596694 1.006979108 0.1315665245 0.4556514621 0.8761547208
-0.184798941 -0.0906322822 1.009274602 0.06318417192 0.4150704443 0.9025328159
-0.1820998639 -0.09886308759 1.016043067 -0.01657771878 0.3633330166 0.9310703278
-0.1759812385 -0.1029067114 1.012032747 -0.0174609106 0.3367595077 0.9411183596
-0.1887243688 -0.1272299439 1.020909548 -0.04634259641 0.3518971205 0.9345252514
-0.1750021577 -0.1171906739 1.022000194 0.004422558472 0.3406642079 0.9398513436
-0.1883692741 -0.1113558486 1.021852374 -0.03699988872 0.3576878607 0.9326949716
-0.1926527172 -0.1131459773 1.019161701 -0.05432893336 0.3175166547 0.9460226893
-0.1824232191 -0.1196629927 1.022000194 -0.02084931545 0.351369381 0.9351472259
-0.1909151971 -0.1193657368 1.022000194 -0.04829749465 0.3637691438 0.9298978448
-0.1801892221 -0.1142766178 1.022000194 -0.01145752333 0.3482318223 0.9367583394
-0.1836923808 -0.1086700335 1.022000194 -0.02060186863 0.3534719348 0.9348238707
-0.2007105649 -0.1259696484 1.019855022 -0.05142137408 0.3485909104 0.9356015921
-0.1980942935 -0.1207136065 1.020494819 -0.06392656267 0.3280433714 0.9418073297
-0.1954644471 -0.1259906292 1.021319866 -0.06449257582 0.3546001017 0.9323039651
-0.2008160651 -0.1177002713 1.016205072 -0.04286244512 0.3340378404 0.9414984584
-0.188412711 -0.1121005267 1.015294433 -0.006943728309 0.3052987754 0.9517447352
-0.1895960122 -0.1168516874 1.017010093 -0.02567553148 0.3076904118 0.9501214623
-0.1818686873 -0.1408303827 1.032004595 -0.02865235135 0.3229417801 0.9187932611
-0.1773997098 -0.1355923414 1.037629962 0.03282174468 0.1656768769 0.8251662254
-0.1751846373 -0.123033613 1.057933927 0.1972503811 -0.4188204408 0.4917549789
-0.1743608415 -0.1295672357 1.044609308 0.08553273976 -0.03544239327 0.7105385661
-0.1757880151 -0.1260779351 1.053104997 0.158271566 -0.2797996998 0.5710524917
-0.1808919013 -0.1183307916 1.059141636 0.2174326628 -0.5263195038 0.4262453616
-0.1918267757 -0.1274804324 1.028940558 -0.01366135944 0.2097495347 0.8386680484
-0.1774031073 -0.1212849393 1.062359333 0.2306603193 -0.5535467267 0.4157444835
-0.1885432899 -0.1323048025 1.029735327 -0.0222687535 0.2563803196 0.8709250093
-0.1879380792 -0.125191614 1.038626194 0.05858018994 -0.01790171117 0.7118952274
-0.1805251986 -0.1344801039 1.042172313 0.05566239357 0.03070379049 0.7516695857
-0.1837774813 -0.1229126081 1.048803568 0.1341232806 -0.2554666102 0.5797598958
-0.1893689483 -0.1274148822 1.033553123 0.01777153462 0.1146836132 0.787013948
-0.1850730032 -0.1332163811 1.035150766 0.01176850963 0.1576486528 0.8186938167
-0.1804036796 -0.130823344 1.046392679 0.09485253692 -0.1031443998 0.6737959385
-0.1814653426 -0.1379492134 1.036644459 0.008160886355 0.1888104826 0.8424289823
-0.1845851839 -0.1303573698 1.039176226 0.04732462764 0.03817759454 0.7497696877
-0.1881184876 -0.1413055211 1.029112577 -0.039843373 0.358442843 0.932598412
-0.1852056086 -0.1366103888 1.025791168 -0.02361338027 0.3572238684 0.9336521626
-0.1901939362 -0.1356846839 1.024762154 -0.03550508991 0.3562555611 0.9335122108
-0.1655008197 -0.1272403598 1.019048214 -0.01959132962 0.3485971689 0.937017858
-0.1679551303 -0.13098225 1.021779776 -0.02557375468 0.3534579277 0.9350646138
-0.1769979149 -0.138842985 1.029919863 -0.02180262469 0.3564860225 0.9340316653
-0.1796919256 -0.1203713417 1.016855836 -0.02942774259 0.3325628042 0.9424735308
-0.1766376197 -0.1157542989 1.01379621 -0.02472310886 0.3294918239 0.9436990619
-0.183400467 -0.1156549081 1.016041756 -0.005668262485 0.3044863939 0.9521064162
-0.1740379333 -0.1248297766 1.018981814 -0.01737212949 0.3467534482 0.937756896
-0.1726266593 -0.1191010848 1.015155554 -0.01828095503 0.3390561044 0.9404644966
-0.1692513376 -0.1249575093 1.016645193 -0.02436791174 0.3472860157 0.937307477
-0.1690886468 -0.1158881485 1.012064815 -0.02124311216 0.33464849 0.941924274
-0.1845151782 -0.1244334802 1.019115448 -0.04213911667 0.331218034 0.9425707459
-0.203839317 -0.1310160011 1.022571921 -0.05051306635 0.3554003537 0.933340013
-0.2015453875 -0.1361064315 1.024490118 -0.04534090683 0.3650126159 0.9297292233
-0.2192769945 -0.1226599813 1.017836809 0.01258119568 0.337017715 0.9412223101
-0.2104761899 -0.1250326335 1.020739198 -0.0325694941 0.3406130075 0.9388666153
-0.04799646884 -0.1250051856 1.0946697 0.3142344654 -0.05860890448 0.9474896789
-0.07044805586 -0.1452123672 1.100695848 0.3332946897 -0.3622726798 0.8673177958
-0.06097014993 -0.1438484341 1.097398043 0.2964231372 -0.2309501022 0.9175611138
-0.04871147126 -0.1415648162 1.094681144 0.3147439957 -0.1336355209 0.9385966659
-0.05839889869 -0.1416951269 1.093397021 0.2937416732 -0.1688957065 0.9398646951
-0.05503392965 -0.1471799016 1.089820266 0.2813366652 -0.1933405101 0.9391615391
-0.05748573318 -0.136468038 1.095955849 0.2930605412 -0.1092677712 0.948731482
-0.05177462846 -0.1505626887 1.087437153 0.2754635513 -0.2059051841 0.9384962916
-0.04178896919 -0.1358044446 1.091656566 0.3151410222 -0.09787935019 0.9425540566
-0.05204725638 -0.1283288002 1.095950842 0.3230227828 -0.06957996637 0.9437893629
-0.0494921878 -0.1458500624 1.088516235 0.2834703922 -0.1748118997 0.9405087233
-0.04488669708 -0.1308105886 1.092731714 0.3074199557 -0.08421616256 0.9462172389
-0.04705110937 -0.1370647252 1.090993881 0.2968707085 -0.1227449775 0.9438794255
-0.05334861577 -0.1418523639 1.09139061 0.2852746546 -0.1438568085 0.9447533488
-0.05315313861 -0.1324772388 1.093824148 0.3080785275 -0.1014669687 0.9436724782
-0.06736398488 -0.1420612484 1.096900344 0.3225421309 -0.2712650895 0.8991727829
-0.06446119398 -0.1466867328 1.094165683 0.3267145455 -0.2969285846 0.8949472308
-0.06022918969 -0.1479121298 1.09205246 0.3105405867 -0.264023453 0.9108422399
-0.07567504048 -0.1600426584 1.101993561 0.3258914351 -0.4457432926 0.8334197402
-0.08207626641 -0.1550107449 1.101686597 0.3049294353 -0.443934083 0.8421529531
-0.07568593323 -0.1496162564 1.100124121 0.3242663145 -0.403860271 0.8544940948
-0.118701376 -0.01284642983 0.9869776368 -0.3597079217 -0.1914177537 0.9121524692
-0.1183212176 -0.025936516 0.9914004207 -0.4315750599 -0.08481766284 0.8914538026
-0.1295796931 -0.01571025141 0.990876019 -0.2791422307 -0.1782424152 0.9304121137
-0.1234124601 -0.02902782336 0.9885956049 -0.3915916979 -0.05343521386 0.9107316136
-0.1216523871 -0.02067174576 0.9919903278 -0.3780724406 -0.1338268518 0.9024990201
-0.1280262619 -0.0190161597 0.9840481281 -0.2815440297 -0.1989134401 0.9327710867
-0.1228668317 -0.02215047181 0.9854494929 -0.3606878221 -0.1164804846 0.9235236049
-0.1331361085 -0.03060812876 0.9801796675 -0.219731763 -0.1317843944 0.9509164095
-0.1287952363 -0.02573231049 0.9826855063 -0.2822403908 -0.1199075431 0.9435483813
-0.1266232431 -0.03884866834 0.9832299352 -0.3548286855 -0.02095207013 0.9271418452
-0.1269639134 -0.03071665764 0.9834215641 -0.3273109794 -0.07279515266 0.9346823692
-0.1186044738 -0.01913862675 0.9863764644 -0.3945272565 -0.1280347407 0.9083865881
-0.1136996895 -0.01823893003 0.986733973 -0.4503045082 -0.1018416956 0.8858352304
-0.1234874949 -0.03469419479 0.9848329425 -0.3876219094 -0.02437423728 0.9187812805
-0.1169307828 -0.03111085109 0.9875023961 -0.4667934477 -0.02772819065 0.8815911412
-0.1398436874 -0.009777658619 0.9869502187 -0.0846150741 -0.30469805 0.9467321038
-0.1369166523 -0.005673755892 0.9884167314 -0.1131940112 -0.3044014275 0.9451263547
-0.1299104244 -0.04751702771 0.984474659 -0.2901873589 0.010350734 0.9508674741
-0.1245455816 -0.0472866483 0.9863373637 -0.3519156575 0.03027317859 0.9291628003
-0.1402384788 -0.05066078901 0.9798227549 -0.1726865917 -0.023814952 0.9810839295
-0.1442955434 -0.02086746506 0.9859492183 -0.06347575784 -0.2582701147 0.9582366347
-0.1411584914 -0.04353389889 0.9819351435 -0.1595235914 -0.04767791182 0.9846060276
-0.137671262 -0.03693730384 0.9833590388 -0.1978362203 -0.07580541819 0.9751147032
-0.144210726 -0.03658884764 0.9822877645 -0.09725145251 -0.1225732043 0.9868683815
-0.1246221736 -0.04198021069 0.9879683256 -0.3422411978 0.0048205778 0.9309536815
-0.1305298954 -0.0422113128 0.9850280285 -0.2828954756 -0.01533800829 0.9537072182
-0.1335937977 -0.009514942765 0.991548121 -0.2147290558 -0.2365236878 0.943882525
-0.1312047988 -0.02469100803 0.9877293706 -0.2773238122 -0.1164942831 0.9431881309
-0.1328855753 -0.0324572809 0.9851405621 -0.2623206973 -0.07671043277 0.9579816461
-0.1350194812 -0.01459355839 0.9899318218 -0.1955762208 -0.2142688334 0.9517260194
-0.1382526904 -0.02580700628 0.9860043526 -0.1609219611 -0.1705986708 0.9601599574
-0.1379647851 -0.02056237683 0.9880610704 -0.1440503895 -0.2018401176 0.9568948746
-0.1697432697 -0.02959698252 0.9845231175 0.07491223514 -0.1687372625 0.9788658023
-0.172315225 -0.03385822475 0.9846135378 0.1246204674 -0.1226418167 0.9782205224
-0.1689690053 -0.03776706383 0.9826442003 0.08938909322 -0.1302027702 0.9818913341
-0.1761786342 -0.03344353288 0.9779912233 0.1944555789 -0.1103945374 0.9729297757
-0.1710742861 -0.03403129056 0.9779209495 0.1179925129 -0.1221627146 0.9793832302
-0.1637276709 -0.04064903036 0.9814976454 0.02648630925 -0.1265434623 0.9909268022
-0.1689061224 -0.04640769213 0.9780000448 0.080882065 -0.03567761555 0.9932148457
-0.1691261381 -0.04006774724 0.9780000448 0.09312590957 -0.08157892525 0.9863567948
-0.2012165934 -0.06838079542 0.9985144734 0.4114118814 0.2659799755 0.846797049
-0.1925105602 -0.07180292904 0.9963153005 0.5010576248 0.3504233956 0.7893412709
-0.190851748 -0.05757658929 0.9883565903 0.56809479 0.2100955099 0.7949644923
-0.1996284127 -0.05907642469 0.9979352355 0.4228931367 0.2825644612 0.8545042872
-0.206940949 -0.06988006085 1.000845671 0.3119080663 0.230945304 0.8971728683
-0.1967974156 -0.06370403618 0.996381104 0.5064430833 0.2882271409 0.8058764338
-0.2076380551 -0.0641753599 1.001013875 0.3315585256 0.2258638293 0.8985168934
-0.2078141123 -0.05831231922 1.000258207 0.3398268521 0.2267376035 0.9056385159
-0.2032659799 -0.06545322388 1.00265801 0.286429584 0.337808907 0.8936805725
-0.1545087546 -0.04513273761 0.9780002236 -0.02635652758 -0.1266086698 0.9911825061
-0.1619833857 -0.04568625614 0.9780001044 -0.01155975927 -0.1094256938 0.9938805103
-0.1527857631 -0.05155109614 0.9778359532 -0.03501181677 -0.07384908944 0.9959760904
-0.1562691033 -0.04962119088 0.9810952544 -0.008509797975 -0.08128710091 0.9960166812
-0.1578751504 -0.04261818901 0.9811253548 0.01207032427 -0.09698697925 0.9950343966
-0.1914224625 -0.1011269465 1.009296179 -0.02740865387 0.3479804695 0.9365326762
-0.1831020862 -0.1023693532 1.00812602 -0.0224802196 0.3398968875 0.9396588802
-0.1864332706 -0.09826549888 1.007162213 -0.01777129062 0.3610574305 0.9316385388
-0.2165837288 -0.09974516928 1.009237051 0.0569502078 0.2752147615 0.9587746859
-0.2200278938 -0.1090809107 1.012267351 0.04664253443 0.3117707968 0.9482501149
-0.2133420557 -0.1130369678 1.01424396 -0.02539819852 0.3253033757 0.9430456161
-0.2142647952 -0.1070456579 1.015380263 0.01825368032 0.3137865365 0.9484542012
-0.1703774333 -0.1278852075 1.026139855 -0.01675070822 0.3478980362 0.9372075796
-0.168660298 -0.1215825379 1.023399711 -0.003756853985 0.3416908383 0.9396253824
-0.04242036492 -0.1164464876 1.096526623 0.3181199133 -0.01187533233 0.9476370215
-0.03854860365 -0.1233021617 1.092621088 0.3111501634 -0.03410110995 0.9495978355
-0.03914060444 -0.1177769527 1.090994477 0.3222736418 0.01550400909 0.9456520677
-0.04511674866 -0.1205443665 1.092841506 0.315504998 -0.03152494133 0.9481107593
-0.04814898968 -0.1117072254 1.098677158 0.3262160718 -0.002096768469 0.9448283911
-0.04738727957 -0.1124337986 1.093211532 0.3548686504 0.002129132627 0.9327263236
-0.04453122988 -0.1069433615 1.092818499 0.3850521445 0.03658857197 0.920884788
-0.03835517541 -0.1010821909 1.089155078 0.4705435634 0.06269039214 0.8779745698
-0.03928026184 -0.1126544848 1.090643167 0.3430272639 0.04497697577 0.937107265
-0.04017001763 -0.1062553152 1.089900255 0.4009284377 0.05263607949 0.9138929844
-0.03349036351 -0.1110666469 1.087679386 0.3673745096 0.05095096678 0.9268799424
-0.1258018315 -0.01480454486 0.986119926 -0.3165118098 -0.2258051187 0.9204035401
-0.1327429563 -0.01828191988 0.9820742607 -0.2071953416 -0.2257299721 0.9465512037
-0.1313475221 -0.009591176175 0.9859392047 -0.2425847054 -0.2513616383 0.9335720539
-0.1350685358 -0.01317605935 0.9836457968 -0.1610662192 -0.2548643649 0.9501693845
-0.1170552671 -0.007629688364 0.9898975492 -0.3513365984 -0.1891067475 0.916562736
-0.1272431314 -0.006247052457 0.9884268641 -0.2991531789 -0.2454964966 0.921430409
-0.1184558123 -0.005736973137 0.9941119552 -0.3536358178 -0.1869010776 0.9163288474
-0.199392274 -0.08030457795 1.002239347 0.2531214058 0.3557971418 0.8661026955
-0.1945637465 -0.07779143751 0.9990363121 0.3879737258 0.390506953 0.8063002825
-0.1989993304 -0.09015653282 1.00520885 0.07040244341 0.3925987482 0.8954553604
-0.1967396736 -0.08561837673 1.002503037 0.1953696907 0.4037306011 0.8543066382
-0.1560837626 -0.03272283822 0.9818783402 0.01456952188 -0.1579510719 0.9869158864
-0.1554353982 -0.02737482823 0.9828264117 -0.004052628297 -0.2265895605 0.9724723697
-0.1612748206 -0.02042675205 0.9858304262 0.007656764705 -0.2637833059 0.9643102288
-0.1660065949 -0.0252444949 0.9804247022 0.0460476093 -0.2161449939 0.9718844891
-0.1716028005 -0.02367996611 0.9805300832 0.07198412716 -0.2049546391 0.9732892513
-0.1685832739 -0.0190988984 0.9867838621 0.04564185813 -0.2326474786 0.9707561135
-0.1655584276 -0.03330570832 0.9823381305 0.03320839629 -0.1820895374 0.9826318622
-0.1603262275 -0.02819466032 0.9804654121 0.03091558255 -0.2082081735 0.9745970368
-0.1694429368 -0.02811476961 0.9782880545 0.07891119272 -0.1760296375 0.9791504145
-0.1613057405 -0.03403481096 0.9778223038 0.06347039342 -0.1471306086 0.9866450429
-0.19754529 -0.1005279496 1.009812832 -0.02754703164 0.3501662314 0.9358071089
-0.2035059482 -0.09835627675 1.009268522 -0.03358375654 0.353420496 0.9336217046
-0.1970016211 -0.092638053 1.011178851 -0.02312072739 0.3915570676 0.9184578061
-0.1931130886 -0.09445266426 1.014209747 -0.02029624768 0.381444186 0.9229571819
-0.1882649511 -0.09365230799 1.015761614 0.0009824989829 0.3855911195 0.9216173887
-0.1920755208 -0.09884652495 1.017557025 -0.04000467062 0.3556854129 0.9330589175
-0.1972749233 -0.1007459164 1.015767574 -0.06246738508 0.3406961858 0.9369447827
-0.2009230256 -0.0864956975 1.00802815 0.03508073092 0.3543368578 0.9332541823
-0.1960062087 -0.08723880351 1.009611726 0.03436337411 0.3762034476 0.9246932864
-0.2060696036 -0.09224834293 1.00690484 0.006862212438 0.3615789413 0.9312843084
-0.1979919076 -0.08205516636 1.008386374 0.09117101133 0.3451291323 0.9299741983
-0.2057637721 -0.07967219502 1.002554536 0.2683781385 0.2841992378 0.8918907642
-0.2030623108 -0.07501151413 1.000775099 0.335008204 0.2905947864 0.8696582317
-0.2157870084 -0.0788173303 1.006177545 0.1263275295 0.2253378183 0.9648413658
-0.2111100703 -0.07620937377 1.005798101 0.1456402242 0.2536034882 0.9548882246
-0.2120511234 -0.08356784284 1.006238461 0.0983293727 0.2487449348 0.9618869424
-0.2066213638 -0.08486769348 1.006457448 0.05651438236 0.3126290739 0.9467282891
-0.2237155437 -0.08511754125 1.008449435 0.09669610858 0.2109681219 0.972591579
-0.2178070843 -0.08453822881 1.006952047 0.1009379178 0.2160255462 0.9711018801
-0.2075868994 -0.1008392498 1.01113987 -0.03934725374 0.3360208571 0.93875736
-0.2115712613 -0.1038103998 1.012962818 -0.006951504853 0.3218829632 0.9445878863
-0.2177189142 -0.1037840024 1.013433695 0.04423875734 0.3068611622 0.9504343271
-0.2234635353 -0.1031360403 1.012869835 0.05945343524 0.2852119207 0.9565009475
-0.2098146379 -0.09501105547 1.009907007 -0.001586074592 0.3331620991 0.9388240576
-0.2200788856 -0.09417734295 1.01045537 0.07442958653 0.2687231004 0.9598836899
-0.2141211331 -0.09254530072 1.006978154 0.06585023552 0.2470846474 0.9667147398
-0.2188100517 -0.08985028416 1.006801724 0.08190897107 0.2297296971 0.9696138501
