# .PCD v0.7 - Point Cloud Data file format
VERSION 0.7
FIELDS x y z normal_x normal_y normal_z
SIZE 4 4 4 4 4 4
TYPE F F F F F F
COUNT 1 1 1 1 1 1
WIDTH 512
HEIGHT 1
VIEWPOINT 0 0 0 1 0 0 0
POINTS 512
DATA ascii
-0.1882423013 -0.1492695957 1.016694665 0.06671500206 0.3935488164 0.9150921702
-0.1645507514 -0.1199017018 1.071543217 -0.8579210639 -0.1418797672 0.2786158323
-0.1716884971 -0.1158456281 1.070693016 -0.7546138763 -0.5001698732 0.4095515311
-0.1636358947 -0.114455767 1.06870532 -0.9694753289 -0.04316071421 0.2270812094
-0.1589586139 -0.1198164672 1.07011199 -0.9760498405 0.01732004061 0.1849163175
-0.1605643183 -0.1062925979 1.061581016 -0.969414711 -0.1728744954 0.1535135061
-0.16269885 -0.1099266857 1.065016031 -0.9607346058 -0.1520789713 0.2052025348
-0.1743138731 -0.1163730919 1.064270258 -0.703132093 -0.3482694924 0.4447620511
-0.1795061678 -0.1188464165 1.051859617 -0.5579815507 -0.07925391942 0.5279741883
-0.1815348566 -0.1238436028 1.050023556 -0.419113189 -0.1311845779 0.6272338629
-0.1754755229 -0.1136270016 1.059027314 -0.7379071712 -0.1595395505 0.4087424278
-0.1775367707 -0.11938034 1.057667255 -0.5830330849 -0.23863931 0.520788312
-0.1904156506 -0.1221103892 1.026470423 0.009257241152 0.1420276314 0.8053414226
-0.1840700507 -0.1235040799 1.042846799 -0.3742076457 0.05270252749 0.6447266936
-0.1899632066 -0.1302411556 1.03174448 -0.1228480116 0.1958645582 0.8071538806
-0.1927797943 -0.1261086911 1.022678971 0.09319471568 0.2091719955 0.872641921
-0.1884538829 -0.1233534962 1.031948566 -0.1198880151 0.1205011383 0.7570280433
-0.03519349173 -0.1817680895 1.080000043 0.3085823953 -0.1179443523 0.9432651997
-0.03625814244 -0.1916790754 1.080326915 0.3421950638 -0.1530876607 0.9268388152
-0.1066000387 -0.08514137566 0.98221457 -0.3170154989 -0.09986568242 0.941138804
-0.1061101854 -0.0906759426 0.9817022085 -0.3406926692 -0.09858305007 0.9328750968
-0.2025607377 -0.1363538951 1.010438204 0.2337681502 0.2494998127 0.9393620491
-0.2017315626 -0.1367104799 1.016845584 0.2098842859 0.2650448084 0.939465344
-0.1986023784 -0.140647918 1.015092015 0.1624159217 0.3042991161 0.9337839484
-0.2049994916 -0.1316931397 1.019646883 0.2254134566 0.2475913614 0.942004323
-0.2066513598 -0.1297471523 1.01413238 0.2405517846 0.2364740968 0.9412060976
-0.2091446668 -0.1244669929 1.019414425 0.2388124168 0.2309087217 0.9430015087
-0.2046946436 -0.1319162399 1.008348465 0.2473950088 0.2341988087 0.9400051832
-0.2086850256 -0.123524718 1.014244676 0.2508084476 0.2192351967 0.9426770806
-0.2110026628 -0.1177743822 1.018476367 0.2517929077 0.2104408294 0.9445093274
-0.1983686388 -0.120338425 1.014876246 0.2438054979 0.2071529478 0.9465876222
-0.2041750103 -0.1196872965 1.017213345 0.253093183 0.2191517353 0.9420008659
-0.1345081776 -0.08407209814 0.9729382396 0.1227486283 -0.4082228541 0.900521338
-0.06264019012 -0.2265701145 1.080045938 0.2585834265 -0.3713811636 0.8907778263
-0.059683837 -0.22465837 1.074345708 0.2680065632 -0.3554441929 0.8942713737
-0.064791888 -0.2244755179 1.086016774 0.2468534708 -0.3834690452 0.8896225691
-0.06673453003 -0.2291998565 1.081955552 0.23916471 -0.3974483907 0.885625422
-0.02978591993 -0.1903661638 1.079678059 0.3411083817 -0.1519514918 0.927369833
-0.02664559335 -0.1759976447 1.077414274 0.2977178097 -0.1065850034 0.9485746622
-0.03188263625 -0.1762256622 1.078017116 0.2958629429 -0.1046456918 0.9494811296
-0.03054425493 -0.1827252805 1.076999903 0.316894412 -0.126634866 0.9392031431
-0.1005704999 -0.09032152593 0.9793946147 -0.3212297857 -0.03478486463 0.9415768981
-0.09264727682 -0.09304834157 0.9828335047 -0.2939380705 0.04425697401 0.9474690557
-0.0960412249 -0.07858809084 0.9784877896 -0.2970238328 -0.06142508611 0.9513844848
-0.09367549419 -0.08349832147 0.9803997874 -0.2915266156 -0.01569167711 0.9511594772
-0.1836363375 -0.1386863589 1.010792851 0.09244719893 0.3694417179 0.918441534
-0.183220014 -0.1433783025 1.013540626 0.06591117382 0.3934212327 0.9143346548
-0.1926735938 -0.1448433101 1.01232779 0.1288959235 0.3424271345 0.9223049283
-0.1891568303 -0.1389472336 1.009747744 0.1321983039 0.3369462192 0.9235653877
-0.1953380555 -0.1376752704 1.007691503 0.1845208704 0.2934146821 0.9305375218
-0.1776074618 -0.1443524361 1.01617527 0.02446513623 0.41277951 0.9103107452
-0.1774718612 -0.1386416107 1.012135863 0.04704319686 0.406045109 0.9126158357
-0.04265743494 -0.2050905079 1.078867316 0.3313358426 -0.1821368039 0.9234933853
-0.04424759001 -0.1961320937 1.076979399 0.3061366677 -0.1462426037 0.9378527403
-0.04717322811 -0.2023449689 1.076091886 0.307475239 -0.1818505526 0.9298728704
-0.04691568017 -0.2085135281 1.076935172 0.3214722872 -0.2087937295 0.9203966856
-0.0370930694 -0.1978916824 1.080687881 0.3428900838 -0.1538143307 0.9264991283
-0.1123918369 -0.09241609275 0.9759457111 -0.3187253177 -0.130894348 0.9384242892
-0.1128744632 -0.08675094694 0.9758906364 -0.3008064032 -0.1577346772 0.9400524497
-0.1064001322 -0.08097393811 0.9765646458 -0.2879097164 -0.1300434917 0.947450459
-0.1128492206 -0.07813629508 0.9768207073 -0.220162183 -0.1601702571 0.9597942829
-0.0920048207 -0.101478897 0.9867963195 -0.3194950819 0.0949832052 0.9421727657
-0.1007184982 -0.09708200395 0.982073307 -0.3411946297 -0.00347183831 0.9360509515
-0.1103824452 -0.0720782727 0.9827789068 -0.1964530051 -0.1578776389 0.9450944066
-0.1256751567 -0.07375025749 0.98391366 0.1448569 -0.306150645 0.8760256767
-0.1071198806 -0.06602168083 0.9840229154 -0.2015866786 -0.1621038169 0.9486141801
-0.1163604856 -0.07051117718 0.9838014841 -0.03666325286 -0.229809463 0.9137253761
-0.1278402656 -0.06778948754 0.9821867347 0.1642408222 -0.2628146112 0.9443600774
-0.1218960062 -0.06704282761 0.9825869799 0.05660683662 -0.2298573852 0.9499797821
-0.06048494205 -0.07185382396 0.9886620641 -0.1009193957 0.04122004658 0.9934072495
-0.06467860192 -0.06480330229 0.9889259934 -0.1385924071 0.01163677033 0.9891651869
-0.06775562465 -0.06003852561 0.9893301725 -0.1633116305 -0.01051192358 0.9862164855
-0.06582883 -0.09903399646 0.9965598583 -0.1942761838 0.08716697246 0.9764828086
-0.05631319806 -0.08241981268 0.9892679453 -0.1054617167 0.03828739002 0.9936098456
-0.06024803594 -0.08973795176 0.9936388135 -0.1470460147 0.06111356616 0.9855756164
-0.0979026258 -0.09290199727 0.9854924679 -0.3429991007 0.0008901278488 0.9382577538
-0.195763126 -0.1298064888 1.018829584 0.1794392914 0.2746600807 0.9403162003
-0.2031989247 -0.1254545599 1.017774463 0.2198702544 0.2468914688 0.9426239133
-0.1328614801 -0.09006395936 0.973711431 0.0674687624 -0.4220451415 0.8843106031
-0.1281064004 -0.08099642396 0.9808754325 0.1278040856 -0.3262512088 0.870370388
-0.1269909441 -0.09177241474 0.9737968445 -0.06029794365 -0.335994184 0.903473258
-0.1298030764 -0.08675538003 0.9766061306 0.0667193234 -0.3667322397 0.8824580908
-0.1343048811 -0.08247809112 0.9785548449 0.2112069726 -0.4253121018 0.8593990207
-0.05462382734 -0.2164604217 1.086543798 0.2898652256 -0.2929227948 0.9070262909
-0.0522537902 -0.2178510129 1.080418825 0.3106910288 -0.2743582428 0.9085989594
-0.0480678305 -0.2142635137 1.078054428 0.3277923465 -0.2366567403 0.9132223725
-0.06130555272 -0.07794424146 0.9872704744 -0.1054167673 0.05048870668 0.9930557609
-0.09397017211 -0.08795938641 0.985937655 -0.3317089379 0.01356306765 0.9428787827
-0.08832550049 -0.09341163188 0.9874854088 -0.2951261699 0.08519542962 0.9498437047
-0.1798617244 -0.1331386566 1.009595275 0.09110384434 0.3624489605 0.9200826883
-0.185157299 -0.1290034056 1.008698702 0.1488789767 0.3005124629 0.9305356741
-0.1979652047 -0.1296446472 1.006419778 0.2408144921 0.2247657329 0.9424954057
-0.1902665943 -0.1312772483 1.007768631 0.1764901578 0.2843373418 0.9327805638
-0.2009496391 -0.1251694709 1.008930326 0.2458260655 0.2054487467 0.946821332
-0.1753822863 -0.1281623393 1.008487225 0.07350884378 0.3488611579 0.9306181073
-0.1919968724 -0.1234512776 1.007199049 0.2232544273 0.2178141922 0.9458433986
-0.1674927175 -0.1353237778 1.016597986 0.05502767488 0.3896376193 0.9193117619
-0.1655786186 -0.1371371001 1.021266818 0.05068058148 0.3918036819 0.9186385274
-0.1730103791 -0.1407199353 1.01581943 0.03091263585 0.4098941684 0.9114290476
-0.1708199233 -0.1315998286 1.01073122 0.04073603824 0.3819456697 0.9225619435
-0.1640384197 -0.1222330555 1.028899789 -0.261222899 0.1991515905 0.6755890846
-0.1655041277 -0.1243967786 1.020243764 -0.1002924144 0.2784008086 0.7995241284
-0.1646526158 -0.1328130066 1.024488926 -0.04230808839 0.3343763053 0.8467895389
-0.1660928875 -0.1294058561 1.016431332 0.02918060869 0.3538947403 0.9003506899
-0.15986076 -0.1085736826 1.054178715 -0.8372423053 -0.1057441458 0.2299653888
-0.1618997902 -0.1161942184 1.041763306 -0.541164577 0.05312702432 0.4592238069
-0.1637023091 -0.1278680861 1.030388117 -0.2021162808 0.245638907 0.7227627635
-0.1628808826 -0.1232574359 1.035514355 -0.3455170393 0.1653893888 0.6114104986
-0.1682886034 -0.1080610082 1.065901875 -0.9509161115 -0.1260035187 0.2398371994
-0.183266148 -0.1168369502 1.040498257 -0.3194871843 -0.004220148083 0.6238874793
-0.1847730726 -0.1175334677 1.03429389 -0.1986922622 0.04220794886 0.6969674826
-0.1892314553 -0.1200222075 1.01956737 0.1013143659 0.1617494524 0.8739741445
-0.1729077101 -0.1096456647 1.062763095 -0.8276236057 -0.2232919037 0.3417096436
-0.1891033798 -0.1192121506 1.013726473 0.1917064637 0.189067021 0.9365460277
-0.1821795106 -0.1145715639 1.030018926 -0.1702338159 0.03571106121 0.7327005863
-0.1786789298 -0.1128591597 1.043631434 -0.4381880164 -0.06821177155 0.5715816617
-0.1856386364 -0.1171526983 1.024107456 -0.0246304106 0.101387918 0.8104737401
-0.1933402419 -0.1228867471 1.014688969 0.2389836311 0.2270945758 0.9432588816
-0.1906826496 -0.1111398712 1.01124239 0.2107140571 0.1571688801 0.963830471
-0.1853898615 -0.1108063981 1.015355468 0.09426596016 0.1177315637 0.9046092033
-0.1757143289 -0.1105353832 1.049916387 -0.5830276012 -0.1316881925 0.4917944968
-0.177879557 -0.1076602489 1.043545008 -0.462567091 -0.09718710929 0.5698261261
-0.1799302548 -0.1085790545 1.035820007 -0.3098896742 -0.03806936741 0.6615313292
-0.182030648 -0.1081619561 1.028538346 -0.1679038703 0.01261987071 0.7488199472
-0.1833665967 -0.1116541922 1.022162676 -0.03778085485 0.07214166969 0.8227055073
-0.1719887406 -0.1070747375 1.05229485 -0.6794908643 -0.1514578164 0.4054003954
-0.1654575169 -0.1059731767 1.055507541 -0.8175627589 -0.1609280854 0.2686120868
-0.1673282981 -0.1056351811 1.0486269 -0.6846705675 -0.1124792024 0.3492250443
-0.1855770648 -0.1058430001 1.013474584 0.1110473946 0.1148396656 0.9133784175
-0.1843689382 -0.1063406542 1.020466089 -0.01467750967 0.0639995113 0.8436073065
-0.1841518134 -0.1005136371 1.017188907 0.03690319881 0.09397268295 0.8466507792
-0.1731828451 -0.102597259 1.035756946 -0.4027332366 -0.02499499731 0.5326721668
-0.1872709244 -0.1003354341 1.011808395 0.1632414907 0.1282340139 0.9378815889
-0.1706381589 -0.1040041447 1.028731227 -0.2898289263 0.02427864075 0.6255481839
-0.1753477156 -0.1024611816 1.024116278 -0.1641927063 0.05281587318 0.7108229399
-0.1759397835 -0.1014236063 1.029406428 -0.2591851056 0.01681008749 0.6352763772
-0.1778941602 -0.1023314297 1.016718507 -0.003738033818 0.1013121977 0.828976512
-0.168104291 -0.1029856503 1.04407835 -0.6002025604 -0.07783984393 0.3906230032
-0.1802507043 -0.1002239883 1.023701668 -0.1162439883 0.05291682854 0.7350887656
-0.1803979725 -0.1018343121 1.012015939 0.1055002138 0.1316527426 0.9073627591
-0.1433367133 -0.2269083709 1.080339551 -0.08883932233 -0.5027659535 0.8598453403
-0.1387893707 -0.22881037 1.078530669 -0.08156146854 -0.5214403272 0.848872602
-0.0543358475 -0.2210236043 1.074328661 0.3049410284 -0.3010944426 0.9027501941
-0.05327513069 -0.2104122341 1.07980597 0.3168302178 -0.2252684832 0.9191659689
-0.05180495977 -0.2042006552 1.080401778 0.3026580215 -0.1642798483 0.9353296757
-0.04875198752 -0.1949447244 1.080932975 0.2953161895 -0.1151593253 0.9477878809
-0.04213518649 -0.1881921887 1.078834057 0.2957184911 -0.104946889 0.9494917989
-0.05182308704 -0.1984914392 1.083993077 0.2985310555 -0.1153499037 0.9471284747
-0.04443223402 -0.1983823478 1.08277154 0.327034831 -0.1404226422 0.9338254333
-0.182729736 -0.1496693939 1.019527078 0.04686963558 0.4036082625 0.9133663774
-0.1767172813 -0.1509272456 1.020408511 0.0276342202 0.4115962088 0.9106708169
-0.1714801639 -0.1513982117 1.021883726 0.01291939151 0.4153963029 0.9095273614
-0.1680398285 -0.1444617659 1.020714521 0.04804682732 0.40365991 0.9134038091
-0.1795571446 -0.1373639107 1.050639391 -0.04861180112 -0.3359073102 0.6672466993
-0.1882808059 -0.1435724199 1.027345538 0.0529660061 0.2343785763 0.8820528388
-0.1813062131 -0.1389435977 1.045096278 -0.0249632597 -0.1979454756 0.7170313597
-0.1769371629 -0.1362064779 1.055792212 -0.07218729705 -0.4573024213 0.6169170141
-0.1876225322 -0.1396534741 1.037005782 0.01557233371 -0.02217830904 0.8049948215
-0.1899325848 -0.140098691 1.032290697 0.03699061275 0.09002619982 0.8506361842
-0.1973082274 -0.1407904476 1.021991968 0.1282065213 0.3032281995 0.9414584637
-0.1928648353 -0.1448631436 1.021512747 0.07528769225 0.3375176191 0.9374934435
-0.1089472324 -0.07894382626 0.9817389846 -0.2775024474 -0.1081341431 0.9538619518
-0.1037314162 -0.07487119734 0.9780000448 -0.2737345099 -0.1158211455 0.954241991
-0.07743269205 -0.1015745178 0.9908924699 -0.2404534966 0.1483944356 0.9583425522
-0.08356160671 -0.1018633991 0.9877510071 -0.2690843344 0.1614026725 0.9492835999
-0.07881683111 -0.0965776816 0.9888373613 -0.2251326144 0.1413636804 0.9638672471
-0.07279996574 -0.09471558034 0.9886277318 -0.2014641166 0.1312597245 0.9672457576
-0.06717340648 -0.09505354613 0.9906076789 -0.1889453828 0.1124075875 0.9704486132
-0.06551420689 -0.08720073104 0.9882227778 -0.1512320489 0.07500976324 0.9832804203
-0.09553243965 -0.05723168328 0.9885088205 -0.243042171 -0.0998012796 0.9648547769
-0.0894536078 -0.05830024928 0.9869514704 -0.2378749698 -0.1266724616 0.9629317522
-0.1040378287 -0.05743321404 0.984993875 -0.2505359352 -0.1305508465 0.9592321515
-0.09425321221 -0.06216464937 0.9840459824 -0.2421257198 -0.1337677389 0.9607474208
-0.1030819789 -0.06773672253 0.979622066 -0.252115041 -0.1412231177 0.9568962455
-0.09817745537 -0.07091645896 0.9795945287 -0.2713141441 -0.1073839515 0.9554358125
-0.1124947667 -0.06581510603 0.9831830263 -0.1144168749 -0.1773677021 0.9593245387
-0.1135190278 -0.06169382855 0.9778130054 -0.1523452848 -0.1852277368 0.9669065475
-0.1085491627 -0.06826940924 0.9779816866 -0.2382754982 -0.156549409 0.9576314688
-0.114639543 -0.06704860926 0.9778558016 -0.1586574018 -0.1669867039 0.9723386168
-0.1823603511 -0.08139926195 1.008245349 0.1595372707 0.06179054826 0.9803694487
-0.1829482764 -0.0889499858 1.008041739 0.1943146735 0.0987707004 0.9717274308
-0.1781979501 -0.09632561356 1.005601287 0.2493401915 0.1382950544 0.9579419494
-0.1962071359 -0.08789257705 0.9995285273 0.1201098785 0.174648419 0.9730094075
-0.1915962994 -0.09313717484 1.004294038 0.1652540863 0.1548292637 0.9716138244
-0.2006928176 -0.08429799229 0.9962522984 0.08676997572 0.1948984116 0.9732086062
-0.2108526528 -0.1065785885 1.016094208 0.2610919774 0.1708983332 0.9496463537
-0.2068879455 -0.09952137619 1.012791157 0.2056493014 0.1936634034 0.9574002028
-0.2037418336 -0.10841012 1.013821602 0.2503635883 0.1753246784 0.9520534277
-0.2007237822 -0.1002608687 1.011095405 0.2380815595 0.1443811804 0.9598961473
-0.2007606179 -0.1069385856 1.008466244 0.2165286839 0.1946693063 0.9557052851
-0.2025714964 -0.1144314334 1.013952255 0.2390624732 0.1710458547 0.9557771087
-0.1975753605 -0.1110280827 1.011953354 0.2372144759 0.1693392098 0.9565197825
-0.2047906071 -0.09350834787 1.00986588 0.145802781 0.217638582 0.9636425376
-0.2051166743 -0.08543649316 0.9996442199 0.0916410014 0.215967983 0.9695433378
-0.1408721209 -0.09289140999 0.9736239314 0.1960658431 -0.5141550899 0.8236265779
-0.1395861506 -0.08737690002 0.9768696427 0.2527212799 -0.4889366627 0.8219336867
-0.1194463447 -0.09300915152 0.9725298882 -0.1763310283 -0.2254955918 0.9482740164
-0.104079172 -0.07616333663 0.9836583138 -0.2936513126 -0.09155912697 0.9497724175
-0.1031973064 -0.0706679374 0.9842315912 -0.2739310265 -0.1134973764 0.9536252022
-0.1009838656 -0.06503197551 0.985276401 -0.2571886778 -0.1310637444 0.9572419524
-0.1994521618 -0.08980095387 1.010109425 0.02396889962 0.1911638677 0.9778074026
-0.1704692394 -0.1044283584 0.9943953753 0.3488897681 -0.03707278147 0.8507547975
-0.1667757481 -0.100688763 0.9894335866 0.4230503738 -0.1306870133 0.8056970239
-0.1756759733 -0.1128509939 1.004998088 0.1671769619 0.1847085208 0.9459185004
-0.1766548306 -0.118517451 1.007000089 0.1179155558 0.2591637969 0.9543614388
-0.1841453761 -0.1228509694 1.007000089 0.1621691436 0.2567397356 0.9460708499
-0.1811341792 -0.115332745 1.007000089 0.1656936705 0.2035340816 0.9620205164
-0.1277732551 -0.2310376763 1.074677706 -0.07486679405 -0.5386182666 0.8387790918
-0.07482409477 -0.2246844321 1.086274505 0.2139042318 -0.400483489 0.8909407854
-0.05943173915 -0.2116319388 1.081804752 0.2961641252 -0.2744899392 0.9134545922
-0.1643762887 -0.1356599182 1.050466299 0.2012349218 -0.4101846814 0.5537355542
-0.1646384299 -0.1366375089 1.042156696 0.1581049711 -0.1678395718 0.6638698578
-0.1654968262 -0.1409817636 1.034548044 0.1300305873 0.08169668913 0.7749915123
-0.1659020782 -0.1428786516 1.028313756 0.1015229523 0.2728409171 0.8610881567
-0.1609237641 -0.1193147674 1.064627051 -0.4376972914 -0.4552652836 0.2217089534
-0.1613362879 -0.1278420985 1.071112871 -0.393614918 -0.3734076619 0.2613244057
-0.1626629829 -0.1259043366 1.05058229 -0.1677985936 -0.2690722048 0.458368063
-0.1644541174 -0.1352004409 1.035431504 0.08838938922 0.02853828669 0.7410950661
-0.1609271169 -0.1159286723 1.049721479 -0.6040892601 -0.06186917797 0.3632166088
-0.1601864398 -0.1122248173 1.058242559 -0.6827408671 -0.2568713725 0.2203455567
-0.1617944688 -0.1214081571 1.05811429 -0.2897824645 -0.4192951322 0.319140166
-0.1630267799 -0.1286195368 1.060809612 0.0451528132 -0.6328477263 0.3627071381
-0.1631155014 -0.1281764656 1.04552424 -0.1179538816 -0.1546558142 0.5439527631
-0.1637889743 -0.1316671818 1.039752841 -0.02252995968 -0.04037170857 0.6511183381
-0.1809664965 -0.1417137235 1.03631866 0.0992192179 -0.008349368349 0.7515589595
-0.1699777395 -0.1354891956 1.058072925 0.1711636782 -0.6153241396 0.4802642763
-0.1714690179 -0.1338647455 1.064785838 -0.03639278933 -0.7059932947 0.4983897209
-0.1836270392 -0.1432663351 1.030873299 0.0854498595 0.1418009549 0.8175882697
-0.1753523648 -0.1271473467 1.064907432 -0.2991176248 -0.6207249761 0.5452750921
-0.1755280495 -0.121656023 1.0633744 -0.5185475945 -0.4440876245 0.5135499239
-0.187277779 -0.1314492673 1.038886189 -0.1212141663 -0.006287094206 0.780033946
-0.1723997146 -0.1236749366 1.070851803 -0.4393970668 -0.7002281547 0.4719025493
-0.1845273823 -0.1331956834 1.044394135 -0.05952576175 -0.1820794791 0.736354053
-0.1717052162 -0.1315967292 1.070206165 -0.1476175338 -0.8062025309 0.4849856198
-0.1924040914 -0.1355157197 1.027979493 0.04274629056 0.1991899014 0.8938233256
-0.177569136 -0.1314272135 1.058777452 -0.1397557408 -0.519339025 0.5978877544
-0.1812797934 -0.1308340132 1.051748157 -0.1522729546 -0.3370387554 0.6682228446
-0.1690665483 -0.1378761232 1.051520348 0.1983332634 -0.451404959 0.5321285725
-0.1757102311 -0.1427565515 1.035812855 0.1165824011 0.0003831756476 0.7362689376
-0.1738799661 -0.1388855428 1.046508431 0.1841906458 -0.3137848973 0.5995671153
-0.1795944124 -0.1453672647 1.027240992 0.07311644405 0.2463030368 0.847892344
-0.1694942564 -0.1466356516 1.03311193 0.07917471975 0.09084956348 0.7668714523
-0.1682800353 -0.1406050622 1.045729637 0.1554805785 -0.2778895497 0.6049368978
-0.172385782 -0.1474702358 1.026857018 0.0413482897 0.2736413181 0.8471457958
-0.1690959334 -0.1437402368 1.038864255 0.1139622182 -0.07725696266 0.6930462122
-0.1639997512 -0.1340141445 1.063222528 0.2657834589 -0.7848604321 0.383397162
-0.0869499892 -0.2165044546 1.087207198 0.1013953239 -0.3618579507 0.9252909422
-0.1269072592 -0.06353186816 0.9776845574 0.1241854057 -0.2690762281 0.9503148198
-0.1331577897 -0.07191824913 0.9762403369 0.204169631 -0.3703247011 0.9038684368
-0.1207142919 -0.06390972435 0.9776908159 -0.006475586444 -0.2005124986 0.9724856019
-0.1162879765 -0.07324154675 0.9772510529 -0.1312471181 -0.1780511141 0.9740791321
-0.1225495338 -0.07404044271 0.9766169786 -0.05236855894 -0.2464675009 0.9658063054
-0.1151185557 -0.05610599369 0.979731977 -0.1205727607 -0.1832189858 0.9736173749
-0.1092610434 -0.05825298652 0.9819573164 -0.2020335793 -0.1564712077 0.9629923701
-0.1791951656 -0.1083357707 1.00214982 0.2568496466 0.08357330412 0.9243052006
-0.178152144 -0.1024448872 1.000483036 0.2781057358 0.04504076391 0.9152472019
-0.1672210246 -0.0928099975 0.9858835936 0.4938547015 -0.2265030444 0.7786864042
-0.1717942953 -0.09818800539 0.9924023747 0.3978099525 -0.1024321392 0.8392967582
-0.1764659733 -0.09733057022 0.9973105788 0.3238656819 -0.02114163712 0.8873310685
-0.1959616095 -0.09882509708 1.006743431 0.1758072227 0.1898919046 0.9654145241
-0.189637512 -0.09873409569 1.006424665 0.1843078732 0.1590430439 0.9691692591
-0.1833653748 -0.1054307893 1.006240487 0.1954802573 0.1503438056 0.9689693451
-0.1931335777 -0.1055672914 1.006696224 0.1965996772 0.1827958524 0.9623298645
-0.194039017 -0.1163695008 1.006872177 0.2306970507 0.1890382916 0.9537251592
-0.1878577918 -0.1134838462 1.006656766 0.2158189714 0.171608761 0.9604918361
-0.1977181137 -0.07292019576 0.9938018918 0.09569227695 0.1283349246 0.9659687877
-0.1880061626 -0.07585772127 0.9943732619 0.1928680986 0.00457723625 0.9511021972
-0.2039630115 -0.07689582556 0.9998666048 0.003284595907 0.2114675194 0.976967752
-0.2030598074 -0.08148439229 1.006464958 -0.02887098864 0.2073549181 0.9775696993
-0.2021862715 -0.0718177408 1.008750081 0.01473999955 0.2129326314 0.9767532945
-0.2037129402 -0.0712004751 0.9990483522 0.02506001294 0.2141762227 0.9764651656
-0.1371900737 -0.09270141274 0.969078958 0.1207041889 -0.3931104243 0.8822209239
-0.1531350166 -0.09246744215 0.9737805128 0.4577909112 -0.5045138597 0.7253763676
-0.1403002143 -0.08233620226 0.9736586809 0.2841507494 -0.4225976467 0.8387040496
-0.1207830012 -0.08386171609 0.9798995852 -0.06310752034 -0.2401986718 0.9022282958
-0.1221227646 -0.07788196206 0.9827309847 0.02133072913 -0.277322948 0.891602695
-0.1183160543 -0.08878875524 0.9775768518 -0.1656862199 -0.1979324222 0.9171234369
-0.1257855892 -0.09396511316 0.9661756754 -0.0909915939 -0.2573040724 0.9616547823
-0.1259423047 -0.08776389062 0.970199883 -0.08700874448 -0.2710519731 0.9528026581
-0.1320060641 -0.07885684818 0.9749796987 0.1343000978 -0.3614926934 0.9094474316
-0.1259211153 -0.07889577746 0.9751388431 -0.01895539649 -0.2869872749 0.949711442
-0.1174767166 -0.08281237632 0.9749900103 -0.2064941972 -0.1973829418 0.9544385076
-0.06910019368 -0.07658363879 0.9869544506 -0.1413401961 0.05776882544 0.9858785868
-0.08413180709 -0.07904927433 0.9834780097 -0.2405198812 0.01472217962 0.9648414254
-0.07549511641 -0.08065133542 0.9872294068 -0.198654592 0.07437405735 0.9741575718
-0.07752370089 -0.07597012818 0.9838470817 -0.186925441 0.01056684274 0.9759212136
-0.06682632118 -0.08145996183 0.9884065986 -0.1534341723 0.0646167621 0.9852913022
-0.07182530314 -0.100981988 0.9942851663 -0.2102448493 0.1209361032 0.9700889587
-0.06999335438 -0.09459792078 0.9953603745 -0.1897106022 0.09485735744 0.9770473242
-0.09540741891 -0.06734159589 0.9869070053 -0.279286921 -0.1031903774 0.9539433718
-0.09989517182 -0.07972750813 0.9846503139 -0.314551264 -0.05838849023 0.9464113116
-0.09678279608 -0.07342550904 0.9859845042 -0.2969945669 -0.07677210867 0.9502392411
-0.1939202696 -0.07562182844 1.01000011 0.04334367439 0.1705750078 0.9835261106
-0.2050328702 -0.07697495818 0.992346704 0.01380426995 0.2128129452 0.9767708182
-0.1249217391 -0.2262046188 1.077635765 -0.07949970663 -0.5162211061 0.851608336
-0.1210975274 -0.2224262059 1.081226826 -0.08547610044 -0.4814021289 0.8714538217
-0.1285130233 -0.2239677608 1.081886649 -0.08852872252 -0.4905312061 0.8666238785
-0.09183502942 -0.229036361 1.088251114 0.01981533319 -0.4265629947 0.9021648765
-0.09507983923 -0.2240548581 1.089558601 0.01363997348 -0.4450848401 0.8948520422
-0.0862704441 -0.2337691486 1.080069542 0.1164340675 -0.4483043551 0.8785152435
-0.09874509275 -0.2346692085 1.085390687 -0.03194871917 -0.5027745366 0.8604435325
-0.05898873135 -0.2067166716 1.085773945 0.3050844073 -0.2473315448 0.9185458422
-0.06151196733 -0.215614453 1.088970661 0.2692740262 -0.3242615163 0.9051983953
-0.04993913695 -0.2075398266 1.085522175 0.3230767548 -0.2071502805 0.9191147685
-0.04946335778 -0.2129734755 1.084924698 0.3142623901 -0.2387447804 0.9173858762
-0.05477634817 -0.2106317431 1.086969137 0.3012086451 -0.2541085482 0.9136819243
-0.08123908937 -0.2141064107 1.088108897 0.1514786333 -0.3553345799 0.9212284684
-0.08415911347 -0.2222037911 1.089321494 0.100889422 -0.3722627759 0.92041713
-0.07029718161 -0.2218066156 1.089126825 0.2115369141 -0.3810203075 0.8976011872
-0.07144807279 -0.2164070457 1.090088248 0.2208144814 -0.3741385043 0.8993443847
-0.07922287285 -0.2190370262 1.09053576 0.1314771175 -0.3697456121 0.9156754613
-0.06865134835 -0.2136565745 1.08467114 0.2640901506 -0.3202618361 0.9082533717
-0.06141503155 -0.2187647372 1.078212142 0.2759778798 -0.3278038502 0.9027154446
-0.07553118467 -0.2115413398 1.087556005 0.2029836178 -0.328032732 0.9193831086
-0.06729774922 -0.2079755515 1.087411165 0.2698898613 -0.2840007544 0.9179286957
-0.06906680018 -0.2287158817 1.075925946 0.2248890847 -0.4027379751 0.8853536844
-0.07244800031 -0.2191914171 1.083105922 0.2389145643 -0.368059963 0.8976937532
-0.06748724729 -0.2234169245 1.078289747 0.244340986 -0.3731273115 0.8933681846
-0.0729258433 -0.2243846059 1.080285072 0.2234532237 -0.3938889802 0.8901945353
-0.1216657832 -0.06120596826 0.9845066667 0.09743160009 -0.2606391609 0.897117734
-0.1141439229 -0.06014385447 0.9842961431 -0.0801634267 -0.1865902394 0.9444488287
-0.1372432411 -0.07161013782 0.9866805077 0.4108876288 -0.420817107 0.8037335873
-0.129037872 -0.05816594511 0.9793907404 0.1663865596 -0.3340059817 0.9068261981
-0.1239749864 -0.05710789934 0.9790364504 0.06902357936 -0.2645646632 0.9412626028
-0.1419985145 -0.06703517586 0.9838680625 0.4659954011 -0.4580669999 0.7450810075
-0.1423698068 -0.07422504574 0.9764500856 0.4021629095 -0.4263566732 0.8041632771
-0.1362090111 -0.0665454492 0.9770050645 0.2863871157 -0.3823224902 0.8689848781
-0.1337577403 -0.06790255755 0.9841606617 0.3479293883 -0.3648352325 0.8559609056
-0.1378757805 -0.07777569443 0.9753044844 0.2853284478 -0.4081321657 0.8602702618
-0.1355436742 -0.0592975691 0.9807754755 0.2882088125 -0.4019265473 0.8554925919
-0.1402833313 -0.06174748018 0.9852020144 0.3850060701 -0.4360933006 0.7894803286
-0.1455361396 -0.06459192187 0.9901898503 0.4946532547 -0.4734205604 0.715880096
-0.1639526784 -0.1103470773 0.9957600832 0.2454731762 0.06237202883 0.8537395597
-0.1659602374 -0.1200131774 1.005388021 0.0495072566 0.2893618941 0.9373538494
-0.1661854535 -0.1141788736 1.004172206 0.1030635461 0.2204472572 0.9459703565
-0.161550656 -0.1068016291 0.9907365441 0.2907409072 -0.06492206454 0.8218494058
-0.1605532914 -0.102945216 0.9869410992 0.3599096239 -0.1586580873 0.7922355533
-0.1522082388 -0.1010662615 0.9850154519 0.2173304409 -0.2885872424 0.8351178169
-0.1611538827 -0.113841258 0.9987607598 0.09567907453 0.09732488543 0.9070201516
-0.156930998 -0.09901960939 0.9810681939 0.3806979358 -0.3197299242 0.7656027079
-0.1579329818 -0.1102125794 0.9932250977 0.1447258592 -0.04035130888 0.8689339161
-0.1551629156 -0.1056060567 0.9882416725 0.1975395977 -0.1758541018 0.8400620818
-0.1493651569 -0.09639836848 0.9782828689 0.2982043326 -0.4489731193 0.7838626504
-0.1620767117 -0.09698933363 0.9844199419 0.4906814694 -0.2230840623 0.7628141046
-0.1713434309 -0.1097223386 1.000618577 0.2233560681 0.110735178 0.9057192802
-0.1637588888 -0.1142783165 1.028094411 -0.3272533417 0.1149930134 0.634432137
-0.1655586958 -0.1195503995 1.017399549 -0.09263028204 0.2393864691 0.815266192
-0.1646264791 -0.1186227426 1.02405417 -0.2199528366 0.189655751 0.712800324
-0.1624797583 -0.1116057187 1.036359787 -0.4974562824 0.03534414247 0.5006678104
-0.1664026529 -0.1217535511 1.012218237 0.01825301163 0.2955233455 0.9013751149
-0.1608516425 -0.11015746 1.048088312 -0.720377028 -0.05010896549 0.3208728135
-0.1711308211 -0.1165246591 1.006565809 0.09008320421 0.2633033395 0.9596917033
-0.1721429527 -0.1228236184 1.006938934 0.06709191948 0.321811378 0.9442406893
-0.1673702747 -0.06752864271 1.004884124 0.3437949121 -0.1211667433 0.9279702306
-0.1878397167 -0.08573050052 1.00999999 0.1402298063 0.08823368698 0.9811524153
-0.1903126687 -0.08056484163 1.00999999 0.06354542077 0.09063605964 0.9879003763
-0.192951709 -0.0887453109 1.00999999 0.0726813674 0.1433529556 0.9797554612
-0.1820143163 -0.07806260884 0.993019402 0.2687558532 -0.07239896804 0.9184464216
-0.1726250499 -0.08736143261 0.9812652469 0.4495452642 -0.2056389153 0.7796413898
-0.1983156204 -0.07825034112 0.9880300164 0.1108431593 0.1233413368 0.9398474693
-0.1741698682 -0.08251591772 0.9883549213 0.3881369829 -0.1764926612 0.8470575213
-0.1759964228 -0.07725507766 0.9960092902 0.320002079 -0.1430512667 0.9204714298
-0.1685988158 -0.08464854956 0.9866440296 0.463083148 -0.2481743395 0.8102074265
-0.1876553595 -0.07909076661 0.9897950292 0.2233086973 -0.00676202355 0.9129018188
-0.1794984192 -0.08160935342 0.9882291555 0.3272749484 -0.1104001105 0.8670672178
-0.1936143041 -0.07719565183 0.9910248518 0.1468304247 0.06906960905 0.9471278787
-0.1963614225 -0.08265153319 0.9928304553 0.1142124683 0.1440150738 0.9545171261
-0.1785841882 -0.08877268434 0.9885780811 0.3460859358 -0.08253571391 0.8471176624
-0.1640483588 -0.09093035758 0.9797711372 0.5593907237 -0.3089285791 0.7300348878
-0.186250329 -0.08684010059 0.9917353988 0.2402065992 0.02537908964 0.9006993175
-0.1867031008 -0.0899964869 0.9980438352 0.2067197412 0.07901815325 0.9374791384
-0.1914021224 -0.08550100774 0.9937815666 0.1693897694 0.09731657058 0.9362923503
-0.183724463 -0.09486441314 1.004523635 0.2135761231 0.09658779949 0.9589762092
-0.1837137938 -0.08392801881 0.9840427041 0.3048128784 -0.06165384501 0.8464670181
-0.180794999 -0.09257213026 0.997643888 0.2792730927 0.01154942997 0.9073498845
-0.1915232688 -0.08135861158 0.9861346483 0.2019557506 0.03959758952 0.8948764801
-0.1804822683 -0.07271745801 0.9985899925 0.2417065799 -0.0723798275 0.9501019716
-0.1875838637 -0.06946951151 0.9987620711 0.1533207148 0.02522825077 0.9680362344
-0.186149925 -0.06992866844 1.00999999 0.06373126805 0.04872276261 0.9953022003
-0.1508486122 -0.08337059617 0.9885775447 0.4766836762 -0.4896920323 0.7147660851
-0.1373037845 -0.07641975582 0.9836001992 0.3679316342 -0.437885493 0.8165323138
-0.1457484365 -0.08430271596 0.983477056 0.3969495893 -0.4946444631 0.7590564489
-0.1404224187 -0.08325298131 0.9799896479 0.335791558 -0.4858744144 0.8019045591
-0.145062834 -0.09049078077 0.9772804976 0.3199827373 -0.5370901823 0.7752099633
-0.1460296363 -0.0801057443 0.987526536 0.4466449022 -0.465803206 0.7496402264
-0.1477199197 -0.07617534697 0.9917765856 0.509413898 -0.4609349966 0.7177813053
-0.1429284364 -0.07358177751 0.9898815751 0.471282661 -0.449300319 0.749666214
-0.15237315 -0.07784218341 0.9940193892 0.5541134477 -0.4774033129 0.6797499657
-0.1710776687 -0.06859090179 1.000704765 0.2973784804 -0.1922050267 0.9062911272
-0.1631953716 -0.07011055201 0.9971113205 0.4372071624 -0.3518896401 0.7911666632
-0.1554860026 -0.06513597816 0.9969860911 0.5064618587 -0.4757019877 0.6988041401
-0.08578192443 -0.08291936666 0.9870604277 -0.2842589021 0.04215804115 0.9561080337
-0.09107872844 -0.07875284553 0.9862591624 -0.2777256966 -0.02765689977 0.957824111
-0.06372776628 -0.06813388318 0.9934435487 -0.100215666 0.0525980629 0.993288517
-0.06039251387 -0.08436962962 0.9945984483 -0.1263576597 0.06323016435 0.9890456796
-0.0575084202 -0.07553839684 0.9924640656 -0.08952815831 0.05064355955 0.9946856499
-0.06456536055 -0.07706474513 0.9934284687 -0.1332769841 0.06613803655 0.9884240627
-0.07088959217 -0.07917796075 0.9927487969 -0.1605081111 0.05053231493 0.983348012
-0.0711626634 -0.06633723527 0.9925652146 -0.1547381282 -0.04077620059 0.9836012125
-0.07712416351 -0.09093438089 0.9888355732 -0.2183334827 0.125352174 0.9675227404
-0.07338728756 -0.08921582997 0.9929581285 -0.1859045178 0.08987554163 0.9783309102
-0.06661525369 -0.08965362608 0.9950735569 -0.1711741984 0.07882089168 0.9820765853
-0.08035354316 -0.08414532244 0.9893679619 -0.2384856939 0.05913927034 0.9668532014
-0.07967423648 -0.07360936701 0.9903969169 -0.1902920455 -0.01958324946 0.9790982604
-0.07800416648 -0.0626860261 0.9924548268 -0.1770888865 -0.07677470893 0.9800863862
-0.07420555502 -0.07329073548 0.9928934574 -0.1733614802 -0.007330425549 0.9805992842
-0.08348715305 -0.08899495751 0.9877150655 -0.2753834128 0.0935433358 0.9556774497
-0.2029448301 -0.08560849726 1.01000011 -0.05801331624 0.2294769734 0.970443964
-0.1960159689 -0.0696772337 1.01000011 -0.00082873879 0.1744590849 0.983877182
-0.197496742 -0.08043801785 1.01000011 0.001356714172 0.1959249228 0.9786680937
-0.1205189079 -0.2341306955 1.075625181 -0.06953043491 -0.5523109436 0.8307334781
-0.1244657636 -0.232204318 1.079572082 -0.07154579461 -0.5471397042 0.8337720037
-0.1336863786 -0.2320282608 1.07714951 -0.07049274445 -0.5498417616 0.8321843743
-0.129490152 -0.2290204912 1.080602527 -0.08860725909 -0.5033614039 0.859495461
-0.0912521556 -0.2204807848 1.086342812 0.05208188668 -0.3900645077 0.9172000289
-0.08118601143 -0.2317187339 1.077959299 0.1815500557 -0.4195045233 0.8883610368
-0.08224134147 -0.2269988954 1.080631733 0.164001137 -0.4001995623 0.8995478749
-0.08544623852 -0.2224670798 1.083618999 0.1246298701 -0.3831008077 0.9124951959
-0.08057975024 -0.2200948596 1.083942413 0.1626679003 -0.3729833364 0.912209034
-0.1032582745 -0.2242214829 1.089199901 -0.07296578586 -0.4363530278 0.8959736228
-0.1004168838 -0.2288610935 1.087936282 -0.05259232968 -0.4563497305 0.886466682
-0.09051038325 -0.2299510241 1.081049562 0.07659175247 -0.4434818625 0.8819932342
-0.1033893824 -0.2343526036 1.077046871 0.02764411457 -0.5048674941 0.8507636786
-0.09764486551 -0.2289785147 1.082481503 0.01031055767 -0.4620503187 0.8761085272
-0.104722999 -0.229978025 1.081800461 -0.03289084882 -0.4893624783 0.8636960387
-0.09708140045 -0.2340541631 1.077819109 0.06380976737 -0.4875398576 0.8580315709
-0.1140165329 -0.2349235117 1.077780485 -0.05660150573 -0.5457942486 0.8335128427
-0.1083683446 -0.221495837 1.088714838 -0.09135574847 -0.4411241412 0.8921804428
-0.116228804 -0.2280409336 1.082845569 -0.0818874687 -0.5206038356 0.8493641019
-0.1106147617 -0.2256915867 1.083376288 -0.08223412931 -0.4896581471 0.8668906093
-0.1187022999 -0.2266958803 1.078397155 -0.07542472333 -0.5226551294 0.8477678895
-0.1074632481 -0.2343912572 1.083289742 -0.0705614984 -0.5507867932 0.8316572309
-0.1570690721 -0.08168331534 0.9961048961 0.5563122034 -0.4330111444 0.6828246713
-0.1665102094 -0.08644747734 1.004757285 0.3996797502 -0.006840671878 0.9061576128
-0.165408954 -0.06867018342 1.01059103 0.3518332839 -0.07093962282 0.9312583208
-0.1672754884 -0.07750754058 1.008452654 0.337941587 -0.004697455559 0.9343265891
-0.1726993918 -0.0949357599 1.004186273 0.2921708524 0.1295229495 0.9462304115
-0.1782743037 -0.07362775505 1.009591937 0.1915823072 0.001838729251 0.9720522761
-0.1763236076 -0.08916625381 1.005613446 0.2414284945 0.09979050606 0.9602968097
-0.1775674224 -0.08366668224 1.007033706 0.216501981 0.06684917957 0.9662838578
-0.1729611605 -0.08044154197 1.0077492 0.2721174359 0.03088101558 0.9521853328
-0.1730676144 -0.0734738782 1.009516358 0.2598784864 -0.01543923747 0.9549210668
-0.1929713041 -0.06871814281 0.9987799525 0.09995938838 0.07948773354 0.97546947
-0.1925022155 -0.06758039445 1.004988551 0.02956381999 0.1213522106 0.9897121787
-0.1980953962 -0.06840801984 1.002762198 0.006339543499 0.1762124598 0.9829856753
-0.1715535969 -0.06796789914 1.010815024 0.2694991827 -0.05301140621 0.9515530467
-0.179296419 -0.06755904108 1.006399155 0.1721223146 -0.08681563288 0.9771575928
-0.1736138463 -0.0679955408 1.005341649 0.2513910532 -0.09974433482 0.9593828321
-0.1520714015 -0.0846061632 0.9773868918 0.4323949814 -0.5330207348 0.7252605557
-0.146138221 -0.08353431523 0.975099504 0.4107780755 -0.4802072346 0.7735809684
-0.1585631669 -0.09161822498 0.9768577218 0.5711078048 -0.4064166248 0.7069475055
-0.1616028845 -0.08083607256 0.9876378775 0.3965812325 -0.3935664892 0.7964214087
-0.1543489993 -0.08245695382 0.9834234118 0.4410522878 -0.523765564 0.7163656354
-0.1666664928 -0.08009300381 0.9898996949 0.3635503054 -0.3036803305 0.8535447121
-0.1578594893 -0.0854633823 0.9793817401 0.4151743948 -0.4658817649 0.7606856823
-0.1706894785 -0.07895568013 0.9935677648 0.3647568822 -0.2232656926 0.8864901066
-0.1479504555 -0.07629530877 0.9823737741 0.4689810276 -0.4892140031 0.7300655246
-0.1465009004 -0.07115826011 0.9848864675 0.4938932359 -0.4676925838 0.7282822132
-0.1522000581 -0.06887122989 0.9926146865 0.5173255801 -0.5228344798 0.6763111949
-0.1596270353 -0.08709672093 0.9978289008 0.4888371825 -0.2892695665 0.7465510964
-0.1584396362 -0.09658624977 0.9940609932 0.3051432967 -0.1668298244 0.8459233046
-0.1522684991 -0.09374181926 0.985340476 0.3241446614 -0.3750078976 0.7976635098
-0.1563920379 -0.0884667486 0.9929777384 0.4449956417 -0.3620738387 0.7450324893
-0.1637201756 -0.09893865138 1.001543522 0.2904015481 0.009870890528 0.8862540126
-0.1498124599 -0.08893610537 0.9827965498 0.4000777304 -0.5224540234 0.7350026965
-0.1608779579 -0.09242984653 0.9988386631 0.3959071934 -0.1774180382 0.8025336266
-0.1607154012 -0.1020062268 0.99643296 0.2210818678 -0.02092607133 0.9076109529
-0.1560588032 -0.09916199744 0.9898748994 0.2458543628 -0.1856911778 0.8675854206
-0.1642013341 -0.1050149426 1.001443148 0.1915248483 0.1082511619 0.9382351041
-0.1667080671 -0.1041031927 1.006509542 0.1799327284 0.1772972047 0.9352267385
-0.1615919471 -0.1033639312 1.041118026 -0.5466653109 -0.06550294906 0.4011003673
-0.162335664 -0.1013556272 1.035354853 -0.3914228082 -0.04361146688 0.47665295
-0.1634348929 -0.1015480086 1.027930617 -0.2360952348 0.008768246509 0.5914466381
-0.1741966903 -0.1050431281 1.008590817 0.1224724501 0.1572130173 0.9340028763
-0.1648358554 -0.09941565245 1.020570993 -0.04468087107 0.03970551863 0.6920133829
-0.1693001091 -0.1045910269 1.02352035 -0.1895417124 0.05617853999 0.6941933036
-0.1609845757 -0.1032717824 1.046957016 -0.6697092652 -0.1066444144 0.3120006323
-0.1704651117 -0.1026391387 1.012807846 0.07032108307 0.1129217818 0.8448385596
-0.1670452058 -0.09827063233 1.009144425 0.2176931798 0.1067154258 0.86152035
-0.1663107872 -0.1087741181 1.008892417 0.07554013282 0.1914557219 0.9088513255
-0.1653572172 -0.1056492329 1.015780926 -0.03754266351 0.1249588504 0.7984387875
-0.1634196788 -0.1080789715 1.028752565 -0.3414839208 0.05186348036 0.6045994759
-0.1647015363 -0.1092464775 1.019846559 -0.1638432294 0.1198263019 0.7424847484
-0.165530324 -0.1113012955 1.013936639 -0.05997244641 0.1729510128 0.8361516595
-0.1695368141 -0.07476792485 0.996830523 0.369122237 -0.2442668229 0.8734058738
-0.1578411013 -0.06999823451 0.9946611524 0.476346463 -0.446947813 0.7296200991
-0.1626219749 -0.07583758235 0.9928102493 0.4137203395 -0.3683397174 0.7964657545
-0.1531682312 -0.07813082635 0.9867290258 0.4706786573 -0.538874805 0.6929991245
-0.1575591713 -0.07471442223 0.9912084937 0.4555854797 -0.4571025372 0.7361775637
-0.1617366076 -0.07210449129 1.004539847 0.4538669884 -0.2233170867 0.8492885232
-0.166617468 -0.08107472956 1.004013062 0.4537485242 -0.1237383112 0.8805673718
-0.1581997722 -0.06839542836 1.001264334 0.4791864157 -0.2889392674 0.8263306022
-0.162238121 -0.06644812971 1.005602479 0.4057085216 -0.1666659117 0.8932198286
-0.1656554043 -0.09263969213 1.003522515 0.3836176693 0.05324105918 0.9052728415
-0.1581419259 -0.07485102862 1.000533819 0.5078261495 -0.3255651593 0.7768768072
-0.1538844556 -0.0709515363 0.9982072711 0.5134379268 -0.3796850145 0.7627340555
-0.0893824026 -0.06814803183 0.9874575734 -0.2410786599 -0.08741834015 0.9654000998
-0.08447930217 -0.06478122622 0.9886077642 -0.2231956869 -0.1042835414 0.9688521028
-0.08683405817 -0.231335178 1.085750103 0.09243199229 -0.4441470802 0.8889495134
-0.08164232224 -0.2265868634 1.086218715 0.1368173808 -0.4090982676 0.8999780416
-0.07650610805 -0.2317138463 1.082312822 0.1886698157 -0.4354450703 0.8797460794
-0.09248631448 -0.2349060923 1.085720181 0.01278601121 -0.458381772 0.8862859607
-0.09643892199 -0.2186124176 1.090663671 0.01826943457 -0.4382956624 0.8981035352
-0.09992889315 -0.2189334184 1.086023331 0.004044850357 -0.4022048712 0.9116087556
-0.1115337685 -0.2194173187 1.084569812 -0.06307762116 -0.4438175559 0.8914475441
-0.08148923516 -0.05741082877 0.9888186455 -0.2162290365 -0.1177527979 0.9687338471
-0.07355451584 -0.05789582804 0.9888755083 -0.1821940243 -0.1045762524 0.9772254229
-0.07590249926 -0.06810551882 0.988312006 -0.1605156511 -0.03995587304 0.9851579666
-0.09181272238 -0.07489530742 0.9801366329 -0.2661258578 -0.06447625905 0.9595410228
-0.08571179211 -0.07397066802 0.9831470251 -0.2195663303 -0.04351628572 0.9704641104
-0.08198340982 -0.06983536482 0.9852515459 -0.2040040493 -0.05528343469 0.9748002887
-0.06636632979 -0.07123098522 0.9879909158 -0.1311402619 0.03055164777 0.9898617864
