# .PCD v0.7 - Point Cloud Data file format
VERSION 0.7
FIELDS x y z normal_x normal_y normal_z
SIZE 4 4 4 4 4 4
TYPE F F F F F F
COUNT 1 1 1 1 1 1
WIDTH 512
HEIGHT 1
VIEWPOINT 0 0 0 1 0 0 0
POINTS 512
DATA ascii
0.1442300528 0.1253437102 0.7859036326 0.06785083562 -0.4617524445 0.8503491879
0.1626624167 0.08983897418 0.7745079994 -0.1222392917 -0.1028911918 0.9765944481
0.1560934633 0.09034457058 0.7739089727 -0.02474037372 -0.1327347159 0.9791916013
0.1724964678 0.03133418784 0.8198093176 0.08120019734 0.4520685971 0.7785398364
0.1613605022 0.02206636034 0.8203508258 0.2906197309 0.5681859851 0.7672189474
0.1787044555 0.03405155987 0.8209658265 -0.0423511602 0.4188845158 0.765307188
0.1759988815 0.02738895267 0.8237239718 -0.003728242358 0.5039134622 0.7273589969
0.1667165607 0.02865886129 0.818819046 0.1958280355 0.484836489 0.7897002697
0.1822958887 0.02953795344 0.8252587318 -0.1307391077 0.4780767262 0.7090902328
0.1674459875 0.02106752805 0.822581768 0.1882815659 0.5716392994 0.7415389419
0.1885350198 0.02338543162 0.8282474279 -0.1870647818 0.5233758092 0.6776930094
0.1929737926 0.02854345366 0.8303014636 -0.350402832 0.4906896949 0.6460034251
0.1744365692 0.01973876543 0.824072957 0.1017324626 0.565756917 0.7285709977
0.1263164729 0.07967352867 0.7806249857 0.5155768394 0.06055476144 0.8431410193
0.1210205033 -0.01151792519 0.9059990048 0.2886046767 0.7227039337 0.5859113932
0.1047869101 -0.003553297604 0.9078384638 0.1290943474 0.6242282987 0.7705022693
0.109984763 -0.01244043745 0.9079174399 0.1293471158 0.6242445707 0.7704460025
0.1153420359 -0.008777256124 0.9081285 0.1371177286 0.6285214424 0.7623083591
0.1143974811 -0.002859991742 0.9092985988 0.1314558387 0.6243802905 0.7699765563
0.1602767259 0.02913301252 0.8162366748 0.296091795 0.5044116974 0.805434227
0.2047379166 0.02944622748 0.8343349099 -0.5936997533 0.4741070867 0.5973961353
0.1911109388 0.01911197603 0.8309313655 -0.2078647912 0.5421555042 0.6689701676
0.1858334541 0.01350390259 0.8305107355 -0.1360946596 0.6059176922 0.6638678312
0.1999073178 0.02497323602 0.8335809112 -0.4960797429 0.5170902014 0.6062199473
0.1834884733 0.01714738645 0.8261584044 0.00277029234 0.5613434911 0.7145163417
0.1085703969 0.1106119081 0.8065149188 0.7818880677 -0.2609976232 0.553874433
0.1177769005 0.1205037534 0.7948081493 0.6240303516 -0.3006057143 0.7156978846
0.1144504696 0.1177728698 0.7993119955 0.6773428321 -0.285969615 0.6628516316
0.1098817736 0.117753014 0.8067104816 0.7340888381 -0.264428705 0.6151489019
0.1113771945 0.1089121178 0.801952064 0.7552421093 -0.275403738 0.5733243227
0.05515268445 0.05050185323 0.8720877171 0.2574766874 0.6408016682 0.6967195868
0.05278982967 0.058144968 0.8687660694 0.5771329999 0.4213149846 0.6911145449
0.0481136851 0.05512629449 0.8712878823 0.3940143287 0.6189877987 0.6657044291
0.1282075942 0.1249861047 0.793789506 0.3875820637 -0.3976318538 0.7530760169
0.143421486 0.1299140006 0.7897049785 0.0235720221 -0.5525676608 0.8060554266
0.1202997193 0.1229630262 0.8017633557 0.5870484114 -0.3122622967 0.6958301663
0.1167460009 0.1221541241 0.8064362407 0.6785976291 -0.2729972303 0.6645721197
0.1347040087 0.1273163408 0.7945016623 0.2364556193 -0.4617596269 0.7632265687
0.1027643159 0.07751802355 0.8120793104 0.8555126786 0.06166171655 0.5108720064
0.2144198716 0.07085336745 0.8279292583 -0.7328650951 0.1161634475 0.6683742404
0.2233022749 0.05402613431 0.8323314786 -0.7336306572 0.1607616991 0.6599139571
0.2171438783 0.06555192173 0.8289818764 -0.7266123295 0.1273593903 0.6730166674
0.2117386907 0.07693844289 0.8261783123 -0.7284646034 0.09755989909 0.6761879921
0.2187734246 0.0425106883 0.8336650729 -0.7056074142 0.3125893772 0.6206638217
0.218226999 0.03538029641 0.8349211216 -0.6887273192 0.3962343335 0.599173069
0.2250974774 0.0410054177 0.8345615268 -0.6994522214 0.3154051304 0.6291724443
0.2282387763 0.04814705625 0.8329963088 -0.7075986862 0.2541795969 0.655053556
0.1729701757 0.01227946393 0.8227182031 0.2486419827 0.6020798087 0.7586228251
0.1263455898 -0.005894609261 0.9048961401 0.4086416662 0.7911545038 0.4550177455
0.1329729408 -0.009164204821 0.9031436443 0.3037914038 0.8690253496 0.3809629083
0.2155141532 0.02384714969 0.8393854499 -0.6491823792 0.5044596791 0.5661950111
0.1683964282 0.01352047268 0.8257950544 0.09742397815 0.6363928914 0.7241935134
0.1769796014 0.005563576706 0.8326480389 -0.2143281102 0.7223921418 0.6378232837
0.1697888225 0.006521974225 0.8313586712 0.2379153073 0.6041206717 0.7510091066
0.1742277145 0.00832033623 0.8274174929 0.2493620515 0.6018717885 0.7585392594
0.1844640821 0.01320047118 0.818608582 -0.0892790854 0.6953797936 0.696793139
0.1805091351 0.009994387627 0.822558105 -0.0587038286 0.7077906132 0.6840486526
0.1792387515 0.01598157175 0.8155590892 0.1829557121 0.6165243983 0.7614064813
0.08863084763 0.0007103497046 0.9110153317 0.1240945533 0.617225945 0.7769358754
0.09464784712 0.003139388282 0.9092986584 0.1283019781 0.6231185198 0.7715218663
0.094519265 -0.006124895997 0.9127030373 0.1278538257 0.6224908829 0.7720985413
0.09930410236 0.07863560319 0.8209118247 0.8528551459 0.02855610289 0.5210747123
0.1019721404 0.07022041082 0.8128242493 0.8489944935 0.1156275198 0.5146694779
0.1045614779 0.07318365574 0.8076066971 0.8499827981 0.1057550311 0.5138480067
0.09965409338 0.08571717143 0.8193692565 0.8546931744 -0.06066594645 0.5050343275
0.1011045203 0.08574099839 0.8124840856 0.8602055907 -0.06268910319 0.5039177537
0.1040148064 0.08700902015 0.8054659367 0.8555629849 -0.08284631371 0.5037515163
0.2249820679 0.03516536206 0.8354572654 -0.6826984882 0.3912425041 0.6128178835
0.2203545123 0.02962618135 0.8365637064 -0.6779181957 0.4409217536 0.5881299973
0.1497470289 0.0787120834 0.7740992308 0.04964650795 0.1084376946 0.9790713787
0.1527996659 0.08394892514 0.7732079625 -0.002051012125 0.02703980356 0.9931225777
0.124999091 0.09334345907 0.7833516002 0.5138581395 -0.3083116114 0.7991691232
0.1186788529 0.09256287664 0.788097918 0.6091031432 -0.2711493671 0.742767334
0.1235920042 0.1060358882 0.7856328487 0.5071979165 -0.2683862448 0.8087521791
0.1210618094 0.09912823886 0.786945641 0.5599033833 -0.2804784775 0.7719529867
0.125577271 0.1010727212 0.7836571932 0.4887553751 -0.2956537306 0.8166357875
0.1206164956 0.1106810346 0.7900036573 0.5730947256 -0.2864922285 0.7596396208
0.1237183586 0.1154744625 0.7874367833 0.5045800805 -0.2663063109 0.8091689944
0.1494007707 0.1222857535 0.7855129242 -0.002816172782 -0.5247386098 0.8305476308
0.1376544088 0.1226810962 0.783321023 0.2426087558 -0.2926320136 0.9066396356
0.1967402697 0.09601656348 0.8013620973 -0.7558784485 -0.05669948459 0.6343411207
0.1923777461 0.0996607393 0.7919021249 -0.7548439503 -0.1551716775 0.6202989817
0.1993341297 0.09526064247 0.8074169755 -0.7613883615 -0.04217638075 0.6284230947
0.2021190971 0.08999646455 0.8153592348 -0.7431789041 0.07543618232 0.6519385576
0.1963233203 0.09060689062 0.8052244186 -0.7155825496 0.02752315626 0.6559063196
0.1631161124 0.01154978573 0.8272849917 0.2793219686 0.5925347805 0.7555511594
0.1595961303 0.01588655449 0.8243102431 0.2796470821 0.5922658443 0.7556382418
0.1653877795 0.02062426507 0.8164072633 0.2832073271 0.5785874724 0.76462394
0.2110650837 0.02900669351 0.8375396132 -0.6534391046 0.4839659333 0.5805435777
0.1960743219 0.01811449789 0.8218727708 -0.3871283531 0.6662072539 0.6170701981
0.2034481466 0.02068386413 0.8291598558 -0.4951990843 0.6057462096 0.5927881002
0.1964697689 0.01898152381 0.8345771432 -0.5084235668 0.6006770134 0.5733789206
0.2062921822 0.02488645166 0.8377199173 -0.6081665754 0.5293665528 0.5758965015
0.1872670799 0.01178376563 0.8236430287 -0.3189081252 0.7298716307 0.6025502682
0.1932183504 0.01338959485 0.8288373351 -0.4003213644 0.6846928 0.5861178637
0.1984641254 0.01371649001 0.8361276388 -0.4871892631 0.6437506676 0.5604767203
0.1909209043 0.01557529625 0.8198430538 -0.3299587369 0.7050182819 0.621216476
0.1989266723 0.01711736247 0.8283703923 -0.4480551183 0.6436073184 0.5927760601
0.1862872541 0.007786690723 0.8320862651 -0.3573023677 0.7334724069 0.5669992566
0.1920740902 0.01151246205 0.8354931474 -0.4332044423 0.6828419566 0.5600627661
0.2105617821 0.02096162736 0.8408231735 -0.6235044003 0.5514759421 0.5515244603
0.2055793107 0.01845969819 0.8394528031 -0.5720172524 0.5880041122 0.5530356765
0.09985302389 0.004836747423 0.9099925756 0.1290943474 0.6242282987 0.7705022693
0.09928807616 -0.003481558757 0.912263453 0.1290943474 0.6242282987 0.7705022693
0.1131696105 0.003679681104 0.910620451 0.132987693 0.6244789362 0.7696354985
0.106844604 0.003551236819 0.9104606509 0.1301573515 0.6242967248 0.7702655792
0.1037893444 -0.0105020944 0.9106803536 0.1290943474 0.6242282987 0.7705022693
0.1321566999 -0.002219456248 0.9032463431 0.3972198069 0.80318892 0.4432486296
0.1231312752 0.002270013792 0.9073348641 0.3789508939 0.7608469129 0.5075436234
0.06087327376 0.05424234644 0.8693407774 0.4410071969 0.5474063754 0.6832256317
0.05886199698 0.06000672281 0.8671709299 0.6004843116 0.3960140944 0.6944042444
0.05446535721 0.0706019029 0.8652650118 0.5765978694 0.4154392481 0.7027844191
0.05322707817 0.0790990293 0.8629873991 0.5570216179 0.4314371645 0.7094114423
0.05407673493 0.06373442709 0.8669873476 0.594094038 0.4011412263 0.6968615651
0.04924710095 0.06874038279 0.8652958274 0.5875021219 0.4065282047 0.6990930438
0.05959764495 0.07307270169 0.8604300618 0.5686261654 0.4256625473 0.7038546205
0.05973091722 0.06783436984 0.8635320067 0.5838180184 0.4111778736 0.6995995045
0.1100689545 0.1162584871 0.8130632639 0.7606608868 -0.2402154505 0.5987594128
0.1070961356 0.1069438457 0.8138156533 0.7987350821 -0.2211766392 0.549988091
0.1038754806 0.09721263498 0.8145711422 0.8386291265 -0.201311633 0.4988343418
0.1053258255 0.09985224158 0.8093257546 0.841240406 -0.2354156822 0.4843071997
0.2111208141 0.04460139945 0.8260294199 -0.6913132668 0.3537324071 0.6239494681
0.2156096101 0.04742966592 0.8318298459 -0.7135491967 0.2612138391 0.6364647746
0.213034153 0.04207199439 0.8330172896 -0.7001828551 0.3279137313 0.6186095476
0.1393670142 0.07320381701 0.7769179344 0.252256602 0.2105326355 0.9343208671
0.1340351701 0.08278530091 0.7771533728 0.3746223152 -0.02841470204 0.9205645919
0.1322587729 0.07532268018 0.7783979774 0.4104116559 0.157941103 0.8943729401
0.1442295462 0.07831074297 0.7745817304 0.1359271556 0.112929672 0.9726332426
0.1396846771 0.08189512789 0.7752513885 0.2676002085 -0.003342597745 0.9536367655
0.1538426131 0.05738625675 0.7993905544 -0.06102096662 0.447470516 0.7710921168
0.1621284336 0.05675648525 0.8028396368 -0.2536676824 0.4811558723 0.7746869326
0.1319654137 0.05448488146 0.795201242 0.5072917342 0.3504267931 0.7781679034
0.1320294291 0.05261321738 0.8013446331 0.5321051478 0.3396572471 0.7528271675
0.1213977411 0.05881765485 0.795325458 0.6215140224 0.3126553893 0.7136271
0.1419143379 0.04800370708 0.8026338816 0.4278646111 0.3746407628 0.8090331554
0.1424266398 0.05713715404 0.7956609726 0.2082419842 0.3857016861 0.784208715
0.1343727261 0.05779684335 0.799927175 0.3362815082 0.3538036942 0.7296690941
0.1278790832 0.05851731822 0.7976413369 0.4816625118 0.3305405974 0.7190793157
0.1377355158 0.0519714281 0.8039804697 0.4086449146 0.3569121957 0.7574679255
0.1409688145 0.05611428991 0.8022679687 0.21839571 0.3760589063 0.7472397089
0.1484984607 0.05468995497 0.8038393855 0.07743418217 0.4025979042 0.7703619003
0.156785354 0.05466366187 0.8047949076 -0.1197548583 0.4343183935 0.789274931
0.1491060406 0.04948049039 0.8065242171 0.2050568312 0.3964343667 0.7938264608
0.1478723437 0.04368828237 0.8092922568 0.392551899 0.3822633028 0.8155840635
0.1628212333 0.05048771575 0.8075780869 -0.1499685943 0.4506461918 0.8206737638
0.1553126723 0.04440055788 0.8097807169 0.1954293996 0.4119429588 0.8294452429
0.1303415895 0.05883372948 0.7874975801 0.473005712 0.3732395768 0.7888658643
0.1384198964 0.05167633295 0.7973524332 0.4567951858 0.3628486097 0.8020130992
0.1220146045 0.06829491258 0.7875393629 0.5958003402 0.2629190981 0.7561411858
0.1217496768 0.0738088116 0.7854191065 0.5984538794 0.2088070661 0.7709421515
0.1280530691 0.06891274452 0.7834219337 0.4929972589 0.2715116143 0.8206630945
0.1219961643 0.08207730949 0.7843139172 0.5814552307 -0.01926429197 0.7975749969
0.1716327518 0.09649712592 0.7963125706 -0.3202545345 -0.1103502586 0.7274727821
0.1888727248 0.07723326981 0.8073089719 -0.6162876487 0.3363575339 0.6864174604
0.1893821359 0.08656335622 0.8073276281 -0.54912889 0.1070526391 0.7177528739
0.1795808971 0.08505424112 0.8014614582 -0.4763771296 0.1583490223 0.700122416
0.1734465361 0.09027663618 0.7975991964 -0.3835567534 0.03938245028 0.7093644738
0.1775297225 0.1008821651 0.799734354 -0.3373643458 -0.2263912857 0.749512732
0.185683921 0.09003269672 0.8049892783 -0.4907096028 0.02746987902 0.7243797779
0.1822618693 0.07790482789 0.8033000231 -0.5542628765 0.3295699656 0.6800807118
0.1844522208 0.08380606025 0.8044388294 -0.5278576016 0.1818049848 0.7023148537
0.1731582731 0.1026669145 0.7970419526 -0.286070168 -0.2637224197 0.7497306466
0.1944972873 0.08399093896 0.810493052 -0.6128610969 0.162592262 0.7159063816
0.1789121926 0.09308043867 0.800809741 -0.4090805948 -0.03729220107 0.7256478667
0.1628051251 0.09521370381 0.7756595016 -0.1052680984 -0.2197293043 0.9653787017
0.167931512 0.08593025059 0.7751380205 -0.2278960198 0.003839444369 0.9698304534
0.1691489667 0.09191118926 0.7762841582 -0.232479915 -0.1053230613 0.9611136317
0.1667254269 0.09999870509 0.7772677541 -0.1516037732 -0.3067309558 0.9323326945
0.1730451286 0.09602417052 0.7778622508 -0.2960800529 -0.1699071079 0.9369032383
0.2040802538 0.0611984618 0.8182733655 -0.6744008064 0.3070185483 0.6642552018
0.2082953751 0.04848596826 0.8214361072 -0.6797795892 0.332709074 0.6408964992
0.2076042295 0.05928979442 0.8230858445 -0.6919144988 0.270524472 0.6509287357
0.2026615292 0.07895646244 0.8191379309 -0.689334929 0.1660300344 0.6949959993
0.2014337331 0.07238261402 0.8164730668 -0.6743539572 0.2512533367 0.6869057417
0.2119751424 0.06635314971 0.8194129467 -0.7348883748 0.05133987963 0.6701245904
0.216161564 0.06145282835 0.8241473436 -0.7347617745 0.09099074453 0.6661117077
0.2268535197 0.04158017039 0.8292233944 -0.6859654784 0.3642759025 0.628179431
0.2172026038 0.05845379457 0.8300443888 -0.7309374809 0.1462745219 0.6647274494
0.2079992741 0.07135064155 0.8176673651 -0.7321200967 0.03538727015 0.6757529378
0.205638811 0.0831740126 0.8230065703 -0.7105411291 0.07271973044 0.6989702582
0.2081637532 0.06801560521 0.8235986829 -0.6995394826 0.1808220148 0.6772259474
0.2093896121 0.05369737744 0.8237767816 -0.6907862425 0.2965371311 0.6456395388
0.2051961422 0.08973773569 0.8221225739 -0.7339787483 0.06437262893 0.6756266952
0.2047571987 0.07819198817 0.8140161037 -0.735919416 0.0003777327656 0.6761997938
0.2033030689 0.08439724892 0.8127690554 -0.7489749789 0.02545020357 0.6605276465
0.2019694746 0.08116908371 0.8080780506 -0.7399920821 0.002460331423 0.67172575
0.1947443485 0.09220060706 0.7951911092 -0.7386849523 0.02312810719 0.6731333733
0.201007247 0.08922573179 0.8092553616 -0.7507568002 0.03875469044 0.6582256556
0.161002025 0.07545591146 0.7755706906 -0.1594209671 0.2335846573 0.9534758925
0.1559914052 0.07774633914 0.7742815018 -0.06394150853 0.1585190296 0.9811918139
0.160330534 0.08237023652 0.773855567 -0.1177423 0.06996805966 0.9854492545
0.1669246107 0.07636462152 0.7766014338 -0.2928644717 0.2699054778 0.9074009657
0.2147659212 0.0288860742 0.8295078874 -0.6256180406 0.4524728954 0.6169541478
0.1996368021 0.02595958859 0.8164142966 -0.4731691182 0.5361461043 0.6584341526
0.2108020633 0.02950848639 0.8247002363 -0.6006755233 0.4505741894 0.6366032958
0.194640398 0.02113267966 0.8159170151 -0.381139487 0.6299779415 0.6477299929
0.2000011951 0.03066766262 0.8121322989 -0.526915431 0.4546054304 0.68675071
0.2047664672 0.02461127937 0.8231740594 -0.4995860159 0.5479118228 0.6295745969
0.2098085284 0.02433709987 0.8296669126 -0.5431268811 0.5446556211 0.6023608446
0.2161900252 0.03710670397 0.8224767447 -0.6549865007 0.3746302724 0.6525986195
0.221724093 0.03841311485 0.825866282 -0.6697627306 0.3790077269 0.6363117695
0.2137976736 0.04273689911 0.8186485171 -0.6597198248 0.289683044 0.6837993264
0.2058651149 0.0405295454 0.8119869232 -0.6291325092 0.2999829054 0.7103708386
0.2101549208 0.03881262615 0.8150870204 -0.6330933571 0.3435307443 0.6884348392
0.2100575715 0.03388334066 0.8197307587 -0.6341862082 0.3848584294 0.6651943326
0.2178574353 0.03468970582 0.8279075027 -0.6684499383 0.3899280131 0.6298502088
0.1933958381 0.02496498823 0.8114674091 -0.2839854062 0.5570947528 0.7451832891
0.2009154707 0.03606438264 0.807755053 -0.5913153887 0.3599480689 0.7178640962
0.1945385337 0.02965682559 0.8081864119 -0.3654896021 0.4220741689 0.8111308813
0.18858172 0.03189716488 0.8051790595 -0.1298119724 0.3385391235 0.9166802764
0.1087843776 0.07547383755 0.7998944521 0.8108283877 0.1169858128 0.5710725188
0.04998291656 0.07425702363 0.8637440801 0.5713703632 0.4191991091 0.7050353885
0.1284316629 0.1185682043 0.8054223657 0.5250362158 -0.357470423 0.6936937571
0.135917753 0.120953232 0.8042827249 0.3864469826 -0.4260879755 0.7177713513
0.1218539625 0.1167608872 0.8069458008 0.6461030841 -0.2972042859 0.669960022
0.1215504184 0.1199377924 0.8129200935 0.6437096596 -0.2947083116 0.6397131085
0.132545948 0.1235811934 0.8106597662 0.4378206134 -0.3970040083 0.6784571409
0.1446883082 0.1278327554 0.8079904914 0.2085130066 -0.5110344291 0.7224345803
0.1248117685 0.124204047 0.8112186193 0.550314188 -0.3381835818 0.6592743397
0.1322506964 0.126845032 0.8009432554 0.3144176602 -0.430047363 0.7256483436
0.142014727 0.1281401813 0.8029417992 0.1890720427 -0.5042806268 0.7398025393
0.1540224403 0.1297037452 0.8056078553 0.03740102425 -0.5949488282 0.7562282085
0.1479819566 0.1303353906 0.7941522002 -0.006666286848 -0.5796077251 0.7956232429
0.1160224974 0.1224573031 0.8135624528 0.7124478817 -0.25896281 0.6270124912
0.1284043044 0.1255681515 0.805623889 0.4288656116 -0.3844405115 0.6943084598
0.1403525472 0.1290458143 0.7945702672 0.1148357466 -0.5156785846 0.7752352357
0.1359644085 0.1266493052 0.8066125512 0.3251632154 -0.443590194 0.7079006433
0.14143534 0.1217109039 0.8025727272 0.2851645947 -0.4758431017 0.734799087
0.1478887796 0.1244259849 0.802906096 0.1638736725 -0.5349578261 0.7484064102
0.1252912283 0.1148454323 0.8012537956 0.5747613907 -0.3204396963 0.7137684822
0.1524322331 0.1232091263 0.7986280322 0.03403998539 -0.5486549139 0.8041540384
0.1346298158 0.1160949767 0.7974097729 0.345621407 -0.3737135231 0.7875165343
0.1454140693 0.1178512052 0.7935364246 0.08929918706 -0.440092206 0.8644762039
0.1113829464 0.05970653147 0.801330328 0.7756748199 0.2316919714 0.5856482387
0.1426146924 0.06043857336 0.7797439098 0.1713588685 0.3732170761 0.9107878208
0.1463280171 0.05460165441 0.7865992188 0.1874607503 0.386533767 0.9011346698
0.1582074463 0.03841333464 0.8120029569 0.2988378406 0.4065879881 0.8629894257
0.1535786688 0.04410891607 0.8038468361 0.2637782395 0.4025111198 0.8738427162
0.1549325436 0.04689817876 0.7935515046 0.2133482546 0.376504451 0.8998519778
0.150793612 0.04787166044 0.7979835868 0.2381093353 0.3980079591 0.8825727105
0.1592178196 0.04010753334 0.8054223657 0.266479522 0.3895447254 0.8798620701
0.1509595066 0.05026341975 0.7908871174 0.2040068358 0.3823060095 0.8991882205
0.1590391695 0.04233719036 0.7993868589 0.2377500385 0.377117157 0.8934465051
0.1524966061 0.06427819282 0.7924718857 -0.05381070822 0.4544304013 0.7693421841
0.1346331984 0.06572712958 0.7824100256 0.3737808168 0.3338379562 0.8600224257
0.142812103 0.06855682284 0.7863584757 0.1588464081 0.3418078423 0.8283321261
0.1475323886 0.06565661728 0.7894917727 0.05966488272 0.4077206552 0.7972875834
0.1402132213 0.06735914946 0.7783838511 0.2393439263 0.3259636462 0.9135452509
0.1374253631 0.06086336449 0.7824106812 0.2898135185 0.3980171978 0.8637273312
0.1271775365 0.06355725974 0.7864971757 0.5312547684 0.3193510771 0.7825989127
0.162262693 0.06209075078 0.7984618545 -0.2807058692 0.5378310084 0.7132334113
0.1462872475 0.06121888757 0.7930358052 0.1026710942 0.4397132099 0.7517446876
0.1376741827 0.06123964861 0.7893567681 0.3089544475 0.3842682242 0.7815125585
0.1935993433 0.07728293538 0.8101240993 -0.6317313313 0.2714962363 0.7182700634
0.1811102033 0.06570098549 0.8024030924 -0.5269408822 0.3729836643 0.7544217706
0.1870924532 0.06866678596 0.8043794632 -0.5566049814 0.2801921666 0.7769709229
0.1753415018 0.04472264275 0.8143018484 -0.1015331969 0.4115064442 0.7989785671
0.1724444181 0.05279898643 0.8085742593 -0.3838582337 0.4578395486 0.7864117026
0.1819143742 0.04441111535 0.8162082434 -0.2056382447 0.405012995 0.7654819489
0.1686224192 0.04381294176 0.8131090999 0.05566123128 0.4114194214 0.8374482989
0.1785215586 0.04908670485 0.8124448657 -0.3385480642 0.4330860078 0.7672297955
0.2041318119 0.04434300587 0.8220458627 -0.5982482433 0.3884570003 0.6488670111
0.1085083485 0.0667571798 0.8059183359 0.7976379395 0.1909081787 0.5578637123
0.1167089045 0.05955130607 0.7987729311 0.6987099051 0.2759391963 0.6565519571
0.1364688128 0.1003649235 0.7808407545 0.3435430527 -0.3650144637 0.8593193293
0.1349049211 0.1139491051 0.7822106481 0.325984925 -0.2889079154 0.8954411149
0.1356147975 0.1071170568 0.7815407515 0.3359680772 -0.3271374404 0.8769313693
0.1415469795 0.1053028852 0.7799341679 0.2522888184 -0.3408582509 0.8976790309
0.1535939574 0.09875585884 0.776239872 0.0575533621 -0.3302767873 0.9367225766
0.1317147464 0.09627579898 0.7817685008 0.421536684 -0.3649339378 0.8277546763
0.1342911273 0.09164954722 0.7783937454 0.3932562172 -0.2615263164 0.8762403727
0.1252857447 0.08628797531 0.781758666 0.5169090033 -0.1438831687 0.8385014534
0.1385564953 0.0875653401 0.7759854198 0.2977081537 -0.1438225657 0.932795763
0.1317985058 0.1205202267 0.7829048038 0.3538189232 -0.2494931072 0.8988674879
0.1475733966 0.07234912366 0.7756159902 0.05656594038 0.2498921603 0.9626682401
0.1563432515 0.07215626538 0.7759286761 -0.103644833 0.2802522779 0.946030736
0.1490406543 0.06309702992 0.776920259 0.07452685386 0.3378566504 0.9313845634
0.1633416116 0.06166296825 0.7838062048 -0.3592828214 0.6319576502 0.6780123711
0.1662174016 0.06602554023 0.7810284495 -0.4119484425 0.5711393356 0.6888749003
0.1598725915 0.06559152901 0.7796586156 -0.2487890124 0.529040575 0.7904419303
0.1507102698 0.05705224723 0.780995965 0.04036641866 0.475984633 0.8429700732
0.1559628546 0.05397148058 0.7861963511 -0.02861983329 0.5607753992 0.7733930349
0.1403582841 0.05459447205 0.7902286053 0.3126906753 0.4438985288 0.8387472034
0.14446491 0.05114611611 0.7948748469 0.3014321625 0.4325455129 0.8478621244
0.115608409 0.1025531441 0.8012394309 0.7219703197 -0.2758804858 0.6301163435
0.1030297875 0.09194508195 0.8130888939 0.8487422466 -0.2000213414 0.483864069
0.1055967361 0.07856553793 0.8061418533 0.8492611051 0.06142006442 0.5143885612
0.1089528799 0.09037515521 0.8032589555 0.7930982113 -0.1420247704 0.562949717
0.1064314097 0.09665821493 0.8036136627 0.830491364 -0.2522515953 0.4937740862
0.1112342998 0.09725345671 0.7977230549 0.7338579297 -0.2765284181 0.6060211658
0.1106307507 0.08596886694 0.7994239926 0.7779927254 -0.05703048781 0.5918687582
0.1095732525 0.1031481549 0.8026753068 0.7817912698 -0.2682748437 0.5472441316
0.1139828116 0.1051519662 0.7966188788 0.6934438944 -0.2880707979 0.6467457414
0.1147765592 0.1003344432 0.7936013937 0.66648072 -0.2925412655 0.6811024547
0.1169844493 0.1113973334 0.7943130136 0.6437305808 -0.300691098 0.6989749074
0.1149613485 0.1060276777 0.8062537909 0.7380583882 -0.249344781 0.6153794527
0.1143902093 0.1105275378 0.8095134497 0.7500485778 -0.2403497994 0.6093491912
0.1105739474 0.1036360562 0.8100938797 0.7820990086 -0.2255577445 0.5680349469
0.1170365587 0.1159674972 0.8106509447 0.7303689122 -0.2516195774 0.6339911222
0.1205591112 0.1112169847 0.8026937246 0.6793452501 -0.2820385695 0.6764844656
0.1093759984 0.1219889 0.8101547956 0.7296925783 -0.2566911578 0.6315338612
0.1269288212 0.1224328578 0.7856736779 0.4519143403 -0.2402527332 0.8519771099
0.1318428367 0.1249787137 0.7892336249 0.3378748894 -0.3646652102 0.8027769327
0.1381258518 0.1273825467 0.7880682945 0.16610232 -0.4452733696 0.8237949014
0.1299482584 0.1102983654 0.7826033831 0.4095337689 -0.2944346368 0.8592199087
0.1268437356 0.08491592854 0.7877928615 0.5222489238 -0.06656481326 0.7808741927
0.1263020784 0.07834425569 0.7872191668 0.5337997675 0.06122638285 0.7783859968
0.1496741623 0.0831034407 0.7924203873 0.03073955886 0.03588505089 0.7661521435
0.1575510949 0.07441702485 0.7962393165 -0.161123082 0.2570646703 0.7326338291
0.1427950114 0.09188444167 0.7876136899 0.2097122073 -0.1933942884 0.8087056279
0.1508877426 0.07781142741 0.7955038548 -0.02301563881 0.1760992408 0.7391369939
0.1338047534 0.0958943069 0.7904429436 0.3727725744 -0.2678423524 0.7821101546
0.1481404454 0.07391710579 0.792088151 0.0384143889 0.2484961599 0.7726200819
0.1309489906 0.08909187466 0.785838902 0.4357290566 -0.1343648285 0.8276745081
0.13991265 0.07353933156 0.7861750126 0.2260739803 0.2267647237 0.8288144469
0.1437050849 0.08144069463 0.7918560505 0.1420987695 0.0734404549 0.7727280855
0.1428566724 0.0869506523 0.7933686376 0.1632608175 -0.04609493166 0.756847024
0.1594900936 0.0695803538 0.7983869314 -0.2220341861 0.3811602592 0.7140802145
0.1369349509 0.08625065535 0.7889490724 0.2981838584 -0.05268621072 0.7989636064
0.1354016811 0.08015553653 0.7855428457 0.3311878145 0.07061659545 0.8329697847
0.1673054844 0.06265536696 0.8012177944 -0.4026655853 0.5557703376 0.6891551018
0.1741432548 0.1026861668 0.7790815234 -0.2795399725 -0.3256322145 0.8998102546
0.1576589942 0.1240824163 0.7977644205 -0.04196529835 -0.6237546802 0.7800655365
0.1514296234 0.1192136407 0.7921678424 -0.006038621534 -0.5475991964 0.8280467391
0.1888105273 0.09800299257 0.787618041 -0.656694591 -0.1381982714 0.7178225517
0.1536582708 0.1256750375 0.7883348465 -0.08833858371 -0.5895507336 0.8000528216
0.2080269605 0.0660822317 0.8147336841 -0.6899326444 0.02818751894 0.7074218988
0.2105176151 0.06035543606 0.8170934916 -0.661767602 0.06268966943 0.7253367305
0.218383044 0.05411607027 0.8269333839 -0.7002106905 0.219999373 0.6729492545
0.2052852362 0.07111425698 0.8118795753 -0.7072572708 -0.01498496905 0.6994021535
0.1752905399 0.08089356124 0.7791075706 -0.4944188297 0.2922910154 0.8158248663
0.1867712438 0.02686159126 0.8076007366 0.001951102749 0.4595610797 0.868588984
0.2076587528 0.0403852202 0.8269329667 -0.6485924721 0.4025253057 0.6194127202
0.1913607121 0.03923000395 0.8235011697 -0.3214913905 0.410789758 0.7073660493
0.19574745 0.03688647598 0.8272032142 -0.412827909 0.4226706624 0.6744919419
0.1872839481 0.04154549912 0.8199166656 -0.2364380211 0.3990173638 0.738394022
0.2088297755 0.03545482457 0.8324269652 -0.6783177853 0.4285718203 0.5957159996
0.2018947452 0.03771679103 0.8280846477 -0.5357142687 0.4174566865 0.6426854134
0.1760858595 0.04029707611 0.8180347085 -0.01225697435 0.4071118534 0.7972491384
0.04818763956 0.04109885544 0.8799262643 -0.104772076 0.5125032663 0.8504751325
0.05087419227 0.04797947407 0.8761763573 0.1197538376 0.5862647891 0.757129848
0.05396099016 0.03983540833 0.8803632855 -0.1099802852 0.5107922554 0.8526403904
0.06097549945 0.04771688581 0.872518599 0.2808764279 0.6568133235 0.6878384352
0.06138535589 0.04231721908 0.8806032538 -0.09148032963 0.5177036524 0.8448399901
0.1168599576 0.06445164979 0.7948886156 0.6833426356 0.2520379126 0.6840960383
0.175740853 0.06091944873 0.7878594995 -0.3523650467 0.40286237 0.7869225144
0.1826067269 0.04896888509 0.7980455756 -0.1014797315 0.2310267985 0.936019063
0.1795660108 0.05879146606 0.7933113575 -0.3516285717 0.329587698 0.8405246735
0.1684982479 0.05705673248 0.7884786129 -0.2680513859 0.5214515328 0.7553268671
0.1713898331 0.06329608709 0.7846772075 -0.3966001272 0.4914183021 0.7315443754
0.1785160601 0.05161578581 0.794870317 -0.1533092111 0.3160352111 0.8809850812
0.1743609458 0.05557137355 0.7909910083 -0.2360679209 0.4076007605 0.8158025146
0.1631270349 0.0735174194 0.7937968969 -0.2791802585 0.2992322147 0.7298930287
0.1533908695 0.08456201851 0.7878829837 -0.0190938022 -0.0107947439 0.7978160977
0.1476243734 0.09142935276 0.7840913534 0.1353032589 -0.2004951835 0.8384845853
0.1736433655 0.06646756083 0.8012111783 -0.5077143908 0.5382486582 0.6683878303
0.1777050346 0.07054551691 0.8010146618 -0.5624633431 0.5010243058 0.6567308307
0.1480116099 0.09441263974 0.7749603391 0.1808093935 -0.2913501859 0.9338933229
0.1448299289 0.09889440238 0.7777609825 0.225747481 -0.3485717773 0.9044613838
0.1401555836 0.09386021644 0.7769655585 0.3118523359 -0.3035734594 0.8968291283
0.1472794712 0.08566640317 0.7731064558 0.1200967729 -0.06075730547 0.985799849
0.159534514 0.09902311116 0.7850401998 -0.04467522725 -0.2620939314 0.8300732374
0.1617869139 0.09084799886 0.7904415131 -0.1547156274 -0.02222660929 0.7849428058
0.1541966945 0.1015979052 0.7841194272 0.05295010284 -0.3159112334 0.8537516594
0.1581516117 0.08081385493 0.7899317145 -0.1450504661 0.1166866198 0.7679338455
0.1472506523 0.09883341193 0.7842119932 0.1468203664 -0.2721141875 0.8620920777
0.1676533818 0.07019850612 0.7958443761 -0.3989625573 0.419285953 0.7023732066
0.1692275703 0.07650800794 0.7964693904 -0.3835979998 0.3261835277 0.7099987864
0.1535202116 0.09289877862 0.7880591154 -0.01288029645 -0.09177927673 0.8212538958
0.1628817469 0.0792670697 0.7932268381 -0.2608724535 0.2252203226 0.7460337877
0.14470236 0.1108610779 0.7803303599 0.1971685439 -0.338907212 0.9118818641
0.1415560693 0.1164622381 0.7817183733 0.229873538 -0.312884748 0.9110817909
0.1688995808 0.07106692344 0.7791457772 -0.4145416915 0.4307661653 0.7732537389
0.1273810267 0.0962382555 0.7888483405 0.5082920194 -0.2829522192 0.7833721638
0.1348457038 0.106411621 0.7887448072 0.3744978905 -0.2675328553 0.8857104182
0.1262915432 0.109729737 0.7980144024 0.5383480191 -0.3050032556 0.7367432714
0.1310901046 0.1112124473 0.7958536744 0.4114825428 -0.3292507827 0.7843346
0.1392325461 0.1148140579 0.7926949859 0.1935774833 -0.3763351142 0.8622604609
0.1598046124 0.1031696871 0.7780386209 -0.01706932858 -0.4175260067 0.9056557417
0.1555654258 0.115260981 0.7888119817 -0.0263498351 -0.5393649936 0.8362221718
0.1602346748 0.1177890003 0.7914405465 -0.07528531551 -0.6017584205 0.793176353
0.1669547856 0.1025107428 0.7937528491 -0.2289046347 -0.2562796772 0.7582531571
0.1572856009 0.109104611 0.7889278531 -0.08166207373 -0.4184113145 0.8135351539
0.1669018269 0.1083664224 0.7932893634 -0.1863357872 -0.3966062963 0.7679170966
0.1597510129 0.1026686653 0.7892846465 -0.1264705658 -0.281431675 0.8009438515
0.1719706655 0.08190369606 0.7962116003 -0.3994881809 0.2197860628 0.711858511
0.162665233 0.09844807535 0.7920136452 -0.2110352516 -0.1626082957 0.7724558115
0.1684053391 0.08816342801 0.7944866419 -0.3251788318 0.07335072011 0.7358595729
0.1551037431 0.1131369621 0.7827441096 0.01153666712 -0.5149720907 0.8511803746
0.160299778 0.1092403308 0.7812629342 -0.008304797113 -0.4894843698 0.8685815334
0.1682335138 0.107299231 0.7805495262 -0.1334007978 -0.4486040473 0.8726363182
0.1756924987 0.1138745993 0.7848550677 -0.2334219962 -0.5574752092 0.7961496711
0.1699638963 0.1150532588 0.7847104073 -0.1798612028 -0.5554785728 0.8069114685
0.1571673304 0.1207489595 0.7857864499 -0.09939416498 -0.5720270872 0.8108334541
0.1640657187 0.1131580621 0.7830958366 -0.09573236108 -0.5244778991 0.840325892
0.1736881286 0.1223842725 0.7922982574 -0.2272662818 -0.6109640598 0.757856071
0.1625839323 0.1219341978 0.7882164717 -0.1482245624 -0.5903755426 0.7888932228
0.1831591576 0.09590516239 0.7839931846 -0.4434814751 -0.1022907943 0.8810511231
0.1783213913 0.09707094729 0.7805777192 -0.3141896427 -0.1972387582 0.9246582389
0.1809054762 0.1037215665 0.7832232118 -0.2912316024 -0.326803416 0.8959757686
0.1870678961 0.1033014953 0.7870453596 -0.4772294462 -0.2854787409 0.788146615
0.1817223281 0.1097565293 0.7846649885 -0.2899675667 -0.4245630801 0.8529148102
0.1800469011 0.07863811404 0.7818953991 -0.5783802867 0.3796749115 0.7123808861
0.1744775027 0.07191088051 0.7811256051 -0.5422961116 0.4911395609 0.6787660122
0.1793547869 0.06525010616 0.789452672 -0.4624289274 0.3758592904 0.7759453058
0.1814293116 0.0704927668 0.7871804237 -0.5313740373 0.3841668367 0.7325578332
0.1597934663 0.1299681067 0.8042833805 -0.05374951288 -0.6367248893 0.7688835859
0.1653395891 0.1291549951 0.8019565344 -0.1168697402 -0.6370001435 0.7605586052
0.163263157 0.1263995022 0.7920154333 -0.1558132768 -0.6045742631 0.7749267817
0.1559158564 0.1303630024 0.7964555025 -0.07448723912 -0.610335052 0.7864272594
0.1672739089 0.125402391 0.7978591323 -0.1446499079 -0.6313627958 0.7595775127
0.1960404217 0.07150815427 0.8076232076 -0.5475317836 0.1535592377 0.8098768592
0.2168711424 0.0479317829 0.8213843107 -0.6782475114 0.1838815957 0.6855316162
0.2215965241 0.04772866517 0.8276062012 -0.6903463602 0.2755944729 0.6596761346
0.2091109753 0.05000499263 0.8150255084 -0.6694586873 0.1089180484 0.7240821719
0.2080355734 0.05616851151 0.8138415217 -0.6567151546 0.01341178548 0.7441800833
0.2029727548 0.0646314472 0.8098963499 -0.6487841606 0.02612788603 0.7580059767
0.192467168 0.05931685492 0.808206737 -0.5758607388 0.28566733 0.7537317872
0.199953422 0.05351471901 0.813847363 -0.6231176257 0.2810021043 0.7086617351
0.179583773 0.06003416702 0.8049170375 -0.4693768024 0.3545758426 0.7954550982
0.1975813508 0.04811604321 0.8178716302 -0.5920026898 0.3954410553 0.6799089909
0.1841963381 0.05038363114 0.8130987287 -0.484187305 0.4324257076 0.7348034978
0.1908491701 0.04917330667 0.8155323863 -0.5375656486 0.4148934186 0.7071272731
0.1848010868 0.05545444041 0.8095014691 -0.502091229 0.3779115379 0.7566666603
0.192312941 0.05464593694 0.8118380308 -0.5637678504 0.352414608 0.7280430198
0.1795585155 0.05426296964 0.8091648221 -0.45462358 0.4136402011 0.768381536
0.2029814422 0.04947327822 0.8181226254 -0.6412240863 0.3573112488 0.6684536338
0.1868346035 0.06184479594 0.8052626848 -0.5354377627 0.3034982681 0.7800184488
0.1863909215 0.01801100932 0.8138471246 0.03478674591 0.6164482236 0.777900219
0.1840302348 0.03594711423 0.8232722282 -0.1661957204 0.4203750491 0.7395718694
0.1688420773 0.03898948804 0.8160076141 0.1419435889 0.4075563848 0.8354675174
0.1730839461 0.05037796125 0.7953613997 -0.1046183929 0.3875520229 0.8621838689
0.1662226915 0.03015399538 0.8088669777 0.2758745253 0.4509272277 0.8475050926
0.162654385 0.03566642106 0.809851408 0.2845365107 0.4021407068 0.8691480756
0.1757927388 0.03280850127 0.8038210869 0.1632510871 0.350876987 0.917589426
0.1821574122 0.03403731063 0.803468287 0.05445794389 0.3010219336 0.947003901
0.1730262488 0.04498904571 0.7998633981 0.03262338787 0.3367227316 0.9167698622
0.1730802059 0.03763563931 0.8006045222 0.1028662771 0.3684020042 0.8980870843
0.1685323864 0.04601806402 0.794598341 -0.05927186459 0.4821371138 0.8128657937
0.1662790328 0.04063335434 0.7998799086 0.1252334267 0.443561554 0.844114244
0.1612727493 0.0488323234 0.7924485207 -0.01851004735 0.5687535405 0.7598088384
0.1682324558 0.03608809784 0.8044371009 0.2169180065 0.3783718348 0.8869227767
0.1790611744 0.03864520043 0.8022903204 0.09032278508 0.262563169 0.9536046982
0.1715533137 0.03032856062 0.8061980009 0.2211871594 0.4140184522 0.8768713474
0.1210089326 0.09531731904 0.7923377156 0.6041533351 -0.2350227535 0.7364299297
0.1104520708 0.09116603434 0.7956007719 0.738901794 -0.2235660255 0.630687952
0.1142043248 0.09396570921 0.7921860814 0.668289423 -0.278260529 0.6877095103
0.1152763963 0.08140317351 0.7962812781 0.7091187835 0.01793406717 0.6478782296
0.1196999177 0.08865626901 0.7924449444 0.6279389858 -0.1054671258 0.7214159966
0.1155651808 0.07708185911 0.7918966413 0.6943552494 0.1426624954 0.6881933808
0.1175356284 0.08500672132 0.7877587676 0.6516267061 -0.1037127823 0.7503716946
0.1103351489 0.0688823387 0.7995254993 0.786177218 0.1994641125 0.5827050209
0.112494953 0.07377155125 0.7954624891 0.7482888103 0.1866954714 0.6339105964
0.124516584 0.1037706733 0.7947112322 0.5835250616 -0.3178278506 0.7383106351
0.1302959621 0.1022572815 0.7894512415 0.4558164477 -0.3417214751 0.8180452585
0.1463720053 0.1059591994 0.7827255726 0.1955799013 -0.407732904 0.8888424635
0.1530197114 0.1069953293 0.7814065814 0.1062988862 -0.4634087682 0.8767409325
0.1441301107 0.1127190366 0.7882170081 0.1088939384 -0.3934443295 0.9077812433
0.1402673274 0.1068460941 0.7861644626 0.2778607309 -0.3375033438 0.8914852142
0.1798167676 0.1160423085 0.7879269123 -0.3037957847 -0.5145138502 0.7843701243
0.1944520473 0.1002964303 0.8103172183 -0.5877178907 -0.152346313 0.6783813834
0.1844551265 0.1120938361 0.8024924397 -0.4164580405 -0.3766345084 0.7129637599
0.1924396753 0.1018166468 0.7974764705 -0.6998662949 -0.21866557 0.622969389
0.1876848489 0.105457224 0.7996535301 -0.5321362615 -0.305090636 0.6764978766
0.1890736371 0.106058456 0.794359982 -0.6496753097 -0.2962510586 0.6313862801
0.1773694158 0.1196073964 0.7962480187 -0.3010342419 -0.533904314 0.7350632548
0.1848105043 0.1106734946 0.7922730446 -0.5583683252 -0.3876123726 0.6539877057
0.190574035 0.1055963412 0.8051708937 -0.552228868 -0.246669203 0.6784934998
0.1996513903 0.09625595063 0.8138307333 -0.6924257278 -0.04484462738 0.6534082294
0.1811781675 0.1149260551 0.7932727337 -0.4448491037 -0.4606512189 0.6884239912
0.1664124131 0.1168455258 0.7921898961 -0.12213438 -0.6000962853 0.7849008441
0.1794710606 0.1080927327 0.7962821126 -0.3424532115 -0.3924362659 0.7390394807
0.1860900223 0.09968585521 0.8001856208 -0.4851552844 -0.1966272742 0.7128952742
0.1736512184 0.1161528453 0.7919638753 -0.2283528894 -0.5790102482 0.7551708221
0.1913325489 0.0935491994 0.8025852442 -0.6070662737 -0.05279035866 0.6868317723
0.2024556994 0.07128790021 0.8067762256 -0.671361804 -0.02319051884 0.7304487824
0.1977630854 0.0781731829 0.7976688147 -0.6831305027 0.08801012486 0.7094591856
0.1970931739 0.0848871693 0.7978535891 -0.7280911803 0.03534827381 0.6796364188
0.1996139884 0.08180460334 0.8026183844 -0.7328009605 0.008633475751 0.6780368686
0.193315953 0.08570688218 0.7893773317 -0.7001651525 0.1703428477 0.6875646114
0.1888770759 0.08293857425 0.7856007814 -0.6629303098 0.2841615379 0.6866483688
0.1835496873 0.08482445776 0.7829156518 -0.5995953083 0.2914445698 0.7354579568
0.1786324531 0.08796512336 0.7803961039 -0.465764612 0.1164506525 0.8438911438
0.1849263012 0.09043514729 0.7833460569 -0.505787015 0.03240640834 0.8115979433
0.1894539595 0.09216669947 0.7870432734 -0.6422797441 0.04717190564 0.7462589145
0.1953870207 0.05746867135 0.8025125861 -0.3582677245 -0.0003947565856 0.9237679839
0.1986478418 0.06817837059 0.8013067245 -0.5704869032 0.007901058532 0.795517087
0.1930885464 0.07378104329 0.7929853797 -0.5436516404 0.1324464679 0.7912193537
0.1917999685 0.0651627928 0.7959071398 -0.4455662668 0.1257674545 0.8446637988
0.1906584501 0.07789578289 0.7891571522 -0.6022882462 0.2184907049 0.735855341
0.19347094 0.06503233314 0.8042916059 -0.4804716706 0.131796509 0.8627433181
0.1901446432 0.05922396854 0.7988947034 -0.3743470907 0.1299754977 0.8918049335
0.1872193813 0.06911274046 0.7909162641 -0.5085716248 0.2658731043 0.7748801112
0.1840213835 0.07636184245 0.7848320603 -0.6085291505 0.3895510435 0.6856520176
0.1845300198 0.06414046884 0.7939978242 -0.4472499192 0.2925309241 0.8197940588
0.1855256408 0.05589113757 0.8003305197 -0.3374204636 0.2121492028 0.912514925
0.18101722 0.02597877942 0.807620585 0.1553433239 0.4883842766 0.8566457629
0.1742857546 0.02239279449 0.8110160232 0.2501920462 0.5379661918 0.8039687276
0.182304889 0.02093506418 0.8113703132 0.1203997657 0.5680416226 0.8086002469
0.1739671677 0.01679796353 0.8159310222 0.2495241612 0.6013062 0.7589063048
0.1685962677 0.02364499867 0.8120291233 0.2725162208 0.5252479911 0.8037207723
0.1704804748 0.0589261502 0.8040761352 -0.4180572331 0.4787637889 0.7656016946
0.2033950686 0.05844644457 0.8077257276 -0.5956688523 -0.03803506866 0.8006099463
0.2050713897 0.04698567092 0.8104578853 -0.6233140826 0.1585157365 0.7622569799
0.1962185353 0.04919013381 0.8032996655 -0.3354920447 0.078418836 0.926661551
0.2003221959 0.05459472537 0.8055150509 -0.4950837195 0.004390644841 0.8575675488
0.2021865249 0.04468993098 0.8060048819 -0.5762364864 0.1658590585 0.7990804911
0.1952731758 0.04310274869 0.8032250404 -0.2652167976 0.1545141041 0.9453381896
0.1922726333 0.03840866312 0.8032522798 -0.2063778788 0.2438777089 0.9389847517
0.1865645498 0.03919426352 0.8025161028 -0.05118935555 0.2356496155 0.9636412859
0.1897447258 0.05094687641 0.8016366959 -0.291810751 0.1671782732 0.9377244711
0.1896325946 0.04556604847 0.8019528985 -0.1399524063 0.152118355 0.9703836441
