# .PCD v0.7 - Point Cloud Data file format
VERSION 0.7
FIELDS x y z normal_x normal_y normal_z
SIZE 4 4 4 4 4 4
TYPE F F F F F F
COUNT 1 1 1 1 1 1
WIDTH 512
HEIGHT 1
VIEWPOINT 0 0 0 1 0 0 0
POINTS 512
DATA ascii
0.12964499 0.1107514575 0.6075467467 -0.509586513 -0.136055097 0.8082337379
0.01602239907 0.04993117601 0.7005109787 0.551589787 0.5922929645 0.552567482
0.1790004969 0.05493118614 0.6437619328 -0.7054117918 0.2887409031 0.6398014426
0.1718090475 0.05306013674 0.6400230527 -0.6717696786 0.2863251567 0.6700171232
0.1612474918 0.04350705445 0.635163784 -0.386406213 0.4673078358 0.7594178319
0.1618691683 0.05480210111 0.6288865209 -0.5850164294 0.2258152515 0.770878315
0.1644919962 0.05330948159 0.6335992217 -0.5766199231 0.2861018181 0.7384659052
0.1589362472 0.04759429023 0.6298743486 -0.4135217667 0.378734827 0.7956098914
0.1649633497 0.04698739573 0.638359189 -0.4676999152 0.4327313602 0.7230392694
0.1753866225 0.05318208411 0.6479752064 -0.7067944407 0.3483139873 0.6071745753
0.170241192 0.04877027497 0.6434977055 -0.5919851661 0.3956432939 0.6592342854
0.08234425634 0.08161509037 0.6043262482 0.3788247108 0.2654846311 0.8809918165
0.08478188515 0.07663874328 0.6054319143 0.3225151002 0.3398516774 0.8813081384
0.1079889387 0.08015620708 0.6236214042 -0.1744804829 0.1537330002 0.882735014
0.09637925029 0.0789675191 0.6174831986 0.0808339417 0.2128448486 0.8601129651
0.1016738266 0.07933060825 0.6202975512 -0.03401613981 0.1879358441 0.8695105314
0.06353218108 0.07233106345 0.6247560978 0.643542707 0.285820961 0.7095708847
0.06236473843 0.06794883311 0.6307983994 0.6392671466 0.282363236 0.7151803374
0.07021802664 0.06431728601 0.6237958074 0.6026751399 0.3378283381 0.722561121
0.02038821578 0.05823939294 0.7005010843 0.7017992139 0.4312416017 0.5491611362
0.01947391964 0.04537132755 0.6992844343 0.4933049083 0.6589109302 0.562538147
0.01762478985 0.03800997138 0.7035528421 0.4006102383 0.7209397554 0.5643348098
0.1014878526 -0.01888600551 0.7249251008 0.2201689631 -0.3711009324 0.9021140337
0.09605821222 -0.01805315167 0.7263786197 0.1835839748 -0.2193216383 0.921094358
0.06403428316 0.1169209629 0.6190853715 0.4763950109 -0.25990206 0.8352459669
0.06674534827 0.1065604612 0.6127410531 0.5624719858 -0.2254314274 0.7904503345
0.1780058146 0.04083545879 0.6660147905 -0.6638285518 0.5226035714 0.5048177242
0.176668033 0.04776513577 0.6532387137 -0.7112669945 0.4002443552 0.5659646988
0.1782036871 0.03468156978 0.6748729348 -0.6250038147 0.6132856011 0.4644989371
0.1765021831 0.05998206511 0.6480022669 -0.6929537654 0.2339107543 0.668112874
0.1816159785 0.03891674802 0.670537889 -0.6580645442 0.5656141043 0.4705614448
0.1807834953 0.04700948671 0.6565738916 -0.7246797681 0.4270367026 0.5222235918
0.1813693792 0.04416814446 0.6614379287 -0.7022517323 0.4766499996 0.5019273162
0.1572303623 0.06354949623 0.6223779321 -0.4615281522 0.06240543723 0.8789613247
0.1604698747 0.05996252969 0.6249222755 -0.5387202501 0.13525711 0.823611021
0.1725120693 0.02546675317 0.6719976068 -0.4994110167 0.6782954335 0.5044202805
0.1590734422 0.02586637996 0.652710557 -0.346298784 0.6597654819 0.6406530738
0.1562592238 0.02681160532 0.6473862529 -0.3202747405 0.6441636682 0.6752471924
0.1700133234 0.02635494806 0.6663445234 -0.4775396585 0.6576352119 0.5399453044
0.1633568257 0.02613722533 0.6570184827 -0.3991964757 0.6512820721 0.6065558791
0.1583173722 0.03260463849 0.6430279016 -0.384306252 0.564045608 0.6870478988
0.160207063 0.03861879557 0.6387361288 -0.3528159261 0.540750742 0.707123518
0.1737721413 0.04767412692 0.6479628682 -0.6804717779 0.3853078187 0.6016955972
0.1541158557 0.03235530481 0.6371868849 -0.2433530986 0.6115323305 0.7377152443
0.1649598628 0.04203951731 0.6416761279 -0.463365525 0.4861773252 0.6720750928
0.1676849425 0.04151396453 0.6462975144 -0.5693804026 0.4559984505 0.6330234408
0.1565756053 0.02562806755 0.6584864259 -0.24318102 0.6426534653 0.6382952929
0.1571704596 0.02483849972 0.6653475761 -0.2034796923 0.6422376633 0.6134239435
0.1642028242 0.02769556083 0.6663199663 -0.3656883538 0.6499547362 0.5688745975
0.1411221325 0.01963272132 0.654489398 0.09860938042 0.6259886026 0.7419825196
0.1447383612 0.0196968019 0.644539237 0.08598184586 0.5971146226 0.7968758941
0.1472289264 0.02006127313 0.6508949995 0.02625032514 0.6163713336 0.7469818592
0.1621027738 0.02240216918 0.6672461629 -0.2589026392 0.6659628153 0.5894129276
0.1511432528 0.0206833221 0.6544088721 -0.04617854208 0.6270329356 0.7106434107
0.1517818719 0.02366423793 0.646217823 -0.1622382551 0.6304104924 0.7224827409
0.1516179889 0.02772610821 0.6395625472 -0.2297524512 0.6341066957 0.7327645421
0.1441948116 0.03280055895 0.6330400109 0.06997275352 0.6048075557 0.7926068902
0.1370292455 0.03322662041 0.6337948442 0.1430050433 0.6190036535 0.771017909
0.1436258703 0.02919009514 0.6375838518 0.0869223699 0.6001027226 0.7938872576
0.131687507 0.03275657073 0.6397644281 0.1826860309 0.60733217 0.7689267993
0.07801985741 -0.01086196676 0.7317510247 0.06177490577 0.396700561 0.9147335291
0.08312240243 -0.01395454071 0.731631875 0.07577446848 0.2553258836 0.9598181248
0.08380635828 -0.007429547608 0.7310200334 0.0762892589 0.250300765 0.9613669515
0.1296360493 0.04556442425 0.6281237602 0.1996904165 0.4607645571 0.8569341302
0.09175796807 0.07725545764 0.6031746268 0.1783785671 0.3170291483 0.9270467162
0.0896352008 0.08621069044 0.6003221869 0.2170467079 0.2333956212 0.9406440854
0.060023617 0.1217839122 0.6242152452 0.440232873 -0.2733817399 0.8551489115
0.06627888978 0.1327720582 0.621167779 0.3986786008 -0.3260338604 0.8567873836
0.1042373478 0.05688523129 0.6206157804 0.3721881807 0.353500843 0.8533513546
0.09030252695 0.06701102853 0.6103860736 0.2654315829 0.4015708268 0.8754298091
0.09219000489 0.06013540924 0.6192509532 0.4392850697 0.3713481128 0.8102779984
0.08833900839 0.05861185864 0.6243212223 0.5318624973 0.3329106867 0.7710589767
0.08450257778 0.06363963336 0.616168201 0.4410877526 0.3932852149 0.7984836102
0.09814747423 0.05855670199 0.6193464398 0.406101346 0.3714856505 0.8309682012
0.06117863208 0.07778182626 0.6249454021 0.6780462265 0.231544435 0.695920527
0.06649240851 0.07465647906 0.6186681986 0.6290860772 0.3155363798 0.7098617554
0.06966340542 0.06828269362 0.6201681495 0.5871318579 0.3546806574 0.7257750034
0.07456500083 0.06577628851 0.6174524426 0.544788301 0.3815848827 0.7455291748
0.1073789671 0.001132500824 0.7313213944 0.2258396 -0.36589849 0.9027073979
0.09764155 -0.009385193698 0.7314980626 0.2201689631 -0.3711009324 0.9021140337
0.01924918592 0.02737781778 0.7083328962 -0.1617478132 0.2866221964 0.944290936
0.02503592707 0.02139874175 0.711009264 -0.1617478132 0.2866221964 0.944290936
0.03229070455 0.01918053068 0.7122802734 -0.1617478132 0.2866221964 0.944290936
0.1045034155 0.1138382629 0.5998954773 -0.07765184343 -0.2985957861 0.9507356882
0.08207923919 0.121293515 0.6176231503 0.3831220567 -0.4152052104 0.8214353919
0.07678370923 0.1187218875 0.6200708747 0.4360397458 -0.3382116556 0.8275130391
0.09510237724 0.08270180225 0.6005580425 0.1021947637 0.2754666209 0.9544233084
0.1020796746 0.09112618864 0.5982183814 -0.04563193396 0.1571168154 0.9836785197
0.1221555471 0.07305572182 0.6114361286 -0.1509093344 0.3418987989 0.8381955624
0.1213106066 0.08779977262 0.6047670245 -0.4783891737 0.3245521784 0.7957279086
0.1238926798 0.07867979258 0.6093856096 -0.2494713515 0.2891005576 0.8383647799
0.1186500639 0.07962055504 0.6077170372 -0.3367655575 0.4043470621 0.7944151759
0.1720914692 0.0695368126 0.6432083249 -0.6660562754 0.08994952589 0.732416451
0.168460995 0.06474036723 0.6384718418 -0.655662477 0.1476060599 0.7243468165
0.1704064608 0.05942081288 0.6406415105 -0.6723868847 0.2329177856 0.6848615408
0.1238207147 0.1127380431 0.6056351662 -0.3329752088 -0.2175883949 0.9019014835
0.1188725755 0.1095214859 0.6031394005 -0.2809103727 -0.2035312504 0.9351319075
0.1098680645 0.09925437719 0.5991701484 -0.1683180779 -0.01847171597 0.9810244441
0.1108010486 0.0939213708 0.6006818414 -0.1756826043 0.05968822539 0.9801777005
0.1108322069 0.1057040989 0.5993176103 -0.1873075813 -0.1401423961 0.9665643573
0.09387113154 0.1154220104 0.6022559404 0.273760587 -0.4291284382 0.857132256
0.1029511318 0.1071050689 0.5983721018 -0.05856149644 -0.163797006 0.9767984152
0.1150541753 0.0008219425217 0.7310702801 0.2375239879 -0.3642957211 0.8996971846
0.1244448721 -0.0034821718 0.7279028893 0.2893525362 -0.3743487 0.878405273
0.1773048639 0.0160126444 0.6935975552 -0.4290943742 0.7881453037 0.4186223149
0.1732336581 0.01179751847 0.6961768866 -0.3202456534 0.8438397646 0.4094037712
0.1180616543 -0.009156937711 0.7194390297 0.2448563129 -0.348451972 0.904697299
0.1133422405 -0.01381458621 0.7216710448 0.2270158678 -0.3648193479 0.9028304815
0.1075745448 -0.01562367193 0.7229304314 0.2277781218 -0.3641200364 0.9029102325
0.1117698848 -0.005335264374 0.7291912436 0.2201689631 -0.3711009324 0.9021140337
0.1151497215 -0.009125723504 0.7255711555 0.22836335 -0.3715325296 0.8992841244
0.1213040799 -0.008899336681 0.7252694368 0.2719464004 -0.3738279641 0.8842328787
0.1298082918 -0.01096313633 0.7230626941 0.3292351365 -0.3768452704 0.8644484878
0.1181425154 -0.004307925701 0.7289696336 0.2553715408 -0.3729549944 0.8899569511
0.1155364364 -0.001095815096 0.7244619727 0.2376496792 -0.3560984433 0.9034753442
0.1082231104 -0.005904503167 0.7248033881 0.2198128849 -0.3726463914 0.9015257359
0.06981512904 0.1120010018 0.6206810474 0.5373949409 -0.2355906963 0.8036161065
0.06566805393 0.1081014201 0.6222077012 0.6147529483 -0.1792834848 0.7557558417
0.0753102079 0.1131915003 0.6089721918 0.4665744901 -0.335922271 0.8078563809
0.08434444666 0.1113952547 0.6039028764 0.4366012514 -0.4090106785 0.7980811596
0.07008087635 0.1040333286 0.6086568236 0.5764651299 -0.2337769121 0.7762768865
0.07132478058 0.1171410456 0.6122145653 0.4511476159 -0.3222049773 0.8236970305
0.07652126253 0.1041712239 0.6063343883 0.5487287045 -0.2724812925 0.7849259377
0.06653347611 0.1126623079 0.614672482 0.5109017491 -0.2510666251 0.8142338395
0.0668778345 0.1208971143 0.6156342626 0.439806819 -0.3030769825 0.839027524
0.06233631074 0.1261225641 0.6213336587 0.4133015275 -0.3088739812 0.8559569716
0.07749160379 0.1289852411 0.6139250994 0.3734570742 -0.3988026381 0.8369179964
0.07947275043 0.120451957 0.6109598279 0.4023984969 -0.4051226377 0.8203573823
0.0863039121 0.1274951845 0.6108794808 0.2961933315 -0.4720407128 0.8236823082
0.08914641291 0.1189302206 0.6061663032 0.3322279155 -0.47548002 0.806445539
0.07342146337 0.1223901138 0.6137587428 0.402284801 -0.3684541285 0.8366485238
0.07019095123 0.1315026581 0.6172540188 0.3844331503 -0.3618741035 0.8486692905
0.1212182194 0.04351997375 0.6325631738 0.3418032527 0.4286310077 0.8146514893
0.1270385683 0.0408160761 0.6315146685 0.1992168128 0.552767694 0.8039774299
0.1361701488 0.0382915251 0.6297250986 0.1380708665 0.5681552291 0.8104304075
0.1486689597 0.03883839399 0.6297553778 -0.04733718187 0.5438351631 0.8226878643
0.1419437528 0.03844274208 0.6289886832 0.09347544611 0.5523143411 0.8278695941
0.1357260495 0.04462249577 0.6258121729 0.1397569329 0.4818028808 0.8641884327
0.1321880519 0.03717181087 0.6353968978 0.1732756346 0.5830360651 0.7880985141
0.1530286819 0.04395530373 0.6271653771 -0.1030557975 0.4540409148 0.8827858567
0.1572846174 0.05368587002 0.6254851818 -0.4213240445 0.2423844635 0.8505078554
0.1493170261 0.05342155322 0.6224976182 -0.1516688317 0.2829326987 0.9343244433
0.1511482298 0.04953106865 0.6264887452 -0.2334432453 0.3505659103 0.8392578363
0.1451777369 0.04828105122 0.6262308955 -0.1100532487 0.387961328 0.8428987265
0.1383233517 0.0242438782 0.6451249719 0.1626927704 0.6208058 0.7663470507
0.1371296197 0.02797914669 0.6388249993 0.1472466439 0.6175736785 0.7717344761
0.1419965923 0.02397815324 0.6412242055 0.1067109481 0.6045132279 0.7882298231
0.1393032521 0.01937895268 0.6490225792 0.1483860314 0.6177206635 0.7714551091
0.1476712972 0.02481836639 0.6429126859 -0.08179602772 0.6291586161 0.7460420132
0.0951429531 -0.01188050769 0.7273619175 0.2067227662 -0.3153170347 0.9090899229
0.1021268442 -0.008720746264 0.7261208892 0.2201689631 -0.3711009324 0.9021140337
0.1026663855 -0.002438630443 0.7298012972 0.2201689631 -0.3711009324 0.9021140337
0.09672123194 0.1073682085 0.5986015797 0.09861510992 -0.2052462101 0.968465209
0.09884158522 0.1018982008 0.5980589986 0.0320867002 -0.06554760039 0.9860131741
0.09552013874 0.0950627476 0.5977306962 0.09728298336 0.07841721922 0.991527915
0.09317620099 0.1023134738 0.5984757543 0.1706421077 -0.09394784272 0.9750465751
0.09243164212 0.07162158936 0.6062731147 0.1819405705 0.3756800294 0.9066502452
0.121146284 0.05464476347 0.6310189366 0.1350788176 0.3857903779 0.8722345233
0.1198988855 0.06984648108 0.629894793 -0.09497842193 0.2754416764 0.9303957224
0.1214409545 0.06017135829 0.6305135489 0.03095319681 0.3523794115 0.8961855769
0.1225306392 0.03871751204 0.638141036 0.2801555097 0.5489900708 0.7743073106
0.0734943971 0.1122555658 0.6157420278 0.541787982 -0.2810458541 0.7915890813
0.08503591269 0.103449285 0.6163039207 0.3286934197 -0.2166154385 0.8058874011
0.1000756174 0.09429842234 0.6221986413 0.002623959677 -0.09026473761 0.8474536538
0.09107366949 0.1035117432 0.6185826659 0.1940722615 -0.2210169137 0.8274787068
0.1124995127 0.08549689502 0.6270973086 -0.265496701 0.03243929893 0.8801597357
0.08287185431 0.1090264544 0.6153556705 0.3713704646 -0.2976581454 0.8054990768
0.08223962784 0.115800418 0.6149578691 0.3787170649 -0.3972422183 0.8121388555
0.08535059541 0.0911423713 0.6011198163 0.3065589368 0.1228257939 0.9394437075
0.09084478021 0.1075462624 0.5996900797 0.2664943635 -0.2546881139 0.923119545
0.08186928928 0.106005393 0.6038199067 0.4599133432 -0.2671962976 0.8367446661
0.08591712266 0.1035143435 0.6007853746 0.3458813727 -0.1413076818 0.9222434759
0.08710423857 0.09798774868 0.5999631882 0.28491804 0.002147272695 0.9566184878
0.05816806853 0.09190611541 0.6232358217 0.7557382584 0.03298220411 0.6431103349
0.05553983152 0.0783592239 0.6313631535 0.7106854916 0.1925703436 0.6746208072
0.05980833247 0.07343480736 0.6296465397 0.6663200259 0.2593436241 0.6983264089
0.07102648169 0.07595672458 0.6139600873 0.5898589492 0.334587276 0.7309851646
0.06678844988 0.08186032623 0.6149283051 0.6612021327 0.231991604 0.7071354985
0.0295642335 0.03523172066 0.7037514448 -0.05025301501 0.3474390209 0.880423367
0.01605388522 0.05509506539 0.6982650757 0.6771230698 0.4663275778 0.5529111624
0.0284240935 0.02573576383 0.7084640265 -0.1617478132 0.2866221964 0.944290936
0.02627090365 0.01589079946 0.7133232951 -0.1617478132 0.2866221964 0.944290936
0.02444983087 0.03267717734 0.7052028179 0.1424792856 0.5695436001 0.7382238507
0.02291525714 0.04309511557 0.7028348446 0.4662380517 0.6031239033 0.5927514434
0.02540067583 0.04843189567 0.7019572258 0.4292059839 0.3792659938 0.6775172353
0.08060409129 0.1381793469 0.621483922 0.3225245476 -0.4131350517 0.8499001861
0.0750381127 0.133741945 0.6163971424 0.3622945547 -0.3872526586 0.8474846482
0.06287017465 0.1307315528 0.62561059 0.4024652839 -0.3097447157 0.8605969548
0.114730835 0.08629184961 0.6034525037 -0.4428152442 0.464545846 0.7468449473
0.1427639127 0.05171665549 0.6214808226 0.02372638881 0.3414845765 0.9320867062
0.1425884515 0.06175669655 0.6186036468 -0.007213987876 0.1536591351 0.9852288961
0.1309021562 0.07758060098 0.6109178662 -0.267593354 0.2169227004 0.8853455782
0.1333564818 0.07002758235 0.615426302 0.05300709233 0.1009704247 0.9341771007
0.1405287236 0.06754365563 0.6170663834 -0.06424000114 0.1113530099 0.9750494361
0.1280030608 0.06813336909 0.6144303679 -0.02340457961 0.262429148 0.890427947
0.1332027614 0.0628271848 0.6167736053 0.04175944254 0.2448659539 0.9311848283
0.1241564751 0.06791057438 0.6259611845 0.07757703215 0.1809423566 0.9393289685
0.128506422 0.0662041232 0.6227508783 0.1913821101 0.1075214744 0.9493750334
0.1248857677 0.06157979742 0.6253749132 0.238518104 0.2001574636 0.9161401391
0.1225708574 0.1035334319 0.6046646833 -0.526040554 0.03097251989 0.8294587731
0.1175862998 0.1012376323 0.6021347642 -0.368809849 0.003878416261 0.8982863426
0.1325531602 0.1162926406 0.6242015362 -0.417919755 -0.2042263746 0.8108310699
0.14227359 0.112440452 0.6339327693 -0.584600389 -0.1013558209 0.7743480206
0.1372119486 0.1137767211 0.6288326383 -0.5025942326 -0.1435195655 0.7940150499
0.1290885657 0.1242982 0.6210587025 -0.3110869825 -0.3538348377 0.8172035217
0.1399889886 0.1080498397 0.631385684 -0.5832924247 -0.03535039723 0.7882174253
0.1350382119 0.1215004474 0.6221311688 -0.5698100924 -0.2894902527 0.7223499417
0.1395428777 0.1188128665 0.6275051236 -0.6248091459 -0.2253093123 0.7199803591
0.1314436644 0.1231402531 0.6163473129 -0.5759818554 -0.3339571357 0.7026746273
0.1835309267 0.06532140076 0.6445400715 -0.6912595034 0.1113435254 0.6953493953
0.1831017733 0.05629117042 0.6473587751 -0.7260867953 0.2860915065 0.6212934256
0.1822192222 0.07084727287 0.6445062757 -0.6940820217 0.005900726654 0.7055894136
0.166342631 0.06435836852 0.6280324459 -0.5818368793 0.08235565573 0.8062128425
0.1737520844 0.06259166449 0.6355797648 -0.6206906438 0.1295482665 0.7699522972
0.1700665206 0.05748124048 0.6344322562 -0.6293240786 0.2032490075 0.7430332303
0.1769033521 0.05998471007 0.6395015717 -0.652988255 0.1856486946 0.72613585
0.1305289865 0.09977655113 0.6079999208 -0.5826356411 0.08088051528 0.7767122984
0.1293756068 0.09369189292 0.6092085838 -0.459754318 0.08326092362 0.8320456147
0.1378479451 0.09110425413 0.614849627 -0.3179155588 -0.09944164753 0.8805266023
0.1358982176 0.09666547179 0.6120266318 -0.4602486789 -0.04004537687 0.8215916753
0.1255078465 0.09660648555 0.6061010957 -0.5627943873 0.1727242917 0.7932362556
0.1410625279 0.08675570786 0.6178991199 -0.1952790767 -0.1733312458 0.9261321425
0.1765496433 0.06632672995 0.6467747092 -0.6598829627 0.1055440754 0.7410023212
0.1107428893 0.1154898405 0.6019064784 -0.1844133437 -0.318233043 0.9259261489
0.112461336 0.1209654808 0.6051110625 -0.1900505424 -0.3568146229 0.9121722579
0.105307959 0.1203580126 0.6033293605 -0.009494431317 -0.4389114082 0.8831615448
0.1001755297 0.1185659468 0.6028832793 0.1400962472 -0.4516046047 0.8661053777
0.09593254328 0.1228894144 0.6067584157 0.2266986519 -0.5459443331 0.8061417341
0.1341807246 -0.004263274372 0.7229542732 0.340185076 -0.2078729868 0.8839629292
0.1532915533 -0.003789689159 0.7157440186 0.3090681434 0.3887356222 0.8514463305
0.137210831 -0.009200043976 0.7223415375 0.3457531035 -0.1880072951 0.8653193116
0.177790612 0.03128074855 0.6798885465 -0.5901192427 0.6651864648 0.4461908937
0.1492430419 0.02078890614 0.6629227996 -0.05172792077 0.6479709744 0.6663628221
0.1707320511 0.02342086472 0.6847779155 -0.4631280601 0.713075757 0.4670138955
0.1605365872 0.02315396443 0.6727149487 -0.2667962313 0.6724637151 0.5678630471
0.1659607738 0.02496139333 0.6762595177 -0.3693099916 0.6775774956 0.5248413086
0.1709308922 0.02846731618 0.6763162017 -0.461089164 0.6639447808 0.4972298443
0.1700020134 0.02169176377 0.6795166731 -0.405911535 0.7085532546 0.4927282631
0.1753674001 0.02041502669 0.6861105561 -0.4931617975 0.7344736457 0.4426871836
0.1561390013 0.01979342289 0.6730439067 -0.1795737892 0.6906712651 0.5884833932
0.1653408408 0.01650235243 0.6890822649 -0.2718699276 0.8128234148 0.4444777668
0.1622582674 0.02042976767 0.6794871092 -0.2991746664 0.709015429 0.5317866206
0.1765441895 0.0273127351 0.6849135756 -0.5651682615 0.6981847286 0.435212642
0.1814927012 0.02335291915 0.6872724891 -0.5545203686 0.7102765441 0.4288648367
0.1819966435 0.0275370013 0.6823495626 -0.6019431949 0.6731151342 0.4276048243
0.1586456448 0.01536293048 0.6826097965 -0.1333758086 0.8002465367 0.5026451945
0.1445654631 0.01823525131 0.6597877145 0.05362783372 0.6498265862 0.7052122355
0.1643223912 0.009692118503 0.6925614476 -0.1857332885 0.833286047 0.4820430279
0.1701338887 0.01751970872 0.6855155826 -0.3745904267 0.750333786 0.4745723307
0.1526599675 0.01857938245 0.6670117974 -0.08847542852 0.6740894318 0.6354061365
0.1618914306 0.01130087208 0.6876291037 -0.162668556 0.8033298254 0.5126393437
0.1534967571 0.01298329886 0.6768462658 -0.03865601867 0.7511651516 0.596506834
0.1644915938 0.01591255143 0.6826863289 -0.259875387 0.7515251637 0.5155385733
0.1479313821 0.0149103282 0.6683879495 0.03426288813 0.7058350444 0.6566743255
0.1696148515 0.01348873228 0.6915214062 -0.319557339 0.8018590808 0.4564947784
0.06297559291 0.08977238089 0.619299233 0.6949577928 0.09269542247 0.6982145309
0.06153814122 0.08396333456 0.6206164956 0.6982670426 0.1775246114 0.6892436743
0.05845468491 0.09676203132 0.6253018379 0.7329628468 -0.02226917446 0.6702792645
0.05513393134 0.08727864176 0.6287676096 0.7466486096 0.08387193829 0.653719902
0.0588455461 0.1098287404 0.6255759001 0.6244719028 -0.1498514563 0.7354514003
0.05978009477 0.1161007807 0.62429142 0.5142484903 -0.2258934379 0.8106404543
0.1279594004 0.02967686392 0.645244658 0.2171131372 0.6160209775 0.7565667629
0.1250752062 0.0341148451 0.6418563128 0.235186249 0.6115914583 0.7550781965
0.1328457594 0.02619298548 0.6425614953 0.1733491868 0.6235735416 0.7622331381
0.1332520396 0.02292751148 0.6483983397 0.1798618883 0.6241396666 0.7602918148
0.09124752134 -0.01043491904 0.7316288352 0.1647482514 -0.1411783844 0.9308663011
0.09817292541 0.0001752020908 0.7334679365 0.2109792829 -0.332975924 0.9068816304
0.09056645632 -0.004041559529 0.7320907116 0.130413413 0.001265792525 0.9486792088
0.1227394566 0.05572185665 0.6251542568 0.3738346994 0.2436637878 0.8809204698
0.1206434742 0.05968508497 0.621938169 0.2391763479 0.2988554835 0.8567300439
0.1060671285 0.06781464815 0.6129823923 0.078544043 0.4022715986 0.842040658
0.1148668677 0.06160046905 0.6202785969 0.2104282528 0.322035253 0.8497214317
0.1125326008 0.06697756052 0.6154226065 0.03263910115 0.3967562616 0.8222687244
0.109090209 0.06047652289 0.6195644736 0.3231325448 0.3001368642 0.8801457882
0.1082636416 0.07323830575 0.6093405485 -0.1556633711 0.4822017848 0.7964166403
0.09612109512 0.06669098139 0.6111223698 0.2413575798 0.3763024211 0.8887581229
0.1140394062 0.05225273967 0.625678122 0.3939625621 0.3106327653 0.8615319133
0.1011177376 0.06217451021 0.6164655685 0.3154720664 0.3424047828 0.8778538704
0.09636464715 0.05740505457 0.6252141595 0.5053080916 0.3056551218 0.7976067662
0.1184395254 0.04960604385 0.6286257505 0.4222046733 0.2905687988 0.8580317497
0.07714247704 0.06242215261 0.6228512526 0.5775279999 0.3388892114 0.7390677333
0.1086224914 0.05193543062 0.6274988055 0.4590694606 0.3101805151 0.827357471
0.1014025062 0.05536263436 0.6260827184 0.4863211811 0.3051865399 0.8105202317
0.1087788045 0.06415639073 0.6269691586 0.2396944016 0.2593587637 0.8701101542
0.08314877003 0.06477300823 0.6237650514 0.4639306664 0.3208370507 0.7709985375
0.100041382 0.06572625786 0.6260834336 0.2757847011 0.281180948 0.841108501
0.1063664183 0.05876611546 0.6258397698 0.4224997461 0.2616835833 0.8416031003
0.1143376529 0.06659667194 0.6280552149 0.1146664321 0.247660324 0.9006669521
0.08946149796 0.06669621915 0.6248695254 0.347114861 0.307013303 0.8027143478
0.1156097651 0.05974454805 0.6271777749 0.305991292 0.2402746975 0.8815741539
0.1033180431 0.07017407566 0.6271808743 0.112771742 0.2761974335 0.8697134852
0.09087243676 0.08430557698 0.6141598225 0.1635868251 0.1621409804 0.8734660149
0.07931375504 0.08616185933 0.6078432798 0.3991717696 0.179517597 0.8628361821
0.07633905113 0.09355191141 0.6063005924 0.509509027 0.0157365147 0.8460357785
0.0999994576 0.08568339795 0.619181633 -0.00198814529 0.07920411974 0.8760736585
0.08515229076 0.08553425223 0.611037612 0.2824024558 0.1631936729 0.8675746918
0.08738978207 0.09099856019 0.6123446822 0.278512001 0.01814933866 0.8576846123
0.07489114255 0.1055846438 0.6119618416 0.5517503023 -0.2375784367 0.7779046297
0.07981854677 0.1028712764 0.613989234 0.4448402226 -0.2014313042 0.7907015681
0.08498973399 0.09753642231 0.6145801544 0.331977278 -0.1105322614 0.8194099665
0.09563805163 0.08892683685 0.6172648072 0.1002079174 0.02605425008 0.8639317155
0.09048248827 0.09621839225 0.6178946495 0.2132560164 -0.1065796837 0.823191762
0.07923060656 0.0969478786 0.6098874211 0.4559303224 -0.07271675766 0.8275487423
0.1053751558 0.08611846715 0.622848928 -0.1103771776 0.04310929775 0.8735343814
0.08025222272 0.08970561624 0.6037206054 0.3847803175 0.1413256824 0.9041210413
0.08206071705 0.09643023461 0.6025559306 0.3876121342 -0.004695515614 0.9109431505
0.07466766238 0.08199017495 0.6088175774 0.5326641798 0.2309807986 0.8063172698
0.07218275964 0.09049082547 0.6087607145 0.5622217059 0.08597031236 0.8115597963
0.07100309432 0.09690628946 0.6103370786 0.6055461168 -0.05367200822 0.7851107121
0.06502651423 0.09808567166 0.6182236075 0.6671422124 -0.04269721359 0.7245846391
0.06608689576 0.1034839079 0.6184324622 0.6358593106 -0.1400869042 0.7490183711
0.08601760119 0.07758221775 0.6120002866 0.3083813488 0.2699949741 0.8419778347
0.1135207489 0.0789892897 0.6266597509 -0.283985883 0.1460884511 0.8883482218
0.09272732586 0.07521986961 0.6156916618 0.1765639335 0.2731323838 0.8525232673
0.07622997463 0.07581354678 0.6101782322 0.513743341 0.3364550173 0.7864432335
0.08628876507 0.07100151479 0.6082666516 0.3254487514 0.3798447847 0.864908874
0.1053360999 0.07561779767 0.6225268245 -0.04651836306 0.2389999777 0.8876070976
0.07524134964 0.07011337578 0.6138523221 0.5354956388 0.3816962838 0.752984941
0.08056230098 0.06772817671 0.61868608 0.4509160817 0.3414331079 0.7868375182
0.09061025083 0.07033419609 0.6202290058 0.2798988223 0.3194931448 0.8361569047
0.08598843962 0.07109043002 0.6140990257 0.3558043242 0.3446425498 0.8375838399
0.1102501228 0.07392447442 0.6274134517 -0.05225294828 0.2650286853 0.9140131474
0.09869335592 0.07134218514 0.6244880557 0.1438590288 0.2934600413 0.8624071479
0.1118155569 0.126914084 0.6081194878 -0.1150469556 -0.4677986503 0.8595984578
0.1073911116 0.1303391904 0.6088986397 0.02481650934 -0.5838864446 0.8062690496
0.1254795939 0.1267456561 0.6128408909 -0.4067285657 -0.3830001652 0.7960523963
0.1095473617 0.08802844584 0.6013394594 -0.2673610747 0.328142792 0.8540902138
0.0988689065 0.07311217487 0.6064568162 -0.02316954173 0.4596835375 0.8504965305
0.1092684567 0.07859387994 0.6052083373 -0.3243867457 0.5269485116 0.7799983621
0.09837135673 0.07740342617 0.6030189395 -0.01266694721 0.383251369 0.8999801278
0.1042051464 0.0803681016 0.6025728583 -0.1908311695 0.4319045246 0.8648219705
0.1143982038 0.07518899441 0.6087395549 -0.3096331358 0.5211505294 0.7681042552
0.125327304 0.06210102141 0.6175341606 0.02707030252 0.3733855486 0.8677222133
0.1198265329 0.06491535902 0.617130518 0.04538499936 0.3760555089 0.8301001787
0.1171021983 0.07004969567 0.6129424572 -0.1317077428 0.44846192 0.7990581393
0.1273771971 0.05818719417 0.6207392812 0.1628380269 0.3179433942 0.8912470937
0.1279347539 0.05269215256 0.6252605915 0.3216564953 0.291657269 0.8860678077
0.1180481985 0.09226292372 0.6258722544 -0.3238047063 0.1292519867 0.8412604332
0.09160880744 0.1104715988 0.6181831956 0.1852079779 -0.2963210046 0.8291599154
0.1185093001 0.08441869915 0.6284860969 -0.3776987791 0.102159597 0.8807945848
0.1108693257 0.09214554727 0.6254521012 -0.2158689946 -0.009510131553 0.8644183278
0.09826541692 0.104392007 0.6206116676 0.0481117405 -0.1960316598 0.8400182128
0.1075628474 0.09704206884 0.6236274838 -0.1365460157 -0.05072044954 0.8492202163
0.1241345927 0.08721467853 0.6279245019 -0.4461035132 0.22329171 0.8485212326
0.1052972078 0.1023959816 0.6217187643 -0.07023857534 -0.06979259104 0.8283637166
0.1130998656 0.1013445705 0.6227352023 -0.1950053126 0.07257888466 0.8109489083
0.09752022475 0.1165445074 0.6208420992 0.1220562086 -0.2306796908 0.8187523484
0.09754879028 0.1101779491 0.6188182831 0.09319081903 -0.1861148477 0.8135180473
0.08781646192 0.1185043976 0.6172618866 0.2860387862 -0.3674411178 0.8174303174
0.09364180267 0.1212103069 0.6206528544 0.2049212307 -0.3122963607 0.821421206
0.1167229414 0.1169329733 0.6040332317 -0.2519522607 -0.3231019974 0.9118786454
0.1211282611 0.126070112 0.609777689 -0.1995018423 -0.408669889 0.8853189349
0.1282459199 0.1208154187 0.6112872362 -0.4784510136 -0.2912800312 0.7844713926
0.1804359108 0.07915649563 0.6424103379 -0.7062753439 -0.1126190796 0.6953573227
0.1740261614 0.07547701895 0.6426199079 -0.6790037155 -0.02764926851 0.7304037213
0.1723627001 0.08426327258 0.6424093246 -0.6804519892 -0.1238547638 0.7100669742
0.1651152968 0.09037909657 0.640586853 -0.6298061013 -0.1282509565 0.7499687672
0.161754176 0.09632131457 0.6401203871 -0.6052953005 -0.1672704369 0.7631854415
0.1034375802 0.1254047006 0.6067255139 0.1126962975 -0.5736659765 0.8095926642
0.08718436211 0.1324589103 0.6140335202 0.2614091635 -0.4718921781 0.82746768
0.1008792594 0.130413726 0.6106828451 0.1281942278 -0.5852200389 0.7974085212
0.09525997192 0.1337633431 0.6150693893 0.1912200898 -0.5319910049 0.8151851296
0.08366973698 0.1349820346 0.6181220412 0.3215928078 -0.4127532542 0.8479968309
0.1298459619 -0.006489116699 0.7187470794 0.3337012231 -0.3515385091 0.863263607
0.1443155557 -0.006367029157 0.7115930319 0.2326249927 0.2128253579 0.8242675662
0.1365786493 -0.00459666783 0.7161970139 0.3073778749 -0.1560149789 0.8433730006
0.1506478339 -0.004465204664 0.7102813125 0.2206646949 0.3521358371 0.8051089048
0.1337350607 -0.00984471757 0.7162703276 0.278062135 -0.1102978885 0.8557188511
0.1214004159 -0.01313329302 0.7201072574 0.2748775184 -0.3589370251 0.8912096024
0.1309105605 0.001381410402 0.7198702097 0.2633596957 -0.1153969318 0.8676935434
0.145537585 -0.003504906781 0.7209413648 0.3548042774 0.1882674098 0.888435483
0.1477870047 -4.523297321e-05 0.7171559334 0.2791995406 0.307836324 0.8467239141
0.1389277428 0.002291150624 0.7174711227 0.239408344 0.1232827157 0.8451198936
0.1514318138 0.003083355725 0.7132871151 0.2090816349 0.4571359158 0.8048813939
0.161073491 -0.001462664688 0.7049885392 0.211757794 0.5677291155 0.7941864133
0.1176096052 0.09290328622 0.6029267907 -0.3771193027 0.16214028 0.8864601851
0.1563135237 0.06621716172 0.6289543509 -0.3297791183 0.1301041692 0.8763324618
0.1505522728 0.05900678039 0.6249878407 -0.181236133 0.2256658077 0.9164313078
0.1647931486 0.0692563355 0.635779202 -0.5730037093 0.0833600834 0.7814038396
0.1615352184 0.06221289933 0.630969882 -0.5341953039 0.1508853734 0.7971546054
0.1680743992 0.07364279777 0.6392087936 -0.6421605945 0.03498447314 0.7569749951
0.1413720697 0.05709332973 0.6219100952 0.03767849505 0.2385074943 0.9476243258
0.134169057 0.05583591759 0.6234302521 0.1931380481 0.2414933443 0.9212906361
0.1367748231 0.06186241284 0.621552825 0.1499931067 0.143738687 0.9495549202
0.1472021341 0.0580557622 0.6202375889 -0.148141697 0.1979128271 0.9459993839
0.1772079617 0.06665135175 0.6376383305 -0.6345258951 0.07024224848 0.7636162639
0.1733385921 0.068944484 0.6340761781 -0.6258419156 0.01501025166 0.7716625929
0.1213312149 0.1317919344 0.6137277484 -0.1486749649 -0.5093839765 0.8393706083
0.1502817422 0.0811131224 0.6211529374 -0.2299728245 -0.2185156941 0.9380702972
0.1086733043 0.1141906083 0.6259855628 -0.08968635648 -0.08829247952 0.8277890086
0.118675597 0.1033050641 0.6263336539 -0.2873719633 0.1216341183 0.8182199597
0.1032702029 0.1183150336 0.6248275638 0.01804869063 -0.1835339963 0.8285865188
0.09190293401 0.1283634305 0.6231489182 0.2439656705 -0.3980882168 0.8336786032
0.1101526394 0.108754687 0.6239235401 -0.1168584675 -0.0176773835 0.81684798
0.1157246605 0.1092313007 0.6267967224 -0.2224259973 0.0189891737 0.8208585382
0.1248467639 0.09981898963 0.6269732118 -0.399307102 0.1993541569 0.8102499843
0.1279830337 0.09516017884 0.6268482208 -0.4645516574 0.2842011452 0.8075232506
0.1181156188 0.1146140769 0.6278675199 -0.2443398088 -0.05972736329 0.8129987121
0.1002329588 0.1253743023 0.6265176535 0.0784573704 -0.2898604572 0.8387720585
0.09997824579 0.1315328479 0.6240802407 0.1081653759 -0.4308403134 0.8355623484
0.1303591132 0.1107986346 0.62441504 -0.4445991516 -0.02162295952 0.7935216427
0.1216182262 0.1206208766 0.6208066344 -0.265516609 -0.2530735433 0.8035090566
0.1240588948 0.1127699763 0.6264659166 -0.3420721889 -0.03783287853 0.8035125732
0.1167959347 0.1209009439 0.6234954 -0.1934278458 -0.2292499393 0.8118279576
0.1185364574 0.1272838414 0.616620481 -0.1857451499 -0.4290237427 0.8052811623
0.111842528 0.120183073 0.6271729469 -0.1246057898 -0.1751305014 0.8209226727
0.1131913885 0.1256532073 0.621368289 -0.1159305722 -0.3453865349 0.8155629039
0.1263912022 0.1156591475 0.6224111915 -0.3612169027 -0.1385340542 0.7978358269
0.1117395461 0.1299387664 0.6183520555 -0.07239008695 -0.462084502 0.8157709837
0.130691871 0.1067407578 0.6279070973 -0.4705648422 0.09580658376 0.795155108
0.1064595282 0.1258584112 0.6252909303 -0.01626125164 -0.3066519797 0.8272774816
0.09045369178 0.1377695799 0.6200206876 0.2449758947 -0.4882515073 0.8311572075
0.09320441633 0.1357908398 0.6241675019 0.215112552 -0.4762263298 0.8427852392
0.1062055975 0.1337283999 0.6182671189 0.02732922882 -0.5344814062 0.8232529759
0.1013571844 0.1351771504 0.6150730252 0.1063413024 -0.5743606091 0.7990059257
0.1117547974 0.1330889314 0.6125656366 -0.04601825401 -0.5976747274 0.795630455
0.07713333517 0.1225402281 0.6242442727 0.3931660056 -0.3379820883 0.8431619406
0.06849058717 0.1167377755 0.624014616 0.4554178119 -0.273450315 0.8457139134
0.08278075606 0.1255827099 0.622315228 0.3693760335 -0.3898713589 0.8337121606
0.08680362254 0.1298225224 0.6243650317 0.3122777939 -0.4244770408 0.8412618637
0.08655761927 0.1357196122 0.6249812245 0.2784701288 -0.4387195408 0.8517696857
0.07385983318 0.1294493824 0.6284253597 0.3347004652 -0.3777244687 0.8534494638
0.07919809967 0.1325684339 0.6264181733 0.3121691346 -0.4013157189 0.8539304137
0.07169354707 0.135012567 0.6230787039 0.3597069383 -0.3531964421 0.8617326021
0.06860310584 0.130454272 0.6267241836 0.3663566709 -0.3455668986 0.8580366969
0.056264963 0.1235097498 0.6303031445 0.4251000881 -0.2849290371 0.8577726483
0.06286444515 0.1240657791 0.6289141774 0.4034644067 -0.3086287975 0.855461657
0.07066143304 0.122130692 0.6261628866 0.3972884417 -0.3190812469 0.851693213
0.1357856989 0.117064245 0.6162559986 -0.6778880358 -0.2590224445 0.6810753345
0.1457846165 0.1091689095 0.6250627041 -0.6374338269 -0.2419866323 0.7238057256
0.1415207088 0.1107990965 0.6200430989 -0.6593471766 -0.2116914392 0.7117756605
0.1342412531 0.1134169027 0.6116046309 -0.6956839561 -0.1495422572 0.6960012913
0.1442739964 0.1037189662 0.6309561729 -0.6331014037 -0.1469458044 0.7552306056
0.1227894053 -0.004331944976 0.7201938629 0.2886513174 -0.3460682333 0.8924171925
0.1571207345 0.004054388963 0.7089249492 0.1677901149 0.6029422879 0.7649530768
0.162704438 0.009258291684 0.7032395005 -0.05815123022 0.7467857599 0.5685273409
0.165760994 0.01097870059 0.6987251043 -0.1563818902 0.8096760511 0.4786143899
0.1542224288 -0.0003917536233 0.7077442408 0.2182078212 0.4546885788 0.7974488139
0.1430866122 -0.001194243203 0.7133584023 0.2825360298 0.06000253931 0.8270244002
0.1451013237 0.07964797318 0.6334161758 -0.4558265805 -0.02257789113 0.8557946086
0.1570411623 0.08225369453 0.6331293583 -0.5248420835 -0.1374227107 0.8072430491
0.1479872763 0.08452255279 0.6303738356 -0.4446752965 -0.1646515429 0.8475672007
0.1305198222 0.07929973304 0.6317814589 -0.3529588878 0.04135423154 0.917430222
0.147215873 0.06502712518 0.6204782128 -0.10922236 0.1425652951 0.9810670614
0.1494736075 0.07666435838 0.6357403994 -0.5005035996 0.03832131624 0.836812377
0.1490358114 0.07097171247 0.628508091 -0.3167881072 0.08821057528 0.9036257267
0.1415255815 0.06833028048 0.6225921512 -0.1472551227 0.1234641075 0.9757594466
0.1547665894 0.07558856905 0.6362570524 -0.5277942419 0.03884425387 0.8191786408
0.158806622 0.07160319388 0.6327165961 -0.449314028 0.06657108665 0.8414872885
0.1348299831 0.07498178631 0.6285176277 -0.2787807286 0.07711049914 0.9382614493
0.1425392926 0.07236527652 0.6279649138 -0.2855879962 0.08693693578 0.9244421721
0.1406178325 0.07639356703 0.6323009729 -0.389852941 0.05532996729 0.8897228837
0.1227633357 0.07844762504 0.6292379498 -0.2566639185 0.08193442971 0.9597717524
0.1293870509 0.07462616265 0.626762569 -0.2125596255 0.1029480472 0.9661824107
0.1342485696 0.06843090057 0.6235260367 -0.05071683973 0.1595226526 0.9664821029
0.06614210457 0.09892299771 0.6126245856 0.6707760096 -0.1373167485 0.7202441096
0.0647033006 0.09284043312 0.6142778397 0.7146598101 -0.01136036869 0.69476372
0.0680437237 0.08867599815 0.6121237874 0.6479072571 0.1109905839 0.7465396523
0.1458408535 0.07610129565 0.6197730303 -0.07667758316 -0.1586291045 0.9827340841
0.1286886334 0.08420813829 0.6094899178 -0.3335190415 0.1574732065 0.8586623669
0.1371686012 0.0790059194 0.6152097583 -0.141596511 -0.03058792092 0.9342133403
0.1421986222 0.08072702587 0.6186749935 -0.09518747777 -0.1680988669 0.9577889442
0.1353425086 0.08551871777 0.614059329 -0.258574158 -0.01921286061 0.894117713
0.1370600313 0.0746890381 0.6185442209 0.1080467254 -0.04024203494 0.9838634729
0.1647654176 0.07971200347 0.6315438151 -0.5805574059 -0.1202512532 0.7915003896
0.1745488942 0.07408314943 0.6363116503 -0.637716949 -0.05897980183 0.7620715499
0.1641983688 0.06990855187 0.6269726157 -0.5710945725 -0.000763697084 0.8172808886
0.1407857984 0.09894812107 0.6282881498 -0.6050053239 -0.04200338572 0.7639827132
0.1352410018 0.09732466936 0.6280937195 -0.5541384816 0.1381031126 0.7913201451
0.1321662366 0.09028112143 0.6292803288 -0.4557945132 -0.02901841514 0.8554615974
0.1474918574 0.0909820348 0.6291342378 -0.5050239563 -0.1963273287 0.8145241141
0.1289464086 0.08474545181 0.6296863556 -0.3669002652 -0.01881969348 0.9053766727
0.1382602602 0.09150098264 0.6292700171 -0.4886447191 -0.1049463376 0.8337401748
0.1370138079 0.08443581313 0.6295621991 -0.3832934499 -0.09855661541 0.8875513077
0.1552964449 0.08820854127 0.6291090846 -0.4851224422 -0.2755292356 0.8150372505
0.1467490643 0.1081740856 0.6348929405 -0.6387788057 -0.1766991764 0.7474962473
0.1335078031 0.1047190875 0.6081350446 -0.6665318608 0.03957758844 0.7362648249
0.1463910788 0.08828568459 0.6191571951 -0.2969799042 -0.2142555565 0.8979921341
0.1640232652 0.001587340492 0.7010882497 0.04967388511 0.6936712265 0.6534460187
0.1564117074 0.07797815651 0.6234275699 -0.418969214 -0.1481845975 0.8869505525
0.1608218551 0.07505181432 0.6261002421 -0.5229892731 -0.0735989064 0.8431789279
0.1556369066 0.08521611989 0.6239809394 -0.3950589299 -0.2711474597 0.8723241687
0.1518020332 0.06901291758 0.6207591891 -0.3013988137 -0.04251777753 0.9350296855
0.1513618678 0.07489507645 0.6211766601 -0.2595503628 -0.1258471012 0.9453928471
0.1597176939 0.06926092505 0.6235212684 -0.5025367737 -0.009707928635 0.8562278152
0.1394930035 0.1168170944 0.6216309667 -0.664860785 -0.2989529669 0.682574749
0.1534036696 0.112976037 0.6396179199 -0.6487383842 -0.2828305066 0.7064124942
0.1457694024 0.1160799935 0.6312601566 -0.6615893841 -0.2723596096 0.6955929995
0.1525978893 0.106753923 0.6359225512 -0.5985409021 -0.2546655536 0.7579085827
0.1519978046 0.09298024327 0.6236404777 -0.4031187296 -0.2838227451 0.8596605659
0.1377169788 0.103828162 0.6113349795 -0.6347181797 -0.07238937914 0.7477023005
0.1463188678 0.09436521679 0.6172465086 -0.4903115034 -0.1894035339 0.8231760263
0.1417352259 0.09875646234 0.6140240431 -0.561537683 -0.1166272834 0.7871311903
0.1619103402 0.08917210251 0.6299495697 -0.5211285353 -0.315489769 0.7894456387
0.1704324782 0.08245611191 0.6365683079 -0.6296638846 -0.1576870829 0.7433591485
0.1648842096 0.07979609072 0.637806356 -0.6444358826 -0.02880591154 0.7548521161
0.1476866156 0.09765141457 0.6301450729 -0.6422451735 -0.1394195259 0.7508109808
0.1410511136 0.1065096781 0.6158443689 -0.6507086158 -0.1517582536 0.7309963107
0.1487651467 0.1041705832 0.6252368093 -0.6016324759 -0.2333071679 0.7521445751
0.1525739878 0.09995875508 0.626897037 -0.5414880514 -0.2841316462 0.7823141217
0.1446798444 0.1018670201 0.6183539629 -0.5435164571 -0.2062160522 0.7851209044
0.1629597694 0.08579462767 0.636048615 -0.6010121703 -0.1280321032 0.7671069503
0.1557101607 0.1009816676 0.6332339048 -0.5657284856 -0.2854333818 0.7687212825
0.1572027802 0.107545428 0.6395286322 -0.574719727 -0.2653196752 0.771471262
0.1566556245 0.09675450623 0.6298284531 -0.4979018867 -0.3267920911 0.802300036
0.1748716831 0.09000163525 0.64239043 -0.6786125302 -0.2000103891 0.6986303926
0.1606788635 0.1030326709 0.6385653615 -0.5761983395 -0.2757052481 0.7646442056
0.1703723967 0.09354911 0.6406876445 -0.6422493458 -0.227693215 0.7210870385
0.1607559323 0.09867119789 0.6349816918 -0.5481006503 -0.3024035394 0.7755327225
0.1682663113 0.08965601027 0.6352252364 -0.5881402493 -0.275739938 0.7461561561
0.1777964383 0.08464922011 0.6440438032 -0.7132352591 -0.1752741337 0.6752738953
0.1654733419 0.09996838868 0.6413429379 -0.6233768463 -0.2386562824 0.7368876338
