# .PCD v0.7 - Point Cloud Data file format
VERSION 0.7
FIELDS x y z normal_x normal_y normal_z
SIZE 4 4 4 4 4 4
TYPE F F F F F F
COUNT 1 1 1 1 1 1
WIDTH 512
HEIGHT 1
VIEWPOINT 0 0 0 1 0 0 0
POINTS 512
DATA ascii
0.02747606114 0.008210021071 0.9682322145 -0.07301877439 0.1384550035 0.9872404933
0.1023177728 0.02768485807 0.9475495815 0.9333951473 -0.3291365504 -0.1422612965
0.07274036109 0.06080623716 0.8450567126 0.4590526223 -0.03022610024 0.878241539
0.06986836344 0.06823217124 0.8468626738 0.4947532713 -0.2100311816 0.8357480168
0.09279371798 0.06255371869 0.8389999866 0.1141472831 -0.1897753179 0.9733162522
0.08276343346 0.0623838231 0.8409220576 0.2790453136 -0.1185015514 0.9460189342
0.1088905036 0.07887386531 0.8419489861 -0.07304880768 -0.2590353489 0.9604896307
0.1074501127 0.08633619547 0.8422888517 -0.05643281713 -0.2538745403 0.9636881948
0.1121693403 0.07281816006 0.8418481946 -0.1187427342 -0.2551998794 0.9570455551
0.05545262992 -0.01910850592 0.9783626199 0.1926805228 0.6301698685 0.7013821602
0.06160257757 -0.02227664739 0.9809770584 0.2574854195 0.7336629629 0.6288317442
0.06628417969 -0.01846690476 0.9770786166 0.2191057503 0.6972772479 0.6818047762
0.08132566512 0.008161161095 0.9492296576 0.7433162332 -0.107531108 0.08775600046
0.08033832163 0.009629128501 0.942381382 0.8544596434 -0.2649635375 -0.01152805146
0.07820472121 -0.005266468506 0.9624390006 0.4198290408 0.3636099398 0.4132121503
0.08089347929 0.004064455163 0.9553750157 0.6149613857 0.0776719749 0.2119854093
0.08538212627 0.018268466 0.9462313652 0.8894326687 -0.3260495961 -0.07535926253
0.1433332264 0.06933686882 0.8560298085 -0.5284134746 -0.3117268384 0.7862486243
0.1097925678 0.09911625832 0.8469133377 -0.1547425538 -0.2857943177 0.9197251797
0.06486733258 0.0479496792 0.8540201783 0.6206753254 0.1649061292 0.76149863
0.0882441178 0.02678377926 0.9475315213 0.9197487235 -0.3744015396 -0.1177085042
-0.006496937014 0.009765713476 0.9671298265 -0.05340628326 0.1183958128 0.9915292263
0.07787082344 0.0002611251257 0.921925962 0.817959547 -0.4086602628 0.327496022
0.06328798831 0.09332004935 0.8709757328 0.6254584193 -0.4257935584 0.6514521241
0.05866385996 0.08984493464 0.8688448668 0.6521725655 -0.4287977815 0.6250072718
0.04939565808 0.07152590156 0.8722355366 0.7522875667 -0.2533190846 0.6078125834
0.02775498107 -0.0007407196681 0.9670000672 -0.06943837553 0.1361601353 0.9878271818
0.03587922454 0.003980600275 0.9646195769 -0.04898227379 0.1041405648 0.9445216656
0.0460761413 0.003625761019 0.956004262 0.1128676385 -0.09756161273 0.8064222932
0.0616472885 0.004968893249 0.9438843131 0.3868225217 -0.3671864569 0.5533284545
0.06891964376 0.008405632339 0.943423152 0.6546185017 -0.2950339019 0.2228923887
0.07057008147 0.00472242292 0.9358780384 0.5156210661 -0.5617543459 0.4515857399
0.07353508472 0.008563808165 0.9397580028 0.7340279818 -0.3775573969 0.1508270055
0.05229473859 -0.00739695644 0.9710674286 0.06238777936 0.4474553168 0.8240686655
0.06397423893 -0.01559670642 0.9712396264 0.1166464537 0.5906329751 0.7489045262
0.05902819335 -0.01607714407 0.9743637443 0.1414230317 0.5707418919 0.7636234164
0.03992813826 -0.005024403334 0.9635855556 0.01748987101 0.07692752033 0.9006547928
0.05430557579 -0.003507096553 0.9515434504 0.2438592464 -0.207108587 0.706566155
0.04278213903 -0.0006910124794 0.9592729211 0.06314156204 -0.01949390396 0.8531073928
0.05534667149 0.001733675948 0.9482254982 0.2611623108 -0.2786246836 0.6810343266
0.04787058383 -0.004214209039 0.9569465518 0.1425368339 -0.07970286906 0.7934981585
0.06896130741 -0.001133776386 0.9426637292 0.4244624376 -0.3524969816 0.5329012275
0.05243010819 -0.00873534102 0.9612368345 0.1374613643 0.1100398451 0.7824574113
0.04141527414 -0.01082815137 0.9680243134 0.002116765361 0.2210261077 0.913439393
0.04716769233 -0.01021911856 0.9653894305 0.06370025128 0.1951729357 0.8507822752
0.0742002055 -0.009486515075 0.9570106864 0.3130611777 0.2149701566 0.5816261768
0.06184719875 -0.00607711589 0.9538001418 0.2695133686 -0.04250524193 0.6601544023
0.06065847352 -0.002856036881 0.9480521083 0.319720149 -0.25923419 0.6333525181
0.057495635 -0.007361829281 0.9573425651 0.2074332684 0.03172469884 0.7173390985
0.06800982356 -0.007172806654 0.9542640448 0.3026175499 0.04578915983 0.6137911677
0.06214717031 -0.01026489399 0.9615957737 0.1933841854 0.2361158282 0.7070002556
0.05720864609 -0.01257138047 0.9672112465 0.1069762483 0.3766558468 0.7819753885
0.0758388266 -0.001619451679 0.9417955875 0.4752670825 -0.3028684556 0.4724051952
0.04104413092 0.005042626522 0.9623752236 0.07353787869 0.08100117743 0.8085730076
0.0598619245 -0.001659410656 0.961021781 0.264323771 0.2233075947 0.5976942182
0.07226619124 0.005334381014 0.9474543333 0.6605629921 -0.1181664914 0.193767935
0.06773321331 -0.00765661383 0.9640031457 0.2684280574 0.404655993 0.5836298466
0.05437313765 0.007030731067 0.9539353848 0.3683145344 -0.07510787249 0.5028443933
0.06484603137 0.002524764976 0.9540441036 0.4561021626 0.03369101137 0.4034962952
0.06118897721 0.007317727897 0.9504300952 0.501756072 -0.1271042526 0.3634471893
0.05546909943 -0.004286013544 0.9659929872 0.1204488724 0.3499518335 0.7442184687
0.05260431021 0.002105660737 0.9602328539 0.218715772 0.1234045699 0.6516264081
0.07626777887 0.001332125859 0.9500289559 0.6400518417 0.01039341372 0.2087512463
0.07650146633 -0.002700434299 0.9543988705 0.5488144159 0.1628019363 0.2978157401
0.06593567133 -0.003552864539 0.9602853656 0.3322962821 0.2589505613 0.5233677626
0.0701547116 -0.01259091124 0.9683517814 0.1964673996 0.578283608 0.6510218382
0.0472215116 -0.0001000455304 0.9651993513 0.06642313302 0.2399565876 0.8076587319
0.0794641301 -0.01393815503 0.9682318568 0.4484121203 0.1661844701 0.3492897749
0.08514580876 -0.003456457518 0.9623861909 0.7648548484 -0.3953715861 -0.001968174707
0.08294400573 -0.009708780795 0.9653789997 0.6468154192 -0.2140485942 0.1237849146
0.08718642592 0.02129064128 0.9530779719 0.8369956017 -0.2527777255 -0.0313514173
0.08542245626 0.01581074111 0.9551961422 0.7478870153 -0.1214966774 0.06253107637
0.07497859746 -0.004109098576 0.9256907701 0.8332821727 -0.3816184402 0.332282275
0.07494393736 -0.01069114171 0.9508442879 0.4585884213 0.2019707859 0.5189711452
0.07552782446 -0.002456182614 0.9329791665 0.662316978 -0.3686269224 0.3966382146
0.07522538304 -0.007476060651 0.9452156425 0.5118996501 -0.00501388032 0.4822173119
0.07478538156 -0.01496349461 0.9608131051 0.3308654428 0.5319164395 0.5800872445
0.07491400093 -0.008509016596 0.9298820496 0.7956429124 -0.03806074336 0.321981132
0.07485771924 -0.008104082197 0.9379665852 0.6627701521 -0.05829668045 0.4198209047
0.07683988661 -0.01204631943 0.9199936986 0.9422852993 0.2447724342 0.1615383923
0.07883131504 -0.01311763469 0.9265209436 0.9078121781 0.159626618 0.1270979196
0.1374544054 0.06124252826 0.8479249477 -0.4970396459 -0.1218019724 0.8490821123
0.1424090415 0.05735974386 0.850513339 -0.5357477069 -0.04226600379 0.8291947246
0.1071177423 0.06205933169 0.8385356069 -0.0521948263 -0.16163674 0.9821033478
0.1091481447 0.05633229017 0.8378437757 -0.09216026217 -0.02465380169 0.9907866716
0.1253041774 0.09140504152 0.8613643646 -0.4714690447 -0.4287509322 0.7509425879
0.1053236052 0.1010913253 0.8511863947 -0.02776090056 -0.2707296014 0.9133973122
0.1122354344 0.09720224142 0.8583076 -0.1359657347 -0.3653396666 0.8058095574
0.1069835573 0.09913121164 0.8564938903 -0.008668903261 -0.3341100812 0.8361497521
0.09818655998 0.1033553258 0.8499745727 0.1609291136 -0.2424509078 0.9367231727
0.1213901192 0.09474131465 0.850084126 -0.4103230834 -0.3977568448 0.8092809916
0.11651209 0.09680313617 0.8538680673 -0.2939259708 -0.3473568857 0.8422667384
0.1250614077 0.093562603 0.8558087349 -0.469956547 -0.4225123823 0.7730092406
0.1348374486 0.09537229687 0.8697131872 -0.5111182928 -0.445012331 0.7347467542
0.1310126632 0.09256248921 0.8574572802 -0.480081141 -0.4062861204 0.7749902606
0.1394184083 0.09121438861 0.866977036 -0.5290870667 -0.411041826 0.7419068813
0.1149696112 0.08967742324 0.8589519262 -0.2255525291 -0.36512357 0.8064578176
0.09600748122 0.1004266292 0.8547486663 0.2766291499 -0.2876948416 0.8742920756
0.09819950908 0.09297522157 0.8549738526 0.1967094839 -0.2812541127 0.8817391396
0.09695513546 0.08591841161 0.8543721437 0.2023263425 -0.2569305301 0.9053046107
0.1067091897 0.0908556208 0.8569737077 -0.01913106628 -0.3227060139 0.8446377516
0.11829032 0.09461203963 0.8599742055 -0.2894866467 -0.3955824971 0.7777919173
0.09523443133 0.08000230044 0.8514093161 0.2127560079 -0.2771373689 0.9305225611
0.07306768745 0.07695047557 0.8497676849 0.3833917379 -0.4116985202 0.822072506
0.0682207197 0.08323586732 0.8556439281 0.4999774992 -0.4622575641 0.7315018773
0.06642322987 0.07679554075 0.8532269001 0.5517269969 -0.3698509336 0.7430892587
0.09106759727 0.02745782025 0.870944798 0.3775782287 0.2915698886 0.875071466
0.08632104099 0.02983312681 0.8663497567 0.4006902277 0.2948141694 0.8610530496
0.08271986246 0.02985322475 0.8724772334 0.4808882475 0.2520130575 0.8355677128
0.080792211 0.03237550706 0.8622080088 0.4355017841 0.2928936779 0.8428544402
0.06906250864 0.03716206923 0.8566970229 0.5307092071 0.2733957171 0.7991849184
0.07388251275 0.0348055996 0.8610631824 0.5052847862 0.2715132535 0.8138834834
0.09305626899 0.0253983438 0.8786115646 0.4053197205 0.2631781995 0.8720759749
0.06747645885 0.05641256645 0.8489975929 0.5527126193 0.04787968099 0.8263005018
0.06214057654 0.0642560944 0.8531756997 0.6739607453 -0.1241515502 0.716377914
0.06734120846 0.0625988245 0.8485715389 0.564997077 -0.08032544702 0.814630568
0.06348086894 0.0702406019 0.8523788452 0.631911099 -0.2441426367 0.7199719548
0.05959705263 0.0723824203 0.8563506007 0.7263277769 -0.2463810891 0.6393613219
0.09328976274 0.03025654703 0.9508233666 0.9196279049 -0.3745175004 -0.118410714
0.09384557605 0.02101150341 0.9427218437 0.7339190841 -0.5448536873 0.1673705131
0.003736669663 0.0209419895 0.9662459493 -0.05340628326 0.1183958128 0.9915292263
0.01205915585 0.01489485428 0.9691995978 -0.05340628326 0.1183958128 0.9915292263
0.01838312298 0.01330897585 0.9682699442 -0.05340628326 0.1183958128 0.9915292263
0.01851748116 0.006924133282 0.9670001268 -0.05340628326 0.1183958128 0.9915292263
-0.003980949521 0.01797268912 0.9666246772 -0.05340628326 0.1183958128 0.9915292263
-0.002021654975 0.0130119212 0.9700000286 -0.05340628326 0.1183958128 0.9915292263
0.06463183463 0.04167980701 0.8564087749 0.6065689325 0.2220923156 0.7558918595
0.05103240162 0.0555982925 0.8690236807 0.7580199242 -0.04148220271 0.6462421417
0.05759309977 0.04869351909 0.8605489731 0.7301213741 0.1151980013 0.6705047488
0.08501675725 0.01994756423 0.8805605769 0.5529358983 0.2568929493 0.791657865
0.07705396414 0.03128497303 0.8675624132 0.5198144913 0.2589611113 0.8109066486
0.09403164685 0.02276873216 0.8853568435 0.4446429908 0.2399309874 0.8602074385
0.09213966876 0.01656852476 0.8879032731 0.5195924044 0.2487278581 0.8134607077
0.08214391023 0.02225305699 0.8748593926 0.534100771 0.2692773044 0.7981674671
0.07372908294 0.03155159205 0.8552699685 0.4412106574 0.3091211319 0.8378051519
0.07878083736 0.02567968704 0.8708668351 0.539753139 0.2684693933 0.7955186367
0.1493401378 0.07162043452 0.8620752692 -0.5350118279 -0.3343112171 0.7753495574
0.1454952359 0.08023325354 0.8643463254 -0.5314264297 -0.3664862812 0.7623964548
0.1431555003 0.08516035974 0.8656545877 -0.5330967903 -0.3850789666 0.7523107529
0.1424624473 0.07719933987 0.857673943 -0.5261003375 -0.3823367059 0.7590223551
0.1105100811 0.06354261935 0.8445673585 -0.08813290298 -0.1568330824 0.9104752541
0.1186850145 0.04565296322 0.8592644334 -0.2062153518 0.3688191473 0.7068998218
0.1136100665 0.0542212911 0.8521499634 -0.1319667399 0.1133672297 0.8046005368
0.07684513927 0.1021176204 0.8627849221 0.507281065 -0.3603768349 0.781281352
0.08679647744 0.1019444391 0.8582728505 0.4209209979 -0.3081230819 0.8473279476
0.06801079959 0.09626748413 0.8653595448 0.5879532099 -0.4115542769 0.6908265948
0.06409049034 0.0866170302 0.8614546061 0.5656642318 -0.4499354959 0.6852659583
0.07151599973 0.09614866972 0.8580182195 0.5291336179 -0.3871176243 0.7470769286
0.07028164715 0.09005917609 0.8565303087 0.511967361 -0.4242639542 0.7421408892
0.06924397498 0.09737961739 0.8710000515 0.5580713749 -0.4091769755 0.7195881605
0.05554425716 0.08039410412 0.8699749112 0.7095686197 -0.3540418446 0.6047610044
0.05870177224 0.07911138982 0.8636877537 0.700019002 -0.3463350534 0.6190116405
0.054054223 0.07085074484 0.8687745929 0.7439721823 -0.2466687113 0.618622601
0.06035357341 0.0843321681 0.866063714 0.6591493487 -0.4201693237 0.6224725842
0.03456648812 -0.006481965538 0.9715394974 -0.09021794051 0.2034510523 0.9748677015
0.03053311072 -0.01098090876 0.9699783325 -0.08315651119 0.2065968066 0.9747083187
0.03391796723 0.0002010381722 0.9706075191 -0.08788291365 0.178744033 0.9757913351
0.03981343657 -0.001721576205 0.9714499712 -0.0292359069 0.2701284587 0.9215705991
0.04714832082 -0.005192072131 0.9712260365 0.03172848374 0.3799151778 0.8619528413
0.04453517497 -0.01236870233 0.9749652147 0.05197811499 0.4127644897 0.8400511146
0.04979755729 -0.01523833256 0.9770191908 0.1267843693 0.527422905 0.7648970485
0.07792995125 0.004548455123 0.9291111827 0.6185404062 -0.6794096828 0.3817701638
0.08228590339 0.004320115782 0.9222340584 0.7545874119 -0.5095313787 0.328212291
0.09561999142 0.01638926752 0.953075707 0.8999410868 -0.3964555264 -0.1363920569
0.0928883478 0.01157151256 0.9562478065 0.8776484728 -0.4437077045 -0.1166331694
0.09639190882 0.02417526022 0.9514693022 0.9170917273 -0.3689863682 -0.1415875405
0.09046696872 -0.003954689018 0.960303545 0.8388770223 -0.5103245974 -0.09979832172
0.08793111145 0.005002176389 0.9587920308 0.8559140563 -0.4886606932 -0.09347655624
0.08044650406 -0.01871850342 0.963578999 0.6014710069 -0.04636851326 0.1895349175
0.07963266224 -0.01738272794 0.9560907483 0.6711158752 -0.02473302558 0.1787616611
0.07818637788 -0.01601007394 0.9470983744 0.7305436134 0.0627618134 0.1940803975
0.07577922195 -0.02163014375 0.9662007093 0.3214660883 0.5956335664 0.4916878045
0.07491994649 -0.01439354848 0.9405016303 0.6551821232 0.3983570933 0.3581916392
0.07088050991 -0.02301073074 0.9751685858 0.2079430968 0.7670744658 0.6056993008
0.1328846812 0.06504419446 0.8465799689 -0.4457326531 -0.2068284005 0.8680832386
0.1299951077 0.07839070261 0.8481434584 -0.4389590919 -0.3551324308 0.8245512843
0.1260516942 0.08692889661 0.8483960032 -0.4357230961 -0.3829061985 0.8137185574
0.1310533881 0.08736292273 0.8521108627 -0.4723688066 -0.3971083164 0.7841716409
0.1380053312 0.07994539291 0.8542426229 -0.5003284812 -0.3816458285 0.7741142511
0.1369354725 0.07014190406 0.8499115705 -0.4653683305 -0.2914695442 0.8341239095
0.09041066468 0.0556149818 0.8389801383 0.1890805364 0.02945896983 0.9767265916
0.07313077897 0.0516269654 0.8461118937 0.4590772092 0.1396663934 0.8726209402
0.116401501 0.09289683402 0.8456735611 -0.2901348174 -0.3284866214 0.8967647552
0.1174560785 0.08565676957 0.8450316191 -0.2780624032 -0.3098249137 0.9058230519
0.1205445603 0.07642462105 0.8453963995 -0.3044361472 -0.3041108847 0.8961968422
0.1108112559 0.09133229405 0.84358114 -0.1491668969 -0.2807437778 0.940238297
0.09871318191 0.0756719932 0.8476732969 0.1323980987 -0.282107681 0.9429801106
0.07995650917 0.0691748336 0.8437529802 0.2654126883 -0.3136173487 0.9070512056
0.08222397417 0.03278455883 0.8501754403 0.3240486681 0.325242877 0.8841349483
0.05452317744 0.06443443894 0.8666536212 0.7567858696 -0.1556351036 0.6342580318
0.0546925962 0.05863269046 0.8637261987 0.757738173 -0.05340121314 0.6461623907
0.04920435324 0.06236853078 0.8718741536 0.7622398734 -0.1619067639 0.6239032745
0.05674789473 0.06580945104 0.8609306216 0.7457681894 -0.1612615585 0.6450280547
0.05611351505 0.07358022034 0.8632233739 0.7373430133 -0.2723004222 0.6175944209
0.06016840786 0.0557330884 0.8598636389 0.7034446001 0.008937494829 0.685711205
0.01421500463 -0.004016304389 0.96789819 -0.05696471408 0.1260370314 0.9900189042
0.02107251622 -0.005130856298 0.9700000286 -0.06980470568 0.153609097 0.9845690727
0.01254579332 0.002938076621 0.9700001478 -0.05340628326 0.1183958128 0.9915292263
0.01953175291 0.001041008509 0.9700000882 -0.05465176329 0.1196696609 0.9912568927
0.01130523346 0.008675503545 0.9668877125 -0.05340628326 0.1183958128 0.9915292263
-0.003621744458 0.004962572362 0.9700000286 -0.05340628326 0.1183958128 0.9915292263
0.004279625602 0.01396270934 0.9665751457 -0.05340628326 0.1183958128 0.9915292263
0.001771920128 0.006547584664 0.9669899344 -0.05340628326 0.1183958128 0.9915292263
0.09833359718 0.00716328714 0.8799700141 0.3446930349 0.3402839005 0.8543613553
0.09501308203 0.02079792134 0.8574598432 0.2110349536 0.405067414 0.8642219901
0.08686100692 0.003179930383 0.8875645995 0.5797198415 0.3227718174 0.7418820262
0.1008497849 0.01154185273 0.8724480271 0.2453441173 0.3606809378 0.8890837431
0.09594935924 0.01457257848 0.8677850366 0.2811933756 0.3755542636 0.8546125889
0.09131357074 0.005623365287 0.883117497 0.4762645364 0.3338077664 0.7881100178
0.08916896582 0.02438416705 0.854675889 0.2534314692 0.3870983422 0.8643657565
0.08364307135 0.027649533 0.8526079655 0.2951363325 0.3648938537 0.8695101738
0.0912488699 0.01807305217 0.8630542159 0.3072880507 0.3830676079 0.834353447
0.08171524853 0.02410184592 0.8588955402 0.3738313317 0.3457223773 0.8454121351
0.08470085263 0.007544581778 0.882134974 0.553758502 0.3216589391 0.7609080672
0.08727352321 0.01636996306 0.867626369 0.3927499056 0.3572157323 0.8156678081
0.08842734993 0.01264165714 0.8726140261 0.4257364869 0.3544258475 0.7977632284
0.09239879251 0.01276781783 0.8926801085 0.5712935328 0.2059923261 0.7558832765
0.08895660937 0.009229937568 0.8996790648 0.697830677 0.06173565611 0.5915819407
0.08954375982 0.01169675961 0.9074152708 0.6269412041 -0.1765741855 0.5544717312
0.0838419646 0.004389030393 0.9129440784 0.856731832 -0.2400969714 0.3388553858
0.09328079969 0.01380834263 0.9115442038 0.5625100136 -0.1218464598 0.6183003187
0.08897997439 0.007155135274 0.9111220241 0.724485755 0.04453362525 0.5117049813
0.0889724791 0.007014614064 0.9184431434 0.7126034498 -0.1288825721 0.467413187
0.09273926169 0.01268673409 0.9276120067 0.5561218262 -0.4833555222 0.5077674985
0.08450355381 0.001808409928 0.899690032 0.7433707714 0.1235755756 0.5413039923
0.08093054593 -0.004184958525 0.9104585648 0.8273221254 0.3281527758 0.4298497736
0.1377021223 0.04084180295 0.8733369112 -0.3562174737 0.5038855672 0.6374086738
0.1410090774 0.05024201795 0.8690584302 -0.4205599725 0.2487380207 0.6860539913
0.1451921314 0.06200249121 0.8550562859 -0.5405880809 -0.1609812379 0.821357131
0.1130441278 0.08254872262 0.8541278243 -0.1663602591 -0.3518561423 0.849499464
0.1111676469 0.07753222436 0.8486463428 -0.1169812977 -0.3078233898 0.9143286347
0.1038581282 0.07882463187 0.8502363563 0.03249020129 -0.2983114123 0.9175669551
0.1184393391 0.08531655371 0.8570526838 -0.2843458652 -0.3878192008 0.8025745749
0.1188021451 0.07976934314 0.850935638 -0.2804804742 -0.3456524014 0.8680243492
0.1260626465 0.085437648 0.8570241928 -0.4432016611 -0.4091867805 0.7813441157
0.1228210479 0.0699467659 0.8454027772 -0.3160611987 -0.263787955 0.9066030383
0.1173662096 0.06654129177 0.8501675129 -0.2184654325 -0.09866786003 0.8638626933
0.1242712662 0.05115253851 0.8559089303 -0.3062287569 0.2138127089 0.7565435767
0.1157338321 0.06747441739 0.8430975676 -0.1733261496 -0.2285581082 0.9403822422
0.1182278842 0.05959581211 0.8537464142 -0.221555382 0.06931576133 0.8065125346
0.1062101051 0.07379578054 0.8445177674 -0.04666538164 -0.2910144329 0.9542838335
0.1064931527 0.06789595634 0.8412016034 -0.02929372527 -0.2843978703 0.9573748112
0.08951964974 0.0346814543 0.8468338251 0.2288461477 0.3420341909 0.9055940509
0.06661081314 0.09032224119 0.866889596 0.5832464695 -0.4267125428 0.6838786006
0.0881562829 -0.01621970907 0.9101832509 0.7040718198 0.4552321434 0.4647770524
0.09260707349 -0.01755883917 0.9057071209 0.6030644178 0.5210065842 0.5787780285
0.07959575951 -0.01144083031 0.9146512151 0.87021029 0.3049806356 0.3520018756
0.08445431292 -0.009485981427 0.920209527 0.8588228226 0.2363145798 0.1892183274
0.08616673201 -0.01368162967 0.9157415628 0.7922077775 0.3663830161 0.294577688
0.09111402929 -0.003132216167 0.9257931113 0.8220611811 0.02143347636 0.1510736197
0.09298111498 -0.01401560195 0.914532423 0.6875661016 0.3638108373 0.3905876279
0.09306538105 -0.009350975975 0.9192457199 0.7320534587 0.2153557092 0.2995373607
0.08984814584 0.00129252905 0.9304360151 0.884280324 -0.1167824045 0.04704710469
0.09913140535 -0.01890185289 0.9087979198 0.5481639504 0.5072444081 0.5678203106
0.08504672348 -0.002831763588 0.9268727899 0.9152610898 0.02362528443 0.06552835554
0.09079336375 0.005700229201 0.9395256639 0.9147029519 -0.3536121249 -0.06329601258
0.08384827524 -0.01178281289 0.9468590617 0.8529965878 -0.2671177983 0.009506164119
0.08747311682 -0.000445669255 0.9374545217 0.904818058 -0.2263340503 -0.01345804799
0.08989950269 0.001095277257 0.9464058876 0.8858818412 -0.4339452386 -0.06992824376
0.0861364305 -0.01038280223 0.9554344416 0.8346679211 -0.4649658799 -0.04410812259
0.08153404295 -0.01262333896 0.9367352724 0.8766363859 -0.04466386139 0.06764186174
0.08439227939 -0.006723872386 0.9369835258 0.8905435205 -0.1305854619 0.02887575142
0.08806382865 -0.004559137393 0.9509494305 0.860409081 -0.4512239397 -0.05770838261
0.07969718426 -0.001528759371 0.9157161117 0.8849582672 -0.1078121886 0.3343537152
0.09472689778 0.00739866076 0.9510587454 0.8916802406 -0.4096752107 -0.1234709471
0.09366770834 0.009063791484 0.9437074661 0.9134320617 -0.3810656071 -0.100986816
0.0979681015 0.0154498145 0.9461449981 0.9247345924 -0.3442137241 -0.1451838464
0.09296531975 0.001555989496 0.956787765 0.8625999689 -0.462326169 -0.1169246137
0.1006326377 0.02176276594 0.9463412166 0.8843185902 -0.3741995692 -0.08101948351
0.09487008303 0.0147491442 0.9407704473 0.668987453 -0.5967233777 0.2599214911
0.08459910005 -0.0181151703 0.9675579667 0.7559767962 -0.6088819504 -0.06398800761
0.07742931694 -0.02247090824 0.9731523395 0.4749671519 -0.1280505508 0.163507849
0.1194473952 0.06122398004 0.8401628137 -0.2369318753 -0.1071130335 0.9535281062
0.1198291183 0.0448727496 0.8425903916 -0.2746271789 0.2784067392 0.9157458544
0.11753802 0.05042225122 0.8390696645 -0.232079789 0.1665273458 0.9544507861
0.1229988709 0.05154598504 0.8409835696 -0.3171141148 0.1732452214 0.9245737195
0.125708133 0.06132394075 0.8426346779 -0.3459297717 -0.0956010446 0.920031786
0.1057966799 0.05069812387 0.8381746411 -0.04040504619 0.1087587401 0.9848116636
0.1192144379 0.02673294023 0.8577934504 -0.2313269675 0.5646373034 0.7654170394
0.118747592 0.03051914088 0.8529233932 -0.2846487761 0.6343298554 0.7070643902
0.1138175651 0.01350424252 0.8709295392 0.07111836225 0.3829701841 0.891639173
0.1222994998 0.01652235165 0.8740692735 -0.09947362542 0.3643278182 0.9128012061
0.1137274504 0.0191937834 0.8621710539 -0.03429901972 0.4792340994 0.8358276486
0.1143512204 0.02262779325 0.8575037122 -0.1070422456 0.5317935944 0.806178093
0.1135764942 0.02637469023 0.8510827422 -0.1668484211 0.6010352969 0.765165031
0.1175952554 0.01823764853 0.8671595454 -0.06837769598 0.4315719008 0.8681375384
0.1152426973 -0.004892266821 0.8860256672 0.1116399392 0.4515455067 0.8848959208
0.1229542494 -0.002086679917 0.8868044615 -0.0134065086 0.4163464308 0.8924428821
0.07046947628 0.04759335145 0.8507745266 0.5050783753 0.1714478433 0.8326430917
0.07906253636 0.05522007123 0.8426642418 0.3690903485 0.09947790951 0.9203555584
0.1029823348 0.07880515605 0.8417183161 0.009452797472 -0.2649787664 0.9624426961
0.09810579568 0.07407693565 0.8415547013 0.07168520242 -0.2567302883 0.9619397521
0.09794175625 0.06263929605 0.8419024944 0.1038746685 -0.1238558218 0.9596075416
0.1025141999 0.09987577796 0.8452204466 0.01917500235 -0.2239735574 0.9717384577
0.08299897611 0.07460806519 0.8455001116 0.2367184609 -0.3629252613 0.8999922872
0.08778856695 0.08115575463 0.8454462886 0.2345927805 -0.3154741824 0.9162549973
0.09934015572 0.08579485863 0.8428707719 0.09080091119 -0.2441845685 0.9582531452
0.1017074808 0.09143592417 0.8430302739 0.05113652349 -0.2443139851 0.9610196948
0.09597649425 0.09295067191 0.8448896408 0.2231675982 -0.2219241261 0.9441439509
0.09294642508 0.08692076057 0.8448708653 0.2328782827 -0.2507488728 0.9359992146
0.08901933581 0.07296296954 0.8439438939 0.180802539 -0.3191852272 0.9268224835
0.09189934283 0.1030554697 0.8498703837 0.3084847927 -0.2136505544 0.9129057527
0.08397056162 0.0866657272 0.846865952 0.3171010315 -0.3006501198 0.8925018311
0.08577962965 0.09861958027 0.8500530124 0.380066067 -0.2801990807 0.8696665168
0.07912993431 0.09118329734 0.8501636982 0.3961537778 -0.3340661824 0.8471457362
0.08762586117 0.09238240868 0.8473328352 0.319304198 -0.2700889111 0.9001305699
0.07591543347 0.08416692913 0.8496292233 0.3800919652 -0.3748257756 0.8404598236
0.09426651895 0.09908360243 0.8465538621 0.2535110712 -0.1905145198 0.9448273182
0.08099532872 0.1038745418 0.8534408212 0.4482154548 -0.303863138 0.8293312192
0.09147685766 0.09269343317 0.8540472984 0.3523181379 -0.2587707639 0.895386219
0.08610584587 0.09518607706 0.8557615876 0.4607030153 -0.2956429422 0.8344190121
0.07795148343 0.03886336088 0.8508813977 0.3940367103 0.2862867117 0.868337512
0.07947837561 0.04252001271 0.846180439 0.3701826334 0.2667713761 0.887893796
0.07356223464 0.04257107154 0.849288106 0.4385696948 0.2447331101 0.8637351394
0.08533398062 0.04142781347 0.8463568687 0.3076491356 0.2841942012 0.9052854776
0.09072451293 0.04514738172 0.8438335061 0.2220393717 0.223196134 0.9417743087
0.08442974836 0.04780837893 0.8432313204 0.30968979 0.2184672058 0.922677815
0.07931844145 0.04919591546 0.8453161716 0.3631426394 0.1758339852 0.9085780382
0.08748110384 0.05545542389 0.8453301787 0.2840741873 0.09851094335 0.9245522022
0.09215208888 0.07012521476 0.8490234017 0.2442565411 -0.1332560331 0.9296844006
0.09033842385 0.06202278659 0.8468208909 0.2557514012 -0.008668537252 0.9307221174
0.007523131557 -0.00209367834 0.9684485793 -0.05340628326 0.1183958128 0.9915292263
0.001972297207 0.0007467585965 0.9687389135 -0.05340628326 0.1183958128 0.9915292263
0.111703001 -0.008818550967 0.8911675811 0.2205852866 0.5063824654 0.819509089
0.09626761079 -0.01401588507 0.900497973 0.5290669203 0.5299515128 0.6621160507
0.1016763374 -0.01248657238 0.8967354894 0.4494642615 0.5225663781 0.7208338976
0.09348760545 0.005889983382 0.9333351254 0.8680845499 -0.252143383 0.01662797667
0.1027030498 -0.01633233391 0.9020878077 0.4750478566 0.5469790697 0.6427974105
0.101092644 -0.009887894616 0.9081223011 0.5501515269 0.3417370617 0.5183519721
0.0871456787 0.001489128917 0.9063383341 0.8206551075 0.2723034024 0.4726513028
0.09056185931 0.006295291707 0.9269478917 0.8859413862 -0.1439633816 0.116107814
0.09857450426 -0.001911194995 0.9163261652 0.6576859355 0.08444285393 0.3494023383
0.09846476465 -0.003849721747 0.9102637172 0.6206572056 0.2081601918 0.4588187039
0.0932681635 -0.0001176827936 0.9123389125 0.7375563979 0.1583830118 0.3948341906
0.1025981382 -0.008771341294 0.9027011991 0.4894349575 0.3685520887 0.6169555783
0.09362625331 0.002844667993 0.9219409823 0.7925357819 -0.03730808571 0.2224665731
0.09582684189 -0.004025510512 0.9050507545 0.6394645572 0.3109337986 0.5400120616
0.09650444984 -0.005277511664 0.9221695065 0.7172065973 0.09065269679 0.2704382837
0.09874702245 -0.01261897944 0.91409868 0.6101926565 0.3249509335 0.4477694631
0.1191523969 -0.01057783235 0.8917421103 0.1023195758 0.5349996686 0.8284013271
0.1121556461 -0.01366732735 0.8954493403 0.2507874668 0.5561126471 0.7633922696
0.08630915731 -0.003612259636 0.8957067132 0.6470311284 0.3795668483 0.6463099718
0.08408910781 -0.005983917508 0.9058041573 0.7618550062 0.3943910897 0.5101362467
0.1003932804 0.002834053943 0.885586381 0.3565700352 0.3479000628 0.8566107154
0.09953051805 -0.003896170296 0.8950975537 0.4735821784 0.412276268 0.7098101974
0.09323486686 -0.0002320882195 0.8997929692 0.6371503472 0.3376904726 0.6010594964
0.1043119729 -0.007631105836 0.8905156851 0.3466387987 0.4907836318 0.7969143391
0.08154404908 0.01855335198 0.8696618676 0.4756983817 0.3162246346 0.8123769164
0.08920155466 0.01008819882 0.8875840306 0.5613033175 0.2795270085 0.7758508921
0.08519776165 0.01344398409 0.878983438 0.5230847001 0.3013489544 0.7897273302
0.09973046184 0.01404570136 0.8892990351 0.39396137 0.2966538072 0.8533651829
0.1000078246 0.008298587054 0.8904181123 0.4037641287 0.3360411525 0.8156591058
0.100142166 0.001375019434 0.8919762969 0.4215944409 0.3819070756 0.765832305
0.09440658242 0.008038971573 0.8963689804 0.5733858347 0.2933088541 0.6902608871
0.1284136474 0.02866584435 0.8806496859 -0.118156895 0.5638591051 0.7487504482
0.1332260668 0.02871695533 0.8861325383 -0.146357581 0.5142641068 0.7785604
0.1147961691 0.02467022091 0.8846946955 0.115106374 0.336588949 0.8836331367
0.1016009003 0.02410286665 0.8795045018 0.2749604583 0.2628270686 0.9222052693
0.08991709352 0.03014353849 0.8609299064 0.3135639727 0.3259198666 0.8892724514
0.1379699409 0.06354769319 0.8636091352 -0.4584053755 -0.06659771502 0.7064626217
0.1414791048 0.06936474144 0.8625971675 -0.5123731494 -0.212836206 0.7208344936
0.1377917975 0.07382318377 0.8586776853 -0.5013027787 -0.3294113278 0.7436987162
0.1318944544 0.04779407755 0.8676083684 -0.3708412945 0.3468039334 0.634114325
0.1330948025 0.05534812808 0.8647258282 -0.4072278142 0.1515366286 0.664439857
0.130271852 0.03800896928 0.8713014126 -0.323674649 0.5999522805 0.594492197
0.1300587058 0.07951364666 0.8542745709 -0.4633596838 -0.3866271675 0.7916741371
0.127327621 0.05185726285 0.8620812893 -0.3608258069 0.2538362145 0.6689348221
0.1314021498 0.06678261608 0.8573663831 -0.4320803285 -0.137467429 0.7398487329
0.1247051954 0.03582185879 0.8686982393 -0.3011011779 0.6712146401 0.5751569867
0.1292538494 0.0715482235 0.8528120518 -0.4217579365 -0.2564589679 0.7970595956
0.1272367537 0.05858137459 0.8582542539 -0.3744546473 0.08087087423 0.7201899886
0.1246212497 0.04110692441 0.8649640679 -0.3090237975 0.5247273445 0.6260360479
0.1251991391 0.0571131669 0.8508834839 -0.3279058635 0.0278535299 0.8231229186
0.1269556284 0.001251530601 0.8832446933 -0.0481679216 0.3738285601 0.9246898293
0.08446928114 0.008803809062 0.9318885803 0.5628136396 -0.7014021277 0.4307162464
0.087032184 0.01114239078 0.9235922098 0.5393244028 -0.5229878426 0.5119923353
0.09162922204 0.01188012585 0.9341034889 0.5531491041 -0.6444677114 0.4586313069
0.09635923058 0.01923277043 0.9003442526 0.4505440891 0.01069528516 0.7720057964
0.09663552046 0.02030325867 0.8941403031 0.4329275787 0.1231819242 0.825809896
0.07993082702 0.009441637434 0.9359670877 0.8229955435 -0.4679290354 0.06904416531
0.08987850696 0.01814253442 0.9395360351 0.7008807659 -0.5780909657 0.2172014713
0.08280235529 0.01562227216 0.9397627711 0.8731834292 -0.4176128507 -0.01553475112
0.1244412214 0.03322887048 0.8522587419 -0.3794205189 0.6801172495 0.6197443604
0.1240420863 0.02407764457 0.8652431965 -0.2383925915 0.4964006841 0.7921455503
0.1309472919 0.05305924639 0.8431937099 -0.4024199545 0.1112796888 0.8977072239
0.1356108487 0.05077661946 0.8459919691 -0.4572738707 0.1560223699 0.8629936576
0.1359709352 0.04579591006 0.8491598964 -0.4805587232 0.3207674623 0.80031389
0.1430933625 0.04731485993 0.8504895568 -0.5663751364 0.2150508761 0.7680438757
0.1402278095 0.03922611848 0.8548482656 -0.6114245057 0.4948720932 0.5923804641
0.1295047998 0.04579459876 0.8463976979 -0.3996956348 0.3232558668 0.8559751511
0.1325269938 0.001392251928 0.8878411055 -0.1629989296 0.3751394153 0.8999807239
0.1288915724 -0.00373255508 0.8899173141 -0.07082677633 0.4547177553 0.8696185946
0.1133974269 0.03915645182 0.8419953585 -0.1902152002 0.4015471339 0.8629220724
0.1100451574 0.04492402449 0.8399496078 -0.1023051888 0.2552032173 0.956404984
0.1203766316 0.03588385507 0.8645183444 -0.2299586684 0.6307923198 0.6327131391
0.1143018827 0.04840854928 0.854752481 -0.1415961981 0.2650876045 0.767600894
0.1089566872 0.04581303149 0.8464695215 -0.06510613859 0.2579210103 0.8799153566
0.1126983538 0.03887012228 0.8524671197 -0.1194604784 0.4653452039 0.7971940637
0.1073090434 0.03989822417 0.8480629921 -0.03771326318 0.4077912271 0.8590957522
0.1149438694 0.03556738794 0.8608671427 -0.1468712986 0.6104056835 0.6845091581
0.1016227156 0.04185156152 0.8450403214 0.05036910251 0.3408213258 0.9031785727
0.1095338166 0.03509170935 0.8576005101 -0.07034754008 0.5550882816 0.7387945056
0.1028526574 0.05756506324 0.8412563801 0.02847961709 -0.05177112669 0.954769671
0.1009599268 0.04974697903 0.841435194 0.05807007849 0.1299528033 0.9524209499
0.0962254405 0.05422181264 0.8412366509 0.1328625232 0.0492560789 0.9609365463
0.1087849662 0.02384425327 0.8814778924 0.1613881439 0.3281376362 0.8822954893
0.08733952045 0.0321271494 0.8545660973 0.2948032618 0.3754800558 0.8654844761
0.09873817116 0.02720239013 0.8693650961 0.2142349035 0.3770956099 0.8650975227
0.1097199619 0.02605774812 0.8714401722 -0.03079502098 0.6479867697 0.7168495059
0.1123587266 0.02429295518 0.8769801855 -0.02039578557 0.6016225219 0.7424210906
0.1254891306 0.03080911748 0.8727195859 -0.2602722347 0.7462780476 0.5802813768
0.121249713 0.0275467094 0.8766925931 -0.08778002113 0.5483402014 0.7381701469
0.09987091273 0.02887845412 0.8635084033 0.1055983976 0.539083004 0.7762298584
0.1053047329 0.02755150944 0.8671715856 0.02548889443 0.6008989215 0.7442144156
0.09568573534 0.03104984574 0.8572624922 0.1566663533 0.463663727 0.8286767006
0.09353120625 0.03291960061 0.8518067002 0.1759998053 0.4066457152 0.8738555312
0.1116008759 0.007704032119 0.8790598512 0.193746686 0.3092544079 0.9298722744
0.1079727411 0.004388959613 0.882321775 0.2399521172 0.3446657956 0.9036911726
0.1143555269 0.002544079209 0.8818823099 0.1756627411 0.3565716743 0.9152680039
0.1079574972 -0.003545965301 0.886846602 0.2377899736 0.4490308762 0.8579159975
0.06225712225 0.0642516464 0.8597001433 0.6717510223 -0.1239266619 0.6964544654
0.07318344712 0.07065191865 0.8559091091 0.5140727758 -0.219982326 0.7765815854
0.07828124613 0.07356559485 0.8541033268 0.4405856133 -0.2633851469 0.8142321706
0.06335151941 0.05589619651 0.854726553 0.6658240557 0.04191347212 0.7375483513
0.06794965267 0.0677992031 0.8578338623 0.5893682241 -0.1781263947 0.737416923
0.0872290656 0.06747505069 0.8463332653 0.2864024043 -0.1123396903 0.9233387113
0.09086886048 0.07633323967 0.84976542 0.2603566647 -0.2571345866 0.9174132347
0.07299667597 0.06317632645 0.8522394896 0.5214957595 -0.07474323362 0.802652657
0.08112101257 0.06566529721 0.8484521508 0.3830815554 -0.1023706198 0.8731527925
0.0794288367 0.05945310742 0.8465130925 0.3958686292 0.01398174278 0.8818247318
0.08863649517 0.005081056152 0.8940477967 0.6163779497 0.2959409356 0.7107023597
0.09191586077 -0.003853341332 0.8929778337 0.5406974554 0.4287102222 0.7200934291
0.09265609086 -0.009173545986 0.8977085352 0.5605094433 0.4805210829 0.664604187
0.08847787976 -0.01017269585 0.9013214707 0.6519498825 0.4655029178 0.5847125053
0.1309509426 0.08842744678 0.8618301749 -0.5086934566 -0.4364520311 0.7420744896
0.1361127198 0.08288168907 0.861166358 -0.5103576183 -0.4209428728 0.7497221828
0.09792344272 0.02427771688 0.85147053 0.1213361099 0.4193552434 0.8975256681
0.1042447835 0.008313051425 0.8777070642 0.2439958155 0.3409570754 0.9045311213
0.1001557261 0.01851469465 0.860938549 0.1659926474 0.3912641406 0.8998766541
0.1065017581 0.01232330222 0.871350646 0.1838949472 0.3444167972 0.9165522456
0.1032195538 0.01520089526 0.8664911389 0.1781091541 0.3675950468 0.9076092839
0.1061804816 0.006744495593 0.8874984384 0.2705397308 0.3586494327 0.8761972785
0.09882038832 0.02088079602 0.8888869882 0.4043853581 0.2417203784 0.8792539239
0.1115772054 0.009478162043 0.8874453902 0.1801713556 0.3234549463 0.8903658986
0.1159579381 0.005695402157 0.8869651556 0.1032563448 0.3503004014 0.894249022
0.1359550506 0.005754495505 0.8844554424 -0.1859493852 0.3961003125 0.8886787295
0.1451077759 0.02267244644 0.8899245262 -0.3086339235 0.5081045032 0.7869169116
0.1273185909 0.02638336085 0.8870815635 -0.05705047399 0.4191678762 0.8332734704
0.1238026842 0.0221273005 0.884706378 -0.03173101693 0.3547659218 0.8782297969
0.1346759349 0.02020765655 0.8844066858 -0.2072331905 0.4011752903 0.8567368984
0.1402990371 0.02594032325 0.887660861 -0.2546502054 0.4932953119 0.7932083011
0.1425016969 0.03650923818 0.8664987087 -0.5446971059 0.5675339699 0.5870338678
0.1439128369 0.04196002707 0.870488584 -0.4959965348 0.4345668554 0.6548333168
0.1426133662 0.04748147726 0.8567258716 -0.673582077 0.3327020109 0.6097937226
0.1423891485 0.04207206517 0.8626495004 -0.6087981462 0.4611546695 0.6042389274
0.1458812952 0.04828853533 0.8721728325 -0.4473593533 0.251637876 0.7179414034
0.1453795284 0.05669033155 0.8586805463 -0.6099735498 0.06839530915 0.6983647943
0.1443886757 0.05099462718 0.8611069322 -0.5968049765 0.2180903852 0.6674733758
0.1439562291 0.03798959404 0.8793631792 -0.3707897663 0.516608417 0.6708093882
0.1376442462 0.03357969224 0.8778033257 -0.3184352219 0.677041471 0.61955899
0.1450798512 0.0429202579 0.8768148422 -0.3958435357 0.3867291808 0.6888895035
0.147757411 0.0555453971 0.8699361682 -0.4623208046 0.05613692477 0.7368817329
0.1489911228 0.0649015829 0.8638923764 -0.5140038729 -0.1820100397 0.7733000517
0.1454162002 0.05925828218 0.8644721508 -0.4836531579 -0.01327547804 0.7472980022
0.1252374053 0.04168004543 0.8463280201 -0.3731646836 0.4082844555 0.824370563
0.1323280185 0.04031774029 0.8510295153 -0.4887832403 0.4847138822 0.6990189552
0.119096294 0.03501344845 0.84683007 -0.3073943853 0.5382803082 0.7766925693
0.1163565964 0.03083309531 0.8663734198 -0.1653673351 0.6851946115 0.6498039365
0.1045416966 0.03034105897 0.8593273759 0.01387615502 0.5338369012 0.803900063
0.1164574325 0.02682347968 0.8725678325 -0.1464449167 0.7207471132 0.6572825909
0.09945590794 0.03397380561 0.8504188061 0.07144278288 0.4358682632 0.861808598
0.10707701 0.03028454259 0.8451890349 -0.0963075906 0.5734696984 0.7859969139
0.1008928865 0.02851149812 0.8463845849 0.01317005232 0.5223656297 0.8280135989
0.09737914056 0.04323204979 0.8415629864 0.1191597208 0.2658214569 0.9539514184
0.09789858013 0.03659728542 0.844697237 0.09856133908 0.3350223005 0.9337638021
0.1117378026 0.01800370961 0.8853060603 0.155226469 0.2649078071 0.9232442379
0.1167944893 0.01420846116 0.8866692185 0.08325674385 0.2785370052 0.9109708667
0.105846636 0.01913344301 0.8875290155 0.274166137 0.2520265281 0.8974810243
0.1084449962 0.02020600438 0.8586333394 0.006667801179 0.5433925986 0.797136724
0.1079982147 0.02588817291 0.8494656682 -0.09344475716 0.6423135996 0.7391873002
0.1042005941 0.02236997336 0.8548522592 0.0385479033 0.523683846 0.818524003
0.07604116201 0.09491757303 0.8537093401 0.4551826715 -0.3791167736 0.8009415865
0.1295164376 0.01782903261 0.8761392832 -0.1854095757 0.3428175449 0.9099540114
0.1283351779 0.02209502459 0.8696925044 -0.2419911623 0.4375385642 0.8251872659
0.1284081489 0.03089211881 0.8576064706 -0.3834126592 0.6063343883 0.6561145186
0.1308395565 0.02622138709 0.8654099107 -0.3359701931 0.4857254624 0.7513767481
0.1335429847 0.03031094186 0.86207968 -0.4447526634 0.5112020373 0.6781346202
0.1352872699 0.03532322124 0.8566483855 -0.5534223318 0.5723645687 0.5826801062
0.1399712265 0.03402201086 0.8600592017 -0.5738119483 0.5030882955 0.5989293456
0.1363623887 0.0253049396 0.8694719672 -0.3846412003 0.415130049 0.7618948817
0.1364978254 0.02041531727 0.8755581379 -0.3088650107 0.4046317935 0.8259762526
0.1398670226 0.02904545888 0.8661637306 -0.493096143 0.4868800342 0.6676653624
0.137736097 0.01567105949 0.8810517788 -0.2829952836 0.3988192379 0.8650866151
0.1430517584 0.02989343554 0.8726732731 -0.4660408199 0.5747785568 0.6481597424
0.1426309347 0.02401583456 0.8752071857 -0.4277823269 0.5307604074 0.7097027898
0.1435170621 0.0315663293 0.8789501786 -0.3975819051 0.6358537078 0.6471600533
0.1469600946 0.0283502955 0.8882638216 -0.3446449339 0.5872691274 0.7312386036
0.1442048699 0.02085765079 0.884129405 -0.3450583518 0.5286785364 0.7735462189
0.1416843235 0.008977426216 0.8882375956 -0.2697484493 0.3692436814 0.8834019303
0.1439931691 0.01626375131 0.8893651962 -0.2923807502 0.442417562 0.8321600556
0.1225268915 0.01230862737 0.8781760931 -0.04961323738 0.3303103447 0.9347837567
0.1311220974 0.01084162109 0.8820879459 -0.1862317175 0.330058068 0.9214807749
0.1207814887 0.00498316763 0.8805236816 0.03858543932 0.3409936726 0.932145834
0.1256996393 0.01034439635 0.8845341802 -0.08272308111 0.304430902 0.9287160039
0.06839768589 0.07574088126 0.8601731658 0.6086384654 -0.2835343778 0.707865715
0.08261014521 0.07808509469 0.8536128998 0.3844144642 -0.3288975954 0.8380739689
0.07833881676 0.08046715707 0.8575814366 0.4846737683 -0.3283106983 0.7856224179
0.07183018327 0.09133981168 0.8636745811 0.5284012556 -0.4465411901 0.7181853652
0.07786694914 0.08726104349 0.8593848348 0.4771368206 -0.4110482037 0.7671592832
0.08134582639 0.09285771102 0.859593451 0.4668344557 -0.3625150323 0.8048375249
0.07719181478 0.09576817602 0.8644884229 0.4967384338 -0.3732176721 0.781581521
0.08698060364 0.08361729234 0.8543097377 0.3600365222 -0.3641363084 0.8541185856
