# .PCD v0.7 - Point Cloud Data file format
VERSION 0.7
FIELDS x y z normal_x normal_y normal_z
SIZE 4 4 4 4 4 4
TYPE F F F F F F
COUNT 1 1 1 1 1 1
WIDTH 512
HEIGHT 1
VIEWPOINT 0 0 0 1 0 0 0
POINTS 512
DATA ascii
-0.1487867385 -0.110516578 1.060141921 0.5076813102 -0.8563587666 0.0869640708
-0.1532435566 -0.1052493528 1.062883377 0.5970035195 -0.8005197048 -0.03144869953
-0.1530954093 -0.1107383519 1.057928562 0.5318124294 -0.8431708217 0.06939076632
-0.1872777194 -0.07671248168 1.004395843 0.2318337709 0.09938091785 0.9667255282
-0.189966917 -0.07147413492 1.003863454 0.2446675301 0.04927152395 0.9663005471
-0.1921124607 -0.07757199556 1.003229618 0.2347499579 0.1242861748 0.9634242058
-0.07217729092 -0.09095078707 0.9871134758 -0.2196689099 0.247479707 0.942602396
-0.04809983075 -0.06109357998 0.98874259 -0.2222535163 0.004768210929 0.9745186567
-0.1872364581 -0.1112982035 1.008594036 0.3190941513 0.3187169433 0.8909246922
-0.1892420202 -0.1161304265 1.014346123 0.3506508768 0.3482319713 0.8665323257
-0.1911316961 -0.1187788844 1.019738555 0.3743027449 0.3694836199 0.8482347727
-0.1919606179 -0.1097820699 1.01124084 0.3339269757 0.325633347 0.8819673061
-0.1761182547 -0.1144345328 1.022527695 0.3920929432 0.1022275314 0.6872341037
-0.1717758924 -0.1106534153 1.023211956 0.3692297935 -0.01099020615 0.6624596119
-0.1697718501 -0.1118363589 1.0291363 0.4066602588 -0.1273511499 0.5621173978
-0.1661646664 -0.1106991172 1.033542871 0.420503974 -0.2652742267 0.4806933999
-0.1711568832 -0.1069729552 1.017291903 0.3144897521 0.04165541381 0.7543196678
-0.1753167808 -0.1077579111 1.01120162 0.2898962498 0.2122401148 0.8642080426
-0.1789102405 -0.1137676984 1.016153574 0.3560253084 0.242854625 0.7972337008
-0.1756088436 -0.1184852794 1.036070228 0.4496212006 -0.1052412614 0.5263736844
-0.1830730438 -0.1174421906 1.016734481 0.3770406246 0.3277518749 0.812618494
-0.1772422045 -0.1167839691 1.027083278 0.4173047841 0.05990280956 0.6393716931
-0.1617402583 -0.1129383966 1.046651721 0.4959218204 -0.5286842585 0.2660112381
-0.1866866946 -0.1210330427 1.022387743 0.3952671289 0.3061444461 0.787491262
-0.1706394404 -0.1146654859 1.033596277 0.4442712069 -0.162471354 0.5003492236
-0.1809687614 -0.119550921 1.029364228 0.4234015644 0.09279500693 0.6524264216
-0.1647567451 -0.1134699509 1.042022228 0.477683574 -0.4013776183 0.3476848006
-0.168493703 -0.1145423129 1.037855983 0.4607034028 -0.2680564225 0.4316388965
-0.1922987849 -0.07593923807 0.9979388714 0.2447715849 0.09747625142 0.9615058899
-0.1836005449 -0.05856453255 0.9981562495 0.2668982446 -0.1173199192 0.9543781281
-0.1864443719 -0.06350880861 0.9986964464 0.2600035071 -0.05367111042 0.9575858712
-0.1889770925 -0.06838588417 0.998771131 0.253644228 0.007311420981 0.9598600864
-0.1211025938 -0.04648366943 0.9808862209 0.3751513958 -0.4634340703 0.7992181182
-0.1911042184 -0.08859849721 1.007253051 0.2531075776 0.1981279105 0.9451646805
-0.189723447 -0.083209306 1.005814791 0.2373010516 0.1527656317 0.9585698247
-0.02570358291 -0.1706869006 1.076999903 -0.1028780416 0.3632795513 0.9259827733
-0.114931643 -0.2080985457 1.081534743 -0.2842679024 -0.3569348454 0.8873952627
-0.1249652952 -0.2087065428 1.077511072 -0.3389888704 -0.398021698 0.8515608311
-0.1210860834 -0.2125119567 1.077329159 -0.3308587968 -0.4002836049 0.8534762859
-0.02300200611 -0.1831500679 1.082239151 -0.1028780416 0.3632795513 0.9259827733
-0.01773014292 -0.1668789834 1.076722383 -0.1028780416 0.3632795513 0.9259827733
-0.02303431369 -0.1666549891 1.076950788 -0.1028780416 0.3632795513 0.9259827733
-0.02107118256 -0.1728442013 1.079274893 -0.1028780416 0.3632795513 0.9259827733
-0.02132155001 -0.1803892255 1.077000022 -0.1028780416 0.3632795513 0.9259827733
-0.02557902969 -0.1781447381 1.080935836 -0.1028780416 0.3632795513 0.9259827733
-0.05340514332 -0.05883620307 0.9874421954 -0.2392222881 -0.05882745981 0.9677986503
-0.05349728465 -0.06393155456 0.9835031033 -0.2398658097 -0.009658401832 0.9700759053
-0.06302227825 -0.05184341222 0.9870273471 -0.2682869732 -0.2228084952 0.9334750772
-0.05802230537 -0.05572139844 0.98797822 -0.2513108253 -0.1328987628 0.9574084282
-0.05798914656 -0.06599867344 0.9795748591 -0.2557632327 -0.03352802992 0.9599864483
-0.05833929777 -0.06047840416 0.9834780693 -0.2564593852 -0.09145379066 0.955380559
-0.1301232725 -0.07436558604 0.9736652374 0.4754020572 -0.1929157227 0.8417896628
-0.1263779104 -0.0795455128 0.9727152586 0.3941301405 0.03291427344 0.8954584599
-0.02811629139 -0.1905192584 1.084161162 -0.1033028439 0.3629398644 0.9260674119
-0.03293789923 -0.1951053888 1.08187151 -0.10540355 0.3612601161 0.9264861345
-0.05028316006 -0.1911117435 1.077235222 -0.06350563467 0.3368346691 0.9392591715
-0.04353170842 -0.1954439729 1.080485344 -0.08764513582 0.3511877954 0.931913197
-0.03650516644 -0.1902919561 1.079334855 -0.09455803782 0.3566270471 0.9292842746
-0.03904547915 -0.1970635056 1.081925154 -0.09897120297 0.3573845923 0.9285660386
-0.0424371995 -0.1886776686 1.07776463 -0.08213929832 0.3503561318 0.9328483343
-0.0366146639 -0.185560137 1.077250123 -0.08819750696 0.3543420136 0.9307641983
-0.02624776587 -0.1822700053 1.077322483 -0.1019317359 0.3624817133 0.926373601
-0.03145227209 -0.1873013079 1.078763723 -0.09944355488 0.3599544764 0.9275614023
-0.1078482643 -0.2207415849 1.079939723 -0.2485933304 -0.3325769305 0.8972477913
-0.1163591966 -0.2220442593 1.07785666 -0.314114064 -0.4127875566 0.8492721319
-0.05639634654 -0.1943780184 1.084332466 -0.03238947317 0.3157884479 0.9462562203
-0.05423330888 -0.1918962747 1.079927683 -0.04046045616 0.3349820375 0.9403623343
-0.04773571342 -0.1892323047 1.082784653 -0.076665923 0.3470124304 0.9331599474
-0.05061282963 -0.1953134686 1.085785389 -0.06460173428 0.3322619796 0.9395263791
-0.05370912701 -0.1994649917 1.08740139 -0.0499998033 0.3195546865 0.9451179504
-0.1150163114 -0.2152919024 1.078410625 -0.3078582883 -0.3894566894 0.8658884168
-0.1016663462 -0.2159841508 1.083952785 -0.2061293572 -0.2607273757 0.9353812337
-0.1074805707 -0.2148703784 1.081843138 -0.2496457696 -0.3175232708 0.9060929418
-0.09889644384 -0.2210236937 1.083649516 -0.1780826151 -0.2503334284 0.9442343116
-0.09740422666 -0.2135618627 1.086738825 -0.1743952781 -0.2210061699 0.9571697712
-0.09102241695 -0.2158394009 1.087073445 -0.1086357534 -0.1371151805 0.9801037908
-0.04824849591 -0.06874745339 0.9840077758 -0.2306472808 0.04640277848 0.9715981483
-0.05369308963 -0.07059924304 0.9796999693 -0.2501348555 0.02762827836 0.9675359726
-0.05092051625 -0.0773383379 0.9827420115 -0.262134999 0.08626756817 0.9607108831
-0.1886893958 -0.1068609133 1.005629778 0.3050478101 0.3022003174 0.90309304
-0.1795360148 -0.06456942111 1.002284527 0.2645046115 -0.1010300815 0.9568521976
-0.184805125 -0.0604272522 1.003445268 0.2461265773 -0.06938683987 0.9614251852
-0.1809298694 -0.0564249754 1.004321456 0.239636451 -0.112522617 0.9580891728
-0.1891675144 -0.06501039863 1.002996087 0.2511666417 -0.01725807041 0.9657558203
-0.1723200828 -0.04754212126 1.006330848 0.2249514759 -0.2079401016 0.9507449865
-0.1888280064 -0.1044383794 1.011003375 0.3149316609 0.3102982938 0.8935747147
-0.1926558465 -0.09853174537 1.010018468 0.2959030271 0.2823900878 0.9119237065
-0.1808349639 -0.1097200066 1.010381103 0.3088073134 0.3155212402 0.8918046355
-0.1775438786 -0.1038571447 1.007184744 0.2558021545 0.2574160993 0.930772543
-0.1842501014 -0.1050792858 1.009976625 0.2996363044 0.2957922816 0.9008418322
-0.1829435229 -0.09931653738 1.007515669 0.2580375671 0.2470919341 0.9321591258
-0.18588911 -0.0861440897 1.006415725 0.2339849025 0.1658821106 0.9574977756
-0.1860558391 -0.09449712187 1.00716126 0.2496446371 0.2250829041 0.9412750602
-0.1942293793 -0.09409695864 1.006738663 0.2935976982 0.2597390711 0.9196267128
-0.1935700923 -0.08326716721 1.000697851 0.2587329745 0.1665247083 0.9485628605
-0.1922779977 -0.1012239084 1.00463891 0.3003395796 0.2786788642 0.9100539684
-0.1806667447 -0.09521599114 1.006012917 0.2377904207 0.2377761602 0.9416354299
-0.1808346063 -0.08911339194 1.005391002 0.2300888598 0.1939193755 0.9525601864
-0.1011810973 -0.2082741559 1.087316036 -0.2020023018 -0.2570303082 0.9411460161
-0.1599923819 -0.1166988611 1.050881028 0.501712203 -0.5861302614 0.2267362773
-0.1635640711 -0.1183375716 1.047207236 0.485147357 -0.4553883076 0.3079538047
-0.1676076353 -0.1191812232 1.042853594 0.4684429169 -0.3134918213 0.395935744
-0.1727027744 -0.1234169602 1.037977815 0.4409679174 -0.1155016124 0.5192374587
-0.1832271367 -0.124018468 1.026339769 0.4007199109 0.2441733181 0.7419805527
-0.183586359 -0.1318091005 1.027436614 0.3836075068 0.3034536541 0.7800481915
-0.1769304425 -0.1285054833 1.034234762 0.4149826169 0.05830125883 0.6277176738
-0.1818425208 -0.1373940855 1.030457973 0.3787619174 0.2782456875 0.7654291987
-0.1789337397 -0.1249819547 1.031319857 0.4146904051 0.1047574878 0.6558526754
-0.1901874542 -0.1244202256 1.022274256 0.3890857399 0.3896226883 0.8347110748
-0.1868163943 -0.1352874339 1.025945306 0.3705594242 0.3969159126 0.8395613432
-0.1817294359 -0.1402030587 1.025396466 0.3465073109 0.3998152316 0.8439002633
-0.1691382676 -0.1263064146 1.042136908 0.4465566278 -0.2114676833 0.460523814
-0.1718709022 -0.1290959418 1.039236546 0.4289590716 -0.09486413747 0.5333757401
-0.1705877632 -0.1298389435 1.033954859 0.3999073207 -0.003998736851 0.5930141807
-0.1760580391 -0.1350596994 1.029324889 0.3712853789 0.2036444545 0.7222385406
-0.05197772756 -0.07308122516 0.9899613261 -0.2499382049 0.07337507606 0.9634481668
-0.05602602661 -0.07656379789 0.9891896844 -0.2478591949 0.09811695665 0.9616592526
-0.05965319648 -0.07991069555 0.988469243 -0.2469003648 0.120889008 0.9597944021
-0.04868433625 -0.08071795106 0.9881947041 -0.2745441198 0.1030977294 0.9550999403
-0.04531014338 -0.07743876427 0.9859637618 -0.2606032193 0.08330260217 0.9612224102
-0.04555912688 -0.07101738453 0.9880806208 -0.2460485697 0.05753098056 0.9665725231
-0.04586504772 -0.06548412144 0.988928318 -0.2290370911 0.03720956668 0.9723772407
-0.05119869113 -0.08969783783 0.9894713759 -0.2837781906 0.147633642 0.9470104575
-0.05156265572 -0.08561001718 0.9866397977 -0.2779947519 0.141240567 0.9488871694
-0.05736409873 -0.09434632212 0.9910595417 -0.2706981003 0.1877195239 0.9428965449
-0.06319583207 -0.08579894155 0.9879682064 -0.252227217 0.1522240788 0.9554187655
-0.05635594204 -0.0884367004 0.989441216 -0.2799220979 0.1380860806 0.9496998787
-0.1394901723 -0.08334948868 0.9854932427 0.3939735293 0.1089331731 0.9054872394
-0.1346179098 -0.08190694451 0.9807766676 0.4151707888 0.05608505011 0.8969384432
-0.1438951939 -0.08623740822 0.9885404706 0.40574193 0.08032841235 0.8929108381
-0.1450440884 -0.0906945914 0.9897168875 0.3434305191 0.2003172189 0.9124062061
-0.1221904606 -0.0520153679 0.9812287092 0.4070133269 -0.4038173854 0.7981238961
-0.1164501905 -0.05889362469 0.9706817269 0.1804339141 -0.313043654 0.9272433519
-0.1180091724 -0.05292172357 0.9743853211 0.253472209 -0.384424746 0.8754205108
-0.1185200214 -0.04863255844 0.9766772985 0.2847378552 -0.4279032052 0.8479994535
-0.1226767302 -0.05588544533 0.9764178991 0.3889557123 -0.3657434583 0.8383257985
-0.1230807677 -0.0627072379 0.9738032818 0.3726026714 -0.2853072584 0.8749338984
-0.1195411906 -0.0659436211 0.9695509076 0.2579435706 -0.2681745887 0.9201472998
-0.1107011512 -0.0554100126 0.9777737856 0.1104398221 -0.3055568933 0.9050596356
-0.107980445 -0.06039956957 0.9758635759 0.00130415475 -0.2193949968 0.942723155
-0.04273752868 -0.1979125589 1.087426901 -0.08857890218 0.3456195891 0.9338191748
-0.0426975973 -0.1870175451 1.082791209 -0.1021712571 0.3624025285 0.926371634
-0.04489681497 -0.1929659992 1.08537209 -0.09130634367 0.3500286341 0.9319316745
-0.05142199993 -0.2002119571 1.081164837 -0.06136901304 0.325211525 0.9435654879
-0.04057466611 -0.2036380172 1.084706664 -0.09910568595 0.3515228033 0.9306666851
-0.04592481628 -0.2033343613 1.083677053 -0.08119631559 0.337318629 0.93745327
-0.04865495488 -0.1960376799 1.079455972 -0.06843423098 0.3363913596 0.9387286901
-0.04740800709 -0.2095354199 1.086643934 -0.07941997796 0.3278179467 0.9412600994
-0.03767792881 -0.1969698966 1.087981343 -0.08821670711 0.3488399684 0.9326351285
-0.11195907 -0.06898536533 0.9698392749 0.02782183699 -0.1473042816 0.9798641205
-0.1164196432 -0.07165636122 0.9672899842 0.1148288324 -0.1486659497 0.9790836573
-0.05366253108 -0.2109040171 1.085814118 -0.02100604214 0.3024525344 0.9521503448
-0.05402732268 -0.2043360323 1.082499027 -0.02705619857 0.3092771769 0.9499366879
-0.1308431923 -0.2089650929 1.080863833 -0.3417064548 -0.3960565031 0.8519983888
-0.1096469387 -0.2082318515 1.084246159 -0.2627849877 -0.3342569768 0.9038348794
-0.113537699 -0.2226624638 1.084352851 -0.3089828789 -0.399525106 0.8630304337
-0.1183682382 -0.2135866731 1.082589626 -0.3275819123 -0.3911859691 0.8596458435
-0.04163650796 -0.1835214645 1.078672171 -0.0847382322 0.3563576937 0.9302014112
-0.0295035094 -0.1734428257 1.079858303 -0.1028780416 0.3632795513 0.9259827733
-0.030647723 -0.1857330203 1.084303021 -0.1028780416 0.3632795513 0.9259827733
-0.0319064185 -0.1777768135 1.080997825 -0.1028780416 0.3632795513 0.9259827733
-0.03444975615 -0.1915972829 1.085312486 -0.1034161896 0.3620992005 0.9263842106
-0.03657097369 -0.1831893772 1.081915498 -0.1028780416 0.3632795513 0.9259827733
-0.0315612182 -0.1826095581 1.077000022 -0.09499750286 0.3585790396 0.9285132289
-0.03581374884 -0.1794207543 1.077463627 -0.096690543 0.3595888913 0.9279695749
-0.08853675425 -0.2108688504 1.089037418 -0.07777386159 -0.09566619992 0.9873152971
-0.09298923612 -0.2090714872 1.090332031 -0.132937178 -0.1734973639 0.9724247456
-0.05857083201 -0.2118400037 1.090000033 0.008344336413 0.263982892 0.9627530575
-0.06308673322 -0.216989398 1.089083672 0.02144289203 0.2018423527 0.9762009978
-0.08192744106 -0.2111027986 1.090000033 -0.007483727764 0.008252740838 0.9960428476
-0.07938400656 -0.2139402777 1.087000012 -0.003952761646 -0.00124092726 0.9924432635
-0.07293459773 -0.2050952464 1.088438392 0.03396361321 0.1756899804 0.9810182452
-0.06657336652 -0.2008031607 1.086508274 0.0154632479 0.2475027591 0.9655403495
-0.06736630946 -0.2089390904 1.090000033 0.04692658782 0.2277510613 0.971226275
-0.1471669376 -0.0656716004 0.9946727157 0.3902445734 -0.1661977917 0.8991529346
-0.1472345293 -0.05375527591 0.9980512857 0.3591045141 -0.2611158788 0.894339025
-0.1519849449 -0.05742787942 0.9974199533 0.332385689 -0.2314123064 0.910338521
-0.1428489536 -0.05664959177 0.9959856272 0.4235910177 -0.244258821 0.8687799573
-0.1806995571 -0.07878824323 1.003043771 0.261136353 0.1169972494 0.95734483
-0.1777679622 -0.07000733167 1.001515388 0.2700070739 -0.03422156721 0.9546276331
-0.1841590405 -0.06935530901 1.003290534 0.2487745881 0.00595480809 0.9654310346
-0.1545021534 -0.06562205404 0.9940394163 0.2575531006 -0.1997348219 0.9420080781
-0.1550762057 -0.0763291195 0.9941800833 0.2758353055 0.01750851609 0.9386616945
-0.1521408409 -0.08085756004 0.9935906529 0.3471521139 0.0817374438 0.9212116599
-0.1474176347 -0.07580024749 0.9926232696 0.4258482754 -0.05881732702 0.9007258415
-0.1491344422 -0.08573281765 0.9909988642 0.389390111 0.09789755195 0.9012916088
-0.1252308935 -0.04723162204 0.983278513 0.4661572874 -0.4223178029 0.7770901322
-0.1368416399 -0.0486734882 0.9942728877 0.4629558623 -0.2950972617 0.8338348269
-0.1850538254 -0.1243805885 1.016918778 0.3559331298 0.3761164844 0.8536040783
-0.1845576018 -0.1291936487 1.019827485 0.3682736754 0.3978357613 0.8401515484
-0.1483453065 -0.1024962142 0.9995911717 0.3026018143 0.2369069606 0.9214856625
-0.1486153901 -0.09300697595 0.9936798215 0.3311384618 0.2251870483 0.9155671597
-0.1489652842 -0.1142120138 1.007290363 0.2689844966 0.1649854183 0.8578210473
-0.1494832188 -0.1113220304 1.012952089 0.3150755763 0.04940956831 0.7638827562
-0.1505501866 -0.1134106889 1.024615288 0.3603659272 -0.1852928996 0.5832150578
-0.1522545964 -0.1180614084 1.016571522 0.3313640058 0.02982028387 0.73489815
-0.1518094242 -0.1129422933 1.035742402 0.4227114618 -0.4052332044 0.4086349905
-0.154154256 -0.1175540239 1.032479167 0.4211165309 -0.2824778557 0.4862807095
-0.1509017944 -0.1169986799 1.011468768 0.2980018854 0.1140407994 0.8074039817
-0.1536435336 -0.122027047 1.009244323 0.30394575 0.2222592235 0.8714736104
-0.1552942693 -0.1235369146 1.014539361 0.3400839865 0.1401647776 0.7986412644
-0.1529072225 -0.1129729226 1.043519497 0.4676303566 -0.5542843342 0.2887355387
-0.1546949744 -0.1213063672 1.019971728 0.3630591035 0.006729354151 0.7015784979
-0.1532130539 -0.1171015874 1.027674437 0.3917486072 -0.1960396469 0.5577912927
-0.1308877766 -0.08969215304 0.9797856808 0.3344265819 0.1812617779 0.9226875305
-0.1383996159 -0.09955386072 0.9872754812 0.2973577678 0.2137769461 0.9272765517
-0.1479834616 -0.1101301014 0.9958409667 0.2568921745 0.25233531 0.931728065
-0.1370830536 -0.09470976144 0.9843922853 0.3143848181 0.2034988701 0.9243183136
-0.1407896131 -0.09129095078 0.9864968657 0.3302813768 0.2101471722 0.918753624
-0.1366078109 -0.08970747888 0.982999146 0.3346097171 0.1963920742 0.9199542403
-0.147195518 -0.1051671058 0.9942188263 0.2767954469 0.2443811893 0.9276008606
-0.1436830759 -0.1006945074 0.9906321764 0.2932904363 0.2292151451 0.925676465
-0.1284875572 -0.0848884061 0.9758471847 0.3501520753 0.1676771045 0.9206577539
-0.1468286365 -0.09750733525 0.9944961071 0.3130647242 0.2368275523 0.9189499617
-0.1433595568 -0.1025599241 0.9955873489 0.2970152795 0.2356167436 0.9237098098
-0.1654877216 -0.1252867281 1.037521124 0.4262870848 -0.1808698177 0.4900143445
-0.1610757858 -0.1250268072 1.029922962 0.4067880809 -0.0984891355 0.5829353333
-0.1578683704 -0.1271043122 1.017761946 0.3654439449 0.1075823233 0.7620345354
-0.159743309 -0.1305624694 1.011187315 0.3336006105 0.288492918 0.8873078823
-0.160232082 -0.1220770404 1.036962748 0.437823087 -0.2697834373 0.4579740167
-0.1652202606 -0.1273275465 1.031037807 0.4004523456 -0.04323106632 0.5968645215
-0.1663190424 -0.1328333765 1.016996026 0.340084672 0.2871916294 0.841514051
-0.1625794917 -0.122067742 1.041437626 0.4499668777 -0.3231338859 0.4012708366
-0.1692273319 -0.1320113093 1.024913788 0.364846319 0.1688150764 0.7313700914
-0.1654474735 -0.1307151169 1.021547914 0.3610092998 0.1701542437 0.7581443191
-0.1547638178 -0.1144838557 1.048838496 0.5008152127 -0.636644721 0.2152888626
-0.1714724451 -0.1350695193 1.020211697 0.3396948874 0.3156103492 0.828089118
-0.1578435302 -0.1180953011 1.044097662 0.4733099341 -0.4729215503 0.3192387819
-0.1742977202 -0.1353529245 1.024734735 0.350779444 0.2704000175 0.7743416429
-0.1558592767 -0.1189016402 1.037976742 0.4534732401 -0.3763242364 0.4064680934
-0.1581768841 -0.1256918758 1.022482872 0.3839565814 0.009550128132 0.6851271391
-0.1563256532 -0.1219041944 1.029789448 0.418548882 -0.185672015 0.5482935309
-0.1652932167 -0.1320968866 1.011277437 0.3527026474 0.3309585154 0.8749783635
-0.06383952498 -0.06856615096 0.9853548408 -0.2448315769 -0.04637433216 0.9614776969
-0.06083936617 -0.07446374744 0.9880773425 -0.2440101653 0.06681501865 0.9602006674
-0.05737256631 -0.06559124589 0.9885748029 -0.2440050542 -0.01077075861 0.9624987841
-0.05713471398 -0.0712216571 0.9890755415 -0.2389639914 0.05664070323 0.9637749791
-0.107058309 -0.0711812675 0.9720985293 -0.08667979389 -0.07016088814 0.9870910645
-0.1051523685 -0.06614484638 0.9735916853 -0.1121731848 -0.1243671626 0.9842293859
-0.1019840762 -0.08270829916 0.9763013721 -0.1688632369 0.05224553123 0.9807620645
-0.1259602904 -0.2198192626 1.076284409 -0.3456842303 -0.402900517 0.8473647833
-0.1215222999 -0.2219068557 1.077839136 -0.3356449902 -0.4022005498 0.8515487313
-0.1250016987 -0.2153321952 1.081507087 -0.3359833956 -0.4022241533 0.8514077067
-0.1195526347 -0.2187412232 1.082762361 -0.3241776824 -0.4014010429 0.8563278317
-0.07529787719 -0.2221173644 1.087129474 0.01923855767 -0.05030489713 0.9955915809
-0.06984689087 -0.2214362472 1.089936256 0.03581096604 0.1066311523 0.9913614392
-0.05146314204 -0.2033193111 1.08976531 -0.06408975273 0.3229205012 0.9439774156
-0.06097212061 -0.2010937631 1.087216258 -0.005165936425 0.2943518758 0.9545691609
-0.05582509562 -0.205864951 1.090000033 -0.02483199723 0.3029766977 0.9507808089
-0.06231998652 -0.2061302513 1.090000033 0.01855893433 0.2795129716 0.9579052329
-0.1208303422 -0.2086222917 1.081223249 -0.334656477 -0.3891592622 0.8578394651
-0.1029735804 -0.2137620598 1.090047717 -0.223886013 -0.2387591898 0.9426410198
-0.1077478305 -0.2232272029 1.085785389 -0.2684451342 -0.3841261268 0.8823142648
-0.1077068299 -0.2174719721 1.087529898 -0.2622559071 -0.3096735775 0.907348156
-0.1124088243 -0.2125500441 1.085308433 -0.2950874865 -0.3485469818 0.8858413696
-0.1070453897 -0.2101943046 1.08811152 -0.2528884411 -0.2673733234 0.9247279167
-0.09974981844 -0.2183253616 1.088982224 -0.1942347139 -0.3037980795 0.9267727137
-0.06325180084 -0.2009985 1.082498312 -0.01063212939 0.2760879397 0.9590065479
-0.06669295579 -0.2060282081 1.085078955 0.01029021293 0.258646965 0.9644866586
-0.05908032134 -0.2054873258 1.082574964 -0.002599688945 0.2980846763 0.9532401562
-0.05677813664 -0.1971456259 1.079341888 -0.03229692951 0.3093513846 0.9491615891
-0.0615748167 -0.2128881812 1.085811377 0.02325325646 0.2835052907 0.9582186341
-0.07379242033 -0.216922462 1.086978197 0.0204675179 -0.01448586304 0.9916236401
-0.07521350682 -0.2110696435 1.086997151 0.01754063182 0.06528194249 0.9862290025
-0.06949769706 -0.2126751244 1.086904407 0.02540871128 0.174190551 0.9733026624
-0.1055606902 -0.0544702895 0.9740222096 -0.04007875919 -0.2607702017 0.9558883309
-0.110994868 -0.06174451113 0.970864296 0.05997610837 -0.2437357306 0.9550529122
-0.1128530279 -0.0552848503 0.9717457294 0.1149651855 -0.3174920678 0.934641242
-0.1098921448 -0.0508428216 0.9733162522 0.06614366174 -0.3340049982 0.9338309765
-0.1126913801 -0.04632281885 0.9751753807 0.1158632413 -0.3852569163 0.9120751619
-0.1051258817 -0.04500411451 0.9803039432 0.06965593249 -0.364502728 0.891857028
-0.1135563925 -0.04529481381 0.9806298614 0.2171929628 -0.445397675 0.843108356
-0.1057868078 -0.05066021532 0.9782446623 0.02710821666 -0.3313161433 0.9213421941
-0.07948606461 -0.04779636115 0.983271122 -0.243034333 -0.2303880006 0.9409799576
-0.08435861021 -0.04930488393 0.9795750976 -0.2102144957 -0.2085805088 0.9542667866
-0.1535733342 -0.1038079262 0.997023344 0.2687986791 0.2553193569 0.9280415773
-0.1538260728 -0.09602756053 0.9953971505 0.2987314165 0.2464077324 0.921318531
-0.1607745141 -0.09629355371 0.9979216456 0.2742961645 0.2574291527 0.9263793826
-0.1627170295 -0.07684214413 0.9945960641 0.2981859446 0.05537961796 0.949649632
-0.1637651771 -0.0665698871 0.9956334829 0.2699086368 -0.1293259114 0.9498711824
-0.1566404104 -0.07182010263 0.9911017418 0.3449413776 -0.04528908432 0.9287285805
-0.1736942828 -0.05589791015 0.997851789 0.2206998914 -0.2030117214 0.953551054
-0.1766442358 -0.05166759714 1.001876473 0.2458573878 -0.1820202321 0.9510169029
-0.1714896411 -0.05067450181 1.002234101 0.2246643305 -0.219675675 0.9487715364
-0.1346475333 -0.04837117344 0.9867532253 0.4676758349 -0.3340298533 0.8159151077
-0.1507080048 -0.05074245483 0.9951025844 0.2936861217 -0.3015555441 0.9017843604
-0.1443450749 -0.05177694932 0.9907069206 0.3746785522 -0.3131590188 0.8640323281
-0.15135625 -0.0468467772 1.00016427 0.3033932149 -0.26915887 0.9116151929
-0.1436888725 -0.04882795736 0.9974306822 0.3987371027 -0.2556518912 0.8795756102
-0.1389090419 -0.05305765569 0.9955207705 0.4721535444 -0.2664026618 0.839679718
-0.1606990993 -0.04656749964 1.003157377 0.2428244501 -0.2766622603 0.9297261834
-0.1566776782 -0.04794219509 0.9998041391 0.2412063777 -0.291831404 0.9254629612
-0.1606216282 -0.05312487856 1.000384092 0.247788921 -0.2362799048 0.9377675056
-0.1643419266 -0.05684873089 0.9976590872 0.2153317779 -0.2631084323 0.9397305846
-0.1595595479 -0.0634868443 0.9954771399 0.2397917211 -0.2063816339 0.9479002357
-0.1588431895 -0.05760426819 0.9961613417 0.241290465 -0.2650408447 0.9326740503
-0.1666956395 -0.04728424922 1.004579663 0.2310029417 -0.2587688863 0.9375935197
-0.1682480574 -0.05399504676 0.9991525412 0.2233517319 -0.2482719719 0.9417417645
-0.1750682741 -0.06125851348 1.002330065 0.2599096 -0.1641109139 0.950674057
-0.1729230583 -0.05520132557 1.003893375 0.2443778366 -0.1919905692 0.949136138
-0.172265321 -0.06506525725 0.9996131063 0.261670053 -0.1520926952 0.9529898167
-0.1678102463 -0.06338680536 0.9982960224 0.2512178719 -0.1706920862 0.9520131946
-0.17032215 -0.05854966864 1.000852227 0.2512686551 -0.2065529972 0.9433905482
-0.1528165936 -0.09967590123 0.9995039701 0.2815782726 0.2509151697 0.9261196852
-0.1813657582 -0.1177572906 1.009461761 0.3177469969 0.3454904258 0.8809886575
-0.1814898103 -0.1274369508 1.016050816 0.3468486667 0.3876031637 0.852837503
-0.1819465309 -0.1224186942 1.012863874 0.3326330185 0.3634220362 0.8680279255
-0.1578700542 -0.1279512942 1.007018924 0.3216774464 0.2852955461 0.9026741982
-0.06329763681 -0.06077928841 0.9812857509 -0.2649054527 -0.1469081789 0.9444527626
-0.06382779777 -0.06777869165 0.9780318737 -0.2562404573 -0.09476839751 0.9598385692
-0.06329100579 -0.05521973222 0.9838284254 -0.2719368339 -0.1937836707 0.9319940209
-0.07355852425 -0.0648214072 0.9774488211 -0.2158438265 -0.116813086 0.9669910073
-0.0717856884 -0.06941837072 0.977152884 -0.2091526091 -0.04318434 0.9744388461
-0.05963013321 -0.0718678236 0.9778213501 -0.25116238 0.02849028818 0.9653025866
-0.06748772413 -0.07490772754 0.9850997329 -0.2365321368 0.04886528105 0.9556248188
-0.06600110233 -0.08083210886 0.9865109921 -0.2414976656 0.1123100221 0.9566891789
-0.07145285606 -0.08411076665 0.9859881401 -0.2229112238 0.2255144268 0.9447376728
-0.06903839856 -0.07002472132 0.9840248227 -0.2281393111 -0.006999170873 0.9588465691
-0.07271782309 -0.0785241574 0.9848425984 -0.2154808044 0.1563148648 0.9487860799
-0.06802722812 -0.06435395032 0.9833284616 -0.2286173552 -0.1052915305 0.9672216773
-0.06746096164 -0.07202680409 0.9775096178 -0.2254721224 0.03367938474 0.9705791473
-0.1138240322 -0.08195222169 0.972361505 0.02780844085 0.02663876489 0.9761449099
-0.122513853 -0.0822783038 0.9724100828 0.2945956588 0.1296713054 0.9313582182
-0.1115840971 -0.07801701874 0.970967114 -0.05978135392 -0.03786610439 0.9940282702
-0.1170847937 -0.07748668641 0.9686930776 0.05112642422 -0.09688479453 0.9892638922
-0.09248872846 -0.08722151816 0.9766967297 -0.185640052 0.1520105153 0.9648131132
-0.09688525647 -0.08422876894 0.9756136537 -0.1675793976 0.09396773577 0.9772738218
-0.08431428671 -0.07704640925 0.9769166112 -0.2064074129 0.09692657739 0.9722584486
-0.08348202705 -0.08275587857 0.9768477678 -0.207052201 0.160017401 0.9629604816
-0.1327908784 -0.216787532 1.075038314 -0.3489335775 -0.4031270444 0.8460106254
-0.1329954863 -0.2132888287 1.078804493 -0.3489335775 -0.4031270444 0.8460106254
-0.1300769597 -0.2086800486 1.075893402 -0.3489335775 -0.4031270444 0.8460106254
-0.1389450431 -0.2158175856 1.06725359 -0.3489335775 -0.4031270444 0.8460106254
-0.122075513 -0.2177294046 1.074210525 -0.3363886178 -0.412078768 0.8467410803
-0.1256757528 -0.2129851282 1.074992657 -0.3430278599 -0.4073411822 0.8463544846
-0.1344504058 -0.2132994384 1.070296049 -0.3485663235 -0.4033891261 0.8460319638
-0.1282108277 -0.2172061354 1.071505308 -0.3412970304 -0.4085762501 0.846455276
-0.08478473127 -0.2226932645 1.085649133 -0.03786725178 -0.05192008987 0.997782588
-0.08474398404 -0.2172134072 1.086852193 -0.034335915 -0.0520947054 0.9979625344
-0.08100953698 -0.2218573987 1.088787436 -0.02916814573 -0.1225967929 0.987306118
-0.0915851295 -0.2226499468 1.08610642 -0.1140534505 -0.2006526142 0.9702449441
-0.08980108052 -0.04992086068 0.9800079465 -0.178815648 -0.1975940615 0.9625392556
-0.1013028398 -0.04648678005 0.9756755233 -0.05777759105 -0.3042531013 0.9476839304
-0.09512968361 -0.04627440497 0.9766123295 -0.1114642769 -0.2432858944 0.9633235931
-0.1403110027 -0.06082171202 0.9935283065 0.4843812585 -0.2196592838 0.8414780498
-0.1435302943 -0.06992034614 0.991814971 0.4751162231 -0.1503808945 0.8589584231
-0.145723626 -0.08176203072 0.9917086959 0.4205079675 0.06686521322 0.8842096329
-0.142213136 -0.0761295408 0.9880468249 0.5333837271 -0.1616590619 0.8249998093
-0.1374269873 -0.07886953652 0.9835274816 0.4738200605 -0.05364530906 0.8610616922
-0.1316263825 -0.07941843569 0.977060616 0.4445791841 -0.01637704112 0.8747510314
-0.1207461134 -0.07709302753 0.9806752801 0.1976667941 -0.09673971683 0.890168786
-0.1249871254 -0.07385373861 0.9820722938 0.3000012934 -0.1459301114 0.8583874106
-0.1147238836 -0.0789366439 0.9786193967 0.07640262693 -0.05132547393 0.9248283505
-0.1329325885 -0.07172187418 0.9847925901 0.4573694468 -0.2031832486 0.8138008118
-0.1379828006 -0.07177247852 0.9859889746 0.5532202721 -0.214136973 0.7924599051
-0.1233679205 -0.07938616723 0.9769476652 0.290299803 0.0181261003 0.9005464315
-0.1321441978 -0.0755334869 0.9813181758 0.4572240114 -0.09041217715 0.8415132761
-0.1329941005 -0.05253908411 0.9900426269 0.4841949344 -0.3239193261 0.8089250326
-0.1291769892 -0.05121100694 0.9864413142 0.4821395576 -0.3673903644 0.791667223
-0.1300765425 -0.05989888683 0.9823452234 0.5640036464 -0.3183618486 0.7593767643
-0.1272900701 -0.05538904294 0.982544601 0.5130767822 -0.3728320003 0.772013247
-0.1085385159 -0.07917036116 0.9761387706 -0.02000894956 -0.02088626847 0.9484282732
-0.1248951107 -0.06831338257 0.9809808731 0.3850735724 -0.1987874955 0.8217795491
-0.1196064278 -0.05976827815 0.9789258838 0.3122269511 -0.2760760784 0.8384979963
-0.1161302999 -0.06313476712 0.9771484733 0.2075304538 -0.2093648314 0.8752135038
-0.1127182841 -0.07370573282 0.9768790007 0.1076798514 -0.09277462959 0.90623492
-0.1207110882 -0.06528129429 0.9786201715 0.3373976648 -0.2105080783 0.8313220739
-0.1109382138 -0.0642464757 0.9756834507 0.05924074724 -0.173665598 0.9246299863
-0.1160722747 -0.06894882023 0.9775226116 0.2043688148 -0.1537237465 0.8749839664
-0.1559828818 -0.08767005801 0.9933181405 0.3315349221 0.1870222837 0.9221072793
-0.1577419937 -0.09253698587 0.995967865 0.2996813357 0.2462762892 0.9212840199
-0.1585528404 -0.0777643472 0.9910776019 0.3662432134 0.06584569067 0.9250093699
-0.1730903238 -0.09355179965 1.003568411 0.2389112115 0.226886183 0.9433432817
-0.1746777892 -0.08768327534 1.002297878 0.2435463518 0.1749246716 0.9533094764
-0.1641598046 -0.088647075 0.9965524077 0.2987831831 0.2171185762 0.9282509685
-0.1776583791 -0.0955311209 1.001569867 0.2893840969 0.2570303679 0.9196552038
-0.1805998534 -0.1006942391 1.003239751 0.2902274728 0.291316092 0.9101564884
-0.1812945753 -0.08659316599 0.9994595051 0.2739544511 0.1913535297 0.9394430518
-0.186954543 -0.08034790307 0.9981588125 0.256146878 0.143985793 0.9547781348
-0.1853716522 -0.09086328 1.001033545 0.2729104757 0.2181750834 0.93208009
-0.1680277139 -0.08476264775 0.998698175 0.2698233128 0.1559800208 0.9450415373
-0.1676716506 -0.09332994372 1.001572847 0.2598251402 0.209416464 0.9406940341
-0.1598939747 -0.08202198893 0.9951248169 0.2907494903 0.1488511711 0.9423843026
-0.167212829 -0.07972141355 0.9972152114 0.2744182944 0.1145107299 0.9511461258
-0.1759953946 -0.08175471425 1.001353383 0.2529560924 0.1299977899 0.9577513933
-0.1729390323 -0.0778176114 0.9980000854 0.2702808976 0.09495114535 0.956299901
-0.1736714393 -0.07228837162 0.9998158216 0.2734465301 0.01935160533 0.9541472197
-0.1690420359 -0.06979884207 0.9961519241 0.2809286714 -0.05277087912 0.9538856745
-0.1794085056 -0.07440142334 0.9980000854 0.2588903308 0.0554969199 0.9613493085
-0.1815693974 -0.06953527778 0.9980000257 0.2613227367 -0.01222467516 0.9578922391
-0.1849360466 -0.07607425749 0.9980000257 0.2519836128 0.08628105372 0.9620070457
-0.1488630921 -0.1123740599 1.001103997 0.2554348409 0.2610370815 0.9307172894
-0.1503747255 -0.1168297678 1.001885891 0.2527509332 0.2649416327 0.9301360846
-0.154189378 -0.1218713149 1.004573464 0.2884687781 0.2732489109 0.9170702696
-0.1511108577 -0.1096976697 1.027902126 0.3971765339 -0.2531654239 0.5263190866
-0.153273344 -0.1093881652 1.039538741 0.4465235472 -0.4879992306 0.3459994197
-0.1521790922 -0.1083043814 1.020569801 0.3523795903 -0.1051047668 0.6457285881
-0.153363511 -0.1104530245 1.051389456 0.5086845756 -0.7272310853 0.1573330462
-0.152865544 -0.1072661504 1.01435113 0.3156244457 0.02045837976 0.7464779019
-0.1511993855 -0.1075297743 1.00565064 0.2790063322 0.1960382313 0.8811827898
-0.1680791825 -0.1231756434 1.006889224 0.3123165965 0.3121221662 0.8969681859
-0.1644200236 -0.1278463006 1.006947637 0.3277617991 0.3206962049 0.8883683085
-0.1758195609 -0.1134647951 1.006678462 0.2888351083 0.3039492965 0.9077472091
-0.1717472523 -0.1201998517 1.007070303 0.3037136793 0.3176049292 0.8980280757
-0.1771520227 -0.1212486625 1.009969831 0.32102862 0.3784440756 0.8665776849
-0.1757880151 -0.137883395 1.017475128 0.3365896642 0.388725847 0.8569891453
-0.1749814153 -0.126199618 1.012057304 0.3295728564 0.4063490927 0.8521486521
-0.1759362221 -0.132793203 1.014949799 0.3324170709 0.3992056251 0.8541107178
-0.1714926958 -0.1347956359 1.014378786 0.3454985917 0.3663503528 0.8631349206
-0.1811683178 -0.1362051964 1.019717097 0.3457571566 0.4041907191 0.8466507792
-0.1441433728 -0.2130538374 1.067814112 -0.3489335775 -0.4031270444 0.8460106254
-0.1524707973 -0.20670259 1.070797801 -0.3489335775 -0.4031270444 0.8460106254
-0.1386185735 -0.2099350095 1.07299602 -0.3489335775 -0.4031270444 0.8460106254
-0.07256679982 -0.06259793043 0.9828013778 -0.2028732896 -0.09695679694 0.9739112854
-0.0706897676 -0.05685700104 0.9848588109 -0.2332960665 -0.165785104 0.9550890326
-0.07388219237 -0.05005656183 0.9856469631 -0.2607049942 -0.2291718572 0.9355504513
-0.0751792416 -0.05996921659 0.9782542586 -0.2242808193 -0.1868010163 0.9542541504
-0.06820476055 -0.06501518935 0.9780777097 -0.2451336682 -0.132277444 0.9576262832
-0.06817434728 -0.04894341156 0.9861063361 -0.2771724164 -0.2775615752 0.9195981026
-0.07579828054 -0.05442031845 0.9827305079 -0.2341180295 -0.2187728882 0.9471555948
-0.0811226517 -0.05414221808 0.9814139605 -0.2221273035 -0.1617704183 0.9604189396
-0.08665788919 -0.09041719139 0.98059237 -0.2338027507 0.2110887468 0.9488859177
-0.08051193506 -0.0912681669 0.9821667075 -0.2185127735 0.2441189438 0.9444854856
-0.06692282856 -0.09229476005 0.9875528216 -0.2185061872 0.2647152245 0.9392387867
-0.06293579936 -0.0898584798 0.985373199 -0.2625734508 0.2045084685 0.9415740371
-0.05946389958 -0.08113971353 0.9819836617 -0.2587337494 0.130204469 0.9542198181
-0.06840859354 -0.08560776711 0.9811230302 -0.2437649816 0.1966262162 0.9464592934
-0.07268895954 -0.08411367238 0.9787747264 -0.2315835506 0.2031778246 0.947755456
-0.060758885 -0.07681173086 0.9792068601 -0.2496933043 0.105259724 0.9599580169
-0.06344439089 -0.08504011482 0.9826200604 -0.2547142208 0.173046276 0.9481290579
-0.06490068883 -0.08089712262 0.9798833728 -0.2455480695 0.1500248015 0.9535832405
-0.073704198 -0.08901056647 0.9812847376 -0.2310007513 0.2450127602 0.9410178065
-0.0725922659 -0.07860914618 0.9777782559 -0.219662115 0.1440914273 0.9601288438
-0.07695958018 -0.08122580498 0.9776513577 -0.2060399503 0.1698581129 0.9581982493
-0.07632118464 -0.07455170155 0.977077961 -0.1774771959 0.07232157886 0.9792716503
-0.09830881655 -0.07857570797 0.9781348109 -0.2110579163 0.0454919748 0.9655012488
-0.08919136226 -0.07595869154 0.976429224 -0.232502237 0.06420462579 0.9692240357
-0.09958998114 -0.07574553788 0.9744420052 -0.2041989118 0.01782526076 0.9766703248
-0.08229038864 -0.08171801269 0.9817660451 -0.2031118274 0.1514251977 0.9618791938
-0.07385662943 -0.07258788496 0.983874023 -0.2040071934 0.06914515048 0.9601144195
-0.07744729519 -0.07824535668 0.9832321405 -0.2051408291 0.1327915639 0.9578720927
-0.07985381782 -0.07339208573 0.9812742472 -0.2001285553 0.04156711698 0.9705108404
-0.07780918479 -0.08715767413 0.9851417542 -0.2214307189 0.2458954901 0.9424657226
-0.08379559964 -0.08700181544 0.9837269187 -0.2320276797 0.2138196677 0.9469346404
-0.09174193442 -0.08186131716 0.9791792035 -0.2377072871 0.116132997 0.963175416
-0.09514182806 -0.08572918177 0.9805118442 -0.2523917854 0.1405263245 0.9567579031
-0.1384882033 -0.0667136386 0.9882680178 0.5573557615 -0.2520170808 0.7899311185
-0.1350430697 -0.05786600336 0.9882956147 0.5438036323 -0.2807962298 0.7898905873
-0.1391877383 -0.05125406384 0.9881928563 0.4326410592 -0.3227087259 0.8347638845
-0.1484775245 -0.05501481518 0.9924777746 0.3511571288 -0.2944922149 0.8805723786
-0.1408320814 -0.05796698108 0.9886273742 0.4681141973 -0.2929809093 0.8276163936
-0.1458623409 -0.06125395373 0.990880549 0.4343108237 -0.2725872099 0.8492658734
-0.1533897966 -0.06095493957 0.9940420389 0.2892854214 -0.2490293682 0.9186307192
-0.1690950394 -0.1137427464 1.006347895 0.2694569826 0.2828670144 0.9202851653
-0.1658957005 -0.1181774884 1.006071091 0.2847168148 0.278339088 0.9165726304
-0.1588254273 -0.1181463078 1.002884984 0.2770619094 0.2684039176 0.9216466546
-0.1623567939 -0.1213553622 1.004881024 0.3048707247 0.2728907466 0.9116960764
-0.1449697912 -0.2113880813 1.073285699 -0.3489335775 -0.4031270444 0.8460106254
-0.1398656219 -0.2147125155 1.07252264 -0.3489335775 -0.4031270444 0.8460106254
-0.13701801 -0.2083088309 1.078881979 -0.3489335775 -0.4031270444 0.8460106254
-0.1016528159 -0.07064583898 0.9736098647 -0.1706820726 -0.02858576365 0.9827414751
-0.100472331 -0.0632956028 0.9744457603 -0.1623170823 -0.1132329032 0.9737952948
-0.1027403697 -0.05864720047 0.9755818844 -0.09312899411 -0.2132801712 0.9642990828
-0.09619551152 -0.06048374996 0.9753364325 -0.1952625811 -0.1039115489 0.9665272832
-0.09838017076 -0.05529309809 0.9767361879 -0.1175848767 -0.204181686 0.9669715166
-0.0861197412 -0.06193813682 0.9784231782 -0.2234552205 -0.08097191155 0.9697311521
-0.09087919444 -0.06059156358 0.9770343304 -0.2353289127 -0.08751781285 0.9655908942
-0.08576202393 -0.05552982166 0.9796200395 -0.2300389707 -0.1414880455 0.960665822
-0.07899583876 -0.06393563747 0.9805333018 -0.2058677822 -0.0693666935 0.9750779271
-0.1467016339 -0.07794182748 0.9871403575 0.4677655697 -0.06915702671 0.8748760819
-0.1377830058 -0.07449962944 0.9786807895 0.5067917109 -0.164970845 0.8365534544
-0.1519376785 -0.07659440488 0.9885007143 0.4242225289 -0.009246123023 0.9013345242
-0.1366476715 -0.06479658931 0.9833618402 0.5423886776 -0.267470777 0.7946380377
-0.1330194175 -0.06439492106 0.9795990586 0.5598962903 -0.271756053 0.7805193067
-0.1445501894 -0.07436152548 0.9826537371 0.4654427171 -0.09146837145 0.8657281995
-0.1337405145 -0.07077255845 0.9773263931 0.5604013801 -0.2271025479 0.7915202379
-0.144241184 -0.06972291321 0.9862082601 0.4918246567 -0.1605000198 0.8397484422
-0.1485548764 -0.07152050734 0.9877988696 0.454700619 -0.0955169946 0.8693017364
-0.1297198087 -0.06773048639 0.9760959148 0.5223127604 -0.250082612 0.8082383275
-0.1240581349 -0.06787375361 0.9720311165 0.352920562 -0.2323130667 0.8974832892
-0.1253885925 -0.0732594505 0.970095098 0.3301540911 -0.208475858 0.9025662541
-0.1643422395 -0.1052785888 1.009933949 0.2799908519 0.1451787949 0.8358637094
-0.1681438088 -0.1069739684 1.02238512 0.3399536908 -0.08512662351 0.6635900736
-0.165458858 -0.1062265262 1.017148972 0.3160673082 0.006763892248 0.7310202718
-0.1620087475 -0.1070941463 1.024874806 0.3603870869 -0.1626701206 0.5972957611
-0.1575594991 -0.1093426347 1.043769479 0.4638945162 -0.558833003 0.2886717916
-0.1616940647 -0.1078074202 1.030593395 0.3904509246 -0.27785936 0.508654058
-0.1702963263 -0.1053036451 1.008638144 0.2659744322 0.1981501132 0.8831216693
-0.1593749821 -0.108653754 1.037867188 0.4310396016 -0.4331353903 0.3870458305
-0.1558114737 -0.1049977392 1.004428387 0.2519463897 0.2243886888 0.9105692506
-0.1597683728 -0.106355533 1.018348694 0.326979965 -0.04109798744 0.6933866143
-0.1560503542 -0.1078329235 1.030274987 0.3921695352 -0.2942110002 0.498208791
-0.1586872339 -0.1057983637 1.012854218 0.2973026931 0.06542582065 0.7797254324
-0.1668135375 -0.101861015 1.003772259 0.2464306802 0.260458082 0.9333682656
-0.1731254011 -0.1008996516 1.005415797 0.2401408255 0.2559942901 0.936270535
-0.1659805924 -0.107618466 1.004642963 0.2541207671 0.2716728449 0.9280943871
-0.171868965 -0.1094130054 1.005645514 0.2710418105 0.2891175747 0.9177038074
-0.1813294888 -0.1073482856 1.005215526 0.288710475 0.3057675958 0.9068741202
-0.1604205072 -0.1030008048 1.000327587 0.2569596171 0.2627437115 0.929833889
-0.1627762467 -0.1138168201 1.004494548 0.2559182644 0.2656100988 0.9294599891
-0.1611113846 -0.1092489883 1.00281322 0.2483097017 0.2662351727 0.9313439131
-0.1555428207 -0.1134629846 1.000780582 0.2458978891 0.2638798356 0.932635963
-0.1688937098 -0.0979963243 1.000910163 0.2766427994 0.2736952305 0.9206418395
-0.09311300516 -0.05284768343 0.9766154289 -0.140725702 -0.177693665 0.9714792967
-0.09363805503 -0.06474323571 0.9749763012 -0.2259227186 -0.04672266543 0.9723466039
-0.08172110468 -0.06011191756 0.9769798517 -0.1935599893 -0.1602622718 0.9647308588
-0.08171545714 -0.06520209461 0.9760508537 -0.1764425486 -0.07137081027 0.9810958505
-0.08143348247 -0.0704119578 0.9762407541 -0.1752703786 0.01363172196 0.9825664163
-0.0881376192 -0.06528643519 0.9750483632 -0.185918048 -0.05255137384 0.9803778529
-0.08671554178 -0.07069887221 0.9759536386 -0.197072506 0.009638817981 0.9776417613
-0.09425237775 -0.0751247555 0.9757345915 -0.2599734068 0.02767027728 0.9648811221
-0.0929177627 -0.0702592209 0.9755600095 -0.2403364778 0.004961876199 0.9693205953
