# .PCD v0.7 - Point Cloud Data file format
VERSION 0.7
FIELDS x y z normal_x normal_y normal_z
SIZE 4 4 4 4 4 4
TYPE F F F F F F
COUNT 1 1 1 1 1 1
WIDTH 512
HEIGHT 1
VIEWPOINT 0 0 0 1 0 0 0
POINTS 512
DATA ascii
-0.03965890035 -0.09701573849 1.079359412 0.2405856401 0.1901582181 0.9512428641
-0.0366409868 -0.09259683639 1.07840538 0.2713913918 0.1976688206 0.9407567978
-0.02794314735 -0.1036581174 1.076910138 0.2349075377 0.2068339288 0.9490496516
-0.0871649757 -0.1568531692 1.09022665 -0.09074559808 0.09988977015 0.9908303618
-0.08247235417 -0.1586686224 1.087910652 -0.09164552391 0.1054124981 0.9901909232
-0.08758592606 -0.159349665 1.082776308 -0.09162738174 0.105301179 0.9902038574
-0.09224638343 -0.1548142284 1.090312719 -0.0897090584 0.09352868795 0.9915667772
-0.2292937785 -0.07080409676 1.014138222 0.1904773414 0.2588262856 0.9467605352
-0.1787842959 -0.0938423872 1.076515555 -0.601672709 -0.7123980522 0.356500566
-0.1729729921 -0.09541647881 1.074590206 -0.6609612107 -0.6793388724 0.3088242114
-0.04078360274 -0.1022682413 1.082797647 0.1807571501 0.1826985329 0.9644824862
-0.03031395562 -0.1103274822 1.07991612 0.1884813756 0.1858902574 0.9633582234
-0.04357367009 -0.1095454767 1.083982468 0.1294513047 0.1700838953 0.9760264754
-0.07191520184 -0.1412742883 1.08703649 -0.08155348897 0.0886522308 0.9926514626
-0.06408751756 -0.1363776773 1.087250471 -0.07480099052 0.08388444036 0.9936256409
-0.08559197932 -0.1504261047 1.089616895 -0.0899368003 0.09492632002 0.9914049506
-0.0527218394 -0.131899029 1.086795807 -0.04522208124 0.1671160907 0.9841046333
-0.04710704833 -0.1249511316 1.086128473 0.02171810903 0.1840171963 0.9825514555
-0.04718120396 -0.131900534 1.086736202 -0.003180343425 0.1777505875 0.9840676785
-0.08349870145 -0.154666841 1.079096079 -0.0908581987 0.1005807817 0.9907503128
-0.08165615797 -0.1472160965 1.086529136 -0.08971066028 0.09353851527 0.9915656447
-0.08580780774 -0.1599388421 1.074235201 -0.09158516675 0.1050420702 0.9902338386
-0.08471582085 -0.1513774544 1.083545208 -0.09010709822 0.09597141296 0.9912839532
-0.09298858047 -0.1564968079 1.083632469 -0.08981786668 0.09419643879 0.99148947
-0.05848982558 -0.1400992572 1.088426828 -0.08076447994 0.111231178 0.990021348
-0.04591972008 -0.1380479187 1.086507559 -0.02592846565 0.1681376696 0.9849516749
-0.04982098192 -0.1442492157 1.086748481 -0.07538067549 0.1490190029 0.9853053689
-0.02652096748 -0.06152364984 1.069607496 0.3358892202 0.2374332249 0.9114736915
-0.1151490957 -0.01328096911 0.9815517068 -0.2830376029 -0.01486298721 0.9520082474
-0.1104205102 -0.01830928773 0.9843321443 -0.2781277299 0.0100036459 0.9569611549
-0.1164888069 -0.0190259926 0.9829695225 -0.2857646942 0.04208178073 0.9517877102
-0.1183412001 -0.006108569447 0.978983283 -0.2647142112 -0.0983653143 0.9552271366
-0.1242665425 -0.009862760082 0.9792632461 -0.2429125458 -0.08679836243 0.9609181285
-0.02423829399 -0.07744029909 1.071143389 0.3362041414 0.2348992378 0.9118305445
-0.01820484921 -0.07676765323 1.066619515 0.3393336833 0.2375608683 0.9100859165
-0.2279547155 -0.06532020122 1.013924003 0.2111456096 0.2673166692 0.9397343993
-0.1648531556 -0.1193533316 1.027184367 -0.3098291755 0.2242114097 0.9065162539
-0.1629852504 -0.09292686731 1.072836161 -0.7027977705 -0.6560109258 0.2751817107
-0.1666212678 -0.120536007 1.032862067 -0.2306297123 0.2526651919 0.9321004152
-0.1730065495 -0.1241983399 1.025237441 -0.1901369244 0.2266752273 0.9551067948
-0.0308649689 -0.07611509413 1.074777961 0.3317269385 0.2366138548 0.9131442904
-0.03182842955 -0.08291745186 1.076339245 0.3211339712 0.2188491672 0.9212214351
-0.03562819213 -0.1123487279 1.084772229 0.1414298117 0.1732829064 0.9739242792
-0.03011026606 -0.1217139587 1.085856557 0.1307647824 0.1631384939 0.9777911901
-0.03515922651 -0.1054311767 1.083382249 0.1710153669 0.1828235239 0.9660708904
-0.03015443496 -0.1042365208 1.082157373 0.2024829388 0.1905201823 0.9582400322
-0.02267108113 -0.1069559976 1.080881 0.227400437 0.2014983892 0.9515177011
-0.02492176928 -0.1120264605 1.081782699 0.2003178298 0.1848365366 0.9605413675
-0.02485380135 -0.08565818518 1.076386452 0.348379612 0.2131068259 0.912797749
-0.01917811669 -0.07933752984 1.071309924 0.3440345228 0.2317821383 0.9097908735
-0.02282855287 -0.09212994576 1.077671289 0.3146780729 0.2098917067 0.9244773984
-0.02201124839 -0.0856353268 1.070723414 0.321444273 0.2259462178 0.9190759659
-0.02363312989 -0.09044931829 1.072235703 0.305942893 0.2216891795 0.9252802134
-0.01721491292 -0.08340524882 1.068000674 0.3331484497 0.231389299 0.9137897491
-0.0173739139 -0.08852612227 1.069644451 0.3210572898 0.2256377935 0.9193733335
-0.01849780604 -0.09405306727 1.071549058 0.3065245152 0.2189470083 0.9259672761
-0.02088965476 -0.1016586125 1.079744339 0.2620568275 0.2057549953 0.9424910545
-0.02918288112 -0.09049326181 1.077974319 0.3098123074 0.209340021 0.9260463119
-0.03069561534 -0.09564375877 1.079215288 0.2735016048 0.2063923478 0.9384231567
-0.02616310306 -0.09854199737 1.075065732 0.2801009119 0.2121148407 0.9360966682
-0.01940305904 -0.09848562628 1.075638413 0.2866957784 0.2142754048 0.9334996939
-0.1824078858 -0.07904002815 1.071480513 -0.6614274383 -0.6956291199 0.2790734172
-0.1783292592 -0.083888188 1.072907209 -0.66962111 -0.6860241294 0.2825646102
-0.1737790853 -0.07997341454 1.072155356 -0.733346045 -0.6387311816 0.2233558595
-0.1767202467 -0.08854200691 1.074941754 -0.6516273022 -0.6909516454 0.3047282696
-0.06537952274 -0.1417891085 1.087000012 -0.08810359985 0.1011671126 0.9908838272
-0.06314917654 -0.1477719843 1.087000012 -0.1029412076 0.1190112382 0.9871372581
-0.05954554304 -0.1513157189 1.089073896 -0.09465645254 0.1095777899 0.989328742
-0.05568414927 -0.1472094506 1.088141441 -0.1154111996 0.1332102269 0.983838737
-0.07002876699 -0.1551465392 1.085137367 -0.09179295599 0.1063172594 0.9900861979
-0.07438772172 -0.1564244479 1.081690073 -0.09179295599 0.1063172594 0.9900861979
-0.06989682466 -0.1498377025 1.084423065 -0.09179295599 0.1063172594 0.9900861979
-0.07913210243 -0.1583736986 1.078602433 -0.09179295599 0.1063172594 0.9900861979
-0.07590601593 -0.1486612707 1.084079504 -0.09042116255 0.09789875895 0.991060853
-0.07539109886 -0.1569340527 1.089910388 -0.09179295599 0.1063172594 0.9900861979
-0.06952425838 -0.1523329467 1.090000033 -0.09179295599 0.1063172594 0.9900861979
-0.07474126667 -0.1484747231 1.09003818 -0.09061449766 0.1033789515 0.9904283881
-0.07946118712 -0.1517669857 1.090270877 -0.08342590183 0.08545526117 0.9925156236
-0.03883118927 -0.1187848076 1.085974693 0.10311497 0.1706751436 0.9795413017
-0.04436589032 -0.1202046722 1.085751295 0.05510728434 0.1822089106 0.9808163643
-0.04204834998 -0.1281719953 1.086351633 0.03939539567 0.178238675 0.9822548628
-0.03813557699 -0.1325311959 1.086179256 0.06425336748 0.1649029553 0.9838695526
-0.03805441037 -0.1249633729 1.084788799 0.0840421766 0.1678156704 0.9814867973
-0.03373154625 -0.1277856678 1.085781217 0.1010624692 0.1632648557 0.9807971716
-0.03146325797 -0.1183836982 1.082245588 0.1497729719 0.1713403165 0.9724850059
-0.02222922817 -0.06383492798 1.065240026 0.3419681191 0.241634354 0.9081137776
-0.01747225039 -0.06868246943 1.064583421 0.3419681191 0.241634354 0.9081137776
-0.01780585945 -0.06075628847 1.063655972 0.341884762 0.2415767312 0.908159852
-0.01970791444 -0.07153009623 1.068185568 0.3412566781 0.2411426604 0.9085069895
-0.02454927005 -0.06893794239 1.070341349 0.336724937 0.238010779 0.9110117555
-0.02348368429 -0.05793197826 1.063728452 0.3366013765 0.2379253954 0.9110800624
-0.1450643688 -0.01012295671 0.9756965041 -0.002488601254 -0.1491582394 0.9870939255
-0.1340432614 -0.006158069242 0.9780414701 -0.1340714097 -0.1922982782 0.9710375667
-0.1291361749 -0.002705894876 0.9797332287 -0.1974213868 -0.1725303978 0.9620687366
-0.1232995838 0.001856492716 0.9809552431 -0.2201209068 -0.1821209192 0.9537149668
-0.1165297851 -0.001248408458 0.9782409072 -0.2663553357 -0.1381636411 0.9532865286
-0.1868962646 -0.02017154917 0.9856675267 0.4662933052 -0.1097554564 0.8601635695
-0.1942745447 -0.02970154956 0.9945955873 0.6395633817 -0.01491693966 0.7575945854
-0.1904380172 -0.02438961342 0.9887276888 0.5266683102 -0.06392472982 0.8250331283
-0.1838860959 -0.01646145806 0.9826365709 0.4069800079 -0.1486001015 0.8949706554
-0.1767497212 -0.07493549585 1.070413232 -0.7559115887 -0.6202095151 0.2000038177
-0.1865341365 -0.07615754753 1.070488453 -0.6449667215 -0.7047268748 0.2937755585
-0.1857151687 -0.1237272695 1.021932364 -0.1653648466 0.2128800601 0.9617356658
-0.1619902849 -0.1107532084 1.025247335 -0.2847515643 0.2286088616 0.9159903526
-0.1597305238 -0.1141064614 1.02882421 -0.450588882 0.2134923488 0.8425263762
-0.1618770361 -0.1063780338 1.053482533 -0.6463478804 -0.2887601554 0.4946051538
-0.1617153287 -0.1113673598 1.041188717 -0.5957832336 -0.002242097165 0.6666571498
-0.1624880433 -0.108792834 1.048340917 -0.6218211055 -0.1613114476 0.5714067221
-0.160536021 -0.1048592404 1.044627666 -0.7492442131 -0.2003827244 0.5319765806
-0.1624262333 -0.1028703898 1.058418274 -0.7239993811 -0.4480281174 0.3924020827
-0.1604450345 -0.09971673042 1.062200189 -0.717076242 -0.5159424543 0.3541251719
-0.1662832946 -0.08320862055 1.067911744 -0.7471754551 -0.5720918179 0.2528500557
-0.1614660472 -0.1070351154 1.038169742 -0.7623229623 -0.08297437429 0.5959906578
-0.1625830978 -0.0952924937 1.056209564 -0.7442492843 -0.3898165524 0.3973849118
-0.1654339135 -0.08676595986 1.063821316 -0.7483386993 -0.5058766007 0.3010281324
-0.1581418514 -0.09494718164 1.068776369 -0.7059612274 -0.6329796314 0.2865768373
-0.162187472 -0.09137315303 1.064298034 -0.7317318916 -0.532446146 0.3130674362
-0.1599312723 -0.1022058055 1.050953627 -0.7380612493 -0.3135271668 0.4675256014
-0.1636239588 -0.102599442 1.065956354 -0.6499530673 -0.5558757782 0.3477527201
-0.1637501717 -0.1160860658 1.034287095 -0.471409142 0.182459265 0.8098216057
-0.1692267507 -0.1030010432 1.063794136 -0.5526973009 -0.4690968394 0.4551830888
-0.1698569655 -0.1123571992 1.047574043 -0.3417777717 -0.07197837532 0.737585485
-0.1668692827 -0.1060943976 1.059154749 -0.5229031444 -0.3708968461 0.5043010712
-0.1765646338 -0.09742547572 1.071285844 -0.5583189726 -0.6062546968 0.4199198484
-0.1704132408 -0.1085347757 1.053971291 -0.4152811468 -0.2237233669 0.6362449527
-0.1699801683 -0.0986655578 1.071015596 -0.6341598034 -0.6396294832 0.3423527777
-0.193958655 -0.1183469892 1.023167729 -0.06275881827 0.1846448183 0.9793294668
-0.1826674044 -0.1174928918 1.027453065 -0.1012928933 0.2114122808 0.9672781825
-0.1892897636 -0.1216873825 1.024893045 -0.1106013805 0.2032721788 0.9708922505
-0.1775423139 -0.1214238778 1.02927947 -0.1565044522 0.2323466092 0.9577131867
-0.1704376638 -0.04546674341 0.9748569727 0.1710555851 0.01886602119 0.9801210761
-0.1715190709 -0.05095252767 0.9758719206 0.2756932378 0.05191064626 0.953471601
-0.03115161881 -0.06682194024 1.073719263 0.3340471089 0.2369389534 0.9122855663
-0.03240620345 -0.05858140066 1.072225094 0.3340805769 0.2361832708 0.9124733806
-0.1107060984 -0.0253970623 0.985896647 -0.2855963707 0.08221239597 0.952931881
-0.1163985059 -0.0280530639 0.9843212366 -0.2998033166 0.1398822069 0.9429370165
-0.125138551 0.00627198955 0.9840287566 -0.2096439451 -0.2059256881 0.9514864683
-0.1686323881 -0.09106571972 1.074676514 -0.7027977705 -0.6560109258 0.2751817107
-0.1719807982 -0.08585786819 1.073665619 -0.6910739541 -0.6696010828 0.2718402445
-0.167857796 -0.08077494055 1.07240355 -0.7342242002 -0.638236165 0.2266225964
-0.1626946777 -0.08513756841 1.072270274 -0.7229146361 -0.6443527937 0.2449612021
-0.1753349304 -0.01489894465 0.9869605899 0.2812252343 -0.1056738049 0.9205007553
-0.1726527959 -0.01021986362 0.9849662781 0.1877992749 -0.1286811382 0.9661037922
-0.1887437105 -0.02708666027 0.994690299 0.6353132129 -0.0282293763 0.7633458972
-0.1807785481 -0.01623389125 0.98778826 0.3750899732 -0.1119028777 0.8851826191
-0.1779295355 -0.01217535697 0.9829918146 0.2816411257 -0.1472717673 0.9408900142
-0.1799820811 -0.08460075408 1.019631624 -0.1093530282 0.2504328489 0.8536055088
-0.183365792 -0.08229743689 1.025548577 -0.1543942094 0.1361378431 0.7896886468
-0.1856193244 -0.0749565661 1.047421694 -0.4358092248 -0.3076126575 0.5164760947
-0.1816774011 -0.07813815773 1.040542245 -0.3754163086 -0.159430638 0.5911883712
-0.1792026758 -0.08160077035 1.031779766 -0.2747765481 0.02549670078 0.6952683926
-0.1870605946 -0.06922189891 1.065674424 -0.6700660586 -0.6684416533 0.2871925831
-0.1770644635 -0.08004514128 1.044155121 -0.4366243184 -0.1654140204 0.5302736163
-0.1809824258 -0.07504109293 1.055931449 -0.5698074102 -0.4213318527 0.3922871947
-0.1771479994 -0.07780963182 1.053743839 -0.5559380651 -0.3350430429 0.4079927504
-0.1795521677 -0.0775289014 1.048732877 -0.4850191474 -0.2769272029 0.4797185361
-0.1817356795 -0.07204543054 1.067115664 -0.7066773772 -0.6273633838 0.2517571747
-0.1839909703 -0.0721712485 1.060707927 -0.6188573837 -0.5428339839 0.3408576846
-0.1250302047 0.009086297825 0.9900281429 -0.2370422184 -0.1830681413 0.9537708163
-0.1231790408 -0.01604536921 0.9812908769 -0.2630593181 0.005470640957 0.9548293352
-0.124481909 -0.02129316144 0.9828061461 -0.2801837623 0.09899428487 0.9475304484
-0.1388220191 -0.0002581634617 0.9810169935 -0.0639654547 -0.2431109101 0.9644638896
-0.1360265166 0.009732619859 0.9864858985 -0.1037194729 -0.28294608 0.9516589642
-0.1823718101 -0.03361211345 0.977663815 0.4746375382 -0.01773082837 0.8694028258
-0.181681782 -0.02715937234 0.9778395891 0.4207110405 -0.07592708617 0.8954361081
-0.1778577268 -0.03836096823 0.9773123264 0.3460808694 0.02894491702 0.9273172617
-0.2116030306 -0.07308972627 1.009455442 0.1706526428 0.2773804665 0.9448356032
-0.18908526 -0.04968441278 0.994925797 0.6027885675 0.2313573956 0.746363163
-0.1888062656 -0.05857595056 0.9973021746 0.5357475877 0.358318001 0.7548005581
-0.1823071539 -0.06108541787 0.9950547814 0.4111166596 0.3442268968 0.8224229813
-0.1817572862 -0.05735353008 0.990637362 0.4701201618 0.2760999501 0.8160566688
-0.145915851 0.004724002443 0.9853217602 -0.006771545392 -0.2799435556 0.9567686915
-0.1404002011 0.007208557799 0.9853186011 -0.04911597818 -0.2829159498 0.9545419216
-0.1512057334 0.001848224783 0.9855848551 0.02615722269 -0.2672482431 0.9608972073
-0.1774697751 -0.1079269871 1.04001081 -0.2396416664 -0.0183603093 0.8113263249
-0.1752336323 -0.1057031229 1.055239558 -0.3876082301 -0.2553685904 0.6493591666
-0.1801671386 -0.09846130013 1.061312675 -0.4364574552 -0.4396764636 0.5513048172
-0.1798607111 -0.1072053164 1.033849597 -0.1771858931 0.05461870134 0.8683168292
-0.1718816459 -0.1151083112 1.036467195 -0.215865016 0.1309428364 0.8841029406
-0.1805204898 -0.1093071923 1.024635077 -0.08886430413 0.2087115794 0.9703010321
-0.1761941761 -0.1028800607 1.061036587 -0.440774709 -0.3735164106 0.5772960186
-0.174977228 -0.1129277796 1.032559872 -0.1735013872 0.1528837085 0.9111744761
-0.1715874225 -0.1172211841 1.030615568 -0.1610204726 0.2397926748 0.9529647827
-0.1772620976 -0.1063314825 1.045960903 -0.2962937355 -0.1212304905 0.7442165017
-0.1802876592 -0.09645768255 1.067426443 -0.4940843284 -0.5505207777 0.4804323614
-0.1812332422 -0.09947864711 1.054192305 -0.3672384024 -0.3291780353 0.6269159913
-0.18255274 -0.1008669361 1.044957876 -0.2775773108 -0.1848979443 0.7253397703
-0.1821064204 -0.1033098698 1.038570285 -0.2179273665 -0.06414866447 0.801228106
-0.180306077 -0.1019488946 1.049428463 -0.3237883747 -0.2299638391 0.6869267225
-0.1722716093 -0.1129634827 1.042082191 -0.2683036625 0.02483649179 0.8174080253
-0.1773706526 -0.1157120392 1.026776075 -0.1425166279 0.2316102535 0.9605641365
-0.1904062629 -0.1234010383 1.019000173 -0.08291401714 0.1852057576 0.9789121747
-0.1903654188 -0.1027529612 1.016925693 -0.03663606942 0.2357483953 0.9696776271
-0.1874016523 -0.1090754196 1.018520474 -0.05788871646 0.1970323324 0.9786129594
-0.1655972302 -0.03683971241 0.9751970172 0.08486635238 -0.01436133403 0.992498219
-0.1067056879 -0.01687076315 0.9895409346 -0.2685163915 -0.05475957319 0.9608892798
-0.1108172461 -0.01087229047 0.9836786985 -0.271091938 -0.0801685676 0.95746696
-0.1114631444 -0.00519954646 0.9830088019 -0.2745732963 -0.1137741059 0.9544045329
-0.2126118839 -0.1057009175 1.018986225 0.02975054458 0.2265434712 0.9734585285
-0.1623528004 -0.0466777049 0.9747069478 0.01573108509 0.06212062389 0.995769918
-0.1576341838 -0.05101658404 0.975507021 -0.04104912654 0.1035524234 0.9890316129
-0.1653016359 -0.0534176752 0.9769886136 0.1214810833 0.08397594839 0.9805693626
-0.1556568891 -0.0504036434 0.9834187031 0.03192712739 0.1127358228 0.9653255939
-0.1515409797 -0.04774145037 0.9792589545 -0.1122505888 0.0848769024 0.9873353839
-0.1768619418 -0.02506471612 0.9773716927 0.2950668037 -0.09994572401 0.9471232295
-0.176617682 -0.03121345118 0.9773485065 0.2860188186 -0.03908238932 0.9534031153
-0.1294394135 -0.02918795124 0.9841025472 -0.2499759942 0.1413648427 0.956497252
-0.1342594773 -0.04041688517 0.9871744514 -0.1998506933 0.07557922602 0.9753393531
-0.1234148592 -0.03306840733 0.9850161672 -0.2695387006 0.1365426481 0.950425446
-0.1282029152 -0.03448815271 0.9828450084 -0.2469715029 0.1631599069 0.9539231658
-0.1314912438 -0.005354244728 0.9860550165 -0.2050412744 -0.09842818975 0.9691684246
-0.1333638132 0.0009344578139 0.9860463738 -0.1603103876 -0.1663635522 0.968572855
-0.1298292279 0.006070139352 0.988604486 -0.1784583032 -0.1925691366 0.9628293514
-0.1300501525 -0.0204869397 0.9833792448 -0.2495028228 0.07304777205 0.960450232
-0.1913322508 -0.05920131132 0.991800189 0.4899419248 0.2319854796 0.8053147197
-0.1884588748 -0.0544352904 0.987261951 0.5991200209 0.2010412812 0.762149334
-0.2183600217 -0.06648222357 1.009182692 0.2125037611 0.2779346108 0.93649894
-0.2232658565 -0.07401965559 1.012658 0.1792613864 0.2571018934 0.9494783282
-0.22239393 -0.06561071426 1.012638688 0.2091839015 0.2693153918 0.9393794537
-0.2175627202 -0.07457794249 1.011821508 0.169174552 0.2586655915 0.9508874416
-0.2120711356 -0.07810930908 1.010914803 0.1501290053 0.2717183232 0.9502136111
-0.194372803 -0.07823535055 1.056318402 -0.5464959145 -0.430626303 0.4729149342
-0.199170962 -0.0860477984 1.038638592 -0.2949509621 -0.1083466262 0.6917172074
-0.1974413693 -0.08593004197 1.044273496 -0.3657792509 -0.2106344551 0.6374182701
-0.2018619925 -0.09582906961 1.02724576 -0.1141587049 0.1001872644 0.8636038899
-0.2018030882 -0.102646336 1.025571704 -0.06640150398 0.1318022907 0.923872292
-0.1990323812 -0.09248948097 1.037325382 -0.2531790137 -0.08334817737 0.7461133599
-0.2003371418 -0.09447494894 1.032555699 -0.1857984066 0.00357438135 0.8043467999
-0.1961199343 -0.09599476308 1.015182376 -0.004473476205 0.2826335132 0.9589366317
-0.2035914809 -0.09771758318 1.016308546 0.02403623238 0.2674019337 0.9623217583
-0.2065294385 -0.1019071415 1.019663572 0.009349343367 0.245341152 0.9685328603
-0.2124365419 -0.09924787283 1.017317057 0.05072733015 0.2587777972 0.9639905095
-0.1779420078 -0.06008312106 0.9854293466 0.4879647195 0.2972082198 0.8161274195
-0.1799756885 -0.05537084118 0.9829728007 0.5171566606 0.2064742744 0.8149039745
-0.1766047478 -0.05517153814 0.9872049093 0.4070054293 0.2028710842 0.8655720353
-0.1862309277 -0.05415063351 0.9930554032 0.5490007997 0.2683553994 0.7725424767
-0.1796660274 -0.05102226511 0.988947928 0.466145128 0.1711231172 0.836532414
-0.1833374351 -0.04271717742 0.9909361601 0.54924196 0.08728930354 0.8021798134
-0.1875573993 -0.03839359805 0.9933818579 0.625661552 0.06271678954 0.7619496584
-0.1762612611 -0.04488243908 0.9756516218 0.322688967 0.02402567305 0.9372292161
-0.1760467589 -0.0517562367 0.9781715274 0.4131011367 0.1002336517 0.8929652572
-0.1682261527 -0.1066011712 1.019727468 -0.2528503239 0.2375719696 0.937702775
-0.1682117879 -0.1168223172 1.022794724 -0.2245593667 0.2328833789 0.9455689788
-0.1705747396 -0.05168642476 0.9836325049 0.3022086024 0.1182516068 0.9260324836
-0.1718704998 -0.03434313461 0.9848305583 0.2517107725 -0.05332399532 0.9228056073
-0.1780536026 -0.03832567111 0.9880573153 0.4210225344 0.01223641727 0.857480824
-0.1727222055 -0.03966701403 0.9851379395 0.2976198494 0.004388626665 0.9110586643
-0.1780138761 -0.04525981843 0.9878367782 0.4528535903 0.08276630938 0.8538945913
-0.1688691676 -0.04310527071 0.9829572439 0.220113188 0.02388573438 0.9483587146
-0.1815199703 -0.03508554026 0.9900233746 0.4900560975 -0.006801889278 0.8240085244
-0.1669240147 -0.03676442429 0.9820882082 0.1427834779 -0.04860844836 0.9718379378
-0.1610124111 -0.04826235771 0.981618166 0.08283586055 0.08112503588 0.9702290893
-0.1573085338 -0.03933962062 0.9811590314 -0.03707053885 -0.009470686316 0.9898569584
-0.1826993227 -0.02952959761 0.9911888242 0.4987158477 -0.04121334106 0.8193499446
-0.1867431253 -0.03219230846 0.993062675 0.6057494879 -0.008868743666 0.7739402056
-0.1756590605 -0.03108805045 0.987136364 0.3313102722 -0.06338576227 0.8879244328
-0.2068583965 -0.05032292381 1.00558722 0.3638015985 0.2555599511 0.8914006948
-0.2094093263 -0.05952923372 1.008256197 0.258515209 0.2956511378 0.9175879359
-0.2126569301 -0.06442296505 1.010298371 0.2142500579 0.2749252617 0.9360095859
-0.1812793016 -0.0706845969 0.9994108677 0.31832394 0.4116979539 0.8315492868
-0.1786931604 -0.0652384311 0.9913944006 0.4087029397 0.3548156321 0.825576365
-0.1793941259 -0.08019460738 1.007903457 0.1067229584 0.3985022008 0.8834488392
-0.1814158559 -0.07543898374 1.00458467 0.2216033936 0.424068898 0.8505051136
-0.1781944633 -0.08503695577 1.012021542 -0.003035604488 0.3875683248 0.9114286304
-0.1752705872 -0.07809265703 1.004216313 0.06128598377 0.3256585598 0.9245309234
-0.1713652015 -0.067492567 0.9925037622 0.1713317335 0.2404235005 0.9378458261
-0.1687699556 -0.05836256966 0.9828667641 0.2779860497 0.1801132709 0.9420181513
-0.1729047745 -0.07107317448 0.9965895414 0.1375632584 0.272972703 0.9312560558
-0.1772252619 -0.07424841076 0.99971807 0.2107994705 0.3479141593 0.8727293015
-0.1728246361 -0.06169006601 0.9863081574 0.3360593915 0.2514354885 0.8900416493
-0.1828883886 -0.08107545227 1.012410522 0.02348854765 0.3791901171 0.9236698151
-0.1912273914 -0.0927182287 1.014141321 -0.002386294305 0.3137560487 0.9451389909
-0.1856785268 -0.08753564954 1.012528658 0.0329223834 0.3656359017 0.9162049294
-0.185667485 -0.09429931641 1.015723109 -0.03438356519 0.317387104 0.9472839832
-0.1931624562 -0.1053615361 1.02881968 -0.08643927425 0.07658055425 0.905850172
-0.1849268228 -0.1034682915 1.033643842 -0.1633056104 0.001509415102 0.850299418
-0.1878827214 -0.1018883511 1.042190194 -0.2313542962 -0.1438073367 0.7567417026
-0.1880021244 -0.1049052253 1.028521895 -0.1037046313 0.08519533277 0.9077105522
-0.1846728474 -0.09611651301 1.06226933 -0.4411821067 -0.4843371511 0.5238206983
-0.1833409965 -0.09059861302 1.069440126 -0.5518600941 -0.6266154051 0.4062997997
-0.1864726543 -0.09743379802 1.056031585 -0.3785549104 -0.3824819028 0.590846777
-0.1879763007 -0.09980779141 1.050104141 -0.3081994653 -0.2786323428 0.6658829451
-0.1851198375 -0.09022712708 1.064216137 -0.5136592984 -0.5505906343 0.4475267231
-0.1968755126 -0.1062908173 1.023382902 -0.02887640521 0.1659737229 0.9632896781
-0.1945836395 -0.1015377864 1.033724904 -0.1570555419 -0.01857294329 0.8264862299
-0.1915080249 -0.0954567641 1.04700017 -0.3216793239 -0.2556270957 0.6509107351
-0.1937514246 -0.09870985895 1.03971529 -0.2309771776 -0.1248683184 0.7471289635
-0.1891959757 -0.09214389324 1.054427266 -0.4141690135 -0.388969481 0.552819252
-0.193284601 -0.08370803297 1.057656646 -0.4632971287 -0.4765119553 0.4948749542
-0.1970515549 -0.09299842268 1.043025851 -0.2764102519 -0.1996057332 0.6942845583
-0.1942996085 -0.09157191217 1.048641324 -0.3451737761 -0.2963204384 0.6224536896
-0.188546598 -0.08929722756 1.059710979 -0.4799824655 -0.4845715165 0.4820351005
-0.1882179379 -0.08532144129 1.063982964 -0.536301434 -0.5710712075 0.4210329056
-0.1852084547 -0.08555646986 1.068425179 -0.5888081193 -0.6414831281 0.3672080934
-0.1958386302 -0.08631590009 1.049384952 -0.3986820877 -0.3123938739 0.5917301774
-0.1916615367 -0.0766204372 1.065607548 -0.5934576988 -0.6227414012 0.3750817776
-0.2003674805 -0.1003563032 1.030864596 -0.1227567121 0.0295469854 0.8589160442
-0.1921852529 -0.1097163707 1.022222638 -0.03024554625 0.1847174019 0.9820933342
-0.1859220564 -0.1144556105 1.022132993 -0.1155053526 0.214766264 0.96900177
-0.202418834 -0.1072414145 1.022029281 -0.009990483522 0.1955917329 0.9806092381
-0.2035993785 -0.1150570288 1.022000194 -0.03499140218 0.1917670965 0.9802259207
-0.2015280128 -0.1044055298 1.017242908 -0.008908922784 0.2359547466 0.9705283642
-0.2052915692 -0.1100419164 1.018614173 -0.01147888694 0.2047289759 0.9782527089
-0.1962859333 -0.1014170125 1.016101599 -0.01801347919 0.2592889369 0.9643871188
-0.1961385906 -0.109917067 1.017707586 -0.03612431139 0.2235760987 0.9726147056
-0.1958596706 -0.1159887537 1.018840671 -0.04948918521 0.1984059811 0.9783895612
-0.198949337 -0.1193857417 1.022001624 -0.06362813711 0.1865483522 0.9799945354
-0.2103239149 -0.1094216704 1.022000074 0.005335080903 0.2066017687 0.9783189893
-0.146747753 -0.01507917792 0.9816826582 -0.02992770821 -0.05109912902 0.990889132
-0.1514681429 -0.009255925193 0.9832237363 0.008383847773 -0.14426817 0.9819545746
-0.1549962312 -0.005802747328 0.9814389944 0.06272061914 -0.1876437962 0.9786538482
-0.1585946083 -0.002125239233 0.984764576 0.0642246753 -0.2254282534 0.9703662992
-0.15984568 -0.008567639627 0.9837793708 0.0659917742 -0.1844246238 0.979508698
-0.0217972938 -0.04725125059 1.061929822 0.3386606276 0.2393485308 0.9099419117
-0.02753531188 -0.05522303283 1.06869781 0.336945951 0.2381635159 0.9108896255
-0.03156692162 -0.05064071715 1.067095757 0.3340805769 0.2361832708 0.9124733806
-0.02664673328 -0.04984080791 1.063140273 0.3340805769 0.2361832708 0.9124733806
-0.1543249637 -0.04286013171 0.9762377143 -0.1136589497 0.03923203796 0.9925300479
-0.1536401659 -0.03746500239 0.9767623544 -0.1195515096 0.03206461668 0.991969943
-0.1436875314 -0.04331738502 0.9827994108 -0.1723101288 0.08546331525 0.9789188504
-0.1391156763 -0.04066799954 0.9815950394 -0.1885969341 0.1209335849 0.9703451395
-0.1457496732 -0.04438494518 0.977981329 -0.1386070251 0.1244205907 0.9777255654
-0.1365739852 -0.03573916852 0.9801624417 -0.2059826851 0.1247555166 0.9660851359
-0.1433024853 -0.03841353208 0.9786678553 -0.1713297665 0.09238624573 0.9761430025
-0.1289526224 -0.01481859852 0.984547019 -0.2390928566 -0.02402647212 0.9695333838
-0.126393199 -0.003179425839 0.9885703921 -0.2340985984 -0.1030181348 0.9640433788
-0.1133161783 -0.008018105291 0.9914788008 -0.2605194151 -0.09268808365 0.9604027271
-0.1191189587 -0.0103375949 0.9891123772 -0.2479751557 -0.07160638273 0.9649108052
-0.1207469106 -0.005440833978 0.989784658 -0.245474726 -0.09756840765 0.9625830054
-0.1262991875 -0.01004024316 0.9869471788 -0.233034879 -0.06372077018 0.9684377313
-0.12046583 0.004434094299 0.992379427 -0.2466476709 -0.152116552 0.9565377831
-0.1160920858 0.001022713492 0.9924938083 -0.2544112802 -0.1320152432 0.9572057128
-0.1171097457 0.004106101114 0.9860453606 -0.2699495852 -0.1359310597 0.953112781
-0.1097055748 -0.004248546436 0.9924840331 -0.2662285566 -0.1016318724 0.9581961632
-0.1131652668 0.0001719008433 0.9877260923 -0.2722930312 -0.120191738 0.9544625878
-0.1158745885 -0.01973812655 0.9883579612 -0.2802235782 0.0471589081 0.9506472945
-0.1142460108 -0.01401793677 0.9898155928 -0.2734057307 -0.01850658469 0.9551640153
-0.1069698781 -0.01024694741 0.9896271825 -0.2726474702 -0.0941734314 0.9572154284
-0.1846108437 -0.05133245513 0.9829897881 0.5927318931 0.1761576831 0.7809666395
-0.1827284396 -0.04657448456 0.9788851142 0.5415122509 0.112459667 0.8298377395
-0.1852792948 -0.03800155595 0.9804881215 0.5455009341 0.0157560464 0.8272117376
-0.185304895 -0.03107955121 0.9809882641 0.5262836218 -0.05732054636 0.8357834816
-0.1842158288 -0.02574752271 0.9828268886 0.5237553716 -0.1382113248 0.8383828998
-0.2024121135 -0.04413244501 1.003970981 0.500634253 0.1597227305 0.8419982195
-0.1964714527 -0.03354972973 0.997895062 0.6378349662 0.02736297809 0.7586907744
-0.1991067976 -0.03896293417 1.001576543 0.5611390471 0.09327229857 0.804733932
-0.1980705708 -0.04575753585 1.000689864 0.5485086441 0.1936284304 0.807882309
-0.2114225775 -0.09344211966 1.015523314 0.06559162587 0.2876346111 0.9553569555
-0.2120748013 -0.08546335995 1.013405561 0.1130759865 0.2777165174 0.9531650543
-0.1631196737 -0.1080841869 1.030392051 -0.5882654786 0.07892049104 0.742511034
-0.1465487033 -0.03528716043 0.9842640758 -0.1051810458 0.02008753829 0.9901073575
-0.1538516283 -0.03448163718 0.9820245504 -0.07113473117 -0.0005444742274 0.9934154749
-0.1581517011 -0.03184304014 0.9812639356 -0.01791837811 -0.03423802182 0.9956120849
-0.1516172439 -0.04224741831 0.9819591045 -0.1125751361 0.03196940571 0.9884687662
-0.164355889 -0.02872768231 0.9758858085 0.08058151603 -0.06949406117 0.9916039705
-0.1590522677 -0.03522308916 0.9761580229 -0.03284373879 0.003810180584 0.993809104
-0.1713825762 -0.02608299814 0.9767447114 0.2035892606 -0.09224003553 0.9704411626
-0.1710935384 -0.03128246963 0.97675699 0.1952566952 -0.03903742507 0.9745553136
-0.2002642155 -0.0515166223 1.004054904 0.4844090343 0.2394928634 0.840298593
-0.1930102259 -0.04324254021 0.9982228279 0.5850228667 0.1288626641 0.7852686644
-0.1945536435 -0.05435643345 1.002216816 0.4951863289 0.2784601748 0.8088822365
-0.1936918795 -0.06029326469 1.003597617 0.4408190548 0.3658703566 0.8119980693
-0.1942771375 -0.06633515656 0.9979158044 0.3294112682 0.2847832143 0.8695393205
-0.1870343089 -0.06230501831 0.9915145636 0.4347147048 0.2822797 0.8301512599
-0.2182372361 -0.05416174978 1.00934279 0.284666121 0.2611832023 0.9207395315
-0.221523568 -0.05787231773 1.011552215 0.2524237931 0.2767649889 0.9263102412
-0.2143062949 -0.05092376843 1.007118106 0.3146523535 0.251599133 0.9141278267
-0.2157061845 -0.06059524417 1.007005811 0.2568588853 0.2975197136 0.9181876183
-0.1480136216 -0.005255308002 0.98452878 -0.03428051993 -0.1844114661 0.9675884247
-0.1353278458 -0.01037389878 0.9837935567 -0.1836661249 -0.07446844876 0.9738653898
-0.1426250488 -0.001131989295 0.9851102829 -0.07293572277 -0.1959297508 0.9666765928
-0.1464189142 -0.005595832132 0.9785227776 0.02052976936 -0.198014617 0.9782899618
-0.1472092718 -0.001017647563 0.9812373519 0.03717344999 -0.2352671623 0.9689053297
-0.1404019296 -0.01294287946 0.9833248258 -0.1398288012 -0.07247736305 0.9767374396
-0.1404155344 -0.005612003617 0.9779984355 -0.05137596279 -0.2061699331 0.9751027226
-0.1696447581 -0.01250887476 0.9805701375 0.1554902643 -0.1314089298 0.9753350019
-0.1662112623 -0.007663576864 0.9832543135 0.1000256166 -0.1553980261 0.9810692668
-0.174906373 -0.01699353568 0.9784716964 0.24502711 -0.109131217 0.9629843831
-0.1609412581 -0.01763806678 0.976175487 0.0799806118 -0.1130960509 0.9899246693
-0.1458796561 -0.01524632331 0.973271966 -0.003507204819 -0.0812709108 0.9963622093
-0.1512212753 -0.01265900023 0.9763068557 0.0487585403 -0.1358656734 0.9889590144
-0.1380131543 -0.03532401845 0.9850686193 -0.1772515625 0.08887887746 0.9795550108
-0.1420653015 -0.03159457818 0.9819595814 -0.1638676673 0.085197106 0.982365191
-0.134885639 -0.01641052961 0.9828808904 -0.2095936239 -0.01042774692 0.9769176245
-0.1378039867 -0.0236267224 0.9817509651 -0.1791621894 0.1243766248 0.9741497636
-0.1481376439 -0.02932810225 0.9813607335 -0.09724042565 0.03512396663 0.9893872738
-0.1440988034 -0.0285714753 0.9777732491 -0.1513023823 0.1032937765 0.9822171926
-0.13770096 -0.02836780436 0.9788028002 -0.1740312576 0.1411367506 0.9730685949
-0.1413173229 -0.02165151015 0.975998342 -0.09465170652 0.05851189792 0.985078752
-0.13547723 -0.02008746937 0.9778056145 -0.1698253304 0.06258857995 0.9737969637
-0.1291342825 -0.008621516638 0.9775324464 -0.2064696401 -0.1050005257 0.9673947692
-0.1318426579 -0.01327035856 0.9775919318 -0.1896619946 -0.0377978608 0.9702783227
-0.1387685239 -0.01357489452 0.9750632048 -0.09224359691 -0.07023356855 0.9846792817
-0.1996431649 -0.0361744985 0.9938856363 0.6457718611 0.06496938318 0.758707583
-0.1891437471 -0.03450162336 0.9858424067 0.5823444724 -0.01958174445 0.8026607633
-0.1928941011 -0.03864950687 0.9882142544 0.6161459684 0.04735975713 0.781111896
-0.19552809 -0.03439504653 0.9908918738 0.6173847318 0.0202016104 0.7777856588
-0.188345328 -0.04180015996 0.9841825366 0.6008325815 0.05083284155 0.7937696576
-0.1976683438 -0.04382511973 0.9927172661 0.6266290545 0.1125013605 0.7702281475
-0.1926016957 -0.04701719806 0.9889091253 0.6526758075 0.1275808364 0.7464241982
-0.199646458 -0.04842461646 0.9938638806 0.5675929189 0.1672240496 0.7893188
-0.2047106326 -0.04726962373 0.9979920983 0.5095065832 0.1801197231 0.8210294843
-0.2045675516 -0.04178548977 0.9984265566 0.542334497 0.1344232857 0.8129478097
-0.2078917325 -0.04447459057 1.002124548 0.4437180459 0.1872853488 0.8574456573
-0.2041778117 -0.09140813351 1.019459248 -0.02087821998 0.2377282232 0.9143235087
-0.1992012113 -0.07915098965 1.037115693 -0.2732694447 -0.08855203539 0.6735255718
-0.2022472918 -0.08301017433 1.024952531 -0.09501130134 0.1304215044 0.8187698722
-0.1962887943 -0.07873098552 1.049962282 -0.465044111 -0.3152071834 0.5365779996
-0.2027259767 -0.0902273953 1.025501609 -0.1101389676 0.1298768967 0.8454837203
-0.1977841556 -0.07871480286 1.043280005 -0.3650656939 -0.197606653 0.6067565084
-0.2013223916 -0.08476117253 1.029733539 -0.1682101637 0.04847869277 0.7763880491
-0.1855664104 -0.07948227972 1.017450333 -0.01710096002 0.2829970419 0.8705718517
-0.1863764077 -0.07750306278 1.037154794 -0.2835016549 -0.0987271294 0.6470934749
-0.1859715134 -0.0774089098 1.025908232 -0.1310201287 0.1136967614 0.7675289512
-0.1861049384 -0.07913533598 1.031800032 -0.2114917636 0.009880212136 0.7141888738
-0.1872643828 -0.07211276144 1.054605126 -0.5181468129 -0.4529790282 0.428026557
-0.2034662813 -0.07901401818 1.010229588 0.1117109582 0.3165668547 0.9408405423
-0.201614663 -0.08465826511 1.012322307 0.06993505359 0.3113737404 0.9457238317
-0.198289454 -0.09043567628 1.013849854 0.02693804167 0.3003840446 0.9518427253
-0.1791922897 -0.1079862639 1.018860221 -0.1675789952 0.2206215262 0.9576417804
-0.1790052503 -0.1246692315 1.021669626 -0.1627620608 0.2034543008 0.9643342495
-0.1773249805 -0.1195572838 1.021200538 -0.1824912727 0.2165084332 0.9579308629
-0.1798611283 -0.1140150875 1.019290924 -0.1732227802 0.2117539197 0.9595300555
-0.1739730686 -0.1052029654 1.019085169 -0.226619646 0.2413898408 0.9434604645
-0.1744162589 -0.1145078689 1.020914793 -0.2097309381 0.2311740071 0.9496769905
-0.1547809988 -0.02641782165 0.9761285782 -0.03297040984 -0.05110039562 0.9914892316
-0.1470920444 -0.02319767699 0.9756129384 -0.07982771844 0.02639480308 0.9913873672
-0.1549807042 -0.01637736149 0.9753284454 0.05804082751 -0.1321886331 0.9893662333
-0.1440146118 -0.02364248596 0.9810000062 -0.1182805672 0.08064305782 0.9857915044
-0.1548000574 -0.01686568744 0.9814599752 0.03611238673 -0.09454478323 0.9903134108
-0.153981328 -0.02220155485 0.9811326861 0.0009793549543 -0.0454867743 0.9963598847
-0.1626839489 -0.02750863507 0.9810442924 0.03035415895 -0.0948471278 0.9946092367
-0.1600691825 -0.02283064276 0.9815131426 0.03208701313 -0.07527866215 0.994799912
-0.163733542 -0.01771692187 0.9823451042 0.07213421911 -0.1179954335 0.9889372587
-0.1665476114 -0.02401803434 0.9831875563 0.120562546 -0.09670921415 0.9627442956
-0.1764385849 -0.02119540051 0.9884703755 0.3540100455 -0.08181808144 0.8783975244
-0.1722697765 -0.02674057335 0.986104548 0.2546173334 -0.07084169984 0.9083368182
-0.171720624 -0.01999969408 0.9860317707 0.2432401627 -0.09899062663 0.9219053984
-0.165851295 -0.02073906921 0.9765455723 0.1058805734 -0.09914123267 0.9887462854
-0.1682018936 -0.02919773571 0.9834865332 0.1545976996 -0.08713527024 0.9533494711
-0.1946257949 -0.07144092768 1.003772378 0.1865623146 0.3195571899 0.9196937084
-0.200956583 -0.07335542887 1.006911397 0.1479546577 0.3135488629 0.9376112819
-0.1905611753 -0.06962542236 1.000641346 0.2336977869 0.3215101957 0.901925683
-0.1859285831 -0.06743615866 0.9967683554 0.3011084497 0.3293085098 0.8753518462
-0.1849481463 -0.07147348672 1.003050327 0.3191851974 0.4603131711 0.820822835
-0.1896724403 -0.07341632247 1.006655812 0.2246240824 0.4252740145 0.8658396602
-0.1889100671 -0.08025716245 1.009011388 0.1990217417 0.4288438559 0.8613495827
-0.1937353462 -0.08749441057 1.011982203 0.05931816623 0.3226475418 0.9352078438
-0.1858233958 -0.07584490627 1.01020205 0.1326904595 0.405153811 0.8917525411
-0.1934409589 -0.06546603143 1.004120469 0.3760542572 0.435170114 0.8167601824
-0.2033554316 -0.05547440797 1.005420804 0.3305886686 0.3183923662 0.8851009011
-0.2085086703 -0.06274076551 1.004074216 0.2858375013 0.2879691124 0.8989114165
-0.2023612261 -0.05779969692 0.9970362782 0.4387629926 0.2234982848 0.8350638747
-0.2062478513 -0.05440943316 0.999325335 0.4145310223 0.2632661462 0.8481439948
-0.2112966031 -0.05544773117 1.003451705 0.3338603675 0.3003827631 0.8847857118
-0.1967366487 -0.05270714685 0.9915960431 0.5643767118 0.1924404204 0.7799857855
-0.2010174394 -0.06789472699 1.003443599 0.2560691535 0.2952365279 0.8970357776
-0.19687289 -0.05889155343 0.9958601594 0.4518228173 0.2395920753 0.8194349408
-0.183027491 -0.1028022915 1.018186927 -0.08645812422 0.2212739587 0.9679277539
-0.1807092726 -0.09059917182 1.014584422 -0.04505000636 0.3483425081 0.9356362224
-0.1803589165 -0.09783417732 1.016924858 -0.1086214185 0.2946782708 0.9441851974
-0.1757053733 -0.1000105515 1.017455816 -0.174834013 0.2784084082 0.9395177364
-0.1703845412 -0.1011582091 1.018031836 -0.2187746763 0.2643631101 0.9348579645
-0.1712794602 -0.09578108042 1.017332911 -0.1831676513 0.2813262641 0.9361770153
-0.1751229018 -0.07845167071 1.061039209 -0.6599300504 -0.4401789308 0.3182851672
-0.1751650274 -0.08746904135 1.037818789 -0.3901497424 -0.03966470808 0.6490662694
-0.1758407205 -0.09176208824 1.018678784 -0.1507989168 0.2877883613 0.8988201618
-0.1761097759 -0.0860998258 1.029615521 -0.270213455 0.09793812782 0.7327011228
-0.1763273776 -0.08710142225 1.024410725 -0.2042295188 0.1868416816 0.7994078398
-0.1750890166 -0.09349142015 1.023355126 -0.2241345197 0.210144788 0.8580970764
-0.1741703451 -0.09085481614 1.031212568 -0.3107113242 0.07443890721 0.7505769134
-0.1707270294 -0.07857774198 1.066850185 -0.7072445154 -0.5409029722 0.2594792247
-0.1745530218 -0.08575619012 1.043949366 -0.4610457718 -0.145137921 0.5673917532
-0.1715628803 -0.082660079 1.055351973 -0.5778366327 -0.3424257338 0.4192363322
-0.1706527919 -0.08559125662 1.049155593 -0.5111935139 -0.2401453406 0.5108206272
-0.1687643081 -0.09038894624 1.040434718 -0.4459753335 -0.1098062471 0.6396064162
-0.1671705097 -0.09498887509 1.037903547 -0.50670439 -0.06957633793 0.6552702785
-0.1634858996 -0.1019993648 1.041017175 -0.7360941172 -0.1236888617 0.5648002625
-0.1676383466 -0.09622787684 1.032435656 -0.4293598235 0.02083256841 0.7376552224
-0.1649137437 -0.09457512945 1.051026344 -0.7538169026 -0.2874259353 0.4431003332
-0.1650803983 -0.09691500664 1.044555306 -0.6832677722 -0.1807294041 0.5356673598
-0.1675245911 -0.09879031032 1.026942492 -0.383310765 0.1112096012 0.8129819632
-0.1657789946 -0.09056995809 1.055915236 -0.75337255 -0.367272675 0.3857958615
-0.1674862057 -0.0905547142 1.046770096 -0.5738697052 -0.2153515518 0.5353690386
-0.1653249711 -0.101062499 1.033358574 -0.5635719299 0.003852103371 0.6952764988
-0.1653236896 -0.1036990508 1.027083993 -0.503996253 0.1071850285 0.7829585075
-0.1683856845 -0.08249697834 1.061130047 -0.6616010666 -0.4511479735 0.3461254537
-0.1961152554 -0.08158855885 1.011651993 0.06440629065 0.335026741 0.9386687875
-0.1886511594 -0.07463510334 1.031331778 -0.1997005492 -0.01134908665 0.69069314
-0.1902025491 -0.07717856765 1.01572597 0.01461745892 0.2857499719 0.8711140752
-0.1940575093 -0.0690536052 1.048253417 -0.4027988017 -0.3810938001 0.4948565364
-0.197295934 -0.07241152227 1.025744438 -0.09030135721 0.04131163657 0.7545550466
-0.1955606937 -0.07161587477 1.033601046 -0.2030443251 -0.1011334211 0.6631528735
-0.1914051473 -0.0715887174 1.044547439 -0.3706662357 -0.2852581739 0.5336299539
-0.1937645674 -0.07589116693 1.020372987 -0.04183034971 0.1776330322 0.8111447692
-0.1914381832 -0.0730554536 1.038316846 -0.2894012034 -0.1612091959 0.6044358611
-0.2001889646 -0.07256405801 1.01756382 0.03367846459 0.1806670725 0.8510854244
-0.1967194229 -0.07545803487 1.014484763 0.05269949511 0.2707384825 0.8817170858
-0.1977374107 -0.0693179518 1.04220295 -0.3154313564 -0.2612231076 0.5788315535
-0.2035676688 -0.06916166842 1.023668766 -0.02719953097 0.03515350819 0.7874842286
-0.2060555369 -0.07026648521 1.01717937 0.06774348021 0.1589264125 0.8673778176
-0.202717796 -0.06998654455 1.029076695 -0.117904447 -0.03056136519 0.7366021276
-0.1932607442 -0.07015272975 1.061777592 -0.6299723387 -0.5437847972 0.3763669133
-0.1996872723 -0.06207734346 1.005962729 0.2951142192 0.3638871312 0.8758679032
-0.2005425394 -0.0684530288 1.008800268 0.1799928993 0.3326059878 0.9200404286
-0.2059950829 -0.06879278272 1.009576917 0.1832104176 0.2852136195 0.938354075
-0.1970134079 -0.07429792732 1.046176434 -0.3983179331 -0.2657934427 0.5560544729
-0.2044059932 -0.07824861258 1.017243385 0.04455413297 0.2209729552 0.8771377802
-0.1945137084 -0.07207473367 1.056128502 -0.5470914841 -0.4397569895 0.4415470958
-0.2023617476 -0.07711494714 1.025251985 -0.07786673307 0.0859336853 0.7880738378
-0.1989041865 -0.0736810714 1.039085865 -0.2832515836 -0.1584777683 0.627288878
-0.2008093297 -0.07467145473 1.031634808 -0.1690884084 -0.03332619369 0.709849596
