# .PCD v0.7 - Point Cloud Data file format
VERSION 0.7
FIELDS x y z normal_x normal_y normal_z
SIZE 4 4 4 4 4 4
TYPE F F F F F F
COUNT 1 1 1 1 1 1
WIDTH 512
HEIGHT 1
VIEWPOINT 0 0 0 1 0 0 0
POINTS 512
DATA ascii
0.07962748408 -0.03731164336 0.9897296429 0.2549989223 0.9137847424 0.3126297295
0.07111868262 -0.03795758635 0.9811349511 0.3118883371 0.9106878638 0.2663591504
0.05538788065 -0.04053487629 0.9752386808 0.3257980943 0.8999579549 0.2895593047
0.06501692533 -0.0388896279 0.9784733653 0.3188602924 0.9067161679 0.2728983164
0.08608866483 0.09353491664 0.8533354402 -0.05290541053 -0.2293292284 0.9446176291
-0.003488238668 0.001473987824 0.9763053656 -0.3591017425 -0.08269292861 0.9296277761
-0.0258424338 0.0008370400756 0.9723187089 -0.3591017425 -0.08269292861 0.9296277761
-0.01849036478 -0.012287613 0.9721007347 -0.3591017425 -0.08269292861 0.9296277761
-0.02278100885 -0.003840843914 0.9725524783 -0.3591017425 -0.08269292861 0.9296277761
0.06961286813 -0.03500436246 0.9691565037 0.3686301112 0.8655943274 0.2733093798
0.06383254379 -0.02538385428 0.936234355 0.5565345287 0.5959598422 0.5211150646
0.06336622685 -0.03423691541 0.9681102037 0.3647802472 0.8821043968 0.2588506341
0.07044314593 -0.03655291349 0.9746638536 0.3375352621 0.9116299152 0.2304187566
0.05947161838 -0.01607357152 0.9319428802 0.6616344452 0.6320534348 0.3960228264
0.06704890728 -0.02887041122 0.9541251659 0.473954916 0.7548210621 0.3543711007
0.06516610086 -0.02587215789 0.9419648647 0.5378139019 0.6503046751 0.4567575455
0.0681239143 -0.03061407432 0.9599693418 0.4403211474 0.8022499084 0.311157912
0.06497868896 -0.02533600479 0.948975563 0.5230190158 0.7315155864 0.3528952301
0.1067484841 0.08836968243 0.8661412001 -0.4116365612 -0.3483757377 0.8308631182
0.105788298 0.08278689533 0.8624927998 -0.4207341075 -0.2975231111 0.8542255163
0.1004493833 0.09202659875 0.863078475 -0.3603633046 -0.3224204779 0.8644188643
0.0953213349 0.09483904392 0.8611389995 -0.3111350238 -0.3130769134 0.8910345435
0.06776709855 0.07385955006 0.8572618365 0.3398303986 -0.2292177826 0.9001974463
0.1158275157 0.07459352165 0.8602536321 -0.5248029828 -0.3389460742 0.7739416957
0.1071559861 0.07529257238 0.8527966142 -0.4292654693 -0.309014529 0.8449998498
0.05625038967 0.08720035851 0.8701936007 0.5360059738 -0.3117782176 0.7760557532
0.06594868749 0.09166944027 0.864263773 0.3299994469 -0.277464956 0.8668910265
0.06064929068 0.08976457268 0.8668168783 0.4328729212 -0.2960084379 0.8234866858
0.119447507 -0.01701397821 0.9057817459 -0.5674405098 0.639324367 0.5007702112
0.1293058246 -0.01526328921 0.918402195 -0.6600959301 0.5683726072 0.4682757854
0.123722285 -0.01994406804 0.9217382669 -0.58190763 0.696508348 0.4017428458
0.1252174824 -0.01698078588 0.9139040112 -0.6013904214 0.6100876331 0.4843792915
0.1406364441 0.0005397862988 0.924552083 -0.78970474 0.407063067 0.4581366479
0.002329331124 -0.01123778615 0.9782895446 -0.3591017425 -0.08269292861 0.9296277761
0.006035082042 -0.01754748821 0.9774446487 -0.3591017425 -0.08269292861 0.9296277761
0.01180371735 -0.01394563634 0.9770773649 -0.3509374559 -0.1378945261 0.9246196747
0.01003178116 -0.005542687606 0.9807801843 -0.3589227498 -0.08697588742 0.9292791486
-0.02167892829 -0.01129272208 0.9647714496 -0.3591017425 -0.08269292861 0.9296277761
-0.01499768812 -0.01780100167 0.9714779258 -0.3591017425 -0.08269292861 0.9296277761
0.03521240503 0.06890074909 0.8785592914 0.6760943532 -0.2900743484 0.676204443
0.02895526774 0.06453134865 0.8847117424 0.6872857809 -0.2687399089 0.6748042703
0.04966116324 0.08258260787 0.8702087998 0.6163557768 -0.332765758 0.7118932009
0.04667409882 0.07993471622 0.8752595186 0.6006600857 -0.3010332286 0.7368218303
0.04068816826 0.0738652721 0.8771216869 0.6373946667 -0.291108638 0.7088626623
0.05653458834 0.06136247516 0.8546327353 0.4644343257 -0.2123664767 0.8350449204
0.04966444895 0.05689439178 0.856266737 0.586304903 -0.1387498528 0.7839878201
0.08212677389 0.01925549097 0.8484703898 -0.002856723033 0.3043392301 0.9519254565
0.09017404914 -0.01172728278 0.8882582784 0.1332160532 0.4527150691 0.8691321015
0.08907467872 -0.006109083537 0.8866584301 0.1969773322 0.377838701 0.8968450427
0.08596903086 -0.01615778357 0.8911848068 0.2344825417 0.4885798395 0.8355969191
0.05624184757 -0.03514539823 0.9705628753 0.3602053821 0.8726798296 0.3007018268
0.05720890313 -0.0344443731 0.9598682523 0.4212940335 0.783767283 0.3752402067
0.06041072682 -0.02958664112 0.946277976 0.4960693121 0.6740090251 0.4650701582
0.06278077513 -0.02350790985 0.929630816 0.595580101 0.5401331782 0.5726187229
0.06006455049 -0.03151326999 0.9520409703 0.4609113932 0.7221528292 0.4243482947
0.06237661839 -0.0315034911 0.9627540708 0.4094494283 0.8437399864 0.281909287
0.05866605788 -0.02541347407 0.951202929 0.5091368556 0.7552770376 0.3427914977
0.05930716917 -0.02058404498 0.9411338568 0.5877981186 0.6922337413 0.368447423
0.09540730715 0.043021366 0.8445689082 -0.180871889 0.01916240156 0.9772616029
0.1025011167 0.04478940368 0.8469126821 -0.2447790354 -0.01058159675 0.9671554565
0.1030021012 0.03779777139 0.8473004699 -0.2777269185 0.156971544 0.9403945208
0.06734021008 0.09333132952 0.8561387062 0.3376879096 -0.2740509808 0.8862643242
0.07304278761 0.0947349146 0.8590579629 0.2031629831 -0.2541654408 0.9217088223
0.06063710898 0.09321691096 0.8591275811 0.3990922868 -0.3026409745 0.8538111448
0.06439228356 0.07637002319 0.8520918489 0.3755384088 -0.2287537605 0.8927117586
0.05858564749 0.07329188287 0.8553328514 0.4388403594 -0.2913740873 0.8454319239
0.05892144144 0.06822788715 0.8522008061 0.4029264748 -0.2781761289 0.868353188
0.07152567059 0.09026738256 0.8504622579 0.2683235407 -0.2448226959 0.9284783006
0.06910870969 0.07988720387 0.8498407602 0.3094861507 -0.1916574091 0.9271313548
0.06500919163 0.07148685306 0.8484782577 0.2990704775 -0.2340632826 0.9176785946
0.06006289274 0.06307344884 0.8487622142 0.3448629081 -0.2677645683 0.8971416354
0.07602222264 0.08472470194 0.846396029 0.1282888949 -0.184759751 0.9729254246
0.05410156399 0.06733079255 0.8551857471 0.4664346874 -0.3374539018 0.8163110614
0.1021706909 0.07593858242 0.8584232926 -0.4287419319 -0.3010678887 0.8503209352
0.08910179138 0.09113357961 0.8603128195 -0.09133373201 -0.2378432304 0.9404457808
0.09219255298 0.08580221236 0.8591353297 -0.1901566833 -0.2588460147 0.9131201506
0.1001695469 0.08190577477 0.8602432013 -0.3372178376 -0.2787119746 0.8767142892
0.1024487689 0.0880408287 0.8592946529 -0.4161804318 -0.2807588577 0.8562064767
0.09646978974 0.09172081202 0.8563728929 -0.3713800311 -0.2337014377 0.8956955075
0.1019897088 0.08436331898 0.8518921137 -0.4186547101 -0.2738150358 0.8632134795
0.1101250127 0.0808224231 0.8589961529 -0.4807176292 -0.3255036473 0.8074448109
0.1153008938 0.08204274625 0.8690293431 -0.4916575253 -0.3655071259 0.7883500457
0.1147257611 0.07679293305 0.8652844429 -0.490095824 -0.3651196063 0.7906246185
0.1089862809 0.07436466217 0.8618246913 -0.4377894104 -0.3335312307 0.8338609338
0.114542827 0.06691395491 0.8598297834 -0.4693875909 -0.3571125865 0.8060689569
0.06147280708 0.0802282691 0.8636657596 0.4791461825 -0.2658667266 0.8330776095
0.0555004403 0.07868394256 0.8641528487 0.5359373689 -0.3085499108 0.7847069502
0.05458230898 0.08423053473 0.8589235544 0.498860389 -0.323160857 0.7983387113
0.05391166732 0.0767724216 0.8585242629 0.5059003234 -0.3251801431 0.7937636971
0.05536289141 0.0899630338 0.86102283 0.4999288619 -0.3225568533 0.7967053056
0.04847845063 0.07684615254 0.8622955084 0.602499485 -0.3394258618 0.7186030746
0.0524107255 0.08624595404 0.8656425476 0.5551487207 -0.3311209977 0.7540288568
0.1181768179 -0.0116140889 0.898358345 -0.5932438374 0.5706315041 0.5470295548
0.1261712462 -0.01142364461 0.9095854163 -0.6586865783 0.5286068916 0.5146610141
0.1212807447 -0.01210539695 0.9035617113 -0.6192876697 0.5635329485 0.525508523
0.1333922446 -0.01002041437 0.9182013869 -0.7153665423 0.4903757274 0.4855955541
0.1401865482 -0.004016358405 0.9202470183 -0.7603161931 0.4369653463 0.4749089181
0.1258011907 -0.004587958101 0.898953557 -0.6475958228 0.4259886742 0.6176905632
0.1309934258 -0.003412967315 0.9052858353 -0.6868807077 0.4200519919 0.5757420659
0.07503286749 -0.03563049436 0.9856609106 0.3051841259 0.9045578837 0.2924218476
0.04906305671 -0.04027376696 0.9781031013 0.3253363371 0.899910748 0.2902489603
0.07234732807 -0.03757875785 0.9908022881 0.191595763 0.7102073431 0.4213550091
0.06327883154 -0.0348358117 0.9847295284 0.1626511365 0.546415329 0.4916791022
0.05835883319 -0.03593916818 0.9879250526 0.00480496604 0.2365327775 0.6842767
0.05142680183 -0.03505111858 0.9863100052 -0.08361620456 0.008244913071 0.8100661635
0.05351357162 -0.03919437155 0.9815892577 0.2552647889 0.767198205 0.3716906309
0.04561981559 -0.03670205921 0.9822893143 0.01945366897 0.2138590515 0.6866031885
0.08373822272 0.01329385769 0.8543086648 -0.01850081608 0.3864195049 0.9079533815
0.09094344825 0.003918359056 0.8720242381 -0.01711747609 0.4821532965 0.8581797481
0.08500613272 0.007199363783 0.8644126058 0.07246057689 0.3374941349 0.9310658574
0.08469257504 0.003746425966 0.8711842299 0.1462204456 0.3371058404 0.918210566
0.08547691256 -0.00134792726 0.8808738589 0.2249270976 0.3433621824 0.9026578665
0.09253044426 -0.002700552344 0.8817939758 0.0804983303 0.3825131357 0.9172680378
0.07797032595 0.001140623121 0.8805556297 0.3003066778 0.3246844709 0.895816505
0.01430850755 -0.02238938399 0.9753373265 -0.3445366621 -0.1811724156 0.9206933975
0.01903123036 -0.02607380599 0.9769527912 -0.3081588149 -0.1856997162 0.9180120826
0.03473746777 -0.03338160738 0.9819273353 -0.08412891626 0.06184814125 0.7746062279
0.02674889751 -0.02982293628 0.9776540399 -0.1506517082 0.0706775263 0.7696178555
0.04139225557 -0.03657952696 0.9773883224 0.1916261166 0.680504024 0.4166980982
0.01586996391 -0.02700171992 0.9819303155 -0.2425279468 -0.1100049168 0.9553768635
0.022301469 -0.0280792024 0.9827768803 -0.2187373936 -0.1615563631 0.9546847343
0.02564676106 -0.0299474448 0.9872108102 -0.1463796347 -0.1390387416 0.9757183194
0.002984793158 -0.001019542105 0.9781371355 -0.3591017425 -0.08269292861 0.9296277761
-0.01112535503 0.002375367563 0.9738186002 -0.3591017425 -0.08269292861 0.9296277761
-0.01713004522 -0.001262694132 0.9738891125 -0.3591017425 -0.08269292861 0.9296277761
-0.0104725128 -0.01372055802 0.9737354517 -0.3591017425 -0.08269292861 0.9296277761
-0.009867087938 -0.003678384237 0.9745517969 -0.3591017425 -0.08269292861 0.9296277761
0.003186438 -0.02374026179 0.9754629135 -0.3591017425 -0.08269292861 0.9296277761
-0.003621037817 -0.01967337541 0.9729754329 -0.3591017425 -0.08269292861 0.9296277761
-0.003303202102 -0.0132412808 0.9716131091 -0.3591017425 -0.08269292861 0.9296277761
0.002745260717 -0.01732189022 0.9729473591 -0.3556413352 -0.1060898975 0.9275051355
-0.008757038042 -0.007723598275 0.9699453115 -0.3591017425 -0.08269292861 0.9296277761
-0.01245542709 -0.01280564256 0.9683291912 -0.3591017425 -0.08269292861 0.9296277761
-0.001412613667 -0.005382312927 0.973287344 -0.3591017425 -0.08269292861 0.9296277761
0.04262014851 0.07137880474 0.8706246018 0.6515754461 -0.2932976782 0.6947978139
0.03846320137 0.06594483554 0.8721699119 0.6712802649 -0.2681341171 0.6866468787
0.045797389 0.07715542614 0.8693322539 0.6459109187 -0.3249652684 0.6892217994
0.03459152952 0.04889629036 0.8698804379 0.7316255569 -0.07214836031 0.6755869389
0.05967809632 -0.01747919433 0.925704658 0.6430850625 0.5302235484 0.5424143076
0.0718293041 -0.0218602512 0.9187093973 0.4757781029 0.5788244009 0.6101885438
0.08017495275 -0.02813361399 0.9155380726 0.3229373991 0.6603195667 0.6246295571
0.0649388805 -0.01531104092 0.9167940021 0.6256404519 0.498917222 0.596028924
0.06601309776 -0.01819375157 0.9232546091 0.5701021552 0.5285304785 0.6012763977
0.07522440702 -0.02801580541 0.9187709093 0.4061036706 0.6193956137 0.6179122925
0.03764812648 0.06043497473 0.867688477 0.7121630907 -0.2222096473 0.6624721289
0.04375515878 0.04760990292 0.8595212698 0.6589224935 -0.02548476867 0.7498573065
0.06307593733 0.02150028013 0.8518029451 0.2856585085 0.2729855478 0.914554894
0.07770587504 0.003415945219 0.8736053109 0.2673390806 0.3310732245 0.9028582573
0.0728423968 0.01314085349 0.8556863666 0.1675407887 0.3246102929 0.9261320829
0.07584135234 0.01523003262 0.8504786491 0.0859356299 0.329179436 0.9387646914
0.07455057651 0.006361760199 0.8687424064 0.2621357739 0.3266373575 0.9067332745
0.07849756628 0.007751373574 0.8646227121 0.1788095385 0.3325526714 0.9188207388
0.0715720132 0.009573660791 0.8632851243 0.249592483 0.322481066 0.9118297696
0.07905570418 0.01108794753 0.8579359055 0.1122596189 0.3290633559 0.9309449196
0.07708021253 0.0219408907 0.8481897712 0.08095756918 0.2946143746 0.9508545399
0.06283988059 0.02711934783 0.8517665863 0.316349268 0.2320894152 0.9182877541
0.07080496103 0.02736067586 0.8486291766 0.1923695207 0.2477271408 0.9471325874
0.06891436875 0.01797819883 0.8505581021 0.1808869392 0.3078239262 0.930455327
0.06528815627 0.03192992881 0.8479499221 0.2888716757 0.207813859 0.9334161282
0.07094582915 0.03546240553 0.8462495208 0.1871643364 0.1441417038 0.9624922872
0.09134184569 0.02306554094 0.8486921787 -0.1479081959 0.3262744844 0.9184514284
0.1200201213 0.06042934954 0.8571497798 -0.5637299418 -0.312343955 0.7612280846
0.1212183163 0.05410089716 0.852439642 -0.5706014037 -0.1593152732 0.7948750257
0.1334760934 0.03533481807 0.8824475408 -0.8325259089 0.2447446436 0.4570925236
0.1384459436 0.008800379001 0.91726017 -0.7682723403 0.412371248 0.4854592383
0.1335663646 0.03319333121 0.8879045844 -0.7864385843 0.3157486618 0.4829739034
0.1323564947 0.02866223827 0.892764926 -0.7379944324 0.3960472047 0.5087556243
0.1329838932 0.04095607996 0.8781488538 -0.8435668349 0.2255199254 0.4302993417
0.1317194402 -0.001489550574 0.922596395 -0.7683038712 0.443261236 0.4594856799
0.1328611672 0.006517807022 0.9160448909 -0.7530073524 0.4402114451 0.4849770665
0.1336361468 0.01248368155 0.9110913277 -0.7409902811 0.4387366772 0.5042300224
0.1365057975 0.003691185266 0.9222329259 -0.7915964723 0.3986210823 0.462033838
0.132014811 0.01669963636 0.9047473669 -0.714543581 0.4602162838 0.5252385736
0.127947256 -0.0001728663337 0.9147746563 -0.7326658964 0.4831843674 0.4770517647
0.1272786856 -0.004783707205 0.9186989069 -0.7414185405 0.4851304591 0.4624263048
0.1319936067 0.0215048492 0.9005548954 -0.6951850653 0.4712993503 0.5401808023
0.1288405955 0.01109824982 0.9053529501 -0.7000826597 0.4928886592 0.512087822
0.1271441132 0.01705407538 0.8990391493 -0.6542463303 0.5341801643 0.5311975479
0.1258535981 0.005196969956 0.9035828114 -0.689714849 0.4601803422 0.5469561219
0.1253854334 -0.0006426395848 0.9087233543 -0.7079095244 0.4740948379 0.512983501
0.0827928707 0.06376688927 0.8479731679 -0.0384863615 -0.180971846 0.9815295935
0.06641564518 0.06240048259 0.8481244445 0.2320524603 -0.2627155483 0.9339985847
0.07444359362 0.07641491294 0.8468807936 0.1408012062 -0.2040264308 0.9673628807
0.07368233055 0.06571175158 0.8507096767 0.151444912 -0.2276846766 0.9596204758
0.067606695 0.06709784269 0.852247417 0.2670978904 -0.2848456502 0.9165776968
0.08540511131 0.08407996595 0.8594248891 -0.03781101853 -0.2544708252 0.9032227397
0.08291773498 0.09408338368 0.8599209785 0.03411312029 -0.221946016 0.9649464488
0.08042209595 0.07986813784 0.8596313 0.0720789507 -0.2596764565 0.8771308661
0.06839284301 0.07929599285 0.8604412079 0.3508894444 -0.2444033474 0.8733910322
0.07998838276 0.0875364244 0.8599101901 0.09297349304 -0.2368175089 0.9244715571
0.08964645118 0.08035668731 0.8590118885 -0.1416502893 -0.271243751 0.8803061843
0.08039410412 0.05099232495 0.8443984389 0.02060665376 -0.1291173995 0.985655725
0.07487042248 0.05041183159 0.8443652391 0.1021160111 -0.1088804081 0.9838251472
0.0765748322 0.05730874091 0.8458989859 0.06446739286 -0.1964080036 0.9766501784
0.06509221345 0.08824107796 0.8539662361 0.3961047828 -0.2614533901 0.8772286773
0.05880759656 0.08091950417 0.8563272357 0.4469577074 -0.3083800375 0.838809669
0.06892971694 0.0861338973 0.8617336154 0.3464483619 -0.2746422291 0.8704009056
0.04144638777 0.06330013275 0.8627398014 0.6461941004 -0.3189238012 0.6843346953
0.04428283125 0.06860935688 0.8620406389 0.6237396002 -0.3611959219 0.6926327944
0.04971936345 0.06656081229 0.859741509 0.5870628357 -0.3088891208 0.7427306771
0.04585915431 0.06221776828 0.8576418161 0.5939481854 -0.2812911868 0.7480397224
0.1249573603 -0.01287031639 0.9215492606 -0.6601932645 0.6191235185 0.4228102863
0.1269505024 -0.01233026851 0.9274781346 -0.6797832251 0.5945352316 0.4169915318
0.1263683736 -0.01841116697 0.9277213812 -0.6261864305 0.6785188317 0.3769171238
0.1313013434 -0.007668235339 0.9268475175 -0.7190793157 0.527856946 0.4308301508
0.1319277138 -0.01390512381 0.9250662327 -0.7033779621 0.5569856763 0.4360888302
0.05111180618 -0.03392640874 0.9759389758 0.2429349869 0.7425059676 0.3763329983
0.04507274926 -0.03152197972 0.9774218202 0.160606131 0.5876249075 0.4615677297
0.04080085456 -0.02731738985 0.9779950976 0.04434289038 0.366860956 0.5834246874
0.03244884685 -0.02364916354 0.9819544554 -0.1939489841 -0.1340157539 0.868468821
0.03757783026 -0.03006419912 0.9868309498 -0.1907198131 -0.2448356897 0.9503487945
0.03211356699 -0.02623854019 0.987518847 -0.2013332695 -0.2457395941 0.9474390745
0.02420823462 -0.02311937883 0.9784501195 -0.1996550709 -0.02577361092 0.8107727766
0.02427013218 -0.02233411744 0.984718442 -0.2309911847 -0.2310527414 0.9438952208
0.08262638748 -0.006296765525 0.8884444833 0.3040934801 0.358481288 0.881166935
0.07701868564 -0.007857920602 0.8926174641 0.3821231723 0.384765774 0.8335342407
0.07394400984 -0.02466093376 0.9015238285 0.455739975 0.5259737372 0.7026059031
0.07920394838 -0.01866318658 0.8950997591 0.3462186158 0.4928565621 0.7945719361
0.06836400926 -0.02398685552 0.9057598114 0.601932168 0.5012722611 0.6197072268
0.07174122334 -0.01889844798 0.9010729194 0.5186513066 0.4859642684 0.6918881536
-0.01876127347 -0.003771034768 0.9658587575 -0.3591017425 -0.08269292861 0.9296277761
-0.01992768981 0.002523415256 0.9690392613 -0.3591017425 -0.08269292861 0.9296277761
0.04060615227 0.04196984321 0.8640779257 0.6922989488 0.02552826703 0.7193146348
0.04176604003 0.03056271002 0.863225162 0.6262503266 0.1427588314 0.7594983578
0.04191162437 0.03655852377 0.8622736931 0.6448224187 0.1016868204 0.7543913722
0.03579524159 0.0394759886 0.8696456552 0.7305006981 0.009658684023 0.6820390821
0.03370333463 0.05548774824 0.8725816011 0.7299239039 -0.1262739897 0.6700575352
0.03967159241 0.04833119735 0.8652718067 0.7156373858 -0.04660100862 0.6911011338
0.03827723488 0.05423063412 0.8663362265 0.7160871029 -0.1071827114 0.6873534918
0.06810931861 -0.0252162125 0.9219274521 0.5328102708 0.5581796765 0.6055004001
0.08640249074 -0.03338948265 0.9120997787 0.2142718583 0.7195931077 0.6350892782
0.0782828182 -0.03192513064 0.9115878344 0.3763013482 0.658810854 0.6150866151
0.07157613337 -0.02995967306 0.9072204828 0.5377281904 0.5605284572 0.6253690124
0.09733024985 0.03411338478 0.8459751606 -0.2076393366 0.2227261961 0.9511334896
0.04571621493 0.03835320473 0.8580052853 0.6190726757 0.09452413768 0.7774916291
0.06870041043 0.04126171768 0.8447914124 0.2131244838 0.06287261099 0.9680754542
0.06824337691 0.0482506156 0.8447749615 0.2184692621 -0.05879701674 0.9678188562
0.05862797052 0.04786448926 0.8474793434 0.400652796 -0.04225468636 0.9087603092
0.06389249116 0.05413161963 0.8459844589 0.2977454066 -0.1566826701 0.9400898218
0.06331774592 0.04509630427 0.845513463 0.2935555279 -0.007864689454 0.953281939
0.06289158016 0.03784361482 0.8469242454 0.324534744 0.1248021349 0.9321707487
0.1251494586 0.05706398934 0.8607366085 -0.6031002998 -0.2433446795 0.7584220767
0.1345089227 0.008367577568 0.9049783945 -0.7150204778 0.4083894193 0.554223597
0.1381330639 0.002805628581 0.913539052 -0.7460907102 0.4243208766 0.5042253137
0.1304376125 0.01258932613 0.896048069 -0.6713348627 0.3852998614 0.6212614179
0.1274104267 0.00150419469 0.8958697915 -0.633643806 0.3805390894 0.6625538468
0.1314048469 0.002860958921 0.9014518857 -0.6551020145 0.3781249523 0.6352981329
0.1346465051 -0.001100204536 0.9092220664 -0.7029705048 0.4085502326 0.561555028
0.1178026646 -0.00770031102 0.8907832503 -0.5166766047 0.4652456343 0.7166751623
0.1048517227 -0.004905977286 0.900475204 -0.2667623758 0.4917413592 0.6870537996
0.1198336557 -0.005393647123 0.9124094248 -0.6088975668 0.4765248895 0.524788022
0.1100703925 -0.005753613543 0.9044747949 -0.388292104 0.4967289567 0.6270346642
0.09743580222 0.003507264191 0.896466732 -0.06903269142 0.375231117 0.8095365763
0.1097068414 -0.01539400127 0.9019423127 -0.4135064483 0.6436113119 0.5811713338
0.1152472049 -0.009842048399 0.907687664 -0.520124197 0.5509724617 0.5507408381
0.1243907958 -0.009382315911 0.9158766866 -0.700961709 0.5501024127 0.4507417679
0.096382007 -0.01934586093 0.8941879272 -0.03258473054 0.5929306746 0.8036418557
0.1113020256 -0.02022626251 0.8971561193 -0.3629132807 0.6787631512 0.6148008704
0.07320452482 0.07639120519 0.859713912 0.2365928292 -0.2514312863 0.8649344444
0.08563303202 0.07453429699 0.8580603004 -0.05089953542 -0.254331857 0.8766556382
0.08236782998 0.06940022111 0.8546251655 0.03682333604 -0.1699646413 0.9537340999
0.09410324693 0.07341710478 0.8570353985 -0.247151643 -0.2585143745 0.8825290203
0.07516816258 0.07029022276 0.8546632528 0.1729307473 -0.2027333975 0.9407399893
0.08660925925 0.04921607301 0.8442975879 -0.05942868441 -0.09877573699 0.9885361791
0.09209328145 0.05115957931 0.8450115323 -0.1253151298 -0.1393528432 0.9764271379
0.08714357764 0.05861933157 0.8468378186 -0.08685895801 -0.1928551644 0.9761027098
0.09704731405 0.05447317287 0.8463714719 -0.179068312 -0.2043129802 0.9608792067
0.1110480055 0.06656914949 0.8541530967 -0.4192522168 -0.3429037333 0.8391285539
0.1044271439 0.06503548473 0.8497238159 -0.3301404715 -0.2729973495 0.9003814459
0.1015668437 0.07210638374 0.8490887284 -0.3368355036 -0.2579393387 0.9018101692
0.1063114479 0.05302476883 0.8482249379 -0.2767523825 -0.1829732805 0.9382030368
0.08344325423 0.04186321422 0.8436525464 -0.004918244202 0.0439026542 0.9915507436
0.08042707294 0.03630873933 0.8445125818 0.03937201574 0.1701537669 0.9781728983
0.07511080801 0.04181267694 0.8438839316 0.1194503382 0.05799315125 0.9865117669
0.0851868242 0.02872559801 0.8478054404 -0.06194984913 0.3224318922 0.9315533042
0.07585842907 0.032579083 0.8452538848 0.120989807 0.2114912122 0.9676055312
0.07966241241 0.02772461064 0.8468527198 0.05353976414 0.2627865672 0.9589633942
0.09392466396 0.02817579359 0.8472187519 -0.1660639644 0.2618227899 0.9498179555
0.1013402194 0.02378895506 0.8515616655 -0.3033896089 0.4717424512 0.7708179355
0.08988490701 0.01831041276 0.8515591621 -0.1868355125 0.5388457775 0.769519031
0.01733746752 -0.01138729416 0.9808881283 -0.3275929093 -0.1628419608 0.9267000556
0.02036129497 -0.01665962301 0.9827162027 -0.2968925536 -0.2060918808 0.9299812317
0.09075702727 -0.02113931812 0.894897759 0.0956716463 0.5628921986 0.8096250892
0.07966265827 -0.02535928413 0.8993923068 0.3527591825 0.5443875194 0.7530452609
0.05591222271 0.03828684986 0.8497866392 0.4491761625 0.1147404164 0.8841328621
0.04730063304 0.05061353371 0.8562537432 0.6265909076 -0.05985477567 0.7729606032
0.05348180979 0.05120387301 0.852245152 0.4976592958 -0.08095796406 0.8551565409
0.05498417467 0.04496964067 0.8513090611 0.4625638425 0.03422939032 0.8799487352
0.06240957603 0.05815753713 0.8513342142 0.3439351022 -0.177853927 0.8999195099
0.06980016083 0.05739150569 0.8478959203 0.1970544159 -0.2051347047 0.9430756569
0.06884671003 0.02014755271 0.8661828637 0.3438458145 0.260204196 0.8910852671
0.06173137203 0.02332043834 0.859105289 0.4135344326 0.254034996 0.8638240099
0.07592250407 0.01617954113 0.8770238161 0.3186536431 0.2672332823 0.8971515894
0.0570224151 0.02018001489 0.8549851179 0.405788511 0.267391324 0.8704113364
0.05639500543 0.027651757 0.8528582454 0.4469527006 0.2183918804 0.8625558615
0.0636548847 0.02225369029 0.86863029 0.4412516057 0.2331326306 0.8418284059
0.05876625702 0.02528728731 0.8706291318 0.5004262924 0.1906444281 0.8060024977
0.05641923845 0.02594714612 0.8646038771 0.515206039 0.2079387158 0.8068574667
0.06342576444 0.02309030481 0.8748132586 0.4559073746 0.1982811838 0.8244092464
0.05364363641 0.02681041509 0.8582054377 0.5341033936 0.2244676501 0.8059892654
0.07047753036 0.01873095706 0.8720752001 0.3708323538 0.2587857842 0.8757119775
0.05321817473 0.02842043899 0.8701822162 0.5622847676 0.1570778489 0.772362709
0.04741927236 0.03098397516 0.863478303 0.6147694588 0.1556501091 0.753323555
0.05112557858 0.03955342993 0.8547993898 0.5582557917 0.08638682216 0.8148555756
0.05366807804 0.03338396549 0.8546990752 0.5217692852 0.1604860723 0.8288297057
0.04753730819 0.04430009797 0.8558046222 0.6184094548 0.0253559351 0.7830250263
0.08409248292 0.01039688196 0.8878539801 0.2549086213 0.2719787657 0.9213216901
0.07652769983 0.01565755531 0.8844871521 0.3298119307 0.2354454994 0.8820149302
0.07059119642 0.01890574582 0.882091105 0.3919021189 0.209382847 0.8509277701
0.0646366477 0.02008872479 0.8802679777 0.4619840682 0.1893873513 0.8191777468
0.04810905829 0.029347606 0.8735368848 0.6340360641 0.1161883697 0.7326881886
0.05510240421 0.02255943045 0.8771876097 0.5720289946 0.1556634754 0.7684985399
0.0742809698 0.009436466731 0.8856635094 0.38132599 0.247649923 0.8682092428
0.05972469971 0.01637130231 0.8769567013 0.5105801225 0.2057915181 0.8118407726
0.0681733638 0.008825818077 0.8816452622 0.4371778965 0.2487309575 0.852304399
0.04483173415 0.02966935933 0.8686837554 0.6399043202 0.1301623583 0.7405699492
0.06354868412 0.0137739405 0.8814355731 0.4965452254 0.2070598006 0.8136883378
0.0743739903 0.003765510628 0.8864622116 0.3945089579 0.2696389556 0.8723878264
0.05397661403 0.02018837444 0.8699729443 0.529630959 0.2058221102 0.8108193278
0.04066700116 0.03460729867 0.8698837161 0.7046744227 0.08193024993 0.6960907578
0.05532427505 0.01982194372 0.8613495231 0.4569016099 0.2425887138 0.846693635
0.06801180542 0.009524370544 0.873505652 0.385548532 0.2753150463 0.8782561421
0.04871817678 0.02428318374 0.8628263474 0.5441244245 0.202730149 0.8075443506
0.06335985661 0.01324801147 0.8694995046 0.4146029055 0.2619976103 0.8653714061
0.08100706339 0.004150155 0.889349103 0.3107074499 0.278732419 0.9041566253
0.07205304503 0.005949908867 0.8783650398 0.3664907515 0.2857969105 0.885299921
0.06244698912 0.01592455804 0.8567075729 0.3234644234 0.294051677 0.8965584636
0.06378165632 0.01363064628 0.862049222 0.3505811691 0.2916643023 0.8886367679
0.08204898983 -0.02998023853 0.9040389657 0.3055923283 0.5713095069 0.7464307547
0.07616292685 -0.02134322561 0.9111174941 0.4072712362 0.5799210072 0.6363084912
0.0894729346 -0.02517651394 0.9044359326 0.1140328199 0.6345326304 0.7204331756
0.08768905699 -0.03144973516 0.9057955146 0.1785403043 0.5923069119 0.7804896832
0.1050119698 0.01310236193 0.8915555477 -0.1872199327 0.3172298074 0.8221051097
0.120427683 0.002501762938 0.9045603871 -0.5836385489 0.4321199954 0.5887004733
0.1024421304 0.004365955479 0.9003685117 -0.1794510633 0.3570689559 0.7615250349
0.1180186123 -0.001780916937 0.9086723924 -0.5516295433 0.447843492 0.5718336701
0.09429260343 0.008964683861 0.8945982456 0.02202203311 0.301712513 0.8729783297
0.1148241088 0.01226329431 0.8937879205 -0.4128839374 0.3565251529 0.7236010432
0.1150814295 0.007734529674 0.8984900713 -0.440648675 0.3832028806 0.6813800931
0.1212223172 0.009782176465 0.8971536756 -0.5655466318 0.3935628235 0.6460697651
0.1085573658 0.001848660409 0.9037358761 -0.3260742128 0.3932983577 0.6861345172
0.1060622633 0.009218093008 0.8958221674 -0.2352826595 0.3424465358 0.7728905678
0.09220825881 0.05027148128 0.8534741402 -0.1633194238 -0.01354262605 0.8793951273
0.09193509072 0.0271086935 0.8627464175 -0.168760404 0.4878429472 0.7254338861
0.09381278604 0.02202269621 0.8675940037 -0.2011342645 0.624658823 0.6552478075
0.08703556657 0.03399855644 0.8497897983 -0.07669132948 0.2575570345 0.9081506133
0.08695296943 0.04126384482 0.8499160409 -0.08364866674 0.111713998 0.9117027521
0.09147548676 0.03477745876 0.8618695736 -0.1684825867 0.3267956078 0.743037045
0.08984149247 0.03894679993 0.8576387763 -0.1400051266 0.2128312141 0.8040967584
0.09051372111 0.01919369958 0.8619532585 -0.1700982749 0.6098403335 0.7284664512
0.08895997703 0.02729819529 0.8555311561 -0.1178762615 0.4253444672 0.8240196705
0.08408226073 0.02014789172 0.8551661372 -0.06099877506 0.4800335467 0.8394665122
0.08392228931 0.01741603203 0.8724597096 0.03908930719 0.4864799976 0.7607496977
0.08231704682 0.01972566172 0.8664336205 -0.01359156799 0.5495189428 0.7072244287
0.07720346004 0.0177722238 0.8703951836 0.201948747 0.3145262301 0.8930447102
0.09049164504 0.01566469111 0.8779680133 -0.06237788126 0.5889356136 0.6850936413
0.08283027261 0.01493879035 0.8784295321 0.1699382514 0.3398724794 0.8792712688
0.07196763903 0.02204574831 0.8536310792 0.1612894982 0.3165623546 0.906139791
0.08045232296 0.02004009299 0.8602843285 0.01978928596 0.4626108408 0.7964889407
0.09310332686 0.01720645651 0.8732509017 -0.1956455857 0.7213146687 0.5855377316
0.08782055229 0.0184215866 0.8684551716 -0.1065893173 0.6216022372 0.6639857292
0.1251899153 0.006480462849 0.8895799518 -0.5824743509 0.3455739915 0.734505713
0.1242414713 0.01030231826 0.8835799098 -0.5956240296 0.3735022247 0.7037411928
0.1258510351 0.01591005176 0.8866891861 -0.6524798274 0.3967007101 0.6419147849
0.1249260455 0.01704196259 0.8807625771 -0.643126905 0.4094353914 0.6400817037
0.1217428371 0.02847582474 0.8589786887 -0.672169745 0.4801226556 0.5557047725
0.1242750511 0.02864152938 0.8654795885 -0.6994396448 0.4410938621 0.5412162542
0.1274862885 0.03053039499 0.871861279 -0.7437847257 0.3760865331 0.5139725804
0.1268799454 0.02575306594 0.8755607605 -0.7097033262 0.4292117059 0.5424745083
0.1308524311 0.02460912429 0.8873167634 -0.7443195581 0.3809573054 0.5271630883
0.1306913793 0.02916093729 0.8818416595 -0.7691172957 0.3412797153 0.5039781332
0.1295151114 0.03620147333 0.8709254265 -0.7978412509 0.2936380506 0.4731011689
0.1273273826 0.02237226069 0.8807402253 -0.695504725 0.4469174445 0.5599173307
0.1108173728 0.05741775036 0.8506408334 -0.3820427358 -0.2743364275 0.8804303408
0.1252498329 0.06209858134 0.862950027 -0.5852196813 -0.3160422742 0.7440063953
0.1220585257 0.0702599138 0.8639369011 -0.5770097375 -0.3495945334 0.7373412251
0.09826316684 -0.01497697271 0.8903715014 -0.04774362221 0.5361941457 0.8401636481
0.1039293781 -0.005958386231 0.8866954446 -0.05305969715 0.4175742269 0.9055907726
0.09737847745 -0.009492126293 0.887304306 -0.008035853505 0.4617304802 0.8828920722
0.1124075502 -0.005743014161 0.8878102303 -0.2881737947 0.4223079979 0.8522287607
0.1089563444 -0.01003384124 0.8891712427 -0.2415158898 0.4742467999 0.8224566579
0.1141356081 -0.0120045729 0.8922034502 -0.4181529284 0.5310049057 0.7088786364
0.1092535108 -0.01544038299 0.8927921057 -0.2766766548 0.5797954202 0.7221748829
0.09138353914 0.06882253289 0.8541042805 -0.1714624912 -0.189517051 0.9476652741
0.0951352492 0.0615208298 0.8544695973 -0.2266370356 -0.1430808455 0.919271946
0.09770575911 0.03710534796 0.8656563163 -0.2584264278 0.3528538644 0.7188082933
0.09734350443 0.03007318825 0.8705001473 -0.2632971704 0.5185654163 0.6394286156
0.1011477858 0.04479723051 0.854732573 -0.2581788003 0.09007366002 0.8755015731
0.1009731442 0.03187346086 0.8627274632 -0.2679494321 0.3814746439 0.7408826351
0.09647829831 0.05438698828 0.8576640487 -0.2429243922 0.002297286177 0.8653071523
0.1013932675 0.0382290557 0.8581784368 -0.2637019455 0.229224667 0.8147519231
0.09599499404 0.04859178141 0.8619970679 -0.2466301918 0.1438055933 0.7956520915
0.1015271544 0.05010529608 0.8508806825 -0.254678905 -0.03784511611 0.9378493428
0.0973501429 0.06904441118 0.8550154567 -0.2995574474 -0.2449580878 0.9149547815
0.1044552326 0.06732327491 0.8559751511 -0.3773766458 -0.3062182665 0.8714231253
0.1044135317 0.007598140743 0.8758075237 -0.1864000708 0.3799163997 0.8604139686
0.09887518734 0.005428842269 0.8730053306 -0.1307928562 0.5266652107 0.7703188062
0.1010924503 0.001144866692 0.8828013539 -0.05837028846 0.3193544447 0.9373339415
0.09723264724 0.001649130601 0.8774542809 -0.05666546524 0.4797571301 0.8233067989
0.09949412942 0.01775873639 0.8559655547 -0.3384799063 0.7456489205 0.5653137565
0.09788545221 0.01364876051 0.8611056805 -0.2577198744 0.6843248606 0.6305258274
0.114126347 -0.01697783917 0.9120461941 -0.4421831667 0.6175032258 0.5405579805
0.1121113375 -0.02383480407 0.9174075127 -0.345943898 0.6842899323 0.5175516605
0.1189091653 -0.01548444945 0.9155629277 -0.5413098931 0.6205319762 0.4814217091
0.1085450128 -0.02243044786 0.912106216 -0.2978347838 0.6484988332 0.5780453086
0.1179763973 -0.02105542086 0.9127622247 -0.51679492 0.7203505039 0.4467850626
0.1146080568 -0.02129171789 0.9038239717 -0.4642820358 0.7179631591 0.5093191862
0.1017304361 -0.02835831419 0.9088574052 -0.1727668792 0.7470450997 0.5474536419
0.1067361832 -0.02767043188 0.9166297913 -0.2244945467 0.7353899479 0.5069128871
0.09586048126 -0.03142674267 0.9081406593 -0.02320265956 0.7514139414 0.594889164
0.106294252 -0.02538821101 0.9072447419 -0.3120243251 0.7460510731 0.51060009
0.1178422868 -0.02255813219 0.9205598235 -0.4802238941 0.7242739201 0.4171316922
0.1004122794 -0.03070999309 0.914917469 -0.07221768796 0.7382935286 0.562297821
0.07140645385 -0.006073864177 0.9016492367 0.6463642716 0.2290913314 0.7251337767
0.07626651973 -0.0009465109906 0.8982884884 0.5052511096 0.2406745553 0.7923694253
0.08024084568 0.003243321553 0.8948277235 0.3820909262 0.253541708 0.853488028
0.09395064414 -0.01518436521 0.9007174373 0.03870298341 0.5162085891 0.6636031866
0.1017436907 -0.01856031083 0.9000246525 -0.1634503454 0.6164966226 0.6586048603
0.084086366 -0.003045301186 0.8982456326 0.289930582 0.3316482306 0.7635186911
0.09211884439 0.002987193875 0.8941535354 0.06161291152 0.3669308126 0.840608716
0.09051472694 -0.006572609767 0.8986486197 0.1095714495 0.4213727117 0.7202314138
0.09980428219 -0.009998124093 0.8984950781 -0.1515359282 0.5387294292 0.6786832213
0.07879794389 -0.005497462116 0.9002709389 0.4398206472 0.2972362638 0.7318569422
0.09764108062 -0.003561733756 0.8960487247 -0.09232796729 0.4699040949 0.7592089772
0.08653984964 0.008619436063 0.8926720619 0.2174143642 0.2701407075 0.9104810953
0.0814178437 -0.01253507286 0.9010213614 0.3932495713 0.3780978322 0.7376840115
0.09577534348 -0.02223972604 0.8999684453 0.01648250781 0.6024154425 0.7614864111
0.08680808544 -0.01665413752 0.9007762671 0.2472237349 0.468726486 0.7463153601
0.07197612524 -0.01234454662 0.8999300003 0.5525493622 0.3875267506 0.7168816924
0.06787637621 -0.0104356762 0.9063142538 0.6657966375 0.339702934 0.6521541476
0.07866622508 -0.01806119271 0.9067897797 0.3709382713 0.5103012323 0.6863098741
0.08372093737 -0.0219184272 0.9062953591 0.2359612733 0.5890691876 0.6978280544
0.07446037233 -0.01263555326 0.9051657915 0.514256835 0.3836576641 0.6955230832
0.06728361547 -0.02724089846 0.9120815992 0.5916763544 0.5362874866 0.5991049409
0.06736773252 -0.01782834344 0.9085587859 0.6286290884 0.4987232387 0.5966513157
0.1167059988 0.02106212638 0.8862072825 -0.413885653 0.6729881763 0.6107470393
0.1073104143 0.01864209212 0.8822078109 -0.3446628451 0.7437806726 0.5603098869
0.1184479967 0.02676365897 0.8749155402 -0.4983275533 0.5180566311 0.641661942
0.1155046299 0.02187537402 0.8783654571 -0.441347301 0.6502256989 0.5907933712
0.1005269885 0.01651017554 0.8825241327 -0.223988831 0.6765657067 0.6172699332
0.09262105078 0.01356155146 0.8867488503 0.001810065936 0.4556861818 0.7961280346
0.09776457399 0.01498443913 0.8883244395 -0.05147560313 0.4430878758 0.8034169078
0.1125645414 0.01924740151 0.8916432858 -0.3268792331 0.4796164632 0.6939757466
0.1180552393 0.02084396593 0.89277035 -0.4413222373 0.4999538064 0.6403907537
0.1180189401 0.01491493266 0.8892516494 -0.3417571485 0.3780949116 0.8336699009
0.09383383393 0.01641920954 0.8561605215 -0.2608824968 0.7299887538 0.6105484962
0.09448925406 0.009954760782 0.8651701808 -0.1661033332 0.6323021054 0.696703136
0.0887632072 0.01390883327 0.8577933908 -0.1491744965 0.6250279546 0.7447793484
0.1094495878 0.03971679136 0.8486084938 -0.3381403387 0.106498234 0.9303234816
0.1113099232 0.03278971836 0.8513956666 -0.4408245087 0.3156392872 0.8197048903
0.1168949455 0.03011178598 0.8550863862 -0.5645383 0.4132120013 0.6761261821
0.09896458685 0.01752437092 0.8768740892 -0.2902052701 0.7782150507 0.5247957706
0.1050091311 0.03992493078 0.8538082242 -0.2933558226 0.1373828799 0.8716417551
0.1154151112 0.03371144086 0.8641414046 -0.5101597309 0.3287997842 0.7105509043
0.110837236 0.03829060122 0.8575328588 -0.4060688913 0.191226244 0.8126716614
0.1002875715 0.02404840104 0.870013833 -0.2832418084 0.5910818577 0.6281616688
0.1069545969 0.0316984877 0.86363554 -0.3672396243 0.3774336576 0.7218979597
0.1114815772 0.02930903807 0.8677803278 -0.4600764811 0.4516386092 0.6571284533
0.1177451313 0.02941344492 0.8677187562 -0.5335610509 0.4468007684 0.6479389668
0.108230114 0.02085955814 0.8738902807 -0.3968563378 0.6820627451 0.5574975014
0.1180391833 0.05418673158 0.8595949411 -0.5118727684 -0.1659706384 0.8236902952
0.1116347834 0.0613803938 0.8573983312 -0.4478758872 -0.2678399086 0.8397473693
0.111987628 0.05350083858 0.8568361998 -0.4703348875 -0.09468161315 0.8273387551
0.1132509038 0.04284912348 0.8543675542 -0.4363118112 0.07310479134 0.8599103689
0.1062373593 0.06161976978 0.8544700146 -0.3905483186 -0.2537390292 0.868178308
0.1156840101 0.04784338176 0.8582094908 -0.5190743804 0.01413153578 0.8031403422
0.1091652289 0.04937534779 0.8529416323 -0.3840259016 -0.05125686154 0.8853786588
0.09186834097 0.06421120465 0.8472980857 -0.1815420389 -0.1752158999 0.9644660354
0.08982124925 0.07027184963 0.8481804729 -0.1941468269 -0.1527565271 0.9645575881
0.09978010505 0.0612555109 0.8485477567 -0.2409932762 -0.2313162684 0.9410657287
0.09187734127 0.07661937922 0.8490000963 -0.2614353001 -0.1368092149 0.9543093443
0.09937217087 0.07899132371 0.8490000367 -0.3603804708 -0.2395844311 0.8968305588
0.0933386758 0.08849820495 0.8506655097 -0.2341654003 -0.2285169214 0.9114091992
0.08847716451 0.08383759111 0.8477574587 -0.1680860072 -0.1765509099 0.9548279643
0.09587121755 0.08356919885 0.8486670852 -0.3221762478 -0.2214191407 0.9080224037
0.08188336343 0.08922100812 0.8484793901 0.07884289324 -0.1730492115 0.9766001105
0.1099675149 -0.0005657746806 0.8850474358 -0.2335397601 0.3486478925 0.896394372
0.1208636686 -0.001450828393 0.8884801269 -0.5733175278 0.3816832304 0.7136076093
0.1167970002 0.003081190865 0.8850083351 -0.3983145356 0.2806107402 0.8546871543
0.1185017973 0.007702521048 0.8817942142 -0.4494240582 0.3104539514 0.8112025261
0.1180039197 0.01179654058 0.876352191 -0.4622207582 0.3351121545 0.7812688351
0.1212985143 0.01596061327 0.8730472922 -0.5877608657 0.4083195627 0.6744038463
0.1199465245 0.01915581338 0.8682347536 -0.569227159 0.4153656363 0.6704114676
0.1044246405 0.01101132855 0.8698422313 -0.2529646158 0.486115247 0.7668796182
0.1080134138 0.004801298492 0.8818460703 -0.1922484785 0.2644984722 0.93850106
0.1123649925 0.006913698278 0.8788012862 -0.3182551265 0.3221151531 0.8598473668
0.1044632196 0.0161386691 0.8604905009 -0.3598462045 0.659522891 0.6142578721
0.1194491982 0.02390993387 0.8618460298 -0.5979092121 0.4647394419 0.6171987653
0.1127115414 0.01080175117 0.8737359643 -0.3734930456 0.3893359005 0.7874857783
0.1139178723 0.01578189246 0.868140161 -0.4465280175 0.4488759935 0.7090086937
0.1103765815 0.02106752992 0.8583589792 -0.4804874957 0.6221182346 0.576626122
0.1073287651 -0.02299575135 0.9010942578 -0.3592462242 0.7318216562 0.5699645877
0.09768465161 -0.02731868811 0.9028440714 -0.09093783796 0.6920577288 0.6960329413
0.115538612 0.04722860828 0.8490000963 -0.466601491 -0.04922732711 0.8803608418
0.1203265116 0.03925192729 0.8528795242 -0.5856595635 0.1979374588 0.7213387489
0.1232267469 0.04577090591 0.855725348 -0.5780754089 -0.009319427423 0.8094229102
0.1057204008 0.02754432335 0.8510788083 -0.3482461274 0.3659798503 0.8194880486
0.1119282544 0.02655338123 0.8552829027 -0.5033755898 0.555208087 0.6347954869
0.1049844176 0.02122660168 0.8554443121 -0.4264128506 0.6919485331 0.5763338804
0.1314386576 0.05296511203 0.8669694066 -0.6387147903 -0.2014019787 0.7386181951
0.1274367571 0.04755523428 0.8602123857 -0.7390425801 0.0444816798 0.6146175265
0.130980581 0.04726192728 0.8661569357 -0.8310417533 0.07837539166 0.5053094029
0.1236906275 0.03788239136 0.8599604964 -0.6499738693 0.1952931881 0.7109464407
0.1272092611 0.03627996519 0.877790451 -0.7036694884 0.3492840827 0.4896379709
0.1239195988 0.02945722453 0.8832223415 -0.6191872358 0.4755227566 0.5354229212
0.121951364 0.03188399598 0.8765333295 -0.5253219604 0.3714940548 0.665726006
0.1251765639 0.04093434289 0.8670554161 -0.5986394286 0.1075589135 0.7289212346
0.1228763461 0.03632127121 0.8706890941 -0.5332363844 0.2210668921 0.7390790582
0.125332579 0.02453488298 0.8909040093 -0.6257391572 0.5391306877 0.5495787263
0.1336033791 0.04546611011 0.873149395 -0.8896490932 0.1522730738 0.4012565315
0.08119149506 0.07911174744 0.8480263948 0.02672220394 -0.1327559352 0.9857317805
0.08150780946 0.07275484502 0.8482704759 0.02296901494 -0.1401156634 0.9851101637
