# .PCD v0.7 - Point Cloud Data file format
VERSION 0.7
FIELDS x y z normal_x normal_y normal_z
SIZE 4 4 4 4 4 4
TYPE F F F F F F
COUNT 1 1 1 1 1 1
WIDTH 512
HEIGHT 1
VIEWPOINT 0 0 0 1 0 0 0
POINTS 512
DATA ascii
-0.1503691375 -0.177721858 1.075944543 -0.2270838767 0.1817866564 0.9565277696
-0.1440672874 -0.1877252758 1.083372593 -0.1997836828 0.1993688792 0.9591620564
-0.1522642374 -0.1746051162 1.080386639 -0.2192892134 0.1727018952 0.9601767659
-0.1490754932 -0.1801805645 1.080277562 -0.2117503285 0.1830086708 0.9597845674
-0.03372368589 -0.1207098737 1.085763097 -0.467564702 0.1376871616 0.8723165989
-0.02960704826 -0.1187681481 1.087226272 -0.4668442607 0.09265860915 0.8789482117
-0.1340977401 -0.1186739951 1.069862366 0.06460677087 -0.01631889492 0.996109724
-0.1404233575 -0.1223647967 1.071382642 0.09428936988 -0.03776824847 0.9936736822
-0.03990801051 -0.1171654835 1.076096058 -0.4639396966 0.08166477829 0.880117178
-0.04682303965 -0.123497963 1.070874214 -0.4259095788 0.02578454651 0.8943346143
-0.05518700927 -0.1222299784 1.06488502 -0.3816389143 -0.08391226828 0.9169689417
-0.02054417878 -0.1013389155 1.083992362 -0.4361014366 0.002626391361 0.8978990316
-0.02561201714 -0.09375678003 1.083574772 -0.3922153413 -0.05654571205 0.9179717898
-0.02360442467 -0.1008365378 1.078546524 -0.418112129 -0.0203974992 0.9069908261
-0.01964734308 -0.11479415 1.084913135 -0.4725598097 0.04215951636 0.8791328669
-0.02897531167 -0.1084034666 1.077203989 -0.4350469112 0.02786554955 0.8966929317
-0.02395342849 -0.1120129526 1.081061363 -0.4550583363 0.04345101491 0.8863335848
-0.026847817 -0.116621919 1.080851555 -0.4665490687 0.07276785374 0.8785185814
-0.03195788339 -0.1167335734 1.078065395 -0.459212482 0.07857693732 0.8812605739
-0.02416410297 -0.1198527589 1.083304763 -0.4817244411 0.08855091035 0.8702993989
-0.03459248319 -0.1119521558 1.077000022 -0.4539776742 0.06008332968 0.8869606853
-0.03673797101 -0.1218347177 1.077000022 -0.4698554277 0.1127451584 0.8734130859
0.01141453721 -0.1844406277 1.201948404 -0.002477973932 0.1710555851 0.9852582812
-0.04037059471 -0.1248249188 1.079106927 -0.4800561965 0.1088170409 0.8701720238
-0.03508351743 -0.1262382269 1.084882498 -0.4773896933 0.1213674098 0.8701453805
-0.01962671056 -0.107423313 1.083398819 -0.4588445127 0.02847446129 0.8871651292
-0.02058832161 -0.1221150309 1.086905718 -0.4925476909 0.09380853176 0.8651238084
-0.03067591041 -0.1244230643 1.082172871 -0.4849034846 0.1166310161 0.8664639592
-0.03086116165 -0.1265628934 1.088570118 -0.4783780277 0.1190296188 0.8699601889
-0.02582895942 -0.1255529672 1.089486837 -0.485589236 0.1029030755 0.8680275083
-0.02297306992 -0.1162436232 1.090000033 -0.4868659675 0.05941270292 0.8713502884
-0.03134759143 -0.2494397014 1.17682302 -0.05079616606 -0.4453803003 0.8937250376
-0.04035460576 -0.240128234 1.180664182 -0.04146092385 -0.4481964707 0.8929402232
-0.04891292751 -0.2572789192 1.175296783 -0.04828843102 -0.422767669 0.9047014713
-0.04231622443 -0.24633044 1.178646207 -0.04439714924 -0.4399128556 0.8967285156
-0.03645243868 -0.2448380888 1.178765655 -0.04591333121 -0.4462458491 0.8936053514
-0.04616174847 -0.2504442334 1.177480459 -0.04529579729 -0.4323705137 0.900284946
-0.04622836411 -0.2618000209 1.182574511 -0.04016420618 -0.414460063 0.9090820551
-0.03626167029 -0.2562837899 1.189842343 -0.05041949078 -0.4487964809 0.8917338252
-0.03853260726 -0.2594677508 1.186603546 -0.04376415536 -0.4338445365 0.8996335864
0.006556042936 -0.1846708357 1.198292017 0.004877088126 0.1632054597 0.9861558676
0.001252627117 -0.1914570034 1.202138305 0.03896187991 0.1268264502 0.9903155565
-0.04480578378 -0.2594661713 1.187999725 -0.04687371105 -0.4266293347 0.9026309252
-0.05105712265 -0.2467613965 1.181753278 -0.04511882737 -0.4236325324 0.9044786692
-0.05916810781 -0.2546616197 1.177816987 -0.04616639018 -0.4173253775 0.9074348211
-0.05452051014 -0.2568619549 1.175870895 -0.04593453184 -0.418721348 0.9067805409
-0.05255694687 -0.2511610985 1.178024411 -0.04463112354 -0.4265689254 0.9031023979
-0.06631202996 -0.2596811056 1.176206231 -0.04729463533 -0.4105324149 0.9106186628
-0.03803741932 -0.1206988692 1.081744671 -0.4915578663 0.1241163313 0.8566091061
-0.03816527128 -0.1150309667 1.080698967 -0.4570672512 0.07674916089 0.8833674192
-0.0479329899 -0.1180027127 1.074581623 -0.4813278615 -0.02397934347 0.8694254756
-0.05356253684 -0.1153816357 1.072434545 -0.4870893359 -0.1442919075 0.8579028845
-0.1549915522 -0.1287532896 1.079173207 -0.04976765811 0.03433582559 0.9959387779
-0.157594651 -0.1333454549 1.077980399 -0.03856725618 0.05278152972 0.9964267612
-0.1465897858 -0.1168555021 1.08132863 -0.06755366176 -0.01556233596 0.9954000711
-0.1494000852 -0.1214759052 1.080236316 -0.05758016557 0.003239891026 0.9958073497
-0.1288247108 -0.1131308004 1.07004118 0.03175071627 0.02508047782 0.997531414
-0.1392141432 -0.1160440966 1.072707653 0.056182798 -0.0278272219 0.9967041016
-0.1439680606 -0.115417257 1.07698226 -0.005573048722 -0.03961212561 0.995528698
-0.1441637278 -0.1195660904 1.073061466 0.07849088311 -0.04644076899 0.9955251217
-0.1484913081 -0.1226563752 1.073065162 0.09721723944 -0.0374527052 0.9941845536
-0.1527416855 -0.1252095699 1.073132277 0.1123141944 -0.02792940661 0.9931952953
-0.1369400769 -0.1696483642 1.085361838 -0.1789167821 0.2054699063 0.9619101882
-0.1288707405 -0.1756407022 1.083137512 -0.2111917585 0.2627468407 0.9408480525
-0.1378664076 -0.1784355789 1.080053329 -0.2285997421 0.2324251086 0.94434762
-0.1168729216 -0.1854005605 1.088225603 -0.1976071 0.3291638792 0.9227842093
-0.1210706383 -0.1826220304 1.08705461 -0.2052296698 0.3100797236 0.9281390309
-0.1300236136 -0.1873673946 1.087176323 -0.2059710175 0.2842614353 0.9357513785
-0.1258857846 -0.1898578703 1.088723302 -0.21474424 0.3143326938 0.9234380126
-0.1279067695 -0.1830328554 1.085610271 -0.2111748457 0.2833814919 0.934412539
-0.1388722509 -0.1847030967 1.083163977 -0.2059485912 0.2319668084 0.949816823
-0.1340133101 -0.1845025569 1.084551215 -0.2072417289 0.2560003102 0.9429702759
-0.1375688761 -0.1753686219 1.088138819 -0.1893049031 0.2188600749 0.9566729069
-0.1338155121 -0.1797895133 1.088897467 -0.1964603066 0.2247743756 0.9539977312
-0.1410258561 -0.1075566858 1.083908319 -0.09113025665 -0.05187076703 0.9943524003
-0.03226524964 -0.2351443022 1.192967534 -0.1014776602 -0.4485496581 0.8873400092
-0.03723892197 -0.2376891673 1.18579638 -0.06708534062 -0.4488040805 0.8903284073
-0.02960820496 -0.2421698421 1.180990338 -0.06322933733 -0.449037075 0.8908516765
-0.02227683738 -0.2464706749 1.178889394 -0.06763229519 -0.450712949 0.8898172379
-0.04382771254 -0.2562366426 1.176038027 -0.04892610386 -0.4281899333 0.9020813107
-0.03611194715 -0.2537537515 1.177673817 -0.04912225157 -0.4374469519 0.8976631761
-0.03987467661 -0.2574924529 1.180039048 -0.04593184218 -0.4313279688 0.9008510709
-0.0670415163 -0.1142164171 1.070028424 -0.2442080975 -0.1768048704 0.889234364
-0.08077098429 -0.1254655719 1.068209887 0.1622144431 0.01886827499 0.9349325299
-0.08733402193 -0.1254501939 1.069224238 0.2991875708 0.05105254054 0.9179040194
-0.07666627318 -0.12117327 1.069078088 0.0308322832 -0.05020293593 0.9145724773
-0.07491415739 -0.1167946458 1.07033813 -0.05230888352 -0.108656548 0.8875259161
-0.06219286844 -0.1120060384 1.070036173 -0.3689826429 -0.2251235992 0.8862261176
-0.08041747659 -0.1148387417 1.070452213 0.04402300715 -0.04854687676 0.8913144469
-0.09107082337 -0.1200276837 1.070847988 0.3209130764 0.04075202718 0.8883289695
-0.08556277305 -0.116835393 1.070621371 0.1726398319 -0.003410401987 0.8907319903
-0.09092634916 -0.1148524359 1.070622206 0.2659163475 0.05965460092 0.8969808817
-0.04407734051 -0.2447373867 1.187996984 -0.04499102011 -0.4347915649 0.8990835547
-0.0412556231 -0.2404932231 1.189483285 -0.08827210963 -0.4325344265 0.8963165879
-0.04634843767 -0.242741555 1.183391094 -0.046589531 -0.4297321439 0.9013977647
-0.03629212081 -0.2504568398 1.191437244 -0.05169345811 -0.4574579895 0.8875209093
-0.03740682825 -0.2428943366 1.190936804 -0.0662433207 -0.4441775382 0.892763555
-0.04146084934 -0.2490258217 1.189313293 -0.04479961842 -0.4438983202 0.8946890831
-0.04099566489 -0.2540918291 1.190139055 -0.05103380233 -0.4455880821 0.8933126926
-0.05053931475 -0.2539507747 1.186618209 -0.04376834631 -0.4193317294 0.9066745639
-0.04834225774 -0.2493392229 1.186845064 -0.04159525409 -0.4247543216 0.9042440057
0.01709907688 -0.1686918736 1.185987711 -0.002477973932 0.1710555851 0.9852582812
0.01308153942 -0.1782814264 1.196028709 -0.002477973932 0.1710555851 0.9852582812
0.01261086296 -0.1738526076 1.187114239 -0.002477973932 0.1710555851 0.9852582812
0.02007372491 -0.1791019887 1.191501737 -0.002477973932 0.1710555851 0.9852582812
0.01649994403 -0.1830248684 1.197976351 -0.002477973932 0.1710555851 0.9852582812
-0.01163682155 -0.2268754393 1.192671418 -0.06035913527 -0.2262726724 0.9519140124
-0.01045177318 -0.2212955952 1.195104837 -0.05611374974 -0.1352549344 0.9763185978
-0.02762351558 -0.2341036052 1.189379573 -0.04030776396 -0.4502247274 0.8919799924
-0.02291836031 -0.2362643927 1.188054442 -0.04285343736 -0.4471674562 0.89339149
-0.01962122321 -0.2332026511 1.192143321 -0.04150983691 -0.4489198923 0.892564714
-0.0181226749 -0.2380615026 1.187148094 -0.045171123 -0.4443962872 0.8946692944
-0.01662874036 -0.2435792536 1.183086753 -0.09916453063 -0.4468437731 0.8890478015
-0.02322865464 -0.2413112521 1.183244228 -0.07008434832 -0.4465530217 0.8915385604
-0.03450457379 -0.2402824759 1.181497574 -0.05561160296 -0.4486557841 0.8915971518
-0.002295330167 -0.1955758631 1.201369166 0.04187638685 0.08959635347 0.9927364588
-0.004656332545 -0.2020844519 1.19898808 0.01178359985 0.05680418387 0.9929929972
0.004412825685 -0.1877048612 1.192907453 0.02618331462 0.1404651254 0.9887560606
0.004095042124 -0.1959551573 1.202343583 0.008387291804 0.145979479 0.9879021645
0.0007445306401 -0.2011002004 1.202097178 0.03509731963 0.08527040482 0.9943102002
-0.1552706361 -0.1573284715 1.081359267 -0.09695564955 0.1343639642 0.9848945141
-0.1587021798 -0.1462951154 1.078719854 -0.05660557374 0.1007046029 0.9918522835
-0.1608383805 -0.1513006091 1.073097825 -0.06771825999 0.1702227741 0.9829867482
-0.1585714221 -0.1525573283 1.077872276 -0.07852929085 0.1365814656 0.9859665036
-0.1611291915 -0.1402755529 1.077125549 -0.03571845591 0.08194237947 0.9955422878
-0.1533312201 -0.1681188047 1.083530307 -0.1777784824 0.1617716104 0.9694130421
-0.1561903507 -0.1618151814 1.078428149 -0.1224111617 0.1600735039 0.9780630469
-0.1586271077 -0.157960251 1.07382524 -0.1088702828 0.1704274118 0.9770433903
-0.05443395302 -0.2621617317 1.180256605 -0.0450572744 -0.4094369709 0.9112100601
-0.05718001723 -0.2619041204 1.175572753 -0.0467328541 -0.4102573693 0.910767138
-0.0503687039 -0.2624442875 1.184941053 -0.04163213447 -0.4077599645 0.9121153355
-0.05946306884 -0.2560280859 1.183456779 -0.04729463533 -0.4105324149 0.9106186628
-0.05414544418 -0.2581058741 1.185832739 -0.04729463533 -0.4105324149 0.9106186628
-0.06331274658 -0.2553827465 1.180587292 -0.04729463533 -0.4105324149 0.9106186628
-0.05632392317 -0.2500840425 1.182739735 -0.04729463533 -0.4105324149 0.9106186628
-0.1482540369 -0.1793117821 1.085207343 -0.2112419158 0.1868641227 0.9590103626
-0.1383688152 -0.1898277104 1.093317628 -0.2002309412 0.2265871018 0.9526005983
-0.1414743215 -0.1882988214 1.088766575 -0.200165838 0.2119223624 0.9560880661
-0.144665435 -0.1839163154 1.087263346 -0.2056819052 0.2003155053 0.9573369622
-0.1409090012 -0.1714729667 1.087583423 -0.1833449155 0.2103322297 0.9597653747
-0.1369976997 -0.1818181425 1.093817711 -0.1899990886 0.2301407605 0.9538443685
-0.1327983141 -0.1846339405 1.092225432 -0.1962160468 0.2486477792 0.9483124018
-0.1459518373 -0.1690143049 1.085834384 -0.1908940971 0.1913419068 0.9623179436
-0.135931462 -0.1896187663 1.097788095 -0.2011752576 0.2389270067 0.9493734241
-0.1462686062 -0.1749679744 1.08792007 -0.2047681808 0.1946784705 0.958460331
-0.1426028013 -0.1773973405 1.090387821 -0.1975475103 0.2083427757 0.9570248127
-0.1511510313 -0.1730586886 1.085128069 -0.2172365189 0.177451387 0.959515512
-0.137447536 -0.1918595582 1.088811994 -0.1979992092 0.2534187734 0.9468578696
-0.03181058168 -0.1142592356 1.084516168 -0.4553519189 0.09385454655 0.8846149445
-0.02679375373 -0.1137746349 1.087160945 -0.4632451832 0.05801029503 0.8835176826
-0.03235095367 -0.1059120223 1.082797289 -0.4582004249 0.02357810177 0.8880954981
-0.0285840854 -0.1014676467 1.086264372 -0.4301222861 0.001285351114 0.9006299973
-0.02660336159 -0.1083414108 1.087607503 -0.4450407326 0.03256591037 0.8924845457
-0.02327361144 -0.09768498689 1.090000033 -0.4122216702 -0.01830114238 0.9089381099
-0.1550400108 -0.1395945549 1.074133754 -0.02707981877 0.1160494015 0.9909496307
-0.1498169452 -0.1298920065 1.073554277 0.04884694517 0.01693542488 0.995208323
-0.1459600031 -0.1250676662 1.077766538 -0.04516018555 0.02114525996 0.9965621233
-0.1513093412 -0.1347606629 1.074848175 -0.01366845611 0.0577522777 0.9980711937
-0.08221346885 -0.1130350977 1.060425401 0.1666779369 -0.07354121655 0.9702923894
-0.0778549239 -0.1160507351 1.058658361 0.04564736038 -0.08191929013 0.9776721001
-0.07951682806 -0.1276388168 1.063192844 0.1404892355 -0.02677639201 0.9784540534
-0.07785879821 -0.1232235506 1.058579803 0.06403694302 -0.05871112645 0.9837177396
-0.0832028538 -0.1210037991 1.060833335 0.2141735405 0.005733062979 0.9692717791
-0.1501317024 -0.1567014754 1.080740809 -0.07893057913 0.1580004394 0.9840901494
-0.1496618092 -0.1506186277 1.080643892 -0.05386799574 0.1435653269 0.9870333672
-0.1543597281 -0.1492683738 1.078978419 -0.05699431896 0.1268466115 0.9892438054
-0.1431517601 -0.1592443138 1.083380461 -0.1126014292 0.1968755573 0.9717095494
-0.1371306181 -0.1613655239 1.084451079 -0.1291799992 0.2326242328 0.96238029
-0.1437404007 -0.1641740054 1.084588289 -0.1728575379 0.1956696063 0.9650956988
-0.1088818088 -0.1085985675 1.077341914 0.1005372033 0.2276587784 0.9603803754
-0.123512052 -0.1102240831 1.078321457 -0.0001173527271 0.09025236964 0.9902387857
-0.1056062058 -0.1042893901 1.075017929 0.1410863549 0.2729730904 0.9454817176
-0.1117772236 -0.1122159287 1.079293847 0.06556951255 0.1883107573 0.9731507301
-0.1163685247 -0.1085199043 1.077357531 0.05318652093 0.1607018411 0.9737642407
-0.1114259213 -0.1031161398 1.074436903 0.1093564853 0.2250262499 0.9535702467
-0.1303162426 -0.1096950769 1.081193686 -0.04496558011 0.01319438033 0.9923056364
-0.1178658679 -0.1130143479 1.080114126 0.0226862859 0.1286722571 0.98480618
-0.1133302599 -0.1161815077 1.082947135 0.04241847992 0.1416901946 0.98179847
-0.1222840697 -0.1137048975 1.08324492 -0.003977126442 0.05967598036 0.988676548
-0.1165379286 -0.1186219677 1.086601257 0.02933002263 0.06120794266 0.9924018979
-0.1352078468 -0.1075944006 1.079803705 -0.06005357206 -0.004582303111 0.997004509
-0.1304506063 -0.1082656235 1.075639367 -0.01441503223 0.04999607429 0.9972849488
-0.135453552 -0.1108271852 1.076119304 -0.01077743433 -9.18602309e-05 0.9979456663
-0.1403593719 -0.1121953651 1.077848792 -0.03668132052 -0.03559007496 0.9964848161
-0.100116089 -0.1174855232 1.073900819 0.3289598823 0.1408755332 0.9178073406
-0.1143152043 -0.1530170888 1.0873034 -0.01881138608 0.2326799631 0.9643588662
-0.1150454804 -0.1394433528 1.085394859 -0.07594035566 0.1529915333 0.9718738794
-0.01736067422 -0.1104758903 1.086982489 -0.4723544717 0.04201215878 0.880328536
-0.01684613153 -0.1138020605 1.091370106 -0.4700858295 0.03815135732 0.881790936
-0.01977921464 -0.1045838222 1.089336872 -0.4458540976 0.01628354751 0.8932817578
0.01484633982 -0.1895968169 1.193294525 -0.002477973932 0.1710555851 0.9852582812
0.01044464018 -0.1790799201 1.189254045 -0.002477973932 0.1710555851 0.9852582812
0.01571504958 -0.1846428961 1.19120574 -0.002477973932 0.1710555851 0.9852582812
0.02106495574 -0.1848492473 1.19347167 -0.002477973932 0.1710555851 0.9852582812
0.01693586446 -0.1875790805 1.199112892 -0.002477973932 0.1710555851 0.9852582812
0.02194567956 -0.189615503 1.195985079 -0.002477973932 0.1710555851 0.9852582812
0.01808744483 -0.1931558549 1.19573307 -0.002477973932 0.1710555851 0.9852582812
0.009096861817 -0.1966523379 1.202206016 0.04781078175 0.1129064262 0.9858416319
0.01292563137 -0.1908574402 1.201473951 0.03361186385 0.1293247044 0.9856768847
0.01278548129 -0.2000148147 1.201731443 0.09463623166 0.0587618947 0.9863847494
0.01630705968 -0.1965272576 1.199921131 0.05470417067 0.1049355567 0.9859215617
-0.03001662903 -0.2435317487 1.193944097 -0.0737458691 -0.4268850386 0.8962088823
-0.02340622805 -0.2290486395 1.200056553 -0.1745234728 -0.2181517035 0.9496216178
-0.02918267436 -0.2378572822 1.195911646 -0.1084089428 -0.3534635901 0.9149121046
-0.02711816877 -0.2299763262 1.196954846 -0.1182969287 -0.3570833206 0.9127687812
-0.01946142688 -0.2367987931 1.198292732 -0.0671716556 -0.3865216374 0.9071782827
-0.0310302861 -0.2541277707 1.182683349 -0.06910122931 -0.4363972843 0.8968828917
-0.07448704541 -0.1273530573 1.062827706 0.002202102216 -0.003804013832 0.9653736353
-0.06286270171 -0.1240830719 1.062248111 -0.3167487681 -0.07779836655 0.9406176209
-0.06519373506 -0.1258908957 1.068730354 -0.1949636191 0.005330218002 0.9034495354
-0.06984607875 -0.1261107326 1.063667655 -0.1244439334 -0.02479905263 0.9487350583
-0.05912120268 -0.1241770908 1.067535877 -0.3669971824 -0.04004787654 0.89564991
-0.05540094525 -0.1207534447 1.070854783 -0.455288291 -0.07774691284 0.8646948338
-0.07200620323 -0.1261216998 1.068555236 -0.02859354019 0.01531761046 0.9223723412
-0.06927868724 -0.1188248098 1.068884134 -0.1494147182 -0.1113107428 0.9141665101
-0.06010591611 -0.1199141368 1.070185304 -0.3530545533 -0.09234465659 0.88150388
-0.06827122718 -0.1256183684 1.057688832 -0.1633905321 -0.07620263845 0.9812427163
-0.07085695118 -0.1176205948 1.057762861 -0.1442459822 -0.1186013669 0.978792727
-0.1133004874 -0.1817165166 1.087012053 -0.1692119092 0.3169350922 0.9331323504
-0.1125941649 -0.1696300209 1.088674903 -0.07157617062 0.3093903661 0.9481230378
-0.1179800108 -0.1813323647 1.091038108 -0.1726621091 0.330234915 0.9246368408
-0.1239994094 -0.1836094856 1.095891714 -0.1411330402 0.282060504 0.9462990761
-0.1184448674 -0.1756766737 1.091390014 -0.1032960564 0.3006251752 0.9460502267
-0.1269946247 -0.1826132685 1.092260003 -0.1647615284 0.2704672217 0.946454525
-0.1283723414 -0.1869772971 1.096129775 -0.1726807803 0.2665816545 0.9465066195
-0.1224434227 -0.1650600284 1.086134791 -0.08658304065 0.2735281587 0.9557479024
-0.1327480078 -0.1649124473 1.085488081 -0.1425269544 0.2301705182 0.961874187
-0.1312191933 -0.1702673435 1.087545156 -0.1511971802 0.241572082 0.9572663307
-0.1266922653 -0.1739475578 1.089321733 -0.1397982836 0.2641783655 0.9519744515
-0.1237205043 -0.178609401 1.091225266 -0.1385519654 0.2810076773 0.9469932914
-0.1217717826 -0.1711234301 1.089012861 -0.1084585041 0.282705754 0.950802207
-0.1274126172 -0.1672036052 1.087017655 -0.1245114356 0.2551267445 0.9569493532
-0.005114343017 -0.231292218 1.191947341 -0.02249045484 -0.2897364199 0.9427904487
-0.005202870816 -0.2170118988 1.196405411 0.001344378456 -0.09495984763 0.9912799597
-0.004069272894 -0.2257348597 1.192831755 0.002761446871 -0.2354285866 0.9538290501
-0.001487934147 -0.2207482457 1.194956899 0.01853133924 -0.1591277719 0.9751086831
0.009891433641 -0.2078558207 1.195731521 0.04873274267 0.04985510185 0.9926658273
0.008499709889 -0.2127096355 1.197142839 0.04266709089 -0.008023314178 0.9922017455
0.006359073333 -0.2170176208 1.197552443 0.03043214604 -0.06100479886 0.9917341471
-0.001509471214 -0.22900787 1.196709156 0.008937969804 -0.2443547845 0.9624083042
-0.005899597425 -0.2348978221 1.196296692 0.01967422664 -0.3631095886 0.9308704138
-0.009077282622 -0.236031726 1.189824939 -0.03167625517 -0.3783153892 0.9167876244
-0.01402534079 -0.2345555276 1.189741015 -0.053581018 -0.3814252317 0.9109699726
-0.01665642112 -0.2272394747 1.194033384 -0.06236207485 -0.2938436866 0.9328148365
-0.01542836707 -0.2226507515 1.195706606 -0.07610069215 -0.1883738339 0.9600596428
-0.01971564442 -0.22279796 1.200407505 -0.1663583517 -0.1355677247 0.9719240665
-0.009498108178 -0.2391724288 1.194714427 0.05147514492 -0.4713120759 0.8760820031
-0.009581429884 -0.2347371429 1.201244593 -0.02429767884 -0.3114697337 0.9370476007
-0.0088470513 -0.2133487463 1.197000027 -0.03033318371 -0.03547906503 0.9944468737
-0.00628193887 -0.2086602747 1.197000027 -7.072916924e-05 0.007387045305 0.993955493
0.008038970642 -0.1842934191 1.191479206 0.01640806161 0.1508983523 0.9875631332
0.005738980137 -0.193026036 1.19523108 0.04447533563 0.1209418848 0.9909884334
0.007215871941 -0.1986073703 1.196219444 0.05584138259 0.1088107973 0.9923755527
0.009940757416 -0.1915784925 1.192781806 0.03130149841 0.1350024492 0.9893807173
0.01322813984 -0.2007791847 1.195232391 0.03955206648 0.1261965334 0.9903875589
0.0008205796476 -0.1949241608 1.195652723 0.04756104946 0.1176484749 0.9913650155
-0.04148137197 -0.09989722818 1.081541657 -0.3673756123 -0.107609652 0.906760931
-0.0369867906 -0.1026834697 1.081844687 -0.415189147 -0.04497432336 0.8971924782
-0.03606372327 -0.1100474745 1.082817435 -0.4275305569 0.05356934667 0.8921558261
-0.04423859715 -0.1050961912 1.079648256 -0.3922388554 -0.08294264227 0.8969088197
-0.04040437192 -0.1089796349 1.081146836 -0.4134837985 -0.001005138969 0.8928916454
-0.04563616589 -0.113011837 1.075654507 -0.4621306062 -0.0391092971 0.8816813231
-0.1233627796 -0.191234529 1.093144417 -0.2177630216 0.3184396327 0.9213709235
-0.1315839589 -0.1937368363 1.100276828 -0.2003021687 0.2575498819 0.9451262951
-0.1293395758 -0.1916205138 1.093208551 -0.2133119851 0.2683327794 0.9392462373
-0.07439637929 -0.2594528198 1.180776 -0.04729463533 -0.4105324149 0.9106186628
-0.05973881856 -0.2619463801 1.184913158 -0.04729463533 -0.4105324149 0.9106186628
-0.06651163101 -0.260144949 1.183049679 -0.04729463533 -0.4105324149 0.9106186628
-0.03481697291 -0.08780813217 1.085317016 -0.3708424568 -0.1325423867 0.9181703925
-0.03656453267 -0.09710878879 1.082896829 -0.3882755339 -0.1006348506 0.9072396159
-0.04057786986 -0.09374937415 1.08182776 -0.353623271 -0.1720094979 0.9143550992
-0.02513174526 -0.09174992144 1.089776039 -0.385500133 -0.04653936997 0.9212850928
-0.02888555266 -0.09537980705 1.087036967 -0.3991265893 -0.04560454935 0.9123741984
-0.04322907701 -0.0870276764 1.081839204 -0.3347722888 -0.228930071 0.9127646685
-0.03834999353 -0.08887964487 1.082176328 -0.3597764373 -0.1625838131 0.9162011147
-0.02912645601 -0.08936618268 1.084806085 -0.3932762146 -0.09269548953 0.914294064
-0.02998141013 -0.0964827016 1.07768333 -0.3883336782 -0.07333824039 0.9181413054
-0.03199446201 -0.0922844857 1.080878854 -0.3824987113 -0.0987335965 0.9178487062
-0.128044486 -0.1392531246 1.081192732 -0.001413102495 0.1977612972 0.9747179151
-0.1312619001 -0.1442358643 1.080646157 -0.02151067555 0.2289820611 0.9691894054
-0.1155500337 -0.1339758784 1.084297657 -0.1085171774 0.1211349815 0.9741374254
-0.1210885495 -0.1376999915 1.085908413 -0.03755598888 0.151019305 0.9768557549
-0.1306329668 -0.1495185196 1.084203362 -0.05641605332 0.2338808328 0.9652952552
-0.1274918616 -0.1448085606 1.085445285 -0.02876797318 0.2018465251 0.9715676308
-0.1133448035 -0.1259566844 1.08907938 0.03405079618 0.07127973437 0.9927155375
-0.1478159875 -0.1399679929 1.075114965 -0.01366164628 0.1597845852 0.9823271036
-0.1363779753 -0.1444213986 1.076966763 -0.02673681825 0.2308758795 0.9699560404
-0.135606885 -0.1521216333 1.081590652 -0.05773850158 0.2581271231 0.9629073143
-0.1543813646 -0.1472269297 1.074082255 -0.04139524326 0.2038209736 0.9771450758
-0.09256011248 -0.1107759252 1.064170003 0.3688304722 -0.002480108058 0.928471148
-0.08929981291 -0.1143489107 1.063085198 0.3278925717 0.002613824327 0.9424980283
-0.08932036906 -0.1060610935 1.062962174 0.289714545 -0.08179419488 0.9464000463
-0.09043307602 -0.1201688051 1.064167142 0.3442474008 0.04287710041 0.9355700612
-0.1181264222 -0.1778417975 1.085638046 -0.1694130152 0.3017881513 0.9370508194
-0.118769981 -0.1718233228 1.083964348 -0.09836959094 0.3075653911 0.9446974397
-0.1114491969 -0.1741499156 1.086616158 -0.1116408557 0.3241928816 0.9386900663
-0.1412364841 -0.1751808673 1.077749014 -0.1765319258 0.2307148874 0.9529678822
-0.1339855045 -0.1748369783 1.080545187 -0.1862417012 0.2488041669 0.9465431571
-0.1255076528 -0.1693771482 1.082342148 -0.1183461994 0.2845280468 0.9478679299
-0.1311297417 -0.1705033332 1.080212593 -0.121537365 0.2660083175 0.9509837627
-0.1280650198 -0.1204200983 1.070045471 -0.0005545015447 -0.01111011952 0.9966833591
-0.1301968545 -0.1247603819 1.071885586 -0.03297451138 -0.03634956852 0.9937915802
-0.1345236897 -0.1574322432 1.083808541 -0.08604300767 0.2628454864 0.9601176381
-0.1292705834 -0.1586462259 1.084341645 -0.06799637526 0.278149575 0.9575445652
-0.1459858119 -0.1754578352 1.076121211 -0.1865874231 0.2212210298 0.9556505084
-0.1334798634 -0.165562287 1.077378273 -0.1042787433 0.2741570771 0.951613903
-0.1250183284 -0.1642127037 1.080570102 -0.05539704487 0.2973744869 0.9525465965
-0.1245490909 -0.1568016112 1.07753408 -0.0433427915 0.3159524202 0.9475702047
-0.1409554929 -0.1697191894 1.076267719 -0.146846056 0.2446262687 0.9540598392
-0.1298312694 -0.1529587358 1.076874137 -0.03170274943 0.2957730889 0.9539721012
-0.1325947493 -0.1594019979 1.076635242 -0.07482787222 0.2830650508 0.952283144
-0.1101712734 -0.1402428895 1.088379741 -0.01491218153 0.2026186734 0.974676311
-0.1109210476 -0.1318942904 1.088053465 0.007499173749 0.1796971858 0.9806764722
-0.1117588207 -0.1490440816 1.085716128 -0.02989947423 0.2466165274 0.9646016955
-0.1122117862 -0.1627046019 1.0841254 -0.06046776101 0.2981327772 0.9521353841
-0.1139743477 -0.1543130279 1.082521319 -0.03427563235 0.2835083008 0.9565757513
-0.1109495088 -0.1579505056 1.08607614 -0.05384255946 0.2709908783 0.9582154751
-0.1122915968 -0.1447957009 1.088170886 -0.01388046332 0.2239235789 0.9702176452
-0.1156089902 -0.1587858051 1.080550671 -0.06543312222 0.3007739782 0.9508858323
-0.1211192086 -0.1605580002 1.079823136 -0.06397444755 0.2931461334 0.9537521005
-0.1157799438 -0.1673216373 1.083699942 -0.0792035684 0.3120504618 0.946310401
-0.1203821972 -0.1456990689 1.080979109 -0.1954589635 0.1967433542 0.9569000602
-0.1232800037 -0.1517262906 1.082591534 -0.1341856271 0.2366530448 0.9566408396
-0.1199605912 -0.1576402932 1.084294677 -0.09287705272 0.2673824728 0.9545375109
-0.1088805869 -0.1284126043 1.084117413 0.1013210714 0.1481468529 0.9758196473
-0.1132568866 -0.1465992033 1.081107616 0.02106317692 0.2495569587 0.959612608
-0.08829907328 -0.1332453787 1.069187522 0.2216888815 0.1128909886 0.9605352879
-0.1078708544 -0.1399926245 1.078600407 0.1020320803 0.197075665 0.9609852433
-0.09633782506 -0.1294279099 1.074120641 0.2164557874 0.1108185425 0.9649768472
-0.1005431414 -0.1348887086 1.075493693 0.1640122235 0.1512182504 0.9624821544
-0.1052868739 -0.1452319324 1.076364994 0.07697314769 0.2200595289 0.9569653869
-0.111697495 -0.1511294097 1.078850985 0.01320361625 0.2681450546 0.9547304511
-0.08411106467 -0.1305705458 1.06737268 0.2554981112 0.08802934736 0.9612343311
-0.09485856444 -0.138565585 1.071846962 0.1611987203 0.1581203192 0.9587098956
-0.1058756635 -0.1345269531 1.078414559 0.1460742056 0.1619171351 0.9640260935
-0.1050423682 -0.1269508451 1.079194069 0.1997482628 0.117789112 0.9687159657
-0.09706304967 -0.1264666021 1.077832818 0.1655128002 0.1080707461 0.9735853672
-0.1078973189 -0.1237474009 1.087747335 0.05490693823 0.1342062354 0.9863900542
-0.1023198888 -0.1248853356 1.082771182 0.1235061884 0.1208596006 0.9724649787
-0.09087604284 -0.127699092 1.072690606 0.2350518256 0.09488889575 0.9576285481
-0.1067973673 -0.1172980145 1.081228971 0.09270644933 0.2026955634 0.9701812267
-0.09839951992 -0.1223872826 1.073477745 0.375476867 0.1040307805 0.90430516
-0.1025452167 -0.1212842911 1.078367233 0.2422673404 0.1351162046 0.935977757
-0.002067158464 -0.225775212 1.200989127 -0.01974774711 -0.1408823431 0.9836186767
0.002927025547 -0.2221611142 1.198039651 0.0132510215 -0.1182909161 0.9910609126
-0.00244782283 -0.2064938545 1.202000022 0.0319230929 0.02272618562 0.9959606528
0.004206635524 -0.2128404975 1.201999903 0.06927418709 -0.01648005657 0.9956757426
-0.007396831643 -0.2227627039 1.202000022 -0.05224448442 -0.1370287538 0.9852903485
-0.001523239654 -0.2201249152 1.201999903 0.002860471839 -0.09747217596 0.9893109202
-0.004742464051 -0.2166234851 1.202000022 -0.01405061688 -0.07462510467 0.9896723032
-0.002043906832 -0.211739108 1.197000146 0.04924368113 -0.05195739865 0.9963357449
0.001189791365 -0.2152851522 1.197000146 0.03994104266 -0.08162793517 0.9954822659
-0.01743417792 -0.2276213914 1.202000022 -0.1084175259 -0.2329289168 0.9507340193
-0.01417375542 -0.2318408936 1.202000022 -0.01605104469 -0.3484147191 0.9209344983
-0.009688675404 -0.2141968161 1.202000022 -0.04943395779 -0.05338289961 0.9863223433
-0.0123234624 -0.2240720689 1.202000022 -0.08005464077 -0.1533877701 0.9821020365
-0.007127560675 -0.2099106014 1.202000022 -0.01833640225 -0.01133452356 0.990203023
-0.01324019954 -0.2167620957 1.199342012 -0.09573540092 -0.06028958037 0.987688601
-0.02068343572 -0.2413134724 1.195923567 -0.06412234902 -0.44614622 0.8904280663
-0.01414695941 -0.2381482869 1.199250698 0.005854313262 -0.4455883801 0.8929197788
-0.01288993098 -0.2418902665 1.190869927 0.003809397342 -0.4818565547 0.8701045513
-0.01442046463 -0.2418754697 1.195673823 -0.0002753847511 -0.4831862748 0.871047318
-0.02690846287 -0.250787586 1.181703091 -0.08166314662 -0.4380237162 0.895210743
-0.02285850048 -0.2474878579 1.185775161 -0.08163228631 -0.4462713003 0.8910259008
-0.02188328281 -0.2455883175 1.193978667 -0.06914353371 -0.4620261788 0.8841212392
-0.02932548337 -0.2506275773 1.19280529 -0.0622055158 -0.4646229446 0.8832563758
-0.02818891034 -0.2506365478 1.18803072 -0.07045519352 -0.4527759552 0.8886261582
-0.05672261491 -0.09081055224 1.07758379 -0.2940997779 -0.2715949416 0.9162549973
-0.06326758862 -0.09014387429 1.074894905 -0.2970274985 -0.275247246 0.9137083292
-0.05908483267 -0.09796983749 1.072555065 -0.3647761941 -0.2750041485 0.8885912299
-0.06315548718 -0.0950397402 1.071582317 -0.3851161897 -0.2676133513 0.8829222322
-0.05861020088 -0.09274866432 1.072950125 -0.3617189825 -0.2658017278 0.8933786154
-0.06004886702 -0.08639732003 1.075320363 -0.3485527933 -0.2649209499 0.8987538218
-0.04863106459 -0.1157585159 1.06976831 -0.3869704306 -0.06513845176 0.9123805761
-0.04401835427 -0.106800504 1.073794007 -0.3657054901 -0.1173110977 0.9160897732
-0.0383323133 -0.107194297 1.075259686 -0.3986110985 -0.05159715563 0.9068461061
-0.03992639855 -0.1123095006 1.075940609 -0.4327398539 0.01622616127 0.891937077
-0.03849509358 -0.102106072 1.074398398 -0.3601783812 -0.1267762333 0.9223003387
-0.0336156562 -0.0994675681 1.07576263 -0.3774303496 -0.09158218652 0.9200954437
-0.06268051267 -0.10500516 1.070530534 -0.3875439167 -0.2479564399 0.8871535063
-0.06927929819 -0.0923063904 1.07183516 -0.3069259524 -0.2738798261 0.9099003077
-0.06169254333 -0.1142591909 1.064028621 -0.3384520113 -0.1698731333 0.9219865203
-0.06018954888 -0.1189509332 1.063234568 -0.3345851898 -0.127249226 0.9323852658
-0.0535184145 -0.1156132817 1.066516399 -0.3594445586 -0.1336178035 0.9221906066
-0.05401366949 -0.1070213616 1.068696022 -0.3807783425 -0.2085977793 0.8982947469
-0.04928113893 -0.1053268388 1.071152687 -0.3600694239 -0.1890529543 0.9118590951
-0.05707177892 -0.1115387529 1.066157579 -0.386680007 -0.1927629411 0.8983016014
-0.057845328 -0.1025689393 1.068844318 -0.3983699083 -0.2559148073 0.8806114197
-0.118876569 -0.1507847458 1.076660752 -0.1149828658 0.2569030821 0.9557122588
-0.1242139488 -0.1517410129 1.076002002 -0.05462355167 0.2930609286 0.9535468221
-0.1271459013 -0.1472846717 1.07516551 -0.05998169631 0.2572423816 0.9636207819
-0.1461162716 -0.1451129615 1.075144291 -0.02135197446 0.23996301 0.970069766
-0.1389027834 -0.1484986544 1.076539636 -0.01902090944 0.2526902556 0.9667596221
-0.150662601 -0.1561124027 1.075493336 -0.08189734817 0.1794049293 0.9774356484
-0.1539458334 -0.1703934371 1.074535608 -0.1880898327 0.1709623486 0.9648886919
-0.1466216445 -0.1512075812 1.0765481 -0.04002542049 0.1849945337 0.9814220667
-0.1463156044 -0.1590118706 1.076565862 -0.08819077164 0.1913532913 0.9739792943
-0.1475762129 -0.1652974784 1.0762012 -0.1309326291 0.1933353692 0.9682202339
-0.1483068615 -0.1707048714 1.075980425 -0.1654510796 0.1977802515 0.9631322026
-0.1402685642 -0.1545013785 1.076844335 -0.05103621259 0.2329244614 0.9680393338
-0.1419870406 -0.1630959511 1.076524973 -0.1059462577 0.2352513373 0.9612471461
-0.1438959837 -0.1533118337 1.080898523 -0.05415377021 0.1947019547 0.978451848
-0.1116097048 -0.1063638702 1.067070127 0.09883061796 0.03607148677 0.9770870805
-0.1070284694 -0.1023983955 1.069834471 0.144508481 0.1959505528 0.9506576061
-0.1165446341 -0.109381862 1.067094445 0.06641456485 0.03288606927 0.9862305522
-0.102774255 -0.1051171124 1.064797044 0.2156954855 -0.05270364508 0.9601493478
-0.09592397511 -0.1028919443 1.064118147 0.294544071 -0.06829103827 0.9437713027
-0.1228874251 -0.1085958704 1.071230292 0.04186836258 0.1076354533 0.9875885248
-0.1106243283 -0.112280935 1.065917253 0.1713850796 0.01213848777 0.9683637023
-0.1047405154 -0.1096777841 1.065300465 0.2432989776 -0.00402014982 0.9533073306
-0.09926375002 -0.1117065772 1.064978123 0.3053072095 0.007250544615 0.9405505657
-0.1034658775 -0.114586778 1.065558434 0.2516309619 0.02543319017 0.9517521262
-0.1207287461 -0.116029039 1.068255544 0.02959123626 0.04540527984 0.9965934753
-0.1078287289 -0.1172889769 1.067681313 0.1739894599 0.05400246382 0.966301322
-0.1146280617 -0.1168495715 1.068122506 0.09581128508 0.0517318137 0.9825768471
0.00386051368 -0.2087606043 1.197000265 0.04719888419 -0.006420501973 0.9970319271
0.01192834321 -0.2107363641 1.2015872 0.1112768725 -0.01034550089 0.9928032756
0.006818839815 -0.2079842389 1.201999903 0.07395197451 0.0420749858 0.9941125512
0.006491281092 -0.2029008418 1.202000022 0.05947002396 0.09617626667 0.9929662943
0.005867399741 -0.2034015507 1.196532726 0.05055170879 0.07113444805 0.9955933094
-0.000407932821 -0.2044296116 1.197000027 0.0706441626 0.0237934161 0.9955589175
-0.05290293694 -0.09704305232 1.076313734 -0.3325850368 -0.2553298473 0.9068060517
-0.04857010767 -0.1049277931 1.076879501 -0.401863426 -0.1454081237 0.8918176889
-0.05055983737 -0.1092732996 1.074944377 -0.4401184022 -0.1456445307 0.8773808479
-0.05627099052 -0.1111179218 1.071595788 -0.437563628 -0.2035571784 0.8737707138
-0.03854066133 -0.09680848569 1.076429248 -0.3637544811 -0.1330552846 0.9193832874
-0.04433205724 -0.09824474901 1.075037479 -0.3375572264 -0.1970129907 0.9197961092
-0.0523551926 -0.101058118 1.071161032 -0.3728638589 -0.235907644 0.8961691856
-0.05167525634 -0.08975078911 1.076413035 -0.3548811078 -0.2342517525 0.9047417045
-0.04813590273 -0.0865708217 1.079987764 -0.339048326 -0.2482103109 0.9072173238
-0.04587517306 -0.09149724245 1.078099966 -0.3336895406 -0.2315741181 0.9135277867
-0.08960475028 -0.09969673306 1.070723176 0.1110259891 -0.01221934706 0.9368389249
-0.09478022903 -0.1098613143 1.070216894 0.2838996053 0.1053175032 0.9219202399
-0.07451818883 -0.1114540175 1.070136666 -0.1183433905 -0.1000234708 0.898088038
-0.06949617714 -0.1031515077 1.070761204 -0.2621828914 -0.2009488195 0.9036711454
-0.07477740943 -0.1046695784 1.070540428 -0.1519931257 -0.1321895123 0.909224391
-0.08975253999 -0.1065983847 1.070157528 0.1514346302 0.04631202668 0.9268195629
-0.07398347557 -0.0999025926 1.071037889 -0.1857890487 -0.173987627 0.9119217396
-0.0665435642 -0.1085937694 1.070241213 -0.2999040782 -0.1957831234 0.895670712
-0.08518255502 -0.1025266498 1.07063067 0.04561369494 -0.03230557963 0.9241606593
-0.07575955242 -0.09435827285 1.071582913 -0.1717190593 -0.1928344369 0.9185012579
-0.07931285352 -0.09976852685 1.070985556 -0.08091952652 -0.1161495522 0.9188220501
-0.08021055907 -0.1065861881 1.070277095 -0.03728647903 -0.0589924641 0.9146611691
-0.06947629899 -0.09722597897 1.071367502 -0.2850716412 -0.242242083 0.9082571864
-0.1029599756 -0.1137753874 1.07632935 0.2070006281 0.1757762283 0.9501327872
-0.0995516628 -0.1116025671 1.07219696 0.3127713203 0.1489356011 0.9301792979
-0.09838256985 -0.1061105803 1.070266724 0.2996471524 0.1277741939 0.9432427883
-0.08390572667 -0.1017322466 1.061525941 0.1179865971 -0.1854195595 0.9721034169
-0.08091660589 -0.1072491929 1.060279369 0.06752038002 -0.1610477269 0.975625217
-0.07905215025 -0.1011244357 1.060972691 -0.02258926816 -0.1968875974 0.9737743735
-0.07570709288 -0.1076154113 1.059420586 -0.07880419493 -0.1677688509 0.9782287478
-0.08763127774 -0.09847694635 1.062378287 0.1561266631 -0.1819195449 0.9691518545
-0.08495359123 -0.0904070884 1.062829852 0.01363774389 -0.2378213257 0.968968749
-0.09642316401 -0.09706806391 1.066833735 0.1919767708 0.03469451144 0.9503282905
-0.09137943387 -0.0943973437 1.06386137 0.1471609473 -0.150434047 0.9636057019
-0.1003428549 -0.09748186171 1.070853591 0.1650777757 0.2488420755 0.9332321286
-0.09330210835 -0.09412564337 1.069527149 0.06230743229 0.07702172548 0.9381713271
-0.0870103538 -0.09105218202 1.06792748 -0.02401640825 -0.08904969692 0.9445962906
-0.07804188877 -0.08834565431 1.068469286 -0.1614659876 -0.251488775 0.9391574264
-0.08335493505 -0.09253020585 1.071785927 -0.0830469355 -0.08870410174 0.9302490354
-0.06482376158 -0.1009454653 1.066518307 -0.3572098017 -0.2652982175 0.8948410749
-0.07443515956 -0.09764602035 1.063566804 -0.1353343725 -0.2287636995 0.9621347785
-0.0707276687 -0.110830076 1.060008883 -0.1907306463 -0.173045367 0.9576801062
-0.07398573309 -0.1032278463 1.061581612 -0.1299564987 -0.197990343 0.968785584
-0.06892418116 -0.1036357358 1.063586235 -0.2589867413 -0.2279881239 0.9309501648
-0.06700602919 -0.1135807931 1.061895132 -0.2642350495 -0.1649583578 0.9458702803
-0.06412379444 -0.1082032248 1.064504027 -0.3416824341 -0.2187953293 0.9117614627
-0.1372055858 -0.1391281039 1.074740529 0.01840544865 0.1925221682 0.9789093733
-0.1429933459 -0.1361286938 1.074111342 -0.01241490897 0.1085951477 0.9911773801
-0.1424416006 -0.1412870735 1.074918389 -0.004162738565 0.2075296491 0.9755724072
-0.129834488 -0.1384086758 1.073831797 -0.02967407741 0.176721096 0.9788595438
-0.1439258456 -0.1310134083 1.073320985 0.03133514151 0.0281553939 0.9948131442
-0.1275631636 -0.1334595084 1.07303226 -0.1255023926 0.1158774272 0.9775497913
-0.1321807057 -0.1294277459 1.072809339 0.001560610021 0.04375354573 0.9913167953
-0.1219291613 -0.1316859126 1.083789945 0.02990175784 0.1324935853 0.9854525924
-0.1255878806 -0.1327493787 1.080972195 0.03388820216 0.1373459101 0.9859369397
-0.1364532262 -0.1142499298 1.083000064 -0.04843814299 -0.005206570961 0.9936492443
-0.1238539368 -0.1209984794 1.085521579 0.01539438311 0.04005520046 0.9947801232
-0.1322173476 -0.1126906723 1.085737467 -0.0443915315 -0.01741243526 0.994999826
-0.1306509674 -0.1187706143 1.083463907 -0.01261501946 0.02575828135 0.9938119054
-0.1306419522 -0.1235189959 1.081124187 0.009008745663 0.05977125093 0.9926102757
-0.1265634745 -0.1161234453 1.086669326 -0.01390740555 0.00579546066 0.9954047799
-0.1194279864 -0.1257596612 1.08522737 0.04869206622 0.07307944447 0.9945714474
-0.1366089135 -0.123062335 1.078577876 -0.008760613389 0.05795935914 0.9913803339
-0.1352691799 -0.1190836653 1.081164122 -0.02333602309 0.02913038991 0.9926909804
-0.1283608675 -0.1280493289 1.079947591 0.03561573476 0.09166644514 0.9919763803
-0.1369515359 -0.1284136176 1.076122522 0.01109947544 0.09070636332 0.9907560349
-0.1384022981 -0.1337113827 1.074133754 0.01789794676 0.1076591089 0.9921339154
-0.1420661956 -0.120144099 1.07921505 -0.05434893444 0.009948714636 0.9949489832
-0.1228893697 -0.1417953819 1.073621273 -0.06585738808 0.2091217339 0.9704850912
-0.1128474921 -0.1347913742 1.071918249 0.07353681326 0.1403460056 0.979693234
-0.1203876734 -0.1362550408 1.072768211 -0.073157534 0.155067876 0.9739186764
-0.09006709605 -0.1291062385 1.066568255 0.2289744914 0.08476901054 0.9681279063
-0.1245750189 -0.125590533 1.071517348 -0.1419809312 -0.05093785375 0.986240387
-0.1178904176 -0.1305736303 1.07176125 -0.03675640374 0.0663562268 0.9813137054
-0.1105486453 -0.1395492107 1.074015021 -0.09301110357 0.1521232277 0.9603809118
-0.09777191281 -0.1323956251 1.069832325 0.1548732817 0.1064274311 0.9701120257
-0.1026472896 -0.1332200021 1.070792317 0.1179367155 0.1144530475 0.9729512334
-0.108111985 -0.1322155893 1.07122457 0.1348864287 0.1139235348 0.9827654362
-0.1132346541 -0.1434930563 1.075717807 -0.198106721 0.1762874573 0.9514908791
-0.1033111811 -0.1416240185 1.073752403 0.003141037887 0.1734669209 0.9552944303
-0.1072985679 -0.125777632 1.069403052 0.1762596369 0.08389815688 0.9682155252
-0.1010822728 -0.1279405355 1.068751335 0.2625080645 0.08216867596 0.9506517649
-0.112474449 -0.1254709661 1.070325375 0.09956590831 0.09188392013 0.9856462479
-0.1016740426 -0.1206769496 1.0671978 0.265833199 0.05478474498 0.9453796148
-0.09631094337 -0.1220858246 1.066498399 0.3430925906 0.05089341849 0.928624928
-0.1191901565 -0.1244538948 1.07087636 -0.02333542705 0.02435996383 0.9898397326
-0.06963846833 -0.09495811909 1.066062212 -0.2862915099 -0.2898518145 0.9086468816
-0.07094680518 -0.08936037123 1.067219377 -0.2404581308 -0.3013215959 0.9166584015
-0.07742135227 -0.08779934049 1.063453317 -0.1221111044 -0.3160328865 0.9394421577
-0.0778773129 -0.09419564903 1.063492775 -0.06962376088 -0.2442757338 0.9619794488
-0.06561737508 -0.08640622348 1.072635293 -0.321269542 -0.2827851176 0.9016807675
