# .PCD v0.7 - Point Cloud Data file format
VERSION 0.7
FIELDS x y z normal_x normal_y normal_z
SIZE 4 4 4 4 4 4
TYPE F F F F F F
COUNT 1 1 1 1 1 1
WIDTH 512
HEIGHT 1
VIEWPOINT 0 0 0 1 0 0 0
POINTS 512
DATA ascii
-0.01376678329 -0.07117237896 1.07600379 -0.5232724547 0.1034306511 -0.8458652496
-0.01712907664 -0.06672385335 1.078511 -0.5232724547 0.1034306511 -0.8458652496
-0.01416451205 -0.06457619369 1.076221704 -0.5232724547 0.1034306511 -0.8458652496
-0.01903136447 -0.06523937732 1.086413026 -0.5232724547 0.1034306511 -0.8458652496
-0.01880937442 -0.05981921777 1.087263584 -0.5232724547 0.1034306511 -0.8458652496
-0.01772964001 -0.06821828336 1.082916856 -0.5232724547 0.1034306511 -0.8458652496
-0.01656804793 -0.05226492137 1.083064556 -0.5232724547 0.1034306511 -0.8458652496
-0.017643217 -0.04787328467 1.085762382 -0.5232724547 0.1034306511 -0.8458652496
-0.0165009331 -0.04758144915 1.081370473 -0.5232724547 0.1034306511 -0.8458652496
-0.01434862893 -0.04882581532 1.07746613 -0.5232724547 0.1034306511 -0.8458652496
-0.07281508297 0.02518263273 0.9818155169 0.2747685313 -0.01262764819 -0.9614274502
-0.07242871821 0.01905803755 0.9832512736 0.2887885273 -0.003071649699 -0.9568858147
-0.07920014858 0.008988727815 0.9836458564 0.330532074 0.01805839874 -0.9432455897
-0.07657114416 0.01385276299 0.9826278687 0.3138544559 0.01299626194 -0.9487496018
-0.07657111436 0.02231052145 0.9795624614 0.291212678 -0.00420716079 -0.9560557008
-0.2108078897 -0.02519531921 0.9916217923 -0.001968643628 -0.1053755954 -0.993643105
-0.2101922184 -0.02049638145 0.9924995899 -0.01860640198 -0.05599186942 -0.998007834
-0.01783560403 -0.07749570161 1.081401825 -0.5232724547 0.1034306511 -0.8458652496
-0.07838627696 0.03114080802 0.9846798778 0.2710749209 -0.01320042741 -0.9624370337
-0.07416458428 0.0187911503 0.9908171892 0.2897203863 -0.01858428493 -0.9568783641
-0.08294560015 0.02782867104 0.9849933982 0.2679338157 -0.01652131416 -0.9631372094
-0.07959304005 0.02422269247 0.9875965714 0.2754682899 -0.01759691723 -0.9609524608
-0.08284894377 0.01960406266 0.985398531 0.2855853736 -0.01904120296 -0.958018899
-0.07841085643 0.01911993511 0.9886702299 0.2863503993 -0.0191504173 -0.9577970505
-0.07353536785 0.01409829408 0.9878968 0.3019970059 -0.002796008717 -0.9527720809
-0.08024212718 0.006240918767 0.9889240861 0.3420508504 -0.008227231912 -0.9385506511
-0.07698599249 0.01026142389 0.9904354215 0.3204007447 -0.01239980292 -0.9462680817
-0.08378928155 0.001668703626 0.9869856238 0.3663725853 -0.001579726581 -0.9299219847
-0.08190600574 0.01533073839 0.9862755537 0.2948868275 -0.02027784474 -0.955300808
-0.08300708234 0.009196888655 0.9870215654 0.3275279403 -0.01538515463 -0.9436362386
-0.1908583641 -0.07327969372 1.007462382 0.05323194712 -0.2368981242 -0.9695084691
-0.1784009337 -0.07840192318 1.009609342 0.04501335323 -0.2960288227 -0.9534661174
-0.1839042902 -0.0768179968 1.008199096 0.04721516743 -0.2694731057 -0.9605407119
-0.183771044 -0.07596054673 1.000764608 0.04393436015 -0.2645622194 -0.962954998
-0.1894520074 -0.07355954498 1.00295639 0.04979819432 -0.2400092483 -0.9692776799
-0.1801368743 -0.01225090399 0.9932040572 -0.3916460276 -0.08024190366 -0.8945914507
-0.1761976779 -0.02347415686 0.9909002781 -0.3487369418 -0.2637787163 -0.8925305009
-0.1785355955 -0.01820003241 0.9926152229 -0.3555026054 -0.1762435287 -0.8977715969
-0.1755590737 -0.01826624759 0.9887654185 -0.4365383983 -0.1851288825 -0.8718377948
-0.1836565286 -0.005915683694 0.9961880445 -0.380192399 0.02678384073 -0.907130897
-0.02630486712 -0.09275493771 1.087356329 -0.3368837535 0.04695612565 -0.9385627508
-0.02188153565 -0.08538799733 1.085547924 -0.4568600655 0.08195491135 -0.8769544959
-0.02330124564 -0.06630901247 1.082672119 -0.5232724547 0.1034306511 -0.8458652496
-0.02159703337 -0.05566144362 1.091384768 -0.5232724547 0.1034306511 -0.8458652496
-0.02320900932 -0.0602106899 1.090623379 -0.5232724547 0.1034306511 -0.8458652496
-0.01880171336 -0.07321762294 1.083414078 -0.5232724547 0.1034306511 -0.8458652496
-0.02400617488 -0.0622227639 1.086833239 -0.5232724547 0.1034306511 -0.8458652496
-0.02630905062 -0.06605467945 1.089406848 -0.5232724547 0.1034306511 -0.8458652496
-0.02069005184 -0.05532656983 1.086381197 -0.5232724547 0.1034306511 -0.8458652496
-0.0193707142 -0.05693715811 1.081862211 -0.5232724547 0.1034306511 -0.8458652496
-0.0193713624 -0.06155265123 1.080289602 -0.5232724547 0.1034306511 -0.8458652496
-0.01620716602 -0.05911241472 1.078278303 -0.5232724547 0.1034306511 -0.8458652496
-0.03876206651 -0.1121241897 1.089919209 -0.06349888444 0.02382200956 -0.9972026944
-0.07590272278 0.02923726849 0.9814071655 0.2746564746 -0.0126433624 -0.9614582062
-0.1759322435 -0.01227823272 0.9882275462 -0.4925605953 -0.104081735 -0.858091414
-0.1804095656 -0.007371239364 0.9927145243 -0.4384783506 -0.01401088852 -0.8831067085
-0.1740739495 -0.08033773303 1.003870964 0.02863784879 -0.2832442224 -0.958332777
-0.1774969995 -0.0775840953 1.001518011 0.03448008746 -0.2728635669 -0.9611304402
-0.1680377126 -0.0789861083 1.005460739 0.02315053716 -0.292994231 -0.9557050467
-0.1816636175 -0.02380594797 0.9930173755 -0.2603505254 -0.2224436998 -0.9311443567
-0.1852144599 -0.01093995757 0.9971718788 -0.2997598946 -0.03207598627 -0.9306756854
-0.1831966341 -0.01663944498 0.99530375 -0.2873211801 -0.1210582331 -0.9280997515
-0.1904429644 -0.01869904436 0.9958407283 -0.1873066574 -0.1157647595 -0.9600676894
-0.187484622 -0.0217110049 0.9942861199 -0.205557555 -0.1536964476 -0.9575554729
-0.1891193241 -0.003966441844 0.9997255802 -0.2973957062 0.08033997566 -0.9385665655
-0.1879943758 -0.01486308966 0.9963567853 -0.2425281107 -0.06329696625 -0.9499682784
-0.1905183047 -0.01150420588 0.997907877 -0.2319595218 -0.0204776153 -0.9511114359
-0.1861215383 -0.07113404572 1.008964896 0.0508476831 -0.2537766993 -0.9656198621
-0.2064528018 -0.02569342218 0.9946023822 -0.01851875708 -0.09290776402 -0.9943048358
-0.2108476162 -0.03005022928 0.992536068 0.01602303423 -0.1798803061 -0.9827973247
-0.1972738206 -0.03056424856 0.9974518418 -0.0622664541 -0.2292470932 -0.9695332646
-0.2009470016 -0.0344247967 0.9994656444 -0.01939708926 -0.2327422947 -0.970918119
-0.2037935704 -0.03933766112 1.000318646 0.001859378186 -0.2430271208 -0.969774127
-0.2074266225 -0.03681923077 0.9961813092 0.001976921922 -0.2190493941 -0.9749839902
-0.178847909 -0.04195308313 0.9986354113 -0.1258095056 -0.3267602324 -0.9331140518
-0.1726684421 -0.0461001806 1.000431895 -0.0944987908 -0.353639245 -0.927675128
-0.1841209531 -0.04285581782 0.999371171 -0.09753204882 -0.3056745231 -0.9435094595
-0.1844358742 -0.04766336456 1.001843214 -0.03698330745 -0.3063958287 -0.9502888918
-0.1909650266 -0.02522213385 0.9944435358 -0.1418508142 -0.2006818652 -0.9673420787
-0.1859481335 -0.02712200209 0.9934962392 -0.1988232434 -0.2182141542 -0.9541799426
-0.1923439354 -0.03140797094 0.9963011742 -0.114315249 -0.2580961287 -0.9568530321
-0.1715425402 -0.03917375207 0.9972627163 -0.1770060509 -0.3482494056 -0.9152740836
-0.1787275225 -0.03326231986 0.9948156476 -0.2236987948 -0.3132564425 -0.919510603
-0.173284784 -0.03433455154 0.9953178167 -0.2242266685 -0.3319105506 -0.9105655551
-0.1685559005 -0.0437454544 0.9991190434 -0.1353096366 -0.3676711023 -0.9170741439
-0.1808027178 -0.02950710803 0.9934282303 -0.2502397895 -0.2908726633 -0.9211014509
-0.1375195682 -0.006531490013 0.9631763101 -0.08405123651 0.06375944614 -0.9911407828
-0.2050101161 -0.01819377951 0.9889454842 -0.08601788431 -0.02584015764 -0.9927852154
-0.1986278147 -0.01534859464 0.9888051748 -0.1542413384 0.01268998161 -0.984082222
-0.1496153325 -0.001016420079 0.9658838511 -0.3332497478 0.04260301217 -0.9385042787
-0.03368550166 -0.1004259288 1.090000033 -0.1860848665 0.02775458992 -0.9791466594
-0.03232483193 -0.096066989 1.087000012 -0.2462227046 0.03019462712 -0.9681601524
-0.02995789796 -0.1005115137 1.087000012 -0.2215803266 0.02658824064 -0.9741061926
-0.03720563278 -0.1084634513 1.087143183 -0.1251889914 0.0243819356 -0.9863145947
-0.03323373944 -0.1056631729 1.088133693 -0.1617408842 0.02604155056 -0.9823509455
-0.05281323195 -0.1205002144 1.090000033 -0.01803382859 0.02053617872 -0.9995965958
-0.1902258992 -0.01499984227 0.9886220694 -0.2174926102 0.03266512603 -0.9723408222
-0.2072195411 -0.01432394981 0.9892312884 -0.1025990397 4.230125705e-05 -0.9938309193
-0.2027880549 -0.01279066224 0.9892844558 -0.1574727297 0.007671422325 -0.9798368216
-0.1888035685 -0.008830635808 0.9885385633 -0.3298403621 0.023243187 -0.9348401427
-0.1950519234 -0.01004585344 0.9894480109 -0.2533288002 0.02164900303 -0.9554718137
-0.172724098 -0.08213230968 1.008810043 0.0330532901 -0.3119007945 -0.9493993521
-0.1764120907 -0.04563973472 0.9962899685 -0.1146886051 -0.3681327403 -0.9206742644
-0.1848910898 -0.0355887115 0.9954831004 -0.1846397966 -0.2981539965 -0.9359570742
-0.1829059124 -0.03988594562 0.9958674908 -0.1349029988 -0.2980387211 -0.9418078065
-0.1775248796 -0.03799441084 0.9937869906 -0.1768751889 -0.3532606959 -0.9154171348
-0.1654202342 -0.05044697598 0.9973707199 -0.1061407551 -0.3979084194 -0.9092462063
-0.1571168751 -0.05248501897 0.9997999668 -0.08999200165 -0.392044276 -0.9131415486
-0.1595276445 -0.04603658244 0.9962997437 -0.1643269509 -0.4286333919 -0.886797905
-0.1747022271 -0.05307688937 0.9978018999 -0.03661872074 -0.3385243118 -0.9392514229
-0.2037386596 -0.04402029514 0.9974814653 -0.02000763267 -0.2507610321 -0.9677254558
-0.1954039782 -0.0239634905 0.9953606725 -0.09372193366 -0.1859264374 -0.9774913192
-0.2037490159 -0.02234388888 0.9965119958 -0.06460451335 -0.08380143344 -0.9868783355
-0.2004918158 -0.02558298409 0.9968232512 -0.06328024715 -0.1496652663 -0.9803950191
-0.2036771476 -0.02853278816 0.998303771 -0.03479862213 -0.1462725699 -0.980119288
-0.2043729275 -0.009873727337 0.9944688678 -0.1325073689 0.03675188124 -0.9874233007
-0.2062071711 -0.01761665009 0.9940625429 -0.06654623896 -0.02452876605 -0.9964563251
-0.1930407584 -0.04516077042 1.001600266 -0.02174008265 -0.2748740017 -0.9607817531
-0.198602125 -0.039791096 1.000803947 -0.009847542271 -0.2616122365 -0.964345634
-0.1972840726 -0.04923668131 1.002199769 -0.0185097754 -0.2609480321 -0.9650030732
-0.1959574223 -0.05441598594 1.003550649 0.005722195376 -0.2627537847 -0.9647695422
-0.1769900471 -0.03119357303 0.9904695749 -0.2443249226 -0.3071848154 -0.9172887206
-0.1792405844 -0.02708446421 0.9894205332 -0.228786841 -0.2501347959 -0.9356470108
-0.1884142309 -0.0308608152 0.9932931066 -0.1663033962 -0.2393985689 -0.9504955411
-0.2048395723 -0.02377454564 0.989264369 -0.04473665357 -0.08961422741 -0.992421329
-0.1941781938 -0.02937725931 0.9923633933 -0.1238280758 -0.197377339 -0.9626709819
-0.1882480979 -0.02391347475 0.9899471998 -0.1662404537 -0.1671590507 -0.9678239226
-0.1952381432 -0.02370345034 0.9895864129 -0.1150225922 -0.1328972727 -0.978570044
-0.1936196983 -0.01904167049 0.9887363315 -0.1580529064 -0.01730792038 -0.9786989689
-0.2000288814 -0.02230091579 0.988955915 -0.08504709601 -0.0838078782 -0.9875632524
-0.1405544877 -0.01349978615 0.9644834995 -0.1980358511 0.001895582536 -0.9739878774
-0.1542074233 -0.01882979646 0.9725536704 -0.4581462443 -0.1656784266 -0.8471182585
-0.145339191 -0.01609402522 0.9684004188 -0.2895164192 -0.08027697355 -0.9184010625
-0.1502396315 -0.01682066917 0.97054106 -0.3920608461 -0.1107535213 -0.8774356842
-0.1484992653 -0.01185059641 0.965272963 -0.3409935236 -0.02986142226 -0.9345321655
-0.1512346864 -0.007360556163 0.9654887319 -0.3688773215 -0.01823967323 -0.9272336364
-0.1434350312 -0.006902940106 0.9633620381 -0.1926826686 0.03193918988 -0.979901731
-0.08181552589 0.02962620929 0.9795519114 0.2661854625 -0.007126380689 -0.9637860656
-0.08511383086 0.03225296736 0.9826809764 0.2583845556 -0.01236179657 -0.9659212828
-0.09004233778 0.03205025941 0.9815679789 0.2554249465 -0.0006488338113 -0.9667426944
-0.1014246717 0.03124494664 0.981197834 0.2458941638 0.06299987435 -0.9668113589
-0.0870898813 0.01848231629 0.9839223623 0.2857571244 -0.00776895741 -0.9576064348
-0.09260387719 0.02345314436 0.9828640819 0.2703103721 0.01926514506 -0.9611931443
-0.09470334649 0.0278548561 0.9820427895 0.2598190308 0.02190859243 -0.9644308686
-0.1596668065 -0.006961927284 0.9795194268 -0.442145288 -0.06060041487 -0.8651548028
-0.1621689349 -0.01373609714 0.9802111983 -0.5372397304 -0.1304572374 -0.8253965974
-0.1558841169 -0.003520045895 0.9770979881 -0.3719756007 -0.009084491991 -0.8941720128
-0.1563693434 -0.008034116589 0.9753372073 -0.4554605484 -0.03943909332 -0.8609496355
-0.02859037556 -0.0707270205 1.090000033 -0.5089815259 0.1008685902 -0.8541317582
-0.03122786433 -0.07718966901 1.089893579 -0.4637670815 0.09333383292 -0.8802335262
-0.0275488086 -0.07978691906 1.08838892 -0.510791719 0.1098455116 -0.8522930145
-0.02582781948 -0.07559642941 1.087936521 -0.5232724547 0.1034306511 -0.8458652496
-0.02275086753 -0.07866357267 1.085897684 -0.5232724547 0.1034306511 -0.8458652496
-0.0263199769 -0.07026198506 1.085175872 -0.4962308407 0.09829385579 -0.8613321781
-0.01721757278 -0.07443379611 1.077889442 -0.4764361978 0.08671441674 -0.8679125309
-0.02506948076 -0.07506435364 1.083110571 -0.432649374 0.07108655572 -0.8885243535
-0.02230555937 -0.07151246071 1.081556916 -0.4794268012 0.08778178692 -0.8665047884
-0.03554104269 -0.09071695805 1.087000012 -0.2342075258 0.02469419129 -0.9691867828
-0.01979515888 -0.0814062804 1.083737135 -0.5222790837 0.1030761003 -0.8463328481
-0.02841943875 -0.08648744226 1.086215973 -0.3527252972 0.0439783819 -0.9270001054
-0.03738327324 -0.1029980928 1.090000033 -0.1299867034 0.02864924818 -0.9902468324
-0.0379756242 -0.09723868221 1.087000012 -0.1714099646 0.03095592745 -0.9832884073
-0.04381480068 -0.1112017855 1.087000012 -0.04460089281 0.01940459386 -0.9982939959
-0.04114316776 -0.1034220159 1.087000012 -0.08225635439 0.01671592146 -0.9958427548
-0.06485854089 -0.1136842519 1.090433478 -0.006009019911 0.03564622253 -0.9991966486
-0.07380708307 -0.1176605001 1.088265777 0.02579879016 0.05750844255 -0.9976985455
-0.06901504099 -0.1152696684 1.089485526 0.009887877852 0.04453768581 -0.99858284
-0.1558238119 -0.001787947374 0.9684351683 -0.4432475567 0.01256607659 -0.8907253146
-0.1529403329 0.01440462563 0.9672598243 -0.3070105612 0.1429186463 -0.934858799
-0.1567849964 0.003508658847 0.9688757062 -0.4334264696 0.06533350796 -0.8912637234
-0.1572474688 0.009583439678 0.9696933031 -0.4170811474 0.1166534424 -0.8913273215
-0.1519157439 0.007350020576 0.9661723375 -0.3202436268 0.08401396871 -0.9377554059
-0.1396455467 0.02037743293 0.9713222384 -0.01194462366 0.2086151689 -0.974373877
-0.1431414038 0.01424959488 0.9708544016 -0.09615312517 0.1753233522 -0.9774509668
-0.1350481212 0.02336692438 0.9707417488 0.06313045323 0.2224893272 -0.9710294008
-0.1306043416 0.02377931401 0.9709070325 0.115757674 0.2042968273 -0.9663588405
-0.1431190521 -0.002188330516 0.9636398554 -0.1518483013 0.07321423292 -0.9784882665
-0.1357820481 0.004659662023 0.9644382 0.03675291315 0.1808824837 -0.9805959463
-0.1384708583 0.001268098247 0.9639559388 -0.03579969704 0.1343384087 -0.9803070426
-0.1450946778 0.003109680954 0.965541482 -0.2027101368 0.09399235249 -0.9716925025
-0.1485161334 0.01118087675 0.9660761356 -0.2337744236 0.1327585578 -0.9609608054
-0.1303661317 0.009870136157 0.9657924771 0.1235785633 0.2065952867 -0.9684779644
-0.1361336261 0.0179952234 0.9669076204 0.05411647633 0.2348703146 -0.966268003
-0.07991302013 0.01833652891 0.9800302982 0.3054420054 -0.0003341979173 -0.9513524771
-0.0874581188 0.00877355691 0.9812620282 0.3375499547 0.01253416017 -0.9408063293
-0.08208365738 0.0125522567 0.9815155864 0.3241074085 0.007146599237 -0.9452216625
-0.0943005085 -0.001149932505 0.9812002778 0.3555006385 0.05047325417 -0.9331275225
-0.09073833376 0.004884802736 0.9805710912 0.3572654426 0.04727138951 -0.9323123097
-0.0955619216 0.004020984285 0.9784298539 0.363735944 0.07058566064 -0.9286584854
-0.1090922728 -0.003204380395 0.9740188718 0.3208291829 0.1282606721 -0.9335451722
-0.1174974069 -0.005676663946 0.969740808 0.2114239037 0.1398923248 -0.9582705498
-0.1132837385 -0.004287778866 0.9719590545 0.2671529651 0.1354110539 -0.9455854893
-0.1325199753 -0.006196941715 0.9690395594 -0.03286273032 0.1094048992 -0.9428560734
-0.1283433437 -0.004291070625 0.9689084888 0.06006364524 0.1477500796 -0.9585793018
-0.1462322474 -0.01031167153 0.9718171358 -0.3338116109 0.007761477027 -0.8633109927
-0.1407151669 -0.01012079045 0.9690949917 -0.2155541927 0.03208064288 -0.9144061804
-0.1397609264 -0.006422036793 0.9713463187 -0.1812403053 0.07392185181 -0.8965066075
-0.1430308372 -0.003295228584 0.9713004231 -0.2177714854 0.08066560328 -0.908708334
-0.151247859 -0.01131452248 0.9723603129 -0.4375595152 -0.02677972615 -0.8443074822
-0.1479707211 -0.004248030018 0.9716512561 -0.3187197447 0.04637889192 -0.8931532502
-0.136529997 -0.001892881468 0.9708277583 -0.08372754604 0.1269498467 -0.930067718
-0.1437529922 0.001523390179 0.9709846973 -0.1925611943 0.1144978553 -0.9361202121
-0.1495713443 0.001674296218 0.9713037014 -0.3011981547 0.08408875763 -0.9254218936
-0.1183824837 -0.009820898063 0.9640561342 0.1990839392 0.1329906285 -0.9612916708
-0.1086625084 -0.005633851979 0.9695311785 0.3342737556 0.1325498223 -0.9298557639
-0.1214321479 0.003586671781 0.9658828378 0.2255357057 0.1992310584 -0.9493780732
-0.1174172163 0.001226737513 0.9652911425 0.2660624981 0.1842624545 -0.9413859844
-0.125817135 0.01062176749 0.9665901065 0.1844280362 0.2165435255 -0.957678318
-0.1138006598 -0.003504525404 0.9647224545 0.300724268 0.1702155173 -0.9344373345
-0.1668956876 -0.01731960848 0.9854053855 -0.5069830418 -0.2053875029 -0.8312636614
-0.1664882153 -0.02498356998 0.9860371947 -0.4299616516 -0.3212903738 -0.8434207439
-0.171382457 -0.01972426102 0.9879640341 -0.4372938573 -0.2250995785 -0.8596358299
-0.09584417194 0.02054875717 0.981180191 0.2779951394 0.009590755217 -0.9592161775
-0.09162548184 0.01812882721 0.9822716713 0.2857450545 -0.004392420407 -0.9574381113
-0.09033226967 -0.001102015027 0.9844093919 0.3685832024 0.0178534165 -0.9289208651
-0.09220699966 0.01308350731 0.981797576 0.3058410585 -0.01863587648 -0.9513862133
-0.08766216785 0.01307619549 0.9836480021 0.3066839278 -0.01850953512 -0.951085031
-0.08837968856 0.005931254011 0.9848373532 0.3447123468 -0.01280932967 -0.9374952912
-0.1689153165 -0.08113970608 1.010962725 0.03196170554 -0.3118438721 -0.9494934082
-0.1622016579 -0.08110124618 1.00845027 0.02614779212 -0.3060924411 -0.9513911009
-0.1745399982 -0.07496570051 1.010420084 0.02753389627 -0.2996266484 -0.9536028504
-0.168863073 -0.07528485358 1.011386395 0.02574128658 -0.2919414341 -0.9560202956
-0.1924003214 -0.06781702489 0.9980000257 0.03794058785 -0.2538434267 -0.9664784074
-0.1928797215 -0.07018572837 1.002499342 0.04673602805 -0.2388762236 -0.9697537422
-0.1927677989 -0.05011043325 1.002511144 -0.01976938918 -0.2733019292 -0.9614297748
-0.2012041658 -0.05769952014 0.9978246689 0.03037643246 -0.2367940843 -0.9709105492
-0.1680379063 -0.04152354971 0.9929669499 -0.1965343058 -0.3889676034 -0.8941967487
-0.1709266752 -0.04532924294 0.9951971769 -0.1449018568 -0.389724493 -0.906028688
-0.1611299962 -0.04198222607 0.993558526 -0.2107389718 -0.4267377257 -0.8777496815
-0.1640413404 -0.03799670562 0.9912045598 -0.2470295578 -0.4019427299 -0.8783972263
-0.1595040262 -0.02191489004 0.9759345055 -0.5239046216 -0.2433036566 -0.8142198324
-0.1619423777 -0.02421796881 0.9786969423 -0.4679893851 -0.2659885883 -0.8324477077
-0.1696438044 -0.02906068601 0.9857510328 -0.3325093687 -0.3108638525 -0.8814322352
-0.1641815454 -0.02786513418 0.9829828143 -0.3918715119 -0.3116248548 -0.8529438972
-0.17380476 -0.04169877619 0.9940360785 -0.1691586375 -0.3802730739 -0.9065931439
-0.1709018499 -0.03676842153 0.9912621379 -0.231093064 -0.3725139499 -0.8952684999
-0.200230211 -0.007206158713 0.9971564412 -0.1766315997 0.06590425968 -0.978541553
-0.19308348 -0.001561958226 1.000714183 -0.2656444907 0.114467375 -0.9529254436
-0.1939459145 -0.007060833275 0.99944067 -0.2194699645 0.04032449052 -0.9604662061
-0.1952583343 -0.01887240633 0.996575892 -0.1280977279 -0.1177285239 -0.9737592936
-0.1999600083 -0.01652891375 0.9957155585 -0.115078792 -0.05348301306 -0.9842371345
-0.2005406469 -0.01229343377 0.9965501428 -0.1395390779 0.008313718252 -0.9828189015
-0.1963266581 -0.01412779093 0.9973846078 -0.1529652327 -0.04563636705 -0.9732450247
-0.1998031735 -0.04745125398 0.997772336 -0.003238566918 -0.246179834 -0.9685047865
-0.1959671676 -0.05132194608 0.9975546598 -0.007925765589 -0.2384863347 -0.9694155455
-0.1875959486 -0.04587184638 0.9974064827 -0.06023011357 -0.2605065703 -0.962539494
-0.1902488619 -0.04944073781 0.997553587 -0.03785799071 -0.2585733533 -0.9636444449
-0.187986359 -0.04088023305 0.996982038 -0.09567535669 -0.2782696784 -0.953323245
-0.1909630001 -0.03753192723 0.9961129427 -0.1086110845 -0.2723912001 -0.9507440329
-0.1952822506 -0.035470061 0.9949462414 -0.07507873327 -0.2299534082 -0.9627793431
-0.1989345104 -0.02917221747 0.9920112491 -0.0788217634 -0.1670067757 -0.9735156894
-0.1996783614 -0.03724779934 0.9959483743 -0.01345588639 -0.2266208529 -0.9709172249
-0.2034931779 -0.03278472275 0.9942861199 -0.002294686157 -0.1892338395 -0.9784594178
-0.1956616044 -0.04247707129 0.9979475737 -0.02416641638 -0.2710521817 -0.9622009993
-0.1830677539 -0.0162050873 0.9878135324 -0.2648628056 0.01012751739 -0.9575216174
-0.1821373552 -0.02102324367 0.9875118136 -0.2349459529 -0.1529215872 -0.951084435
-0.1765635312 -0.01766451262 0.9841514826 -0.3466719091 -0.07422429323 -0.913418591
-0.1629767865 -0.018325001 0.9806233644 -0.5334852934 -0.2093405575 -0.8179324269
-0.1568727642 -0.006195887458 0.9705345035 -0.4921634197 -0.04026557505 -0.8650277257
-0.1531459391 -0.01228555478 0.9669577479 -0.4515216649 -0.0877148062 -0.884655118
-0.1589080244 -0.01675974578 0.9727420807 -0.5162067413 -0.1530087292 -0.8392725587
-0.1571811885 -0.01122091431 0.9703515172 -0.4629416466 -0.09261143208 -0.8727223873
-0.1622377038 -0.01795832627 0.9759747386 -0.5479950309 -0.1763600856 -0.8170235157
-0.1606102139 -0.006385025103 0.9747766852 -0.5559820533 -0.04358952865 -0.8281819224
-0.1709187627 -0.01695669442 0.9809090495 -0.437734127 -0.09391599894 -0.8734825253
-0.1812678576 -0.01227320544 0.9869167209 -0.3502348959 0.01111731678 -0.9273409843
-0.1748027653 -0.01285539661 0.9832673669 -0.4417487979 -0.05603571609 -0.8817199469
-0.1644862741 -0.006493000779 0.9776928425 -0.5512461662 -0.03355111554 -0.8291611075
-0.1740958542 -0.008335532621 0.9830448031 -0.4699722826 -0.01849968918 -0.8737927675
-0.1691861302 -0.01015950646 0.9802068472 -0.506493032 -0.05858965963 -0.8504857421
-0.1791547835 -0.007851248607 0.9859167933 -0.4298171997 0.006462952122 -0.89755404
-0.1207750365 0.030683605 0.9749955535 0.2133691162 0.1757345647 -0.9609456062
-0.1235999316 0.02631373703 0.9736016393 0.1934569329 0.1765041947 -0.9650185704
-0.1156404763 0.03059807792 0.9761834741 0.22415106 0.1621238738 -0.9608690739
-0.1181337759 0.02609059587 0.9744315147 0.2169440836 0.1593801081 -0.9627403617
-0.1094226465 0.03148984164 0.9785118103 0.2348715067 0.1212693602 -0.9634408355
-0.1080910787 0.0275035575 0.9766657352 0.2475082427 0.09929339588 -0.9629926085
-0.102448985 0.02764147334 0.9776486754 0.2550087571 0.05403509736 -0.9643501639
-0.09812809527 0.02550728805 0.9776744843 0.2591283917 0.01569971815 -0.9646483064
-0.09505319595 0.03222326189 0.9810893536 0.2509015203 0.009797892533 -0.9678546786
-0.1536228806 0.002620315412 0.9734707475 -0.3602856696 0.07491374761 -0.903429985
-0.1576864272 0.000614791119 0.9773421884 -0.4093089104 0.02500060387 -0.8814271092
-0.1503894031 0.006660155486 0.9718033671 -0.3155274689 0.1205988526 -0.9248865247
-0.162819922 0.001428794349 0.9786367416 -0.5567293167 0.01470570732 -0.8267931938
-0.1676942259 -0.01149238925 0.9847528338 -0.5525299907 -0.1344863921 -0.8207326531
-0.1698711365 -0.006205863785 0.984795928 -0.5668607354 -0.07652062923 -0.8194661736
-0.1715624183 -0.0142918257 0.9861635566 -0.5184277892 -0.1461507827 -0.8412153721
-0.1646587849 -0.008988731541 0.9812276959 -0.5624979138 -0.09541861713 -0.8180639148
-0.03989543021 -0.09266183525 1.089281559 -0.1743689328 0.02258588187 -0.9818353057
-0.02955568768 -0.09193040431 1.090000033 -0.278711766 0.02137506194 -0.9599260092
-0.03172891214 -0.08656410128 1.090000033 -0.3202838898 0.03665847331 -0.9429192543
-0.03274492174 -0.082231462 1.089129686 -0.3627870083 0.05281608179 -0.9254517555
-0.04248590395 -0.09692194313 1.090001225 -0.1145697832 0.01844308525 -0.9927538633
-0.04658471793 -0.1002540961 1.090160251 -0.07832989842 0.01808965206 -0.9951276779
-0.06021333486 -0.1131393909 1.090762377 -0.01638480276 0.03078779019 -0.9993385673
-0.04972629994 -0.104106538 1.089175224 -0.04775943607 0.02376546338 -0.9971552491
-0.05500574037 -0.112318404 1.089128256 -0.01907490566 0.02976618148 -0.999343574
-0.05379975587 -0.1074155793 1.089064717 -0.03073648363 0.02607543394 -0.998929143
-0.04709681869 -0.1124537364 1.09005785 -0.0257606376 0.0207605511 -0.9994031787
-0.04665968195 -0.1070516333 1.090066075 -0.04399135336 0.02212862298 -0.9986223578
-0.08176460862 -0.1360719204 1.089596868 0.03739747405 0.07000936568 -0.9968450665
-0.1571229994 -0.06689505279 1.035687566 -0.4584719241 -0.132998988 -0.4571841657
-0.1580130011 -0.07617966086 1.018719316 -0.1086419821 -0.2599202096 -0.8167347908
-0.1579104215 -0.07398226857 1.023322225 -0.2011519521 -0.2244404107 -0.7227205634
-0.1606671661 -0.06962848455 1.031387568 -0.3603049219 -0.1528389603 -0.5645240545
-0.1631083637 -0.06055380031 1.044845223 -0.6422370076 -0.04411755502 -0.2754634917
-0.1579174399 -0.06454885751 1.044597387 -0.6230041385 -0.05749554187 -0.2967520952
-0.1689865738 -0.06966605037 1.019844294 -0.1468923688 -0.2230741233 -0.7801567316
-0.169184655 -0.06318598241 1.031585097 -0.3875869215 -0.1324928552 -0.533965528
-0.1631789953 -0.07030244917 1.026673913 -0.2707420886 -0.183476761 -0.6553245783
-0.1720481664 -0.07083962113 1.013446212 -0.02437470295 -0.265429467 -0.9044845104
-0.1613455266 -0.06468784809 1.039611936 -0.5303817391 -0.08819468319 -0.3903950751
-0.1633567214 -0.07776310295 1.012596846 0.01671519689 -0.2911648452 -0.9492170215
-0.1641400903 -0.06563782692 1.033996582 -0.4231475592 -0.125130102 -0.4991776645
-0.1667709351 -0.06716217101 1.027542233 -0.2983033955 -0.1688697785 -0.626019001
-0.165570274 -0.07397651672 1.016564369 -0.07047866285 -0.2558097839 -0.8593629599
-0.1609965116 -0.05797084793 1.052546501 -0.7940021753 0.01034284383 -0.1209312007
-0.1566604674 -0.06585692614 1.030263186 -0.3882716 -0.1691765934 -0.5374692678
-0.1560400277 -0.06861101836 1.013122082 -0.1003055274 -0.295168668 -0.840703249
-0.156929329 -0.05714636669 1.055361867 -0.861333251 0.02457182296 -0.05518687889
-0.1566713452 -0.07363363355 1.012169123 -0.0307784304 -0.311819315 -0.89740628
-0.1566796452 -0.07175190002 1.016735435 -0.1201074421 -0.2759820521 -0.8072336912
-0.1563178301 -0.06090211496 1.036019802 -0.5292701125 -0.1188813895 -0.4026587009
-0.1568479687 -0.05902390182 1.04954946 -0.7533149123 -0.02002052963 -0.1657328308
-0.1567212641 -0.06944142282 1.022882223 -0.2379115224 -0.2281804532 -0.68766886
-0.1560602933 -0.06365225464 1.025127292 -0.3352880478 -0.2009255439 -0.6035349965
-0.1582122892 -0.05613411218 1.059433937 -0.929063201 0.05725487694 0.01608161628
-0.1689764112 -0.06611544639 1.01500833 -0.1047917902 -0.2542518675 -0.8305032849
-0.1601771414 -0.06458231807 1.014328003 -0.1447236687 -0.2707436681 -0.802405417
-0.1565783471 -0.05914460495 1.040909529 -0.6212547421 -0.08064186573 -0.3088800609
-0.1662082076 -0.06630794704 1.011026621 -0.05280024558 -0.2870525122 -0.889280498
-0.1685464978 -0.06511702389 1.02013135 -0.1950882673 -0.2172685266 -0.7365934253
-0.163168028 -0.064578861 1.017488122 -0.1813323349 -0.2436732799 -0.7593934536
-0.1661596298 -0.06146800518 1.037998557 -0.5152093172 -0.0894459784 -0.405008167
-0.1559528261 -0.06418357044 1.012118459 -0.1316305995 -0.2924613953 -0.8227103949
-0.1715292484 -0.06749706715 1.009974957 -0.003588081338 -0.2878009677 -0.9325256944
-0.1608645767 -0.06567600369 1.008943558 -0.04843819886 -0.3093062341 -0.9021865726
-0.1560793966 -0.06335894763 1.016855478 -0.2120509744 -0.257579267 -0.7382769585
-0.1737400442 -0.06648709625 1.017935634 -0.1270195693 -0.2265691459 -0.7997887135
-0.1640818119 -0.06381544471 1.022710085 -0.2654462457 -0.2042077929 -0.6698630452
-0.1607949138 -0.06239494309 1.027189612 -0.3614655137 -0.1756770313 -0.574416399
-0.1583849788 -0.07853031158 1.010434031 0.02647425607 -0.3191868365 -0.9471544027
-0.1500073224 -0.06454031914 1.004645586 -0.03013264947 -0.3677076697 -0.9291805029
-0.1524121165 -0.06941878796 1.006898165 -0.005953126121 -0.3537250161 -0.9344146252
-0.1003858 -0.1362354457 1.084682584 0.03739747405 0.07000936568 -0.9968450665
-0.1016227379 -0.1398994327 1.082797885 0.03739747405 0.07000936568 -0.9968450665
-0.09581717849 -0.1410418451 1.084416151 0.03739747405 0.07000936568 -0.9968450665
-0.09480968118 -0.1323752701 1.089457512 0.03739747405 0.07000936568 -0.9968450665
-0.08939084411 -0.1384453923 1.087938905 0.03739747405 0.07000936568 -0.9968450665
-0.06565909088 -0.1250626594 1.087361336 0.006849870086 0.06307727098 -0.9978608489
-0.05613778904 -0.1172350571 1.090153456 -0.01282002684 0.02705646679 -0.9995321035
-0.04908477142 -0.1180830151 1.087301731 -0.01953957044 0.02765677124 -0.9992235303
-0.05609755591 -0.1224778369 1.087843418 -0.009078207426 0.03904187307 -0.9988365769
-0.06075673923 -0.1233037859 1.087906003 1.842643178e-05 0.05145970359 -0.9984180331
-0.1605704874 0.00330811739 0.9731567502 -0.5284689069 0.05660007894 -0.8427374959
-0.1853997111 0.001129281125 0.9968041182 -0.3874492049 0.09534472972 -0.9063532948
-0.1900691688 0.001106367796 0.9953568578 -0.3323682249 0.08753430098 -0.9257766008
-0.176179871 0.001525394851 0.9877840877 -0.5307766199 -0.01525006257 -0.8416730165
-0.1812269837 -0.001960745081 0.9934510589 -0.4525801539 0.04024191201 -0.8770169616
-0.1853598356 0.0009547803202 0.9919443727 -0.4002020955 0.0452490449 -0.8972101212
-0.1953762621 0.0008105747984 0.9976345301 -0.2579640746 0.1203181073 -0.9569320679
-0.1840309501 -0.003607918043 0.9897953868 -0.4014644027 0.03501139581 -0.9071692824
-0.179686904 -0.001464126632 0.987960875 -0.4711504579 0.002580861794 -0.8731453419
-0.1882459819 -0.003866787534 0.9921295643 -0.340847373 0.06658928096 -0.9330744147
-0.1684343517 0.00621918356 0.9797033072 -0.5355753899 0.05019436404 -0.8379545212
-0.1711195409 0.002543510636 0.9834065437 -0.5643865466 -0.009611426853 -0.8244559765
-0.1730467826 -0.002273591934 0.985793829 -0.5610144734 -0.05078276247 -0.8260124922
-0.1679696441 -0.0007998306537 0.9809304476 -0.5614740252 0.002540161368 -0.8243941665
-0.1363078356 0.01157366578 0.965880692 0.04454607517 0.1927822828 -0.9782740474
-0.1402796954 0.01476857811 0.9661505222 -0.02724399045 0.1892213225 -0.9771849513
-0.1412707716 0.006727629341 0.9652367234 -0.08676805347 0.14696908 -0.979434967
-0.1428412646 0.01108106226 0.965611279 -0.09917907417 0.1621549875 -0.9781736135
-0.1421534717 0.02071575075 0.9669089913 -0.03419180959 0.2418759763 -0.9681523442
-0.1477931589 0.01854996942 0.9668721557 -0.1736907959 0.1909295171 -0.9580920935
-0.1211394817 -0.003014135174 0.9659466743 0.2204538882 0.1695772409 -0.958127737
-0.1285734028 -0.01077872235 0.9636797309 0.03871781752 0.1010426357 -0.9908277392
-0.1352287233 -0.01241670549 0.9639220834 -0.1038445756 0.03074601293 -0.992258966
-0.123651728 -0.008758408017 0.9642865658 0.140678063 0.1317379326 -0.9775656462
-0.1137899011 -0.008581371047 0.9639780521 0.2743269503 0.1433309466 -0.943125546
-0.1319101602 0.000754799461 0.9644964337 0.07954481244 0.1645289361 -0.9809809327
-0.126166597 -0.004318754189 0.9649697542 0.1458285749 0.1463588774 -0.9778545499
-0.1270938963 0.003140928689 0.9663817883 0.1609553993 0.2060534209 -0.9646151662
-0.1120412126 0.0002144636092 0.9665639997 0.3122586012 0.1700639725 -0.9326334
-0.1158534959 0.009676606394 0.9695999622 0.267699033 0.1921163052 -0.9420427084
-0.1134892404 0.004257712513 0.9679384232 0.2946380973 0.1791058034 -0.93639189
-0.1196487322 0.01325530559 0.9697453976 0.2323804349 0.2054146826 -0.9490101337
-0.1814554334 -0.07349549234 1.01000011 0.05012767017 -0.2811398506 -0.9583027363
-0.1791114062 -0.05103163421 0.9977936745 -0.03773046285 -0.3058234453 -0.950394392
-0.1845151931 -0.05114174634 0.9977239966 -0.03385636583 -0.2851407528 -0.9563379884
-0.1842237115 -0.05626523122 0.9979904294 -0.002290545031 -0.2979688048 -0.9534195662
-0.1907469481 -0.05665794387 0.9979195595 0.003995395731 -0.2735946476 -0.9604628682
-0.1954385936 -0.05773065984 0.9979090691 0.01341179479 -0.257868737 -0.9651283622
-0.1822569072 -0.06261277199 1.007475853 0.03133715317 -0.2738525569 -0.9611833096
-0.1795538068 -0.06735736877 1.009553909 0.03454838693 -0.2738913596 -0.961073637
-0.1810870022 -0.05752649531 1.004897118 0.01394135505 -0.2946157157 -0.9542382956
-0.1746392399 -0.05849266797 1.0048033 -0.00599971693 -0.3260566294 -0.9427392483
-0.169853583 -0.05695294961 1.003632188 -0.02683088183 -0.3562717736 -0.9317113161
-0.1775739938 -0.06228949875 1.006913662 0.0143971201 -0.298832655 -0.9526532888
-0.1683917493 -0.05210155249 1.002065659 -0.05511077121 -0.368095696 -0.9255277514
-0.1774411052 -0.05319331959 1.003030777 -0.01661560126 -0.3206884563 -0.9435837865
-0.1757820398 -0.04910197109 1.001874924 -0.05254301056 -0.3380670846 -0.9367650747
-0.1828961968 -0.05261559784 1.003221631 -0.003180894302 -0.2971203625 -0.9529646039
-0.1626306474 -0.04625387862 0.999229908 -0.1325716376 -0.4047520459 -0.9023247957
-0.1711837202 -0.02735375054 0.9898486733 -0.3442955017 -0.3302286863 -0.8747811317
-0.1677139997 -0.03145769238 0.9902791977 -0.3227234185 -0.3784515858 -0.8625918627
-0.1677485704 -0.0371764116 0.9947900772 -0.228090167 -0.3840030134 -0.8887296915
-0.1649860889 -0.041288279 0.9963272214 -0.1924314201 -0.4039377868 -0.8889898062
-0.194645822 -0.006336651742 0.9929040074 -0.2614021599 0.05655567721 -0.9568485022
-0.196973905 -0.00362610817 0.9954696298 -0.2349596322 0.08521673828 -0.9645380974
-0.1688779145 -0.02209989727 0.9825137854 -0.4573658705 -0.2300832868 -0.8526089191
-0.1734302193 -0.02410628088 0.9867373109 -0.3994229436 -0.2560569346 -0.8768983483
-0.1777706891 -0.02242514305 0.9868194461 -0.3139837682 -0.2033296973 -0.9149858356
-0.1143434271 0.02285869233 0.9743437171 0.2422507554 0.1561583579 -0.9571603537
-0.1091241539 0.02211980335 0.9755513072 0.2683354318 0.1225175783 -0.953784883
-0.1061538383 0.008492331952 0.9717257023 0.315408051 0.1372186095 -0.938513577
-0.1088488698 -0.006229305174 0.9646449685 0.3450416923 0.1513669193 -0.9261775613
-0.1074722782 0.001237482415 0.9682383537 0.3300429583 0.1441224217 -0.9324365854
-0.1060299948 0.01392765809 0.9741574526 0.3016381562 0.1381652206 -0.942871213
-0.07180283219 -0.1318194568 1.087000012 0.02176221833 0.08675622195 -0.9957749844
-0.07569146156 -0.1212956607 1.090461254 0.02632837556 0.05013170466 -0.9982044101
-0.06742379814 -0.119355835 1.090605855 -0.0005808590795 0.04224195331 -0.9989481568
-0.06064606458 -0.119083114 1.090577722 -0.01734258793 0.0312242005 -0.9993137121
-0.07208292186 -0.1256074905 1.087000012 0.02624534629 0.06874398142 -0.9971849918
-0.07610099018 -0.1328195632 1.090000033 0.0340205282 0.06871674955 -0.9969822764
-0.06869849563 -0.1277779937 1.089413643 0.008157923818 0.0669086352 -0.9974259734
-0.1558782756 0.01404474024 0.9706583023 -0.3996148705 0.1565358937 -0.8976484537
-0.1588028073 0.01058409084 0.9746477604 -0.4662537873 0.1198755428 -0.8685269356
-0.1537424028 0.01031833328 0.9737736583 -0.3370479345 0.1257544011 -0.907920897
-0.1560513079 0.006997700781 0.9757851958 -0.3774348795 0.08542347699 -0.8881368041
-0.1464755833 0.009598022327 0.970867157 -0.1943214387 0.1500851512 -0.9624093771
-0.1482379884 0.0166032631 0.9714695215 -0.2106640935 0.1875977516 -0.9401239753
-0.1441500485 0.02099473588 0.9708434343 -0.07801279426 0.2170889825 -0.9658923149
-0.1639913619 0.007107834332 0.9772568941 -0.5377067327 0.07772242278 -0.834007442
-0.1194237173 0.006790405605 0.9720212221 0.2438790649 0.2163428813 -0.9441711307
-0.1275280863 0.007342654746 0.9714035392 0.1325309128 0.2119785547 -0.9578276277
-0.1293289065 0.0116373878 0.9707475305 0.1171922609 0.2190802395 -0.9644909501
-0.1321253628 0.007828589529 0.971244812 0.05680754781 0.1972269863 -0.9616394639
-0.1378736645 0.007512614597 0.9710224271 -0.04560441151 0.1778501272 -0.9636818767
-0.1235682666 0.0003980122856 0.9702937007 0.1738516092 0.2090960294 -0.9608536363
-0.1295135468 0.001960310386 0.9702886939 0.07762603462 0.1928324401 -0.9637165666
-0.1336113513 0.003556607757 0.9704146981 0.0129488809 0.1828949451 -0.9648268819
-0.1133753136 0.001322278869 0.9736233354 0.2947071195 0.1696944982 -0.9359668493
-0.117383793 -0.0005016570212 0.9720416665 0.2413281798 0.1806362569 -0.9484574795
-0.1692330688 -0.06468320638 1.005929112 0.0164761655 -0.3203426003 -0.9459992647
-0.1698606312 -0.07448137552 1.003847718 0.02627675608 -0.2888073623 -0.9567676783
-0.1687594205 -0.06948492676 1.003658652 0.02748037688 -0.3059180677 -0.951230526
-0.1654540449 -0.07383099943 1.005465508 0.02144237235 -0.2997793853 -0.9536960721
-0.1747112125 -0.07350711524 1.001859546 0.03244150057 -0.2817538381 -0.9584810734
-0.162589699 -0.05974220112 1.00346303 -0.02492759004 -0.3632178903 -0.9303416014
-0.1648169756 -0.06431144476 1.004332304 0.01876272634 -0.3312819004 -0.9429692626
-0.1558618546 -0.06301802397 1.004425168 -0.02638303488 -0.3490793407 -0.9364003539
-0.1588785797 -0.05620716885 1.001988769 -0.05011093616 -0.3773682714 -0.9245567918
-0.1640341282 -0.05545706302 1.000083804 -0.05360241979 -0.3711428344 -0.9261288047
-0.1778090894 -0.07053815573 1.000126481 0.03197773919 -0.2855065465 -0.9565882683
-0.1706946939 -0.06029109657 0.999954164 -0.02387525141 -0.3426686823 -0.9362094998
-0.1755377203 -0.06620237231 0.9996769428 0.006284067873 -0.3088507652 -0.9480202198
-0.1741453707 -0.05826087296 0.9979999661 -0.03594101593 -0.3403056562 -0.9366530776
-0.1778288633 -0.06229621917 0.9979999661 -0.007809223142 -0.3112120628 -0.9475650191
-0.1803972125 -0.067126818 0.9979999661 0.009863569401 -0.292199105 -0.9535531998
-0.1834171563 -0.07184872776 0.9979999661 0.03156635165 -0.2692385614 -0.9613639116
-0.1602041721 -0.0716977194 1.005790949 0.03649557382 -0.325974375 -0.9443569183
-0.1551840305 -0.07270361483 1.006386638 0.04848148301 -0.3419038355 -0.9384030104
-0.156648159 -0.06796051562 1.005632401 0.01134782936 -0.3399932981 -0.939743638
-0.1960613579 -0.06684609503 1.003680229 0.03845115006 -0.2424338162 -0.9690148234
-0.1942025274 -0.06235766038 1.005160451 0.007101519499 -0.272357434 -0.9621149898
-0.1851708144 -0.06635118276 1.008793831 0.03521535173 -0.2634111643 -0.9638797045
-0.1876734495 -0.05529565364 1.00419271 0.01920819841 -0.2746767402 -0.9612742066
-0.1921360493 -0.05765182525 1.005269766 0.01279600058 -0.2641295493 -0.9642381668
-0.1856656075 -0.05973012745 1.006248474 0.02828796022 -0.2698396444 -0.9623467326
-0.101444751 0.01996518113 0.9763448834 0.2848100066 0.07370002568 -0.9535042644
-0.09023852646 0.01481472049 0.9779397249 0.3147806525 0.03110987693 -0.9467883706
-0.08640512824 0.02054329962 0.9779122472 0.2867991328 0.007683401462 -0.9571714997
-0.09560509771 0.01283451729 0.9778725505 0.3099928498 0.03352921829 -0.9486957192
-0.09441444278 0.01716672629 0.9778193831 0.2827196419 0.01341276057 -0.9588712454
-0.09184668213 0.009470121935 0.978118062 0.3468901217 0.05349336565 -0.9349291325
-0.08203460276 0.0242355261 0.9779325724 0.2761833966 -0.004556003492 -0.9610022902
-0.08806947619 0.02479564212 0.9778570533 0.2660050392 -0.01111134887 -0.9638170004
-0.09372665733 0.0232188981 0.9777957201 0.2630906403 -0.009339168668 -0.964605689
-0.1077760905 0.002046542242 0.9744343758 0.3488686383 0.1350312382 -0.9261296988
-0.1021806598 0.007286449894 0.974180758 0.3347198069 0.1112428904 -0.9347344041
-0.1035840809 0.002684925683 0.9715884328 0.3417644501 0.1193272099 -0.9312025309
-0.1035657674 -0.004544056486 0.9709073901 0.3541871011 0.1205280051 -0.9267920852
-0.1110857651 0.01477502286 0.9737286568 0.2848308682 0.1727740169 -0.9418860078
-0.1115018874 0.006674216595 0.9732763171 0.3222551346 0.1699702293 -0.9295421839
-0.09850416332 0.000385001942 0.9790468216 0.3580010831 0.06809274852 -0.9308059216
-0.1021793485 0.001889087725 0.9767485857 0.3603810966 0.08872479945 -0.9282119274
-0.09726312011 0.008346675895 0.9790766835 0.3297894001 0.033487387 -0.9413394332
-0.1002567634 0.01164277736 0.9766110778 0.3226635158 0.08938457817 -0.9407558441
-0.08582288027 -0.1355313957 1.086205602 0.03739747405 0.07000936568 -0.9968450665
-0.08267584443 -0.1304566413 1.090000033 0.03739747405 0.07000936568 -0.9968450665
-0.1003813222 -0.1311322302 1.087517262 0.03739747405 0.07000936568 -0.9968450665
-0.1089174524 -0.1350673139 1.083957434 0.03739747405 0.07000936568 -0.9968450665
-0.09225624055 -0.1281750202 1.090000033 0.03739747405 0.07000936568 -0.9968450665
-0.08794230223 -0.130456388 1.090000033 0.03739747405 0.07000936568 -0.9968450665
-0.1247624084 0.01468396466 0.971499145 0.175572902 0.2027537227 -0.9618840814
-0.1321761161 0.01613366976 0.9702991247 0.08050493896 0.2144212425 -0.9719263315
-0.1229330376 0.009158612229 0.9716644287 0.2016713619 0.2159370482 -0.9549069405
-0.128421098 0.01788502559 0.9713083506 0.1322899759 0.2057088614 -0.9673602581
-0.123636134 0.0211181175 0.9711825848 0.1923740357 0.1875461191 -0.9626594186
-0.1193345264 0.01731070131 0.9725998044 0.2223534584 0.1877738386 -0.9559195042
-0.1936087012 -0.06315933168 0.9980000257 0.03001465462 -0.258931458 -0.965049386
-0.1872163117 -0.06437776983 0.9979999661 0.02241871879 -0.2733436525 -0.9606876373
-0.1871995777 -0.06947710365 0.9979999661 0.03439414501 -0.2624035478 -0.9638673067
-0.1823173612 -0.06307960302 0.9979999661 0.01134381443 -0.2891967297 -0.9559473395
-0.1787362993 -0.05612073839 0.9979999065 -0.01089795772 -0.3137313724 -0.9487189651
-0.1875872016 -0.05973614752 0.9979999661 0.01210035197 -0.2823539078 -0.9580785036
-0.1901689321 -0.06648307294 1.007104397 0.02401746996 -0.265745014 -0.9634052515
-0.09140494466 -0.1341207922 1.086308956 0.03739747405 0.07000936568 -0.9968450665
-0.08667604625 -0.127929002 1.086710095 0.03739747405 0.07000936568 -0.9968450665
-0.08441645652 -0.123144187 1.088356137 0.03739747405 0.07000936568 -0.9968450665
-0.07889279723 -0.120093964 1.087352157 0.03739747405 0.07000936568 -0.9968450665
-0.07819499075 -0.1269282699 1.090000033 0.03739747405 0.07000936568 -0.9968450665
