# .PCD v0.7 - Point Cloud Data file format
VERSION 0.7
FIELDS x y z normal_x normal_y normal_z
SIZE 4 4 4 4 4 4
TYPE F F F F F F
COUNT 1 1 1 1 1 1
WIDTH 512
HEIGHT 1
VIEWPOINT 0 0 0 1 0 0 0
POINTS 512
DATA ascii
-0.02364292182 -0.05305450782 1.048185706 0.517883718 0.2755598426 0.8098538518
-0.02223164588 -0.05897904932 1.052562118 0.517883718 0.2755598426 0.8098538518
-0.02766461298 -0.04589926824 1.052975774 0.517883718 0.2755598426 0.8098538518
-0.1227054745 -0.02662637085 0.9611852765 -0.2836233675 -0.193012327 0.9328265786
-0.1200699359 -0.03037375771 0.9640045762 -0.3059637845 -0.1745654643 0.9293516874
-0.1747822464 -0.117367968 1.041684389 0.6318991184 0.7323353291 -0.243794933
-0.1683154404 -0.1238554269 1.043889403 0.6097983718 0.7564743161 -0.2122770697
-0.1237574071 -0.02148261108 0.9690179229 -0.2578796148 -0.2539569139 0.9311420321
-0.1261305809 -0.01739066653 0.9650804996 -0.2457309961 -0.2572062314 0.9340866208
-0.1226682439 -0.02150876448 0.9633410573 -0.2706651092 -0.255215615 0.9278637767
-0.01776150055 -0.09370773286 1.060525775 0.4344101548 0.1870740056 0.8809430003
-0.02032388747 -0.08703547716 1.061457992 0.4423496425 0.2451381236 0.8622034192
-0.0277755484 -0.09295592457 1.068062305 0.4374721646 0.1724459678 0.882414937
-0.1830874085 -0.1138250157 1.045105457 0.3680917025 0.902266562 -0.2147928625
-0.1717843413 -0.1237956807 1.049006104 0.466614902 0.847450912 -0.2217399478
-0.160593152 -0.1294524372 1.047012806 0.5766224265 0.7892767787 -0.1779926866
-0.1778824031 -0.1187610701 1.047168255 0.4117402732 0.8776704669 -0.2211667448
-0.1681004465 -0.1277509332 1.051485062 0.4973928332 0.8298873901 -0.2335122973
-0.1570244581 -0.1598993242 0.9995072484 -0.2472113818 0.3077144921 0.9186336994
-0.1496483684 -0.1567599922 1.005040288 -0.2901545167 0.3037626445 0.9071679115
-0.1616052836 -0.1603844911 0.9959882498 -0.2253550589 0.305857718 0.9248918295
-0.1637873501 -0.161053896 1.001453519 -0.1901158094 0.3125667274 0.9293836951
-0.02811696194 -0.1045919806 1.065845251 0.375344336 0.110866338 0.9199273586
-0.03196617588 -0.09474438429 1.070961118 0.4336908162 0.1521509588 0.887339294
-0.03103393503 -0.09839525819 1.066609383 0.3990510702 0.1458696872 0.9047912955
-0.2158002257 -0.115560405 0.9841321111 0.2383401841 0.2186853737 0.9462077022
-0.05867564678 -0.1556154639 1.072522759 0.259575516 -0.1508990973 0.9538605809
-0.207837522 -0.1254284084 0.9852063656 0.1519908011 0.2388942689 0.9582472444
-0.2119132131 -0.09216032922 0.9822710752 0.3741894662 0.2761897743 0.8778342605
-0.2146130651 -0.09556544572 0.9864375591 0.3454150558 0.2647456229 0.8945962787
-0.2127673477 -0.1135310233 0.9923661351 0.1849426925 0.2603756189 0.937851131
-0.2084377408 -0.120099619 0.9921964407 0.1184041277 0.2741886079 0.9451812506
-0.2047913224 -0.1094289571 1.008708954 0.3753585219 0.4089175761 0.491964817
-0.2113124728 -0.1050747484 1.000244975 0.3388565481 0.3152483404 0.7252674103
-0.1951627731 -0.1116100401 1.02604425 0.5159454942 0.584291935 0.01344364882
-0.2016377747 -0.1138522848 1.010162115 0.3457112908 0.4339886606 0.4522797763
-0.2037211508 -0.1243246049 0.993946135 0.09194361418 0.3005342185 0.9011743069
-0.1922704577 -0.1128450781 1.03059113 0.5463426113 0.6319122314 -0.1120010093
-0.203224197 -0.1160708666 1.004369736 0.2699379325 0.3825967014 0.612470448
-0.1989641488 -0.1135588884 1.015999794 0.4030964375 0.490531832 0.2910354733
-0.2085374743 -0.1114105433 0.9987407923 0.2629030049 0.3159868121 0.7674503326
-0.2136314511 -0.1061389297 0.9942594767 0.2725591362 0.2591394186 0.8906738758
-0.2023140788 -0.1086972356 1.014641523 0.437913388 0.4653204679 0.3280532956
-0.2051897943 -0.1178654432 0.99827981 0.1955282241 0.3272489011 0.780836463
-0.2015109658 -0.1218656301 1.001296282 0.1846143603 0.3666185737 0.6979384422
-0.1952261478 -0.1065858901 1.030682325 0.5361397862 0.6845760345 -0.06476840377
-0.2000963539 -0.1067809016 1.021341681 0.5156233311 0.5296905637 0.1453251839
-0.1648848206 -0.07807534188 0.9565737247 0.2252672762 -0.03230922297 0.9624655843
-0.1595892757 -0.07963560522 0.9546317458 0.170526579 -0.08892594278 0.975972414
-0.1754033566 -0.07155141979 0.9609253407 0.3044068217 0.0631653741 0.9412602186
-0.1712009907 -0.05645986646 0.9544420242 0.07597013563 -0.1432506442 0.9862597585
-0.1644319296 -0.08858768642 0.9540629983 0.2949518859 0.09040672332 0.9441788197
-0.1705780029 -0.08805695921 0.9542427063 0.3547998369 0.1401711404 0.9236398339
-0.1345375031 -0.01675231382 0.9763174653 -0.1965326518 -0.2333582789 0.9498608112
-0.1265293062 -0.02182822861 0.9738504887 -0.23864685 -0.2462973744 0.9367526174
-0.1211170554 -0.02596521936 0.9732595086 -0.2724727988 -0.2499792427 0.9277339578
-0.1179686934 -0.03242548555 0.9712529778 -0.3021667898 -0.1595363468 0.9386839271
-0.1742147356 -0.09637806565 0.9607231021 0.3379165232 0.2426734418 0.8888887167
-0.1698952317 -0.09415329993 0.9575545788 0.3397875428 0.2050064057 0.9069297314
-0.17438218 -0.09973462671 0.9648881555 0.2705720663 0.2580753267 0.898202002
-0.04006643221 -0.1488735378 1.073513627 0.2289892882 -0.1201459616 0.9653831124
-0.03467506543 -0.1476539075 1.071490645 0.2300352752 -0.1155752838 0.9658251405
-0.04450590163 -0.1512856483 1.07517159 0.242293328 -0.1302600503 0.9608647823
-0.1482327282 -0.07097129524 0.9548401237 0.04624916241 -0.1770093143 0.9815939665
-0.1457954347 -0.06627242267 0.9545701146 0.009290564805 -0.1798463166 0.9822478294
-0.1581388712 -0.06867811084 0.9535363913 0.07965796441 -0.1398047656 0.9845255017
-0.1528546512 -0.06131372601 0.9583258629 0.02111392654 -0.1673865616 0.9843130112
-0.154546544 -0.05610486493 0.9602674842 0.01314857416 -0.1747926921 0.983818531
-0.1605520248 -0.06552350521 0.9584518075 0.09557775408 -0.1240841821 0.9828305244
-0.1623931974 -0.0605122596 0.9605921507 0.08700166643 -0.1221941337 0.9817968607
-0.1659665555 -0.06670040637 0.9594343305 0.1372321248 -0.08674702048 0.9809936881
-0.1573707312 -0.07447697967 0.95465523 0.1116345078 -0.1267614663 0.9846389294
-0.02774064615 -0.06236048415 1.053149223 0.517883718 0.2755598426 0.8098538518
-0.02707928978 -0.06754241884 1.056995392 0.517883718 0.2755598426 0.8098538518
-0.02983832732 -0.05519478396 1.056257844 0.517883718 0.2755598426 0.8098538518
-0.03149492666 -0.06452000141 1.059470057 0.517883718 0.2755598426 0.8098538518
-0.1659515798 -0.1218178719 1.051307559 0.5567777753 0.8021423817 -0.1870812178
-0.1664808095 -0.1183902845 1.047041416 0.6546048522 0.7346083522 -0.1576570868
-0.1611060798 -0.1167972833 1.049550056 0.6569392085 0.7380802035 -0.1378396749
-0.1769264191 -0.113507472 1.045119405 0.5116545558 0.8133667707 -0.2025705278
-0.1624235958 -0.1317655444 1.053574681 0.5522571802 0.799695611 -0.2301487625
-0.1614201516 -0.1248796582 1.052772045 0.590287149 0.7818027139 -0.1849358082
-0.06023971364 -0.1595216542 1.078495383 0.259575516 -0.1508990973 0.9538605809
-0.06698164344 -0.1674015671 1.075183868 0.259575516 -0.1508990973 0.9538605809
-0.05641905218 -0.1621567458 1.070836306 0.259575516 -0.1508990973 0.9538605809
-0.06010762975 -0.1677452773 1.068900466 0.259575516 -0.1508990973 0.9538605809
-0.05534546822 -0.1659375578 1.065543771 0.259575516 -0.1508990973 0.9538605809
-0.03108413145 -0.08374131471 1.069033623 0.4390919805 0.2222042978 0.8689602613
-0.03022540174 -0.07568573952 1.064116478 0.4819805622 0.251247257 0.8367869258
-0.03097784892 -0.07240643352 1.059548259 0.517883718 0.2755598426 0.8098538518
-0.02411215007 -0.08157709241 1.060961723 0.4601719975 0.2679644823 0.845787406
-0.03131454065 -0.08026643097 1.061058402 0.4816378653 0.2382232845 0.838586092
-0.03138495982 -0.08739867806 1.063833237 0.4491419792 0.2047495097 0.8643456697
-0.02720179595 -0.0775738135 1.058257818 0.4877468348 0.2703387737 0.8292365074
-0.01818912663 -0.08432475477 1.056610823 0.4587043822 0.254635334 0.8504017591
-0.02463820204 -0.09425227344 1.063477039 0.4409733117 0.1692975014 0.8810648322
-0.02121376991 -0.1006635651 1.064379215 0.4198954403 0.1357305199 0.8968808055
-0.02197740413 -0.1100503206 1.06601584 0.4014044702 0.06714099646 0.9124575257
-0.03817163035 -0.1518660933 1.064910889 0.2734116614 -0.1643190384 0.9477345943
-0.05104116723 -0.1566682458 1.071698666 0.2634405196 -0.154647842 0.9521493316
-0.04397709295 -0.1558522135 1.065636635 0.2673784792 -0.1584673226 0.9504057765
-0.1759314835 -0.1243152246 0.9864290953 -0.0405427292 0.2996789515 0.9531036615
-0.1809088588 -0.07951755822 0.957133472 0.4073278904 0.1579242945 0.8991774917
-0.1861295849 -0.04924435914 0.9626613855 0.1487390995 -0.04618336633 0.9712093472
-0.1869297773 -0.06090412289 0.9622228742 0.3040420115 0.06578632444 0.9336176515
-0.1800546497 -0.09122619033 0.9580134153 0.4626703262 0.2364113182 0.8539332747
-0.1824440807 -0.1059258506 0.9737660885 0.1734681726 0.2837750614 0.9107869267
-0.1805941314 -0.09651093185 0.9632389545 0.3671878576 0.2549301982 0.871706605
-0.1759565473 -0.113019295 0.9814110994 0.007349844091 0.3185721636 0.9348627925
-0.1754489839 -0.1031050831 0.9691424966 0.2102883905 0.2774731219 0.9039036632
-0.1769116819 -0.1070336774 0.9740456939 0.133083865 0.2916394174 0.9170621037
-0.1814980805 -0.1119598672 0.9802848101 0.04328145832 0.3047788441 0.9355047345
-0.1853766292 -0.1075352356 0.9789569378 0.1677154303 0.3764958978 0.8776530623
-0.1841642559 -0.09946153313 0.970030129 0.3345423639 0.346612215 0.8449913859
-0.2064980119 -0.09448376298 0.9791712761 0.3661622405 0.3586792052 0.8524938226
-0.216285646 -0.1036611646 0.9867434502 0.2995646596 0.2794173956 0.9071156979
-0.2131676823 -0.1002428159 0.9993253946 0.3446228206 0.3135778904 0.7733615041
-0.2099112719 -0.1013598666 1.005035281 0.3786995113 0.3820960224 0.62155509
-0.2068038881 -0.1029448435 1.010515928 0.4114879072 0.4472893775 0.4722776413
-0.1886918843 -0.1195750982 0.9857837558 0.00151566579 0.2975151539 0.9544864893
-0.1945557594 -0.119805187 0.9861378074 0.00528545538 0.2952033877 0.9551901221
-0.1777551621 -0.102817148 0.9791104198 0.1173268706 0.3668336272 0.8837458491
-0.1657706499 -0.08667041361 0.9601262808 0.2140381336 0.06842428446 0.9208337665
-0.1752545983 -0.09157618135 0.9673159719 0.2842462361 0.2719463408 0.8488807678
-0.1791498661 -0.09622273594 0.9728876948 0.2640259564 0.3664439023 0.8335706592
-0.1704619676 -0.08909329772 0.9636788964 0.2488379776 0.1690825075 0.8852210045
-0.172359705 -0.1000596955 0.9750534892 0.07676136494 0.2511875331 0.9248613715
-0.1735726446 -0.09569440037 0.9710047245 0.1788095981 0.2565253675 0.8886380792
-0.1680104136 -0.09343332797 0.9674011469 0.1261486113 0.139715299 0.9341720939
-0.1607902646 -0.08643995225 0.9575561285 0.1574580222 -0.01990274712 0.9683958292
-0.164493233 -0.09148719907 0.9636716843 0.1224075779 0.07103992254 0.957747817
-0.1835969985 -0.08683772385 0.969399631 0.38963902 0.3631139696 0.8144143224
-0.1801125407 -0.082662642 0.9661732316 0.3614663482 0.2597580254 0.8569954038
-0.1737473756 -0.08452697843 0.9632592201 0.3027172685 0.1785255969 0.8806429505
-0.1683163792 -0.08190939575 0.9594516158 0.2558205128 0.06151853874 0.9248238206
-0.1722261608 -0.07588950545 0.9597110748 0.2956486642 0.0561655052 0.9381036162
-0.1786495447 -0.07668253034 0.9634913802 0.3528822958 0.1684525162 0.8989850283
-0.03076599352 -0.04056975618 1.053562522 0.517883718 0.2755598426 0.8098538518
-0.1370618045 -0.0242490042 0.9716854095 -0.1535501331 -0.1608096361 0.9670547843
-0.1319808513 -0.02250146307 0.9736491442 -0.2208716422 -0.1830632091 0.9547975063
-0.1430658251 -0.02502395213 0.970087111 -0.07988352329 -0.1421116441 0.980030477
-0.1350362152 -0.03146006167 0.9680413604 -0.1443120539 -0.1231051907 0.9714148045
-0.1394906342 -0.01881912537 0.9742541313 -0.1499518752 -0.187073797 0.965588212
-0.1293637753 -0.03021938913 0.9698360562 -0.216230318 -0.1437657326 0.9585611224
-0.140597716 -0.03157232702 0.9668998718 -0.0788377896 -0.1093520522 0.9827259779
-0.123657085 -0.02979863994 0.9705376029 -0.2658692002 -0.1791285872 0.9460744858
-0.1303505749 -0.01761794463 0.9605221748 -0.2336808145 -0.2462918758 0.9404911399
-0.1308223158 -0.01462485176 0.9657450914 -0.2161037922 -0.2519755065 0.9424749613
-0.03242895752 -0.04979868233 1.054487228 0.517883718 0.2755598426 0.8098538518
-0.02703483403 -0.04849501699 1.047866583 0.517883718 0.2755598426 0.8098538518
-0.0315197669 -0.05458119139 1.050661683 0.517883718 0.2755598426 0.8098538518
-0.1706466824 -0.1100226417 0.977406919 0.02833888493 0.2767257988 0.94069314
-0.1658414751 -0.0970607698 0.9608716369 0.2439848036 0.1903613806 0.9317335486
-0.1695485562 -0.1054366007 0.9740217328 0.08220947534 0.2691692114 0.93345052
-0.1674249321 -0.112945877 0.9810468554 -0.04940948635 0.2664520442 0.9465796947
-0.1669392288 -0.1028280929 0.9686809778 0.1358830184 0.2252379209 0.9359722137
-0.172941193 -0.1196200773 1.007032514 0.1064576209 0.4202811718 0.5088262558
-0.1681417674 -0.1186183766 0.9901359081 -0.09580700099 0.303745389 0.878926158
-0.1842983812 -0.112352185 1.0293504 0.49546507 0.6319083571 -0.07703559846
-0.1756873876 -0.1188831255 1.014299273 0.2100090832 0.4782435596 0.3364681005
-0.1824188679 -0.1122322753 1.023232698 0.4187881649 0.5880838633 0.05970745534
-0.164983362 -0.1245575324 0.9911104441 -0.1675568074 0.2709648311 0.9239964485
-0.1792830229 -0.1146090627 1.017748713 0.3148198128 0.5321136713 0.2103392631
-0.1705814302 -0.1201783642 1.000650764 0.01678003371 0.3699759245 0.6591864824
-0.1763160974 -0.1119451746 0.9951518774 0.07097925246 0.4132688642 0.711412251
-0.1763608754 -0.1141026169 1.007605553 0.1920952648 0.4616702199 0.4336982667
-0.1720953584 -0.114292182 0.9898192883 -0.03401172534 0.3465266526 0.8492387533
-0.172047168 -0.1153079867 0.9953765869 0.01917293482 0.3673785925 0.7256187201
-0.1772598028 -0.1095397323 0.9856607318 -0.008960726671 0.3870907724 0.9186621904
-0.1837136149 -0.1100867987 1.017308712 0.3789972067 0.5795292258 0.1843838394
-0.1790963709 -0.1128178313 1.012404203 0.2731364667 0.510091424 0.3144551516
-0.1746694446 -0.1143236756 1.001381397 0.1104583889 0.4192002118 0.5800065398
-0.1748455912 -0.1179819703 0.9851230383 -0.0491389595 0.3219900131 0.9452773333
-0.1541334987 -0.1199418902 1.050310731 0.664663434 0.7388810515 -0.1087551415
-0.1529900283 -0.1278755665 1.047722697 0.6528561115 0.7444750667 -0.1308511943
-0.1675014496 -0.03219758347 0.9626219869 0.05301271379 -0.1474206746 0.9870500565
-0.01896364056 -0.07515385747 1.055134773 0.517883718 0.2755598426 0.8098538518
-0.0209909752 -0.06787391007 1.053862929 0.517883718 0.2755598426 0.8098538518
-0.1455384791 -0.01709428057 0.9638299942 -0.01779058389 -0.2761314213 0.9540643096
-0.1440780014 -0.0248850137 0.9590246677 -0.001480107429 -0.1757269502 0.976780653
-0.1493463218 -0.02052003145 0.9614601135 0.08004932851 -0.2710383534 0.9493460059
-0.1379579753 -0.01988149621 0.9597466588 -0.1192551479 -0.2451396286 0.9471248984
-0.06605765224 -0.1710104495 1.068811178 0.259575516 -0.1508990973 0.9538605809
-0.1721923798 -0.1517511159 0.9968407154 -0.1305574328 0.3054247499 0.9414844513
-0.1665095687 -0.1543199122 1.000156879 -0.1640705466 0.3009287715 0.9364956617
-0.1669635624 -0.1267842054 0.9989622831 -0.08484104276 0.3186148405 0.7606240511
-0.1645190269 -0.1297739893 0.9945039749 -0.1716476828 0.2709513009 0.8845614195
-0.1798852682 -0.1200003177 1.021416903 0.32855317 0.538415432 0.1616403013
-0.1784266531 -0.1345907897 1.007083178 0.1192080006 0.395426482 0.5926501155
-0.1696470827 -0.1370493323 0.9968485236 -0.1070070937 0.286218673 0.8555529714
-0.1839742064 -0.1195178628 1.0255934 0.4258843362 0.5834444165 0.05729363859
-0.1699764729 -0.1301240325 1.003319383 -0.01576320827 0.3504677415 0.6590688825
-0.1794659048 -0.1245785877 1.016954303 0.2637212574 0.4939298928 0.2960301638
-0.1748565882 -0.1413226277 0.9978152514 -0.04220218584 0.3005585372 0.8561080694
-0.173807621 -0.1358044446 1.001769662 0.0011600859 0.3386735022 0.7287867665
-0.1753807813 -0.1265508682 1.011454344 0.1484316587 0.4358238578 0.4409812391
-0.1545896679 -0.1553983986 1.015650868 -0.06931359321 0.4012580514 0.6961157322
-0.1547894925 -0.1393474936 1.037733436 0.4073973596 0.6530295014 0.09629610926
-0.159254536 -0.1503883898 1.015523553 0.02573830634 0.4253944755 0.6301756501
-0.1681440324 -0.1455282867 1.006084323 0.01601222344 0.3645088375 0.7482028008
-0.1591698974 -0.1435208172 1.02528131 0.2326483577 0.5357439518 0.3677947223
-0.1597477794 -0.1386259347 1.03107059 0.3689884245 0.6044850349 0.2024402469
-0.1565026194 -0.1590913236 1.008379936 -0.1865799725 0.329955399 0.8656473756
-0.1566741318 -0.1490405798 1.022120953 0.1110801846 0.4868654013 0.4916756153
-0.1637116969 -0.1502680928 1.007551551 -0.04843392223 0.3580875397 0.7768899798
-0.1606916338 -0.1451315433 1.020249844 0.1579142213 0.4865394235 0.4803018272
-0.1668474972 -0.1431342214 1.011799932 0.1102500111 0.4226535261 0.6137367487
-0.1613315195 -0.1556178182 1.004417777 -0.1669325233 0.3101136386 0.8982682228
-0.1944472343 -0.1367212683 1.00091815 0.1012049988 0.382948041 0.7565389872
-0.1936488897 -0.1305823177 1.008216858 0.2100177258 0.4463366568 0.5412512422
-0.1928341389 -0.1255267709 1.015296698 0.3132567704 0.5064272285 0.336422205
-0.1904138774 -0.1226912364 1.022138834 0.405554086 0.5679216981 0.1593369991
-0.1873124391 -0.1278228611 1.015674829 0.3150710166 0.4989252985 0.3412659168
-0.1896088719 -0.1311300844 1.011504292 0.2520039678 0.4664848149 0.4633425474
-0.1914181262 -0.1417443603 0.9981251955 0.05574785918 0.3467992246 0.8488891721
-0.1892971396 -0.137334615 1.003685117 0.1387984455 0.3926891685 0.6871732473
-0.1714563668 -0.1403525621 0.9894955158 -0.1277191639 0.2679772377 0.9518170357
-0.1846422702 -0.1507500112 0.9958503246 0.0004858612665 0.3367290199 0.9409434199
-0.1773959398 -0.1489385664 0.995290935 -0.07400842756 0.3028820753 0.9479845762
-0.1759567559 -0.143567428 0.9917207956 -0.09203310311 0.2767697275 0.951836288
-0.04858418927 -0.1583352685 1.063465953 0.259575516 -0.1508990973 0.9538605809
-0.05502940714 -0.1607667953 1.064256787 0.259575516 -0.1508990973 0.9538605809
-0.02184280008 -0.1053429544 1.061423421 0.4197539687 0.09215301275 0.8991487622
-0.01659580879 -0.1004654914 1.058531284 0.4323942363 0.1405297667 0.8889739513
-0.03384844586 -0.1094500199 1.069103599 0.3645379245 0.05004405603 0.9274865389
-0.03362103179 -0.1155283004 1.06940937 0.3245553076 0.000120248209 0.9443430305
-0.177169174 -0.07628201693 0.9555897117 0.3358352482 0.1182734296 0.9322155118
-0.1734842211 -0.0819420293 0.9539310336 0.3275497258 0.09288548678 0.9343690276
-0.1671598852 -0.08218111098 0.9532675743 0.2588109374 0.02211077325 0.9606753588
-0.169480443 -0.07334044576 0.9533513784 0.1982068866 -0.0167055428 0.9736896157
-0.169952631 -0.0642151311 0.9536238313 0.1167958379 -0.10915941 0.9860119224
-0.1656905115 -0.06846494228 0.953579843 0.1162441745 -0.1164100841 0.9849246144
-0.1999801397 -0.07246858627 0.9651474953 0.467155993 0.2378176302 0.84555161
-0.1956886649 -0.06230377033 0.9618537426 0.4054193795 0.05951720104 0.9116436839
-0.1795481294 -0.06464775652 0.9621114731 0.2325891554 0.01272423845 0.9640037417
-0.1810459197 -0.05249250308 0.9625818133 0.1119169965 -0.06344208866 0.9870561957
-0.1813268811 -0.05876519904 0.9623451233 0.192840308 -0.005750389304 0.9678542614
-0.1860867143 -0.05731197447 0.9557225108 0.2327502668 -0.07306384295 0.9659742117
-0.17950207 -0.06813383847 0.9554127455 0.2846550047 0.02480083331 0.9527840614
-0.1762176603 -0.06065021083 0.9544067383 0.1564583778 -0.06809748709 0.9763684273
-0.1845886707 -0.06392896175 0.9575683475 0.3452152014 -0.005021673627 0.938313365
-0.2175181806 -0.1014982909 0.9931067228 0.3047020733 0.2385375798 0.9220286012
-0.2067139447 -0.09043188393 0.9834327698 0.4415248632 0.3073099554 0.8320555091
-0.2030976862 -0.08697687835 0.9786326885 0.5054462552 0.31470716 0.7968795896
-0.2086594999 -0.1065548807 0.9808238745 0.3164657354 0.2751082182 0.9045039415
-0.21952793 -0.1098462194 0.9872294664 0.2653660774 0.2288792878 0.9363148808
-0.2123078704 -0.1105974764 0.982570827 0.2798599005 0.2479230314 0.924349308
-0.2066769451 -0.1002159342 0.9796597958 0.3425859213 0.3472859263 0.8680679798
-0.206504792 -0.1121594384 0.9824010134 0.2616949081 0.2404426187 0.9314774275
-0.2104282379 -0.1203156561 0.9840144515 0.2209163159 0.228271082 0.9481134415
-0.200041458 -0.124207288 0.9863820672 0.05637101457 0.27127707 0.9578036666
-0.184150219 -0.100992009 0.9788633585 0.2528128624 0.4640783668 0.8191634417
-0.1807217598 -0.1059180349 0.9829320908 0.1018735021 0.4165948331 0.8824809194
-0.1964549422 -0.09044587612 0.9778778553 0.4351638854 0.3391876817 0.8085642457
-0.1908981204 -0.09641154855 0.9791541696 0.3317607939 0.3899292946 0.8280258775
-0.1966324449 -0.09622342885 0.9812284112 0.3278023005 0.3744412363 0.8461729288
-0.1939214319 -0.1010381132 0.9833468795 0.2336256355 0.3939644694 0.8765377998
-0.1935225278 -0.1042280942 0.9927094579 0.2055007666 0.3857111335 0.8038600087
-0.2012474835 -0.1029106379 1.01703763 0.4425849617 0.5389528871 0.2997613847
-0.2042940706 -0.1012953073 1.005430102 0.3581077754 0.4229171574 0.5872466564
-0.1928595304 -0.1047545075 0.9986194372 0.2522910237 0.4391285777 0.6636826992
-0.1882914901 -0.1058941856 0.9912109971 0.1706679314 0.4065885544 0.8017339706
-0.206577599 -0.1002604216 1.000133038 0.3233560622 0.3642690182 0.7246739268
-0.1932246685 -0.1050271615 1.006249785 0.3178964555 0.5003103614 0.4912201762
-0.1879009604 -0.1064312533 0.9990842342 0.2350980192 0.474609971 0.6184273362
-0.2027281523 -0.1012826115 0.995085597 0.2646098137 0.3467995524 0.8135849833
-0.1932584643 -0.1057042181 1.019568324 0.4298419058 0.6109496951 0.1859796941
-0.2010118663 -0.1026762426 1.010982752 0.3907556236 0.4900584817 0.4369924366
-0.1961358488 -0.1049958467 1.024418831 0.4827998579 0.6329774261 0.09480316937
-0.1963505894 -0.1044074148 1.014418006 0.3997628093 0.548368752 0.3256801367
-0.1889713854 -0.1069748551 1.016505837 0.3858963549 0.6127915382 0.2263107598
-0.199081406 -0.1027294695 0.9995626211 0.286677897 0.4073126614 0.6854569316
-0.2115652114 -0.09845998883 0.9906534553 0.3116048276 0.2642580271 0.9119260907
-0.1984963715 -0.1025233194 0.9875978231 0.2125205845 0.3180528283 0.9156976938
-0.185084179 -0.1080904007 1.012187123 0.2998035252 0.5865578651 0.3233318627
-0.1893393099 -0.1075526327 1.0298388 0.4906174839 0.7174531817 -0.07032407075
-0.1824047863 -0.1083232537 0.9991024137 0.1661830693 0.4891280234 0.614079237
-0.1843050718 -0.1070550233 0.987839818 0.1204925403 0.4017187655 0.8549479842
-0.1842703223 -0.108050175 1.006146431 0.2450889796 0.541221559 0.4566140473
-0.1810823679 -0.1084696576 0.9932307601 0.1042434126 0.4455083609 0.7448179126
-0.1906111687 -0.1075717956 1.036689878 0.5642000437 0.7648027539 -0.2250477523
-0.1907217205 -0.08072470874 0.96904248 0.4629651904 0.2828998566 0.8262251616
-0.1859786958 -0.07505607605 0.9652728438 0.4120941162 0.2000598013 0.8768414259
-0.1556431353 -0.06395623833 0.954298079 0.03715303913 -0.1740655154 0.9838403463
-0.1603434831 -0.05611102283 0.9559991956 0.01274248026 -0.1800403297 0.9830915928
-0.1643437147 -0.05955434218 0.9545670152 0.05412562564 -0.1629804075 0.9847888947
-0.1581677198 -0.04797183722 0.9581803679 0.02759540267 -0.1581034958 0.9866833091
-0.1359040886 -0.03942262381 0.9649946094 -0.1269815564 -0.09273312241 0.9775905609
-0.1302129775 -0.03639666364 0.9670707583 -0.1962683201 -0.1169175431 0.9647222757
-0.1419812739 -0.04039500654 0.9630314708 -0.04091172293 -0.06598661095 0.9920060039
-0.1423068196 -0.03308495507 0.9572940469 -0.03610251099 -0.07099948823 0.9933017492
-0.1578116119 -0.1269570142 0.9930126071 -0.2523691058 0.2447813004 0.9345625043
-0.1627631336 -0.1207253262 0.9878938198 -0.1859383881 0.2485521436 0.9476789832
-0.1604185402 -0.1260815859 0.9998130202 -0.1536718905 0.3000026941 0.7714651823
-0.1696642637 -0.1205986962 1.01442349 0.1408606768 0.4548930228 0.3756550848
-0.1737201363 -0.1171100661 1.035846829 0.5274478793 0.6730710864 -0.1124715954
-0.1794762909 -0.1149049252 1.029340148 0.445279032 0.6142097116 -0.03101619519
-0.1579694152 -0.126574561 1.007538915 -0.03578482568 0.3737695515 0.6318520904
-0.1559457332 -0.1262469292 1.024651408 0.246466592 0.5424695611 0.2922588885
-0.1665614545 -0.120735541 1.032069325 0.4267828763 0.6277735829 0.03519213945
-0.1604059637 -0.1236138195 1.032035589 0.3951604962 0.6209155321 0.0947393924
-0.1636216193 -0.1227170452 1.023895979 0.2722710073 0.5430601835 0.2347301692
-0.1785694957 -0.1147774979 1.036747694 0.5673023462 0.6872025728 -0.1777220368
-0.1593496054 -0.1249709576 1.020426989 0.191436708 0.5039003491 0.3483307064
-0.1628835201 -0.1242291182 1.008206129 0.0004046863178 0.3856379092 0.5708814859
-0.1836245656 -0.1127922907 1.034894347 0.5667342544 0.6764583588 -0.1841317862
-0.1559120119 -0.1249439046 1.04421258 0.5838090181 0.7390972376 -0.1159766838
-0.1733349562 -0.11971315 1.019661903 0.277561754 0.5233571529 0.2462134957
-0.1654349118 -0.124306567 1.013555288 0.1438913643 0.4585355818 0.4555273652
-0.1741210222 -0.1179667488 1.030274034 0.4490271807 0.6241983175 0.00859996397
-0.1681476682 -0.1241078377 1.004955292 0.02068034932 0.3798702955 0.6154420972
-0.1602668464 -0.1232480779 1.041090012 0.5549100041 0.7136086226 -0.09075445682
-0.1638842821 -0.1220236346 1.037066579 0.5083032846 0.6789478064 -0.03882514313
-0.1673071682 -0.1226168871 1.019666433 0.2493042052 0.5179014802 0.304859221
-0.1827892065 -0.1304736137 0.9876797199 -0.01217225846 0.292781949 0.9558532834
-0.1830791682 -0.1253339052 0.9868479371 -0.0131615214 0.2992548347 0.9539557695
-0.1542933583 -0.04834498465 0.9620000124 0.01013715472 -0.1495282203 0.9875395894
-0.1592617184 -0.03637676686 0.9621872902 0.05838175118 -0.1377644688 0.988422513
-0.1695420891 -0.04950607941 0.9566925764 0.04824097455 -0.1682001799 0.9834382534
-0.1689521819 -0.05930597335 0.9620017409 0.1280931979 -0.0954157114 0.9804118276
-0.1662599146 -0.05305111036 0.9620838165 0.07561240345 -0.1422413737 0.9829537868
-0.1739546806 -0.06148038432 0.9620682001 0.1629545093 -0.06041287258 0.9795289636
-0.1754293293 -0.05597448349 0.9622301459 0.1324675828 -0.08392945677 0.9817672372
-0.176842466 -0.04877702519 0.9624570012 0.08630187064 -0.114687793 0.9855890274
-0.1725744307 -0.04480176046 0.962415874 0.04689377919 -0.1582711041 0.986225605
-0.1781084538 -0.03911440447 0.9636895061 0.04500313476 -0.1257471591 0.9906398654
-0.165416792 -0.03747550771 0.9624395967 0.03696849197 -0.1659327894 0.9852848053
-0.1565070897 -0.04334403947 0.9619999528 0.02858644351 -0.1354254931 0.9902155399
-0.1625253409 -0.0458849296 0.9620000124 0.02875984833 -0.1704332232 0.984667182
-0.1702412069 -0.03978540376 0.9606209397 0.03597533703 -0.1524244547 0.9872720838
-0.1654987037 -0.04235781729 0.9585496187 0.06036412716 -0.1396254003 0.9882903099
-0.1521372646 -0.03146690875 0.9589490891 0.05828201398 -0.08505348861 0.9946051836
-0.1518622637 -0.03790985793 0.9620000124 0.0372793451 -0.1013795286 0.9928646088
-0.1490507871 -0.04364590719 0.9619999528 0.007468103897 -0.07983779162 0.9959201217
-0.1477285475 -0.03447664529 0.9576856494 0.03225043043 -0.07748374343 0.9963012934
-0.1431901753 -0.01218944043 0.9755083919 -0.1233701929 -0.235230431 0.9613509178
-0.1511913538 -0.01674432307 0.9659712911 0.08454478532 -0.306653887 0.9397056699
-0.1491533518 -0.01612577774 0.9725492001 -0.06004095823 -0.2130152732 0.9659019709
-0.1584937721 -0.02294039726 0.9651083946 0.06518089771 -0.1955034137 0.9708948135
-0.1633825898 -0.02743663453 0.9633740783 0.07667499036 -0.1373389512 0.9871765971
-0.1581386477 -0.0290413741 0.9642291665 0.05314913392 -0.1415216327 0.9854130745
-0.06130919978 -0.1612523496 1.06666553 0.259575516 -0.1508990973 0.9538605809
-0.05749288574 -0.1560198665 1.066141605 0.259575516 -0.1508990973 0.9538605809
-0.1717326194 -0.1583144516 0.9969360828 -0.1448248178 0.3219805956 0.9353095293
-0.167997539 -0.1446228176 0.9903340936 -0.1792146862 0.2713097632 0.9450756907
-0.1681818515 -0.1501352042 0.9921670556 -0.1800664514 0.2890377045 0.9392662644
-0.1655231714 -0.1369384378 0.9890000224 -0.1897325665 0.2458561361 0.9498170614
-0.1675466448 -0.1313496977 0.988568604 -0.1420923918 0.2514176071 0.9570687413
-0.1742659658 -0.1300369799 0.9873661995 -0.05364818871 0.2876681387 0.9558391571
-0.1521404982 -0.1402520686 1.032240629 0.27316764 0.5870174766 0.2381210923
-0.1485219896 -0.1551539004 1.011577606 -0.2289990783 0.3310269713 0.8347776532
-0.1494238079 -0.14307639 1.023579121 0.07331401855 0.4861830473 0.4620643854
-0.1475573778 -0.1366432458 1.024488211 0.1133810729 0.5083729029 0.391640991
-0.1468369812 -0.1416772455 1.01868093 -0.03038233332 0.4348279536 0.5657962561
-0.1496227086 -0.1480138004 1.019998908 -0.02101999894 0.437374711 0.5834512711
-0.1520432681 -0.1469677836 1.026511788 0.125901103 0.5111557841 0.4233034253
-0.1453141421 -0.1496174783 1.008617759 -0.2770673037 0.3088662922 0.8615953922
-0.1481590718 -0.1502431035 1.014752746 -0.1436825693 0.3753195405 0.7230565548
-0.1452222168 -0.144482851 1.012609482 -0.1730419099 0.3625845909 0.7290868163
-0.1440535188 -0.1483316123 1.00252974 -0.3259501159 0.2909246087 0.8991662264
-0.2011125833 -0.1348744184 0.9950852394 0.03870069236 0.3086040616 0.9100775719
-0.1916904896 -0.1172859967 1.025639772 0.4662888646 0.5954940915 0.03339258581
-0.2001722306 -0.1277108639 0.9996517301 0.1206593961 0.3569205999 0.7527498007
-0.1990647465 -0.1275800765 1.006950498 0.2084762603 0.4112361968 0.5701581836
-0.1966596097 -0.1212618575 1.012710214 0.2999028563 0.4745232463 0.3855498433
-0.2066134661 -0.1300899535 0.992625773 0.06954784691 0.2745354772 0.9532721639
-0.2097629905 -0.1253979951 0.9916087985 0.1136312634 0.2647744715 0.9492354393
-0.2207872421 -0.1054360271 0.9907333851 0.2813156545 0.2351271659 0.9302603006
-0.2137146592 -0.1210493296 0.9890086651 0.1770898849 0.2504680455 0.944855392
-0.2146653086 -0.1246559173 0.9844102263 0.2141436189 0.240816921 0.9461636543
-0.1832290739 -0.1325840056 1.009831667 0.2032713741 0.4333436489 0.511009872
-0.1836859435 -0.1426468492 0.9970725775 0.03319364414 0.3154480159 0.8739597201
-0.1794403344 -0.1396627873 1.001076579 0.04694269225 0.341458112 0.7649671435
-0.1843683273 -0.1238636151 1.020806193 0.3643622398 0.5388544202 0.1969893724
-0.1841267347 -0.1364035159 1.004949927 0.1451800615 0.3901716769 0.6490136385
-0.1814736575 -0.1406929493 0.9916581511 -0.01437440515 0.2882074416 0.9570970535
-0.1784047037 -0.1343730539 0.9881336689 -0.03161269799 0.2855389416 0.9574941993
-0.1872454882 -0.1403262317 0.991966188 0.00439158082 0.2992825806 0.9540233612
-0.0436264798 -0.1462480724 1.066331029 0.2617942095 -0.1530510634 0.9528782368
-0.03726603836 -0.1466060579 1.066190004 0.2276294231 -0.1275692135 0.9642064571
-0.05255738646 -0.1489203274 1.066779613 0.259575516 -0.1508990973 0.9538605809
-0.02827616036 -0.1191091985 1.065707803 0.3442406356 -0.0144400578 0.9361643195
-0.0287160594 -0.1134501174 1.065557122 0.3908488452 0.01859558001 0.9180012345
-0.02191805467 -0.1188164577 1.065501809 0.360693574 0.003468494164 0.9293180704
-0.01806457341 -0.1093945801 1.06224072 0.38365224 0.08318629861 0.9159072638
-0.1913563758 -0.06722721457 0.9597069025 0.4007654786 0.1141707748 0.9038669467
-0.1840990037 -0.07426719368 0.958080709 0.4038417935 0.1414733529 0.9024317861
-0.1928554773 -0.07414636016 0.9617615342 0.4445917308 0.2092138529 0.8663324118
-0.2051154077 -0.09873446077 0.986136198 0.3050229251 0.3287031353 0.8864554763
-0.1880210489 -0.1047756597 0.9843502045 0.1491789222 0.3855797648 0.904106617
-0.1850679666 -0.1146074533 0.9843854308 0.002301756293 0.3287275434 0.9376209378
-0.2002768219 -0.1125108674 0.9829922915 0.2071930915 0.2688201666 0.9365256429
-0.1953133494 -0.1141334176 0.9844942093 0.0533567518 0.2899638712 0.9523748755
-0.2035293728 -0.1059569418 0.9797262549 0.3194607794 0.2849361002 0.9000211358
-0.1407321244 -0.06371837109 0.9558377266 -0.03817316145 -0.1744124591 0.98382622
-0.1479156017 -0.0574262701 0.9587480426 -0.01415345911 -0.1775461435 0.9839255214
-0.1250457913 -0.03377860785 0.960052371 -0.2882323861 -0.1660563797 0.9374392629
-0.1311700344 -0.03299385682 0.9582957625 -0.2365588695 -0.1365778148 0.9598516226
-0.1274352968 -0.04259239137 0.9589558244 -0.2632260919 -0.1407250762 0.9522417784
-0.1282967478 -0.02392891794 0.9589225054 -0.2629551589 -0.2395483404 0.9333879948
-0.1375106126 -0.05505789071 0.9577929378 -0.07647553086 -0.1503431201 0.984773159
-0.1321254373 -0.05209646374 0.9581424594 -0.1642195731 -0.1242842004 0.9754363894
-0.1338447332 -0.04393132031 0.9586459398 -0.1734311432 -0.09142508358 0.9781475663
-0.1354008764 -0.03882833943 0.9583489895 -0.1463952959 -0.06644140929 0.984397769
-0.2118217051 -0.1307604015 0.984775126 0.189779073 0.2480203211 0.9498816729
-0.2053880543 -0.1380191147 0.9915429354 0.06229499727 0.301479578 0.9475995898
-0.1800722182 -0.04587737098 0.9585382938 0.06867112964 -0.1157169044 0.9898219109
-0.1779221445 -0.05064127967 0.9563581944 0.08023798466 -0.1201319844 0.9890164733
-0.1818389893 -0.04304264486 0.9629770517 0.04863804206 -0.1068112925 0.9928466678
-0.1861486584 -0.05158310384 0.9567323923 0.1540195048 -0.07687141001 0.9815586805
-0.1918423772 -0.05597968772 0.9579247832 0.2730206847 -0.01729818992 0.9572260976
-0.1473884135 -0.03553802148 0.9633039832 0.005337564275 -0.08945193142 0.992877841
-0.1518070698 -0.02774420194 0.9667311311 0.003602962475 -0.1510872096 0.9817119837
-0.1462342441 -0.02903977223 0.9671782255 -0.03497419506 -0.1263068765 0.9846901298
-0.1486991942 -0.02202915773 0.9705782533 -0.04866150394 -0.177213192 0.9749965072
-0.1530732512 -0.02527425252 0.9608822465 0.08909939975 -0.189040795 0.9714748859
-0.1440298408 -0.01448350027 0.9697133303 -0.08130524307 -0.2492985278 0.9633482695
-0.1385804564 -0.02553272247 0.9579845071 -0.1237304956 -0.1341506243 0.9763349891
-0.1383917034 -0.01372194011 0.9698883295 -0.1538366973 -0.2427135557 0.9564812183
-0.1373697817 -0.01634741761 0.963871479 -0.1660606563 -0.2385119349 0.9539726973
-0.1531033665 -0.1557270736 1.000414014 -0.2802151144 0.3047795892 0.9097216725
-0.1637574881 -0.1544442773 0.9935070872 -0.2188430876 0.2926801741 0.9299363494
-0.1619155854 -0.1432459503 0.9928534031 -0.2591552138 0.2689887583 0.9238580465
-0.1586733758 -0.1471850872 0.9955560565 -0.2897745967 0.2841680348 0.9117139578
-0.1566468477 -0.1394608319 0.9939562082 -0.2897195518 0.2661085129 0.9157194495
-0.161061272 -0.1319993138 0.9895370603 -0.2271685451 0.2319984883 0.9442774653
-0.1532257199 -0.135199666 0.9940368533 -0.3008558154 0.2577290237 0.9150724411
-0.155923754 -0.1325828582 1.046144843 0.6102337837 0.7562365532 -0.1482983232
-0.1599048525 -0.1340697855 1.01897347 0.1870070994 0.4936891496 0.4087279737
-0.1626357436 -0.1369226277 1.026363254 0.3380565345 0.5686448216 0.2733250856
-0.1644597054 -0.1376846135 1.01506114 0.163594529 0.4595919847 0.5057345629
-0.1715618819 -0.1428812444 1.002714753 0.02117422968 0.3452211618 0.7811765671
-0.1670602709 -0.1394031197 1.007923007 0.06706252694 0.3920659721 0.6586301923
-0.1596155018 -0.1349657923 1.035207272 0.4595585465 0.6524953842 0.08474335074
-0.1619651616 -0.135136798 1.009136438 0.03961683065 0.3992130756 0.6130051017
-0.1641445607 -0.1360067278 0.9950562119 -0.1786027253 0.2632691264 0.9021477103
-0.1602571607 -0.1305251569 1.0137918 0.1190562919 0.4539043307 0.5061234236
-0.1587928683 -0.1319171041 1.024945021 0.2855273485 0.5561427474 0.2819896936
-0.1580450386 -0.1320455819 1.030328631 0.3679186702 0.6070115566 0.1725899726
-0.1616102904 -0.131246537 1.004562497 -0.02572218329 0.3640643954 0.6957746744
-0.1563781202 -0.1290375441 1.039687037 0.5124915838 0.6964449883 -0.01838489249
-0.1438631415 -0.1376874298 1.000542998 -0.3484578729 0.2722455561 0.8969018459
-0.1397819221 -0.1409970969 1.001184106 -0.3488235474 0.2759965658 0.8956256509
-0.1475678235 -0.1303095371 1.022792459 0.153825447 0.4892804325 0.4204781651
-0.1506227106 -0.1264722645 1.027541518 0.3079538345 0.5429152846 0.2926120758
-0.1509037167 -0.1251220256 1.03272438 0.4191877544 0.5932416916 0.1826372743
-0.1494177729 -0.1238686368 1.045261979 0.6478483677 0.709159255 -0.06241590157
-0.1530735195 -0.1280516088 1.009184718 -0.0217005536 0.3739361465 0.6487374306
-0.1489939541 -0.1339498013 0.9991601706 -0.3028362393 0.2670892477 0.8956993222
-0.1485542655 -0.13145262 1.012989163 -0.02824156173 0.398171097 0.6137881279
-0.1494083405 -0.1321622133 1.005834341 -0.1586167067 0.3320371509 0.753572762
-0.1555349231 -0.1280188113 1.000062823 -0.1705517024 0.294531852 0.8128957748
-0.1543740928 -0.1267411262 1.016596675 0.1186562479 0.4535855651 0.4794692695
-0.1413336396 -0.1382714659 1.00737977 -0.2593811154 0.3152604401 0.8093153238
-0.1449231952 -0.135331586 1.010505438 -0.1464917362 0.3644895256 0.7005156279
-0.1427698433 -0.1351449341 1.016464591 -0.04880313948 0.4070898294 0.6063660383
-0.1505096555 -0.1287865788 1.041829586 0.5362910032 0.6855820417 -0.002856750274
-0.1469627768 -0.1310970634 1.031238079 0.2938295603 0.5674008131 0.2549913824
-0.1509808451 -0.1333413124 1.036093473 0.3832371235 0.6360799074 0.1111736074
-0.1473273337 -0.1277829409 1.036847234 0.4359921813 0.6208100319 0.1346491575
-0.05696398765 -0.1548962295 1.077762246 0.2593382895 -0.1507171392 0.9539344907
-0.0518017076 -0.1473741084 1.072363853 0.2302405834 -0.1283974946 0.9629993439
-0.04865862802 -0.1427008957 1.068317771 0.2147953957 -0.1165501252 0.9678109884
-0.04977000877 -0.1430518776 1.075186372 0.2516739368 -0.1113901809 0.9599312544
-0.04107735306 -0.1278154105 1.070906758 0.2692300975 -0.06867584586 0.9605355263
-0.05195617303 -0.1516296715 1.077430367 0.2490199059 -0.1355592161 0.9582309723
-0.04293402284 -0.1432095617 1.073289394 0.2359526902 -0.1084955409 0.9645364285
-0.04550325498 -0.1369422525 1.073497891 0.262486577 -0.09447827935 0.9593800902
-0.04296565428 -0.1380019933 1.068028808 0.1864663213 -0.09486685693 0.9767460823
-0.1861456931 -0.09534148127 0.9656308293 0.3852446377 0.3128913939 0.8538582921
-0.1901734918 -0.1027373299 0.9760825634 0.3113231063 0.376116097 0.8598483205
-0.1963476986 -0.1040289328 0.9790987968 0.2521983087 0.3770580292 0.8873249888
-0.2013004124 -0.09295099974 0.9750186801 0.3883160353 0.3961156607 0.8296855688
-0.1931626797 -0.08557309955 0.967214644 0.4803672731 0.3390381336 0.8080986738
-0.1899329275 -0.09106104076 0.9672524333 0.4633609354 0.3623664975 0.8061228991
-0.1935663223 -0.09376649559 0.9703338742 0.4307874143 0.3683699667 0.8198434114
-0.1967143863 -0.09864011407 0.9724774957 0.399251312 0.2989057004 0.8639614582
-0.2016322166 -0.1011851877 0.9766820073 0.3706712723 0.3079188168 0.8753338456
-0.199938938 -0.08358322829 0.9741175771 0.5219031572 0.3217287362 0.7885458469
-0.2009195685 -0.07798773795 0.9694384336 0.4694041014 0.3024799228 0.8267725706
-0.1959691048 -0.06742087752 0.9638864994 0.4242706001 0.1268204451 0.8923031688
-0.1864701957 -0.0689150691 0.9624975324 0.3849284649 0.1512958258 0.9090461135
-0.1936482042 -0.08805964142 0.9727025628 0.4958956242 0.3922800422 0.7715765238
-0.1207009703 -0.0368216075 0.9681555629 -0.3055878878 -0.1144688725 0.9444872737
-0.1267693043 -0.05134038627 0.9595137239 -0.2046331614 -0.139583692 0.9637334347
-0.1232635304 -0.04551618174 0.9621439576 -0.3046135902 -0.06988281012 0.9468924999
-0.1262388825 -0.03997428715 0.965115428 -0.2741988897 -0.100859642 0.9541137218
-0.1188556701 -0.04212666675 0.9639284015 -0.3369038999 -0.04976996034 0.939996779
-0.1422974318 -0.04593451694 0.9613597989 -0.05446707085 -0.08929491043 0.990432024
-0.1450196356 -0.04025327042 0.9578330517 0.0002899274405 -0.09843635559 0.9944076538
-0.1454788893 -0.05200759694 0.9597263932 -0.01460955665 -0.1442986131 0.9876976609
-0.1895215362 -0.124996528 0.9871160388 -0.009331672452 0.3022202551 0.9531778693
-0.1875335574 -0.1344517767 0.9885950685 0.01006605569 0.2920293212 0.9561125636
-0.2005259544 -0.134750843 0.9882299304 0.04777908325 0.2891540229 0.9554260373
-0.1921214163 -0.1378755569 0.9907034039 0.0142556699 0.3035181165 0.9522171617
-0.1940815002 -0.1424783766 0.9937213659 0.007408068981 0.3202594221 0.9470960498
-0.1960982382 -0.1284594834 0.9880378246 -0.01219480764 0.3001978397 0.9533430934
-0.2038163841 -0.1292092055 0.986448884 0.06939952075 0.2732298374 0.9580816627
-0.1540838331 -0.1500112861 0.9981863499 -0.2999215424 0.2957222462 0.9063708782
-0.1494904011 -0.1415069699 0.9982575774 -0.3424067795 0.2783972919 0.8972796798
-0.03202907369 -0.1230444312 1.069020033 0.2702772617 -0.03410376608 0.9592850804
-0.03812858462 -0.1222420335 1.069879293 0.2998072803 -0.0416569747 0.9513363838
-0.03486024961 -0.139723748 1.067606091 0.2183566988 -0.08259132504 0.9719725847
-0.02780589834 -0.1378116757 1.066714883 0.2612771094 -0.0726769641 0.9614248872
-0.02846164629 -0.1429585516 1.068862557 0.2317152023 -0.09482169896 0.9675773382
-0.02705831081 -0.1323762536 1.066435933 0.2842699289 -0.05056270584 0.9572155476
-0.03776726127 -0.1352152526 1.068485856 0.2104128599 -0.07024783641 0.9744571447
-0.03358972818 -0.1285268366 1.06684792 0.2341913432 -0.05201567337 0.9688959718
-0.02853783406 -0.1263242066 1.065758586 0.2648830116 -0.04308926314 0.9621399045
-0.1844507307 -0.09023320675 0.9628288746 0.490830332 0.3184597194 0.8093733788
-0.1824723631 -0.08592294157 0.9582180977 0.4441668689 0.2035164982 0.8714435697
-0.1887449324 -0.08333102614 0.963676393 0.497264564 0.2657419741 0.8258007765
