# .PCD v0.7 - Point Cloud Data file format
VERSION 0.7
FIELDS x y z normal_x normal_y normal_z
SIZE 4 4 4 4 4 4
TYPE F F F F F F
COUNT 1 1 1 1 1 1
WIDTH 512
HEIGHT 1
VIEWPOINT 0 0 0 1 0 0 0
POINTS 512
DATA ascii
-0.09903825074 -0.130899176 1.105026126 0.5415295362 -0.5141705275 0.6645460129
-0.1136836261 -0.1320699155 1.117412925 0.4758735895 -0.6005589366 0.6390509605
-0.1097998023 -0.1387669444 1.109793544 0.4829354882 -0.6237779856 0.6126787663
-0.1060500816 -0.131690681 1.110865593 0.5094255209 -0.5561334491 0.652361393
-0.1177209392 -0.130456835 1.122004509 0.4607628584 -0.611993432 0.640735805
-0.104205288 -0.1355853528 1.106802344 0.5117432475 -0.5719082952 0.6364018917
-0.07602594793 -0.06342414767 1.088459611 0.5548114777 0.05474608764 0.8301728964
-0.07425776869 -0.07601008564 1.087008119 0.5548114777 0.05474608764 0.8301728964
-0.08329818398 -0.08452861011 1.094945431 0.5544909239 0.05457264557 0.8303807974
-0.09567891806 -0.1261948645 1.102270365 0.4946906269 -0.3522110283 0.7629244924
-0.2304584533 -0.07915673405 1.028061867 -0.2415444404 0.07060351223 0.7078271508
-0.2319716811 -0.07355043292 1.026707768 -0.2097693831 0.07076248527 0.6890464425
-0.2300571799 -0.07867899537 1.02248764 -0.169575721 0.1703757346 0.7745048404
-0.2288123965 -0.08068266511 1.015723825 -0.08897332102 0.3027696311 0.8718705177
-0.2320355922 -0.07553941011 1.033373356 -0.2995202839 -0.04232781753 0.6183453202
-0.2373614311 -0.06674215198 1.061633945 -0.6351867318 -0.5973640084 0.208819747
-0.2350082844 -0.07500310242 1.015316129 -0.06696593016 0.2691880763 0.8583705425
-0.2363125235 -0.07312732935 1.023949742 -0.1716628671 0.1034839675 0.738106966
-0.2367137223 -0.07057165354 1.037009597 -0.3314384818 -0.1406849623 0.5522500277
-0.2374375165 -0.06861578673 1.046611547 -0.448526293 -0.3219735622 0.4166780114
-0.2364697605 -0.0717362389 1.031116009 -0.2593921423 -0.0302383285 0.6359647512
-0.07472360134 -0.08507049829 1.091348648 0.5387370586 0.04604865238 0.840596199
-0.07661777735 -0.09007164836 1.096872449 0.520488143 0.03617467359 0.8524294496
-0.08192680776 -0.06751985848 1.096197367 0.5290432572 0.06247821823 0.8455535173
-0.08668407053 -0.06449273229 1.101013303 0.5048300028 0.06974374503 0.8600059748
-0.07685356587 -0.07822699845 1.091663361 0.5530334115 0.05378402397 0.8313258886
-0.08386731893 -0.07366275787 1.100494504 0.5057114363 0.05770246312 0.8602017164
-0.07803120464 -0.08364462107 1.09670794 0.52342242 0.0417930223 0.8502796888
-0.079706043 -0.07558850199 1.095346928 0.5310475826 0.05423170328 0.8448257446
-0.08017358184 -0.08647419512 1.101159573 0.5010253191 0.03778528795 0.8643057346
-0.08365385979 -0.07685670257 1.091801763 0.5548114777 0.05474608764 0.8301728964
-0.08831743151 -0.08079923689 1.096417665 0.5217206478 0.06467546523 0.8499242663
-0.1516271383 -0.01307293307 1.004671216 -0.4448122084 0.07446223497 0.8900703788
-0.1464249194 -0.01183909271 1.008721948 -0.4609139264 0.1040711924 0.8803836703
-0.1567449123 -0.01135647669 1.001224756 -0.4192523062 0.05690343305 0.9034659266
-0.1539652795 -0.0175340157 1.002568841 -0.4567342401 0.07166464627 0.8853771091
-0.1632629484 -0.02103303 0.9954369068 -0.4371603727 0.03418189287 0.8978989124
-0.2436208427 -0.04062708095 1.000358343 0.4312030077 0.2403577566 0.8668558598
-0.2416029125 -0.0456280373 1.001324058 0.415843457 0.2642163038 0.86938411
-0.1609249115 0.0003430694633 0.9996076822 -0.3302487135 0.09306557477 0.9325287938
-0.1698051095 -0.001846872503 0.9944734573 -0.2790273428 0.03602632135 0.9539393783
-0.1660732478 -0.004583619069 0.9963902831 -0.3196179271 0.04188592732 0.9394161701
-0.1623857766 -0.01155918743 0.997187078 -0.3903380036 0.02976774238 0.9167298079
-0.1601983458 -0.006883873604 0.9999237657 -0.3691264093 0.05952966586 0.9204716682
-0.1556397676 -0.005898933392 1.00337708 -0.3876913488 0.08483285457 0.9111772776
-0.2360090911 -0.07413131744 1.049164295 -0.3573689759 -0.4394439161 0.3845570087
-0.2262680382 -0.08631147444 1.023788095 -0.1651112437 0.1862628609 0.8130933046
-0.2377318144 -0.07193835825 1.053924203 -0.3935546279 -0.5552258492 0.3052347898
-0.22963126 -0.08149540424 1.036821723 -0.2658030987 -0.1102638096 0.6096132994
-0.2270591855 -0.08314691484 1.031621337 -0.2829996049 0.05705495179 0.7033994794
-0.2233882546 -0.08694969863 1.030071855 -0.2600725889 0.1338109225 0.7607141137
-0.2314975262 -0.07600814104 1.045035958 -0.4403188825 -0.2331509441 0.4841975272
-0.2206090838 -0.0905154869 1.025779486 -0.2076869011 0.2452755123 0.8446222544
-0.190543592 -0.03987422213 0.9806751013 -0.1853026748 -0.05636827275 0.975954473
-0.1804094911 -0.03533319756 0.9856750965 -0.2808395326 -0.07360371202 0.9542055726
-0.1847553104 -0.03681325167 0.9828099608 -0.2271432579 -0.04863460734 0.9676643014
-0.1679548174 -0.0259955246 0.9922391176 -0.4000115693 0.01267625019 0.9126767516
-0.07981917262 -0.09590373188 1.093868852 0.4670544565 0.0315187797 0.8801808953
-0.08284384757 -0.1019084603 1.096523762 0.4335077107 0.02048924752 0.8995285034
-0.08532663435 -0.09367018193 1.097275853 0.4869547188 0.03407564014 0.8688856959
-0.08690367639 -0.08863375336 1.098024964 0.5182569623 0.03889376298 0.8515833616
-0.08845601231 -0.09788198769 1.100003839 0.4447984695 0.01512597408 0.8936558962
-0.1041273475 -0.1294894516 1.105048299 0.5332748294 -0.5435670018 0.6357653141
-0.1005483419 -0.1184151173 1.102843165 0.4487184584 -0.2235872895 0.8502918482
-0.1040455475 -0.1240584776 1.104361653 0.5222041011 -0.4546581805 0.7016569972
-0.1614995897 -0.1601421684 1.097000003 0.287071079 -0.7268952727 0.6238697171
-0.1567893028 -0.1608297825 1.098539114 0.287071079 -0.7268952727 0.6238697171
-0.1293069869 -0.1445008814 1.097000003 0.3016401231 -0.7210110426 0.623336792
-0.1263334006 -0.1503880918 1.097000003 0.2911497653 -0.7252479792 0.6237205267
-0.1102913246 -0.126561299 1.115966678 0.4539695084 -0.4761654139 0.7093883157
-0.1041625589 -0.1242550239 1.110507846 0.4491198659 -0.3733670712 0.759855628
-0.102331996 -0.1192201301 1.109254003 0.3981976509 -0.2272262722 0.8443161249
-0.1211995482 -0.1478402913 1.100282311 0.3423124552 -0.6923960447 0.631865561
-0.2303790003 -0.08409765363 1.020372272 -0.1364220232 0.2043509483 0.8264021873
-0.2367977202 -0.07559281588 1.041547656 -0.2995100617 -0.2890829146 0.4879806042
-0.2338688672 -0.08446857333 1.014097333 -0.09201129526 0.3145100772 0.9021981955
-0.2357786447 -0.08072101325 1.024731994 -0.1729621887 0.07548634708 0.7382044792
-0.2485171258 -0.04520508647 1.003750324 0.3215373158 0.1897763759 0.9259248376
-0.2170042396 -0.1025798917 1.017207384 -0.1396415979 0.3483270407 0.9268376231
-0.237048611 -0.06654688716 1.00485456 0.1661930531 0.3050614297 0.9355099797
-0.08764657378 -0.07025508583 1.096206665 0.52020365 0.0651306659 0.8508297205
-0.09026217461 -0.07553437352 1.096871257 0.5025752783 0.07042031735 0.8613518476
-0.07628694922 -0.07005491853 1.087000012 0.5548114777 0.05474608764 0.8301728964
-0.0801763311 -0.0549825877 1.087000012 0.5548114777 0.05474608764 0.8301728964
-0.08416669071 -0.07030531764 1.09091723 0.5548114777 0.05474608764 0.8301728964
-0.08211186528 -0.06473734975 1.089070916 0.5548114777 0.05474608764 0.8301728964
-0.2409375906 -0.03285284713 0.9947518706 0.5246452093 0.1636716127 0.8280305266
-0.234165132 -0.02481543086 0.987853229 0.5365659595 -0.01377709582 0.8305051327
-0.1952027529 -0.01543614361 0.9853176475 -0.2516756654 -0.1343920231 0.9583306313
-0.1953877062 -0.009725642391 0.9840993881 -0.1866533756 -0.1200056002 0.9713580608
-0.1902230531 -0.01083031949 0.9865749478 -0.237841174 -0.1053932458 0.9649683237
-0.2268049866 -0.07711341232 1.009788752 -0.0164334327 0.3929377496 0.9168069363
-0.2231104076 -0.08468989283 1.013566732 -0.07360189408 0.3759461045 0.9190978408
-0.2239729166 -0.08973025531 1.015398502 -0.1071038619 0.3559668064 0.927308321
-0.2352225035 -0.07436573505 1.009249091 0.02279125527 0.3567882478 0.9313310385
-0.1711144447 -0.02167683467 0.9920708537 -0.2998962402 0.002249217825 0.9536238909
-0.0884250775 -0.1156800538 1.096918821 0.3781246841 -0.005981594324 0.9238059521
-0.09740932286 -0.1111904606 1.103211403 0.4050006866 -0.08490909636 0.9015495777
-0.09316441417 -0.09985462576 1.103550434 0.4195678532 -0.001192280673 0.9071524739
-0.09265999496 -0.1081813648 1.101823807 0.3728600442 0.001451933174 0.9277892113
-0.08729176968 -0.1101900339 1.09778285 0.3862916827 0.01275811158 0.9220520258
-0.111392796 -0.1286531985 1.103142381 0.4833467603 -0.5550729036 0.6642650366
-0.1146192253 -0.1397038102 1.101546168 0.43800053 -0.6577563286 0.6018447876
-0.119446747 -0.1426128149 1.099211454 0.3889248967 -0.6716315746 0.6205814481
-0.1173842326 -0.128580898 1.101075053 0.3879257143 -0.4879825115 0.7387133837
-0.1112154573 -0.1221590042 1.103065968 0.4219636023 -0.3527922928 0.8025182486
-0.1213880256 -0.1320406348 1.100944996 0.3759963512 -0.5759553909 0.6958842874
-0.2715097666 -0.05148441344 1.003448248 0.2199412137 0.1486558914 0.9640965462
-0.2751694024 -0.05686751381 1.003741145 0.2201446295 0.1501785517 0.9637986422
-0.2734416723 -0.06259742379 1.006684303 0.2156555206 0.1758531928 0.9594162107
-0.2632567286 -0.07134125382 1.007267952 0.2072753161 0.2442874014 0.9465801716
-0.2707180083 -0.05771175772 1.001623154 0.2193154246 0.1704586595 0.9594963193
-0.2674165666 -0.06421130151 1.004459381 0.2136050016 0.2046639174 0.9535532594
-0.1418841034 -0.1481798291 1.096973658 0.287071079 -0.7268952727 0.6238697171
-0.1362367868 -0.1488900036 1.104572296 0.3098442256 -0.7122893333 0.6262710094
-0.1413237602 -0.1466303766 1.10359621 0.3036218584 -0.7162801623 0.6256148815
-0.1372527927 -0.1445507705 1.107139349 0.3262095749 -0.7017931342 0.6279965639
-0.125760287 -0.1345411539 1.12008214 0.4087199271 -0.6488737464 0.6366965771
-0.1073128656 -0.1149887368 1.11244607 0.4033962786 -0.2250570953 0.8324590325
-0.1154656485 -0.12497814 1.120597839 0.4291861951 -0.4814068973 0.7122231126
-0.1035109162 -0.1114167199 1.108846068 0.391944319 -0.1216259375 0.8825703263
-0.1012381315 -0.1070453897 1.106386542 0.3839608431 -0.02956218645 0.9228478074
-0.2411226481 -0.05651731417 1.002882719 0.3313970864 0.2460784018 0.9067569375
-0.2462430298 -0.06141999364 1.005057216 0.1732599586 0.2286638469 0.9541300535
-0.2512910664 -0.05011340603 1.006318569 0.2807687819 0.1671639532 0.9424450994
-0.2542306483 -0.04419543222 1.006739259 0.2845177352 0.1505033672 0.9450799227
-0.1067227423 -0.1178979501 1.10631156 0.4678948522 -0.2951298654 0.8159825206
-0.1141123995 -0.1261484027 1.108556509 0.4951380491 -0.5608707666 0.6613706946
-0.1159426868 -0.1247424707 1.114856601 0.4631279409 -0.5450918078 0.6545859575
-0.1129483059 -0.1212948263 1.112259388 0.4518456459 -0.4506531954 0.7007636428
-0.1304950416 -0.137909472 1.112232327 0.3760641515 -0.6662726402 0.6376891732
-0.1217789203 -0.1296925098 1.125291228 0.4433839619 -0.626344502 0.6407230496
-0.1257186681 -0.1392055601 1.114167571 0.38814798 -0.6620550156 0.6356493831
-0.118159309 -0.143500492 1.105993271 0.3945795894 -0.6578858495 0.6401611567
-0.1214149073 -0.1409043819 1.110511065 0.3951155841 -0.6575633883 0.6383667588
-0.1242513135 -0.1444690377 1.106661558 0.3697764575 -0.6738156676 0.6356427073
-0.1305245459 -0.1470058709 1.105292559 0.3374170065 -0.6945877671 0.6306831837
-0.1290240884 -0.1433478147 1.109697223 0.3586713076 -0.6809610724 0.6324772835
-0.1164490655 -0.1382297426 1.112800121 0.4335283339 -0.6401383877 0.6330252886
-0.1126863882 -0.1420995295 1.106860399 0.4429301023 -0.644258976 0.6216816306
-0.1338069439 -0.1486700922 1.096765757 0.287071079 -0.7268952727 0.6238697171
-0.1426572651 -0.156125173 1.096699715 0.287071079 -0.7268952727 0.6238697171
-0.1391146183 -0.1525819898 1.100592375 0.287071079 -0.7268952727 0.6238697171
-0.2215608805 -0.1074002236 1.016065359 -0.1080044508 0.3633524179 0.9238827229
-0.2281360924 -0.1030472517 1.012914181 -0.09033124894 0.3611012101 0.9268095493
-0.2342579514 -0.09572461247 1.009054184 -0.08048635721 0.3499816954 0.9328351021
-0.2333240211 -0.1116407663 1.013834357 -0.0520725213 0.3925183713 0.9169775844
-0.2298853248 -0.1163786575 1.01634264 -0.05512336642 0.3994540274 0.9136428833
-0.2286263704 -0.08632602543 1.012459159 -0.07384126633 0.3603740633 0.9291228056
-0.2330135703 -0.08563995361 1.008514524 -0.04783723876 0.3662537336 0.9279426336
-0.2371180654 -0.08890151232 1.007000089 -0.06122251227 0.3545143604 0.9322909713
-0.220758304 -0.05228555202 0.9831799865 0.4988178313 0.2307705879 0.830556035
-0.2212211937 -0.04475117847 0.9781410098 0.4475052953 0.1018416286 0.8879823685
-0.2173120677 -0.04782993719 0.9760338664 0.3319190741 0.1270726621 0.9303740263
-0.2150912136 -0.05161028355 0.9802784324 0.3531092405 0.1899172217 0.8875108361
-0.2082969546 -0.04815777764 0.9788717628 0.1745159477 0.1045813188 0.9292005301
-0.2011383921 -0.04297428951 0.9751828313 -0.06385637075 0.006670089904 0.9953898191
-0.2100497931 -0.04545514658 0.9740014076 0.1191484481 0.08869024366 0.9775916934
-0.08463316411 -0.06002542004 1.095099807 0.533342123 0.06118828431 0.8429876566
-0.07845265418 -0.05972277373 1.092199564 0.5451701283 0.05763912201 0.8359277248
-0.151199311 -0.0004005213559 1.000406265 -0.4102689624 0.1237681359 0.9030553699
-0.1479114741 -0.00292200502 0.996165216 -0.4426017106 0.1308435351 0.8862447143
-0.147329405 -0.004967226181 1.003374457 -0.4434777796 0.1279054284 0.8871119618
-0.2136837244 -0.04022233933 0.9745691419 0.1850336343 0.04416871816 0.9737212658
-0.2084098309 -0.03902139142 0.9741454124 0.03743992001 -0.004918811377 0.9836783409
-0.2346320301 -0.03199203312 0.9908627272 0.5993967652 0.1126380041 0.7892109752
-0.1996030211 -0.005711503327 0.9817903638 -0.1319129169 -0.1290669739 0.9790918231
-0.1930571944 -0.004944800865 0.9845966101 -0.1734419614 -0.1037753299 0.9759161472
-0.1842625439 -0.003457224928 0.9878160954 -0.2212931663 -0.07223039865 0.9725008011
-0.1911823004 0.0005252231495 0.9871115685 -0.206144616 -0.1012935564 0.9714605212
-0.1969733238 -0.001350700972 0.9868015647 -0.1942186952 -0.1267771274 0.9707012177
-0.1465798616 -0.01760701649 1.003123522 -0.5038980246 0.1395286918 0.8513635397
-0.1574178487 -0.02278041653 0.9955227971 -0.4919835329 0.09025752544 0.8620476127
-0.1567857563 -0.01741436124 0.9957851171 -0.49651739 0.1357972473 0.8544357419
-0.1523203254 -0.02068467252 0.9970549941 -0.5135151148 0.1219666451 0.8487851024
-0.2213775069 -0.08440236747 1.071007133 -0.9387162328 -0.1389081925 0.09608403593
-0.2272062898 -0.07791472226 1.067241907 -0.8167791367 -0.3136101961 0.1470083892
-0.2244292945 -0.08354561776 1.045727015 -0.4872060716 -0.05855170265 0.5124579072
-0.2248144895 -0.08117161691 1.063329339 -0.7760441303 -0.2016900778 0.2173615694
-0.2192443907 -0.08857902884 1.055844784 -0.7082457542 0.046956487 0.3539929986
-0.2244147062 -0.08285292983 1.052242041 -0.5957114697 -0.1060717031 0.4035598636
-0.2185169756 -0.09066285938 1.044621825 -0.5289887786 0.1549552232 0.5431374311
-0.2178581953 -0.0927368328 1.032743931 -0.338142693 0.2653975785 0.7430884838
-0.2227870226 -0.08406622708 1.058784485 -0.7210872173 -0.0977646336 0.2975327075
-0.2183701545 -0.08895048499 1.06193018 -0.8183537126 0.03246223554 0.2540517449
-0.2265580744 -0.07972351462 1.057682872 -0.6643905044 -0.2206279188 0.3081693649
-0.2309578508 -0.07376451045 1.064585328 -0.734419167 -0.4243341684 0.1836831719
-0.2339986861 -0.09468527883 1.065981507 -0.220954299 -0.6889413595 0.4687269628
-0.2306190729 -0.09574293345 1.062127709 -0.3987099528 -0.5369502306 0.4781399369
-0.2260851562 -0.09335541725 1.069740295 -0.5691083074 -0.707744658 0.3812125027
-0.2355755568 -0.09833157063 1.060159683 -0.2037204206 -0.5199209452 0.5369028449
-0.238389492 -0.1027769893 1.050342441 -0.1445193887 -0.2518219352 0.6463223696
-0.2398799062 -0.1049447879 1.045577526 -0.110079132 -0.1230764762 0.7003275752
-0.2408785969 -0.103142865 1.039122343 -0.04761388153 0.02138748951 0.7480761409
-0.2374199033 -0.1002268791 1.055151105 -0.1493500173 -0.3912605941 0.5940939784
-0.2432837933 -0.1095220596 1.03250289 -0.02930976264 0.2261318862 0.8384742737
-0.2304017544 -0.08451701701 1.06615603 -0.5329478979 -0.6975495815 0.3161464632
-0.2243762761 -0.09133183211 1.054615736 -0.4468922913 -0.3884595037 0.5256884694
-0.2300798744 -0.08057983965 1.047700763 -0.3568967581 -0.3250348866 0.4761980176
-0.2336559594 -0.07708758861 1.056840539 -0.4299860895 -0.5541912317 0.3327216804
-0.2231430709 -0.0919733718 1.049129963 -0.3992556334 -0.262858361 0.5946414471
-0.237190932 -0.0725363493 1.061316609 -0.4584214687 -0.6897393465 0.2289343327
-0.2344424576 -0.077684246 1.064510465 -0.5004598498 -0.7175427079 0.2539372146
-0.2276915014 -0.08678717166 1.057667494 -0.4625442028 -0.492708385 0.4379169941
-0.2314104289 -0.08146413416 1.060157776 -0.4711350501 -0.5910329819 0.3472426236
-0.2252343446 -0.08550536633 1.036119461 -0.2655791938 -0.03055599146 0.6639056206
-0.2267353386 -0.08961511403 1.063079715 -0.5185078382 -0.5882163048 0.4107241929
-0.2245607376 -0.08806308359 1.042277575 -0.3275451958 -0.1446422637 0.6251789927
-0.2222639918 -0.09012876451 1.035672545 -0.2735392153 0.01720172167 0.7234600186
-0.2261481136 -0.08154441416 1.072370768 -0.9179225564 -0.2509014904 0.1138805225
-0.234898448 -0.06901612878 1.068211436 -0.7551620603 -0.581202209 0.1202544123
-0.2404156476 -0.06903064996 1.068246245 -0.464391768 -0.8625409007 0.1375030577
-0.2369414866 -0.07869330794 1.069615841 -0.4080238342 -0.8585444093 0.2336376309
-0.231468156 -0.09192696959 1.072373152 -0.3226920068 -0.8486085534 0.3844648302
-0.2324851751 -0.08695796877 1.074934363 -0.2468978763 -0.8842225671 0.3937233388
-0.2326658964 -0.07514577359 1.071137309 -0.773039639 -0.498567462 0.1553116888
-0.1790078282 -0.01817958802 0.989174962 -0.265778482 -0.05625968799 0.9606620073
-0.1728713661 -0.01819125935 0.9877744913 -0.2557445765 -0.03373509273 0.9648996592
-0.1732798368 -0.008851651102 0.9876984954 -0.2414615452 -0.05227804184 0.9678888321
-0.1845778674 -0.01530263945 0.9869285822 -0.2391178608 -0.09752908349 0.9660032988
-0.1791001409 -0.006958171725 0.9873461723 -0.2177166194 -0.06803674251 0.9734281301
-0.1849855036 -0.008898867294 0.987649858 -0.2297589034 -0.08206505328 0.969538033
-0.1779264957 -0.002612473443 0.99233073 -0.2734084427 -0.03212257847 0.9590406418
-0.1702562124 -0.01632028259 0.9924930334 -0.3381913304 -0.03168173507 0.9396396875
-0.1729437411 -0.006732760929 0.9931922555 -0.3243696094 -0.0161144305 0.9417379498
-0.1680430323 -0.01047817059 0.9938406348 -0.3554192185 0.005270971917 0.9310468435
-0.1861142367 0.002831639023 0.990055263 -0.231270209 -0.06481669098 0.9702981114
-0.177360639 -0.01051421277 0.9906811714 -0.2781780064 -0.05136829987 0.957663238
-0.1764703542 0.004155512433 0.9923197031 -0.2143527865 0.01906099916 0.9755805135
-0.08856251836 -0.0821544677 1.102636456 0.5008919239 0.05498228967 0.8634983301
-0.08299625665 -0.08193051815 1.101944804 0.4984994233 0.04695167392 0.8652980328
-0.07868443429 -0.09227894247 1.10121429 0.5005102158 0.02961585671 0.8651233912
-0.09025207907 -0.07392416894 1.103422403 0.4959875345 0.06860791892 0.8655161858
-0.09277420491 -0.07846552879 1.103976488 0.4867840409 0.061237555 0.8706553578
-0.09301216155 -0.08519463241 1.103844166 0.4703547359 0.03846840188 0.8802922964
-0.087279208 -0.1032423675 1.101302505 0.4328607023 -0.0005923956051 0.9012874365
-0.0875524506 -0.0922697559 1.102017164 0.48381868 0.02276933938 0.8738797307
-0.09505905211 -0.1159982979 1.103178024 0.3988310397 -0.1052103564 0.9027994275
-0.09182824939 -0.1207864657 1.099478126 0.4345493019 -0.168766275 0.8675352335
-0.0806613043 -0.09947304428 1.101000071 0.4752011001 0.009593895636 0.8782682419
-0.2257276624 -0.1126281098 1.041492105 -0.2375502139 0.1424084008 0.7069327831
-0.2250903547 -0.1061723679 1.051093221 -0.3841403723 -0.08712550998 0.5752595067
-0.2197356671 -0.09465112537 1.068695307 -0.8561223149 -0.09365017712 0.1880352497
-0.2253009379 -0.09763738513 1.063670039 -0.5254083872 -0.4912566543 0.4391943514
-0.218241483 -0.09541512281 1.026004434 -0.2128309608 0.324724704 0.8611295223
-0.2240424007 -0.1123375818 1.031940818 -0.1551988423 0.3491862118 0.8152114153
-0.2206277549 -0.1019669548 1.035878778 -0.3116365969 0.2769038081 0.7184911966
-0.2218668759 -0.1054511219 1.039517164 -0.3383987546 0.2636683881 0.669215858
-0.2193849236 -0.09750263393 1.049832702 -0.574962914 0.1530839354 0.4748180509
-0.2195146084 -0.09828570485 1.042618036 -0.452560842 0.2108529359 0.5961270332
-0.2221157998 -0.1065371558 1.033239484 -0.2282465696 0.3155928254 0.7760108113
-0.2214913666 -0.1034793332 1.055042267 -0.6043746471 0.1381828636 0.4072969854
-0.2229569852 -0.1083266512 1.046161771 -0.4187063575 0.2252056301 0.5685293674
-0.2194613814 -0.09875579178 1.031210423 -0.2659486234 0.2990463376 0.785577774
-0.2199748755 -0.09855432063 1.062587619 -0.7693989873 0.0609379448 0.2678298652
-0.2224252075 -0.1077716649 1.027530789 -0.125851661 0.363823384 0.8738847971
-0.2208520621 -0.1020951346 1.045660257 -0.4668594897 0.2034591734 0.5576756597
-0.2259316146 -0.1180137545 1.03087914 -0.08706176281 0.380477339 0.8501230478
-0.218689099 -0.09510777146 1.055747032 -0.6911047101 0.09854282439 0.3699949682
-0.2179519087 -0.09167594463 1.050358415 -0.6271998286 0.1291454434 0.4499594271
-0.2182395756 -0.08880831301 1.071158528 -0.9710093737 -0.03333304822 0.1011757776
-0.2263551503 -0.08795057237 1.074496508 -0.8189704418 -0.3099805713 0.1874710172
-0.2604691386 -0.05680518597 1.002129197 0.1972140372 0.1498297453 0.9679071307
-0.274299413 -0.07633912563 1.012794852 0.2289774865 0.2658355832 0.9344451427
-0.2792156041 -0.07738339156 1.016077757 0.2353657782 0.2593356371 0.9355891347
-0.2810989916 -0.06965710223 1.015162826 0.2149562538 0.1810796261 0.9591619372
-0.2599060535 -0.03988035768 1.007026196 0.2831068933 0.1429528594 0.9468789697
-0.2505366802 -0.03944289312 1.004401445 0.339672029 0.2118727565 0.9125232697
-0.2453511208 -0.03601963446 0.9987875819 0.4587088823 0.2166507095 0.8547763228
-0.2587595284 -0.04251812026 1.001122355 0.3048106134 0.1950209439 0.9240117669
-0.2542082965 -0.04044385627 0.9996502399 0.3680654466 0.197503984 0.8958414793
-0.2702281177 -0.05169754103 1.012786388 0.2392726541 0.1469116509 0.959525764
-0.2741312981 -0.05729887635 1.010272861 0.2222697884 0.1528211683 0.9627565742
-0.276930958 -0.06090068817 1.013753533 0.2234473526 0.1543621719 0.9622084498
-0.2685040236 -0.06210384145 1.011164904 0.2167493999 0.1659551263 0.9618085623
-0.2653745413 -0.04738792777 1.011835814 0.2456169426 0.1458150893 0.9581080079
-0.12717475 -0.1365922987 1.099154353 0.3352115154 -0.6760802269 0.6465982795
-0.1196009889 -0.130108431 1.105958223 0.4347472787 -0.6185184121 0.6423145533
-0.1245144308 -0.1342643052 1.109689832 0.3909168839 -0.6515799165 0.6457196474
-0.132747516 -0.1403201371 1.104896069 0.3391408324 -0.6891310811 0.6348255873
-0.1338787824 -0.1410654336 1.099052787 0.2963479459 -0.7201671004 0.62582165
-0.1281923056 -0.1369271576 1.105015993 0.3503608406 -0.6809936762 0.6371863484
-0.1204214767 -0.1305271238 1.114707947 0.4452704489 -0.6294155121 0.6358059645
-0.2309873551 -0.09227649122 1.016702533 -0.05734495074 0.3729252815 0.9238902926
-0.2363208532 -0.09943502396 1.019893765 -0.01609831117 0.3951472044 0.9158000946
-0.2389160693 -0.1039726734 1.021806479 0.005704754964 0.4069676697 0.9118205905
-0.2360370755 -0.08913575113 1.014223576 -0.05471785739 0.3695403934 0.9259829521
-0.2351877391 -0.1019241959 1.041445613 -0.2139499187 -0.0207096003 0.7014385462
-0.2366899103 -0.1039544865 1.034553409 -0.1291843802 0.1406358033 0.7798474431
-0.2411179096 -0.1061713323 1.027767777 -0.02449256554 0.3179075122 0.8577743173
-0.2332216054 -0.1003356501 1.046628356 -0.2837153077 -0.1472621411 0.6422700882
-0.2235704958 -0.09582515061 1.039591551 -0.2920275331 -0.02806211449 0.7223086357
-0.2291043401 -0.1013165489 1.026744008 -0.1105909273 0.2834140062 0.8684263229
-0.2299481332 -0.1010462344 1.033294201 -0.1710865498 0.1379567981 0.7937561274
-0.2230888754 -0.09702796489 1.02779758 -0.1740413904 0.2376167327 0.8567057252
-0.2256716639 -0.09811941534 1.033106208 -0.2064851969 0.1266482621 0.7961006761
-0.2301570922 -0.1004465446 1.039009213 -0.2284718007 0.009128989652 0.7286329865
-0.2338455468 -0.1042938307 1.029008389 -0.09264564514 0.2493330538 0.8424029946
-0.2279151082 -0.09708817303 1.052922964 -0.3922061622 -0.3145357668 0.5702123642
-0.2600639462 -0.1028439924 1.016637087 0.1475813687 0.4030200839 0.9014156461
-0.2664743364 -0.1017447785 1.015488982 0.2023716718 0.4024807215 0.8923341036
-0.2566069663 -0.1069250703 1.021452188 0.1433990598 0.4551915228 0.8781968951
-0.2636021674 -0.1050761417 1.022614956 0.2075037211 0.4073382914 0.8887932301
-0.2506170273 -0.1103699878 1.021148682 0.09373434633 0.4499302506 0.8850057721
-0.2411102504 -0.1161176115 1.022037268 -0.01047313772 0.4124238491 0.9103986025
-0.2442341596 -0.113458693 1.01815474 0.04266358912 0.4263829887 0.8996495008
-0.2465780675 -0.1085641384 1.01675117 0.05388652906 0.3974956274 0.9140185714
-0.2455901206 -0.1119909883 1.025511026 0.0139072137 0.4136281908 0.9095256925
-0.2463281751 -0.1056968123 1.022675633 0.05755456164 0.4262369573 0.9020552039
-0.2390998751 -0.09464453906 1.007661581 -0.05410852283 0.3562476337 0.9322546124
-0.238834396 -0.1010666713 1.009775877 -0.03613023832 0.3749532104 0.9254363775
-0.2387123406 -0.1110624447 1.014360428 -1.690261342e-06 0.401727736 0.9144827724
-0.2445317209 -0.1029145941 1.014564753 0.0568302758 0.3898707926 0.9185424447
-0.2492407262 -0.09094360471 1.008897901 0.04340291023 0.3377873302 0.9358714223
-0.2663516998 -0.09276968241 1.011462808 0.2083574086 0.3140515685 0.9204359651
-0.2687491477 -0.09771835804 1.012574553 0.2195026278 0.3642971516 0.9028269053
-0.2562446296 -0.09638556093 1.010095835 0.1039548218 0.3792090416 0.9126935005
-0.2613118887 -0.09787491709 1.011289001 0.1480557621 0.3841508329 0.9056558609
-0.1468961835 -0.01180339791 1.002212882 -0.4702928364 0.1117052212 0.8752771616
-0.2085550874 -0.02817142196 0.9769790173 -0.003653152846 -0.1120622531 0.986309588
-0.2118987888 -0.03375168145 0.9756627083 0.1106702685 -0.06415308267 0.9847072363
-0.2172749788 -0.01521683112 0.9825435877 0.162562713 -0.1306305379 0.9471099377
-0.2231617272 -0.01522248797 0.9826676846 0.2768431008 -0.1466224939 0.9169085622
-0.2202015072 -0.02015116252 0.9833015203 0.2673067749 -0.0984320417 0.9330617785
-0.2070534974 -0.01220849995 0.9820413589 -0.08063496649 -0.1624669135 0.9778690338
-0.2045143098 -0.007322970778 0.9827744365 -0.1133284643 -0.1704839915 0.9781820178
-0.2188852131 -0.0393617712 0.9769541621 0.3477528989 0.04555333033 0.932529211
-0.2233182788 -0.02884764411 0.9800190926 0.3828003705 -0.04265176132 0.9172947407
-0.2302497923 -0.02632168867 0.983461678 0.4981230497 -0.03137442097 0.8611388206
-0.2321241051 -0.02025035396 0.984480083 0.5085641146 -0.10583774 0.8527014852
-0.2287212163 -0.03450759128 0.9828827977 0.5217519403 0.05945877731 0.846111834
-0.2249125093 -0.03930427879 0.9802815318 0.4788265824 0.07489473373 0.871560216
-0.2625001371 -0.05122796819 0.9987460375 0.2794275284 0.1591231227 0.93445611
-0.2556729615 -0.05012878776 0.9981848598 0.3427176476 0.1790707558 0.90074265
-0.2479514182 -0.04806070402 0.9964523911 0.4386221468 0.2116522044 0.8495738506
-0.2362872213 -0.04361581057 0.9955363274 0.5441105962 0.2368261069 0.801066339
-0.1685270071 -0.03073452786 0.9885131121 -0.3322251737 -0.002014791593 0.941870153
-0.161886394 -0.02619495057 0.9929567575 -0.434989959 0.05053054169 0.8920512199
-0.1724809557 -0.02609471418 0.9880914092 -0.2866038978 -0.01596602239 0.957498014
-0.1980502605 -0.03840456158 0.9779725671 -0.1300423592 -0.0771748051 0.9872382283
-0.177546218 -0.02861703187 0.9885271788 -0.2980318666 -0.06376565993 0.9502770901
-0.1830025613 -0.02639564313 0.9856455326 -0.2913796306 -0.1057097241 0.9503508806
-0.1834523678 -0.02081470937 0.9860334396 -0.2648790181 -0.1031372771 0.9580433369
-0.1903521121 -0.01768105105 0.9844246507 -0.2065786421 -0.1262948066 0.9657883644
-0.1882013977 -0.02353012003 0.9842208624 -0.2529183924 -0.1295997053 0.9548708797
-0.1997924447 -0.01807987317 0.9805301428 -0.1287201196 -0.1665612906 0.9718184471
-0.1668962389 -0.01921729371 0.9890000224 -0.3119987845 0.02248333953 0.9485532045
-0.160870865 -0.009565471672 0.9900957346 -0.3542937934 0.0897160694 0.9264932275
-0.163778618 -0.01429979317 0.9892234802 -0.3255653977 0.0597708635 0.9414138794
-0.1556211859 -0.005762630142 0.9916295409 -0.3880177736 0.1215248257 0.9089797139
-0.1552641988 -0.0105267223 0.9940211177 -0.4476793408 0.1397903264 0.878015399
-0.1559495777 0.0003792184289 0.9890972972 -0.3502230346 0.1097675413 0.9296768308
-0.1508062929 -0.007428578101 0.993278563 -0.4292031229 0.1339580566 0.8886246681
-0.1503217965 -0.01269285101 0.9954527617 -0.4601825774 0.1436053962 0.8716006875
-0.1473313868 0.0007058765041 0.9918040633 -0.4090255499 0.1272614449 0.9021104574
-0.1520432383 0.004747381434 0.991114378 -0.37878263 0.1189420819 0.9174314141
-0.1591016203 0.003806308843 0.9938467145 -0.3606320024 0.1151763946 0.9249125719
-0.1645480245 0.004009363241 0.9936018586 -0.3254655898 0.1073062494 0.9393487573
-0.1711462885 0.003182004206 0.9909009337 -0.2290454358 0.04264428839 0.9719545245
-0.1712454259 -0.002400715603 0.9880433679 -0.2316612899 -0.005109043792 0.970877707
-0.1667049974 -0.007116004359 0.9889258146 -0.3007871807 0.01109643094 0.951813519
-0.1651708037 0.0003462947207 0.9889689088 -0.2754650712 0.06578280032 0.9581091404
-0.1456077099 -0.1507701725 1.100999951 0.287071079 -0.7268952727 0.6238697171
-0.151049003 -0.1538793147 1.100742579 0.287071079 -0.7268952727 0.6238697171
-0.1487050653 -0.1583136767 1.09792459 0.287071079 -0.7268952727 0.6238697171
-0.2653039992 -0.06013276801 1.001733661 0.2018765509 0.1828537732 0.9604389071
-0.2618130147 -0.0665936023 1.004478812 0.1957183033 0.217157647 0.9545609951
-0.2555902004 -0.0700404644 1.005463123 0.1734591424 0.2069152892 0.9620822668
-0.2575680912 -0.0642061606 1.008043647 0.1832332462 0.1968165636 0.9612722993
-0.2612732947 -0.05122034624 1.009856105 0.2394116819 0.1417352706 0.9595845938
-0.2583552301 -0.04571988434 1.009511471 0.245832473 0.1357349902 0.9582329988
-0.2520518005 -0.06163075939 1.0068537 0.1701711714 0.2100346237 0.9600505829
-0.2583670616 -0.05822551996 1.008653402 0.2055927217 0.1749534309 0.9603662491
-0.2559214532 -0.05381802842 1.00835073 0.2103218436 0.170560196 0.9592679739
-0.2643070519 -0.0646340847 1.009684563 0.2079471499 0.1721341014 0.9623014927
-0.2689738572 -0.06774735451 1.011408687 0.2144530565 0.1836010814 0.9588471055
-0.2750432193 -0.06694022566 1.013381481 0.2161803991 0.1861363351 0.9579156041
-0.1952712089 -0.04209207371 0.9832226038 -0.1591687799 -0.06959953904 0.9573833346
-0.2195547819 -0.05931396782 0.9910822511 0.5708800554 0.3313959539 0.7418018579
-0.2103259265 -0.05102455989 0.9827285409 0.2638438642 0.1599613428 0.8755296469
-0.2159519643 -0.05502209812 0.9859025478 0.43151775 0.2478841096 0.816983819
-0.212592721 -0.05186633766 0.9888081551 0.3209394515 0.1871156991 0.8080128431
-0.227609396 -0.06994263083 0.9985862374 0.331567198 0.3391231596 0.8213553429
-0.2308755964 -0.0750117898 1.000954747 0.2093583047 0.3409933746 0.8531998992
-0.2340299934 -0.08032552898 1.005314112 0.017789606 0.3594711721 0.9067175984
-0.2290929407 -0.07378315926 1.006186843 0.03773716465 0.394443661 0.9068196416
-0.2232906371 -0.06487634033 0.9962677956 0.4195814133 0.3562920392 0.7836294174
-0.2686207592 -0.04847345501 1.007037163 0.2328701615 0.1456412971 0.9613605738
-0.2645893395 -0.04292459786 1.008527756 0.2618853152 0.1302498132 0.9558297396
-0.2676163614 -0.04602085054 1.002513289 0.2534424663 0.1297611892 0.9578502774
-0.2238483727 -0.09699995816 1.014135003 -0.1080462486 0.350327909 0.9299854636
-0.2295698822 -0.09426111728 1.011517882 -0.09175176173 0.350007236 0.9318709373
-0.2271169424 -0.09903874248 1.020264983 -0.09091014415 0.365825057 0.9234793186
-0.2223519236 -0.09674932808 1.021459818 -0.1250465512 0.3591707945 0.92253685
-0.2317878455 -0.1027828604 1.021179914 -0.04859600961 0.383026123 0.9197301865
-0.2191281915 -0.09681896865 1.017447352 -0.1422951221 0.3503509164 0.925337255
-0.2487279177 -0.09798710793 1.012021661 0.06673876941 0.400259763 0.9121627212
-0.2504028678 -0.1022404209 1.014679074 0.09906338155 0.392424643 0.9125534892
-0.2558967173 -0.1011968851 1.013868213 0.1299823672 0.3944114149 0.9068081379
-0.1904566586 -0.03517097235 0.9850972295 -0.2748869061 -0.1539906561 0.9490498304
-0.1992537677 -0.02294913679 0.9834116697 -0.2220094353 -0.1454456896 0.9630522728
-0.1910019219 -0.02894627117 0.9821202159 -0.2227252573 -0.1115081608 0.9640920162
-0.2004478872 -0.03384302929 0.9770520926 -0.1226942912 -0.1000743657 0.9844143987
-0.1957219839 -0.03125337511 0.9795635343 -0.1728724092 -0.1057594046 0.9740914702
-0.2017744035 -0.02777396515 0.9780784845 -0.1242530569 -0.1170176417 0.9820317626
-0.1955545694 -0.02611930668 0.9809615612 -0.1863344014 -0.1198865026 0.969827354
-0.2106128186 -0.02114502713 0.9817208052 0.005240309518 -0.1312091947 0.9791814685
-0.2168051153 -0.0252775494 0.97761935 0.1737541407 -0.09498476237 0.9739943147
-0.2142347991 -0.01940106787 0.9777070284 0.07210885733 -0.1485004723 0.9836148024
-0.2123964131 -0.01070493367 0.9790691733 -0.01049301028 -0.1769396067 0.9834137559
-0.2072378397 -0.02325065061 0.9772990346 -0.07018766552 -0.1388358027 0.9866307974
-0.2075017095 -0.01659032516 0.9779491425 -0.05503027141 -0.1870633215 0.9803056121
-0.2188019603 -0.0311764311 0.9779307246 0.2800674438 -0.04388054088 0.9528468251
-0.2510483861 -0.04221587256 0.9956933856 0.4349482059 0.1822486669 0.863396585
-0.2598928511 -0.0460036695 0.996737957 0.3466583788 0.1670777053 0.9056763649
-0.2668024004 -0.04892411456 0.997571826 0.2777199447 0.1553303152 0.9387461543
-0.2526122928 -0.04740937799 0.9937925339 0.4151370525 0.1673385054 0.8662266135
-0.2384332567 -0.04463885725 0.9905956388 0.5536140203 0.1827348918 0.7950544953
-0.2459463328 -0.04040329158 0.9949190617 0.4855335355 0.1899934709 0.8386244774
-0.2414795756 -0.04634451121 0.994787693 0.5163521767 0.2321140021 0.8086695075
-0.2335733771 -0.07084016502 1.003943086 0.2435262799 0.2998834848 0.9108097553
-0.2439685166 -0.07689619064 1.00605619 0.06206478551 0.2559261322 0.9612852931
-0.2393343151 -0.08089710772 1.006124735 0.02236072533 0.3092992902 0.9381067157
-0.2299333811 -0.06300809234 0.9974441528 0.4347590804 0.3097976744 0.8095384836
-0.2261705399 -0.05899648741 0.99413836 0.5447121859 0.3273260891 0.7524982095
-0.245404914 -0.07026445866 1.005366445 0.109515667 0.2403970063 0.9641336203
-0.2498946339 -0.06714577973 1.004772663 0.1288663447 0.2119126022 0.9680060744
-0.2636049092 -0.07532195002 1.011268258 0.2190320939 0.225066036 0.9483204484
-0.2553579509 -0.07520229369 1.006432891 0.1901955754 0.2186927497 0.9561917782
-0.2586549819 -0.08842655271 1.010336637 0.1441787779 0.2988128662 0.9364126921
-0.2636635602 -0.08583306521 1.009783506 0.2169456333 0.2726430595 0.9337820411
-0.2540963888 -0.08207331598 1.008349419 0.1327578723 0.2658217251 0.9493390918
-0.25023368 -0.07270536572 1.007885933 0.1437658519 0.2200444341 0.9621924758
-0.2682020366 -0.09882921726 1.020810366 0.2278984338 0.3703656197 0.8988863826
-0.2727818787 -0.09240476042 1.01479733 0.2512898147 0.321972996 0.9119887948
-0.2787082493 -0.08449216932 1.016033053 0.2490829527 0.3142114282 0.9157658219
-0.2696659863 -0.082003057 1.011108041 0.2355451286 0.2877546549 0.9275350571
-0.2735358775 -0.08685578406 1.01292932 0.2502493858 0.3017115295 0.9196211696
-0.2650032341 -0.08056336641 1.008990407 0.2264780998 0.2767934799 0.9330816865
-0.269343853 -0.07703731209 1.013899565 0.243383199 0.2505152225 0.9368289113
-0.2309844941 -0.120847404 1.02178371 -0.01986838505 0.4173163176 0.9084708691
-0.2325546145 -0.1193152443 1.027082443 -0.007647583727 0.4140513241 0.9101915956
-0.236335054 -0.1189368442 1.018309712 -0.02498246729 0.4153040946 0.909256041
-0.2282963693 -0.1076758131 1.047302842 -0.2771941423 -0.1066966131 0.6621445417
-0.2291398346 -0.1000757962 1.057646394 -0.4215943217 -0.3880880773 0.5297947526
-0.227936551 -0.115090102 1.036872625 -0.1321092248 0.1754960567 0.7951462865
-0.2348135561 -0.1154830605 1.03126657 -0.06166904047 0.3047941029 0.8600711226
-0.2298063487 -0.1033966318 1.052368283 -0.3490799367 -0.2479716539 0.5963119864
-0.2312056571 -0.1114224568 1.039767027 -0.1757511795 0.0871560201 0.7552963495
-0.2367019802 -0.1097815856 1.038106084 -0.1585710794 0.114516139 0.7713214755
-0.2416846454 -0.1136221662 1.028915524 -0.03638165444 0.3463980258 0.8835977912
-0.1955247521 -0.0361340791 0.9822899103 -0.2188208848 -0.1286106408 0.9668205976
-0.2115798593 -0.04323943704 0.9861510992 0.163523227 0.09541893005 0.850353241
-0.2051688284 -0.04572158307 0.9859715104 0.08351489902 0.05666746199 0.8794502616
-0.2018689513 -0.04105272517 0.9840787649 -0.05283473805 -0.01738981158 0.9195819497
-0.2043830454 -0.03642017394 0.9830414057 -0.08002150059 -0.03549100086 0.9236507416
-0.2084650695 -0.02752689086 0.9827285409 -0.02473848127 -0.09472144395 0.9463057518
-0.2193758339 -0.03348435834 0.9843056798 0.3203016818 0.01026004832 0.8871459365
-0.2233445793 -0.02558590472 0.9847839475 0.3857271671 -0.0364722982 0.9021367431
-0.2141320109 -0.02889994718 0.9836633205 0.1457967013 -0.05189844593 0.9202441573
-0.2299625129 -0.03883680329 0.9859309196 0.5903418064 0.1282828599 0.7920668125
-0.2222641259 -0.05233096331 0.9904485941 0.5287588835 0.2717357278 0.7512191534
-0.2125998288 -0.03448438272 0.9836192727 0.1321222931 -0.01284203865 0.9046928883
-0.2162645459 -0.03937803954 0.9856359363 0.2700394094 0.07053404301 0.8590288758
-0.2235562205 -0.04617407918 0.9887492061 0.5248546004 0.1979188025 0.7878417969
-0.217566669 -0.04861475155 0.9886454344 0.3690129519 0.1983394325 0.7926518321
-0.2295461893 -0.033256419 0.9878598452 0.5575808287 0.0792561993 0.8230168819
-0.251219362 -0.05544915795 1.002645373 0.2630395293 0.1670653075 0.9376598001
-0.246168524 -0.05551351607 1.000830531 0.331007421 0.213042587 0.8976720572
-0.2347590774 -0.04994833469 0.995677948 0.5361605287 0.2868750989 0.7915283442
-0.2311400622 -0.04507751018 0.9894453287 0.6012346148 0.2060199827 0.7695827484
-0.2272157222 -0.04489672929 0.9852334857 0.596586287 0.1770157516 0.7820979357
-0.2281723619 -0.05105352402 0.9900684953 0.5660871863 0.2540267408 0.7813532352
-0.2366515398 -0.05588270724 0.9981745481 0.4303410351 0.2970833778 0.8344050646
-0.2413157672 -0.06184263155 1.00209713 0.2544718385 0.2693530619 0.9071612954
-0.2381480336 -0.05167481303 1.00103879 0.4256391227 0.2858610749 0.8568015099
-0.2300686687 -0.05396139994 0.9956517816 0.5376164317 0.3137598336 0.773522377
-0.2333043665 -0.06232590228 1.002591133 0.3538896739 0.3065348268 0.882455945
-0.2496944368 -0.07926503569 1.00646925 0.1176952049 0.2552247941 0.9552101493
-0.2471780777 -0.08602760732 1.006697297 0.059498135 0.3116028309 0.9408707619
-0.2444160581 -0.09115961939 1.007334232 0.004604265094 0.3522435725 0.9344930053
-0.2590324879 -0.08099802583 1.012707353 0.19303298 0.2544382513 0.9466040134
-0.2541799247 -0.08988243341 1.015413046 0.148048088 0.3249424696 0.9301650524
-0.2498300225 -0.09830513597 1.01930809 0.09873853624 0.3777934313 0.9157317877
-0.2421533018 -0.0964975059 1.018239617 0.01494584884 0.382070899 0.9189324975
-0.2492694259 -0.09261295944 1.01691699 0.09913929552 0.3342765272 0.9304733276
-0.2407809347 -0.08537753671 1.012711048 -0.001086121425 0.3333745003 0.9352170229
-0.2447517663 -0.08876124024 1.014678001 0.0457983613 0.3337917924 0.9329994321
-0.2431618869 -0.0803828612 1.026223779 -0.09853305668 0.02591495775 0.7281367183
-0.2400636375 -0.08203056455 1.020979166 -0.08892934024 0.147156328 0.8029424548
-0.2426688969 -0.07470109314 1.042811871 -0.25898242 -0.3364280462 0.469843924
-0.2410247177 -0.06952087581 1.057775617 -0.4188792408 -0.6608282328 0.2343151867
-0.2512090504 -0.08203096688 1.022470832 0.03805823624 0.0916037634 0.803299427
-0.2493683398 -0.08485321701 1.013951898 0.09399617463 0.2819872499 0.9315354824
-0.2461641282 -0.07499658316 1.038398147 -0.168054387 -0.2512850463 0.5417461991
-0.2432752848 -0.07708396018 1.022318482 -0.04143353179 0.09645648301 0.7756922245
-0.2410152256 -0.07833724469 1.011443138 0.04094015807 0.3318191767 0.9328630567
-0.241686359 -0.07367023081 1.033947587 -0.1722441763 -0.153016299 0.593785584
-0.2423882484 -0.07526135445 1.028437495 -0.1108066738 -0.03478195518 0.6798012257
-0.2458746433 -0.07953123003 1.017374396 0.0347029008 0.2014636546 0.8596793413
-0.2505468726 -0.07952385396 1.028262377 -0.02206280828 -0.03549493477 0.7106544971
-0.2440595776 -0.07053892314 1.053514242 -0.338508606 -0.5755447745 0.3051565588
-0.2496002614 -0.07763709873 1.034530759 -0.09353460371 -0.1699172407 0.6122908592
-0.2429218441 -0.0710772723 1.048454881 -0.3011083305 -0.4660040438 0.3779757917
-0.2473978251 -0.0790040195 1.011059403 0.09787676483 0.279284656 0.9477805495
-0.2682483494 -0.09242203832 1.018076658 0.2480395138 0.3220833838 0.9112358093
-0.2632197738 -0.09471660852 1.018267632 0.2245129943 0.3504197001 0.9052327871
-0.2629206479 -0.08756481856 1.015331984 0.2386198044 0.3048904836 0.9180919528
-0.2217468023 -0.1120979935 1.022285342 -0.07510512322 0.3809720278 0.9186069965
-0.2194588482 -0.1029204279 1.021732807 -0.1203593165 0.3635225892 0.9213994145
-0.2268670201 -0.1192755103 1.024983883 -0.01605872437 0.4083572328 0.9125760198
-0.226119861 -0.1150360629 1.019956827 -0.04693442211 0.3853496611 0.9210914969
