# .PCD v0.7 - Point Cloud Data file format
VERSION 0.7
FIELDS x y z normal_x normal_y normal_z
SIZE 4 4 4 4 4 4
TYPE F F F F F F
COUNT 1 1 1 1 1 1
WIDTH 512
HEIGHT 1
VIEWPOINT 0 0 0 1 0 0 0
POINTS 512
DATA ascii
0.0868820399 0.02588655055 0.9009872675 0.8143850565 -0.1256457865 0.5626919866
0.1274730116 0.07646031678 0.8761295676 0.3252983689 -0.2253848165 0.9026303887
0.1290902346 0.06330017 0.8688358665 0.2645131052 -0.3768398166 0.8765236735
0.128315255 0.07013877481 0.8725731373 0.2929329574 -0.3000586331 0.8905911446
0.210924983 -0.0185838975 0.922752142 -0.7261731029 0.2178035229 0.6506885886
0.06948716193 -0.06894551963 0.9867786169 0.2550419271 0.8393785954 0.4799970388
0.0673481822 -0.06031145528 0.9865208268 0.2728082538 0.8124246597 0.5141664743
0.1074994504 -0.0754930228 0.985503912 0.2607028484 0.8375999928 0.480062753
0.1122845709 -0.07317562401 0.9887521863 0.2607028484 0.8375999928 0.480062753
0.105120331 -0.07032562792 0.9843847752 0.2607028484 0.8375999928 0.480062753
0.0977641046 -0.07589793205 0.9840567112 0.2607028484 0.8375999928 0.480062753
0.102269493 -0.07825378329 0.9840896726 0.2607028484 0.8375999928 0.480062753
0.1101366207 0.07409121841 0.8917194009 0.5959001184 -0.1555126011 0.7867655158
0.07604627311 -0.07297404855 0.9830670357 0.2550419271 0.8393785954 0.4799970388
0.1363886297 0.07699798793 0.8760797381 -0.01931812614 -0.3629860878 0.9165043235
0.137853086 0.07775413245 0.8817082047 0.08908120543 -0.1236952692 0.9270242453
0.1470824033 0.0740962252 0.8840819001 -0.1055101156 -0.3284291923 0.8772454858
0.142603606 0.0748346746 0.8799693584 -0.1136251315 -0.3466457725 0.8898823261
0.1319895983 0.07762511075 0.8821576238 0.1839146465 -0.09228449315 0.9256133437
0.1246704236 0.07860197127 0.8841691017 0.3528984189 -0.0271695964 0.9067034721
0.1286270916 0.07515268773 0.8854828477 0.2283635736 -0.1804530174 0.8766195774
0.1177774817 0.07672223449 0.8883647323 0.4802379012 -0.07901869714 0.8502646685
0.1278149784 0.08096130937 0.8795363307 0.2546239495 0.002466809703 0.9562174082
0.1195261702 0.0761687234 0.8834007382 0.4521239698 -0.0594182089 0.8751706481
0.1990555674 -0.02293806337 0.9241251349 -0.6890346408 0.3269858956 0.6350645423
0.1396909207 0.02294795588 0.8630957603 0.02764491923 0.2147523761 0.9658660293
0.1427979022 0.01679622009 0.8647189736 -0.05556118488 0.3071707785 0.943926394
0.1250063926 0.05393378064 0.881596446 0.4221069217 -0.4533895552 0.7740014791
0.153949514 0.03979085386 0.8648348451 -0.2709511518 -0.2050197124 0.9303897619
0.1476620734 0.03891785443 0.8637917638 -0.1765347421 -0.2065874189 0.952198267
0.1364637166 0.03710804507 0.8625960946 0.1506577432 -0.1936457753 0.9506229162
0.1372187883 0.0440649651 0.8634469509 0.1143438667 -0.4210533798 0.887321651
0.1473146826 0.03296540305 0.8635050058 -0.1781889051 -0.03999227658 0.9745829701
0.1524566412 0.03059928119 0.8645230532 -0.2590540051 0.03218347952 0.9552267194
0.1354618967 0.02643349022 0.8622913957 0.148598671 0.1364107132 0.9729593396
0.138701722 0.03125387058 0.8625468016 0.08789809048 -0.004490409978 0.9736210108
0.2038589567 -0.02713632584 0.9268493652 -0.6744730473 0.3641046584 0.6247711182
0.2020267993 -0.03434416652 0.9292362332 -0.641643703 0.4573651552 0.6087262034
0.2063699812 -0.01087107882 0.9229567051 -0.7199252248 0.2055375278 0.6628441215
0.2022974491 -0.01561586093 0.9223140478 -0.7225959301 0.2293705642 0.650551796
0.1630421728 0.06570066512 0.8829272985 -0.2841409147 -0.4992801845 0.8159169555
0.1668324322 0.06759605557 0.886181891 -0.2766639292 -0.5250932574 0.8031304479
0.1510232687 0.06837950647 0.8804675937 -0.2056820095 -0.5050587058 0.8337364793
0.07863920927 -0.06479652971 0.9862276316 0.2550419271 0.8393785954 0.4799970388
0.0741795525 -0.05910886079 0.9870852828 0.2550419271 0.8393785954 0.4799970388
0.0720063597 -0.06459634751 0.9877151251 0.2550419271 0.8393785954 0.4799970388
0.08380096406 -0.06537538767 0.9844694734 0.2550419271 0.8393785954 0.4799970388
0.08061760664 -0.05979285017 0.9856306314 0.2550419271 0.8393785954 0.4799970388
0.1380636096 0.009097645059 0.8679190874 -2.800897846e-06 0.468331337 0.8662678599
0.1015353203 0.06079382822 0.8986609578 0.6948306561 -0.3304385245 0.621997416
0.1431045383 -0.05261519551 0.9200063944 0.3895000815 0.4570352435 0.7976923585
0.1554510444 -0.03874959424 0.9111453295 0.1765455604 0.5205104351 0.7038720846
0.1461274326 -0.03374671564 0.9122307301 0.3993654847 0.4055006802 0.739838779
0.142250061 -0.02427195758 0.9108245969 0.6092422009 0.2483776957 0.7425723076
0.126816541 0.03095734306 0.864266932 0.3351992071 0.006541742943 0.9312193394
0.1328367889 0.03293267637 0.8627454042 0.2323611826 -0.05149115995 0.9607353806
0.1280793697 0.03802851215 0.8634670377 0.3299530447 -0.2051998675 0.9031225443
0.1098356396 0.06793504953 0.8950958848 0.6041135788 -0.2289460748 0.7596963048
0.08813454211 0.03690648824 0.9045255184 0.8209609389 -0.2285631001 0.5227683783
0.09100074321 0.04485064372 0.898655057 0.7976286411 -0.2971713245 0.5180227757
0.09258252382 0.04711428657 0.9086588621 0.7799939513 -0.3302047253 0.5270730853
0.09024041891 0.04328362644 0.9129613638 0.7997531295 -0.2928276658 0.5214149356
0.09698760509 0.05081798881 0.9058724642 0.7620110512 -0.3494999111 0.5398421884
0.06045642868 -0.06469430774 0.9903149605 0.3035646379 0.7901850343 0.5216271877
0.06661857665 -0.07088160515 0.981485188 0.2624195814 0.8318989873 0.4863266945
0.1400855631 -0.03871907294 0.9133870602 0.4302958548 0.4481197298 0.7835655212
0.08817227185 0.03588661924 0.9118773937 0.8090474606 -0.2243566364 0.5358045101
0.08985434473 0.02562241629 0.9060949087 0.806319952 -0.09268532693 0.5637956262
0.08867441863 0.03079402819 0.9042254686 0.8183732033 -0.1631691158 0.5401824713
0.08880337328 0.03094124421 0.9095176458 0.8079388142 -0.1648583412 0.5489891171
0.09084890783 0.0186723657 0.9031571746 0.8034661412 -0.007062815595 0.5835248232
0.193127811 -0.01181338914 0.8979700804 -0.6676793098 0.1450921148 0.7271541953
0.1916085333 -0.02209130116 0.9052850008 -0.6367326975 0.3159706593 0.6937149763
0.1995615065 -0.02081787772 0.9097023606 -0.6704978943 0.2798033655 0.6784661412
0.1945978701 -0.01692960598 0.9029451013 -0.658924222 0.2227813154 0.7076968551
0.2035056502 -0.0235540159 0.9147697687 -0.6804115176 0.3191051185 0.656727314
0.1890805811 -0.01918428764 0.9010519385 -0.6327182651 0.2711784244 0.7125031948
0.1855953634 -0.02530314401 0.9038661718 -0.6066408753 0.38154158 0.6957771778
0.194287613 -0.03013024852 0.9082511663 -0.5659676194 0.4174306393 0.6877117753
0.1858370751 -0.03407638147 0.9028775692 -0.4924626946 0.4852333963 0.7076897025
0.1867378801 -0.03310142457 0.9099664092 -0.5778041482 0.5030730367 0.6340997219
0.1813346297 -0.03730121255 0.9057045579 -0.4603120685 0.5415576696 0.6862539649
0.179718256 -0.03754381463 0.8989403844 -0.4169633687 0.5337490439 0.7335570455
0.1748768091 -0.04169609025 0.9032263756 -0.345495522 0.5938313603 0.7220267653
0.1772537977 -0.04127791524 0.9086393118 -0.3805826604 0.606025517 0.6702983975
0.1603675634 -0.03286006674 0.9110967517 0.1297177523 0.4409489036 0.6814860702
0.1540026218 -0.03240121156 0.9100598693 0.2959548533 0.4195231199 0.7008320689
0.1782576591 -0.03602064773 0.9136827588 -0.3478654027 0.5330650806 0.627004981
0.1478886306 -0.02323613502 0.9105955362 0.5038419366 0.2502108216 0.7199044824
0.1666134894 -0.03160827607 0.9124131203 -0.02400643192 0.4329573214 0.6625972986
0.1681423783 -0.03857408464 0.9114585519 -0.101816237 0.5549773574 0.6575658917
0.173279345 -0.03732106462 0.9125804305 -0.2270119637 0.5445948243 0.6420432925
0.1842892021 -0.03218235075 0.915415585 -0.48178491 0.4805208445 0.6089119315
0.1568941176 -0.02796320617 0.911346674 0.2461091876 0.3500441015 0.6923040748
0.1621952653 -0.03920281678 0.9103040695 0.0476652123 0.5529857278 0.6755825877
0.1930306554 -0.02366426587 0.9161680937 -0.6711299419 0.3805751801 0.6285541058
0.1853107512 -0.02662658133 0.9157935381 -0.4784713686 0.4234999716 0.6214253306
0.1652638167 -0.02563555166 0.9130643606 0.04347790778 0.3355838656 0.6701893806
0.1722046435 -0.02676052973 0.9140108824 -0.1413574219 0.3730036616 0.6505262852
0.160050109 -0.02362821251 0.9123509526 0.188446939 0.2970980108 0.6890916228
0.1948366016 -0.03263902292 0.9222872257 -0.6400921941 0.4794660211 0.5999946594
0.1972842216 -0.02766975947 0.9220448136 -0.6713635921 0.3986320198 0.6215829253
0.1905381531 -0.0360853374 0.9185803533 -0.5608814955 0.513994813 0.6129885316
0.1746689081 -0.04610226676 0.9123274684 -0.2804538608 0.6842147112 0.6434645653
0.180308342 -0.04329379275 0.9159151912 -0.3728628159 0.6357540488 0.6307878494
0.1845346838 -0.04068551585 0.9179535508 -0.4490643144 0.5934824944 0.6208782792
0.1955242604 -0.03743566573 0.9263385534 -0.5868089199 0.5135673285 0.6071658731
0.1906711757 -0.03918423504 0.922909379 -0.5206208229 0.5515204668 0.6142909527
0.1960441619 -0.02856634371 0.9144689441 -0.6490932107 0.4217277169 0.624795258
0.2031244189 -0.03199504688 0.9237847328 -0.6594291329 0.4379432499 0.609090209
0.2064688206 -0.02714082599 0.9207273126 -0.6822997332 0.3641509116 0.6291573644
0.153097108 0.02093213797 0.8657009602 -0.2912426591 0.2529096007 0.9079239368
0.1462935656 0.02426337451 0.8635106683 -0.1428138614 0.1951529533 0.9674403667
0.1431242675 0.0640489012 0.873111546 -0.1255913228 -0.4591612518 0.8757424951
0.1402633041 0.06832056493 0.8741956353 -0.0785997808 -0.4190442264 0.8967301846
0.138510868 0.0649041459 0.8812521696 -0.04000763223 -0.3245612383 0.9353666306
0.1525465548 0.07025741786 0.8856521249 -0.2216283977 -0.4785222113 0.8428770304
0.113761954 0.06469987333 0.8922204375 0.5459476709 -0.2296507359 0.7875370979
0.1273962408 0.06705946475 0.8897475004 0.2705367208 -0.3119688928 0.8097341657
0.1200030148 0.06572479755 0.8912740946 0.4230563343 -0.2690038681 0.7951177955
0.1428415477 0.06971029937 0.8870207667 -0.04017913714 -0.4058934152 0.8338424563
0.1158788875 0.07061350346 0.8910453916 0.4972025454 -0.1906410307 0.8065159321
0.1234225258 0.07334242016 0.8885263801 0.3266620338 -0.2167274654 0.8357155323
0.1338266581 0.07065374404 0.8854945898 0.09003517777 -0.3098376989 0.8644382954
0.1200781986 0.05389284343 0.8844250441 0.5000143051 -0.4360242784 0.7438167334
0.1674849689 0.05191239342 0.872900784 -0.310066998 -0.4326250255 0.8409565091
0.1697734594 0.05632837862 0.8766461611 -0.3213766217 -0.4597506523 0.8238946199
0.1624148935 0.05443230271 0.8740527034 -0.2670089602 -0.5218436718 0.8086358905
0.1822508126 0.0433075875 0.8819284439 -0.4510539472 -0.09823982418 0.878489852
0.1845448166 0.01752660424 0.8961345553 -0.4251321554 0.3074653745 0.8393130898
0.1886960864 0.02309951372 0.8960620761 -0.5331382751 0.1422552615 0.8081921935
0.1917433888 0.0142232934 0.9023059011 -0.574569881 0.2483298331 0.7735493779
0.1859100908 0.03012517467 0.8909913898 -0.4914396107 0.06014115363 0.840886116
0.1401247382 0.06055529043 0.8839319348 0.04141683877 -0.4575699866 0.8711570501
0.1575022489 0.06574834138 0.884695828 -0.2253052145 -0.5740488768 0.7865508199
0.1625819504 0.07011137158 0.8898873925 -0.2502664626 -0.5490978956 0.797101438
0.1724118739 0.05850377679 0.8831252456 -0.3621441126 -0.4848271012 0.7884704471
0.1777422279 0.05574551597 0.8818778992 -0.4017713964 -0.4213083386 0.8055897355
0.1581965834 0.02729287185 0.8666152954 -0.3848957717 0.1252265126 0.9067029953
0.1513097882 0.06269227713 0.8756910563 -0.1775698662 -0.5207257867 0.8315944076
0.1451428086 0.06977330893 0.876416564 -0.1799624264 -0.4569474161 0.8687524796
0.1506296247 0.02737589553 0.8850961924 -0.2680840492 0.09693000466 0.7615695596
0.1359878927 0.05420419201 0.8822190762 0.08358108997 -0.3870039582 0.8735365868
0.1454810351 0.04485256225 0.8826083541 -0.1176696867 -0.2563382387 0.8028939962
0.1391394883 0.04903939739 0.8827264309 0.009914978407 -0.2967237532 0.8495839834
0.1468342245 0.03219761327 0.8847418427 -0.1840205938 0.02003668435 0.7900757194
0.14358069 0.05892974511 0.8802903295 -0.03678138927 -0.5603516698 0.8199982643
0.1493138671 0.06190245599 0.8814246655 -0.1254905462 -0.5805823207 0.8011397123
0.1499408484 0.06470542401 0.8863443136 -0.0929422155 -0.5137836933 0.8325970173
0.1482497603 -0.04997927696 0.9120852947 0.380079329 0.4568189383 0.8037641644
0.1502840072 -0.04691991583 0.9085518122 0.3722353578 0.4699341059 0.7995365858
0.1447056979 -0.0444166325 0.9106885791 0.4017861187 0.4532116055 0.7957012653
0.1484656185 -0.01852812804 0.8959854841 0.4969297349 0.1819742024 0.846642375
0.1486079395 -0.01146756485 0.8887591362 0.3358803391 0.2682235539 0.8594642282
0.160889715 0.006432172842 0.8928775191 -0.2205861807 0.4560238123 0.7626163363
0.1557923555 0.003531085793 0.8936340809 -0.1261684895 0.3733433187 0.7965619564
0.1317363977 0.01037785411 0.8681312203 0.1773135662 0.3558167219 0.9112011194
0.1260251105 0.01169522293 0.8695542216 0.2860206962 0.300486356 0.9091538787
0.1185202599 0.01130734943 0.8723510504 0.4426249862 0.2602278292 0.8491157293
0.1321727484 0.005727721378 0.8709597588 0.1094140634 0.6112574935 0.7554388046
0.09753274173 0.05562398583 0.8991729617 0.7307662964 -0.3577733636 0.5667167902
0.1029630229 0.06533511728 0.8952437043 0.6619680524 -0.261025846 0.6825819016
0.1131754518 0.009510689415 0.8758687973 0.5389627218 0.2453345358 0.801869154
0.1095219851 0.01759304851 0.8769654036 0.5935277343 0.155589506 0.7815862894
0.09042699635 0.02250769921 0.8958646059 0.8147366643 -0.02128520794 0.5789535642
0.1929097176 0.007122093346 0.9047298431 -0.6248133183 0.222014904 0.7444354892
0.1962350756 -0.004673226736 0.914280057 -0.666146934 0.2513075769 0.69664675
0.2017704844 -0.003334716894 0.9173284769 -0.6779631972 0.2259210497 0.6948109269
0.1946782321 0.003346989397 0.9094655514 -0.627505362 0.2594753206 0.7291788459
0.1993934065 -0.01164362021 0.9197759032 -0.7042444348 0.2387644351 0.6661946774
0.1898876727 -2.334812052e-06 0.891574204 -0.6226136088 0.2216086984 0.7374408841
0.1535759866 -0.03288759664 0.8979943395 0.3737576008 0.3971484303 0.8348675966
0.1481484324 -0.0418863073 0.9056096673 0.3940245211 0.4547425508 0.7978093028
0.1527154595 -0.03811051324 0.900865674 0.3694452643 0.453771919 0.8065707088
0.1533153653 -0.04348585382 0.9044188261 0.3591768146 0.4821252823 0.7976261377
0.1522497535 0.01530626323 0.8669093847 -0.2958799005 0.4257051647 0.84745574
0.1850221306 0.03480873257 0.8870130181 -0.5082172155 0.01191654429 0.8376145363
0.1857729256 0.02382463217 0.8831520081 -0.5676495433 0.2909911573 0.7580530047
0.1885204315 0.01938692294 0.8920899034 -0.5765376687 0.2700081468 0.7640261054
0.1456829607 0.05789082125 0.8707522154 -0.1189093813 -0.4886341393 0.861556232
0.1536997706 0.05277347192 0.86882478 -0.173598066 -0.5286923051 0.8301596642
0.152026698 0.05757974088 0.8715471625 -0.1763697714 -0.5138793588 0.8378441334
0.1554855704 0.04716249183 0.8663594723 -0.2429229319 -0.3997029364 0.8783047795
0.1476774365 0.05007831007 0.8674142957 -0.1071401238 -0.4898103774 0.8617488742
0.1506575197 0.04482727498 0.8647891283 -0.2023982853 -0.3568829 0.9081875682
0.1343947798 0.06563666463 0.8717957139 0.08452484757 -0.4036649168 0.9028534889
0.1299550831 0.05689509585 0.8670071959 0.2500115633 -0.4207134247 0.8596089482
0.1320373118 0.05100091919 0.8653342128 0.2201566398 -0.4817273319 0.84040308
0.1356645525 0.05643428117 0.8685351014 0.0954342559 -0.4767556787 0.8686885834
0.1350866556 0.07159934938 0.8742810488 0.04037805274 -0.3647940457 0.9273079038
0.1422231346 0.0531578362 0.8682988286 -0.01782269031 -0.4973320663 0.8617501855
0.1394570023 0.04926121235 0.8660414219 0.03102609701 -0.4782932401 0.8681019545
0.1285782456 0.04491761327 0.8635171652 0.3171167672 -0.4272421598 0.841422379
0.1086508855 0.06285528839 0.8969414234 0.6398099661 -0.3046171963 0.6931129098
0.1130991653 0.0593473427 0.8939622045 0.5967009664 -0.3818619847 0.688967526
0.1234950796 0.04383042827 0.8652282357 0.411211133 -0.3937102258 0.8202508092
0.1592107713 0.05027866736 0.8806096315 -0.2925911248 -0.3750349879 0.7792249918
0.1666930765 0.024385456 0.8854553699 -0.4332974851 0.2655574083 0.7117845416
0.1660397947 0.03041126765 0.8841050863 -0.4100656509 0.1124581918 0.7301159501
0.1619395465 0.0397548452 0.8826429844 -0.3470482528 -0.1135235578 0.7510582805
0.1573246419 0.04457975551 0.882398963 -0.2926683724 -0.2209849805 0.7558194995
0.1668435484 0.03638719395 0.8824689984 -0.3997189701 -0.04473976046 0.7518137693
0.1674386412 0.04821880162 0.8794335723 -0.3705226481 -0.3522898555 0.7923582196
0.1406236887 -0.0469388254 0.9198085666 0.3650837839 0.4706012905 0.7856456041
0.149802953 -0.0429298766 0.9138631225 0.2050011456 0.5483004451 0.7373982668
0.1477635503 -0.0472894907 0.9173744917 0.2268348634 0.5339456201 0.7528840303
0.1434397548 -0.04239483923 0.9158919454 0.329092443 0.4916600585 0.7662903666
0.1539261639 -0.04950562865 0.9160397053 0.1206331924 0.5820606351 0.7290099263
0.160550788 -0.04902367294 0.9134976864 -0.01503372751 0.644333601 0.6965955496
0.1661332846 -0.04943969473 0.9111449718 -0.08506610245 0.6837056875 0.6873500347
0.09453619272 -0.0702110678 0.9841136336 0.2607028484 0.8375999928 0.480062753
0.08721000701 -0.07299206406 0.9835698605 0.2600620091 0.8378013968 0.4800553024
0.09998958558 -0.06540583819 0.9845308661 0.2596092224 0.8379436135 0.4800500572
0.09666007757 -0.0623713769 0.987365067 0.2567496002 0.8388420939 0.4800168574
0.110119395 -0.06926567107 0.9914892912 0.2596743703 0.8379231691 0.4800508022
0.1039306074 -0.06593603641 0.9895126224 0.2582182884 0.8383806348 0.4800339043
0.0923152715 -0.06403707713 0.9847330451 0.2584098876 0.8383204341 0.4800361395
0.08767212182 -0.05993913114 0.9853208065 0.2560382783 0.8390655518 0.4800086021
0.1562784016 -0.05125972629 0.9096048474 0.303319037 0.5262773633 0.7919085622
0.1620227993 -0.04890276119 0.9072768092 0.1785345525 0.5811083317 0.7892922163
0.1634626985 -0.04389910772 0.9024825692 0.07418489456 0.5535359979 0.8248695731
0.1588387042 -0.0460796766 0.9036286473 0.244936958 0.533366859 0.8065918088
0.1499703079 0.008620764129 0.8704221249 -0.284925282 0.5910051465 0.7450392246
0.1223949194 0.03813265637 0.8662511706 0.4246472418 -0.2106215656 0.8672169447
0.1211200058 0.0324052982 0.8672084808 0.467794925 -0.02749986947 0.8793265224
0.08890238404 0.03134101257 0.8962197304 0.8304684758 -0.1383948624 0.536167562
0.09707842022 0.01181180403 0.8909735084 0.7094688416 0.1176903546 0.6918244362
0.09076377749 0.01731102727 0.8960827589 0.7826613784 0.0278575588 0.6155110598
0.09375438094 0.01208963338 0.8953957558 0.7486231923 0.07613245398 0.6479263306
0.09601957351 0.02264167927 0.8911620378 0.7501331568 0.04805463552 0.6574034691
0.1252508759 0.006115669385 0.8728405237 0.2650682926 0.5047491193 0.7554712892
0.1189400256 0.006794756744 0.8749144673 0.4103409052 0.3846465647 0.7733150125
0.1243013144 0.003192639211 0.8784433007 0.372929424 0.4253487289 0.7499672174
0.1338271946 -0.001303037396 0.8802883029 0.298387289 0.4472602308 0.7627550364
0.1398194283 -0.006986156572 0.8857242465 0.3628887236 0.3447661996 0.7952916026
0.1233639568 0.0002900545078 0.8832706809 0.5107675791 0.2869659066 0.777403295
0.1110466346 0.006536807399 0.880235672 0.5902335644 0.2762953043 0.7571479082
0.1305669844 -0.004444274586 0.8866647482 0.506483376 0.2491690665 0.7985242009
0.1343387663 0.00223816745 0.8747230768 0.1468053907 0.6024882197 0.7309928536
0.1409470588 -0.01114426926 0.891372323 0.4955299795 0.1996904016 0.8279100657
0.1165778339 0.004877972882 0.8798820376 0.5098252296 0.3277719915 0.7564101219
0.1258105189 0.01750217192 0.8676044941 0.3011498749 0.2435226738 0.9158019423
0.1497479379 0.001213092939 0.8977713585 0.2709898055 0.1677383035 0.9010764956
0.1406130493 0.007049276493 0.8898763657 0.36089167 0.1560108513 0.9000800252
0.1362024993 0.01131915208 0.8835151792 0.3004291952 0.2069922537 0.8689860702
0.1474009752 0.004437380936 0.8927147388 0.170703277 0.2320112884 0.8644559383
0.1222002059 0.02390951104 0.8679131866 0.4171769321 0.1144119874 0.8897987604
0.1343918741 0.01745713502 0.8774933815 0.1247510687 0.2695583403 0.8160458207
0.1338369548 0.03808728606 0.8797342777 0.134732008 -0.09666725993 0.8556130528
0.1289558262 0.03575849533 0.8768609762 0.2603878677 -0.06739528477 0.8697429299
0.1257809103 0.02934251912 0.8743897676 0.3431299329 0.03832900524 0.8700293303
0.1369380951 0.0326702185 0.8807123899 0.05631946772 0.00671108393 0.8341064453
0.1429405361 0.01844504476 0.8821458817 -0.09468186647 0.2729547024 0.7856842279
0.1536263227 0.009445496835 0.8867038488 -0.3668637574 0.458209306 0.7291389704
0.1292121261 0.0217655804 0.8752773404 0.2566975653 0.1807132214 0.8433571458
0.1396019757 0.02286291867 0.8809191585 -0.009975134395 0.1866688728 0.8062686324
0.1406371146 0.02864421904 0.882178247 -0.03771197051 0.08694604039 0.8128780723
0.1395895481 0.03734998032 0.8826928139 -0.01264070533 -0.06958394498 0.8326348066
0.1488742679 0.01796276867 0.8852316737 -0.2467525005 0.2959696949 0.7624879479
0.1372238547 0.0426363647 0.8820884824 0.0469379425 -0.1688555181 0.8511375189
0.1422486454 0.01252350118 0.8810514808 -0.07571843266 0.3759958148 0.777528882
0.1334868968 0.04921983555 0.8809167743 0.1414157599 -0.2944153845 0.8771549463
0.1324727684 0.02905239351 0.8779010177 0.171577692 0.05979629979 0.8443303704
0.1301329285 0.04341900349 0.8784261942 0.2286226898 -0.2000077069 0.8792324066
0.1286436021 0.02341876924 0.8649277687 0.2732500434 0.1677363515 0.9410769343
0.1263968796 0.04866618663 0.8784331083 0.3474910855 -0.4221757948 0.7840489745
0.1246358007 0.0419055298 0.8765141368 0.3912629783 -0.2930386961 0.7920861244
0.1301408857 0.05355253071 0.8803835511 0.2390612811 -0.4426273704 0.8349758387
0.1338426024 0.02063766122 0.8639648557 0.1516307145 0.2275469452 0.9587407112
0.1033877507 0.02090247348 0.8822885156 0.6747501493 0.1148274243 0.7279239893
0.1010073274 0.01740205474 0.8861213923 0.693446219 0.1173998639 0.7082023025
0.1027204841 0.02791707031 0.8814663291 0.6776307225 -0.008260576054 0.7236645222
0.1852867603 -0.01828033291 0.896253109 -0.5437696576 0.2498250604 0.7911266088
0.1558699161 -0.01025934052 0.9042305946 0.2455987334 0.1945883632 0.8351400495
0.1805752963 -0.02513784543 0.9098377824 -0.4136582315 0.3791680932 0.6649187207
0.1658557504 -0.02292798832 0.9086564183 0.006929985248 0.3086641729 0.7057831883
0.1557263434 -0.01729929075 0.9065104723 0.2792007029 0.2357820868 0.7712839842
0.1509674042 -0.01264813263 0.9048511386 0.3987340629 0.1896393597 0.8203168511
0.1763837934 -0.02068115212 0.9082593918 -0.3098820448 0.3363913894 0.7113819718
0.162834838 -0.01512837503 0.9060302377 0.0625590235 0.2506253719 0.781013906
0.1541078389 -0.02201072685 0.9101869464 0.3534737229 0.2612981796 0.7191775441
0.1261036545 -0.005025079008 0.891618371 0.5958444476 0.2427937239 0.7638215423
0.1381831318 -0.01241505519 0.8964963555 0.5669685006 0.2023561597 0.7942676544
0.1447637677 -0.01445437409 0.8946474791 0.5167599916 0.1644907743 0.837997973
0.14428702 -0.01656312495 0.8998999596 0.5595592856 0.1852214187 0.8039979339
0.1328131109 -0.009191659279 0.8944681287 0.5808793306 0.2208261788 0.7798871994
0.1485412568 -0.007664204109 0.9033576846 0.4463525712 0.1506104916 0.8678581119
0.1435972452 -0.009802337736 0.9039179683 0.509768784 0.1701553613 0.8239679337
0.1144554615 0.00136449642 0.8902618885 0.6267192364 0.2231490612 0.7446071506
0.1382861435 -0.01116487291 0.9032504559 0.5680760741 0.19076325 0.7851414084
0.1246617064 0.001690325676 0.892773509 0.5396314263 0.1909353435 0.802781105
0.1407947689 0.00108795939 0.8973425627 0.4141373038 0.1436160654 0.8867245317
0.1351141632 -0.007240257692 0.9003118277 0.5513094068 0.1878006458 0.7959290743
0.1290373355 -0.001558323158 0.8956665993 0.5391863585 0.1880443245 0.8034254313
0.1363555193 -0.001826640218 0.8977365494 0.482206732 0.1665637344 0.8415387273
0.1395996064 -0.01591653749 0.9061433077 0.6090598106 0.2020660043 0.7582555413
0.1226178855 -0.004274636041 0.8954331279 0.6213052869 0.2163992971 0.7488278747
0.1295340806 -0.007242697757 0.8988444805 0.5970101357 0.2048466951 0.7653833628
0.1470724344 -0.002502013231 0.9009192586 0.4018397629 0.1360173225 0.8953273296
0.1436855793 -0.01935991086 0.9065974355 0.6140172482 0.2100616693 0.7606444359
0.1192447618 -0.0001794636919 0.8872385621 0.5998759866 0.2591999471 0.756213963
0.1098351181 0.004531126004 0.8869905472 0.6296910644 0.2304897308 0.7416681647
0.1316389591 -0.01227473468 0.9010612965 0.633500874 0.2245767117 0.7397536039
0.1738464534 -0.03435131907 0.8966483474 -0.2892227173 0.4914765656 0.808013916
0.16820997 -0.04069072008 0.8994407058 -0.08661842346 0.5423420072 0.7919207811
0.1785869151 -0.03183440119 0.8966444135 -0.3893680871 0.4523286521 0.79248631
0.1809068918 -0.0265704561 0.8970611691 -0.4598599374 0.3810853064 0.79357481
0.1838161945 0.002950191265 0.9029844999 -0.3657099903 0.17609106 0.8607194424
0.1836845726 -0.01063131355 0.9146069884 -0.380880028 0.202712819 0.7420194745
0.1854685694 -0.001908983104 0.9074105024 -0.408419013 0.1889465302 0.8130706549
0.1889720112 -0.005164464936 0.9107533097 -0.4896034002 0.202256009 0.773842752
0.1646774858 0.0001257221447 0.9023908377 0.05038524419 0.1441711336 0.8942904472
0.1706582904 -0.000482959178 0.903854847 -0.08162635565 0.1570975631 0.8707216382
0.1755719483 -0.001524429652 0.9055217505 -0.1908032149 0.1687890738 0.8466104865
0.1906084269 -0.009249228053 0.9145129323 -0.5309326649 0.2135475278 0.7330337167
0.1807602644 -0.006754089147 0.9108224511 -0.3115736842 0.1893078834 0.7849343419
0.1699329466 -0.01118605863 0.9071395993 -0.1200108528 0.2314108312 0.7954863906
0.1893696636 -0.0180052314 0.9150503874 -0.5623815656 0.2924176455 0.6792715192
0.1843431592 -0.0170005057 0.9126728773 -0.455801934 0.2874180079 0.7054624557
0.1786665767 -0.01473405119 0.910482645 -0.3237719536 0.2656963766 0.7408031225
0.164505437 -0.005134405103 0.9067437649 0.0462680459 0.1554666162 0.8490546346
0.1737025231 -0.01526020654 0.9074708819 -0.2341681719 0.2823254168 0.7589378357
0.1959330589 -0.0165468175 0.9193660617 -0.6729924679 0.2595973909 0.6591773629
0.1574121863 -0.003172147553 0.9036266804 0.2022817284 0.1406785697 0.8887863755
0.1916506588 -0.004583470989 0.897056222 -0.6825897098 0.1803311557 0.7022327185
0.191501528 0.000953798648 0.897508204 -0.6551176906 0.2173217237 0.7154818773
0.1896291524 0.01109470613 0.8924018145 -0.6023772955 0.2859313786 0.7338910699
0.1883990616 0.0153759364 0.8883087635 -0.5732320547 0.3384995461 0.7384477258
0.2030863613 -0.009423496202 0.9162570238 -0.7073493004 0.2004382312 0.6769536734
0.1962743402 -0.00591957476 0.9063302279 -0.6926594973 0.1801309735 0.69768399
0.2072454393 -0.01494789962 0.9192227125 -0.7143629789 0.2215028405 0.6630453467
0.198186025 -0.01187966205 0.9057033658 -0.70593822 0.1824141741 0.6826159954
0.2039714009 -0.01621213183 0.9123862982 -0.7122657299 0.2103385776 0.6678129435
0.2071430534 -0.01956695877 0.9160894752 -0.7124173641 0.2419838309 0.6566990018
0.1931881309 -0.001918232418 0.902515471 -0.6800315976 0.1672329605 0.7135183215
0.1690905839 0.01262706146 0.8889105916 -0.4671485424 0.5481533408 0.6915607452
0.1751893163 0.01131215412 0.8956365585 -0.3457269967 0.3822655976 0.8074939847
0.1858938038 0.01317002345 0.900954783 -0.434756875 0.2826225162 0.8479562998
0.1620969325 0.004700797144 0.8987386227 0.0360279195 0.2344734669 0.875176847
0.1868392825 0.007586437743 0.9010000229 -0.4342771769 0.2014081478 0.8697258234
0.1797975153 0.007694711443 0.9010000229 -0.2863371074 0.2100777775 0.8743251562
0.1584892273 0.001367108431 0.9010000229 0.1841862649 0.1418195218 0.9144325852
0.1751466542 0.004230771214 0.9010000229 -0.1764841825 0.1656067073 0.8912757039
0.1676528156 0.005360523704 0.9010000229 -0.02253136411 0.1892374009 0.8921778798
0.143019706 -0.03700494021 0.9085099101 0.458889544 0.4318628013 0.7751533389
0.1470435709 -0.03441684321 0.9029123783 0.4851774871 0.4026150107 0.7737555504
0.1506717354 -0.02552605048 0.8970483541 0.4336158335 0.2874986529 0.8474723101
0.1587514281 0.02160242386 0.8675589561 -0.4189892709 0.3035144508 0.8353370428
0.105234243 0.05679333955 0.8974032402 0.6794680953 -0.3895128667 0.6123745441
0.1283301115 0.06048733369 0.884421885 0.2235325128 -0.3457770348 0.8768750429
0.1331785023 0.06342036277 0.8813772202 0.05822633207 -0.2895191312 0.938919425
0.1231976971 0.06231189519 0.8869368434 0.3283098936 -0.2926667929 0.8521564007
0.119467169 0.0447615087 0.8700388074 0.4725844562 -0.4167965949 0.7689424753
0.117806606 0.04885583743 0.873495698 0.5011025667 -0.4072038531 0.7492044568
0.1190679893 0.06613547355 0.8786813021 0.4865194857 -0.2203992307 0.8270607591
0.1246667206 0.05370002612 0.8684422374 0.3897776008 -0.3919573128 0.8187316656
0.1183065027 0.05928741023 0.8768878579 0.4966102839 -0.2929389477 0.7942878604
0.1164206639 0.06883115321 0.8823347092 0.5311195254 -0.1750302464 0.8183556795
0.1227480173 0.06261063367 0.8738055229 0.4297657907 -0.2815110385 0.83775419
0.1242036372 0.07102862746 0.8763497472 0.4458455145 -0.1991907358 0.865419209
0.1672329456 0.06209760532 0.8847929239 -0.3068823218 -0.5476581454 0.7748163939
0.1629792005 0.05988983437 0.8784916997 -0.2537930608 -0.5456115007 0.7943152785
0.1554625332 0.06159733236 0.8822055459 -0.2206199765 -0.5802129507 0.7830932736
0.1589616686 0.04080788419 0.8667526245 -0.3241408169 -0.2074892372 0.915753603
0.1515962332 0.05611684918 0.8805646896 -0.1984682381 -0.5009071827 0.7845900655
0.1618492752 0.02734166011 0.8855088353 -0.3689358234 0.2029193193 0.7155580521
0.156826973 0.03469054028 0.865902245 -0.3319867253 -0.05127326027 0.9382860661
0.1560717523 0.02699062414 0.8851915002 -0.3227930069 0.1410390139 0.7355288267
0.154211238 0.03229935467 0.8843372464 -0.2796503305 0.02159722894 0.7478559613
0.1639999151 0.01472873986 0.8874359131 -0.4437705874 0.4672678411 0.6940449476
0.1567796618 0.01469799504 0.8869005442 -0.4015438259 0.3676906228 0.7198860049
0.1542283297 0.02126551233 0.8858250976 -0.3467046618 0.2164651155 0.736030817
0.1521698385 0.0381426625 0.88339746 -0.2322010696 -0.1097828224 0.7614013553
0.158490032 0.007735792547 0.8879663348 -0.4538380206 0.5142170787 0.7063339353
0.1499172896 0.04948637635 0.8817008138 -0.1501348466 -0.34111467 0.7815676928
0.1797956675 0.03791898862 0.8832644224 -0.4651042521 -0.04139145836 0.8516569734
0.1830232739 0.02448549122 0.8915057778 -0.4249887466 0.2124615163 0.844663322
0.1735522151 0.02105615288 0.885606885 -0.5213485956 0.3743152618 0.7330729961
0.1754351556 0.01612014323 0.8903591633 -0.4706914425 0.4190177619 0.7612575889
0.1742350161 0.0276828222 0.8829031587 -0.5324166417 0.2280356437 0.7483536601
0.1750841141 0.03899126127 0.8799529672 -0.5051481128 -0.07015296817 0.787471056
0.1732691228 0.03336470202 0.8817640543 -0.4938960075 0.06104822457 0.7624471188
0.1722604632 0.04511878267 0.8791636825 -0.4318448007 -0.2722018361 0.7955536246
0.1801445484 0.02352007478 0.879670918 -0.5758181214 0.3415082991 0.7403667569
0.1588014066 -0.01205210388 0.8868238926 0.1217666194 0.1979008615 0.9405034781
0.1537752002 0.002093203831 0.8759847283 -0.2283102572 0.514993012 0.7688381076
0.1574352533 -0.003006416839 0.8802576065 -0.1492093354 0.3857764304 0.8368781209
0.1528491378 -0.005377926398 0.881028235 0.03460403159 0.3754917681 0.8507061601
0.1394782513 0.00479770219 0.8714582324 -0.05581341684 0.6768662333 0.7150856256
0.1471796781 -0.0006760891411 0.8766524196 -0.01744143479 0.5122035146 0.7885947227
0.1462642401 0.003942884505 0.8727757931 -0.162476182 0.623236835 0.7326503396
0.1535951495 -0.01455691364 0.8914784789 0.3483942449 0.1800591946 0.9125064611
0.1410021782 -0.001785434899 0.8778592944 0.1476522684 0.5234974027 0.7805467248
0.1528959721 -0.009838747792 0.8848785758 0.1918179542 0.2737197578 0.9007300735
0.1456511468 -0.006154919975 0.8823837042 0.2092316449 0.4031359255 0.8288791776
0.09355337918 0.0358167626 0.890653193 0.7754935622 -0.1896141618 0.5966302156
0.1243742332 0.006913033314 0.8889778852 0.5111050606 0.1884270161 0.8232955933
0.1134215668 0.01167886984 0.882583499 0.5758840442 0.2204912156 0.7815741897
0.119377397 0.008569935337 0.8865265846 0.5409662127 0.20196715 0.8037000299
0.1322338581 0.004005586263 0.8931049109 0.4643149078 0.1664957702 0.8537909389
0.1068471447 0.01036201976 0.8821942806 0.6288518906 0.2237921953 0.7423844934
0.1296738386 0.01386397053 0.8804416656 0.4325227737 0.1655839682 0.8828756213
0.1312056631 0.01007113233 0.8856788278 0.4446758926 0.1669519246 0.8717081547
0.1349572986 0.007396434434 0.8894287944 0.430976361 0.1588301212 0.8793340325
0.1255666018 0.01164417714 0.8834005594 0.4813489318 0.1834043711 0.847304821
0.1250041872 0.0169134289 0.8761579394 0.4514127374 0.1761783361 0.8719044924
0.1193064824 0.01227315143 0.8824045658 0.5294029713 0.20360668 0.8143055439
0.1379332244 0.004389686044 0.893617928 0.4259253442 0.1539226919 0.8807029724
0.1162901893 0.01490703318 0.878726244 0.5372406244 0.209298104 0.8107307553
0.1065858901 0.0166596286 0.8822223544 0.6345542073 0.1809353381 0.7445874214
0.1140339151 0.02459134348 0.8728364706 0.5530790091 0.1045141369 0.8262562752
0.1102150008 0.03533136845 0.8813465834 0.5917606354 -0.219029516 0.6962636113
0.1092401445 0.02944992669 0.8811130524 0.604275465 -0.08572155982 0.7156419754
0.1107902005 0.02331893891 0.8805224895 0.5866931677 0.02823177539 0.7384852171
0.09937593341 0.02646068297 0.8863043785 0.711830318 0.02469817176 0.6881363988
0.114583686 0.03797897696 0.8790363669 0.538436234 -0.269672662 0.7181948423
0.117630139 0.02952056751 0.8753669262 0.5021993518 -0.05218758807 0.7892287374
0.1185350418 0.02054375969 0.8735263944 0.4922569096 0.1573206931 0.8376594782
0.1128749624 0.04296882451 0.8811230063 0.5587299466 -0.3971635401 0.6773142219
0.1139275879 0.03181783482 0.8788996935 0.5472544432 -0.1375660151 0.7366477251
0.1191656515 0.03758690506 0.8764015436 0.4876219332 -0.245304957 0.7540094852
0.1179235429 0.0445340611 0.8787485361 0.5035606623 -0.4204698205 0.7044710517
0.1122489125 0.05020774156 0.8779318929 0.5749169588 -0.318429023 0.7407845855
0.1127995253 0.04460310563 0.8756854534 0.5682694912 -0.394675225 0.716016233
0.1141112819 0.05538269877 0.8788515329 0.5556442738 -0.2928800285 0.7608748674
0.1206005886 0.04971195757 0.8791895509 0.478172034 -0.5388572216 0.6910133362
0.1468821764 -0.02745173313 0.9012488127 0.5155474544 0.3043039441 0.7970004082
0.1429702342 -0.03142613173 0.9086310267 0.5066190958 0.3579580784 0.7743673325
0.1798684299 0.005707388278 0.8853315115 -0.4219229519 0.2385520339 0.8335815072
0.175636977 0.01574538834 0.8797805309 -0.5274738669 0.4145483375 0.7187619805
0.1815366894 0.01817651838 0.8816987872 -0.5486567616 0.4175135195 0.7195022702
0.1815196723 0.01284318138 0.8835808039 -0.4940091074 0.3369781673 0.7711682916
0.1821272671 -0.006308219861 0.8903134465 -0.4154762626 0.1008737013 0.8741848469
0.1845274866 0.004008898512 0.8879092932 -0.4776876569 0.2228672057 0.8143199086
0.1873865426 0.009323556907 0.8873082995 -0.5527995229 0.2976619601 0.7583442926
0.1052688658 0.0495929569 0.8860498071 0.5944535732 -0.4124317765 0.683475852
0.1073311642 0.06097751483 0.8877194524 0.5948793292 -0.2924124897 0.733546257
0.1119891927 0.06578346342 0.8852934241 0.560703516 -0.2182106972 0.7822482586
0.1077899635 0.06664849818 0.8893038034 0.5999873281 -0.2415477484 0.7523155808
0.1089223772 0.05469193682 0.8839064837 0.5741549134 -0.3271114528 0.7300645709
0.1117252111 0.06095241383 0.8834779263 0.5619502664 -0.2495091408 0.7693071365
0.09114911407 0.04031548649 0.9074444771 0.7687317729 -0.2877410352 0.558848083
0.09854934365 0.04952705652 0.9007689953 0.7156791091 -0.3690927029 0.5823818445
0.09479525685 0.04469633847 0.9041765928 0.7374590635 -0.3307805657 0.5750565529
0.1008088589 0.04984199628 0.8957530856 0.6696273685 -0.3984574676 0.6199671626
0.09851644188 0.04393240809 0.8942472935 0.6837461591 -0.3425377905 0.6235284209
0.09170059115 0.03713786229 0.9003260136 0.7764459848 -0.2471084595 0.5611841083
0.0963723734 0.02977566607 0.8910295963 0.7475337982 -0.07490477711 0.6313180327
0.09916058183 0.03528713062 0.8897813559 0.6934540272 -0.1527170986 0.6634712219
0.1151039228 0.05357595533 0.8872671723 0.5530151725 -0.4247665107 0.7162659764
0.1091651469 0.0552232638 0.8916774392 0.5944447517 -0.3783988059 0.7090162635
0.1067117155 0.04179270566 0.8878877163 0.6318330169 -0.2349704653 0.6957297325
0.11074958 0.04608059302 0.887224257 0.5983681679 -0.2980332077 0.7083818913
0.1039098054 0.04627581313 0.8902614117 0.6300608516 -0.3492228091 0.6707318425
0.1132806689 0.0489333272 0.8834483624 0.5608643293 -0.4671972692 0.6752233505
0.1043942049 0.03548803553 0.8853932023 0.6550499201 -0.187391147 0.6742084622
0.1125712469 0.03977358341 0.8729393482 0.5612314343 -0.2956277132 0.7637146711
0.1160757318 0.03470166028 0.8704907298 0.5519581437 -0.0717510134 0.8264077902
0.1102300808 0.03362280503 0.8737514019 0.6011351347 -0.1185136363 0.7827783227
0.1182955131 0.02797609381 0.8693218231 0.5159273744 0.02324391529 0.8541087508
0.1102187634 0.02830317989 0.8741643429 0.5980656743 0.01077398658 0.7937205434
0.1696072072 0.04433599859 0.8716807961 -0.4091714919 -0.2263166904 0.8782144785
0.1750722677 0.05143542215 0.8768473864 -0.3930968046 -0.3704374731 0.8358625174
0.1814894527 0.04279670864 0.8762592077 -0.5070510507 -0.1217831075 0.8514900804
0.1814841479 0.05239965394 0.8803262711 -0.4421123266 -0.360460192 0.8191232681
0.1750980914 0.04493234307 0.874514699 -0.4485017657 -0.1981873065 0.8646212816
0.1801385134 0.03087423369 0.8780604005 -0.582105875 0.1956204176 0.770019412
0.1824091226 0.03714861721 0.8781383038 -0.5802195668 0.04490981251 0.8093528748
0.1673990786 0.02177223377 0.8732421398 -0.5209183693 0.3717198372 0.7598251104
0.1649728268 0.01677937806 0.8734939098 -0.5058100224 0.484996289 0.7124595046
0.1720685661 0.02408102714 0.8752385974 -0.5488830209 0.3252387047 0.7651397586
0.1810847819 0.01880640164 0.8920152187 -0.4604687989 0.3377876878 0.807834208
0.1802961975 0.03005834669 0.883489728 -0.5613800883 0.172754094 0.797554493
0.166455254 -0.03599130735 0.8966786861 -0.02742626518 0.4830452502 0.852334857
0.1690784693 -0.03126003966 0.8948374987 -0.127519086 0.4281513989 0.8720046878
0.1607322991 -0.03885277733 0.8974046707 0.1754760295 0.4941819012 0.8461765051
0.1064489484 0.04118661955 0.8786124587 0.629447937 -0.3359883726 0.6979608536
0.1029829159 0.04411840066 0.8849487305 0.6179139614 -0.4241886437 0.659342289
0.09834560007 0.0396679379 0.8863286376 0.6909986138 -0.3047160208 0.6475971937
0.09211329371 0.04077780992 0.8927958012 0.7740701437 -0.2846723497 0.5543201566
0.1005241647 0.05192411691 0.8891333938 0.6636004448 -0.3185178041 0.6664540768
0.09857046604 0.04678967968 0.8889314532 0.6815972924 -0.3528679609 0.6346235275
0.1006215215 0.05557228625 0.8936377764 0.7017066479 -0.3353844583 0.6096739769
0.183275789 -0.01317565236 0.8921723366 -0.4354180098 0.11714641 0.8727192283
0.1785510182 -0.02197367325 0.8944308162 -0.371987164 0.3021753728 0.8698949218
0.1641180217 0.04006054252 0.8691779971 -0.3978916109 -0.1512570679 0.8917764425
0.1708015054 0.03760405257 0.872279644 -0.4696407318 -0.03222109005 0.8747963309
0.1708149612 0.03005840257 0.873552084 -0.5148288012 0.1657796949 0.8283202052
0.1755640954 0.03401596099 0.8750303388 -0.5367242098 0.09187373519 0.8276258111
0.1655446291 0.03326209635 0.8701527119 -0.4591293037 0.04980003089 0.8843796849
0.1669136584 0.02727965638 0.8713251948 -0.4982010424 0.1982821524 0.8373408914
0.166846633 0.01128938608 0.8767811656 -0.4631879926 0.4149744809 0.7507861257
0.1682285666 0.006375590339 0.879404664 -0.4266916215 0.3468873799 0.7862261534
0.1719613969 0.01136849821 0.8794910908 -0.4787411988 0.3715801537 0.7527383566
0.174053371 0.004712857772 0.8829073906 -0.4133183658 0.2575473487 0.8215040565
0.1599011719 0.01392975636 0.8717576861 -0.4857117832 0.5034133196 0.7107455134
0.1767374277 -0.009116031229 0.8888511062 -0.2789341807 0.04988581315 0.9567258954
0.1670522243 -0.0005183895119 0.8811865449 -0.3910006285 0.3419497311 0.793211937
0.164857626 -0.01457324997 0.8888830543 0.01386651397 0.122015819 0.9830613136
0.1625725478 0.002976292279 0.8790075183 -0.3830166757 0.423527807 0.7504374981
0.1722062528 -0.007281937636 0.8852181435 -0.3304368854 0.2028794289 0.8790967464
0.1644905955 -0.006700304337 0.8844875097 -0.1784086376 0.2537562549 0.8781231046
0.1698037833 -0.01217151619 0.8878091574 -0.154150337 0.1351369172 0.9465889931
0.1552125812 0.007638591807 0.873709023 -0.3747066259 0.5809533596 0.7000172138
0.160356611 0.007299418561 0.8763805628 -0.4465325475 0.5085482001 0.6948410869
0.1716349721 -0.02067500167 0.8907748461 -0.1676549613 0.2377023548 0.9325817823
0.1741814315 -0.01566420868 0.8890781999 -0.2038319707 0.1176550537 0.9581543207
0.1679706872 -0.02616974153 0.8917295933 -0.08912979811 0.3462780416 0.905967474
0.1735407263 -0.02699754573 0.8941631317 -0.2667722702 0.3799465001 0.8717332482
0.164786309 -0.02125316486 0.8889999986 0.03016505018 0.2413660139 0.9599860311
0.1602928936 -0.03267545626 0.8941159248 0.1819144189 0.4037387371 0.8826448917
0.1563682854 -0.02532933094 0.8931427598 0.2844565809 0.3032150567 0.9014838934
