# .PCD v0.7 - Point Cloud Data file format
VERSION 0.7
FIELDS x y z normal_x normal_y normal_z
SIZE 4 4 4 4 4 4
TYPE F F F F F F
COUNT 1 1 1 1 1 1
WIDTH 512
HEIGHT 1
VIEWPOINT 0 0 0 1 0 0 0
POINTS 512
DATA ascii
-0.153653264 -0.002368498361 1.009359479 0.221313417 0.01370266173 -0.9722946882
-0.03277386352 -0.03660150617 1.10890317 -0.6876701117 0.007605059072 -0.7258980274
-0.03716957942 -0.05407837778 1.118185997 -0.674521625 0.006659319624 -0.7365931869
-0.04033355415 -0.05636547506 1.122871637 -0.6074596643 0.001355701825 -0.790384531
-0.03819524869 -0.06234743819 1.122789979 -0.5772491693 -0.001913505606 -0.8132275343
-0.1944832504 -0.04467196018 1.110085011 -0.9005096555 -0.369024992 0.2184261382
-0.180908367 -0.05447118729 1.116051793 -0.9596842527 -0.2523708045 0.06131150946
-0.1895253807 -0.03967616335 1.108704925 -0.8775170445 -0.4382114708 0.1623818874
-0.1886836141 -0.0476959534 1.1125319 -0.9075913429 -0.3540970385 0.1721013188
-0.1831918061 -0.04626460373 1.112053752 -0.9236319661 -0.3447012305 0.07495143265
-0.04735202342 -0.05205990002 1.126394868 -0.5936373472 0.01143412478 -0.7962658405
-0.04543348029 -0.05833639577 1.126671553 -0.5551255345 0.008809791878 -0.8246616721
-0.05234461278 -0.06825425476 1.131795168 -0.4458133876 0.02371461317 -0.89440763
-0.05378178135 -0.07490093261 1.125042081 -0.4125972688 0.02751770243 -0.9073806405
-0.05797178298 -0.08511981368 1.125668406 -0.3432369828 0.04006844014 -0.9363209009
-0.1521065235 0.007801214699 1.006905079 0.2448132038 0.1217217594 -0.9594910741
-0.1943501979 -0.05109872669 1.113479972 -0.9072124362 -0.3281227946 0.2583627999
-0.04998673499 -0.06549282372 1.125232339 -0.4997594059 0.0169333145 -0.8604305983
-0.04403367639 -0.04936605319 1.120619535 -0.6616297364 0.007451263722 -0.7497937083
-0.03821657225 -0.03286154196 1.123029351 -0.6616297364 0.007451263722 -0.7497937083
-0.04311462492 -0.04386732355 1.120099068 -0.6616297364 0.007451263722 -0.7497937083
-0.04281151667 -0.03686152026 1.122589111 -0.6616297364 0.007451263722 -0.7497937083
-0.03963091224 -0.04096170142 1.11529851 -0.6675006151 0.007485937327 -0.7444063425
-0.03644031659 -0.03627563268 1.113238931 -0.6683287621 0.007490828633 -0.7436463833
-0.02995676547 -0.03703800961 1.101419806 -0.6902550459 0.007620325312 -0.7235260606
-0.03600341454 -0.06843666732 1.122649789 -0.5486806035 -0.005051034968 -0.834756434
-0.2334313393 -0.02533716895 1.047000051 -0.3226565421 0.01619870216 -0.9443721771
-0.2412691563 -0.03253133222 1.047218561 -0.2558994591 -0.03734401986 -0.9657057524
-0.1265469939 0.02823164128 1.019000173 0.07280324399 0.04096955061 -0.9951431751
-0.1292521358 0.03752101213 1.019000053 0.04080284014 0.08630352467 -0.9948248863
-0.1121901721 0.01888302341 1.028393745 0.1609061807 -0.05159656331 -0.9832150936
-0.1409200132 0.01935074292 1.015904188 0.1516430676 0.1870438308 -0.964327693
-0.1301230341 0.01818483509 1.017918229 0.1429545134 0.07642119378 -0.9842745662
-0.138409704 0.01203593239 1.013359308 0.2203637064 0.1080045477 -0.9650455117
-0.1413608342 0.007940043695 1.010650635 0.2775741816 0.07884655893 -0.9525057077
-0.1453506947 0.01288522221 1.012283802 0.2441928834 0.193414852 -0.9479553699
-0.1121397093 0.02548767254 1.025739193 0.1448406875 -0.08011928946 -0.9849832654
-0.1070799157 0.01788008772 1.02408576 0.2058601975 -0.0542646274 -0.9769457579
-0.120802857 0.02728522383 1.018715262 0.119472526 -0.01338017266 -0.9898767471
-0.1140906289 0.03077562526 1.021708727 0.1247635782 -0.08382125199 -0.9878895879
-0.1101976186 0.02207850292 1.018262506 0.1773486137 -0.07138129324 -0.9814228415
-0.1099419445 0.004198503215 1.023335814 0.2011716813 -0.09237730503 -0.975024879
-0.1109060198 0.009885023348 1.021553636 0.1958110332 -0.08393013477 -0.9767879248
-0.1152477041 0.01902228408 1.018301129 0.1929542273 -0.06563359499 -0.9789257646
-0.1214872003 0.01927445084 1.018727779 0.1504050791 -0.01966995187 -0.9869609475
-0.1867395192 -0.0459873639 1.103151798 -0.7776711583 -0.4031053782 -0.009490625001
-0.1864387244 -0.04937811196 1.092174649 -0.5601837039 -0.4288694859 -0.2163432837
-0.183948949 -0.06602905691 1.070062041 -0.1006098688 -0.3954166174 -0.7132461667
-0.1847772747 -0.06079977378 1.075549603 -0.2170568705 -0.4132538438 -0.5809717774
-0.1878696531 -0.04029032215 1.101980686 -0.7677086592 -0.458512634 0.01792865805
-0.1856360584 -0.05266377702 1.097587109 -0.6565842628 -0.3730792105 -0.1548450142
-0.1859959513 -0.05318033323 1.083176851 -0.3796754479 -0.4410983622 -0.3942535222
-0.18436189 -0.05909478664 1.098859549 -0.666882813 -0.31078282 -0.1866047978
-0.1853541732 -0.05531949177 1.090442777 -0.5140538812 -0.3859461844 -0.2931393087
-0.185286656 -0.05336392298 1.104340315 -0.7842962742 -0.3330134749 -0.05034412071
-0.05956219509 -0.08400217444 1.131487489 -0.338534236 0.04289690778 -0.9389020801
-0.05008362606 -0.08843722939 1.126932025 -0.3600141704 0.04986266419 -0.9310311079
-0.05227384344 -0.08052223176 1.129258633 -0.3946945369 0.04034142941 -0.917542994
-0.08701014519 -0.1254867464 1.133033991 -0.3710042238 0.4830258489 -0.7427926064
-0.09909127653 -0.1327694058 1.130454302 -0.4874995351 0.7267791629 -0.4271088541
-0.1229470745 -0.1328978986 1.13024056 -0.5130212903 0.7801805735 -0.3579489589
-0.03294911236 -0.04089237377 1.113715887 -0.6827807426 0.007576182019 -0.7303847075
-0.03556752205 -0.04582092911 1.118400455 -0.6811487079 0.007566543296 -0.7318823934
-0.03578839824 -0.03998948634 1.119889975 -0.6749631166 0.007530011237 -0.7375584841
-0.03176611289 -0.0470703803 1.110631108 -0.6902550459 0.007620325312 -0.7235260606
-0.03511089087 -0.05081058666 1.113858461 -0.683031559 0.007577663288 -0.7301545739
-0.04989323765 -0.08301567286 1.123733044 -0.3729556799 0.05024800822 -0.925640583
-0.05474957079 -0.08964547515 1.123979211 -0.3364574611 0.04487873614 -0.9396948218
-0.04408164322 -0.05950795114 1.120064974 -0.6014883518 0.007456033956 -0.7923944592
-0.04203619435 -0.06547426432 1.118951917 -0.5563241243 -0.004366915207 -0.8287512064
-0.1562488079 0.01458293665 1.007643938 0.1478596628 0.2576900721 -0.9469344616
-0.1543207467 0.01995705627 1.011585236 0.161978215 0.2861405313 -0.9396419525
-0.1700235456 0.02137274854 1.006911516 -0.06622289866 0.2559486032 -0.95737046
-0.1616093963 0.02067728154 1.00945425 0.05589768291 0.2724080384 -0.9478126764
-0.1652607173 0.01740471087 1.006181359 0.01185958367 0.2493241131 -0.9552561641
-0.1362473518 0.02995054424 1.022226214 0.04525956139 0.1653086841 -0.983238399
-0.1428919286 0.02995236218 1.022024989 0.09169042856 0.2693972588 -0.9568200111
-0.1371786147 0.03691405058 1.019073248 0.06658519804 0.1740845293 -0.9776676297
-0.1490100473 0.03009977192 1.01818037 0.1286295652 0.3057536781 -0.9424650073
-0.1460141987 0.02557433955 1.014322281 0.1337835491 0.2383618504 -0.9566941261
-0.1453681588 0.02023604885 1.011992097 0.1611474156 0.2113208473 -0.9593004584
-0.1401586086 0.02761152387 1.015096426 0.1155256033 0.1784637272 -0.9717155099
-0.1389632374 0.0245714318 1.022000074 0.08715054393 0.2321320772 -0.9652818441
-0.1283914447 0.02179388329 1.023526192 0.1162396222 0.09258794039 -0.9814817309
-0.1224615127 0.02276794054 1.024646521 0.1116438061 0.0275878869 -0.9880241752
-0.1267522275 0.03291086853 1.022146583 0.04188420251 0.06324875355 -0.9966652393
-0.1216332912 0.036854323 1.019141078 0.06637851149 -0.007972982712 -0.9958041906
-0.1199643239 0.03163160384 1.022036552 0.08569979668 -0.04704125598 -0.9922181964
-0.1558085233 -0.01614823379 1.008870602 0.1123383567 -0.09124469757 -0.9823771119
-0.2087197602 -0.084783867 1.062591791 0.03269794956 -0.4917373061 -0.8699108958
-0.2378109097 -0.02148217894 1.051793814 -0.3469752967 0.007918065414 -0.9369651079
-0.2329685837 -0.01887219958 1.048875451 -0.3734000623 0.03655601293 -0.9263854027
-0.1070154756 0.0122792935 1.031380057 0.206425488 -0.07158620656 -0.9756546021
-0.1164880171 0.004441179801 1.024928212 0.2279055119 -0.1036189571 -0.9681239724
-0.1265494078 0.0165043585 1.025458455 0.1627563685 0.1014578938 -0.9707533717
-0.1138670892 0.01067236252 1.027516603 0.2061484307 -0.06372300535 -0.9734501243
-0.1169742495 0.01545669604 1.028470397 0.1804171503 0.02213862911 -0.9741293788
-0.1218875498 0.01318271644 1.025703192 0.1840073466 0.02480547503 -0.9712742567
-0.1322240978 0.01639053971 1.023354173 0.1555960774 0.1385272145 -0.9684591293
-0.1212540641 0.007790256292 1.023589373 0.2091307193 -0.05245252699 -0.9693719149
-0.1181364581 0.01381647214 1.018950343 0.2060812712 -0.06579945236 -0.976188302
-0.1240903661 0.01451664511 1.018620491 0.1583139598 -0.007183392998 -0.9865623713
-0.124417901 0.007797922939 1.01889801 0.2167199403 -0.05049205944 -0.9743637443
-0.1971745193 -0.05188732967 1.050562859 0.04977177829 -0.3283123374 -0.9430534244
-0.2065837383 -0.05247655138 1.04733026 0.01357155479 -0.3118759692 -0.9497231245
-0.2034774721 -0.07058734447 1.077221632 -0.2047616094 -0.4955805242 -0.4970626533
-0.2048598081 -0.07773030549 1.064562917 0.002363742562 -0.4729066491 -0.7978090644
-0.2030441314 -0.0657556653 1.081329346 -0.2976516485 -0.4961229265 -0.3677697778
-0.2010260224 -0.04684082791 1.100266457 -0.6915652752 -0.5077319741 0.1859147698
-0.2019418329 -0.05612817407 1.091634989 -0.5052178502 -0.5042464137 -0.07485123724
-0.2039779574 -0.08180852234 1.072174191 -0.036644537 -0.5092402697 -0.7225705981
-0.202486068 -0.05928884074 1.08663249 -0.4199130535 -0.4962018728 -0.197963506
-0.2042772025 -0.0741442889 1.069929123 -0.09113930911 -0.48100546 -0.6632819772
-0.04448846355 -0.09339810163 1.120449901 -0.3631069362 0.04442943633 -0.928671658
-0.05700627714 -0.09943172336 1.125111461 -0.2593303323 0.00256886729 -0.962825954
-0.1862605512 -0.05713796616 1.115260005 -0.9449387193 -0.2664579451 0.1458525509
-0.1854011863 -0.07159782946 1.101335168 -0.6762837768 -0.3152118325 -0.1844808608
-0.1878488213 -0.08457311243 1.082693696 -0.2028204054 -0.4284821153 -0.6072214246
-0.1897049993 -0.09172400087 1.072288036 0.06037790328 -0.49452582 -0.8405852914
-0.1790191978 -0.07419829071 1.070293546 -0.03065191209 -0.4152390063 -0.7903447747
-0.1826299876 -0.06824740767 1.080026269 -0.2899510562 -0.3581224382 -0.547927916
-0.1802315563 -0.07080426812 1.085998654 -0.3702286482 -0.3535693586 -0.4776853025
-0.1823148578 -0.0693115294 1.074323297 -0.1687795073 -0.3796894252 -0.6593338847
-0.1815190762 -0.07171832025 1.062419891 0.08649300784 -0.4256171584 -0.8942136168
-0.1801337451 -0.07027576119 1.091879964 -0.4879662097 -0.3341221809 -0.3699890077
-0.1834318191 -0.06482101977 1.098881245 -0.684679091 -0.2897209525 -0.1846998334
-0.1838729084 -0.06080888957 1.107342839 -0.8449448347 -0.2719522715 -0.03070068732
-0.1838327795 -0.06386614591 1.088616371 -0.4710162878 -0.3310649097 -0.3756340742
-0.1853883713 -0.06296085566 1.112103105 -0.931147635 -0.2592784464 0.07864084095
-0.2002999038 -0.08222934604 1.08030057 -0.1741756648 -0.4628088474 -0.6146677732
-0.1918578297 -0.05988709629 1.110694051 -0.8366129398 -0.3104760051 0.1190590635
-0.1922175884 -0.07181766629 1.097503185 -0.5838095546 -0.3525961936 -0.2398426831
-0.1931678504 -0.06459372491 1.104634523 -0.7084603906 -0.3381375372 -0.03179296106
-0.1877399087 -0.06615152955 1.106923103 -0.8086633086 -0.2918685079 -0.03523118049
-0.1955060214 -0.07570935041 1.090877295 -0.4241895378 -0.396320194 -0.38206622
-0.1986432821 -0.06831973791 1.094913125 -0.4811516106 -0.4174287319 -0.209568575
-0.1957292855 -0.05525404587 1.109193921 -0.797842741 -0.3660199046 0.1756335646
-0.2012634128 -0.06216530129 1.091919422 -0.4606001079 -0.4936329722 -0.1538391262
-0.1999523342 -0.04314341024 1.105573893 -0.7970544696 -0.4925126731 0.3146680593
-0.1988674253 -0.05119596049 1.103785992 -0.7243340611 -0.4517415762 0.1679695696
-0.2007142305 -0.07539707422 1.085978508 -0.2886721194 -0.4576628208 -0.4337297976
-0.2028481215 -0.07678803056 1.080018282 -0.1774356961 -0.5090024471 -0.5321584344
-0.2001098394 -0.07087258995 1.089938521 -0.3811353743 -0.4500388801 -0.3130813241
-0.1986221075 -0.0621930398 1.098334551 -0.5724684 -0.4271561503 -0.071298033
-0.2005452216 -0.05500301719 1.097607255 -0.5968293548 -0.4875639379 0.02963686176
-0.04698124528 -0.06943575293 1.121885061 -0.4806896448 0.01157718804 -0.8738280535
-0.04521552846 -0.0790989697 1.121219993 -0.4266698956 0.02871702239 -0.9020722508
-0.1599730104 0.009769893251 1.006997108 0.1020690948 0.1324521303 -0.9693105817
-0.1668271869 0.003029223299 1.009089708 -0.0672518909 0.09016171843 -0.9833362699
-0.1587819159 0.003845615312 1.008030891 0.1020829976 0.07567138225 -0.9798732996
-0.1615457237 -0.009446470067 1.007529855 0.0405549854 0.005618099589 -0.9918733239
-0.1613090634 -0.01553839725 1.006980658 0.0315329656 -0.04031933844 -0.9947871566
-0.1558716446 0.02972292341 1.01707983 0.1154494211 0.3271010816 -0.9323816895
-0.1645187736 0.02507665195 1.012640834 0.005005186424 0.2989915907 -0.9454486966
-0.1508616805 0.02488364652 1.020382166 0.1601732075 0.2870783508 -0.9422582984
-0.1665358096 0.01992101222 1.016612053 -0.03678790107 0.2859903276 -0.9450428486
-0.1754895151 0.01997774094 1.008449912 -0.1640524566 0.2255510539 -0.9515604973
-0.2012551576 -0.03374700993 1.101059675 -0.8504396677 -0.4707977772 0.2281464487
-0.1348105371 0.00247726636 1.022000074 0.2645744681 0.003624886274 -0.9544513822
-0.1353047937 0.008524140343 1.022000074 0.2150012702 0.07325018942 -0.9599012733
-0.1295172721 0.005612289533 1.022000074 0.2285729796 -0.0107869925 -0.9621276855
-0.1387715638 -0.00363990874 1.022000074 0.3230038285 -0.02620760165 -0.9450387955
-0.138006404 0.01650544442 1.022000074 0.1533728093 0.1838004589 -0.9653033614
-0.1472278982 0.02064951137 1.02046442 0.1849920601 0.232128039 -0.9506924152
-0.1409167647 0.006232870743 1.021941066 0.2721469998 0.07392204553 -0.9515359998
-0.1441687047 0.01346920338 1.021180272 0.2283361256 0.1538179368 -0.9509307146
-0.1437963545 0.0009609663393 1.021301031 0.2930510044 0.04326776788 -0.9417575002
-0.171810016 0.007372547407 1.016864657 -0.2067909688 0.0863295868 -0.9580624104
-0.15245983 0.0184166301 1.019263625 0.1889076978 0.2415679097 -0.9381778836
-0.1662705392 0.003827333916 1.017839909 -0.1153749153 0.05058766156 -0.9561072588
-0.1499331445 0.01067426521 1.019971848 0.2106377631 0.1520350128 -0.9406993985
-0.1592423767 0.01988457888 1.018193126 0.06761296839 0.2509848773 -0.9421725869
-0.1513736397 0.003933914006 1.020047784 0.1618888527 0.06972454488 -0.9454774857
-0.1622859985 0.01408948936 1.017990351 -0.007855008356 0.1780530363 -0.9475615025
-0.1562716365 0.01171771716 1.018985629 0.0962139219 0.1569094509 -0.9446155429
-0.1571547091 0.003209157847 1.019220352 0.05206283182 0.05412782729 -0.949983418
-0.154101029 -0.00342401443 1.01712966 0.1078149527 0.001919139526 -0.9650831223
-0.1614216715 -0.00187509181 1.015431643 -0.01925475895 0.01616517827 -0.9720243216
-0.2050631344 -0.08046168834 1.058054805 0.0366002284 -0.4729641378 -0.8797963858
-0.2118097842 -0.08043249696 1.059187651 0.01433726028 -0.4660283327 -0.8842748404
-0.2223873883 -0.07368781418 1.054695964 -0.06717903912 -0.4159552157 -0.9065197706
-0.2080280185 -0.08931916952 1.069337249 0.04963320494 -0.5116481185 -0.8573053479
-0.2153490186 -0.08429355919 1.064111352 0.002194774803 -0.4731558263 -0.8775991201
-0.2196395397 -0.07859277725 1.059027195 -0.0387583077 -0.4408071041 -0.8936607242
-0.2244485915 -0.007692409214 1.055467725 -0.4317567348 0.03543571755 -0.8637629151
-0.2222028226 -0.01012707967 1.060119033 -0.4799771607 -0.02017242461 -0.7458717823
-0.2221547812 -0.01390946936 1.066061616 -0.5477047563 -0.06945677102 -0.593757093
-0.2148172855 -0.01728243008 1.074082136 -0.6233341694 -0.1920705885 -0.3923131824
-0.2154295892 -0.02157393843 1.077858806 -0.6593353152 -0.2404006422 -0.2915150821
-0.2207983434 -0.0183521416 1.070115685 -0.5804448724 -0.1408649981 -0.4859381616
-0.2291610837 -0.01124891639 1.057308674 -0.4568721056 0.04068863392 -0.8113847971
-0.2238253802 -0.02596422285 1.067484736 -0.5180362463 -0.1780086756 -0.5400666595
-0.2194246799 -0.02379239909 1.073150158 -0.5944720507 -0.2153070122 -0.4032092988
-0.227631107 -0.01910888962 1.061715007 -0.4780005813 -0.07133930176 -0.6888152361
-0.1317057312 -0.001227105968 1.01623559 0.3194326758 -0.01773846522 -0.9441902637
-0.1471896172 0.003503293265 1.008589149 0.3082915843 0.07643684 -0.9427143931
-0.1442375481 -0.00586852571 1.012221813 0.3002387583 -0.04512311146 -0.9459934235
-0.139990285 -0.001492500305 1.012862444 0.3101117909 -0.001555901719 -0.9443902969
-0.1161713749 -0.001766743371 1.022460461 0.2543061376 -0.08159386367 -0.961555481
-0.1325342208 0.005297028925 1.015358925 0.2628931105 0.0003690866288 -0.9600186944
-0.1269635558 -0.002549818018 1.018620253 0.3188159168 -0.04923018813 -0.9457914233
-0.1791334748 -0.06115239859 1.114711523 -0.9724043608 -0.2289513946 0.04117818177
-0.1778426021 -0.06526643783 1.110342622 -0.8875426054 -0.2438777387 -0.03519804776
-0.1758421808 -0.07726287842 1.080411792 -0.1825888604 -0.4011436105 -0.6558848023
-0.1821663231 -0.06944528222 1.105144382 -0.7631265521 -0.2825244069 -0.1231206059
-0.1847451031 -0.07935603708 1.090739369 -0.4022966325 -0.3683363199 -0.4365397096
-0.1761624217 -0.07611688972 1.085886598 -0.3031486571 -0.3729079664 -0.555028379
-0.179738909 -0.08560923487 1.073723316 0.006028573494 -0.4490586221 -0.8195185661
-0.1790896356 -0.07585511357 1.091924548 -0.4362143874 -0.3479222953 -0.431065321
-0.1752025038 -0.08102470636 1.074303865 -0.02767870203 -0.4335259497 -0.8000875115
-0.1839408129 -0.09044910967 1.072003722 0.06578028202 -0.4698974192 -0.8626717329
-0.1795405596 -0.08088936657 1.08274889 -0.2127329111 -0.3992443383 -0.6270863414
-0.1836453527 -0.08697271347 1.078369975 -0.08920011669 -0.4343365729 -0.7266955376
-0.1809814125 -0.07456446439 1.098060131 -0.5761298537 -0.3195821345 -0.3034112155
-0.06326556951 -0.0919797495 1.126354098 -0.281404078 0.02810059674 -0.9566811323
-0.07032103837 -0.09695641696 1.126914859 -0.2122657746 -0.01013018657 -0.9738194942
-0.06599031389 -0.09536174685 1.130049109 -0.252548188 0.0256293714 -0.96607095
-0.0624822937 -0.09911282361 1.126000047 -0.2357945293 0.00742405327 -0.9704067707
-0.06647475064 -0.1132099032 1.133996367 -0.1802614182 -0.01734468155 -0.9827706218
-0.07318999618 -0.1202608719 1.133382201 -0.07352425903 -0.07354106754 -0.9920965433
-0.06946790218 -0.1030209363 1.126491427 -0.1782601178 -0.03337106109 -0.982131362
-0.07205096632 -0.1118597984 1.129716516 -0.1176100671 -0.05800066888 -0.9878935814
-0.1333941966 -0.008242390119 1.020565391 0.3319081366 -0.04943221807 -0.9418495893
-0.1386142671 -0.01018709131 1.021944046 0.3378115892 -0.03720034286 -0.9403104186
-0.1832702458 -0.06391622871 1.056483269 0.1187182069 -0.3750791252 -0.9187041521
-0.1877027154 -0.04604305327 1.077697515 -0.3354353309 -0.4019455314 -0.4509448707
-0.185561806 -0.05842892453 1.067737341 -0.09505981952 -0.4093091786 -0.701787889
-0.1865886003 -0.05240026861 1.072929978 -0.2174736559 -0.4073683321 -0.5733983517
-0.1879140139 -0.04115387797 1.09594667 -0.6552587748 -0.4673107862 -0.09039768577
-0.186375767 -0.05634375289 1.059168816 0.02543528564 -0.3592150211 -0.8467053771
-0.184266001 -0.06560390443 1.063223481 0.02445662022 -0.4195632041 -0.8241584897
-0.187094897 -0.04702113569 1.086822391 -0.4721679688 -0.4497886002 -0.2897079885
-0.1868477166 -0.05267832801 1.065767407 -0.1030615792 -0.374445796 -0.7057795525
-0.197608009 -0.02888804115 1.098186851 -0.8551693559 -0.5001916289 0.1139844954
-0.190715 -0.03443488479 1.101444602 -0.8056901693 -0.481151849 0.0690413788
-0.1969520152 -0.03222747892 1.090766191 -0.712713778 -0.4765478969 -0.04393669218
-0.1935492605 -0.03899727389 1.081289291 -0.4907686412 -0.4358436167 -0.2864383757
-0.1889981478 -0.04820377752 1.06819582 -0.186471954 -0.3802217543 -0.619088769
-0.1896785349 -0.04002263024 1.08886373 -0.565351665 -0.4413764179 -0.1974938959
-0.194511354 -0.03633619845 1.086022615 -0.5901181698 -0.4531526566 -0.1770530641
-0.1924029887 -0.03605155274 1.092466712 -0.672052145 -0.4627134502 -0.08252904564
-0.1955454797 -0.03941232711 1.074905396 -0.4043866992 -0.4267890155 -0.3966398239
-0.1939804405 -0.04457372054 1.064969897 -0.2012154907 -0.3926827013 -0.625908494
-0.1947390139 -0.04720120132 1.055850625 -0.04600174725 -0.3709981143 -0.8133099079
-0.1904823482 -0.05020940304 1.058793902 -0.03895127773 -0.3604147732 -0.794922471
-0.1926628649 -0.04366067424 1.070891261 -0.2902462482 -0.4031471312 -0.5128830075
-0.1918323934 -0.06068993732 1.055088282 0.09320673347 -0.3392775953 -0.935967505
-0.1887011379 -0.05337392166 1.052716613 0.07477901131 -0.3373190165 -0.9350173473
-0.1937749088 -0.04540884867 1.048456907 -0.05218014121 -0.3560475707 -0.9208616614
-0.1741934419 -0.07745353878 1.066399217 0.07506524771 -0.4432502687 -0.8930479884
-0.174793303 -0.07366466522 1.062442303 0.08083956689 -0.4350341558 -0.8965635896
-0.175978601 -0.06885127723 1.057402253 0.08658149093 -0.4242181182 -0.9013344646
-0.1866969317 -0.0880453065 1.066913605 0.08461377025 -0.4798148572 -0.8732579947
-0.05897165835 -0.09258253127 1.1306355 -0.3118910789 0.05410051346 -0.9485382438
-0.05397052318 -0.09456755966 1.128261209 -0.3233510852 0.05749279261 -0.9443892241
-0.1153953671 -0.1362098306 1.127475262 -0.5130212903 0.7801805735 -0.3579489589
-0.1208833531 -0.1310437322 1.135211706 -0.5130212903 0.7801805735 -0.3579489589
-0.09531321377 -0.1256664544 1.13473022 -0.5124578476 0.782404542 -0.3426368237
-0.1119414717 -0.1272124797 1.153152108 -0.4995619953 0.8333045244 0.007811152376
-0.1208828166 -0.1360693872 1.12467289 -0.5130212903 0.7801805735 -0.3579489589
-0.1097354889 -0.1277459264 1.133592844 -0.5130212903 0.7801805735 -0.3579489589
-0.1154833809 -0.1296867579 1.132613778 -0.5130212903 0.7801805735 -0.3579489589
-0.1973083317 -0.08207854629 1.085359931 -0.283742547 -0.4279274642 -0.5410253406
-0.2019892931 -0.08751983941 1.0755198 -0.05212597549 -0.4910101891 -0.7491869926
-0.1906225532 -0.07810441405 1.091419578 -0.4304017723 -0.3890475333 -0.3996154666
-0.1939600408 -0.0865046978 1.078858137 -0.1153319031 -0.4757634401 -0.6746207476
-0.195147559 -0.08956871927 1.074274302 -0.0003474695841 -0.5074191093 -0.7749043107
-0.1996991932 -0.09139838815 1.070980906 0.07068534195 -0.525218606 -0.8479006886
-0.2013478726 -0.08764924854 1.066110492 0.05823104829 -0.5127594471 -0.856140554
-0.195810467 -0.08586867154 1.06378603 0.07927957177 -0.5036591291 -0.8600739837
-0.04526303336 -0.06854202598 1.128129721 -0.4721054733 0.009166366421 -0.8805870414
-0.04514912143 -0.07431127131 1.127029657 -0.4356561601 0.01335142087 -0.8995213509
-0.05295742676 -0.07375009358 1.13105154 -0.4205578268 0.03057208844 -0.9063133597
-0.1775786281 0.01817986928 1.013465881 -0.2299086601 0.190843612 -0.9331448674
-0.171071589 0.008162067272 1.008624911 -0.1378181875 0.1460478157 -0.970012784
-0.1498758346 -0.007555774413 1.011317015 0.2549919486 -0.05437870696 -0.9607351422
-0.164247632 -0.01981056482 1.009524107 -0.07396915555 -0.007709937636 -0.989469111
-0.1432001144 -0.01283091772 1.019171357 0.2671865821 -0.03856648877 -0.9517081976
-0.1588950008 -0.01799576543 1.013063908 0.003431593534 0.002456788672 -0.9776511788
-0.15247944 -0.01615529321 1.015885234 0.1047321782 -0.0109207388 -0.9649147987
-0.2254169732 -0.06917146593 1.05390656 -0.09533564746 -0.3792717159 -0.9186819792
-0.2203772664 -0.05871454254 1.04985249 -0.08099846542 -0.3182973266 -0.9428329468
-0.2380899787 -0.04649155587 1.053643346 -0.2352358997 -0.1761293709 -0.9529889226
-0.2315033823 -0.05612014979 1.053331256 -0.1818670779 -0.2697681785 -0.944935739
-0.2307134271 -0.06290500611 1.053947449 -0.1415105462 -0.3236921728 -0.9352626204
-0.1986649036 -0.02995994687 1.071222305 -0.6078139544 -0.4225951731 -0.353974402
-0.1985068172 -0.0303082522 1.079860091 -0.6635484099 -0.4568293989 -0.2094751
-0.1974342167 -0.03471471742 1.054712296 -0.3570995033 -0.3953667283 -0.6936904192
-0.1985051632 -0.03121357411 1.042994499 -0.3620510697 -0.3275774121 -0.8542258739
-0.1989767849 -0.02930538729 1.052848816 -0.4869621694 -0.3503826261 -0.6623568535
-0.197697103 -0.03376820311 1.064548135 -0.4563112557 -0.4207854867 -0.5131618977
-0.1978429705 -0.033998698 1.075184107 -0.5303053856 -0.4430694282 -0.3317964375
-0.1985811144 -0.03000745736 1.085552454 -0.7143945098 -0.4738004804 -0.1079200953
-0.1966072619 -0.03956011683 1.048388481 -0.1807821095 -0.3738054633 -0.8572977185
-0.1967719346 -0.04016463831 1.063296437 -0.2770223618 -0.4044384956 -0.60622859
-0.1321539134 -0.002539693145 1.022000074 0.3016546667 -0.05618906766 -0.9498285055
-0.1087918282 0.004897713661 1.030018449 0.2321713269 -0.09785486013 -0.9676598907
-0.1217632294 -0.003493906697 1.023365021 0.295676142 -0.09232610464 -0.9503184557
-0.1127115116 0.000938149984 1.027169347 0.2551560104 -0.1070949361 -0.9604341984
-0.1126259416 -0.1261637509 1.146335959 -0.5052204728 0.8109704256 -0.1459597349
-0.0997119844 -0.119505778 1.137554646 -0.5105514526 0.7899289727 -0.2908309102
-0.1168661416 -0.1274259686 1.156817317 -0.4971825182 0.8426963687 0.07247429341
-0.1094510108 -0.1251865774 1.138751626 -0.5110208988 0.7880761623 -0.3035875559
-0.1042303145 -0.1214184463 1.144055009 -0.5058495402 0.8084875345 -0.1630546749
-0.09392540157 -0.1189150885 1.133950233 -0.5127702355 0.7811714411 -0.3511265814
-0.06498079747 -0.1017579958 1.131492734 -0.2399989963 0.02240245417 -0.969255805
-0.06956062466 -0.1052105203 1.131727219 -0.1822215915 -0.02489765733 -0.9827689528
-0.1758033335 -0.08309928328 1.069155574 0.07347458601 -0.4598062932 -0.8848436475
-0.1809248626 -0.08595798165 1.066309094 0.08476050943 -0.478251785 -0.8741229177
-0.1791910082 -0.07858642936 1.060130835 0.07795324177 -0.4564846456 -0.8859572411
-0.04943420738 -0.0975907445 1.126035094 -0.3052198291 0.03096151724 -0.9492626786
-0.06320348382 -0.1082189009 1.131141543 -0.2021791637 -0.01701306179 -0.979054749
-0.05917768925 -0.1046009511 1.131278872 -0.2340202034 0.0002646971843 -0.9704427719
-0.1074428037 -0.1337810904 1.131628394 -0.5130212903 0.7801805735 -0.3579489589
-0.0405931212 -0.08229982108 1.123225689 -0.4114898741 0.0186506696 -0.9092465043
-0.03752487153 -0.0778735429 1.119776368 -0.471745491 0.02440216951 -0.8726945519
-0.04046128318 -0.08856030554 1.119000077 -0.3958091438 0.04519663379 -0.9171398282
-0.2028070688 0.002056511119 1.031531215 -0.6739340425 -0.1260424703 -0.7276718616
-0.2000768334 -0.02453727089 1.031193137 -0.5328550935 -0.2239204198 -0.8015955091
-0.2050220668 -0.02856186964 1.034736037 -0.418661952 -0.2150707692 -0.8557785153
-0.1945957392 -0.03147003427 1.028525352 -0.4155566692 -0.2549552917 -0.8074484468
-0.2006125152 -0.04098165408 1.037160516 -0.2115756869 -0.2821499407 -0.8774725199
-0.19626683 -0.03651771322 1.034388781 -0.2731994987 -0.2801381052 -0.852165699
-0.1992534399 -0.04448217526 1.043345809 -0.05642266944 -0.3174011707 -0.9209855199
-0.1796253622 -0.02651415579 1.018352032 -0.2889613211 -0.03275422379 -0.9301128387
-0.1898199022 -0.03785923868 1.036209702 -0.09239221364 -0.2322305143 -0.9338152409
-0.1846112162 -0.02900391817 1.023649931 -0.2997778356 -0.1259848177 -0.8935723901
-0.1851675659 -0.02443758585 1.018800139 -0.4703639746 -0.1295346171 -0.828758955
-0.1863558441 -0.03115414269 1.02880013 -0.2423835993 -0.1644372195 -0.9235826731
-0.1946028173 -0.0354777351 1.040628791 -0.2280089855 -0.325066328 -0.9065074921
-0.2050213367 -0.006398301572 1.038445473 -0.5904622674 -0.1649777889 -0.7867119908
-0.208174035 -0.002352161566 1.034363985 -0.6119790077 -0.1180147156 -0.7804757953
-0.2293945551 -0.01309067477 1.049687386 -0.4143151045 0.05786773935 -0.9057863951
-0.2223696858 -0.01155834086 1.045424104 -0.4592055082 -0.02095761895 -0.8815707564
-0.2024858296 -0.02646943927 1.066538692 -0.5922173858 -0.3384887278 -0.4472616911
-0.2005594671 -0.02646529675 1.047729492 -0.5045403242 -0.3003006279 -0.7313790321
-0.2024416625 -0.02592452802 1.041758537 -0.4298867583 -0.2490499318 -0.8600636721
-0.2244364023 -0.01871796139 1.045503974 -0.3485741615 0.0400034897 -0.9363064766
-0.2270602286 -0.04902591184 1.056960225 -0.2146864533 -0.2565428019 -0.8631170988
-0.2148931324 -0.04051329195 1.077951074 -0.528648138 -0.4099961817 -0.2925566137
-0.2261214852 -0.04401522502 1.063084126 -0.3366037309 -0.2761976421 -0.6986911297
-0.2198113054 -0.04502985999 1.068353415 -0.3776041865 -0.3460366726 -0.5529332757
-0.2149386704 -0.04519182444 1.073065162 -0.4232100248 -0.4010809958 -0.4231933057
-0.2219633609 -0.03955867514 1.070209384 -0.460934788 -0.3043631017 -0.5157963634
-0.231624648 -0.04410672188 1.057271361 -0.2767161429 -0.2101374269 -0.8597071171
-0.2099388987 -0.0355983153 1.086311936 -0.6709270477 -0.4474387765 -0.07624507695
-0.2032100856 -0.03162740543 1.095322847 -0.8083431125 -0.5008727908 0.1578362882
-0.2284878492 -0.03673780337 1.061389804 -0.3754354715 -0.1955089122 -0.7318480611
-0.2065774947 -0.0305597242 1.0908041 -0.7710658908 -0.4327750802 0.0263487678
-0.2166292518 -0.02736373432 1.077219725 -0.6273757815 -0.2808192372 -0.3008780181
-0.2345021218 -0.02734218724 1.053150177 -0.3363847136 -0.05109636858 -0.9020627141
-0.2174388319 -0.03519140184 1.076246381 -0.5651062727 -0.3263744712 -0.3548648953
-0.2138318121 -0.03144259751 1.081047893 -0.6473665237 -0.3459077477 -0.2207096815
-0.2323024124 -0.035263706 1.056230783 -0.3225442469 -0.1359754354 -0.855135262
-0.2211782336 -0.03391359746 1.07119143 -0.5122086406 -0.2692095637 -0.4762943387
-0.2256047428 -0.03270251304 1.06521225 -0.4477002919 -0.2036959082 -0.6210670471
-0.2296181768 -0.02576208487 1.059703708 -0.4258458912 -0.1025335938 -0.7323622704
-0.1953019202 -0.02196837217 1.025391936 -0.6052994132 -0.2175372988 -0.7623378634
-0.2026275396 -0.02252112143 1.03556478 -0.5445412993 -0.2265541553 -0.8060659766
-0.2038414776 -0.01445859298 1.032247663 -0.5724888444 -0.1457585096 -0.800673306
-0.2013184577 -0.009602988139 1.034656405 -0.6513946652 -0.1583752483 -0.7363176346
-0.1791677624 -0.02209972218 1.012968302 -0.43034482 -0.01508476399 -0.8866677284
-0.1539626867 -0.009155206382 1.015441179 0.1187022924 -0.01382412482 -0.973228395
-0.1594970524 -0.009367137216 1.012791276 0.02848509327 -0.007865917869 -0.9860940576
-0.1472047418 -0.007933538407 1.017911434 0.2356923074 -0.02520266175 -0.9603148699
-0.1827795208 -0.01391242445 1.019108653 -0.4541500807 -0.0791330263 -0.8248841166
-0.1736762226 -0.01224070881 1.013875961 -0.2599965334 -0.0315644145 -0.9235687256
-0.1784535348 -0.0170678962 1.01580143 -0.376835525 -0.03450155258 -0.8763899803
-0.1932850927 -0.02365121059 1.030947447 -0.5559108257 -0.1905406713 -0.7788854241
-0.1890967935 -0.02463528141 1.027300119 -0.47063604 -0.1478403807 -0.8309778571
-0.1970845759 -0.02829789743 1.038174152 -0.4714246988 -0.285869658 -0.798412919
-0.192029044 -0.02888713777 1.033348322 -0.3859819472 -0.2282123715 -0.8540748954
-0.1968546659 -0.01863161102 1.031537771 -0.6736994386 -0.1942473948 -0.7110204697
-0.216255337 -0.07195713371 1.057000875 -0.04242542386 -0.387208581 -0.9178014398
-0.2169169635 -0.05755626038 1.06498301 -0.2597734034 -0.3784816563 -0.6566135287
-0.2149409503 -0.06049382687 1.060152888 -0.1604246795 -0.3616701365 -0.7704040408
-0.2230026722 -0.06400921941 1.056326389 -0.1252086759 -0.3217419386 -0.9048253894
-0.2116212994 -0.04967896268 1.075950146 -0.4411605895 -0.4436920881 -0.3532561958
-0.211836651 -0.05313127488 1.070749044 -0.3447682559 -0.4191133082 -0.4865597188
-0.2178788334 -0.05055711791 1.066842318 -0.3158028424 -0.3682931066 -0.5978193283
-0.2081661224 -0.04245348647 1.085351706 -0.6032910943 -0.4949387014 -0.09655258805
-0.2226899862 -0.05655797198 1.057810783 -0.1700136662 -0.3118672073 -0.848243773
-0.095372729 -0.1234051585 1.129273176 -0.3122857809 0.385317862 -0.7315064669
-0.1168519855 -0.1308930814 1.126906753 -0.4721069038 0.7012421489 -0.4236319959
-0.1071440056 -0.1231286004 1.127791762 -0.3360869884 0.4388115406 -0.641995132
-0.1111873388 -0.1289518625 1.126248479 -0.4071572721 0.5759313703 -0.5279005766
-0.1037929282 -0.1300052404 1.127047777 -0.4085802734 0.5786768198 -0.5256161094
-0.1006145179 -0.1184105873 1.128200769 -0.2482670695 0.2693758011 -0.7829791903
-0.1044668928 -0.1220864207 1.135094523 -0.4660537839 0.6895635724 -0.43334952
-0.09386754781 -0.1137635261 1.13137722 -0.2125545442 0.200473696 -0.8403112292
-0.1841206104 -0.07576477528 1.057826996 0.09107619524 -0.4340110421 -0.8959909081
-0.1844297796 -0.08095683903 1.061246037 0.085006468 -0.461802423 -0.8824816942
-0.1909574419 -0.0827794224 1.06077373 0.07419073582 -0.478990674 -0.8745824099
-0.1953252107 -0.07996907085 1.057558894 0.0679468289 -0.4711149335 -0.8790194988
-0.1818624139 -0.06938591599 1.056903839 0.1039618254 -0.4003723264 -0.9092439413
-0.1926550567 -0.06778200716 1.056375027 0.09222932905 -0.3699878454 -0.9236123562
-0.190780282 -0.0739691332 1.056944132 0.08628226817 -0.4289313853 -0.8986683488
-0.1043810621 -0.130335927 1.142986298 -0.5075618029 0.8017292619 -0.2095855325
-0.1110423058 -0.1312860399 1.141291499 -0.5130212903 0.7801805735 -0.3579489589
-0.1021409556 -0.1315970123 1.136188626 -0.5130212903 0.7801805735 -0.3579489589
-0.1209204644 -0.1310607344 1.141543031 -0.5130212903 0.7801805735 -0.3579489589
-0.1214871854 -0.1299320161 1.147661448 -0.5130212903 0.7801805735 -0.3579489589
-0.1715183109 0.015142777 1.016840935 -0.1715324074 0.2097973377 -0.9256285429
-0.1775988489 0.009475193918 1.017279029 -0.3409679234 0.1165285632 -0.8959513903
-0.1867895573 0.01263864245 1.015631676 -0.4438191652 0.05167565495 -0.8907691836
-0.1813965738 0.01361836772 1.019644141 -0.3421244025 0.1390679479 -0.8590526581
-0.181784153 0.004412411246 1.020085216 -0.3936847448 0.01404668856 -0.8926545382
-0.2113273144 -0.04430222884 1.045038939 -0.1048515961 -0.3051444888 -0.9402720332
-0.2005715519 -0.03227641806 1.030715108 -0.4051229656 -0.2523114681 -0.8281992674
-0.1919624805 -0.02427152358 1.021313429 -0.5955443978 -0.2273672968 -0.750897646
-0.2041151524 -0.04117202759 1.041715622 -0.154237166 -0.3225137591 -0.9028781056
-0.2034098506 -0.03562183678 1.034713864 -0.3205885887 -0.268093735 -0.8590897322
-0.2122113556 -0.0365835093 1.04129827 -0.2387814969 -0.2317435592 -0.9264978766
-0.2057010084 -0.04552882165 1.04637742 -0.04275498912 -0.3492315412 -0.9358664751
-0.2128018141 -0.05367190018 1.046604395 -0.04160759598 -0.2998581231 -0.9529907107
-0.2177333981 -0.004476360045 1.046822429 -0.4946041107 -0.008121049032 -0.8532115817
-0.21147497 -0.007911854424 1.043823004 -0.5241869688 -0.1119783297 -0.8359431028
-0.2062557638 -0.02171229012 1.083699107 -0.7276998758 -0.3411360979 -0.1900751144
-0.2131526917 -0.01520009339 1.067947865 -0.5916621089 -0.1698080152 -0.5261793137
-0.2091811597 -0.01913671009 1.077975035 -0.6738564968 -0.2736248374 -0.3183706105
-0.2218977511 -0.006970955059 1.049983144 -0.4491809607 0.00693869777 -0.8885636926
-0.220869258 -0.02910813875 1.043798089 -0.2999406755 -0.08341673017 -0.9474236965
-0.2147269547 -0.02614680678 1.041910291 -0.3219551146 -0.107524097 -0.9389716983
-0.215585053 -0.03233607486 1.043252826 -0.255194217 -0.1723059267 -0.9489321709
-0.2125812024 -0.006620654371 1.037858844 -0.5601764321 -0.1108228639 -0.8146724701
-0.2181134522 -0.01475042384 1.042399168 -0.4240166545 -0.03575981408 -0.8960918188
-0.2122903466 -0.01334626321 1.038878202 -0.4955416024 -0.1091737673 -0.8570709229
-0.21576038 -0.01962856948 1.04090476 -0.4085265696 -0.06768902391 -0.9014151692
-0.168364048 -0.01205304358 1.009514928 -0.1420952231 0.003666443983 -0.9797173142
-0.1719778925 -0.00657439325 1.011591315 -0.2408981472 0.0137273455 -0.9624958634
-0.1728769392 -0.02108783275 1.011084914 -0.2854893208 0.03697225079 -0.95004493
-0.2019689381 -0.01656156592 1.038265109 -0.5696235299 -0.2161079347 -0.7842338085
-0.2110181153 -0.01521914732 1.060784578 -0.5675329566 -0.179499507 -0.6075208783
-0.2029542476 -0.02421799488 1.088060379 -0.7795857191 -0.4065216482 -0.07671321929
-0.207579881 -0.01895780303 1.071790934 -0.654258728 -0.2743679583 -0.3908818662
-0.2067239136 -0.01858942956 1.066287637 -0.6270738244 -0.2724843621 -0.4650184214
-0.2168679237 -0.01097389683 1.055482864 -0.4994108677 -0.05962109938 -0.7675434947
-0.2046932578 -0.01823422499 1.056523323 -0.5820565224 -0.2781977952 -0.5897616148
-0.2163001001 -0.01008762512 1.047759056 -0.457277 -0.04577113688 -0.8800031543
-0.2100966722 -0.01410625037 1.050314784 -0.5113732219 -0.1634102017 -0.7579473257
-0.2003278136 -0.02645535767 1.092543125 -0.8226112127 -0.4668484926 0.02779738791
-0.2046659887 -0.02487201057 1.052510858 -0.469219625 -0.2544777095 -0.708640933
-0.2060288936 -0.01948058791 1.043455005 -0.4460798204 -0.2075056732 -0.8425619602
-0.2038280368 -0.02548946626 1.05911243 -0.5247600675 -0.2912039161 -0.587805748
-0.2017213702 -0.02478782274 1.076573014 -0.6989144087 -0.3900924623 -0.2518501878
-0.2055118978 -0.01675649546 1.048717976 -0.5279043913 -0.2391970456 -0.7236949801
-0.2026130259 -0.02176579833 1.070454717 -0.6760372519 -0.3578920364 -0.3466766477
-0.2083138376 -0.0219314713 1.038884997 -0.4675160646 -0.1708675921 -0.8582537174
-0.2077317834 -0.01328720525 1.041732192 -0.4870504439 -0.1778408438 -0.8524090052
-0.2083941847 -0.07013034821 1.05550015 0.04290991649 -0.3980076313 -0.9140911698
-0.2112212926 -0.07450249046 1.058184505 0.003808143316 -0.4163110554 -0.9065597057
-0.2136186063 -0.06018814445 1.05055654 -0.03194535524 -0.3175814152 -0.9471288919
-0.2137663662 -0.06497281045 1.053567171 -0.02071844041 -0.3316590786 -0.9423868656
-0.2058351636 -0.0575308688 1.050264597 0.03708422184 -0.3241209984 -0.9446026683
-0.2012553364 -0.03987848014 1.099809289 -0.7580753565 -0.5253911018 0.237803936
-0.2021105587 -0.04451860115 1.089615107 -0.5852327943 -0.4935714602 -0.01693585142
-0.2015107125 -0.04356437176 1.09535408 -0.6619573236 -0.4985857308 0.1114841253
-0.2023590207 -0.04899837449 1.084732294 -0.4744260609 -0.4607692361 -0.1593595147
-0.203104496 -0.05498758331 1.074653268 -0.2861407995 -0.4184053838 -0.4238907099
-0.2031652033 -0.04907384142 1.077759504 -0.3946619034 -0.4631096721 -0.3055866659
-0.1973835826 -0.07281055301 1.056613445 0.06734871864 -0.4293068945 -0.8995395303
-0.2026393563 -0.05455807969 1.080603242 -0.3686341643 -0.4384955764 -0.290718317
-0.2040109634 -0.06347703934 1.065583229 -0.1012156755 -0.4008716643 -0.6781369448
-0.201641947 -0.04986721277 1.094136357 -0.5920692086 -0.4930632412 0.04046174511
-0.2033145577 -0.06140308827 1.076779723 -0.2766150236 -0.4571828544 -0.413798064
-0.2034918964 -0.05990739539 1.070984602 -0.1992787719 -0.4121632576 -0.5368797183
-0.1993059814 -0.06324432045 1.05463171 0.076536268 -0.3411843181 -0.9366723299
-0.1973062605 -0.05806712061 1.053380013 0.06848436594 -0.3295992911 -0.9414303899
-0.2109851986 -0.05714331195 1.064833164 -0.2232844979 -0.3925541937 -0.6393404007
-0.2048346549 -0.06158694997 1.059859753 -0.0421958901 -0.3723553121 -0.7917202711
-0.2030372918 -0.03741817549 1.093012571 -0.7206392288 -0.5458240509 0.1192450151
-0.2032741904 -0.07388328016 1.056552887 0.06800266355 -0.4342876077 -0.8968161941
-0.07797507942 -0.1032135189 1.130011559 -0.1092058346 -0.06216116622 -0.9888272285
-0.07818088681 -0.1120160744 1.133004904 -0.1125247106 -0.02679299004 -0.9910690188
-0.08713516593 -0.1122578233 1.131783247 -0.1210319027 0.0204180833 -0.9919640422
-0.08672782779 -0.1177227125 1.131523132 -0.2263100296 0.2135164738 -0.9204733968
-0.08059097826 -0.1086019948 1.128654599 -0.1628213376 0.04659692571 -0.9600506425
-0.07847446948 -0.1182034612 1.131580591 -0.1526847035 0.06444716454 -0.9533751011
-0.08104600012 -0.1235099509 1.13302815 -0.2183918059 0.2060755193 -0.9118702412
-0.1895229667 0.00701619219 1.016279459 -0.5287288427 0.02763380855 -0.8478466868
-0.1767341644 0.003326481208 1.011008859 -0.2964820266 0.09795058519 -0.933714509
-0.1803062409 -0.001135939849 1.013064623 -0.393029213 0.04991230369 -0.9029253721
-0.1826207787 0.009674296714 1.013008952 -0.3824770749 0.08061866462 -0.9089384675
-0.1780739278 0.01175199449 1.010005832 -0.2731067836 0.1586661488 -0.9295210838
-0.1833488345 0.003716851352 1.013851047 -0.4284212291 0.05193939433 -0.8917148709
-0.2221893221 -0.03695590422 1.045381904 -0.2217622697 -0.1667714268 -0.9566394091
-0.2241920382 -0.04678036273 1.04840374 -0.1873152703 -0.2271958888 -0.9543997645
-0.2183499932 -0.044424247 1.04613924 -0.1481721401 -0.2509761751 -0.9548029304
-0.2329436839 -0.04381605238 1.049726129 -0.2269923836 -0.1628525406 -0.9562901258
-0.2293440253 -0.05022038147 1.050795913 -0.198937729 -0.2372618169 -0.9498870969
-0.2400717735 -0.0373037681 1.053274512 -0.2759255469 -0.09682092816 -0.9545425773
-0.1901738644 -0.01869939081 1.018890023 -0.6388531923 -0.1787329614 -0.7465391755
-0.1845155507 -0.01456518751 1.013361216 -0.4997126758 -0.0637281239 -0.8622776866
-0.1786740273 -0.007549189031 1.012920618 -0.3874574602 0.01429404691 -0.9168975353
-0.1898567379 -0.006890300196 1.018702507 -0.6227115393 -0.05137996003 -0.7793416977
-0.1873056144 -0.001426248578 1.016271353 -0.534520328 0.001871456043 -0.8424220085
-0.1923629791 -0.0001525195257 1.019848585 -0.6136060953 -0.03603240848 -0.7855352163
-0.1987076551 0.006126351655 1.025310755 -0.6344842911 -0.05490591004 -0.7666332126
-0.1933918297 0.01022513863 1.019197702 -0.563672483 0.01217278466 -0.8223985434
-0.1848825216 -0.008961288258 1.014600754 -0.5063868165 -0.02532484382 -0.8607861996
-0.1924391389 -0.01303179562 1.022907615 -0.6701507568 -0.1122127697 -0.7321256399
-0.2260878235 -0.02529589646 1.044718146 -0.3238914609 0.03924993053 -0.9448269606
-0.2288254648 -0.03023750708 1.045601726 -0.2829593122 -0.02176581323 -0.9558727741
-0.2364658266 -0.03737933189 1.048591733 -0.2513797283 -0.07979886979 -0.9626099467
-0.2278273255 -0.03940161318 1.047089458 -0.2206603587 -0.1369315833 -0.9613263607
-0.1995191574 -0.009785296395 1.028270602 -0.640915215 -0.1149196848 -0.7560818791
-0.2046131492 -0.005685402546 1.031229377 -0.6028954387 -0.1064054146 -0.7895796895
-0.1976278871 -0.0008668963565 1.029554009 -0.6731452942 -0.1109206229 -0.7306665778
-0.1862213165 0.0002768816485 1.022062182 -0.4981348217 -0.02235826291 -0.8329654336
-0.1924853474 -0.007596187759 1.024348617 -0.653639257 -0.08117362857 -0.7424198389
-0.1765309125 0.002782202791 1.017060995 -0.3105118871 0.03769294918 -0.9379170537
-0.181863457 -0.005745180883 1.018303156 -0.4415340126 -0.0255302377 -0.8649632931
