# .PCD v0.7 - Point Cloud Data file format
VERSION 0.7
FIELDS x y z normal_x normal_y normal_z
SIZE 4 4 4 4 4 4
TYPE F F F F F F
COUNT 1 1 1 1 1 1
WIDTH 512
HEIGHT 1
VIEWPOINT 0 0 0 1 0 0 0
POINTS 512
DATA ascii
-0.1478845179 -0.07373262197 1.2245543 -0.1106398106 -0.5069720149 0.8548322916
-0.1437658221 -0.07147479802 1.226024628 -0.1106398106 -0.5069720149 0.8548322916
-0.1854332238 0.03531371802 1.120372295 0.1663035154 0.3061335087 0.9314320683
-0.1917823106 0.03186240047 1.120497584 0.2131087333 0.3089872003 0.9235835671
-0.1867061108 0.03015485778 1.122709155 0.176021874 0.3176656663 0.9251686335
-0.1772193313 0.03484880924 1.122761488 0.1061204374 0.314537704 0.9364097714
-0.1171366423 0.051107198 1.094162583 -0.1473822743 0.07773582637 0.9628637433
-0.1208979711 0.05458205566 1.091001749 -0.1308698207 0.06558448076 0.9680710435
-0.1097133681 0.04653166234 1.097651601 -0.2579482198 0.1183062717 0.9417688251
-0.1472543329 -0.07256389409 1.230447531 -0.1106398106 -0.5069720149 0.8548322916
-0.0581355691 -0.06168312207 1.227025509 0.09359528869 0.3521901965 0.9295760989
-0.0591159761 -0.05093580484 1.221161842 0.1259872019 0.3594700694 0.9243027568
-0.06208781898 -0.05743858963 1.225670695 0.07781935483 0.3579674959 0.9291952848
-0.07046929747 -0.05962112173 1.22084868 0.08402591199 0.3306367397 0.9384277463
-0.07280241698 -0.06446307898 1.22329998 0.05784550309 0.3167921603 0.9454218149
-0.07072477043 -0.06554163247 1.231575608 0.03969563544 0.3128985167 0.9468320608
-0.1856253147 0.07039259374 1.109263182 0.1608488113 0.08429316431 0.983189702
-0.08078417927 -0.06456039101 1.232000113 0.05728634819 0.2462743074 0.9655683041
-0.06554853916 -0.06843201071 1.232000113 0.03872106597 0.3320477605 0.9419175982
-0.08451274782 -0.06106061488 1.222767591 0.04483382776 0.234778434 0.9640774727
-0.08817658573 -0.06358102709 1.2263304 0.04237330332 0.2121919245 0.9724288583
-0.2106704414 0.01089341659 1.129098415 0.2345487922 0.3530959189 0.9048201442
-0.2131987512 0.01528621279 1.129243255 0.2358307838 0.3332570195 0.9126861095
-0.1707495451 0.04388538748 1.119950294 0.05450004339 0.2561999857 0.9591476321
-0.1831285208 0.04638580605 1.116036296 0.131642133 0.2002012432 0.9649155736
-0.1827547103 0.03988070786 1.119145632 0.1368134618 0.2745891809 0.9451565146
-0.1770964265 0.04095594957 1.120058298 0.09549101442 0.2775284052 0.94987005
-0.1887016892 0.04043962434 1.11755383 0.1748535335 0.2547881007 0.9459315538
-0.1929061562 0.04215985537 1.115932107 0.1975184977 0.2276779115 0.9509740472
-0.1942813993 0.03581697121 1.117988229 0.2269715816 0.2871370316 0.9292003512
-0.1854902804 0.03659081832 1.114235163 0.0814993903 0.2512421906 0.9632367492
-0.2131760716 0.02578940801 1.129615784 0.2451853752 0.3167264462 0.9161133766
-0.2015601844 0.02219412476 1.126437902 0.2473691553 0.3184583783 0.9149411321
-0.2035169899 0.01865518652 1.129523158 0.2364306003 0.3107283711 0.9203702807
-0.2067181617 0.02299034223 1.128574014 0.2487502247 0.3173504472 0.9149913192
-0.1262760758 0.06535337865 1.085361242 0.004128119908 0.007820766419 0.9968961477
-0.1650633663 0.06600619107 1.105453014 0.3658266664 0.2155522704 0.900053978
-0.1659910679 0.0645897314 1.110637188 0.2524481714 0.1957601309 0.9430027604
-0.161318168 0.06275228411 1.106185317 0.3991743028 0.2672746181 0.8704990149
-0.1795642823 0.05415515229 1.112105966 0.1529627889 0.1333782822 0.9786706567
-0.1758589 0.06706221402 1.113563418 0.1843387038 0.1083096638 0.9759634137
-0.180806458 0.0683554858 1.113163233 0.1777837574 0.09193362296 0.97943753
-0.1721599251 0.05143822357 1.115235686 0.1242582649 0.19870013 0.9671086073
-0.1736881733 0.05936494842 1.114304423 0.1562363803 0.1545305103 0.9713035226
-0.1683776677 0.04920515791 1.120177388 0.07140418142 0.2481063157 0.9578328729
-0.1680636853 0.06180365384 1.114536881 0.1760672331 0.1934142709 0.9596010447
-0.171684891 0.06547996402 1.115978241 0.1623025835 0.1517672837 0.9672976136
-0.1695057899 0.05643095449 1.118587613 0.1095614359 0.2087155432 0.9612567425
-0.1660768986 0.04347107932 1.122043133 0.03798821568 0.2923600972 0.9520148635
-0.1374956667 0.05425541848 1.096035242 0.241139695 0.04852509871 0.9094363451
-0.124041222 0.05099829659 1.091957569 -0.08348485827 0.06706888229 0.950104475
-0.1157853827 0.04648382589 1.09215641 -0.2989856899 0.1199587137 0.925711453
-0.1298850328 0.05255336314 1.093577981 0.05842265487 0.05669856071 0.9351938367
-0.1453867555 0.05431640148 1.10005331 0.4184178114 0.06503638625 0.8566887379
-0.144182831 0.04831476137 1.101065636 0.3374088109 0.1195097715 0.846039176
-0.1234853789 0.05043213442 1.087000012 -0.1136893854 0.0496856831 0.9894458055
-0.1223790869 0.04480598494 1.087000012 -0.1894583106 0.06183193251 0.9788244367
-0.1268149465 0.06385862082 1.090000033 0.06322076172 0.005289151333 0.9540036321
-0.1570883691 0.03658953309 1.104265451 0.1729135066 0.2481612265 0.9254763722
-0.1503053457 0.03901634738 1.096865654 0.2940663397 0.1515190154 0.9172967672
-0.142664969 0.03944974765 1.087907434 0.350140363 0.0620849207 0.9326471686
-0.1575210243 0.04135489836 1.10607028 0.3371490538 0.2127774358 0.8734549284
-0.1151598394 0.04044960067 1.088259935 -0.2917022407 0.130203858 0.9465070963
-0.05925689265 -0.05610750243 1.220040441 0.1229792014 0.3566562533 0.9255158901
-0.04973973334 -0.04940726608 1.214344144 0.1468473524 0.3421055079 0.9281162024
-0.03779872507 -0.04233821481 1.207140326 0.1468473524 0.3421055079 0.9281162024
-0.07960189134 -0.05785369873 1.225782871 0.06759759039 0.2982733846 0.9516390562
-0.07538688183 -0.05528783798 1.224098802 0.075733684 0.3162858486 0.9445903897
-0.07007948309 -0.05117605627 1.221882224 0.09204082191 0.3410217166 0.934268117
-0.06618873775 -0.04808994383 1.218716264 0.09911860526 0.3661413789 0.9249812365
-0.06791207194 -0.05526009575 1.223705292 0.0714713484 0.343387723 0.9354708791
-0.06888812035 -0.06137087196 1.227321863 0.04716392979 0.3334841728 0.9411042333
-0.06417934597 -0.06344783306 1.229503274 0.04309169948 0.3516537249 0.9345584512
-0.07488512248 -0.06077580526 1.227263093 0.05301290378 0.3123452365 0.9479990602
-0.1647848785 0.04400466755 1.108746767 0.3306953907 0.2194200754 0.8929241896
-0.1716179401 0.03707736358 1.110987902 0.1396754235 0.2683867812 0.9335671067
-0.183155477 0.06476818025 1.107347846 0.1711751819 0.09218092263 0.9804357886
-0.1730624586 0.06874989718 1.10584259 0.2852126956 0.103324689 0.9486523271
-0.1781886071 0.06874738634 1.106879234 0.2234117836 0.09200614691 0.9666109085
-0.1788640767 0.07265235484 1.10987246 0.1918625534 0.08062548935 0.9780224562
-0.1828094721 0.07344214618 1.113423944 0.1738983393 0.09083841741 0.9804393053
-0.1946464181 0.06942354888 1.112558007 0.1414830387 0.09877168387 0.9848859906
-0.1889037341 0.0714564994 1.113348603 0.1583219916 0.0976960361 0.9824254513
-0.1987408102 0.0666795671 1.11425674 0.1576550901 0.1162220463 0.9805162549
-0.0698088631 -0.07151467353 1.232000113 0.04687771946 0.2974117994 0.9532123208
-0.07513379306 -0.06797079742 1.232000113 0.05734562129 0.2700894177 0.9598218799
-0.07534378022 -0.07322663069 1.232000232 0.02477663942 0.2748010159 0.9607904553
-0.0862621069 -0.06807879359 1.226999879 0.04295166954 0.1973952651 0.9787862301
-0.0838631317 -0.07849417627 1.227000117 0.01953883469 0.1044226959 0.9853750467
-0.07985557616 -0.06343339384 1.223235846 0.0541042611 0.260217309 0.9603045583
-0.0815045312 -0.07009471953 1.225057244 0.03928330168 0.2273825556 0.9698479772
-0.07655633986 -0.0685499236 1.225030422 0.03979258612 0.28268224 0.9562697411
-0.07250117511 -0.05223409086 1.217610955 0.07418269664 0.3534200191 0.9321034551
-0.07611212134 -0.05970583856 1.220749021 0.05948944762 0.3023496866 0.9475087523
-0.1857288629 0.05981303751 1.112017155 0.1520219296 0.1028404757 0.9829122424
-0.1879885942 0.0637506023 1.109288335 0.1526545435 0.09532141685 0.9835790396
-0.2098103911 0.03834013268 1.120040536 0.2106692642 0.2693416476 0.9374982715
-0.2077075839 0.0443598479 1.118627429 0.1987981945 0.2399161607 0.9474108815
-0.2121038139 0.01993354596 1.130390644 0.2392580211 0.3209961653 0.9162353277
-0.1980152577 0.0111401407 1.129999995 0.2225840539 0.3169747889 0.9207615256
-0.2013231218 0.005829569418 1.129999995 0.2524701357 0.4043364525 0.8772212863
-0.2062400281 0.01383014861 1.129999995 0.2293673158 0.3289358914 0.9150780439
-0.1997246444 0.02456990071 1.119503856 0.2215139121 0.3265461028 0.9184812903
-0.210435614 0.007523519918 1.125095487 0.2565079331 0.3545052707 0.8991206288
-0.1959362626 0.01859259419 1.119944811 0.2003925443 0.3252286017 0.9234857559
-0.2047882229 0.0163518358 1.122179389 0.2379411459 0.3398775458 0.9093040824
-0.2052906007 0.01092422102 1.123373985 0.2362118661 0.3444929123 0.9076855183
-0.2043617964 0.03172661364 1.122043133 0.222791329 0.3085761666 0.9245574474
-0.2044636607 0.02767250873 1.125421286 0.2478841692 0.3130122721 0.9167400599
-0.1999386996 0.02823627926 1.122983217 0.2467521727 0.3129111826 0.9170560837
-0.2059286833 0.04927028716 1.117005587 0.1946191788 0.2123320103 0.9553588033
-0.2105194628 0.03329021856 1.122374177 0.2064680904 0.3023400903 0.929770112
-0.125504449 0.05820543692 1.086239338 -0.02036618255 0.02484253421 0.996635139
-0.1325035095 0.0547436364 1.086266518 0.1579470932 -0.00554155279 0.9838852286
-0.1299421042 0.06147057191 1.086106181 0.102796495 -0.01685714908 0.9887465835
-0.1688351929 0.07128378749 1.106695175 0.3206423819 0.1071598083 0.9391518831
-0.1723845303 0.07302498072 1.110230565 0.2601305246 0.09411588311 0.9579235911
-0.1790939122 0.03862855583 1.112459064 0.06492203474 0.253138572 0.9639904499
-0.1840708852 0.04262999445 1.112882018 0.06944492459 0.2100873142 0.9745694995
-0.1455607563 0.05851484835 1.097833276 0.4637666047 0.01701443456 0.8773795366
-0.1400305629 0.06181192398 1.093567967 0.3774489462 -0.02880342864 0.9159789085
-0.135723114 0.05773260072 1.092777848 0.2342223525 0.0007399274618 0.9488050342
-0.1548407972 0.06173433736 1.1021806 0.4318808615 0.2063930184 0.8639013767
-0.1504638344 0.06167957932 1.098423719 0.4235066772 0.09710619599 0.8816701174
-0.1472008824 0.066993393 1.095440507 0.3283228278 -0.003646242898 0.940038681
-0.1533184499 0.06663390994 1.099043727 0.3544631898 0.07594230026 0.920030117
-0.1577397287 0.06673787534 1.101466894 0.3683286011 0.1222498864 0.9098482728
-0.1564375907 0.07095929235 1.098906279 0.2625229657 0.08428312838 0.9452449679
-0.1343297511 0.07215417922 1.08671093 0.0759440437 0.04205900431 0.9768743515
-0.1408295035 0.06663619727 1.092190862 0.2989267409 -0.03026309796 0.9468765855
-0.1409866214 0.07372027636 1.090091467 0.08340890706 0.07766351849 0.977871716
-0.1642944813 0.07103176415 1.103171587 0.3164749742 0.1050614342 0.9367640615
-0.1512020081 0.07123427093 1.09622705 0.2255285233 0.06983369589 0.9540970325
-0.1361126006 0.06592097133 1.088590026 0.2249659598 -0.02638660185 0.951851368
-0.1576933563 0.03893066198 1.099343538 0.2401562929 0.1673913151 0.933113873
-0.1536433697 0.04282550886 1.096728086 0.3371724486 0.1324629635 0.9074200392
-0.1567765921 0.04437938333 1.1022228 0.413577646 0.15109317 0.8685779572
-0.1666417122 0.03858861327 1.106733561 0.1876535118 0.2302730083 0.92813164
-0.1451783329 0.05566348135 1.093260288 0.4391869307 0.02543427981 0.8895529509
-0.1504406482 0.05321685225 1.096050739 0.4582467377 0.1425056458 0.8692962527
-0.115935944 0.05665602908 1.090924621 -0.2523640692 0.1017881855 0.9504745603
-0.1205153242 0.05791468918 1.086375475 -0.1661978215 0.04825552925 0.9787690043
-0.1079165637 0.07499530166 1.087247133 -0.2988554537 0.07504627109 0.9509120584
-0.1149900034 0.07430528104 1.087618709 -0.250554502 0.06952504814 0.9651836753
-0.1289949268 0.06944942474 1.088484526 0.08542559296 -0.001514204312 0.9611470103
-0.1302056462 0.07462279499 1.084330559 -0.01674476266 0.06094478443 0.9946768284
-0.1238831952 0.07485058159 1.085195661 -0.1209333763 0.06736657768 0.985232234
-0.1162498221 0.06874256581 1.090000033 -0.2146600187 0.07126241922 0.9522890449
-0.1236325502 0.0690567717 1.090000033 -0.01110314392 0.008911280893 0.9507619143
-0.1193826795 0.06735642254 1.08586061 -0.1691737175 0.07186035812 0.9827315807
-0.09351588786 -0.06329581887 1.228905082 0.07636091113 0.04713717848 0.9682783484
-0.08476845175 -0.06012137234 1.228215337 0.07103785127 0.2394555658 0.9619882703
-0.1009664834 -0.06827091426 1.227000117 0.08765842766 -0.135947749 0.9772683382
-0.09517925233 -0.06878693402 1.227000117 0.02858876437 0.09896153957 0.9893901348
-0.09027408808 -0.07148828357 1.226999998 0.0249177441 0.1542199701 0.9872595072
-0.06170844659 -0.04978434741 1.216923356 0.1334611475 0.3458423615 0.9285087585
-0.0663638413 -0.0530606024 1.217525363 0.1256689131 0.3480979204 0.9287261367
-0.04504391924 -0.04538681358 1.211275339 0.1468473524 0.3421055079 0.9281162024
-0.05445008725 -0.05018671975 1.216800451 0.1468473524 0.3421055079 0.9281162024
-0.04907111824 -0.04163831472 1.213684559 0.1468473524 0.3421055079 0.9281162024
-0.04417290166 -0.03792624548 1.211759806 0.1468473524 0.3421055079 0.9281162024
-0.05043287948 -0.03675420582 1.21556735 0.1175045893 0.3666031659 0.9227283001
-0.05793981999 -0.04252367839 1.217917204 0.111162208 0.3718982935 0.9215637445
-0.05400908366 -0.04566502944 1.219452739 0.1237932891 0.3613528609 0.9238830209
-0.1080716476 0.04194192588 1.093673706 -0.3432810605 0.1503528357 0.9269722104
-0.103439033 0.03560466692 1.100415945 -0.3690543175 0.2708752453 0.8885893822
-0.1370529085 -0.07084491849 1.226510882 -0.1106398106 -0.5069720149 0.8548322916
-0.1967834085 0.02065750211 1.124872565 0.243273899 0.3166536689 0.9165577888
-0.1938913614 0.01351205632 1.127239823 0.198225379 0.3003613055 0.931289196
-0.185252443 0.01307981368 1.124463916 0.0651660338 0.3499525487 0.9339774847
-0.1743006855 0.01268073823 1.129956365 0.02711670659 0.3252986073 0.9374682307
-0.1849812865 0.01216276269 1.129798532 0.1179444417 0.3146008253 0.9332072735
-0.1715563089 0.02798294276 1.111114383 0.02603685297 0.2854982316 0.9486334324
-0.1648930758 0.03282238543 1.105237484 0.1164520383 0.2292883694 0.9476845264
-0.1672517657 0.02813488059 1.107880354 0.05960652232 0.2553768754 0.9463158846
-0.1780431867 0.0273462981 1.114381552 0.006188021507 0.302323401 0.9514734149
-0.1829199195 0.02476584539 1.116050959 0.09839115292 0.3363888562 0.9340924025
-0.1825005859 0.02966275997 1.114943981 0.06437269598 0.2973248363 0.9501921535
-0.1759780645 0.03394446522 1.112599373 0.05369972065 0.290799737 0.954840064
-0.1108802557 0.03681601211 1.095882058 -0.2991897464 0.1938719451 0.9225158691
-0.1150043309 0.03723568469 1.093161345 -0.2612451017 0.1517686546 0.9409365654
-0.1041998118 0.0303629972 1.096372604 -0.3604391217 0.2907316387 0.882873714
-0.1113738641 0.03362441435 1.091516733 -0.3131869137 0.2098977417 0.9176481962
-0.1217649281 0.0383955203 1.086004972 -0.1929249614 0.1179208532 0.9605474472
-0.1315182298 0.03916835785 1.085545182 0.06286879629 0.09984429181 0.9813648462
-0.1351668388 0.04600335285 1.098198175 0.1208273619 0.1284162849 0.8708497286
-0.1352540255 0.04140982777 1.093412638 0.09030370414 0.08483939618 0.9223213792
-0.1275734454 0.04396642745 1.094165564 -0.05975415558 0.112848796 0.9089109302
-0.1221902966 0.04558506608 1.094511986 -0.1661492735 0.1308382899 0.9014593363
-0.1293693185 0.04009002447 1.09055829 -0.04781545699 0.07522735745 0.9489085078
-0.04426757991 -0.02828078717 1.214603782 0.1112086326 0.3718595505 0.921572268
-0.03715122491 -0.03205358982 1.207501769 0.133980453 0.3528478146 0.9257535934
-0.03596835583 -0.03724997863 1.206047535 0.1468473524 0.3421055079 0.9281162024
-0.05161076784 -0.05426102132 1.22035265 0.1303211898 0.3528916538 0.9259530306
-0.05406299606 -0.05781196058 1.223231554 0.1208754927 0.359056592 0.9247166514
-0.04545924067 -0.04841070995 1.217191577 0.1468473524 0.3421055079 0.9281162024
-0.04098512605 -0.0322798416 1.212311149 0.1300175637 0.3561563492 0.9250259399
-0.04548056051 -0.03826066852 1.216431975 0.1279246956 0.3579036295 0.9246416688
-0.04652315006 -0.03263921291 1.214606047 0.1220516488 0.3628069162 0.923563242
-0.06743606925 -0.06566559523 1.225672722 0.03441397473 0.3410948217 0.938833952
-0.07058151811 -0.06963982433 1.22663939 0.04465808347 0.3161381185 0.9464938641
-0.06439432502 -0.06136054918 1.223528028 0.06472635269 0.3563216329 0.9309565425
-0.2082507163 0.04075208306 1.115314603 0.2498731613 0.2337840497 0.9390884638
-0.2060315758 0.03577315435 1.116494417 0.2459007353 0.2771333754 0.9285425544
-0.1994173527 0.03480000049 1.11905098 0.2288756669 0.2919350266 0.9279751778
-0.2021134496 0.0415841341 1.115365624 0.2274661213 0.2306861877 0.9449068904
-0.1976600587 0.04400129616 1.114995956 0.2104427516 0.2078891993 0.9546920657
-0.1914509386 0.02185074426 1.118759274 0.1993161738 0.3341759145 0.9201677442
-0.1901713461 0.02654375695 1.117099285 0.1780024618 0.3372525573 0.9224202633
-0.1872301847 0.03226657212 1.115172982 0.1074449196 0.286736697 0.9491825104
-0.1966389418 0.03139964491 1.116361976 0.1997720152 0.3060999513 0.9281225204
-0.09833747894 -0.07300195843 1.226999998 0.06235460937 -0.09563405812 0.9888792634
-0.1130708307 -0.09007880837 1.22723639 -0.09425314516 -0.3729591668 0.9063267708
-0.1020963863 -0.08672389388 1.228561997 -0.03181195259 -0.163921833 0.9657485485
-0.09177924693 -0.08341142535 1.228031039 0.007401384879 -0.02202755585 0.9992212653
-0.1941682994 0.06395849586 1.112284422 0.1360553354 0.09821013361 0.9858077168
-0.1902256757 0.05705485493 1.112086654 0.1355777681 0.1035415381 0.9852852821
-0.2002238929 0.05650883541 1.113554835 0.1589376777 0.1378229707 0.9764336348
-0.2034213096 0.06180751696 1.114550352 0.1647173464 0.1374003738 0.9763122201
-0.1876111776 0.05152850971 1.112591624 0.154347375 0.1293887347 0.9784228206
-0.1927272528 0.05293842778 1.111757159 0.1485241205 0.1243317425 0.9795367122
-0.1896296293 0.04690333083 1.112830758 0.1467045695 0.1796252728 0.9703170061
-0.1952260435 0.04861823097 1.113813162 0.1766052991 0.1669187248 0.9683863521
-0.2003072649 0.04861554503 1.114708662 0.2029585093 0.1913466901 0.9600983858
-0.2041708827 0.001364191296 1.128224015 0.2366944253 0.3908686638 0.8887937665
-0.2045524567 0.02218072489 1.121379137 0.2390707135 0.3311608434 0.9126217961
-0.210835427 0.01909958944 1.124284506 0.2454153597 0.3150298893 0.916170001
-0.211035043 0.02742269821 1.122142315 0.2294161469 0.2991200089 0.9253695011
-0.1354005337 0.04233639687 1.085713387 0.1923740655 0.07198686898 0.9736583233
-0.1404104233 0.04412084073 1.086811423 0.347153455 0.04382906854 0.9333025217
-0.1278448403 0.04279304668 1.086434484 -0.0606469214 0.06842511892 0.9854976535
-0.1304689944 0.05017095804 1.086526632 0.05991992354 0.01536973473 0.983336091
-0.1447776407 0.04602750391 1.090213299 0.4502525628 0.06508934498 0.888949573
-0.1417004913 0.04174598679 1.093363285 0.2763349116 0.08425687253 0.9068447948
-0.1446372122 0.04387877509 1.097917795 0.3221433461 0.1034939438 0.8760787249
-0.1491968781 0.04526608437 1.10044682 0.4330959022 0.1143788248 0.8514153957
-0.1783399731 0.0633174032 1.107626915 0.1828043461 0.09991150349 0.9775446653
-0.184596315 0.05359618366 1.109273672 0.123868458 0.1289566457 0.9822446704
-0.1763283759 0.05687426031 1.108094573 0.159881115 0.156084612 0.9743371606
-0.1766968518 0.04376434907 1.110843658 0.09513194114 0.2319037318 0.9647243619
-0.1807129085 0.04819688573 1.110966563 0.1003071368 0.1890860945 0.9749788642
-0.1713238358 0.05663032457 1.107643008 0.2641749382 0.1814283431 0.9379793406
-0.1695134789 0.06147394702 1.106854677 0.2821210325 0.2193067521 0.9284147024
-0.1708972305 0.04621148854 1.10951221 0.2077382207 0.2226783186 0.9371261001
-0.1683107167 0.05268129334 1.107980847 0.3017008603 0.1825232655 0.9244894385
-0.1638132632 0.03754334152 1.11390996 0.1272196621 0.3159449995 0.913143754
-0.163376987 0.04097110778 1.118221164 0.1293522716 0.2830547988 0.9207567573
-0.1602841765 0.04189733416 1.11089325 0.298427403 0.2395578623 0.8758286834
-0.140928492 0.05360867828 1.090101123 0.375810802 -0.0005056133959 0.9165094495
-0.1352472603 0.06039716303 1.088093638 0.2389694899 -0.04851255938 0.9641237855
-0.1368139386 0.05128707737 1.087067127 0.2641099691 0.00943710003 0.9569270611
-0.148729369 0.04761087894 1.094738007 0.4737024605 0.09358202666 0.8734838367
-0.1612838209 0.05029930174 1.106651902 0.427668184 0.1976317763 0.8811405301
-0.1530043185 0.04912250862 1.098198891 0.4501069486 0.1293674409 0.8802531362
-0.156495735 0.05137722939 1.100563884 0.4378211498 0.1565990746 0.8815043569
-0.155719012 0.05704209954 1.101529956 0.4672682583 0.2207671851 0.8505504131
-0.1644600779 0.05658914149 1.106843114 0.4156690538 0.2267047018 0.879376471
-0.1602176577 0.04699661955 1.113937497 0.2444520295 0.2394847274 0.8988204598
-0.1569119096 0.04709500074 1.109245658 0.3986084461 0.1682148576 0.8609281778
-0.1514625996 0.05326348171 1.102557182 0.5231596828 0.08028421551 0.8424608111
-0.1539109945 0.05052622035 1.105602145 0.4649849236 0.1198673621 0.851478219
-0.1622750163 0.05199067667 1.112950444 0.256943047 0.2395742089 0.9068970084
-0.1640363932 0.04906746745 1.116704583 0.1600908488 0.261131376 0.9299274087
-0.1659983993 0.05703019723 1.114972234 0.1676346809 0.2265126407 0.9514550567
-0.07494663447 0.04842641577 1.101359367 -0.2871817648 0.2064071447 0.927834928
-0.06982697546 0.05133652687 1.102309108 -0.2799510062 0.215782702 0.9310027957
-0.06421818584 0.06327229738 1.104808092 -0.2742955387 0.1611749679 0.9476004243
-0.09470968693 -0.06605023146 1.233042717 0.1073559374 -0.04671970382 0.9907056689
-0.09192316234 -0.07968426496 1.232198834 0.03490793705 0.0243643038 0.9904778004
-0.08861388266 -0.07468558848 1.232386589 0.05696391687 0.07623644173 0.986966908
-0.09510786831 -0.083961308 1.232048035 0.01640347019 -0.02637459338 0.9937749505
-0.08816482127 -0.06688628346 1.232210994 0.06529586017 0.1507678032 0.980597198
-0.08486331999 -0.08140602708 1.232000113 0.02487098053 0.06634607166 0.9956123233
-0.08273284882 -0.07348070294 1.232000113 0.0367397517 0.2084588856 0.9764227271
-0.08077091724 -0.07884570211 1.232000113 0.02445101738 0.1461096108 0.9846045375
-0.09020134807 -0.07707224786 1.226999998 0.03167656064 0.0427859202 0.9948157072
-0.1203917265 -0.06820755452 1.234972954 -0.05623945221 -0.3708311915 0.918266356
-0.1257998943 -0.0683870241 1.23822248 -0.09808298945 -0.4231432378 0.8968710303
-0.09587591141 0.03488912061 1.103610039 -0.3529089093 0.3199963272 0.8788222075
-0.1004581377 0.04108416289 1.102083087 -0.3450428545 0.2085933089 0.911393404
-0.1390321255 -0.08232439309 1.218067169 -0.134850502 -0.500777185 0.854875505
-0.1373495311 -0.07752308995 1.222033381 -0.118150793 -0.5050501823 0.8548457026
-0.1479440629 -0.07737466693 1.220188498 -0.1107421294 -0.5069458485 0.8548324704
-0.1755006015 0.007775564678 1.130409122 0.02158160321 0.3580231369 0.9267829657
-0.1848873943 0.006989379413 1.13043499 0.1018015891 0.3498722315 0.9223686457
-0.190132454 0.002032905351 1.130831599 0.1313325465 0.377389133 0.9103783369
-0.1915388107 0.009946235456 1.130156159 0.1705417484 0.3191480637 0.9266492128
-0.1798631102 0.004888995551 1.130634427 0.05032802001 0.3721351027 0.9194159508
-0.1843514442 -0.004475712776 1.131407142 0.05825269595 0.4320569634 0.8983539343
-0.1854829192 0.0002645674394 1.131001234 0.08429196477 0.3967462778 0.9080156684
-0.1990202516 0.001661400311 1.132677197 0.2198666632 0.4065176547 0.8826473951
-0.1957074106 -0.00802299846 1.138980031 0.1472302079 0.4219636321 0.8903448582
-0.1774549484 0.02877754532 1.124456286 0.09451083094 0.3207206726 0.9337064028
-0.1879060715 0.02311071567 1.124593377 0.1709392816 0.3250031769 0.9209730625
-0.1681189984 0.01667403802 1.128748536 -0.01696007885 0.3315804899 0.9394044876
-0.179824397 0.02413059399 1.125352025 0.1033774614 0.3245679736 0.929707706
-0.1799527407 0.01812338084 1.126880765 0.08937392384 0.3297002614 0.9275877476
-0.165697068 0.0353955254 1.124239802 0.009136765264 0.3156951368 0.9481120706
-0.1661130488 0.02106357552 1.127873063 -0.02332013473 0.3279337287 0.9429403543
-0.1718581617 0.03000710905 1.124847174 0.04903922603 0.3199715912 0.9399284124
-0.16892609 0.02553777769 1.126366973 0.01234923862 0.3239538074 0.9414970279
-0.1663612276 0.02970693819 1.125618815 0.0005845769774 0.320525825 0.9455407858
-0.1733114272 0.02154340781 1.126840234 0.04035080224 0.327133745 0.9356194735
-0.1883233637 0.0168920625 1.124228239 0.1236335635 0.3406882882 0.926525712
-0.1782511622 0.0135568846 1.126392961 0.02847707458 0.3438988626 0.9357430935
-0.09728970379 -0.07320618629 1.232686043 0.07526683807 -0.1050779894 0.9869074225
-0.09742245078 -0.07920536399 1.23237884 0.04315119237 -0.07637621462 0.9946476221
-0.1035980135 -0.07562412322 1.226999879 0.04829274863 -0.2402769178 0.9673810005
-0.09512334317 -0.07886789739 1.226999998 0.02482171357 -0.03585246578 0.9969223142
-0.1086281016 -0.07977694273 1.236098289 0.004221130162 -0.3036729991 0.9510319233
-0.1078760922 -0.070354864 1.237626672 0.03197652474 -0.2205921113 0.9628422856
-0.1011854932 -0.06671687216 1.235294938 0.07868660986 -0.131133467 0.9789376259
-0.1047792211 -0.07510785758 1.235268712 0.03752465546 -0.2313371301 0.9631497264
-0.102551721 -0.07899270207 1.233480096 0.04035137966 -0.2428424805 0.9628536105
-0.1013752446 -0.08041954041 1.226999998 0.02217062563 -0.1932223588 0.9724436998
-0.1076826379 -0.08797066659 1.229965091 -0.03419983387 -0.3243767321 0.9333350062
-0.1050718278 -0.06695429236 1.231745243 0.07453147322 -0.1921609491 0.9776943326
-0.1221130863 -0.06860873103 1.244186044 -0.04255053028 -0.3356370926 0.9395452738
-0.1136032864 -0.0675945729 1.238202453 0.01558943 -0.2631308734 0.9589751959
-0.08132100105 0.05124151707 1.096802711 -0.2510874271 0.1117619276 0.9608932734
-0.1100294292 0.055942256 1.092374921 -0.3332982659 0.1199919954 0.9348151088
-0.1107011214 0.06057036668 1.089200377 -0.3219120204 0.09595186263 0.9389296174
-0.1162915081 0.0609735474 1.087172151 -0.2281924188 0.0763572827 0.967720449
-0.1010727212 0.05901410803 1.097101927 -0.3455091715 0.09724781662 0.9327898622
-0.1105466112 0.06488506496 1.091926336 -0.2957744598 0.1035632119 0.9493197203
-0.1054568291 0.06488022953 1.095038652 -0.3065284789 0.091878362 0.9468618631
-0.1081453189 0.06969726086 1.093515515 -0.3040999472 0.08653476089 0.9481400847
-0.1036359742 0.07111417502 1.096416116 -0.317269057 0.07811848074 0.9445278645
-0.09681114554 0.06841054559 1.1006006 -0.3276358247 0.0705280304 0.941880703
-0.06250968575 0.05416984484 1.108047128 -0.2968174815 0.2243701667 0.9262852669
-0.0597467199 0.0582620725 1.105764151 -0.277453661 0.2208807766 0.9343279004
-0.06337598711 0.04816430062 1.109997869 -0.3130123317 0.257766515 0.9128105044
-0.1311962605 -0.06905306876 1.23040545 -0.1201463044 -0.4918224812 0.8621302843
-0.1041974425 0.03689725697 1.095319986 -0.3343238831 0.1812872589 0.9226760268
-0.08740844578 0.0465808548 1.096593618 -0.2914114594 0.1726214141 0.9404072762
-0.09234646708 0.04556531459 1.09610033 -0.3044739962 0.1673614234 0.9371615648
-0.09898377955 0.04308493808 1.095481634 -0.3206696808 0.1626317203 0.9326201677
-0.09793681651 0.02987312153 1.099219561 -0.378497839 0.3255760372 0.8661804199
-0.09475421906 0.03490310535 1.097749829 -0.3443570435 0.2814304531 0.8917709589
-0.08787406981 0.03512261063 1.099528551 -0.3363719881 0.3027667999 0.8867694736
-0.09164844453 0.03097314946 1.099684477 -0.3553106487 0.333412677 0.8716917038
-0.09088201076 0.04033596069 1.09725976 -0.3206788301 0.2376305312 0.912440598
-0.08790760487 0.04489016905 1.105051398 -0.2992121577 0.1837478727 0.9279329777
-0.08500336111 0.06090997905 1.10317266 -0.2935814261 0.05675436556 0.9497720599
-0.07697919011 0.04007123411 1.111068487 -0.325440079 0.2831916809 0.8916170597
-0.08234924823 0.04215092957 1.108114243 -0.309215039 0.2338787168 0.9104016423
-0.090452604 0.05083939806 1.102566481 -0.282348156 0.1116514876 0.9481649995
-0.08434700966 0.05112999678 1.105404019 -0.2996553183 0.1448451132 0.9313127398
-0.0865784809 0.05629354715 1.103332281 -0.2910668254 0.08731523156 0.9464136362
-0.09595360607 0.04480662569 1.102105141 -0.3188642859 0.1700542718 0.9322898984
-0.0952963531 0.04979954287 1.101008415 -0.2862465382 0.1020314023 0.9519194961
-0.09689768404 0.05921290442 1.101539969 -0.3324144185 0.09021040797 0.937846601
-0.1036720723 0.05333385617 1.096261501 -0.3537213802 0.1204057783 0.9272711873
-0.1029940024 0.04544313625 1.100226402 -0.3460463881 0.1468672603 0.9265084267
-0.1000913307 0.05098794773 1.101261735 -0.3388945758 0.1234079823 0.9316896796
-0.08937135339 0.03545379266 1.108341932 -0.3281596005 0.3093013465 0.8864815235
-0.09193217009 0.04035748914 1.105428219 -0.320640713 0.2374059409 0.9110382795
-0.08791791648 0.02976935357 1.108941793 -0.3506354392 0.3704181314 0.8590497971
-0.087067388 0.02970231511 1.102949142 -0.3516144156 0.3635162413 0.8624956608
-0.08010224998 0.02961698174 1.114689946 -0.3309545517 0.3889268041 0.8594895601
-0.07831663638 0.03518074751 1.111890197 -0.3321920335 0.3280270696 0.8811907768
-0.08309378475 0.03287523985 1.112113833 -0.3277030587 0.3444827199 0.8747007847
-0.08385736495 0.03743216023 1.109263182 -0.3267394304 0.2882770002 0.8943015933
-0.147669971 -0.07936836779 1.225226521 -0.1330167502 -0.5012463927 0.8548722267
-0.1524232775 -0.08191919327 1.22094214 -0.1372245699 -0.5001696944 0.8548797369
-0.1523782909 -0.07711242884 1.222976565 -0.1153665259 -0.5057625771 0.8548406959
-0.1523292661 -0.07554525137 1.228649855 -0.1126847491 -0.5064487457 0.8548359275
-0.1447035521 -0.08226004988 1.221087694 -0.1435896307 -0.4985410571 0.8548911214
-0.1486490965 -0.08410411328 1.217274308 -0.1414182484 -0.4990966618 0.8548872471
-0.1339310557 -0.08741763234 1.219804168 -0.1416651756 -0.4854875505 0.8621832132
-0.1282355636 -0.08979973197 1.224372149 -0.1366966218 -0.4517858922 0.8810099959
-0.1439235955 -0.08502332121 1.216854453 -0.1435896307 -0.4985410571 0.8548911214
-0.1369087696 -0.07144995034 1.238866925 -0.07912378013 -0.422083199 0.8981032968
-0.1444309503 -0.07272750884 1.234849215 -0.09756336361 -0.4717504382 0.8727860451
-0.1356665641 -0.0689047128 1.232721329 -0.1073295921 -0.4980559051 0.8593771458
-0.1402152032 -0.07072586566 1.233350635 -0.1044411436 -0.49027583 0.8633429408
-0.1318299025 -0.06877080351 1.23628068 -0.09099354595 -0.4540545344 0.881806314
-0.1274321973 -0.08441021293 1.231248856 -0.1145337224 -0.4294942319 0.8935783505
-0.1253322065 -0.07435888797 1.239927292 -0.07441319525 -0.3785584271 0.9200276136
-0.1333908439 -0.07840453088 1.234348297 -0.1000922322 -0.4332444072 0.892029047
-0.1239075884 -0.07856659591 1.23696053 -0.08816479892 -0.3889639378 0.9144972563
-0.1414111406 -0.07670942694 1.233390093 -0.1043907702 -0.4643410444 0.8763437271
-0.1292382777 -0.07666181773 1.23694849 -0.08813063055 -0.4064594805 0.905728519
-0.1288632005 -0.07019590586 1.242249131 -0.06361080706 -0.3783173859 0.9203955531
-0.1361618489 -0.08364278078 1.229340672 -0.1232162416 -0.4677350521 0.8742117882
-0.137584433 -0.08410043269 1.224186301 -0.1407934874 -0.4802188277 0.8651393652
-0.1327014863 -0.08649056405 1.225119114 -0.1386159211 -0.4655485153 0.8733366728
-0.1427293867 -0.08105743676 1.225545168 -0.1349952668 -0.4918360412 0.8596712947
-0.1476384848 -0.0772901848 1.230697155 -0.1161387041 -0.4965977669 0.8596716523
-0.1220997274 -0.08998263627 1.223950624 -0.1276426315 -0.4686585963 0.8735664487
-0.1950223148 -0.0037373628 1.129171848 0.1523852348 0.4668315053 0.8706818223
-0.1983086765 -0.0004511843435 1.127187133 0.187661916 0.4352138638 0.8782114387
-0.1850326061 -0.005825936794 1.126037478 0.1013991237 0.4571740329 0.8819855452
-0.1903114915 0.01647052914 1.119380832 0.1610504985 0.3402782977 0.9243076444
-0.184449926 0.01485957857 1.118111491 0.08312855661 0.3798290789 0.9199379086
-0.2043443322 0.005457392894 1.125546098 0.2458710074 0.3626940548 0.8977316022
-0.1991635859 0.009726301767 1.123262405 0.217246145 0.3528835773 0.9078714252
-0.1936594546 0.01271153148 1.121342301 0.1829293221 0.3549966514 0.9138698578
-0.1886097193 0.006354954094 1.122117281 0.111113362 0.4280362427 0.8943078518
-0.1922548115 -0.0009852125077 1.125684023 0.1380584538 0.4678415358 0.8724888563
-0.1748541445 -0.007820705883 1.130941033 0.05593563244 0.4202343524 0.9056578875
-0.1945482194 0.004184818827 1.133314133 0.1754094213 0.3390345871 0.9201837778
-0.193760246 -0.0004695599782 1.135613203 0.1511359662 0.361456275 0.915255487
-0.1923476607 -0.01474251132 1.143605709 0.08478742093 0.422884047 0.9021635652
-0.1890493333 -0.004105237313 1.133564591 0.09917797148 0.4088756144 0.9031597972
-0.1989203095 -0.005109426565 1.134762764 0.1827373356 0.4205922186 0.8856667876
-0.1811398864 -0.01119390689 1.136848807 0.05003249273 0.4034618735 0.9135538936
-0.1661193222 0.03186973184 1.118418217 -0.007271288894 0.3451201916 0.9358735681
-0.1667316705 0.02628545277 1.120385766 -0.05886904895 0.3406796455 0.9353445768
-0.1524970382 0.03349002823 1.098249197 0.1891214699 0.1670783013 0.9396211505
-0.1602984965 0.03068939783 1.102791309 0.1268598735 0.2079505771 0.9435284138
-0.1479231119 0.03633223847 1.092179656 0.2704545259 0.1070372015 0.9400606751
-0.1641774476 0.03233131394 1.1120857 0.04392005131 0.3340357542 0.9327794313
-0.162112087 0.02861701883 1.109722972 0.03984000534 0.2833600938 0.9388971329
-0.07557672262 0.04304306582 1.105287671 -0.3277385533 0.3259300292 0.8851017356
-0.08251306415 0.04369125888 1.098456979 -0.2808098197 0.1940211356 0.9294893742
-0.08337772638 0.03878445923 1.100322962 -0.309465915 0.2630599141 0.9029342532
-0.0800306201 0.0374709703 1.104151964 -0.3246817589 0.3188609779 0.8849956989
-0.07037506998 0.04472145066 1.106109738 -0.3342319131 0.3131079078 0.8886230588
-0.07241583616 0.0392126292 1.108332753 -0.3343648911 0.3256670535 0.8837029338
-0.0667135641 0.03547861427 1.115332603 -0.3415376842 0.2781329751 0.8977606893
-0.07140235603 0.03242021427 1.114817739 -0.341042161 0.3188695014 0.8831433058
-0.08260973543 0.03299664333 1.104315162 -0.3444586992 0.355615139 0.8687407374
-0.07010833174 0.0403643772 1.112262368 -0.3320672214 0.2862712145 0.8958525658
-0.07949709892 0.05292150006 1.106553674 -0.3065513074 0.154198125 0.9259761572
-0.077170223 0.04709786177 1.108463645 -0.3130875826 0.2164665759 0.9117631912
-0.07459483296 0.05397026241 1.104165316 -0.2851867676 0.1536688507 0.944335103
-0.06843167543 0.04665847495 1.111370206 -0.3233598769 0.236974448 0.912504971
-0.07131555676 0.04989228025 1.107506514 -0.3047751188 0.1943452209 0.9291571975
-0.0734808892 0.06070296839 1.106156588 -0.2779966295 0.1369129419 0.9485445619
-0.06835640222 0.05568543077 1.108167887 -0.2976318896 0.1858072579 0.9326099753
-0.06805210561 0.0572604984 1.102706671 -0.2677913904 0.1911187917 0.941871345
-0.1111550108 -0.0689117983 1.231163383 0.01697706617 -0.2737709582 0.9600504637
-0.1092206836 -0.07421675324 1.226999879 -0.0005014343769 -0.3035582602 0.9468289614
-0.1138444692 -0.07546664774 1.226999879 -0.05792835727 -0.3666114509 0.9271317124
-0.1071182191 -0.08019524068 1.226999998 0.008983260952 -0.3109247983 0.9488691688
-0.1076262519 0.04808573797 1.09138763 -0.2967107594 0.1174273714 0.945882678
-0.09296842664 0.05134355649 1.095348954 -0.3135665655 0.1514293253 0.9368990064
-0.09813787788 0.0485234037 1.095186114 -0.3274413347 0.1564347744 0.9313145876
-0.1045618802 0.04595690966 1.094826102 -0.3453208804 0.1587732732 0.9248632193
-0.08763074875 0.05344582349 1.09572947 -0.2812034786 0.1094862372 0.9521195292
-0.09632195532 0.05974316224 1.094282508 -0.3385815024 0.09966278076 0.9350866079
-0.116613932 0.04589883238 1.087503433 -0.2516242266 0.08213381469 0.9640154243
-0.1147452816 0.05203820392 1.088110328 -0.2574739754 0.08017299324 0.9622402191
-0.1051916182 0.05392441154 1.091213226 -0.2889635861 0.1057835817 0.9500620961
-0.1021473184 0.05985876173 1.092015505 -0.3440136015 0.1197218522 0.9301788807
-0.1294324994 -0.07410918176 1.226040483 -0.1227297857 -0.4877054691 0.8641135693
-0.1260069162 -0.08132340014 1.222820044 -0.128142789 -0.472686708 0.8703050613
-0.1225210205 -0.07715466619 1.225447297 -0.1107911989 -0.4442164898 0.886709094
-0.1216018498 -0.07228971273 1.228298426 -0.07445097715 -0.404591769 0.9016184807
-0.1265087277 -0.07006464899 1.228372455 -0.07359843701 -0.431666702 0.8889827132
-0.1314499527 -0.07825084776 1.222764015 -0.1305953562 -0.4895698726 0.8619078994
-0.1304672509 -0.08314666152 1.220498204 -0.1398111731 -0.4918268621 0.8592820764
-0.1177995354 -0.08103568107 1.235274553 -0.06964255124 -0.3854815066 0.9162636995
-0.1137079075 -0.07810911536 1.237641811 -0.02463244833 -0.3332341611 0.9398117661
-0.1177874207 -0.07496293634 1.240110874 -0.039792642 -0.3442765474 0.9358854294
-0.1151659414 -0.08505661041 1.232095957 -0.06960694492 -0.391823262 0.9123826027
-0.1218092665 -0.08621460199 1.231142521 -0.1118569821 -0.4177882969 0.8998960853
-0.1186079159 -0.08993231505 1.22819078 -0.1152953133 -0.4416539073 0.8890796304
-0.1113960147 -0.08484796435 1.225593209 -0.02757780254 -0.3602638841 0.9260923266
-0.1214860156 -0.0830251947 1.222696781 -0.09838266671 -0.4343351424 0.8899095058
-0.1177968457 -0.07937663049 1.224914551 -0.08087194711 -0.4033330679 0.907859683
-0.1662391424 0.01368700247 1.122963309 -0.04044821486 0.355471164 0.9325832129
-0.1639555991 0.00913348794 1.12902987 -0.09325347096 0.3468117118 0.9325184226
-0.1657081991 0.004447421059 1.127750754 -0.04900218919 0.3815817535 0.9206635356
-0.167970106 -0.001140014268 1.126552701 0.001711380202 0.4232003689 0.9057195783
-0.1837856174 0.0004411360424 1.125035167 0.08847552538 0.4492294788 0.8878994584
-0.178351745 -0.0007440799964 1.125660658 0.04780420288 0.4130091071 0.9079477191
-0.1828938276 0.006388682872 1.122134805 0.07738412172 0.4165137112 0.9040716887
-0.1727223545 -0.007039573044 1.126000047 0.03006994538 0.4305182099 0.9016388059
-0.1696833223 0.008601086214 1.130632401 -0.02650999092 0.3547037244 0.9325889945
-0.1785803735 -0.0005182469613 1.131682515 0.02173803933 0.3993696868 0.913539052
-0.1937854737 -0.007048510015 1.132809162 0.1361020207 0.4642335176 0.8746119142
-0.1919354349 -0.01134200953 1.137783289 0.124024339 0.4527531564 0.8827978969
-0.1776936352 -0.01172855031 1.129691601 0.04954680055 0.4285954237 0.9019390345
-0.188660413 -0.01455982588 1.140338421 0.06639307737 0.4094634056 0.9088590741
-0.1795384139 -0.006150278728 1.134120107 0.03036370687 0.3866402805 0.9205374122
-0.169888854 0.00100449915 1.130646944 0.02055767737 0.3877462745 0.9195575118
-0.1834599823 -0.01039115991 1.131716847 0.06613484025 0.4247546494 0.901417017
-0.1881498992 -0.008021187969 1.130791426 0.1041691825 0.4506490231 0.8846327066
-0.1673885584 0.02329032682 1.11660111 -0.04205681756 0.3414809406 0.9387144446
-0.1676010489 0.01800492778 1.119329453 -0.04152147099 0.3499959409 0.9347542524
-0.1015097648 0.07374511659 1.092078209 -0.3305916786 0.0723522231 0.9407215118
-0.1008175015 0.06488966942 1.092286944 -0.3556152582 0.09009631723 0.9298096895
-0.1046142057 0.06890927255 1.089621782 -0.3480681479 0.09584463388 0.9317266941
-0.08899172395 0.07177842408 1.102456927 -0.3156765103 0.03377733007 0.9479397535
-0.09185624868 0.05654257163 1.094972968 -0.3041794598 0.09633947164 0.9465459585
-0.09115087986 0.05607368797 1.101508856 -0.2823215425 0.06962249428 0.956192553
-0.0911334902 0.06135116145 1.101952553 -0.3007027209 0.05918321013 0.9512301683
-0.08811784536 0.06540444493 1.10240972 -0.3050988913 0.03770295531 0.9512056708
-0.09246148914 0.06473503262 1.094614267 -0.3053345382 0.06515976787 0.9499078393
-0.09801234305 0.07042677701 1.093120694 -0.3347714841 0.06869491935 0.9393430352
-0.09430588037 0.07141213864 1.097303152 -0.3439372182 0.05366298929 0.9368582368
-0.09009215236 0.0678101331 1.098595262 -0.3185595572 0.04821516573 0.9460868835
-0.08393423259 0.07044698298 1.102489829 -0.302200526 0.0372319743 0.9523068666
-0.07555387169 0.07048937678 1.104148865 -0.2911552787 0.06596492231 0.9541687369
-0.07935408503 0.06746790558 1.101873517 -0.2939116955 0.06645143032 0.9532767534
-0.06942857057 0.06993079931 1.104355812 -0.2838913798 0.1353554279 0.9489914179
-0.08335854113 0.06265135854 1.098691344 -0.2939573824 0.08046612144 0.9517492652
-0.0738991946 0.06628767401 1.102235556 -0.2822794914 0.118888557 0.9511873126
-0.07542935014 0.06138585135 1.100664377 -0.2681853473 0.1164659336 0.9556045532
-0.06918955594 0.0650749281 1.104972243 -0.2725388408 0.1327070296 0.952778101
-0.1779563576 0.02145585231 1.115329146 0.009904116392 0.3374156952 0.9396440387
-0.1793632954 0.01694056205 1.117202878 0.05062242225 0.3778420389 0.924272716
-0.1786894351 0.01138923783 1.119827628 0.04604713619 0.3809785247 0.9231815338
-0.176651597 0.004705963656 1.123068333 0.03338323161 0.3866811991 0.9214268327
-0.1736359298 -0.0003322994744 1.125545025 0.01827413961 0.3981842101 0.9169052243
-0.1739203483 0.008935587481 1.121188641 0.02333059534 0.3975737393 0.9168585539
-0.1697178781 0.003145713126 1.124068618 0.00148512132 0.4147351086 0.9093039632
-0.1716269404 0.01389712468 1.119970322 -0.04224651679 0.369009912 0.9250301719
-0.1681936234 0.008775440045 1.123235703 -0.0438121371 0.3743352294 0.9236995578
-0.1730299294 0.02428788878 1.114731431 -0.03014603071 0.3240197897 0.9452998042
