# .PCD v0.7 - Point Cloud Data file format
VERSION 0.7
FIELDS x y z normal_x normal_y normal_z
SIZE 4 4 4 4 4 4
TYPE F F F F F F
COUNT 1 1 1 1 1 1
WIDTH 512
HEIGHT 1
VIEWPOINT 0 0 0 1 0 0 0
POINTS 512
DATA ascii
-0.241281718 -0.008114365861 1.005264878 0.1881121546 0.08050649613 0.9777600765
-0.2413140386 -0.01688268594 1.002691627 0.1676419526 0.1768467426 0.967135787
-0.2402721345 -0.02108859457 0.9983543754 0.1713641286 0.2394810468 0.9553034306
-0.1429412067 0.01134288311 0.9801532626 -0.3234911561 0.03142951429 0.9445074201
-0.1372412592 0.02116551995 0.984054625 -0.3536380529 0.004004544113 0.9353106618
-0.1923969835 -0.04167807475 1.080001473 -0.9973493814 0.0575414449 -0.04321011156
-0.1913226098 -0.0356807895 1.078545213 -0.9970596433 0.03601809219 -0.04066604003
-0.1869600713 -0.03263112158 1.078335047 -0.9897657037 -0.07825294882 -0.009062302299
-0.1924828142 -0.02534049191 1.072774053 -0.948096931 -0.2376066297 0.004841431975
-0.1967836469 -0.02273896337 1.071022153 -0.9348132014 -0.241782859 -0.00704520382
-0.1099242344 -0.1138327718 1.096996069 0.02643128298 -0.1482931376 0.9885640144
-0.117401354 -0.1153826416 1.095710516 0.01457762998 -0.1336228549 0.9908887744
-0.1377758384 0.008062027395 0.9863401651 -0.3640159667 0.03913489357 0.9301937819
-0.1266882122 0.01405471656 0.9870111346 -0.4210154712 0.07703391463 0.9000395536
-0.04409607127 -0.03143717721 1.089335322 0.3771397769 0.05134557933 0.9247319698
-0.0403742902 -0.02446580678 1.087099195 0.3771397769 0.05134557933 0.9247319698
-0.1222069636 0.01446377579 0.9900289774 -0.4206525385 0.07223932445 0.9029352665
-0.1861861646 -0.04535841569 1.055734396 -0.760908246 0.2724254429 0.3238029778
-0.1911769211 -0.03953570873 1.071214795 -0.9348244071 0.117985867 0.04975275323
-0.1899529546 -0.04007570073 1.065949202 -0.8763504624 0.1730757207 0.1383177787
-0.1999896318 -0.01545038633 1.064601541 -0.8887653351 -0.4498302639 0.03128349036
-0.1847175807 -0.04405553266 1.045082808 -0.645503521 0.3391752839 0.4906131327
-0.1925520897 -0.03375377133 1.065741062 -0.8815039992 0.06140385568 0.1095522791
-0.1945616901 -0.03242754564 1.07510972 -0.9834291339 0.02820654027 -0.04316187277
-0.1905860603 -0.03332982957 1.051253319 -0.7276588678 0.04411506653 0.3308454752
-0.1885464787 -0.0389992781 1.055112243 -0.7601637244 0.2027990371 0.3052814007
-0.1954567581 -0.02863748372 1.069390416 -0.9282208681 -0.07907378674 0.02243435942
-0.1879202276 -0.03781775758 1.047261834 -0.6782517433 0.1670380086 0.4194748998
-0.1924214959 -0.03160056844 1.058208466 -0.8044626117 -0.001179945422 0.2129986137
-0.1953094155 -0.0261719767 1.06077981 -0.8401618004 -0.1507292837 0.1406579465
-0.1977050006 -0.02247516066 1.065405965 -0.8951302171 -0.2514728308 0.04697537422
-0.1776703596 -0.0471621491 1.036215901 -0.5336028934 0.4079192877 0.6649876237
-0.1816618443 -0.04149611667 1.040876508 -0.5939471126 0.2548122108 0.5559666753
-0.1860942394 -0.0366034098 1.071304679 -0.9437217712 0.00245810952 0.06657005101
-0.1797514558 -0.04397513717 1.047769547 -0.6667826176 0.2795313299 0.4721223116
-0.1835856438 -0.03867182508 1.050555229 -0.7059515715 0.1439124793 0.3929963112
-0.1881406009 -0.03292572498 1.061348796 -0.8363708258 -0.03804857656 0.1903892159
-0.1843650639 -0.03837104142 1.061619401 -0.8315804005 0.08710047603 0.2245715261
-0.1897963732 -0.03119739145 1.070140362 -0.9383439422 -0.1177541614 0.04609627277
-0.1960403472 -0.02131204307 1.057808876 -0.8130643368 -0.2916208804 0.1620190293
-0.1872605681 -0.0392601341 1.076979876 -0.997140646 0.0257495176 -0.0380532071
-0.1275616884 -0.1141620502 1.096530914 0.01247606892 -0.1310219318 0.9913009405
-0.2153641582 -0.06256380677 1.017344356 -0.1197349355 0.4127951562 0.9020243883
-0.05760785192 -0.04814077169 1.10115099 0.2910602093 0.07954373956 0.9533135891
-0.05522278696 -0.05670204759 1.097306848 0.3460682929 0.04901624843 0.9336878657
-0.0592283085 -0.0694142431 1.101893663 0.1879433841 0.04812972993 0.9805644155
-0.05725312233 -0.07796376199 1.096817017 0.1858343035 0.02459841594 0.9791094065
-0.05553052202 -0.06543134898 1.096798301 0.2845167816 0.03839559853 0.9510595202
-0.05900976807 -0.05797122419 1.101565003 0.2841893733 0.06355569512 0.9560303092
-0.06519591808 -0.0652628392 1.103772402 0.1785048544 0.05219066888 0.9824071527
-0.06789524853 -0.07440971583 1.104126573 0.1302665025 0.03304668516 0.990068078
-0.07034234703 -0.0685986802 1.105368853 0.1285886317 0.04647508636 0.9899846315
-0.2212936878 -0.05360860378 1.016683578 -0.1151448041 0.3676367402 0.9199551344
-0.2260787189 -0.05371115729 1.014524937 -0.0864494741 0.3576447666 0.9282515049
-0.2197563946 -0.05890658498 1.016295195 -0.1079645157 0.3911138773 0.9122098684
-0.2270511091 -0.04799664393 1.015427947 -0.08123221993 0.3428093493 0.933875978
-0.2130209357 -0.05492520332 1.020162702 -0.1553290635 0.3931442201 0.9037550688
-0.2366838306 -0.02801575325 1.002843261 0.1273576319 0.2730557919 0.9513056874
-0.2359142601 -0.03031375445 1.010061622 0.1152637526 0.2834699452 0.9510094523
-0.226845637 -0.02301748656 1.006302953 0.08072426915 0.3012141287 0.9443457127
-0.2329593003 -0.02385819517 1.007987499 0.1310649365 0.2476466745 0.9540019035
-0.2377246022 -0.01984027773 1.007249236 0.1618913859 0.1673848331 0.9686068296
-0.1303954273 0.01978463307 0.9882441163 -0.3903271854 0.0308456216 0.9191073775
-0.1318994462 0.01275172923 0.9885481596 -0.3917531073 0.04417100921 0.9182276726
-0.1299133003 0.02838903107 0.9887702465 -0.3713870049 -0.01341937482 0.9216848612
-0.1331701726 0.03411853686 0.9885577559 -0.3304249942 -0.07961906493 0.9314658046
-0.1305573434 0.03960625455 0.9917809963 -0.3241203129 -0.1214641333 0.9252573848
-0.1283340305 0.03450103849 0.9915645719 -0.3567203283 -0.06503038853 0.9183864594
-0.1908802688 -0.0464236401 1.082713962 -0.9828972816 0.0656497106 -0.01640854776
-0.1889310479 -0.04809175432 1.077727437 -0.9249824882 0.1153073758 0.07176888734
-0.1852378994 -0.05760660395 1.0523808 -0.6306008101 0.3677179813 0.5199760199
-0.1873578429 -0.05221163481 1.066763282 -0.7976421714 0.2244923264 0.2656492889
-0.1867070496 -0.05495702103 1.059108257 -0.7110266685 0.2987587452 0.3975246549
-0.1860245019 -0.04521602392 1.069719195 -0.9432732463 0.1561176777 0.04457455873
-0.1821808815 -0.05226188526 1.052332401 -0.7956476808 0.3549201787 0.3062889278
-0.1848172098 -0.04777944461 1.064193487 -0.9057469368 0.2205902338 0.1178803816
-0.1835581511 -0.05026492104 1.058465362 -0.861869812 0.28673926 0.1991010308
-0.1794930398 -0.0528521426 1.040972948 -0.582926333 0.4688332379 0.5994871855
-0.1833157837 -0.050694637 1.044659615 -0.615844667 0.3985353112 0.5458562374
-0.18322137 -0.05632676184 1.043367267 -0.5615947843 0.4351519048 0.6265935898
-0.1846199185 -0.04842799157 1.049850583 -0.6830637455 0.3395936787 0.4432671964
-0.1776833981 -0.04779148102 1.042016029 -0.5922471285 0.3894571662 0.5863134265
-0.1813047081 -0.04379354417 1.054244637 -0.7354552746 0.2405259013 0.3746271431
-0.1002295017 -0.1000158116 1.103489041 0.01859183609 -0.138590917 0.9901015162
-0.09542187303 -0.1018328145 1.103908539 0.02255743556 -0.1434988081 0.9893237948
-0.09848327935 -0.1063035503 1.102008104 0.02313896455 -0.1442185193 0.9892097116
-0.04822059721 -0.02580041811 1.09143424 0.340061903 0.06702838838 0.9367002845
-0.04788211361 -0.03605312854 1.093758345 0.3535482585 0.06132407114 0.9323470592
-0.05573765934 -0.03473559767 1.103069544 0.2884021401 0.08887887746 0.9533754587
-0.05432112888 -0.03830121085 1.097222209 0.2884021401 0.08887887746 0.9533754587
-0.1390666962 0.0151398126 0.9821231365 -0.3485223055 0.008316398598 0.9361288548
-0.1530821472 0.01154519618 0.9756271243 -0.2104447782 0.01705503277 0.9748644829
-0.1479659528 0.01416690368 0.9769532681 -0.2877864242 0.001430481789 0.9571663737
-0.138820976 0.04061006755 0.9878685474 -0.273565948 -0.1943700165 0.931722641
-0.1348562092 0.04846269637 0.9919030666 -0.2650400698 -0.2215128392 0.9381352067
-0.1434206665 0.03859766945 0.9848942161 -0.2502788901 -0.2406518757 0.930023551
-0.1391284168 0.03215191141 0.9849974513 -0.3023043275 -0.1234537363 0.9317359924
-0.1070218831 0.04322947189 0.9974224567 -0.3857605755 -0.1300305724 0.9133834243
-0.1151772439 0.05031629279 0.9967830181 -0.3605282307 -0.1405629069 0.9219299555
-0.1101755053 0.04556595162 0.9915102124 -0.3810755908 -0.1319861561 0.9149702787
-0.1112895831 0.04693921655 0.9971049428 -0.372541219 -0.1355485171 0.9178609848
-0.05370594561 -0.0466500856 1.094588518 0.3771397769 0.05134557933 0.9247319698
-0.04987316951 -0.05047142878 1.094560146 0.3771397769 0.05134557933 0.9247319698
-0.2061760873 -0.04909144714 1.022729754 -0.2057584971 0.3077453077 0.8274309039
-0.205411613 -0.04465442523 1.0188936 -0.1504815221 0.2933069468 0.8537473679
-0.2028635889 -0.02717284672 1.047388554 -0.6204663515 -0.1781232357 0.3382610977
-0.205216825 -0.04301836342 1.025666118 -0.2592191398 0.2101581246 0.7472100854
-0.2030184418 -0.02854138426 1.040965319 -0.5175540447 -0.1013649106 0.4381403923
-0.2049075216 -0.04030136764 1.038243651 -0.4607816041 0.05942652747 0.5513945818
-0.2059286535 -0.04719049484 1.028613329 -0.3007870018 0.2300084382 0.7318355441
-0.2047100961 -0.03951451927 1.031751037 -0.3593108356 0.1121175513 0.6385862231
-0.1983686984 -0.03409359977 1.045416951 -0.6104650497 -0.0183428172 0.4154190421
-0.1995366365 -0.04018003866 1.039577246 -0.5099585652 0.1043858156 0.5367256403
-0.1966444999 -0.05059532076 1.030447006 -0.3771547377 0.3601058722 0.7366525531
-0.2049793601 -0.0453096889 1.03386867 -0.3895302415 0.1661581099 0.6459421515
-0.2041477412 -0.03676379472 1.041925669 -0.5241741538 -0.01371668931 0.4768824279
-0.1975431293 -0.02986201644 1.049479485 -0.6804506183 -0.1035428345 0.3310596943
-0.1914064586 -0.04628564417 1.035360456 -0.4836635292 0.3144253492 0.6438526511
-0.2058398277 -0.05308997631 1.026515365 -0.2661207318 0.3289526701 0.8000180125
-0.2035496086 -0.03255082294 1.045930743 -0.5920586586 -0.1006335318 0.3932444751
-0.1911874563 -0.04169563949 1.039647698 -0.5541567802 0.2156868726 0.5534069538
-0.1990862042 -0.04568197951 1.034564018 -0.4311720431 0.2294037044 0.6440249085
-0.2001945525 -0.02560159005 1.052955031 -0.7230098248 -0.2218683809 0.2515771985
-0.2297685146 -0.01836499199 1.005866051 0.1368754655 0.2029409856 0.9618554115
-0.2253655195 -0.01643212885 1.003904581 0.1300612837 0.2017641813 0.9678807259
-0.238282159 -0.0236114189 0.9940997958 0.1755462438 0.2565524876 0.9500175714
-0.2345358431 -0.02590667643 0.9976228476 0.1354292929 0.2844515741 0.9452936649
-0.2292913944 -0.02959491685 1.002650023 0.07796404511 0.3222716153 0.939065516
-0.2260452211 -0.03500168025 1.00638783 0.03381022066 0.3375555873 0.9377403855
-0.2347388268 -0.03463799134 1.00167048 0.07951147109 0.287147522 0.9463500381
-0.2309062779 -0.04334872216 1.007421255 0.009045612067 0.3087753654 0.944416523
-0.2270363569 -0.04796108603 1.010017157 -0.01810121536 0.3152581751 0.9452127218
-0.2325046659 -0.0386537537 1.012243271 -0.002726532519 0.3094555736 0.9499155283
-0.2260696292 -0.04257113859 1.012606621 -0.0270322971 0.3405462801 0.939191699
-0.229655847 -0.03243211657 1.010015726 0.06802194566 0.3309400976 0.9383581877
-0.1299565285 0.04574205354 0.9934352636 -0.2965349853 -0.1922813952 0.9312135577
-0.1184370294 0.0356086269 0.9954160452 -0.3992110491 -0.08646227419 0.908468008
-0.1109401956 0.03620426729 1.000043631 -0.4048549831 -0.09342969209 0.9075946212
-0.1237256825 0.04027516767 0.9945132732 -0.3519508839 -0.1351944655 0.9189381599
-0.1238858104 0.02892965451 0.9921659827 -0.4063895643 3.421057045e-05 0.9057804346
-0.1209889948 0.02277735993 0.9924252629 -0.436232537 0.06752782315 0.8965371251
-0.1148988232 0.02494138479 0.9943947196 -0.4464487731 0.01021689642 0.8944176435
-0.1127798483 0.02897004969 0.9969925284 -0.433371067 -0.02252241783 0.8991398215
-0.1085226461 0.024734715 0.9959794879 -0.4314377904 -0.01676519029 0.9019042253
-0.1153350249 -0.1084451824 1.09776938 0.01780418493 -0.1376160979 0.9902560115
-0.1960796565 -0.07314863056 1.03104353 -0.445559293 0.4464600682 0.7755349278
-0.2015780061 -0.07209240645 1.029038906 -0.4155788124 0.4508580565 0.7876854539
-0.2002060711 -0.05582902953 1.025462508 -0.2749437094 0.4350390732 0.8393320441
-0.1825378239 -0.05532102659 1.036548018 -0.4963339865 0.486063987 0.7151781917
-0.1881907433 -0.05428297073 1.032135367 -0.4244351685 0.4705196321 0.754149735
-0.1939929575 -0.05526401848 1.02908206 -0.3524536192 0.4532335103 0.7954310775
-0.1872781664 -0.05971734971 1.036646128 -0.4407159686 0.4696030319 0.7511541843
-0.1769684255 -0.04866666347 1.027979255 -0.4970241785 0.4682830572 0.7302430868
-0.1794399917 -0.05067187548 1.023907423 -0.4876982868 0.4671849906 0.7371589541
-0.1819275469 -0.0555970706 1.025047541 -0.482316345 0.4815430045 0.7312977314
-0.1179042906 -0.1095944718 1.102697372 0.01247606892 -0.1310219318 0.9913009405
-0.1225830987 -0.1061161011 1.104540586 0.01247606892 -0.1310219318 0.9913009405
-0.1261228472 -0.1091927364 1.101784229 0.01247606892 -0.1310219318 0.9913009405
-0.1233493313 -0.1102897301 1.09671247 0.01247606892 -0.1310219318 0.9913009405
-0.0687289089 -0.08995266259 1.102160931 0.06415168196 -0.01000794675 0.9973731637
-0.0776367709 -0.07793051004 1.105054975 0.06584329903 0.01561552286 0.997190237
-0.07103742659 -0.08144304156 1.100727797 0.102924794 -0.007386856247 0.9920666814
-0.06652583927 -0.08221238852 1.103429079 0.08195630461 0.02631498687 0.9958986044
-0.08079295605 -0.08930148184 1.102974534 0.05531179905 -0.07880154252 0.9944213033
-0.08393474668 -0.09917876869 1.104920864 0.04247504845 -0.1287654936 0.9904769659
-0.07323570549 -0.09364576638 1.102968335 0.05698223412 -0.05107804015 0.9961086512
-0.07812149823 -0.0969010219 1.103782535 0.04905696958 -0.08634158224 0.9934729338
-0.08478052914 -0.09199589491 1.104827642 0.04943922162 -0.1138800234 0.991358161
-0.0831092 -0.08067579567 1.104606867 0.05600976944 -0.03687068075 0.9962086678
-0.08903431147 -0.08520493656 1.103934288 0.04438426346 -0.09907506406 0.9921030402
-0.0781281963 -0.08469705284 1.104534626 0.05891667306 -0.03084944189 0.9966081977
-0.05299016088 -0.04230238497 1.101965547 0.296826303 0.07993587852 0.9512617588
-0.05058644339 -0.04814980179 1.100434303 0.3069230616 0.07198020071 0.9484173656
-0.05021295324 -0.04169936851 1.097224116 0.3324002624 0.06861080229 0.9393600225
-0.04716044292 -0.04565062374 1.093876362 0.3565102816 0.05750060454 0.9316802621
-0.04754155502 -0.05469105765 1.097669959 0.3344171941 0.05934714526 0.939655602
-0.05328286439 -0.05334917083 1.101000071 0.2951439619 0.07266914845 0.9526093006
-0.0485522449 -0.02145490237 1.094824553 0.2884021401 0.08887887746 0.9533754587
-0.05005412921 -0.02576081268 1.097472429 0.2957885861 0.08575463295 0.9509912133
-0.05190729722 -0.03126837313 1.099507928 0.3055516481 0.08162516356 0.9478397965
-0.04388389736 -0.02247881703 1.091475725 0.3315428197 0.07063169032 0.9394501448
-0.04099052772 -0.01799174957 1.087000012 0.3771397769 0.05134557933 0.9247319698
-0.04440876469 -0.01594501361 1.091303825 0.3075564802 0.08077717572 0.9471926689
-0.2333587706 0.007236917503 1.006181598 0.320081979 0.001890374697 0.9446960688
-0.2371492535 0.0032583219 1.005488038 0.2742361426 0.02404226549 0.9580654502
-0.1212921664 0.0515644215 0.995957315 -0.3389689326 -0.1699330062 0.9236198664
-0.1229841635 0.04669253901 0.9973999262 -0.3410832584 -0.1777205914 0.9184125066
-0.1163210124 0.0401982218 0.998754859 -0.3712511063 -0.1306006908 0.9143079519
-0.1831377298 -0.0599261336 1.028808236 -0.4802334011 0.4959359765 0.7232579589
-0.1784552932 -0.05436117202 1.032218456 -0.4927406907 0.4858720601 0.7216586471
-0.1862737238 -0.0665929243 1.036144853 -0.4837688804 0.4878445864 0.7261693478
-0.1897508353 -0.07017613947 1.032919765 -0.4701914191 0.4832246006 0.7376196384
-0.1940661371 -0.06778408587 1.034902096 -0.4581404328 0.4704571962 0.7520710826
-0.1986937523 -0.06664164364 1.031228065 -0.394515425 0.4567153752 0.7862314582
-0.1934857517 -0.06036741287 1.032936573 -0.3680264652 0.45262146 0.7925379872
-0.198473677 -0.06018929556 1.029314399 -0.3131141365 0.4405346811 0.8231233358
-0.2065187246 -0.06471709907 1.024668455 -0.2716245949 0.4353299439 0.8451363444
-0.2110149115 -0.06614147872 1.019456625 -0.1938112825 0.4217754304 0.8795230985
-0.2067857534 -0.0694635734 1.021498442 -0.2937992811 0.4170545638 0.8553465605
-0.2378398478 -0.01348600816 1.006065845 0.1851394773 0.1012024581 0.9772138596
-0.2392365783 -0.01523400377 0.997535646 0.196161747 0.1763767451 0.9581878781
-0.2397154272 -0.009945813566 1.000073552 0.2072493434 0.1235063225 0.9637097716
-0.2149550468 -0.04422957078 1.012172222 -0.05327647924 0.3377153575 0.9394294024
-0.208604753 -0.04078364745 1.010599494 -0.06542745978 0.3535397053 0.9329685569
-0.2204059511 -0.0447325483 1.012717247 -0.04342613742 0.3313039541 0.9422906637
-0.2179896384 -0.03980858997 1.010114908 -0.02599079534 0.3731152713 0.9267258644
-0.2019954771 -0.0206778571 1.044998646 -0.6010082364 -0.1823455691 0.342146337
-0.2036153525 -0.03037893213 1.015189648 -0.1360938549 0.2942264676 0.8470965028
-0.201437071 -0.01732713915 1.055785537 -0.7694529295 -0.3543466628 0.1596910506
-0.2044524699 -0.03613116592 1.015710592 -0.1379162073 0.300257504 0.8557314277
-0.2033225596 -0.02859722823 1.029071569 -0.3549352586 0.07987897098 0.6172202826
-0.2034822553 -0.03173545375 1.035098195 -0.4215741456 -0.008099561557 0.541832149
-0.2045731694 -0.0387952812 1.02138114 -0.2019988894 0.2169714421 0.7833746076
-0.2039152831 -0.03241420537 1.021546721 -0.2347486019 0.2032499313 0.7494494915
-0.1967144608 -0.03052152507 1.024300337 -0.3340369165 0.1794025749 0.7087441683
-0.1899594069 -0.03697201982 1.034189582 -0.4952278137 0.2294319123 0.6075590849
-0.1933983564 -0.03541709855 1.022597313 -0.3184395432 0.2942217886 0.7664314508
-0.1898848861 -0.03482513502 1.042711258 -0.6185286045 0.114192903 0.4687143266
-0.1967059225 -0.02408814244 1.04874444 -0.6871599555 -0.1568080634 0.308632493
-0.1961781085 -0.02759741247 1.03811872 -0.5351027846 0.003987245262 0.4873358905
-0.1937051862 -0.02914352901 1.044831395 -0.6387819648 -0.02026045695 0.399666965
-0.1967235804 -0.02886725031 1.030528307 -0.4239766002 0.09342996776 0.6067003012
-0.1858578026 -0.04275482148 1.033116341 -0.4908609688 0.3572278023 0.6619955897
-0.1932325959 -0.03728483617 1.016356349 -0.2287369519 0.3846898675 0.8700964451
-0.1824037135 -0.04785617068 1.031334639 -0.4745016992 0.4769324958 0.7222113013
-0.1933755577 -0.03203531355 1.035539746 -0.5054571629 0.1167118028 0.5547485948
-0.1858613491 -0.04456275702 1.026241183 -0.3915373087 0.4517599046 0.7745220065
-0.2064958215 -0.03561374173 1.007834077 -0.09135399014 0.3738030493 0.9210980535
-0.1972626746 -0.03483712673 1.007287264 -0.1514745355 0.37773332 0.9094762206
-0.2008071095 -0.04047986493 1.011260629 -0.1690639257 0.3938596249 0.898810029
-0.1935899109 -0.03855093569 1.009902358 -0.2059993148 0.3925701082 0.8934671283
-0.2274987251 0.00752518652 1.008287311 0.3036500812 0.06244554371 0.9468342066
-0.2328697592 -0.003400977002 1.005608797 0.2351493388 0.04098010436 0.9684222341
-0.2312080562 -0.01132797077 1.004752874 0.1855680048 0.102982007 0.9740909338
-0.1252182871 0.05008636042 0.9886162281 -0.3327186704 -0.2230916917 0.9154455662
-0.1127989441 0.03270466253 0.987652719 -0.423461616 -0.01474829484 0.8945239186
-0.1098744199 0.03846576437 0.9892061353 -0.4018354416 -0.08691971749 0.9079692364
-0.1129508168 0.02704748698 0.9892452955 -0.4377036393 0.02586909011 0.8891026974
-0.1179437488 0.02488934435 0.9881696105 -0.4451153576 0.05155527592 0.8868376017
-0.1218506396 0.03594678268 0.9870288372 -0.3978805244 -0.05472593009 0.91530478
-0.1058418751 -0.09854094684 1.102652669 0.01247606892 -0.1310219318 0.9913009405
-0.1101719067 -0.1019538194 1.100553751 0.01452927012 -0.1335630119 0.9908983111
-0.1052380279 -0.1065508798 1.101863861 0.01543377526 -0.1346824467 0.9907208681
-0.103156507 -0.1116014346 1.099734068 0.02633285522 -0.1481713206 0.9885833263
-0.1150181964 -0.1048185453 1.10382843 0.01247606892 -0.1310219318 0.9913009405
-0.1121459231 -0.1090499312 1.102903962 0.0208143238 -0.1413415074 0.9896656275
-0.1918915957 -0.05684938654 1.018604636 -0.4347465038 0.4650166631 0.7647868991
-0.1870252192 -0.05853221938 1.021460891 -0.4962983727 0.5017935038 0.7079645991
-0.06298554689 -0.0859214887 1.099646926 0.1131879985 0.007965913042 0.9923036098
-0.059663672 -0.08060340583 1.101511955 0.1411790848 0.02061830275 0.9892454147
-0.06292482466 -0.0760807544 1.102740049 0.1559031159 0.02048114501 0.9875409007
-0.1599719822 0.002041311236 0.9773857594 0.001464631292 0.1400577426 0.9636130333
-0.1551195383 0.003600324737 0.9793215394 -0.1066803858 0.1140998304 0.9594736099
-0.1660293192 0.001693142811 0.9745867848 0.1220621467 0.1476032734 0.9761992097
-0.1658311784 0.001850950997 0.9882011414 0.09245702624 0.1914812773 0.8632218242
-0.1616847068 0.001924436772 0.9833410382 0.02704671398 0.1635818183 0.912763238
-0.1696942002 0.0001541904494 0.9834825993 0.1889389753 0.2077661455 0.8920756578
-0.1747270525 -6.001827569e-05 0.9886716604 0.2710606456 0.2408842742 0.8377027512
-0.1837360263 -0.001774924225 0.9903995395 0.447125107 0.2922291458 0.8017081618
-0.1494811475 0.005341209006 0.9856601357 -0.2286248058 0.09585738927 0.9243908525
-0.1452996433 0.01732140966 0.9831848145 -0.3146923184 -0.02641893364 0.9406026006
-0.1453594863 0.02630467713 0.9816992283 -0.3141642213 -0.09687306732 0.9385623932
-0.1151129231 0.04937379062 0.9909569025 -0.3647679985 -0.1420725286 0.9197396636
-0.1452728808 0.01994059421 0.9772533774 -0.2892565429 -0.05037340894 0.9529019594
-0.125593707 0.0392735526 0.9818509221 -0.3229940534 -0.1657572985 0.9291859865
-0.1148762852 0.04211157933 0.9862852693 -0.3798340857 -0.1126842648 0.9166728258
-0.1211213097 0.04297792912 0.9849571586 -0.3534370661 -0.1574771255 0.9207262397
-0.1313000768 0.03745170683 0.9798499942 -0.2978157103 -0.1842338294 0.9351698756
-0.1369039714 0.03183885291 0.978867054 -0.2898895741 -0.160416171 0.9394817948
-0.140975967 0.02579236776 0.9781308174 -0.2906006873 -0.1042164937 0.9459029436
-0.1335213184 0.02495174855 0.9823661447 -0.3426276147 -0.07057280838 0.9265521169
-0.120590955 0.01915455982 0.9867858291 -0.4386550486 0.0823135078 0.8830860257
-0.1280485541 0.02452124096 0.9838200212 -0.3757088184 -0.02444791421 0.9090715051
-0.1229052246 0.02907649986 0.9864922762 -0.4084593058 0.01026793849 0.9060403705
-0.1268563122 0.03294675425 0.9844383001 -0.3693963587 -0.05674407631 0.9202520847
-0.131046474 0.03147557378 0.9812030196 -0.3302099109 -0.1078723893 0.9236770272
-0.2011259198 -0.05117310211 1.016277671 -0.2075367719 0.3925721943 0.883969903
-0.1989664137 -0.04555648193 1.014290214 -0.1830236018 0.3907201588 0.8962615728
-0.2146790773 -0.05136730894 1.014492035 -0.06587595493 0.355036974 0.9322943687
-0.20678325 -0.0464172028 1.013718128 -0.06496012956 0.352976948 0.9333452582
-0.2091967613 -0.05020881072 1.016595364 -0.1096411198 0.3688869774 0.919967711
-0.2065107524 -0.05812067166 1.018295884 -0.1837727576 0.4089380503 0.8937531114
-0.1998821646 -0.06106216088 1.018767476 -0.3258783221 0.4533455074 0.8114926815
-0.1860980392 -0.06478729844 1.02944839 -0.4715578556 0.5029166937 0.7243673205
-0.1904278547 -0.06848720461 1.027361393 -0.4684005976 0.4949548542 0.7313643694
-0.1882689893 -0.06350052357 1.023909569 -0.4715578556 0.5029166937 0.7243673205
-0.1977058798 -0.06645439565 1.021917701 -0.4140604436 0.4492898285 0.7870718241
-0.1964021474 -0.06955292076 1.026405096 -0.4437438548 0.4459314048 0.776689887
-0.2163264453 -0.02619552054 1.007710457 0.01332787983 0.3526106179 0.934156239
-0.2100007832 -0.03177584335 1.01015532 -0.03336369619 0.3717688024 0.927328527
-0.2175237983 -0.0341315344 1.008138895 -0.007135404274 0.3788798451 0.9250304103
-0.1981785893 -0.01424135827 1.016296148 -0.08808235079 0.2917310596 0.8137584329
-0.2002768964 -0.01965419576 1.016706347 -0.1213562712 0.2745603621 0.8108752966
-0.1996809244 -0.01439541671 1.041607738 -0.5178787112 -0.1214369014 0.3926692009
-0.2006953508 -0.01791364513 1.035746217 -0.4356292784 -0.03263746947 0.4927724302
-0.202466473 -0.02509232424 1.018546939 -0.1789983809 0.2340097129 0.7842087746
-0.2006896734 -0.01596815884 1.048725605 -0.6461781263 -0.240584299 0.2753694355
-0.2007134557 -0.01982730627 1.023198724 -0.2322468311 0.168325901 0.7029650211
-0.1966364533 -0.02766118199 1.018403292 -0.2154801786 0.2718325555 0.8018348813
-0.1959134936 -0.03068629466 1.012175083 -0.1305482537 0.376645118 0.9106790423
-0.1983720362 -0.01618883386 1.027434349 -0.290964514 0.1133417934 0.632163167
-0.198047623 -0.02296746336 1.032263637 -0.4182020724 0.04045382142 0.5630187988
-0.1986958534 -0.02192894742 1.040202379 -0.545414567 -0.09055718035 0.4289901555
-0.1975084394 -0.02375990152 1.025560021 -0.3102152944 0.1510020494 0.6760515571
-0.1852168441 -0.04012126103 1.020996928 -0.3629741669 0.4376572967 0.7986460328
-0.1903989464 -0.0291010607 1.012826204 -0.198126331 0.4031839073 0.871396184
-0.1881168038 -0.03398789465 1.016084909 -0.2706043422 0.416726917 0.8415105343
-0.1871745139 -0.03537768126 1.023771048 -0.3027614355 0.4529148638 0.7889763713
-0.1949063987 -0.01876307465 1.013317466 -0.05741400272 0.4098632038 0.8865082264
-0.1896241605 -0.03006976657 1.020903587 -0.2251861542 0.4414201081 0.8170588017
-0.1087652296 0.03405320272 0.9935598969 -0.4122284949 -0.07181431353 0.9067497849
-0.05373596027 -0.07130093127 1.100494027 0.2246757001 0.04221676663 0.9706348777
-0.05055498332 -0.06163637713 1.096430898 0.3113518059 0.04457364604 0.9439426064
-0.05871227384 -0.06435812265 1.102236032 0.2277931869 0.05902558193 0.9708240032
-0.05273928866 -0.06160005182 1.101400852 0.2779229581 0.06291714311 0.957619369
-0.1738443226 -0.01061881054 0.9841295481 0.07617425919 0.253790468 0.9391449094
-0.1709621996 -0.006656302605 0.9804714322 0.1124216169 0.2242172062 0.951589644
-0.1814477146 -0.02471826039 0.9975343943 -0.09377205372 0.3386767209 0.9071221948
-0.1841401011 -0.02647411078 1.001843691 -0.07645657659 0.3576543629 0.8804981709
-0.1792931706 -0.01789510995 0.9933953881 0.02225323021 0.3048703671 0.9026334286
-0.168752417 -0.002377556404 0.9767727256 0.1670278013 0.1985455453 0.9589268565
-0.1837583929 -0.01651840843 0.9960051775 0.1379165202 0.3284722865 0.8581347466
-0.1793970913 -0.008158775978 0.9880464673 0.2409885973 0.2792505324 0.8763892055
-0.1828543246 -0.01202193275 0.9928147793 0.2208074033 0.3108165562 0.8547398448
-0.224260807 0.001747956965 1.006664276 0.2574990392 0.1153370366 0.9519414902
-0.2203353345 -0.005485301837 1.003478765 0.1997030824 0.1606394649 0.9622622728
-0.222518146 -0.0108045144 1.003185272 0.1658466309 0.1720754206 0.968965292
-0.218647182 0.001007247367 1.004585385 0.241027981 0.14461869 0.9527202249
-0.2141243517 -0.003438667627 1.004645705 0.1883995682 0.1990196556 0.9497795105
-0.2123312503 0.001686626114 1.009872913 0.1993034184 0.2163146287 0.9265412092
-0.2027938664 -0.007251605857 1.009012222 0.09936222434 0.3251971602 0.9198635817
-0.210959956 0.004401440732 1.004003525 0.2634020448 0.1924816668 0.9189078212
-0.2078625262 -0.002829679754 1.00994122 0.1460355222 0.2705725133 0.9239601493
-0.2176956087 0.00912207365 1.006897926 0.3027560413 0.131300047 0.9262796044
-0.1491616964 0.02105175704 0.9835082293 -0.2514990568 -0.101318419 0.944306612
-0.1567903906 0.02665192261 0.9797792435 -0.1269358695 -0.1769202501 0.9611833096
-0.1508632004 0.02622804604 0.9829892516 -0.2238419354 -0.1608455628 0.945248425
-0.1540872604 0.0327697657 0.9817457795 -0.1713319719 -0.2381528914 0.949380517
-0.1460696161 0.01051842701 0.9843616486 -0.3017232418 0.01909785718 0.9434047937
-0.1542152464 0.01791999489 0.9804931879 -0.1687647253 -0.07707452774 0.960403204
-0.1735439599 0.003167280229 0.9744257927 0.2701969147 0.1224667802 0.9521430731
-0.1357868165 0.0400955379 0.9819088578 -0.2584789991 -0.2190580964 0.9403343201
-0.130509764 0.04832760245 0.9876990914 -0.2840741873 -0.2403799295 0.9270436168
-0.1342154294 0.04469785094 0.9855946898 -0.252085954 -0.2371528745 0.9375495315
-0.1271730959 0.04446304217 0.9855316877 -0.3389276862 -0.1850426048 0.9213362336
-0.1873340905 -0.03610999882 1.010633826 -0.2857683897 0.3920301497 0.8729515672
-0.1924892813 -0.02414550632 1.009488463 -0.1130441949 0.3950016201 0.9011335969
-0.1876924485 -0.04545368254 1.01582253 -0.3811573088 0.4462293386 0.8073107004
-0.1924778521 -0.05064181611 1.016706586 -0.3594553173 0.4472278655 0.8044881821
-0.1851766557 -0.05163117871 1.019125223 -0.4818932414 0.4802826941 0.7297465801
-0.1830879897 -0.03971806169 1.012728333 -0.3331763148 0.4143764079 0.8352703452
-0.1810672283 -0.04438460246 1.017899156 -0.4211938977 0.4401816726 0.7837110758
-0.1824387908 -0.007628067397 0.9830010533 0.3383207023 0.20039922 0.874702096
-0.1816204041 -0.003151106648 0.9785036445 0.4238111973 0.166359514 0.8772554398
-0.1800005734 -0.01482157223 0.9881525636 0.0996491015 0.2841302454 0.907089293
-0.1751193702 -0.002749826992 0.9759602547 0.2591212392 0.2437341362 0.930590868
-0.1698735058 0.006153716706 0.9853262305 0.1430680752 0.1260219663 0.8862900734
-0.164772734 0.00762707321 0.9834690094 0.03207285702 0.08280469477 0.9141618013
-0.1554303765 0.005308845546 0.9859784245 -0.1160848513 0.1112924516 0.9095659852
-0.1596806645 0.0105489064 0.9799053073 -0.09467972815 0.008527860977 0.9580798745
-0.1663257331 0.01098833885 0.9795454741 0.02399507351 0.01421640161 0.9479335546
-0.1539017558 0.009111681022 0.9814614058 -0.1862903386 0.02621901408 0.955201149
-0.1714855582 0.02480020747 0.9779777527 0.1342909932 -0.1318254918 0.9599403739
-0.1726300269 0.01977820136 0.9779537916 0.1295156032 -0.07725328952 0.9630421996
-0.1653179228 0.009979590774 0.9741334319 0.02078622766 0.01255388837 0.9943678975
-0.159806475 0.0117299594 0.9744759798 -0.07787451148 0.01324351504 0.9876221418
-0.1570189148 0.007245713845 0.9747474194 -0.1187814698 0.06615233421 0.9868294001
-0.1443812698 0.03050315194 0.9779999852 -0.2729078531 -0.1505706161 0.9496703744
-0.1567930877 0.02296981215 0.9754530787 -0.1443011016 -0.1267621219 0.9769866467
-0.1535004526 0.03027109243 0.976975143 -0.1748041362 -0.1870478094 0.9647125602
-0.1505918801 0.02267831564 0.9767466187 -0.2364583015 -0.1006257087 0.9632340074
-0.1632566899 0.02671427093 0.9756133556 -0.02236497775 -0.1831741929 0.980429709
-0.1385151893 0.0533987619 0.9929148555 -0.2443446666 -0.2701972723 0.9290472269
-0.1403191537 0.04865592346 0.9903103709 -0.2343938947 -0.2709904611 0.9325451255
-0.1283121258 0.05364510417 0.9921028614 -0.303270191 -0.2129503191 0.9267529249
-0.1796246916 0.001891423482 0.9755677581 0.3721112311 0.179123953 0.9029639959
-0.205108583 -0.01582337171 1.008749962 0.03784446046 0.3707838655 0.9256895781
-0.217555508 -0.01478050277 1.005168557 0.1067109928 0.2426276952 0.9574320316
-0.2101298869 -0.01552670449 1.007342339 0.06454207748 0.3211616278 0.9380403757
-0.2214434147 -0.02232519351 1.006406426 0.05942259356 0.334454447 0.9385007024
-0.2089502066 -0.02520741895 1.008860946 -0.008409629576 0.363907814 0.9299601316
-0.203837961 -0.02834629826 1.009899497 -0.04762691259 0.3663020432 0.9291087985
-0.2150067836 -0.02130625769 1.007619023 0.03920442611 0.3613307476 0.9308705926
-0.2213736922 -0.03003158048 1.003853679 0.04031391442 0.3482871354 0.9316949248
-0.210294947 -0.01006557234 1.004279017 0.1226046532 0.2576111555 0.9503794909
-0.1929627359 -0.008454283699 0.9999967813 0.2910667062 0.3744064867 0.8461450934
-0.1970635504 -0.0128627168 1.009136796 0.04645456001 0.3943597674 0.9116306901
-0.1895594001 -0.0008860119269 0.9937401414 0.4992328584 0.2976342142 0.7969760299
-0.1855228096 -0.03238246962 1.005937934 -0.1885233074 0.3839226961 0.8883664012
-0.1887487024 -0.01389904879 0.9957926869 0.2384432405 0.3623081148 0.8501012921
-0.1876074523 -0.02200155333 1.000475407 0.04968715087 0.3770450354 0.8675912619
-0.1877030879 -0.009732530452 0.9919768572 0.3450092077 0.3232514858 0.8368247747
-0.1901147068 -0.01748380996 1.000036597 0.1482362449 0.406367898 0.8566800952
-0.1931637377 0.01724135131 0.9816485047 0.451443702 0.09523516148 0.8821316361
-0.1844752878 0.0220416896 0.9771222472 0.4171147346 -0.01947931759 0.8965823054
-0.1976987123 0.02082212828 0.9842817783 0.418331027 0.07691915333 0.8937703371
-0.1915379167 0.02391646057 0.9810584784 0.3965839446 -0.0004464933299 0.9030416608
-0.1853896379 0.01412423793 0.9772558808 0.4795773625 0.08555475622 0.8728836179
-0.173132211 0.01483663637 0.9739457369 0.2371438742 -0.03233309835 0.961522162
-0.1758752167 0.00948893372 0.9741646051 0.3144484162 0.04021035507 0.9449378848
-0.1811591387 0.01039370336 0.9752566218 0.4180591404 0.06675357372 0.8995141983
-0.1679582447 0.01848248951 0.9746031761 0.07058350742 -0.09674479812 0.980178237
-0.1411049366 0.03803474084 0.9790764451 -0.2426688373 -0.2285123616 0.9390656948
-0.1460307091 0.0398655124 0.9798851013 -0.206547156 -0.2544479668 0.9395534396
-0.1483323425 0.03484484181 0.9779657125 -0.1898467988 -0.2185798585 0.9540717006
-0.1420757473 0.04398934171 0.9825261831 -0.2136957347 -0.2856322229 0.9284601808
-0.1631786823 0.04034673795 0.9818323851 -0.03769510984 -0.3007643521 0.9462124109
-0.1682133526 0.04330457002 0.9815226197 0.02157949656 -0.3074158132 0.9499379992
-0.1784419566 0.03059710003 0.982709229 0.249983713 -0.1435588151 0.9279949069
-0.1694627553 0.03269196674 0.9825196266 0.0929755047 -0.1922030151 0.9350486994
-0.1610823721 0.0318608582 0.9811438918 -0.04544951022 -0.2140749395 0.9470006824
-0.1823416054 0.025656702 0.9835531116 0.3529304564 -0.06555840373 0.9118741155
-0.1879965067 0.02697209641 0.9842435122 0.4251404107 -0.06816627085 0.9013838172
-0.1842748374 0.03517374769 0.9824485779 0.310477078 -0.1744087785 0.9178562164
-0.1768060774 0.0392662175 0.9804993272 0.1593104899 -0.231890142 0.9471218586
-0.1900812387 -0.0007990472368 0.9838683605 0.4334708154 0.2097661644 0.8544380665
-0.1861104071 0.001033436973 0.9806475043 0.4930274785 0.1761065573 0.8478659391
-0.1929864287 -0.007096540183 0.986471951 0.285179466 0.2510371506 0.8950009942
-0.2044745386 0.001696534688 0.9993377328 0.2602067292 0.2532669008 0.918435514
-0.207784906 0.006625299342 0.9970912337 0.3305801153 0.1994943023 0.9186978936
-0.2071006 0.0007266725879 1.003918886 0.2214932293 0.2418449223 0.9185912013
-0.2019481808 -0.003302296624 1.002665758 0.1825277358 0.3022246063 0.9182220101
-0.2117660046 -0.01499591395 0.9978420138 0.04528811574 0.3032273948 0.9409336448
-0.2158245891 -0.007008020766 0.9975679517 0.1938986033 0.167303592 0.950283289
-0.2305397987 -0.02013739757 0.9952241182 0.1349581629 0.2520259023 0.9503457546
-0.2209689021 -0.009840178303 0.997635901 0.1473631412 0.1370255798 0.9611333609
-0.2207143158 -0.01660714857 0.9969514608 0.07881569117 0.2512908876 0.9503062367
-0.2254445851 -0.01933662221 0.9960103631 0.09576921165 0.2688064575 0.9486995339
-0.2311114371 -0.01410755422 0.9957866073 0.1992206722 0.1481690854 0.9601903558
-0.2306453288 -0.003114139428 0.9999603629 0.2302783281 0.03428639844 0.9706178904
-0.2274108231 -0.008119291626 0.9971177578 0.2191013992 0.07445602864 0.9671096802
-0.2335409671 -0.008074596524 0.9986736774 0.2173318565 0.09165971726 0.9652587175
-0.2373627722 -0.003467025235 1.001502275 0.22736229 0.05711104348 0.9682278633
-0.2251806706 -0.002312867437 0.9987218976 0.2425097078 0.02548619173 0.9690997601
-0.2304194272 0.002122764243 1.00152719 0.2868388891 0.0395982638 0.9552666545
-0.2031264901 0.009501952678 0.9961601496 0.3539564908 0.1809851527 0.9022575021
-0.1993032992 0.004192030523 0.99835217 0.279733479 0.2592868209 0.900306344
-0.2010222375 0.013467649 0.9926024675 0.4125566185 0.1799874604 0.8924030066
-0.1863948256 0.0207419768 0.9840813279 0.4534715116 0.004959791433 0.8865782022
-0.187944442 0.01213247422 0.988317132 0.4853689671 0.1326513737 0.844910562
-0.1921244115 0.009455964901 0.9906044602 0.476518929 0.1971527636 0.8446127176
-0.1824229956 0.005630428903 0.9868727326 0.3911653161 0.1725263149 0.846115768
-0.1879695207 0.004593051039 0.9899305105 0.5302050114 0.2255461812 0.8058798313
-0.183207497 0.01467007119 0.983053863 0.4045855105 0.05291097611 0.8798491359
-0.1787063628 0.01040180773 0.9829372764 0.2952255905 0.08059426397 0.8905709982
-0.178330183 0.01744928956 0.9799090624 0.2764653563 -0.01714744791 0.9234567285
-0.2128161192 0.01094867662 0.9987509847 0.3688192368 0.1341815591 0.9173443317
-0.2074724883 0.01354149729 0.995419383 0.4063502848 0.1263383776 0.9046365023
-0.201479882 0.01988064125 0.9915145636 0.4411976933 0.1556144655 0.8830574751
-0.1941026598 0.01758718304 0.9888514876 0.4151481688 0.1083294079 0.8956261277
-0.1569104344 0.04789334163 0.9824516177 -0.1016575098 -0.3305462599 0.9326406717
-0.155614689 0.03774475306 0.9791529775 -0.1337429285 -0.2570215166 0.9545060992
-0.1477189064 0.04396511987 0.9857050776 -0.2054990232 -0.3099357784 0.9277682304
-0.1531108022 0.03938670456 0.9833611846 -0.1764867753 -0.292209655 0.9393050671
-0.1470213383 0.049420055 0.9892163873 -0.1879509389 -0.3025487959 0.9336063266
-0.1507945359 0.05181017891 0.9858394265 -0.1670647115 -0.3520797193 0.9202311635
-0.1684067696 0.03862836584 0.9776524901 0.05263292044 -0.2506344914 0.965207696
-0.172545284 0.03551834077 0.9771206379 0.113884531 -0.2296622247 0.9647894502
-0.1667516977 0.03302887827 0.976718843 0.03571804985 -0.224022001 0.971745491
-0.1787312478 0.0349262543 0.9776026011 0.2265243828 -0.1998153776 0.945531249
-0.2012905926 0.0001045339159 0.9923629761 0.3453291357 0.2367736548 0.8924632668
-0.1977232248 0.004435449373 0.9885362387 0.4615521729 0.1874468178 0.8606604338
-0.1924795061 0.005281891208 0.9854194522 0.5077059269 0.1915132999 0.8387463689
-0.209006384 -0.004347535316 0.9970954657 0.2337087244 0.242297858 0.9361312985
-0.2068135887 -0.01057602931 0.9975989461 0.1182943508 0.3367248774 0.9285955429
-0.1970084906 -0.002763186814 0.9898996949 0.333212465 0.258813709 0.8806043267
-0.2026854455 -0.005539793521 0.9949883819 0.2222474962 0.3019026518 0.914834559
-0.2083975971 0.01098427642 0.9897116423 0.4091631472 0.1502297521 0.8966023922
-0.203179881 0.008529015817 0.9888153672 0.440710783 0.1658211797 0.8775410652
-0.206332311 0.00335933757 0.9919306636 0.3909554183 0.1610117108 0.8991600871
-0.1951261908 0.01054408494 0.9810146689 0.4431708157 0.1303775012 0.8865009546
-0.1907389313 0.008198445663 0.9795867801 0.4575863481 0.1343568116 0.8781493306
-0.2016664892 0.01283075102 0.9844553471 0.4364413917 0.1386090666 0.8881383538
-0.2150544822 -0.000739219191 0.9964278936 0.3011590838 0.1334804446 0.9427340031
-0.2202946097 -0.0009475909756 0.9967668056 0.2643223405 0.05422276631 0.9591133595
-0.2161490023 0.004470487591 0.9941614866 0.3190741539 0.1007771567 0.9368741512
-0.2110458016 0.01672694087 0.9916343689 0.4127666354 0.1329375803 0.900513351
-0.2245931774 0.007492263801 0.9984896779 0.3326213658 0.04754920676 0.9371147752
-0.2145197839 0.01247276738 0.9913073778 0.3853102326 0.1223609298 0.9128091931
-0.2200450897 0.01171401888 0.994869709 0.3643568158 0.0753043294 0.92251724
-0.2239004225 0.01268143207 0.9994803071 0.3724091351 0.04812910035 0.9227981567
-0.2164209932 0.01604165137 0.9964870214 0.3909630775 0.1089066267 0.9125260711
-0.2182541043 0.0139463786 1.001058578 0.3807689548 0.09161252528 0.9196385741
-0.222968623 0.01432039682 1.007051826 0.3610696495 0.07004769892 0.9295666814
-0.2274532616 0.01316901948 1.005106091 0.3708794117 0.02790674753 0.9267660975
-0.2021325082 0.02263239212 0.9870355725 0.4306035936 0.05001179501 0.8918716311
-0.1927068383 0.03079838678 0.9851527214 0.4380094707 -0.1058130413 0.8910776973
-0.2085535824 -0.02995685674 1.004280448 -0.05350578949 0.3643167913 0.9293869138
-0.189888075 -0.02957895026 1.006583571 -0.1549664885 0.3924946487 0.9054743648
-0.1982777715 -0.02576264367 1.002266407 -0.1064641029 0.3697380126 0.9182841182
-0.2062075585 -0.02212773263 0.9992612004 -0.0474425219 0.3551665843 0.9316074848
-0.2031320632 -0.03146188706 1.005133271 -0.09748135507 0.368658632 0.921246171
-0.2115243673 -0.02398679778 1.000567794 -0.01207775529 0.3558509946 0.9331334233
-0.2215080708 -0.02378917485 0.9981544614 0.05834584311 0.3191422224 0.9392866492
-0.2181284279 -0.02642356418 1.00116992 0.02904347703 0.3424520791 0.9340881109
-0.2284190655 -0.0257022921 0.9982391596 0.1027333513 0.3024208248 0.9410586357
-0.1884627342 -0.005943687633 0.9826734662 0.339954108 0.2082285881 0.8899827003
-0.1995504349 -0.01409300417 0.9913100004 0.1336836815 0.2880217433 0.9148913622
-0.195742622 -0.01126146317 0.9889781475 0.2213945836 0.2678039372 0.8966825008
-0.1941410154 -0.01082979701 0.9945412874 0.28069368 0.3701404035 0.860239923
-0.2037019134 -0.01693222858 0.9961860776 0.07677817345 0.3441841304 0.9116081595
-0.1881737709 -0.005485049915 0.9882333875 0.4445823431 0.2872585654 0.8284990191
-0.1940275878 0.002078590915 0.9956891537 0.3957076073 0.2785918415 0.8473647237
-0.1976256669 -0.00591959944 1.00470674 0.1416641474 0.3416960835 0.9061087966
-0.1975856274 0.008128862828 0.9942848682 0.3798474073 0.2371473014 0.8792198896
-0.1941911876 -0.002370778704 0.9991201162 0.3152715862 0.3118552864 0.8577144146
-0.1750132591 0.03045649454 0.9762551785 0.1691151559 -0.1825314462 0.9669297934
-0.1817926168 0.02908482775 0.9762735963 0.3343599141 -0.1321654171 0.9298087955
-0.1770962626 0.02493563294 0.9753799438 0.256082952 -0.1174085736 0.9554318786
-0.1990872324 -0.0171643924 0.99909693 0.09740556031 0.3977946639 0.8951529264
-0.1947830915 -0.01449873112 1.004641294 0.1052621081 0.4143187106 0.8906466365
-0.1927828938 -0.01981841959 1.005031228 0.02262237109 0.4094698131 0.8939706087
