# .PCD v0.7 - Point Cloud Data file format
VERSION 0.7
FIELDS x y z normal_x normal_y normal_z
SIZE 4 4 4 4 4 4
TYPE F F F F F F
COUNT 1 1 1 1 1 1
WIDTH 512
HEIGHT 1
VIEWPOINT 0 0 0 1 0 0 0
POINTS 512
DATA ascii
-0.1151836365 -0.08977022767 1.153431892 0.1841364503 0.04792239144 0.9812169075
-0.1116756797 -0.07513485849 1.153296828 0.1964155734 0.09687960893 0.9754334688
-0.1104778349 -0.08083232492 1.154654622 0.1741949916 0.0949056372 0.9800223708
-0.1048569828 -0.07563114911 1.148792863 0.1582223475 0.09041891247 0.9831250906
-0.1827267557 -0.1141186655 1.159926653 0.2452367544 -0.5180179477 0.819460988
-0.1825085133 -0.1203871816 1.157142878 0.2452367544 -0.5180179477 0.819460988
-0.2881973982 -0.003765308764 1.058056474 0.5309298635 -0.09132889658 0.8400690556
-0.2825523913 0.002679262077 1.057114363 0.4959150851 -0.1539642513 0.8537926078
-0.2301054597 -0.000434256217 1.026462674 0.3016571105 0.02618575655 0.9384280443
-0.2289303839 0.005273385905 1.025243402 0.1732567996 -0.04551506788 0.9782255888
-0.2466049492 -0.04162557051 1.117660642 -0.9631584883 -0.1554943323 0.1731431931
-0.242050916 -0.04261834547 1.113796353 -0.989634037 -0.07784260809 0.09174021333
-0.2396075875 -0.03618214279 1.129659295 -0.9933416843 0.03635441139 0.01541468035
-0.2473514825 -0.02643499337 1.125918031 -0.9765521884 -0.09644445777 0.08886972815
-0.2437821329 -0.03257472813 1.128210306 -0.9651641846 -0.06819541007 0.09196881205
-0.2498523891 -0.03790543973 1.124084234 -0.9455575347 -0.1914625019 0.2235608995
-0.1313380003 -0.09572984278 1.160794616 0.1413445324 -0.1861620396 0.9593715668
-0.1217195615 -0.08987869322 1.15808928 0.1650907695 -0.03912644833 0.9691333175
-0.1311517507 -0.08847486228 1.159631371 0.1154007167 -0.01044277661 0.9871380329
-0.1205421686 -0.08373712748 1.156630158 0.1679728776 0.07745908201 0.9811362624
-0.1286298037 -0.08394807577 1.158009052 0.142124176 0.04897146299 0.985275805
-0.1359165162 -0.08549649268 1.158499956 0.1139872372 -0.07291285694 0.9861300588
-0.1224470511 -0.07000944018 1.15378952 0.2015196085 0.04738649726 0.9753118157
-0.1279706955 -0.07803928107 1.153422594 0.1628277302 0.03052504361 0.9843652248
-0.1235509962 -0.09555051476 1.158985853 0.1762624085 -0.1652433723 0.9525550008
-0.1184972152 -0.09427069128 1.15324378 0.1794127077 -0.06040377915 0.9692761898
-0.1163705066 -0.06854271889 1.153889537 0.1971728504 0.08208695054 0.9768249393
-0.1046585962 -0.07111924887 1.152426958 0.1570676267 0.09383856505 0.9830814004
-0.1107246131 -0.08513653278 1.148874879 0.1723634899 0.06369081885 0.9824850559
-0.1581884921 -0.1089880541 1.14850688 0.2450858504 -0.517824173 0.8196139336
-0.2507055998 -0.05302164704 1.107275486 -0.7754942179 0.1033797339 0.3559763134
-0.2490175366 -0.05950312689 1.100361347 -0.7544181347 0.2862451077 0.3502843678
-0.2470223457 -0.06404197961 1.096130848 -0.7723758817 0.4187821746 0.3172120452
-0.2554902434 -0.05850352719 1.096756458 -0.5076841116 0.2238113731 0.5734059215
-0.2573535144 -0.05452259257 1.100381732 -0.4873741269 0.1069414392 0.6064665914
-0.2509506643 -0.06497889012 1.091994166 -0.6014363766 0.4222253263 0.4656511545
-0.2520795763 -0.04535907507 1.115917087 -0.8254289627 -0.109382607 0.3404637277
-0.2555224895 -0.06637182832 1.086797833 -0.3983393013 0.4343343675 0.6409604549
-0.2582318485 -0.06047710031 1.092203259 -0.3702619076 0.2615538239 0.6881397963
-0.2433239669 -0.05168921128 1.102907062 -0.9188504219 0.1378156841 0.1433936805
-0.2489165813 -0.04882936552 1.112765789 -0.8880335093 0.003888712497 0.2628044188
-0.2456182837 -0.06750750542 1.092025042 -0.7696335912 0.5213150382 0.3004794121
-0.2445034832 -0.04777128249 1.107898235 -0.9389945269 0.02403689548 0.1474896669
-0.2925049663 -0.005866137799 1.06092155 0.5611903071 -0.07604266703 0.8216906786
-0.293730408 -0.002952500479 1.068729043 0.6263458729 -0.05341853574 0.7597777247
-0.2942500412 0.002095079049 1.071973681 0.6879765391 -0.1075767428 0.7113437653
-0.2931582928 -0.01074319426 1.064441442 0.5281257033 0.03296022862 0.8361053467
-0.2924411297 -0.01875691861 1.063058734 0.4257543683 0.1344350725 0.8879016042
-0.2957883179 0.002126072301 1.078017235 0.666593194 -0.0842724815 0.7124040127
-0.2865669429 0.01118460298 1.069218874 0.6006095409 -0.2677690089 0.7506734133
-0.2398889661 -0.04077983275 1.124415755 -0.9875168204 -0.09239912033 0.1251328737
-0.2519032955 -0.03166128695 1.120042086 -0.9573709369 -0.1661037803 0.165738672
-0.2539715767 -0.02250557579 1.122019768 -0.8495208621 -0.4120192826 0.2385092527
-0.2537849545 -0.01766971499 1.119483829 -0.7751236558 -0.5570330024 0.178605929
-0.2619837821 -0.06449136883 1.084114432 -0.1636727452 0.353605032 0.8548278213
-0.2904453874 -0.000175188572 1.062756181 0.5848586559 -0.1229279935 0.7984163761
-0.2863782644 0.004143450409 1.062013984 0.5412415266 -0.1565010101 0.8258029222
-0.2942474186 -0.008987781592 1.073232651 0.5299233198 0.04629022628 0.7942842245
-0.2858884037 -0.01214121841 1.070158482 0.4393292367 0.1378520727 0.8161756396
-0.290884912 -0.003749110503 1.074627638 0.5675171614 0.01301641576 0.7549012899
-0.2816181183 -0.02068722621 1.065783381 0.3141441643 0.2593423426 0.8787166476
-0.2928316891 -0.01553579047 1.070279837 0.4461558163 0.1265888661 0.8425281048
-0.2791768312 -0.0004877947213 1.064787269 0.4096367955 -0.04305713624 0.8221276999
-0.2836019993 0.006328186952 1.067061782 0.5247390866 -0.1904041618 0.7750423551
-0.2825001776 0.003776500467 1.095813394 -0.01471201424 -0.3526660502 0.3745433688
-0.2890491486 0.005155242048 1.097588897 -0.510797441 -0.2662816942 0.1810847223
-0.285885334 0.005905929953 1.091198206 0.3388685286 -0.3016856313 0.5328336954
-0.2838576436 0.002345294692 1.102886796 -0.8568155169 -0.3424299061 0.02141961642
-0.2942585051 0.008077741601 1.091870904 -0.1192896292 -0.1894120127 0.3600563705
-0.2946920097 0.006301763933 1.098092437 -0.8474242091 -0.1900040954 0.05031355098
-0.2693967521 -0.003095378168 1.103756309 -0.3753072321 -0.5360732675 0.1789134145
-0.2751814127 -0.0008988824557 1.105368972 -0.7457683682 -0.4620068669 0.04495837167
-0.2666989565 -0.004022936337 1.108930945 -0.7375354767 -0.5809583664 0.02830678411
-0.2971963584 0.007059278898 1.086951017 0.06092415005 -0.1372774243 0.417973727
-0.3005039394 0.008586671203 1.095397592 -0.8192136884 -0.1083858833 0.0767166242
-0.2907030284 0.00454929471 1.082705259 0.5534504056 -0.2147980183 0.6065550447
-0.289409548 0.003944464028 1.076549053 0.5691526532 -0.2155990303 0.6414166093
-0.2847290039 0.002261545742 1.080908775 0.4130326807 -0.2859439254 0.5652663112
-0.2817193568 0.001319472794 1.091090679 0.2536580563 -0.3498604596 0.4602616131
-0.2658298016 -0.002075434895 1.098264813 -0.2038514614 -0.5992903709 0.276588589
-0.2733075321 0.0003652371233 1.098783731 -0.01526227873 -0.482768178 0.3543929756
-0.2709406316 0.0006525577628 1.092504621 -0.02107451856 -0.5296846628 0.3747003973
-0.2834846675 0.007474496029 1.077637911 0.4339570999 -0.3600399196 0.6208628416
-0.2908072174 0.01029665861 1.075652957 0.6406020522 -0.2500266135 0.7153739333
-0.259893924 -0.005503449123 1.106452823 -0.4293339849 -0.6776747704 0.1516306698
-0.2758800983 0.001530257636 1.087449312 0.1430880278 -0.4449317455 0.4511671662
-0.27820912 0.00433091633 1.082967281 0.2486466765 -0.4285710156 0.5203223228
-0.255182445 -0.008113089949 1.111845493 -0.5989419818 -0.74090451 0.05987453461
-0.1360622793 -0.09307789057 1.161000013 0.1171966866 -0.1665561944 0.961930275
-0.1666640788 -0.1060676649 1.153613925 0.2452367544 -0.5180179477 0.819460988
-0.1682012379 -0.1132852137 1.155688047 0.2452367544 -0.5180179477 0.819460988
-0.173979044 -0.1125882417 1.158782125 0.2452367544 -0.5180179477 0.819460988
-0.09992082417 -0.06442336738 1.147907972 0.1517550498 0.08039849997 0.9851428866
-0.1002874225 -0.06997270137 1.148844957 0.1517550498 0.08039849997 0.9851428866
-0.1115107834 -0.07867205888 1.148842454 0.1717495322 0.07559089363 0.9818338752
-0.1216896623 -0.07770697773 1.155030966 0.1994179338 0.1050023586 0.9742071629
-0.1762480438 0.04939937964 1.043778896 -0.2852064967 -0.1117928624 0.9516373873
-0.1582488567 0.03567633405 1.051879287 -0.3556612134 -0.07778794318 0.9303597212
-0.1681521088 0.04372068495 1.047457814 -0.3176537454 -0.0974194333 0.9417182207
-0.16382505 0.04068424925 1.049333215 -0.3350124657 -0.08927465975 0.9364796877
-0.1623350978 -0.1182096452 1.153341174 0.2452367544 -0.5180179477 0.819460988
-0.1589137614 -0.1154776216 1.14891696 0.2452367544 -0.5180179477 0.819460988
-0.1643646508 -0.1138396338 1.150475979 0.2452367544 -0.5180179477 0.819460988
-0.1681877673 -0.1191330403 1.152448535 0.2452367544 -0.5180179477 0.819460988
-0.1574868262 0.03411777318 1.043425798 -0.3766372204 -0.06674081087 0.9239079356
-0.1639269739 0.03318214789 1.039728761 -0.3751699924 -0.06664782017 0.9244720936
-0.1646684259 0.04036799818 1.042531133 -0.3460786641 -0.06982565671 0.9352943897
-0.2581599355 -0.06952119619 1.081081033 -0.3407036364 0.4662342072 0.7762196064
-0.2533202767 -0.07169017196 1.081549406 -0.5278436542 0.5170242786 0.6665092707
-0.2611315548 -0.06749899685 1.074593663 -0.2816409767 0.4422095418 0.8031252027
-0.2865999639 -0.01180493459 1.05716753 0.4592252374 0.08234372735 0.8671585321
-0.2798263431 -0.004552821163 1.056127548 0.4112004638 -0.0040956554 0.906050086
-0.2896609306 0.005442753434 1.067147255 0.6338294744 -0.1882422566 0.7439554334
-0.2875772119 -0.0003756295482 1.068484068 0.5689916015 -0.04598827288 0.7620307207
-0.2804962099 -0.007297480013 1.063658834 0.403445065 0.1006388888 0.8384676576
-0.2775006592 -0.01242041215 1.061811805 0.3241544068 0.2138014585 0.8738863468
-0.270293802 -0.01780752093 1.060490489 0.1548573226 0.3091976047 0.9194765091
-0.2727524936 -0.0162541531 1.066821933 0.1500538439 0.1887281239 0.794095397
-0.2621434629 -0.01311281975 1.089325309 -0.2676406503 -0.2655880451 0.4331676364
-0.2700638473 -0.01555647142 1.072181344 0.04699342325 0.08088067919 0.7087751031
-0.2676928639 -0.0181752611 1.065616846 0.04796210676 0.225294143 0.8355908394
-0.2682954967 -0.01735926606 1.078752637 -0.05041141808 -0.02495538257 0.6167966127
-0.2592788935 -0.0114344852 1.100374222 -0.4217943549 -0.4881135225 0.250259757
-0.2812618315 -0.01366643142 1.066524148 0.378834039 0.2085986584 0.8438716531
-0.2760564387 -0.01766555756 1.060185909 0.2763616443 0.3275107443 0.9032274485
-0.2848828733 -0.006173977628 1.067614079 0.4830282927 0.09876266122 0.8024607897
-0.1612330079 0.01364595536 1.049725533 -0.3584015369 -0.02448347025 0.9332063794
-0.1872819364 0.005127782002 1.032075286 -0.2944713235 -0.0582959801 0.9530060291
-0.1830575019 0.01257538237 1.034532905 -0.2958888412 -0.0672128424 0.9524272084
-0.1946635842 0.004211056978 1.029775858 -0.280032903 -0.08709271252 0.9554716349
-0.1700117737 0.01767252386 1.03896153 -0.3614671826 -0.04064937681 0.930868566
-0.1677884459 0.02842615545 1.03790307 -0.3722202778 -0.06106317043 0.9258543849
-0.1766204834 0.009547984228 1.036030531 -0.3283246756 -0.0357645601 0.9434970617
-0.1707420796 0.02365425974 1.037248373 -0.351421535 -0.05466132984 0.9334846139
-0.1806746721 0.01781476103 1.035527945 -0.2721100748 -0.06121083722 0.9595868587
-0.2384064347 -0.0463196151 1.097586513 -0.7636723518 0.09571859986 0.2911244333
-0.2382529676 -0.04672452807 1.090382576 -0.6235391498 0.1863152683 0.4362886548
-0.2380046099 -0.04579415917 1.07955277 -0.4015941918 0.2890014052 0.6569428444
-0.1423577219 -0.08988264203 1.159018993 0.1068204492 -0.2141996622 0.9657955766
-0.1512821466 -0.09717011452 1.152388334 0.1925151348 -0.4373554885 0.8749996424
-0.1530213803 -0.1016867533 1.148923159 0.2069132179 -0.444958061 0.8621760011
-0.1469846219 -0.1028086543 1.147134542 0.1830495447 -0.4081642926 0.8873607516
-0.1444259435 -0.09654216468 1.14891839 0.1603274643 -0.3557038903 0.9141719341
-0.1211205944 -0.0904244259 1.149000049 0.169240877 -0.05509220436 0.9712560773
-0.125985086 -0.08733799309 1.149000049 0.1649045795 -0.09542553872 0.9653098583
-0.1167817488 -0.08678504825 1.149000049 0.1799893081 0.02153540775 0.9793962836
-0.1198132187 -0.07842004299 1.149000049 0.1842207313 0.0373663567 0.9785491228
-0.1012319624 -0.04340263084 1.147125006 0.1517550498 0.08039849997 0.9851428866
-0.09808790684 -0.03803372011 1.146009445 0.1517550498 0.08039849997 0.9851428866
-0.2799287438 0.008021339774 1.058898449 0.5218554735 -0.2044550031 0.8255922198
-0.2478660792 -0.02234029211 1.118236423 -0.8637031317 -0.3250611722 0.04351979122
-0.2428596318 -0.03310092166 1.115803003 -0.9448982477 -0.1591431797 0.05116651207
-0.2455180883 -0.0274952203 1.118139982 -0.9180482626 -0.214568615 0.04725176468
-0.2507509291 -0.01558003202 1.114236355 -0.7328193784 -0.5896255374 0.03836020827
-0.2405515313 -0.03891136497 1.11029613 -0.9543084502 -0.1391767561 0.05388078466
-0.209682554 -0.001303182566 1.024961114 -0.08967261761 -0.04240716249 0.9941814542
-0.2167322189 6.450357614e-05 1.024703503 -0.009098334238 -0.04145091772 0.9950565696
-0.2445580214 -0.02652143873 1.051675081 0.1148449555 0.3187930584 0.9084953666
-0.2465678751 -0.03344412521 1.058254361 0.001714328304 0.3589160144 0.920571208
-0.2432172596 -0.01586350426 1.041500568 0.2936115563 0.2617031038 0.8904564381
-0.2470696867 -0.02258171514 1.047836423 0.1888059229 0.3057190776 0.90277493
-0.23795183 -0.0167985335 1.042532325 0.263823688 0.2523388863 0.8903426528
-0.2408930957 -0.02270595543 1.048115015 0.170497328 0.2898513377 0.9010338187
-0.2512196004 -0.02907212637 1.053946257 0.08867573738 0.349385649 0.9148106575
-0.1155493557 -0.05866135657 1.149000049 0.1738622338 0.07666604221 0.9812941551
-0.1198311597 -0.06617836654 1.149904609 0.1970510781 0.07275095582 0.9772571325
-0.1097776294 -0.07163546979 1.148851514 0.1719049662 0.08692976832 0.9808607101
-0.1176551133 -0.07247243077 1.148950219 0.1951361001 0.07229477912 0.9778242707
-0.1158979014 -0.06203465536 1.153131247 0.1692449301 0.07779859751 0.9821619987
-0.1284713 -0.09388580918 1.148816228 0.1593341231 -0.1728636324 0.952706337
-0.1321279854 -0.09976387024 1.147877216 0.1696072817 -0.312259078 0.9120231867
-0.1268886626 -0.09990175068 1.159673691 0.1752759963 -0.2732685804 0.9398562312
-0.1268214583 -0.09959858656 1.151179075 0.1781409979 -0.2517667711 0.9253094792
-0.1220208555 -0.09661862999 1.148783803 0.179938972 -0.1403357983 0.9436770678
-0.1311202794 -0.1023484021 1.155956507 0.1756473929 -0.3577547669 0.9134677649
-0.1950122565 0.0287412405 1.032525659 -0.2268087119 -0.09325031936 0.9683228731
-0.226368919 0.03527164832 1.031492829 0.1072821617 -0.1258286387 0.953168571
-0.220251739 0.03906454518 1.030985117 -0.04720108211 -0.09575862437 0.9590684175
-0.2132077217 0.03434760869 1.027933598 -0.2224310338 -0.05594905838 0.9727677107
-0.2148048133 0.04096180201 1.027995944 -0.2239362597 -0.05932413042 0.9727702141
-0.2410177141 -0.00473609753 1.034533262 0.5162751675 0.1943124235 0.8269020319
-0.2246959507 0.0296231322 1.026225209 0.09421955794 -0.1040381491 0.9859024882
-0.2250971794 0.01750096306 1.026733994 0.1319572031 -0.04984261096 0.9876839519
-0.2496187687 0.02385335043 1.040941596 0.5121679306 0.004988084547 0.8480170965
-0.2348560691 0.03241312876 1.032354832 0.3017773628 -0.1478438824 0.9383675456
-0.2409879565 0.02899806388 1.035666823 0.3896270096 -0.0844592154 0.9009359479
-0.2760994136 0.003249430563 1.054598808 0.4498941004 -0.09961546957 0.8871703744
-0.1493044049 -0.09508559853 1.158896923 0.1506310701 -0.3449695706 0.9150585532
-0.1542740911 -0.09915233403 1.156683087 0.1885128468 -0.4150086939 0.8772241473
-0.1614091098 -0.1029433161 1.154950261 0.2252016962 -0.4831007421 0.8397119045
-0.1425179839 -0.09591468424 1.159255147 0.1528941244 -0.3486899436 0.9172762632
-0.1546263546 -0.1072555855 1.15357089 0.2327779979 -0.4973933399 0.8347299695
-0.1377937645 -0.1036203131 1.15904808 0.1940469742 -0.4204634428 0.8836086988
-0.1474506706 -0.1035953164 1.155670643 0.2153001428 -0.4639647007 0.8566453457
-0.1754415482 -0.1197817847 1.153971553 0.2452367544 -0.5180179477 0.819460988
-0.178161189 -0.1126001924 1.155273914 0.2452367544 -0.5180179477 0.819460988
-0.1732359678 -0.1088069528 1.154136777 0.2452367544 -0.5180179477 0.819460988
-0.1776687205 0.01160269137 1.041669369 -0.3345226049 0.01085284632 0.9395968914
-0.1812669188 0.01619469561 1.04145205 -0.3183889687 -0.02539435402 0.9440463781
-0.1866246015 0.02132394351 1.041253567 -0.2965323329 -0.06303396076 0.949639678
-0.1820609421 0.007408610545 1.038141847 -0.3397673368 -0.05009096116 0.9367192984
-0.2082775533 0.02915118448 1.034286857 -0.1890328228 -0.08224625885 0.9748091698
-0.2138241827 0.02737067454 1.032013893 -0.1394848078 -0.07130390406 0.9842929244
-0.2029869854 0.02786967158 1.037026525 -0.209591195 -0.09463141114 0.9693512321
-0.2057668269 0.03598286957 1.034731746 -0.2434429526 -0.09418793768 0.9642413855
-0.1997145414 0.03264090046 1.038065195 -0.2563303709 -0.1065151617 0.9599812031
-0.1705058813 0.03588069603 1.039091229 -0.2963581681 -0.08167403936 0.9485322833
-0.1714164466 0.04270929098 1.042063832 -0.2929570079 -0.08535445482 0.951357007
-0.1823578626 0.04705074802 1.040241241 -0.2643704414 -0.1454845071 0.9526762962
-0.1809740961 0.03981689364 1.037823915 -0.2355527282 -0.1335685998 0.9616293311
-0.1781394482 0.04293708876 1.041943789 -0.2663326263 -0.1055326015 0.9574807286
-0.1532423049 0.0327741988 1.054234028 -0.3778575063 -0.07213652879 0.9230476618
-0.1576365978 0.02865250781 1.045249224 -0.3843786716 -0.07423206419 0.920158565
-0.1566384882 0.02258827537 1.050801754 -0.389615804 -0.05732854828 0.9191222787
-0.29184255 -0.02695489489 1.066559076 0.3182355464 0.2422288507 0.9155567288
-0.2863774002 -0.02479621582 1.063515067 0.292988658 0.2826925814 0.9110295177
-0.2850117385 -0.01682889834 1.058838964 0.3838649988 0.2048075944 0.8922995329
-0.2782735527 -0.02357596159 1.059672117 0.2508894503 0.3077207506 0.9103274345
-0.27789855 -0.04321555048 1.067077279 0.1755357385 0.2651455402 0.9456903934
-0.2746477127 -0.05826417357 1.063715935 0.03754385188 0.3432652354 0.9348788261
-0.2803449333 -0.05032645538 1.06754601 0.1330014914 0.3433381319 0.9236022234
-0.2868216932 -0.04378510639 1.068493128 0.182800442 0.2782908678 0.9398521781
-0.2656685412 -0.05583521724 1.081415892 -0.0932482928 0.3136380911 0.8342427015
-0.2561680079 -0.04639881849 1.103600025 -0.6258388758 0.09718509018 0.4390650094
-0.2677811682 -0.04602066427 1.082628727 -0.107254602 0.2289693207 0.7569787502
-0.2583037317 -0.04920880497 1.098257661 -0.4984560311 0.1535210162 0.5374478102
-0.2652923465 -0.05100494251 1.084593534 -0.1638823599 0.2553862631 0.7568162084
-0.2613857985 -0.05772571266 1.088246346 -0.2650271952 0.2845582068 0.7412744761
-0.2642971873 -0.04237767309 1.090858102 -0.3045930564 0.1475579888 0.6095308065
-0.262390852 -0.05199070275 1.089373231 -0.2835395336 0.2323963493 0.6897422075
-0.2533126771 -0.03712647036 1.113587856 -0.857460916 -0.03961865976 0.2310744971
-0.2611168325 -0.04450102895 1.095559239 -0.4241566956 0.133983925 0.5504665971
-0.2702006102 -0.0486263521 1.076874733 0.03062892519 0.2863503098 0.8604243398
-0.2686294913 -0.05468457937 1.07661283 0.02725305036 0.3354864717 0.9006860256
-0.2561272979 -0.03979991376 1.107078671 -0.7010335326 0.02314573154 0.3464563191
-0.1251428723 -0.07537835091 1.149482727 0.178324461 0.01608028263 0.9766008854
-0.1384544522 -0.09176837653 1.150773168 0.1324775517 -0.2404337078 0.9528111219
-0.1323695481 -0.08428100497 1.151116371 0.1491265893 -0.1046611741 0.9678679705
-0.1036310792 -0.04862967506 1.147986293 0.1517550498 0.08039849997 0.9851428866
-0.09821500629 -0.04873951897 1.146467566 0.1517550498 0.08039849997 0.9851428866
-0.1065787151 -0.06134480983 1.14861834 0.1517550498 0.08039849997 0.9851428866
-0.1057127863 -0.05418506637 1.148896337 0.1517550498 0.08039849997 0.9851428866
-0.09797751904 -0.05495926738 1.146178603 0.1517550498 0.08039849997 0.9851428866
-0.1116866767 -0.04982850328 1.148967385 0.1517550498 0.08039849997 0.9851428866
-0.2403828949 -0.03751670942 1.11953485 -0.9975248575 -0.0179634206 0.03635434806
-0.2437911183 -0.03096823767 1.123031139 -0.9974930286 -0.03400615603 0.03937450424
-0.1908149421 0.01393074822 1.033325195 -0.2815012336 -0.1056004763 0.9533395767
-0.1953441054 0.01078723837 1.031639338 -0.2752496302 -0.1130258217 0.9543309212
-0.1870318055 0.02024346776 1.034268618 -0.2366975248 -0.09964307398 0.9651143551
-0.1971689314 0.01535634045 1.035863876 -0.2564010322 -0.1259364784 0.9580948353
-0.1923442334 0.0186880473 1.038545012 -0.2830109596 -0.1098582894 0.9522173405
-0.1890885681 0.008858440444 1.03623569 -0.3093708158 -0.1031484604 0.9445333481
-0.2240642607 -0.002954685362 1.027059436 0.1219297573 -0.01097315457 0.9856979847
-0.2330842316 -0.004395822529 1.029964685 0.4365367591 0.1353076547 0.8864968419
-0.2206480652 0.006675567012 1.024374604 0.02285276353 -0.0428211987 0.9962819815
-0.2145688534 0.008008018136 1.025998235 -0.06717312336 -0.0599754639 0.9950584769
-0.2089978456 0.01216368843 1.027524948 -0.1726165712 -0.09202141315 0.9786453843
-0.1459005326 -0.1116487086 1.143911958 0.1988072693 -0.4608153999 0.8648261428
-0.13877289 -0.1010241881 1.14756608 0.1620824337 -0.3946829736 0.9005251527
-0.1390737295 -0.1070105731 1.146899104 0.1841941327 -0.4531428516 0.8719369173
-0.1435494274 -0.1093124971 1.149507523 0.2017845958 -0.4494723082 0.86838305
-0.1516560912 -0.1137692928 1.14630425 0.228474021 -0.4959749877 0.836648345
-0.1410389692 -0.1066742763 1.155113459 0.2053020298 -0.4428033829 0.8691029549
-0.1486994028 -0.1097834781 1.155765653 0.221091643 -0.4718696773 0.8497328162
-0.1794352829 0.02692684531 1.036207795 -0.2183231711 -0.07542220503 0.9724903703
-0.2136002779 0.02067668922 1.027809739 -0.1255533397 -0.05857910588 0.9869517684
-0.2071370631 0.02671412751 1.028468966 -0.2700259089 -0.06892703474 0.9599674344
-0.2014056146 0.02927213535 1.030212164 -0.2311032116 -0.07540303469 0.9695027471
-0.1975508034 0.02241978236 1.031561852 -0.2558582127 -0.09338933229 0.9607995152
-0.1988073736 0.04520706087 1.036763787 -0.288497448 -0.1033789068 0.9509727359
-0.1937473118 0.04652649909 1.039059877 -0.2794973254 -0.1218639016 0.9513188004
-0.1874837577 0.04723174125 1.042292953 -0.2692275345 -0.1503701657 0.950871408
-0.2077850252 0.04296554253 1.032039046 -0.2790510654 -0.07208643854 0.9569322467
-0.2255644798 0.01097469032 1.025829911 0.1366659999 -0.03278027475 0.9877573848
-0.2327788472 0.01073652413 1.027640343 0.2933035791 -0.05570815876 0.9531624913
-0.2371318191 0.02115154453 1.03039813 0.4087530673 -0.1151965633 0.8987644315
-0.2344265878 0.01646208763 1.028905153 0.3525294363 -0.07876776159 0.9281148314
-0.2413572669 0.01538120303 1.032469392 0.484672904 -0.07072380185 0.8700566292
-0.2509756982 0.01826434955 1.044714451 0.5386042595 0.08498159796 0.8342077732
-0.2381988615 0.003508003894 1.030982733 0.4840734601 0.09453093261 0.8689651489
-0.2334360629 0.02849486098 1.028812289 0.3337171376 -0.1591445059 0.9259634018
-0.2465026081 0.02490276471 1.035896778 0.5017055273 -0.01846546866 0.8562649488
-0.278239727 0.01317008771 1.061560154 0.560094893 -0.2534392178 0.7885637879
-0.1903591603 0.03532313183 1.041000009 -0.2429870963 -0.157718733 0.9569117427
-0.1941685528 0.02927138656 1.041000009 -0.2651306689 -0.1180965528 0.9568172097
-0.1860019863 0.0271480903 1.034961224 -0.2053989023 -0.1064588353 0.9720652699
-0.1859654933 0.03270566091 1.036193013 -0.210591048 -0.1326276958 0.9677790999
-0.2418890297 -0.0295268558 1.06049192 0.0004336163693 0.370370537 0.9172790647
-0.2432125509 -0.01183074899 1.05172956 0.2051056176 0.3365995288 0.9087235928
-0.2365907133 -0.02760289237 1.05394721 0.02795417979 0.2949124575 0.9311568737
-0.2375353873 -0.032328289 1.057620883 -0.02795600146 0.3210531175 0.9299094081
-0.2349486351 -0.01123702154 1.042898536 0.2200152129 0.2258739769 0.9310430288
-0.2397966981 -0.01751958765 1.051473737 0.1422036141 0.3080108762 0.9196106195
-0.2340652794 -0.02315695398 1.048809171 0.08214216679 0.2487294227 0.936783731
-0.242157951 -0.02105423063 1.055921912 0.09878054261 0.3493900597 0.9141753316
-0.2468040586 -0.01263734233 1.055881381 0.1922415793 0.3863089979 0.8991770744
-0.2314305902 -0.01588191837 1.041940451 0.1693618894 0.192915231 0.9419158101
-0.2325266749 -0.01190959569 1.037561655 0.2899790704 0.1904196888 0.9085534215
-0.229320243 -0.007649926469 1.033144474 0.3119909465 0.138010025 0.9279821515
-0.2186352164 0.02385605872 1.031050324 -0.06272193044 -0.06930014491 0.9932252169
-0.2272395343 0.02931034938 1.03146112 0.1225584373 -0.1159535125 0.9694398642
-0.2187125981 0.03182624653 1.031177878 -0.07971164584 -0.08440959454 0.9756126404
-0.1601301134 0.02894962393 1.050239444 -0.3614038229 -0.07062277943 0.9284327626
-0.1629528254 0.03412051126 1.047883749 -0.3375119865 -0.08861469477 0.9359838963
-0.1602669954 0.02097534202 1.044921279 -0.3644988239 -0.05265369266 0.9294794798
-0.1677352786 0.00844086241 1.043139815 -0.3713035583 -0.01390263811 0.9283637404
-0.2917740047 -0.03244590387 1.069083929 0.2422325462 0.2615299821 0.9324751496
-0.2909995019 -0.03879169375 1.070000052 0.2288771272 0.275868237 0.9335054159
-0.2857670188 -0.03504984826 1.067447901 0.2437460274 0.3104429543 0.9185934663
-0.2807524502 -0.0329795666 1.06548059 0.2411479056 0.2894474268 0.9252365828
-0.2754281461 -0.03292639181 1.064058065 0.1977454424 0.2865589559 0.9340618253
-0.2694171965 -0.03296519443 1.062522531 0.1335707754 0.3013592362 0.9410845041
-0.2722706795 -0.03886142746 1.065920234 0.1804785281 0.2631248236 0.9463407397
-0.2711821795 -0.04518041015 1.064408064 0.1149095222 0.2985174954 0.942386806
-0.2467258722 -0.06337325275 1.077458858 -0.2554905117 0.4850469828 0.8104618788
-0.2439795285 -0.0655753538 1.085434675 -0.6110076904 0.5504177213 0.4605113566
-0.2410441488 -0.05659828335 1.088136673 -0.6047253609 0.371940136 0.4536579847
-0.2388752997 -0.050472036 1.086546779 -0.5184499025 0.282820344 0.5364112854
-0.2392900884 -0.05424076691 1.075813293 -0.2838633955 0.4613982439 0.7718932033
-0.2429401428 -0.06112253293 1.093059659 -0.760518074 0.3981428742 0.300873369
-0.2409129441 -0.05819472671 1.079680562 -0.4093312323 0.4888956249 0.6490070224
-0.2405069619 -0.05379037559 1.093227625 -0.7081257701 0.2695976496 0.3492749929
-0.2551628351 -0.06773159653 1.075397968 -0.3379999995 0.4745669365 0.7522616386
-0.2685396075 -0.06016833335 1.07070899 -0.01348227914 0.4048579335 0.9098635316
-0.2662186027 -0.06210971996 1.07542026 -0.04597462341 0.4003660977 0.9111136198
-0.2712065876 -0.05306925997 1.070616007 0.0882807374 0.3800776005 0.9195743203
-0.2735756636 -0.04751837254 1.070679188 0.1595910192 0.3229140937 0.9301983118
-0.2696290314 -0.0621715039 1.064288378 -0.01702392474 0.3629831672 0.9314823747
-0.2632950246 -0.05294700339 1.064370275 -0.02011001483 0.3591243327 0.9328768253
-0.2613475323 -0.0400868319 1.058472037 0.03610254452 0.3781131506 0.9247871637
-0.2573032975 -0.03675225005 1.059783697 0.0208151415 0.3739964366 0.9262840748
-0.2580403984 -0.04524373636 1.064179182 -0.02123511955 0.3592139184 0.9325607419
-0.2656196058 -0.04744955152 1.0598737 0.02474802732 0.3732348979 0.9270761609
-0.268324405 -0.0525344573 1.060846329 0.01690238342 0.369825691 0.9286668897
-0.2645789385 -0.03528789803 1.06109798 0.07861939073 0.3232070506 0.9420765042
-0.2468764335 -0.05309321359 1.071929693 -0.1811599135 0.4517388344 0.8708713651
-0.2580082119 -0.057416711 1.068053484 -0.1030361354 0.3945198059 0.907656014
-0.2508199215 -0.05105433241 1.068291426 -0.152151525 0.3847099543 0.906693995
-0.2566313744 -0.05098037422 1.066351056 -0.08239626884 0.3629719615 0.9251763225
-0.2435401231 -0.04363761842 1.066868424 -0.1666821241 0.3700135052 0.9129917026
-0.2493219376 -0.04391308874 1.066323757 -0.1065017954 0.3629786968 0.9226943851
-0.2424718738 -0.04978703335 1.070530057 -0.1947201192 0.4394255877 0.8753710985
-0.2510049939 -0.03892503679 1.062762141 -0.02700293995 0.3640412092 0.9296240211
-0.2075445205 0.03391234204 1.029576182 -0.2598043978 -0.07627172023 0.9621308446
-0.1993648559 0.04011004791 1.034297585 -0.2830073833 -0.1141734049 0.9514943361
-0.1931711733 0.03854125366 1.036576986 -0.2778177261 -0.1454878747 0.9490774274
-0.1874238104 0.0401356779 1.037121654 -0.2376789749 -0.1520870328 0.9584621787
-0.1987378597 0.02211085707 1.037021041 -0.2469300926 -0.1282584965 0.9599949121
-0.204123348 0.02003831789 1.034854174 -0.1983258724 -0.1188160777 0.9687548876
-0.2092470527 0.02324207313 1.034754515 -0.137742117 -0.08663092554 0.9812556505
-0.2176735848 0.01623517089 1.027444601 -0.02483000048 -0.05274121836 0.9932712913
-0.2359595597 0.02700013854 1.033739328 0.3245445788 -0.1044802368 0.9231099486
-0.2418152392 0.009096358903 1.033115864 0.5263650417 0.03921804205 0.8440058827
-0.2525714636 0.01136554684 1.039032578 0.5404721498 0.08302163333 0.8355912566
-0.2471160144 0.01556397602 1.035688281 0.5108167529 -0.03203653544 0.8561472297
-0.255743444 0.0191092398 1.040763855 0.5407372117 0.045995377 0.8383891582
-0.2752569318 0.009876999073 1.055933118 0.5032651424 -0.1499024332 0.8505349755
-0.2515159845 0.005177533254 1.050546169 0.4129909873 0.2209462523 0.8578321934
-0.2492757291 -4.981703023e-05 1.051386476 0.3510003686 0.265271157 0.8671773672
-0.249313131 -0.0064433394 1.054860353 0.2669160664 0.3422146738 0.8850423694
-0.25435552 0.0117567908 1.049506187 0.4909544587 0.1653209329 0.846116364
-0.2665067613 0.002646603389 1.057843685 0.3664666414 0.1008928269 0.8833054304
-0.2617679238 -0.004973753821 1.061867237 0.2502906024 0.1628445387 0.8757549524
-0.2718545496 -0.01050739177 1.061614037 0.2370703369 0.176482901 0.889916122
-0.2697941065 -0.00504538836 1.062934875 0.2911816835 0.09546364844 0.8631437421
-0.278806895 0.007218710613 1.064751148 0.4840857387 -0.152621612 0.8058150411
-0.2722535431 0.0004457043833 1.06388092 0.3693016171 -0.007967983373 0.8371537924
-0.2631827891 -0.01057650149 1.062330365 0.1908499897 0.2197044343 0.888479054
-0.2072892636 0.004004900344 1.032218337 -0.1346124113 -0.06992700696 0.9806918502
-0.2006140798 0.005214385688 1.033398271 -0.2071653306 -0.0970050469 0.9673309326
-0.2097530067 0.01611112989 1.032025933 -0.150275588 -0.1085343286 0.9779951572
-0.21251522 0.001889626379 1.031607866 -0.06479211897 -0.05632027611 0.9887931943
-0.2106939256 0.008651707321 1.031735182 -0.1132454425 -0.06831828505 0.9861879945
-0.2045500875 0.008128817193 1.027816415 -0.1999860704 -0.08236163855 0.9747059941
-0.2033678144 0.001186421956 1.027487874 -0.1719816625 -0.06784574687 0.9786739349
-0.2013886422 0.01121044252 1.033070445 -0.2304709703 -0.1198578998 0.9648780227
-0.1702147275 0.03225341439 1.042948842 -0.314299494 -0.08573431522 0.9442662597
-0.1671048701 0.02427723072 1.045250058 -0.3428991735 -0.03609691933 0.9378728867
-0.1832285821 0.02631470934 1.041000009 -0.2926776409 -0.06965796649 0.9522337914
-0.1776721627 0.03221726418 1.041000128 -0.2878571451 -0.1006481349 0.9506020546
-0.1660370976 0.0143365711 1.046673417 -0.3502159417 -0.02457312495 0.9362974167
-0.1765977293 0.01942171715 1.041186452 -0.323717773 -0.03820326924 0.9445238113
-0.2824006677 -0.03850072995 1.070143819 0.2216192931 0.2785515189 0.9341866374
-0.2627886832 -0.03799116239 1.095819473 -0.4184732735 0.08073230833 0.5156829357
-0.2740265429 -0.03889350221 1.074737906 0.1047583446 0.2217155695 0.8642684817
-0.2708375454 -0.04203267395 1.07907784 -0.01194352377 0.2201134562 0.7933264971
-0.2596580088 -0.0371885784 1.101959109 -0.5693946481 0.03522202 0.4140315354
-0.2612339556 -0.02049089782 1.100906134 -0.3870560825 -0.4015673101 0.3741107881
-0.2655015886 -0.03591420874 1.091572881 -0.3010386229 0.07564605027 0.5839216113
-0.2553020716 -0.03174717724 1.11141026 -0.7641128302 -0.1352598518 0.250217706
-0.2589716613 -0.01893197931 1.106001139 -0.486662209 -0.4770694673 0.3105485141
-0.2535779774 -0.02781628259 1.115153074 -0.8174049854 -0.2650592923 0.1803459525
-0.2653663456 -0.02935641073 1.09262085 -0.2568256557 -0.1168924272 0.5523637533
-0.261362493 -0.02916749008 1.100233436 -0.4498106539 -0.1574652642 0.4274046421
-0.2560472786 -0.02131420746 1.111257076 -0.6471322179 -0.4331645668 0.22979559
-0.2570394874 -0.02716032043 1.108670473 -0.6442153454 -0.2538886666 0.2849608064
-0.2715351284 -0.03567695618 1.080164194 -0.006180395372 0.1215566844 0.7700494528
-0.2679437995 -0.03232145682 1.087377071 -0.1546114981 -0.007803713437 0.64466995
-0.2664825916 -0.02406988665 1.088366628 -0.1595822126 -0.1844806522 0.5397850871
-0.2705949247 -0.02406216227 1.075534821 0.02656342275 0.08077316731 0.7192260623
-0.2746896744 -0.03362616524 1.071777105 0.1589425206 0.1936348081 0.8686481714
-0.2746163309 -0.02636704408 1.065165639 0.1957959235 0.3036193252 0.8876324892
-0.2699434757 -0.02894328907 1.082165718 -0.02993009798 -0.038361568 0.6758872271
-0.2676648498 -0.02168196812 1.082429528 -0.09286391735 -0.0705216378 0.5986639857
-0.2626055181 -0.01771962643 1.094473839 -0.299895972 -0.3340944052 0.3900382221
-0.2734020054 -0.02832946181 1.070801735 0.1299813986 0.1943171769 0.8286550641
-0.2568112314 -0.01127164345 1.106467843 -0.5264316797 -0.6057705283 0.1569440961
-0.2722272873 -0.02292647213 1.069373965 0.1067211553 0.2039629519 0.7939157486
-0.2647204399 -0.06243778393 1.067127466 -0.05491765216 0.3819837272 0.9196575284
-0.2513472736 -0.05740339309 1.071948409 -0.1498316377 0.4578616917 0.8717109561
-0.2545446455 -0.06269477308 1.072631121 -0.1166009679 0.4323912859 0.8900760412
-0.2199970335 0.01102553308 1.031000018 0.008362110704 -0.05987622589 0.9961027503
-0.2215118706 0.01839354448 1.031013489 0.01974346861 -0.067112647 0.9943745732
-0.2286344022 0.01773992367 1.032572627 0.1777095944 -0.0385943763 0.9669831991
-0.2341980934 0.01901403628 1.035065651 0.2937266231 -0.0175378453 0.9245771766
-0.2257761061 0.02291090041 1.031497359 0.08082892746 -0.08270250261 0.9902002811
-0.2398963422 0.02198128216 1.037521482 0.3976607621 -0.01219380274 0.8830558658
-0.2308506221 0.02170029655 1.027758121 0.2819498777 -0.113658607 0.947198987
-0.265070349 0.008551700972 1.054737329 0.4469404519 0.09247899055 0.870999217
-0.2597978711 0.0123517001 1.053222656 0.4919286072 0.1475134045 0.8473910093
-0.2582990527 0.01927789114 1.047382712 0.5516632795 0.001839834498 0.8232273459
-0.2699770033 0.01560684014 1.054700851 0.5575752854 -0.1418491602 0.803899467
-0.26237005 0.01585676521 1.044669271 0.545550108 0.07621455193 0.8330247402
-0.2708969116 0.005358954892 1.051583052 0.4456185699 -0.02907686867 0.8821124434
-0.2637318671 0.009769435972 1.046048164 0.4825851321 0.105006367 0.8562594056
-0.2633695602 0.003383736359 1.046751142 0.4117550254 0.1654619575 0.8778952956
-0.2479780614 -0.0005254953867 1.037849665 0.46665591 0.1852516085 0.853015542
-0.2589192986 -0.0009124699864 1.044582248 0.3790413141 0.2268775403 0.8847945333
-0.244241938 0.003987493925 1.034997106 0.5203760862 0.1310368478 0.8386803865
-0.2555272579 0.005470197182 1.041603446 0.4711468816 0.1559512317 0.8557962179
-0.2506015897 0.006022227928 1.038545609 0.5062105656 0.1339361221 0.8441365957
-0.2583365738 0.01007734425 1.042631745 0.5068741441 0.1227802187 0.8452519178
-0.2528582215 -0.001252337708 1.040967703 0.4106492102 0.2092558742 0.8740074039
-0.2528820932 -0.01055632625 1.059785962 0.1412372589 0.3323825598 0.9111459851
-0.2607119679 0.005292972084 1.054232717 0.3872756958 0.1927281767 0.8893067241
-0.2533415556 -0.004545660689 1.058010459 0.2310206741 0.3045223355 0.8918800354
-0.2586939335 -0.002496385016 1.056720972 0.2689260244 0.2430606782 0.9080483913
-0.2551703751 0.003258187557 1.055284023 0.35429883 0.2563186586 0.8724470735
-0.2486918569 -0.004614496138 1.046752214 0.5808660388 0.3323761523 0.7354664803
-0.2482523024 0.006964211818 1.045948625 0.4795231223 0.1748079807 0.8287396431
-0.2432046384 0.01557337306 1.039601207 0.4675183296 0.04987466708 0.8533439636
-0.2470746934 0.01231782045 1.042068481 0.5461978912 0.1080367491 0.8121780157
-0.2367355675 0.01321594138 1.037216783 0.3407745361 0.05313857272 0.890402317
-0.2439266741 0.006136201788 1.042031288 0.487603575 0.1744884551 0.8097146749
-0.2357364744 0.007137554698 1.03812325 0.3246987462 0.1272654682 0.8728607893
-0.2427679747 -0.00358976284 1.047961831 0.2853195965 0.2807623148 0.8715250492
-0.2391534895 0.001949481084 1.042798042 0.3099083006 0.2018707842 0.8701228499
-0.2259846628 -0.003375581233 1.036431432 0.08041473478 0.05089025199 0.9761346579
-0.2261659354 0.005218825303 1.034638643 0.09534077346 0.01478879899 0.9810521603
-0.2306059003 0.00898559019 1.037479043 0.1284401715 0.06052960083 0.9683435559
-0.2264484912 0.01281975862 1.033154726 0.1092858836 -0.01541380677 0.9849845767
-0.2362385243 -0.006379683968 1.045637727 0.138034299 0.2091718614 0.9392469525
-0.2219721079 0.000870270771 1.032134414 0.06280469149 -0.02486012317 0.9925470948
-0.2336967587 0.002088800306 1.04160893 0.1361731887 0.135191828 0.9533655643
-0.2308720946 -0.006505717523 1.040922642 0.1146155372 0.1352944821 0.9565503001
-0.2575992346 -0.01587023772 1.074519753 -0.1095727235 0.07952324301 0.6961740255
-0.2627653182 -0.01556970086 1.079444885 -0.1649546325 -0.05602896959 0.6063065529
-0.2571876645 -0.01240226533 1.094488502 -0.3823065758 -0.3586873114 0.3549808264
-0.2568282187 -0.01374754775 1.086423516 -0.2733407319 -0.1789611876 0.493352443
-0.2543871105 -0.01749415882 1.063078046 0.03891848773 0.3485907912 0.8954117298
-0.25370121 -0.01081452891 1.101605296 -0.4870439172 -0.4974471331 0.2370038778
-0.2641649842 -0.01890562475 1.060853004 0.09126862884 0.346667558 0.9228728414
-0.2624861598 -0.0173275806 1.069023371 -0.02373151109 0.1752458364 0.7849085331
-0.2556548417 -0.01473043486 1.079971671 -0.1881697178 -0.03056516871 0.6050072312
-0.2514659464 -0.01578736305 1.071236134 -0.07871815562 0.1839182228 0.7590048909
-0.2692769468 -0.004300455097 1.051723361 0.3344422579 0.126763925 0.9216446877
-0.2730758786 -0.009542364627 1.051102042 0.3762061298 0.160384953 0.8888158798
-0.2820570469 -0.00959079992 1.054512501 0.4505675435 0.07233501971 0.8681906462
-0.2778286338 -0.01477595977 1.055091023 0.3450061381 0.2464900613 0.8995637298
-0.2681500018 -0.0244945474 1.056335807 0.1738132834 0.3329293132 0.9138175845
-0.2622462809 -0.01741138659 1.050794363 0.2032601833 0.3182943761 0.9182829261
-0.2677170336 -0.01288388204 1.050527096 0.2885080576 0.2842812836 0.9123994708
-0.2705495358 -0.01852926053 1.054280162 0.2515811622 0.3009411395 0.9106107354
-0.2591402531 -0.02501021884 1.053710461 0.1218194291 0.3522036076 0.9208452106
-0.2463830709 -0.006305675954 1.037889719 0.4639313519 0.2186077237 0.8428354263
-0.2548286915 -0.01876686513 1.048447847 0.2357344925 0.3076730072 0.8952064514
-0.2504003346 -0.01578489318 1.044797897 0.3135239482 0.2781785727 0.8714414239
-0.2575160265 -0.03032195196 1.05583787 0.07366771996 0.3727799654 0.9197664857
-0.2499384582 -0.01096416079 1.042022467 0.3747888803 0.2532567084 0.8642712831
-0.2479624748 -0.02385060489 1.067645192 -0.02090721764 0.3587415516 0.8693060279
-0.2513383329 -0.01316779945 1.088105798 -0.3080089986 -0.1845895946 0.4721804857
-0.2506307662 -0.01512634754 1.082961559 -0.2371061593 -0.05606764555 0.5675935745
-0.2430529743 -0.03406029567 1.099520564 -0.7157279253 -0.0670061633 0.2422395796
-0.2453187108 -0.02918730862 1.092360139 -0.5247974396 -0.01637186855 0.3903661668
-0.2498388737 -0.01886724494 1.091424227 -0.3774346113 -0.1752112061 0.4320886135
-0.2454387397 -0.02848196588 1.101956964 -0.6892175674 -0.2078860104 0.2085480988
-0.243651852 -0.03231564164 1.107814193 -0.8434705138 -0.2519080639 0.08773394674
-0.2452592105 -0.02999721281 1.077336192 -0.2636776567 0.2784143388 0.6756816506
-0.245884344 -0.02709451504 1.110120416 -0.8191244006 -0.3842500448 0.05570595711
-0.2513450682 -0.01470521372 1.107245922 -0.6105889678 -0.5421947241 0.1392640173
-0.2474181801 -0.02376663685 1.105919957 -0.7011868358 -0.3625641167 0.143685326
-0.2488131821 -0.02172833681 1.080051899 -0.2081999481 0.08633773774 0.6428646445
-0.2431756854 -0.03421460837 1.0898031 -0.5421643257 0.1173472404 0.4276350141
-0.2443638593 -0.0317308791 1.084448695 -0.4140571654 0.1750343591 0.5357212424
-0.2483669966 -0.02135105617 1.111284971 -0.7675535083 -0.5041665435 0.0467088595
-0.2487055957 -0.02125251666 1.096167684 -0.4932637215 -0.2231574804 0.3359066546
-0.2473980337 -0.02468084544 1.086555839 -0.3629959226 0.01516407542 0.511721909
-0.2473581731 -0.02529776469 1.074832797 -0.159055993 0.2449264079 0.7343861461
-0.2400851548 -0.04048969224 1.093905568 -0.6793172359 0.100753054 0.3452203572
-0.2402660251 -0.04042691737 1.099285245 -0.7911087871 0.04371640459 0.2325840592
-0.2413732708 -0.03767191246 1.085275054 -0.4812686145 0.1950431615 0.5209249258
-0.2383886278 -0.04412651807 1.103799701 -0.9089699388 -0.00773170311 0.1444838643
-0.2380141914 -0.04299252108 1.067633271 -0.1474450976 0.3772005439 0.8990519643
-0.2398413718 -0.04006553814 1.076579332 -0.3152575493 0.2850484252 0.7069144249
-0.2419409603 -0.03588462994 1.070670009 -0.1652231216 0.3517597616 0.8233664036
-0.2439020723 -0.03203215823 1.066194057 -0.04718824849 0.4029437006 0.9103965163
-0.2425589412 -0.03516535833 1.079055786 -0.3354999125 0.2634453177 0.6467267871
-0.2400631309 -0.03826658428 1.06500864 -0.09718883038 0.3797594309 0.9184681177
-0.260761559 -0.009100920521 1.046467423 0.2895578742 0.2842386663 0.9119290113
-0.2557000816 -0.006601591595 1.043224454 0.364308387 0.2586784959 0.8846606016
-0.2477721274 -0.0171081908 1.060230613 0.1145745665 0.4023803473 0.9035754204
-0.245321244 -0.02460847236 1.061915636 0.03951812163 0.3943769932 0.9101772308
