# .PCD v0.7 - Point Cloud Data file format
VERSION 0.7
FIELDS x y z normal_x normal_y normal_z
SIZE 4 4 4 4 4 4
TYPE F F F F F F
COUNT 1 1 1 1 1 1
WIDTH 512
HEIGHT 1
VIEWPOINT 0 0 0 1 0 0 0
POINTS 512
DATA ascii
-0.07894044369 -0.1685787886 1.080773115 -0.08506782353 0.09418030083 0.9890738726
-0.1706214994 -0.07524216175 1.06651032 -0.9609535933 -0.1554992795 0.2281891108
-0.168636024 -0.08360633254 1.065510988 -0.2112219036 0.6376784444 -0.2068721354
-0.1655634791 -0.08763079345 1.06180048 -0.5210958719 0.5143235922 -0.08309222013
-0.1718839854 -0.08752293885 1.058882117 -0.08276037127 -0.3171292543 0.1720775068
-0.1181112081 -0.1707933396 1.072510481 -0.1438239664 0.06546290219 0.9874356985
-0.1195465624 -0.1776749045 1.06743288 -0.1438239664 0.06546290219 0.9874356985
-0.1137369499 -0.1726616621 1.079390049 -0.1438239664 0.06546290219 0.9874356985
-0.1111418828 -0.1757094711 1.075807452 -0.1438239664 0.06546290219 0.9874356985
-0.1072959676 -0.1733839959 1.081876755 -0.1438239664 0.06546290219 0.9874356985
-0.08188535273 -0.02996712178 0.9833000898 -0.2438424677 0.01948039979 0.9685403705
-0.07859959453 -0.03349193558 0.987323761 -0.237543717 0.01392416004 0.9711546302
-0.07877938449 -0.02401622944 0.9818264842 -0.2168691009 -0.01216308679 0.9751111865
-0.07803694904 -0.01831176318 0.980045557 -0.1943647414 -0.02716252021 0.9802175164
-0.08434049785 -0.03543686867 0.9840642214 -0.2684269249 0.03130504489 0.9617592096
-0.09818556905 -0.04145782441 0.9824487567 -0.2955118418 0.01739607938 0.9545853138
-0.09226875752 -0.03937343508 0.9825028777 -0.2907586396 0.02400652133 0.9552813172
-0.07934519649 -0.02012835443 0.9864441752 -0.1796742231 -0.03251100704 0.9828801751
-0.1588275731 -0.09214526415 1.059056044 -0.9475423098 0.3049338758 0.09580639005
-0.1639601737 -0.07947870344 1.06830287 -0.9696085453 0.01128924545 0.1797598749
-0.1608233005 -0.0873664543 1.06481576 -0.9611125588 0.2398580611 0.1141068414
-0.1049027219 -0.01210584771 0.9825009108 -0.2208420634 -0.1163308844 0.9627277255
-0.1091242209 -0.003859709483 0.9828018546 -0.2075908482 -0.167937696 0.9603467584
-0.100355804 -0.001833100338 0.9838929176 -0.1384011507 -0.156314522 0.9766316414
-0.1054575071 0.0004972474417 0.984279573 -0.1478877068 -0.2011302412 0.9682463408
-0.09716874361 -0.01615792513 0.9818959832 -0.202331543 -0.06040627137 0.9742852449
-0.06861717999 -0.1713166237 1.080367088 -0.003497704631 0.1273712665 0.9916895628
-0.07226809114 -0.1681735814 1.083373666 -0.02619563416 0.1268563271 0.9907665849
-0.06721924245 -0.1655773669 1.083504319 0.003765392117 0.1328175515 0.9906656742
-0.05932035297 -0.1643046588 1.083046794 0.01606556959 0.1379795074 0.9902678728
-0.07457907498 -0.1725247055 1.082530379 -0.05486949161 0.1144231707 0.9900827408
-0.08123836666 -0.01317010727 0.982612431 -0.1684855074 -0.03655003756 0.984588623
-0.1177383214 -0.1687392294 1.078868389 -0.1438239664 0.06546290219 0.9874356985
-0.1229244322 -0.168785274 1.074072957 -0.1438239664 0.06546290219 0.9874356985
-0.1223577857 -0.1745692492 1.071714878 -0.1438239664 0.06546290219 0.9874356985
-0.0969825983 -0.1679326147 1.084711075 -0.142462939 0.06423030794 0.9877071381
-0.09568232298 -0.1731883585 1.083231807 -0.1434071362 0.06508540362 0.987518847
-0.08933050185 -0.1729070246 1.083326936 -0.1390076131 0.06508900225 0.9881020784
-0.1024389639 -0.1717263758 1.083814859 -0.1438239664 0.06546290219 0.9874356985
-0.0184001755 -0.1103268936 1.069592237 0.2728346288 0.1086668447 0.9559041858
-0.05752135068 -0.1549922377 1.083510041 0.04439261183 0.1302780956 0.9901314378
-0.04506277665 -0.1463073045 1.079561591 0.1298815608 0.1133879274 0.9842743874
-0.04847803339 -0.1520180553 1.082742095 0.08029212058 0.1228576228 0.9885389805
-0.04371218011 -0.1532844454 1.079781413 0.1091115251 0.1152307913 0.9861650467
-0.05077140406 -0.1567573547 1.076693296 0.08594692498 0.1267644614 0.9872136116
-0.0532899797 -0.1599504799 1.081273556 0.04568640143 0.1358295381 0.9887295961
-0.05483273789 -0.1466498375 1.081780076 0.06103463471 0.1304505914 0.989571631
-0.04977459833 -0.1566599756 1.083901882 0.05739733577 0.1253746897 0.9904201627
-0.07786554098 -0.02840835787 0.9861221313 -0.215705961 -0.001923856908 0.9760658145
-0.09105628729 -0.02836338058 0.9827910662 -0.2562986314 0.01102041639 0.9659318328
-0.09595160931 -0.02770318091 0.9818723202 -0.264008671 -0.005736293271 0.9640331864
-0.08982619643 -0.01281472668 0.9820734262 -0.1874509007 -0.0480427891 0.9806272388
-0.08721619844 -0.01835649461 0.9830291867 -0.2060473859 -0.01487521082 0.9772151113
-0.0853279978 -0.02365257032 0.9836288095 -0.225470975 0.01448902581 0.9737276435
-0.02332942002 -0.1017358452 1.066473961 0.2487318069 0.1034271568 0.963034451
-0.02409983985 -0.1072978526 1.066001773 0.2594361901 0.1057541743 0.9598677754
-0.02985190228 -0.1078820601 1.070466161 0.2487318069 0.1034271568 0.963034451
-0.01831679791 -0.1011856943 1.064043283 0.2728346288 0.1086668447 0.9559041858
-0.03005959094 -0.1133857369 1.071487665 0.2530802488 0.1043724641 0.9617480636
-0.02457197569 -0.1103758588 1.07108295 0.2663918138 0.1072662473 0.9578101039
-0.02035297267 -0.1161902919 1.071560502 0.2716252804 0.1084039435 0.9562619328
-0.02528906241 -0.1196956784 1.072204232 0.2728346288 0.1086668447 0.9559041858
-0.1898710579 -0.02145857178 0.9945828319 0.4601143301 -0.1173205003 0.8536680341
-0.1963350773 -0.03229761124 0.9984349012 0.3186687231 0.02662131935 0.9394319654
-0.1918173879 -0.02710615285 0.9956272244 0.3989059031 -0.04852101952 0.8918200135
-0.2009027749 -0.02697743475 1.00217104 0.3203145564 -0.003506713547 0.9354851246
-0.1949041784 -0.02394206636 0.9986411333 0.3969471455 -0.05532307178 0.8947848678
-0.1159763262 -0.03131868318 0.9712131023 -0.2304542065 -0.1197271198 0.9647737145
-0.1063316092 -0.04111809283 0.974663496 -0.2952262759 0.003905563615 0.9544531703
-0.1150496379 -0.04130507633 0.9696366191 -0.2424980402 -0.05950335413 0.9668015838
-0.1097370833 -0.03566098213 0.9761406183 -0.2563168705 -0.03000239097 0.9650691152
-0.1044294164 -0.03522641212 0.9796084762 -0.2809022963 -0.01052163541 0.9588167667
-0.1515040249 -0.006545197684 0.9791172147 0.3257294297 -0.2300047874 0.8756724596
-0.1434919983 -0.004412344191 0.9741206765 0.1645223349 -0.2143228501 0.9329366088
-0.1557641178 -0.01293707173 0.9834278226 0.4449259937 -0.290733844 0.810818553
-0.1490119547 -0.01173231658 0.9825202823 0.3154996336 -0.2774323225 0.8376718163
-0.1351730824 -0.005389790982 0.9826975465 0.02612278052 -0.2037855089 0.8988360763
-0.1302886754 -0.004069503397 0.9820516109 -0.07072331756 -0.1896985471 0.9208912849
-0.1310761273 -0.004402694292 0.9762755632 -0.06539230049 -0.2168760747 0.9666814208
-0.1534487754 -0.007913297974 0.9841016531 0.3691123426 -0.2367670238 0.8395832777
-0.1543419659 -0.008213652298 0.9751127362 0.4539542198 -0.293438822 0.8327748179
-0.1575716883 -0.008632047102 0.9802985191 0.4795776606 -0.2684134245 0.8234007955
-0.163793087 -0.01173115801 0.9808201194 0.5418958664 -0.2804842293 0.7875426412
-0.1691715568 -0.01346138027 0.9857537746 0.5818610191 -0.2605071366 0.7680597901
-0.1105769798 -0.02611262351 0.9774344563 -0.2267307937 -0.08320476115 0.9663017392
-0.1193372682 -0.01822473668 0.9766830206 -0.208889097 -0.1443360001 0.9644925594
-0.1132797971 -0.01677088067 0.9794282317 -0.2398995012 -0.109361954 0.9610687494
-0.1150354668 -0.02143615857 0.9772652984 -0.2194398046 -0.1150162742 0.9649329782
-0.1168023497 -0.01175352745 0.9797206521 -0.2377141565 -0.1358924359 0.959092319
-0.1053812653 -0.02461750805 0.9798690677 -0.2540001571 -0.05346830934 0.9631971717
-0.1208507791 -0.02230943553 0.9726823568 -0.1891066283 -0.1767822653 0.9652660489
-0.1662474722 -0.1012625247 1.026286602 -0.7525112033 0.5075538158 0.3893069923
-0.1672065556 -0.100687325 1.021224976 -0.6202379465 0.5054331422 0.5727432966
-0.09979857504 -0.01899724081 0.9769729376 -0.1991236061 -0.09000108391 0.9701453447
-0.2121023238 -0.07885260135 1.014016509 0.2914163768 0.3458766937 0.8917459846
-0.2058252096 -0.07975240797 1.008503675 0.3027908504 0.3615190983 0.8817426562
-0.04865615815 -0.1317559332 1.076601028 0.161516875 0.1506123841 0.9747026563
-0.04304517806 -0.1290938258 1.075267673 0.2058283091 0.1342198104 0.9671698809
-0.03716634959 -0.1216245294 1.072955847 0.2355964035 0.1146448925 0.9639187455
-0.05911113322 -0.1424373984 1.080290318 0.06434674561 0.138880372 0.986692071
-0.06116005778 -0.147923395 1.081593633 0.0317324698 0.1385163367 0.9895240664
-0.06378554553 -0.1530457139 1.083212852 0.01142711937 0.1440308988 0.9892212152
-0.02801705338 -0.1359663457 1.072779894 0.2704063356 0.0993431136 0.9575465322
-0.02250316367 -0.1257897615 1.068545461 0.2686730623 0.1055645198 0.9573854804
-0.02487599105 -0.1311862618 1.070353985 0.2652235627 0.102180697 0.9586974382
-0.03281709924 -0.1177353337 1.071136117 0.2531597912 0.1043897569 0.9617245197
-0.03071691096 -0.1230866835 1.070969939 0.2705357969 0.1081671044 0.9565842152
-0.0298756659 -0.1307278275 1.072898746 0.2761095762 0.1035629585 0.9555197954
-0.02131803334 -0.1191629842 1.067000031 0.2728346288 0.1086668447 0.9559041858
-0.02421886474 -0.1145737097 1.067355394 0.2709186673 0.1082503349 0.9564709663
-0.08852422982 -0.02482932806 0.9781874418 -0.2467529923 0.0302279368 0.9677856565
-0.09097774327 -0.03455999494 0.9791983962 -0.2924518585 0.04235624894 0.9540914297
-0.094227992 -0.02268430218 0.9780000448 -0.2209821492 0.01227137633 0.9740245938
-0.1102895364 -0.02990778536 0.9741284847 -0.2666154802 -0.09135214239 0.9568135142
-0.1097691506 -0.01741480269 0.9745120406 -0.2081952095 -0.1819290668 0.9605625272
-0.0992995128 -0.03233727068 0.9810000658 -0.2800433636 0.005453399383 0.9592148066
-0.1024876982 -0.03160226345 0.9764915109 -0.2871313989 -0.01693272963 0.9568299055
-0.09895423055 -0.02725122496 0.9772549868 -0.254850179 0.00333078485 0.9658579826
-0.09804223478 -0.03646568209 0.9773898125 -0.3110927939 0.03885820881 0.9485423565
-0.1297726482 -0.04487530887 0.9670639038 -0.09445303679 -0.1145409197 0.9803336859
-0.1444699317 -0.02817312256 0.9674041867 0.155555293 -0.1495927423 0.9666507244
-0.1506308615 -0.02678794786 0.9680222869 0.2526527047 -0.2044047266 0.9310195446
-0.1856606305 -0.02225674689 0.997379601 0.467308253 -0.03145261854 0.8692808747
-0.191620782 -0.02623395994 1.002423525 0.3695037067 0.0557759963 0.9212707877
-0.1831221431 -0.02492258698 0.9908884764 0.5264357328 -0.1273758709 0.8189560175
-0.1824850589 -0.01819306985 0.9898656011 0.5546268225 -0.1865322441 0.8002221584
-0.179245308 -0.02179180086 0.988773942 0.5966750383 -0.1837781966 0.7775123119
-0.1838385165 -0.03001859412 0.9917700887 0.5013552308 -0.08069193363 0.8352808356
-0.1783627123 -0.03290002048 0.9895771146 0.5809998512 -0.1017323062 0.7907555699
-0.1719032675 -0.03102563508 0.9845829606 0.6071771979 -0.1739246696 0.7733542323
-0.1760228425 -0.02645084076 0.9872344136 0.6101099253 -0.1739435643 0.7710784674
-0.2122205049 -0.08366321027 1.016660094 0.275804311 0.3402261138 0.8989865184
-0.2050515264 -0.07606515288 1.012565017 0.2921098173 0.3483327925 0.8904516697
-0.2003473788 -0.0743361488 1.01031661 0.2897205055 0.3631930947 0.885263145
-0.1701968163 -0.0359977968 0.9823620319 0.6106618643 -0.1134996563 0.7800992727
-0.1673882306 -0.03369365633 0.9779524207 0.5657384992 -0.202446118 0.7968457937
-0.1526784599 -0.04980923608 0.9727365375 0.3759738505 0.04283261299 0.9135189056
-0.1374717802 -0.02916346118 0.9712293744 0.05354425684 -0.1858880073 0.9683976173
-0.1301392466 -0.02745049074 0.9717524648 -0.07231334597 -0.1765132546 0.9704163671
-0.1433254778 -0.04589702561 0.9714699984 0.1515262425 -0.06086388975 0.9624722004
-0.1370463222 -0.04593561962 0.9679884315 0.0115136113 -0.1344837099 0.9874305129
-0.1263338923 -0.03463876247 0.9712167978 -0.151733622 -0.1159995869 0.9791724086
-0.1384178847 -0.03891155124 0.9705412984 0.06202889606 -0.1553754061 0.97848773
-0.1325145513 -0.03736725822 0.9712362885 -0.04595243186 -0.1291743517 0.9843370318
-0.1346969903 -0.0424696207 0.9709606767 -0.01685624197 -0.1035889685 0.9917259812
-0.1160103455 -0.03936580941 0.9746576548 -0.2371754646 -0.04925115407 0.9668864012
-0.1204944476 -0.03711213917 0.9727985859 -0.2098059356 -0.07760823518 0.9722391367
-0.1108019054 -0.04296741262 0.9766958356 -0.261235863 -0.01019707788 0.9619474411
-0.1293777078 -0.04441038519 0.9724757075 -0.07374712825 -0.06603191793 0.9880256057
-0.120556809 -0.04427428916 0.9755891562 -0.1553623676 -0.03829807788 0.9744217396
-0.1054426134 -0.04367827252 0.9799467921 -0.3036668003 0.0116138095 0.9521340132
-0.1200799718 -0.04315460846 0.9698667526 -0.2074878812 -0.04831567034 0.976059258
-0.1108304411 -0.01049137488 0.9810000658 -0.259301424 -0.1222150251 0.9553985596
-0.1064200476 -0.01827378199 0.9810000658 -0.2632593811 -0.07441841066 0.9591574073
-0.1159700528 -0.005999977235 0.9810000658 -0.2514769435 -0.1505208164 0.95458287
-0.1057073921 -0.01270897593 0.9762973785 -0.1805718988 -0.1843260229 0.9660050869
-0.1279362589 -0.003870266723 0.9676555991 -0.1323361248 -0.1691366583 0.9747371078
-0.1215576828 -0.009290234186 0.9704841375 -0.1770231873 -0.18081972 0.9651207924
-0.1179539189 -0.004678438418 0.9722650647 -0.1433390975 -0.1721171737 0.9735828638
-0.1109467298 -0.009604309686 0.9753968716 -0.1845338643 -0.1829011291 0.9648805857
-0.136361286 -0.009511656128 0.9799668193 0.05380115286 -0.2161697894 0.9070385695
-0.125561446 -0.005982611794 0.9790919423 -0.169383347 -0.1639787555 0.9586195946
-0.1332202256 -0.01352365594 0.9740206599 -0.05063505098 -0.1271883696 0.9837796688
-0.1425914317 -0.01058955584 0.9815536141 0.1900651604 -0.2603089511 0.865544796
-0.1295446754 -0.009827016853 0.9765421152 -0.1070153043 -0.1459811032 0.9707542658
-0.1385527849 -0.01404818986 0.975828588 0.06911976635 -0.1707991809 0.9433861375
-0.1523480564 -0.01727403328 0.9791640639 0.3712497652 -0.2736950815 0.8532218337
-0.1477437466 -0.02174348198 0.9746792912 0.2531657815 -0.2237153947 0.9190680981
-0.1417790353 -0.01811242476 0.9741361141 0.1253070682 -0.1750919968 0.948761642
-0.1468326002 -0.01678228565 0.9770597219 0.2453814596 -0.2238292843 0.8975944519
-0.1671507657 -0.09667027742 1.04518199 -0.6068017483 0.5205484629 -0.02187940292
-0.181550771 -0.1060642153 1.031890273 -0.1775605083 0.1037105247 0.6983741522
-0.1784096211 -0.1033361405 1.036100149 -0.2398851663 0.06960340589 0.5610638261
-0.1707317233 -0.1001871973 1.039597392 -0.5545141101 0.6343643665 0.1227877736
-0.1747106165 -0.09908519685 1.043061972 -0.2653937042 -0.1617946178 0.4296560287
-0.1816664636 -0.1087914854 1.026592851 -0.2857771814 0.553291738 0.6450181603
-0.175936535 -0.107548371 1.025885224 -0.3977637291 0.5984986424 0.5836588144
-0.1736200005 -0.104014881 1.03261888 -0.4754270613 0.6330205202 0.3521714807
-0.1864781678 -0.08129748702 1.027350068 0.09344512224 -0.09228652716 0.7186968923
-0.1781849414 -0.07842106372 1.014356613 0.0346974954 0.261218667 0.8710156679
-0.1767480224 -0.08429931849 1.038396358 -0.04425599799 -0.3903486431 0.6164403558
-0.1760604233 -0.0801127553 1.021041036 -0.00654517021 0.08029915392 0.8030288219
-0.1783789992 -0.08147887141 1.026990533 0.00381836365 -0.08134845644 0.7356843948
-0.1750115454 -0.08747833967 1.051266193 -0.09733977169 -0.7390254736 0.4817223549
-0.1928182691 -0.07713223994 1.011043429 0.2069981396 0.3488940597 0.8826713562
-0.1839187294 -0.07828997076 1.014600039 0.09817746282 0.2537749708 0.8591076136
-0.1905068606 -0.07831768692 1.015615106 0.1691925377 0.2252860069 0.8375671506
-0.173497349 -0.07903369516 1.01624155 -0.02265135944 0.2108011991 0.8584794998
-0.1753654629 -0.07749021053 1.010133147 0.01421729568 0.3761410713 0.9207266569
-0.1734310538 -0.08236852288 1.02998209 -0.0593364425 -0.1617297679 0.7117450237
-0.1770609021 -0.08586864918 1.044909596 -0.05779505149 -0.566983819 0.5463274717
-0.1856489331 -0.07954956591 1.020030022 0.1033208668 0.1063016951 0.79827106
-0.1818507612 -0.08494506031 1.039907813 0.006068466697 -0.4306586981 0.594111383
-0.1938470304 -0.0831630826 1.016114116 0.1752384752 0.2265725732 0.8495194316
-0.1906585395 -0.08311054856 1.02279079 0.133147642 0.0403919369 0.7749943733
-0.1848145276 -0.08452214301 1.034017801 0.0477684997 -0.2679062784 0.6574305296
-0.2098186761 -0.09418871999 1.019122601 0.2249736935 0.3679353893 0.8988534212
-0.2021111101 -0.1038504764 1.016909599 0.143880114 0.3737336993 0.9143236279
-0.2051591277 -0.09978786111 1.018313169 0.1696947962 0.3740670979 0.9065402746
-0.1038956493 -0.006169947796 0.9793137908 -0.1397964954 -0.1704634428 0.974971056
-0.100247249 -0.01330076903 0.9771703482 -0.1430956721 -0.150456816 0.9769483209
-0.03940536082 -0.1339360923 1.075763822 0.2416428626 0.1069712713 0.9642030597
-0.03500375152 -0.1306016743 1.074329019 0.2633801699 0.1016319543 0.9592677355
-0.05128944665 -0.1360736191 1.080146432 0.1352456659 0.1265165061 0.9814946055
-0.04502742738 -0.1363708228 1.077531576 0.2043474168 0.1160766929 0.9712337255
-0.1046588868 -0.1653373241 1.082850814 -0.1438239664 0.06546290219 0.9874356985
-0.1019182578 -0.1628182083 1.077765942 -0.1438239664 0.06546290219 0.9874356985
-0.1128490567 -0.1677853018 1.082544804 -0.1438239664 0.06546290219 0.9874356985
-0.1132462174 -0.1722624302 1.07106781 -0.1438239664 0.06546290219 0.9874356985
-0.1078801379 -0.1656793952 1.074981093 -0.1438239664 0.06546290219 0.9874356985
-0.09732635319 -0.1625522524 1.075467348 -0.1438239664 0.06546290219 0.9874356985
-0.10666769 -0.1702769548 1.071397543 -0.1438239664 0.06546290219 0.9874356985
-0.08870279789 -0.165941 1.080736637 -0.1334697008 0.07850062847 0.9878473878
-0.103299275 -0.1750198454 1.078323126 -0.1438239664 0.06546290219 0.9874356985
-0.09705706686 -0.1683505476 1.078959346 -0.1438239664 0.06546290219 0.9874356985
-0.1014558375 -0.1701830924 1.077166319 -0.1438239664 0.06546290219 0.9874356985
-0.0342791453 -0.1360878497 1.07464087 0.2562124431 0.09674116969 0.9617658854
-0.03330487385 -0.1412182003 1.073875785 0.2536773086 0.09738654643 0.962369442
-0.03585234284 -0.1466822773 1.0760355 0.1901417226 0.09899935126 0.9757831097
-0.04577976838 -0.1413432062 1.076375961 0.1639136225 0.1180386543 0.9773384929
-0.0413970314 -0.1443707496 1.075957417 0.1880053133 0.1027319208 0.9757625461
-0.03977665678 -0.1498726904 1.076413631 0.1581870317 0.107387282 0.980548799
-0.1782660931 -0.02095131017 0.9957253337 0.5352900624 -0.05362506583 0.8247885108
-0.1785911322 -0.01471864432 0.9887036085 0.5794641376 -0.2222946733 0.7839832902
-0.1743347645 -0.0180975683 0.9919056296 0.6103176475 -0.1079213619 0.7820807695
-0.1635414511 -0.01012135018 0.9869433045 0.5668063164 -0.2493270189 0.7850017548
-0.1671123505 -0.01651246846 0.9896934628 0.6084040999 -0.2314711511 0.7588361502
-0.07943601161 -0.01438309904 0.97682935 -0.1894597709 -0.04124184325 0.9806540608
-0.08656805754 -0.0194953084 0.9780000448 -0.2120023221 0.003238589736 0.9759778976
-0.0864482522 -0.01390360203 0.9780001044 -0.1545567214 -0.07307157665 0.9848862886
-0.09223082662 -0.01502101403 0.978000164 -0.148265183 -0.09264462441 0.9842870235
-0.09541912377 -0.009428909048 0.9780025482 -0.1097443774 -0.127282843 0.985044539
-0.08694582433 -0.00803227257 0.9795514345 -0.1421577781 -0.08545564115 0.9854203463
-0.08717882633 -0.006192985922 0.9843023419 -0.1449472606 -0.06617896259 0.9869898558
-0.0924532786 -0.00533920154 0.9828393459 -0.1323230714 -0.09712988138 0.9862129092
-0.08134601265 -0.008841128089 0.9788036942 -0.1571220607 -0.06417580694 0.9853593707
-0.1441380233 -0.01046513021 0.9668827057 0.2097461522 -0.2340414524 0.9283279777
-0.1491060853 -0.007789831609 0.9690432549 0.3596695662 -0.2917634845 0.8670973182
-0.1475776136 -0.01744005829 0.9689893126 0.298401475 -0.2318864465 0.8996503353
-0.1448679715 -0.00486132456 0.9668395519 0.2407127172 -0.2673850954 0.9112356305
-0.1386599839 -0.000518972287 0.9643065929 0.05406400934 -0.2214931548 0.9704741836
-0.1382605135 -0.002355078235 0.9709605575 0.052197624 -0.1967506111 0.9665283561
-0.209714666 -0.0348139666 1.004158378 0.2309803963 0.01747499779 0.972417295
-0.2057760358 -0.03122184239 1.00390923 0.2591577172 0.02989333309 0.9650002718
-0.196865052 -0.1088965759 1.018231034 0.004645267036 0.4042394757 0.9096615911
-0.1717436314 -0.1073122993 1.021908879 -0.4707591236 0.5921533108 0.6424808502
-0.1689305305 -0.09346082062 1.014152884 -0.3457276821 0.4780978262 0.8033987284
-0.1702750176 -0.1014867201 1.016235948 -0.3128757179 0.4774282277 0.8185551167
-0.1730571091 -0.09727144986 1.013585687 -0.2616436183 0.4539084733 0.8488538861
-0.177174598 -0.05311967432 1.002146482 0.0461881347 0.1354402453 0.9813852906
-0.1735015512 -0.05672385916 1.000414491 -0.006682826672 0.2185471803 0.9714056253
-0.1697312742 -0.05827347562 0.9963538647 0.02095761895 0.2634801269 0.9568250179
-0.1605874002 -0.05281054974 0.9784941077 0.3593507111 0.10173437 0.9026805162
-0.1642998904 -0.04892903194 0.977891624 0.4385142624 0.04367554188 0.8603051901
-0.1636835039 -0.05536459014 0.9818124175 0.2973489761 0.1338668615 0.9131653905
-0.1747986227 -0.06311650574 0.9927901626 0.1060896069 0.2295112908 0.9395924807
-0.1674115509 -0.05782110617 0.9853996634 0.2363723218 0.1639502347 0.9208935499
-0.1680068523 -0.05166073516 0.9816493392 0.3714918792 0.07760977745 0.8702771068
-0.1718688905 -0.06032027304 0.9893998504 0.1731477082 0.1938276291 0.9266685247
-0.1672881842 -0.02833961137 0.9879423976 0.5026072264 -0.1424182653 0.7993515134
-0.1673970968 -0.03394309804 0.988728106 0.4098596573 -0.07106162608 0.8309466243
-0.1697880924 -0.03392098844 0.9938136339 0.4014085233 -0.04169790447 0.822714448
-0.1685996205 -0.02257959731 0.9901636243 0.5926975012 -0.1981228739 0.7620481849
-0.1701012552 -0.04981827736 0.9960515499 0.1382651329 0.1607949734 0.9123367071
-0.1625304669 -0.03976201639 0.9729559422 0.5476822853 -0.1098552942 0.8235055208
-0.1416841596 -0.04298713431 0.9666227698 0.07634647936 -0.154164657 0.9838367701
-0.1401156783 -0.0313295275 0.9672232866 0.08077417314 -0.1245131567 0.9878646731
-0.1465686411 -0.0349657461 0.9668966532 0.1616244763 -0.1580484807 0.9738936424
-0.1515098512 -0.03989899531 0.9668438435 0.2003938705 -0.1787572801 0.9623003602
-0.1623987257 -0.0220263917 0.9831467271 0.5644078255 -0.2284515649 0.7922338247
-0.1611557603 -0.0168192219 0.9848169088 0.5433240533 -0.2964114547 0.7818187475
-0.1612988263 -0.03209706023 0.9842032194 0.4067031741 -0.09504160285 0.8511567712
-0.1577153057 -0.04604736716 0.9785974026 0.3831985295 0.04491557181 0.8932698369
-0.1561343223 -0.05100664124 0.9761387706 0.3819024265 0.09265108407 0.9076770544
-0.1576356441 -0.0321926102 0.9786456227 0.4901969433 -0.1180035919 0.8447646499
-0.1632796973 -0.04107392207 0.9870982766 0.2930215895 0.02320091426 0.8861266971
-0.1608873457 -0.048006244 0.9833849072 0.2954023182 0.08872916549 0.9059309959
-0.1594766676 -0.02624269761 0.9815107584 0.4930342436 -0.1756411195 0.8273771405
-0.1598689556 -0.04198061675 0.9819136858 0.3645540476 0.01140625402 0.8830292821
-0.1639359444 -0.05468580872 0.987927556 0.1746105701 0.187063843 0.9348427653
-0.1645606905 -0.04649608582 0.9889751077 0.222412914 0.09517689794 0.9074042439
-0.1674158275 -0.05395333469 0.9932148457 0.1001659408 0.2013551444 0.9386752248
-0.1684263796 -0.04439698532 0.9921655655 0.2317154557 0.07413639128 0.8875126839
-0.1673574001 -0.03886130452 0.9898275733 0.3222056925 -0.004124274477 0.8605157733
-0.1238977537 -0.01137746684 0.9757198691 -0.2484712005 -0.1459176093 0.9567686319
-0.1173877642 -0.01401781663 0.9727351069 -0.2188948691 -0.1854023188 0.9568963647
-0.1331224889 -0.002430202672 0.9659219384 -0.1240606755 -0.157533437 0.9774900675
-0.1347847134 -0.01428567804 0.9665970206 -0.0710581243 -0.1631589234 0.9837165475
-0.1267371327 -0.01242382172 0.9717538953 -0.2289911658 -0.1391955763 0.9611955881
-0.1326062828 -0.02369568311 0.9691358805 -0.08409779519 -0.1620344371 0.980363071
-0.1297831237 -0.01838074811 0.9726662636 -0.1158974916 -0.1349451691 0.9793037176
-0.1369549632 -0.006434325594 0.9651091099 -0.006444219034 -0.1937778741 0.9768066406
-0.1170481443 -0.02612721734 0.9720039964 -0.2156295329 -0.150332436 0.9629502296
-0.120811969 -0.03311496228 0.9693756104 -0.1890303642 -0.1239030957 0.970721662
-0.1229971722 -0.03887556866 0.9674038887 -0.1759321392 -0.1012857035 0.9759465456
-0.1296658814 -0.03146029264 0.9680641294 -0.09682786465 -0.1391173601 0.9817571044
-0.1392739564 -0.01791624539 0.9661459923 0.06682050228 -0.1736086756 0.9792867899
-0.1379301995 -0.02306099609 0.9671266675 0.0333321169 -0.1599726677 0.9828267694
-0.1251532286 -0.02571368031 0.972022891 -0.1592948437 -0.1694706678 0.9722667933
-0.1229717582 -0.01634611748 0.9729835391 -0.2303788066 -0.1535417289 0.9586257339
-0.1623674184 -0.08285877854 1.062277794 -0.9697108269 0.05145928264 0.1681655943
-0.1621990353 -0.08904191107 1.055252314 -0.9515890479 0.2401092649 0.1448623687
-0.1662867516 -0.09067486227 1.050750256 -0.9246991873 0.3310769498 0.1450595111
-0.1661038697 -0.09445092082 1.03945601 -0.8832558393 0.3794429302 0.2335193157
-0.1715424359 -0.08626464009 1.046222925 -0.2604713142 -0.3788512945 0.4782524407
-0.1706722677 -0.09166719019 1.055559158 -0.2517702579 -0.7307684422 0.3799514174
-0.17306301 -0.08060545474 1.064086437 -0.2719411552 0.3954992294 -0.1092960164
-0.1846645027 -0.08876696974 1.009314775 0.03701060638 0.4134509265 0.9079098701
-0.1827006638 -0.09421450645 1.012151003 -0.06012050435 0.4041581452 0.9077655077
-0.1996130496 -0.09997585416 1.014977694 0.1347367913 0.3772909641 0.914683342
-0.2010371834 -0.08846292645 1.010282159 0.2202267945 0.3733769357 0.8952268958
-0.1997222155 -0.09380900115 1.012451053 0.1719778776 0.3768274188 0.9050660133
-0.1956546903 -0.08735413104 1.009733319 0.1562521607 0.3867890835 0.9001457691
-0.1869725883 -0.08470689505 1.007836461 0.07941778004 0.4221084714 0.9023083448
-0.2101168334 -0.08881635964 1.016127586 0.2627995014 0.3602255285 0.894685328
-0.09816416353 -0.1632172465 1.082240939 -0.1357369572 0.07262338698 0.9875848889
-0.08706444502 -0.1590799987 1.080304861 -0.08265527338 0.1196235269 0.9885641336
-0.09237802774 -0.1594605148 1.077514887 -0.1337172687 0.07441168278 0.9876221418
-0.09287910908 -0.1617708802 1.082535267 -0.1020691842 0.1024338529 0.9882059693
-0.08333528042 -0.1631859094 1.079720378 -0.109204784 0.1080730334 0.9868587852
-0.07298120856 -0.1656034589 1.077498078 -0.02967960387 0.1351596862 0.9882067442
-0.1884160489 -0.108180739 1.017695069 -0.09585346282 0.4479151368 0.884678483
-0.1729905903 -0.0846202448 1.008610487 -0.09974402934 0.4613827169 0.8758887053
-0.1752589792 -0.09247746319 1.010967255 -0.1841692775 0.4399832189 0.8748354316
-0.2200041264 -0.07182149589 1.015716553 0.3087579906 0.3335078955 0.8906105757
-0.2173954993 -0.05830843374 1.00597012 0.3038031757 0.2108500153 0.9281328321
-0.2215994895 -0.06026918441 1.009655237 0.3041791916 0.2386826128 0.9197029471
-0.222044915 -0.0544241406 1.006909966 0.3007076085 0.1897424012 0.9346232414
-0.2170338929 -0.06395855546 1.010360956 0.3042566776 0.2614972889 0.912191093
-0.2134242654 -0.07122984529 1.010097265 0.3018158078 0.3132140338 0.8994933367
-0.208721593 -0.07575739175 1.008577943 0.3034944534 0.3394325078 0.8893928528
-0.2129352242 -0.06678532809 1.00683248 0.3074658811 0.2872454226 0.9064282179
-0.2020890266 -0.03506192565 1.003612638 0.2347273529 0.002325613052 0.970759213
-0.1971637756 -0.03777385503 1.003195405 0.2260288 0.0249384921 0.9713075757
-0.1592348814 -0.04473543167 0.9723237753 0.5245423913 -0.01497175172 0.8490588069
-0.1487999707 -0.04394564405 0.9718433619 0.2886628509 -0.06070393696 0.9352276921
-0.157139942 -0.02226785757 0.9796711802 0.4884002507 -0.2280490994 0.8311956525
-0.1541058719 -0.02622001991 0.977565825 0.4176307321 -0.222541064 0.8596870899
-0.1467050612 -0.02706946991 0.9725900292 0.2278551757 -0.1988688111 0.9421476722
-0.1468450129 -0.0321341157 0.9725918174 0.2413565665 -0.2052328736 0.9330962896
-0.1495614052 -0.03725778684 0.9733457565 0.3084092736 -0.1349455714 0.9164574146
-0.1521087289 -0.0315448232 0.9756473303 0.3698065281 -0.1797531992 0.885165751
-0.1545816213 -0.03990420699 0.9755002856 0.4276632667 -0.05293191969 0.8816029429
-0.1791199148 -0.06525728106 0.996224165 0.05609647557 0.2568130791 0.9500061274
-0.1753836125 -0.05569594353 0.987323761 0.286354959 0.1333597004 0.9030631185
-0.1805725098 -0.05245194957 0.9910356402 0.2389272302 0.09670600295 0.9374219179
-0.1860827953 -0.06039697304 0.9975262284 0.1035723761 0.2007379979 0.9699804187
-0.1823236346 -0.05822005495 0.9937714934 0.1732945144 0.170464918 0.9462623
-0.1176761314 0.000463030563 0.9809720516 -0.2277353108 -0.1834822595 0.9551993608
-0.126833275 -0.001108486322 0.9768999815 -0.1622784287 -0.1686093211 0.9686746001
-0.1360939294 -0.001767218579 0.9774500132 0.006911029108 -0.1763597876 0.9368065596
-0.1437514722 -0.003815707285 0.9801994562 0.1617145836 -0.1945809722 0.8942446113
-0.1293163002 0.0001785827626 0.9710582495 -0.1324237585 -0.1551692337 0.9784196615
-0.1212908179 -0.001949348021 0.9747173786 -0.152528286 -0.1605299115 0.9748256207
-0.1101844907 -0.004975175951 0.977920115 -0.1756986678 -0.1767481565 0.9679222703
-0.1697615683 -0.08149833977 1.025011301 -0.3612083793 0.369440347 0.6491183043
-0.1673616916 -0.08564124256 1.043039083 -0.7099792361 0.3375374377 0.3336296678
-0.16874066 -0.08404603601 1.036775351 -0.569540441 0.3439462185 0.4470908344
-0.1689875275 -0.08052715659 1.018793702 -0.2975070775 0.3941819966 0.7466299534
-0.1680866927 -0.09262140095 1.034108877 -0.7718831301 0.416854471 0.3238572776
-0.1687622666 -0.08621770889 1.019922137 -0.4546740055 0.4290176332 0.6274066567
-0.1673475951 -0.09061463177 1.044154763 -0.8434493542 0.3662215173 0.2280759811
-0.1682163328 -0.08866644651 1.02973032 -0.6276869774 0.4078986943 0.4535875618
-0.1676819324 -0.08945824951 1.038356304 -0.7479828596 0.3805775642 0.3255279362
-0.1682924479 -0.08739898354 1.013649344 -0.2982091308 0.4798240066 0.7489537597
-0.1686975509 -0.08261947334 1.012007594 -0.2346822321 0.4434320927 0.819080472
-0.1671170294 -0.09324415028 1.020707726 -0.5226877332 0.4926233292 0.5329033732
-0.1676785946 -0.09281353652 1.025700808 -0.6535271406 0.4559554756 0.4308801591
-0.167392388 -0.09629145265 1.029745936 -0.7787302732 0.4641339481 0.3141925931
-0.1649928093 -0.09312398732 1.056241155 -0.5927141309 -0.2232511044 0.2407139838
-0.1625100672 -0.09552463144 1.05109334 -0.7917718291 0.4471011758 0.01675445959
-0.1937668324 -0.09548474103 1.013041973 0.08490345627 0.3894456327 0.9144483805
-0.1886934489 -0.09394015372 1.01234901 0.02956190892 0.3936589062 0.9164114594
-0.1901195943 -0.09978950769 1.015150905 -0.004851928446 0.3912735283 0.9190426469
-0.1862829924 -0.09396971017 1.032493711 0.02490928024 -0.09844557196 0.722117126
-0.1755725443 -0.09250148386 1.049283981 -0.1013563201 -0.7001612782 0.4972373247
-0.1803070903 -0.08966462314 1.042414069 -0.03909881413 -0.449742049 0.5938093662
-0.1934267431 -0.09251367301 1.019390821 0.1225478947 0.2912550271 0.8726334572
-0.1896435916 -0.08836069703 1.023970723 0.09217001498 0.06184651703 0.7923529148
-0.18982324 -0.09333162755 1.026703596 0.07035022974 0.09529027343 0.7959927917
-0.182710439 -0.09480766952 1.037350416 -0.02079121955 -0.2867979109 0.6511893272
-0.1879491061 -0.1086151451 1.026996613 -0.05631916597 0.2169056088 0.8272127509
-0.1789495647 -0.09623372555 1.042873979 -0.07890783995 -0.4679451585 0.5817485452
-0.1850427985 -0.1026625186 1.032453179 -0.04920173436 -0.03536251187 0.7381313443
-0.192394197 -0.1022092029 1.021263123 0.0471842736 0.3558779061 0.8855868578
-0.1878700852 -0.09881903231 1.028767467 0.0149275912 0.05670644343 0.77641958
-0.203917101 -0.09155904502 1.017966509 0.1987350434 0.3734495044 0.9032384753
-0.199094668 -0.09454834461 1.018298388 0.1586546004 0.3889691532 0.9057661891
-0.1982024163 -0.08105093986 1.011938572 0.244074136 0.3808400631 0.8895821571
-0.2072464824 -0.08398476243 1.015583277 0.2557600439 0.3553593457 0.8973173499
-0.1998466998 -0.08621142805 1.014826655 0.2134786397 0.3788983822 0.8971889019
-0.1999843717 -0.07926442474 1.005859256 0.2507127225 0.3703235984 0.8890369534
-0.198539257 -0.07322346419 1.003059864 0.2350989133 0.2982045114 0.9174330235
-0.1901504546 -0.0717825368 0.9996342063 0.1237797365 0.3129225373 0.9350688457
-0.08350358158 -0.1722414345 1.084337234 -0.1262168437 0.06570504606 0.9889930487
-0.07877343893 -0.1570723355 1.081215978 -0.0427743271 0.1296422184 0.9900314212
-0.06639049202 -0.1588361263 1.083417535 0.005509903654 0.1401911527 0.9900289178
-0.05922292918 -0.162879318 1.076793313 0.04894195497 0.13126266 0.9890258908
-0.06654240936 -0.1587156355 1.076870918 0.02234461159 0.1313646138 0.9898458123
-0.07596174628 -0.1550458074 1.076993346 -0.01298622508 0.1322055012 0.9910386205
-0.06361120939 -0.1662811637 1.076918483 0.02914233878 0.1338029951 0.9899984598
-0.06029548123 -0.156824857 1.076732039 0.0486016646 0.1289891303 0.9887019992
-0.04989322647 -0.1457993835 1.076827884 0.1071999073 0.1254754364 0.9858872294
-0.05602405965 -0.1492753476 1.076794982 0.07607761025 0.1268312484 0.9872601032
-0.0501713343 -0.151393652 1.076542616 0.09421546012 0.1247282401 0.9866136312
-0.07028882205 -0.1541175693 1.076887965 0.01057290658 0.1304686219 0.9900579453
-0.0642118901 -0.1504401416 1.076932669 0.04191549495 0.1291592419 0.9886687994
-0.06845802814 -0.1505153328 1.081136107 0.005085156299 0.137150526 0.9903897047
-0.07217726856 -0.155127123 1.082398057 -0.01061603054 0.1343759447 0.9908310771
-0.08255100995 -0.1570494324 1.077000022 -0.08069362491 0.1524645686 0.9841667414
-0.07651712 -0.160740003 1.077000022 -0.04162761569 0.1448094696 0.9870074391
-0.1922880411 -0.04616378993 1.001830935 0.1626629233 0.03157238662 0.9849819541
-0.175647378 -0.04716625437 0.9987956882 0.189153716 0.08180682361 0.9411051869
-0.1711235195 -0.02778043039 0.9938517213 0.5045826435 -0.1304824948 0.7988180518
-0.1718517095 -0.03879426047 0.9957728982 0.3226416707 0.006800408009 0.8642880917
-0.1773086637 -0.026104711 0.9970977306 0.4818983376 -0.07069609314 0.8384600282
-0.1734325141 -0.02249206975 0.9944801927 0.5639508367 -0.1468319744 0.7879987955
-0.1779416054 -0.03750381619 0.9987045527 0.3317088783 -0.01580872759 0.9070905447
-0.1822468489 -0.03514365479 1.0009166 0.3212204278 0.04372533411 0.9275336266
-0.1787527651 -0.03188607469 0.9985569119 0.3951981366 -0.02490994334 0.8820405006
-0.1817328334 -0.02673719451 0.9997044802 0.432423085 0.002492538653 0.8765518069
-0.180175662 -0.04334766418 1.000623703 0.2368129045 0.04284773767 0.957190752
-0.186207667 -0.02590085939 1.00217998 0.40106076 0.07072203606 0.9068332314
-0.1744073778 -0.03298474848 0.9961842299 0.4220270514 -0.0900401473 0.8542360067
-0.1742215753 -0.0366278328 0.9875156283 0.5763810277 -0.00380613748 0.8070060611
-0.1860631257 -0.03608187288 0.9933499098 0.425380528 -0.03892926499 0.8721855879
-0.192296803 -0.03897805139 0.9963951111 0.2876213193 0.003284855746 0.9409450889
-0.1857980937 -0.04321076721 1.001466155 0.2147875726 0.06678757071 0.9715179205
-0.1905190647 -0.03683263436 1.002284765 0.2725037336 0.05364711955 0.9569587111
-0.1859725416 -0.03124724142 1.002477527 0.3381105959 0.08251114935 0.933267951
-0.1923301369 -0.1118384376 1.02057898 -0.05370384082 0.4265483916 0.902385056
-0.1857940704 -0.1118627042 1.020800471 -0.1606111526 0.497741729 0.8509117961
-0.1826342642 -0.1080414429 1.017701268 -0.1710591614 0.4879411757 0.8512585759
-0.1822210699 -0.0987778604 1.014264345 -0.1043066457 0.4281587005 0.8873974681
-0.1775451601 -0.1111260727 1.020017385 -0.3259650171 0.5336139202 0.7712064981
-0.1771580279 -0.1067574695 1.017387986 -0.2658886313 0.5011320114 0.8222896457
-0.1822901368 -0.07584331185 1.001251578 0.03680371121 0.3711089492 0.9258170724
-0.1880014539 -0.07560914755 1.001862884 0.08776338398 0.3710731268 0.9224157929
-0.2039789855 -0.05349554867 0.9997261167 0.2432035506 0.1028729454 0.9617174864
-0.2130724043 -0.05017353967 1.003842354 0.2691593766 0.112951383 0.9537226558
-0.211943239 -0.05535225943 1.00361371 0.2859224975 0.165708214 0.9428660274
-0.1566132307 -0.02741238661 0.9708967209 0.392750442 -0.2133166045 0.8716756105
-0.1529894322 -0.03315633163 0.9674163461 0.2254714668 -0.1865700781 0.9508014917
-0.1530769467 -0.01222348586 0.970482707 0.4347829521 -0.2983733118 0.8421124816
-0.1563163698 -0.02189453132 0.9714704752 0.4381620884 -0.2431371957 0.8474071622
-0.1529021561 -0.01790534705 0.9695397019 0.3733603358 -0.2681912184 0.8736827374
-0.1568813175 -0.01649262011 0.972659409 0.5087265372 -0.2713966072 0.8119308949
-0.1599507928 -0.03356104344 0.971598804 0.4239928126 -0.2029947639 0.8623252511
-0.1640077233 -0.03111073561 0.9749794006 0.5599046946 -0.2158195078 0.799464345
-0.1730977744 -0.02103381418 0.9830377698 0.5817321539 -0.2123413533 0.7851495147
-0.1699411273 -0.02617485821 0.9813683629 0.5787081122 -0.2124408185 0.7873578072
-0.1637881845 -0.02445169725 0.9770145416 0.577377677 -0.2206107378 0.7845317721
-0.1632412821 -0.01648177579 0.978372097 0.5491217375 -0.2628247738 0.7884876132
-0.1671082228 -0.02185124159 0.9806082845 0.5889675021 -0.2296226025 0.7735178471
-0.1591509134 -0.01261722669 0.9755853415 0.5126681924 -0.2885005474 0.8038594723
-0.1605294645 -0.02108700015 0.9748607278 0.5474389195 -0.2425536811 0.7968511581
-0.2012315094 -0.05456480011 1.003928065 0.2224759459 0.1469529867 0.9536426067
-0.1880834401 -0.06673371792 0.9979496002 0.1031287387 0.2588767111 0.9582673311
-0.2086314708 -0.04812919721 1.00290072 0.2298095524 0.0826748535 0.9674515128
-0.2127576917 -0.03963768855 1.004093766 0.2279114425 0.0312788412 0.9724465013
-0.2020404935 -0.04083381221 1.002651095 0.199600324 -0.002802387811 0.979462862
-0.2068696469 -0.03889264166 1.001672983 0.2310288996 0.02218319289 0.9716771841
-0.1980927736 -0.04015995935 0.9981503487 0.2611134648 0.03568293899 0.962875843
-0.2026014775 -0.04638601094 0.999165535 0.2028190792 0.006002046168 0.9789568782
-0.1954676062 -0.04430221766 0.9976946115 0.1853156388 -0.002746296348 0.9809672832
-0.1947356313 -0.06480173767 1.006303906 0.2090530545 0.2573746741 0.9337677956
-0.1827578098 -0.05845182762 1.004991412 0.03808060661 0.1883244812 0.9696989655
-0.1775677949 -0.0700911656 1.008318543 0.01698944345 0.3093591332 0.9392222166
-0.1828151345 -0.07241787016 1.009321213 0.09098155797 0.3425020278 0.9197326899
-0.1948300451 -0.06926062703 1.009364843 0.2292210907 0.3300099373 0.9018331766
-0.1768445373 -0.0598404929 1.005544424 -0.02970179915 0.2013570219 0.9731869102
-0.1772910655 -0.0651627481 1.006989956 -0.00457374705 0.257553339 0.9553875327
-0.189464137 -0.06551832706 1.007977724 0.1485478282 0.2819204628 0.9260565042
-0.1885492504 -0.07331980765 1.009981513 0.165808484 0.3616303205 0.9036028981
-0.1888601482 -0.05932191014 1.004533648 0.1164629608 0.1865638196 0.9637899995
-0.1943021864 -0.06008296087 1.004448771 0.186848253 0.188717097 0.9555057883
-0.1835657805 -0.05197672173 1.003611803 0.02712133341 0.1069473699 0.9864253402
-0.1964431703 -0.05299430713 1.003291845 0.1911981702 0.1028492078 0.9685510993
-0.1908619106 -0.05272708088 1.00345695 0.120633781 0.1066654623 0.9759144783
-0.2004811913 -0.06816566736 1.009245276 0.2957640886 0.3213331103 0.8946412206
-0.1996012032 -0.0628625527 1.007623553 0.2666341364 0.2500343621 0.9153485894
-0.1836517602 -0.080063425 1.004301071 0.0556248948 0.3892329633 0.9177721739
-0.1784005016 -0.08255855739 1.006506681 0.008913416415 0.4282756448 0.9028357267
-0.1695372611 -0.0746243 1.007453918 -0.1309966743 0.388694644 0.9075119495
-0.1714818329 -0.06319812685 1.000051379 -0.03360139206 0.3020977974 0.9490139484
-0.174152866 -0.06802556664 1.00124526 -0.04501692951 0.3183240592 0.9416710138
-0.1764604598 -0.07596877217 1.003254175 -0.03941081837 0.3725337982 0.9185864329
-0.1706269532 -0.07960932702 1.00811851 -0.1469242722 0.4227828681 0.8885677457
-0.1889664531 -0.07996845245 1.005586982 0.1036647484 0.4056196511 0.9064617157
-0.1909587234 -0.05847455189 0.9980000854 0.1474972069 0.1660135537 0.9742599726
-0.1996392757 -0.0509868376 0.9980000257 0.2039604336 0.04186093807 0.9760680199
-0.1937738657 -0.05002938211 0.9978269339 0.1645736545 0.05729769915 0.9814352393
-0.1893057376 -0.04779107124 0.994446218 0.214798063 0.02788563818 0.9617367387
-0.1709466577 -0.04629899561 0.9802433848 0.4519675374 0.01133066416 0.8664284348
-0.1857529134 -0.05043547601 0.9923107624 0.2543521821 0.0702753365 0.9434019923
-0.1671252549 -0.04376824573 0.9768230319 0.5061349273 -0.02662601508 0.8465074897
-0.1759053767 -0.04728411138 0.9842011929 0.3866502047 0.02485056967 0.8921925426
-0.1827677637 -0.04618772864 0.9891642928 0.3015760779 0.005326943472 0.9277559519
-0.1865451336 -0.04277276248 0.9935899377 0.2998045087 0.01567043923 0.931221962
-0.1778886914 -0.04264130071 0.9865395427 0.4023098052 0.003317500465 0.8896244764
-0.1702449918 -0.04096645489 0.9819474816 0.5296667814 0.02382261865 0.8390906453
-0.1783384085 -0.03868795931 0.991055727 0.4905897081 0.08376618475 0.8567179441
-0.1878679842 -0.05439822003 0.996070087 0.1745245904 0.1281758845 0.9671717286
-0.2077116668 -0.06460077316 1.008339643 0.3053767085 0.2844219208 0.9048525095
-0.21096389 -0.05938659236 1.006552577 0.3012749255 0.2252621949 0.9226987958
-0.2043146789 -0.06033299863 1.005434394 0.2610885203 0.2298429906 0.9313982725
-0.2041903138 -0.05873214826 1.000730634 0.2608621716 0.1716779619 0.9456549883
-0.20501028 -0.07103420049 1.005847931 0.3053291142 0.3153997064 0.8941892385
-0.1951513141 -0.0667046085 1.000221729 0.1915298849 0.242841363 0.9448481202
-0.1980989426 -0.05898068845 0.9985228777 0.2171282768 0.15948008 0.9594274163
-0.2004585862 -0.06520493329 1.001866221 0.2563803494 0.2368528098 0.9278305173
-0.1711384952 -0.06885127723 1.005821466 -0.1001588777 0.3280479908 0.9297323227
