# .PCD v0.7 - Point Cloud Data file format
VERSION 0.7
FIELDS x y z normal_x normal_y normal_z
SIZE 4 4 4 4 4 4
TYPE F F F F F F
COUNT 1 1 1 1 1 1
WIDTH 512
HEIGHT 1
VIEWPOINT 0 0 0 1 0 0 0
POINTS 512
DATA ascii
-0.1152108535 -0.01721628755 0.9827152491 0.2819055319 0.2574949563 -0.9193074107
-0.1056647822 -0.01381166559 0.9856255054 0.3190529644 0.2217754573 -0.9193544388
-0.1524627805 -0.04925942793 0.9729827642 -0.1431557536 0.07467714697 -0.9816931486
-0.1489753723 -0.04101006314 0.9722417593 -0.1164877564 0.1318856329 -0.9760094285
-0.01229630411 -0.09243640304 1.086238027 -0.2704507411 -0.2006891519 -0.9402604699
-0.01521737035 -0.08724438399 1.084864616 -0.2989507318 -0.2014966756 -0.9312545061
-0.01966484264 -0.08518736064 1.090032816 -0.2931852043 -0.2013333142 -0.9330764413
-0.2220358104 -0.08626141399 1.010846972 -0.1865050495 -0.1396010071 -0.9721271992
-0.1137953252 -0.00519558182 0.9902569056 0.1757010967 0.3786687255 -0.9082511663
-0.1073202789 -0.005342964549 0.9936766624 0.2315216213 0.3328485787 -0.9114556909
-0.09883131832 -0.01496247388 0.9919476509 0.3345578313 0.223135367 -0.9143388271
-0.1023438796 -0.01001770701 0.9950158 0.2904233336 0.2701298892 -0.9131038785
-0.1042814925 -0.009127843194 0.9892275929 0.2840269804 0.2764319777 -0.9149025679
-0.1178184673 -0.03122238629 0.9866303205 0.34649086 0.1353815347 -0.9274384379
-0.1079708636 -0.02616937086 0.9908973575 0.3582057059 0.1636544615 -0.9184687138
-0.1135917157 -0.02838411555 0.988196969 0.3455382288 0.1412405372 -0.9265337586
-0.1062423885 -0.0212262813 0.9848763943 0.3507151902 0.1501754969 -0.9211962819
-0.1150722876 -0.02288463525 0.9798925519 0.3398046792 0.1426905394 -0.9286295176
-0.1093686447 -0.02648063935 0.9839274287 0.3586272001 0.1058355421 -0.9242931008
-0.1808540225 -0.07946562022 1.014629364 -0.2597430646 -0.3268345296 -0.8237928748
-0.178168416 -0.08283085376 1.019213915 -0.2844161391 -0.3080196977 -0.7368808389
-0.1749651581 -0.0853722617 1.055997491 -0.8469872475 -0.1908961236 0.03083593212
-0.1479268521 -0.04676752537 0.971611321 -0.07828290761 0.08928856999 -0.9855535626
-0.1432802826 -0.041034583 0.9699275494 -0.02056460828 0.1264439821 -0.9853772521
-0.1414219886 -0.05027975887 0.9727555513 0.02907505259 0.06454563886 -0.9928646088
-0.1411762238 -0.05661446601 0.9734037519 0.03653478995 0.02121974342 -0.9926554561
-0.1463320851 -0.06022691727 0.9733874798 -0.06784725934 0.0001506359695 -0.9968354106
-0.1572243124 -0.05839294568 0.9810908437 -0.2484013289 -0.108134605 -0.8949801326
-0.1464174092 -0.05519066006 0.9748751521 -0.05347056687 0.0224394314 -0.9885240793
-0.152199626 -0.06043345854 0.9736215472 -0.1448015422 -0.0005563775776 -0.9877496362
-0.2208908498 -0.07814767957 1.012856245 -0.223069936 -0.1027976498 -0.9691287875
-0.200968042 -0.09027133137 1.005147934 -0.1090602577 -0.1533896178 -0.9809813499
-0.0208111573 -0.06975187361 1.081048846 -0.3407612145 -0.2026813328 -0.9180425406
-0.01614616252 -0.06963841617 1.075139523 -0.3407612145 -0.2026813328 -0.9180425406
-0.01729635708 -0.07510568202 1.07783258 -0.3407612145 -0.2026813328 -0.9180425406
-0.02029419318 -0.07757394016 1.082852721 -0.3407612145 -0.2026813328 -0.9180425406
-0.02383828536 -0.07581946999 1.086503506 -0.3407612145 -0.2026813328 -0.9180425406
-0.01877877116 -0.09437189251 1.090129256 -0.2522305846 -0.1961732358 -0.9471256733
-0.02816545218 -0.0865848586 1.090645313 -0.2888450027 -0.19470644 -0.9362491965
-0.023415206 -0.09076138586 1.090366125 -0.2693409622 -0.1952938437 -0.9420966506
-0.02810128778 -0.08079561591 1.091088772 -0.3127489984 -0.1985540986 -0.9278175235
-0.02603080869 -0.08305919915 1.086039662 -0.3393338323 -0.2024550885 -0.9185450077
-0.1686221063 -0.09750974923 1.073167682 -0.7010867 -0.6201148629 0.3070110977
-0.1744049639 -0.09629125893 1.072403073 -0.5726978779 -0.7127332687 0.388310343
-0.168186307 -0.09215812385 1.07098794 -0.7886792421 -0.5304396152 0.2307081074
-0.1626064181 -0.09549563378 1.073006868 -0.7401230335 -0.6058605313 0.2475893646
-0.1539583802 -0.1062060148 1.067967772 -0.6169430614 -0.721067071 0.3039808273
-0.1577148288 -0.09826178849 1.074325919 -0.611851573 -0.7268862724 0.3067325056
-0.09701657295 -0.02063816041 0.9934415817 0.3698425591 0.1840998679 -0.9096286297
-0.1053511798 -0.006991447415 0.9993194938 0.2550418377 0.3073110878 -0.9101950526
-0.1013112441 -0.0177101288 0.996745646 0.3337987959 0.2207828611 -0.9078501463
-0.1021273956 -0.0238494724 0.9935781956 0.3692070842 0.1789409667 -0.9113503695
-0.01723765023 -0.06404860318 1.074924231 -0.3407612145 -0.2026813328 -0.9180425406
-0.01803974062 -0.05761495233 1.075302839 -0.3407612145 -0.2026813328 -0.9180425406
-0.02320927382 -0.05630334467 1.077774048 -0.3407612145 -0.2026813328 -0.9180425406
-0.02478734963 -0.06286690384 1.080267787 -0.3407612145 -0.2026813328 -0.9180425406
-0.01484627742 -0.07445850968 1.072149277 -0.3407612145 -0.2026813328 -0.9180425406
-0.01603047177 -0.08119270951 1.077411771 -0.3407612145 -0.2026813328 -0.9180425406
-0.01227509789 -0.06962577999 1.069488764 -0.3407612145 -0.2026813328 -0.9180425406
-0.1079657152 -0.03723196685 0.9876066446 0.3849048316 0.06115962565 -0.9199643135
-0.1047903746 -0.03301512077 0.9900173545 0.3893627822 0.1074496359 -0.9141557217
-0.09607262909 -0.02618202753 0.9953503609 0.4006308019 0.1491857916 -0.9039574862
-0.1916890442 -0.06981917471 0.9996700287 -0.3130556345 -0.3184911907 -0.8894394636
-0.1931268126 -0.1313488185 1.022664309 -0.05210721493 -0.2307152897 -0.9705123305
-0.1983481348 -0.1230316535 1.022311807 -0.07797446847 -0.314638555 -0.9448259473
-0.1854870319 -0.09524460882 1.005956173 -0.01934589632 -0.2884036303 -0.9570601583
-0.1629005224 -0.05332760513 0.9746790528 -0.3753438294 -0.02016517147 -0.9200501442
-0.1689323336 -0.04018377885 0.9768315554 -0.3723188937 0.05962610245 -0.9220429063
-0.1671264917 -0.03423504159 0.9777937531 -0.2978802919 0.1332107335 -0.9418447614
-0.1621966809 -0.04260601848 0.9763544798 -0.2909735143 0.08815298229 -0.9437322617
-0.1882631332 -0.05923924223 0.998557806 -0.4227966666 -0.3438359499 -0.8300925493
-0.1833465993 -0.06810653955 1.0037148 -0.3500339985 -0.31775105 -0.8608486056
-0.1811641455 -0.06526706368 0.9989922643 -0.4553694129 -0.3175352216 -0.8090590239
-0.1791606545 -0.06223735213 0.9940857887 -0.5605497956 -0.3214353025 -0.7564254403
-0.1821230054 -0.07286608219 1.006139278 -0.2901735008 -0.3275783658 -0.8820810318
-0.1685917675 -0.05679625645 0.976793468 -0.4643521011 -0.07676406205 -0.8811480999
-0.1682472974 -0.04888147116 0.976516366 -0.4283181131 -0.01331925765 -0.8997510076
-0.1739052534 -0.04014367238 0.9797756076 -0.448466748 0.03616544977 -0.8863377571
-0.1772983521 -0.04575441405 0.9820804596 -0.5225498676 -0.02478755079 -0.8497490883
-0.1738972366 -0.05409588292 0.9804649949 -0.511783421 -0.07790195197 -0.8539937735
-0.1724541783 -0.03122079745 0.978708744 -0.3361335695 0.117677696 -0.9292041063
-0.1687009335 -0.02542025782 0.9798718095 -0.2173956931 0.2198352218 -0.9400737882
-0.190349251 -0.09990638494 1.006747484 0.004163901322 -0.2861160636 -0.9542405009
-0.2012218684 -0.1004876792 1.006115198 -0.06530019641 -0.3059324324 -0.943692565
-0.2057783604 -0.1076418757 1.009559751 -0.1299807727 -0.3392193615 -0.9309234023
-0.1995132565 -0.1134144813 1.013782501 -0.09667085856 -0.361764729 -0.9233919382
-0.2017310113 -0.1186306179 1.017305136 -0.09716431051 -0.3425945938 -0.9320427179
-0.1962880045 -0.120712772 1.017213702 -0.1057537794 -0.3000706732 -0.9472523332
-0.2130177915 -0.09470454603 1.012996197 -0.1454170346 -0.2114079446 -0.9526080489
-0.212771222 -0.08892156929 1.011717796 -0.1617105007 -0.1318697929 -0.9697978497
-0.2071264088 -0.09269923717 1.011918902 -0.1446249634 -0.1528700292 -0.9622098207
-0.2090640068 -0.09916262329 1.013529181 -0.128258571 -0.2506283224 -0.9419552088
-0.2064025253 -0.08600168675 1.010390401 -0.1630088687 -0.05841587856 -0.982393086
-0.2112977207 -0.1032023504 1.006182432 -0.1365136206 -0.3519097865 -0.9254962802
-0.2170859575 -0.09744769335 1.006795406 -0.1562778056 -0.2464594543 -0.9510137439
-0.212627992 -0.1066193059 1.010892272 -0.1186290607 -0.3578181267 -0.9221150875
-0.2072658688 -0.09139162302 1.006006241 -0.1540955454 -0.122446157 -0.9783794284
-0.1960463673 -0.08025042713 1.003715158 -0.1649711132 -0.2235633582 -0.9552612901
-0.2046835721 -0.1031472534 1.012416005 -0.1010824293 -0.3616432548 -0.9230362773
-0.197475791 -0.09518582374 1.010031223 -0.01588941552 -0.1946880668 -0.9797542095
-0.1887656599 -0.08800783753 1.031828284 -0.4092033207 -0.113982752 -0.5120620131
-0.1929472983 -0.08725491166 1.023213267 -0.2633814812 -0.07574573159 -0.7047516108
-0.1969579011 -0.08788179606 1.014356494 -0.1097080857 -0.06380479038 -0.899790585
-0.1785564721 -0.08487188816 1.045359135 -0.6790677309 -0.1964001805 -0.1961905062
-0.1869407594 -0.08399067074 1.020057678 -0.2706250846 -0.195435971 -0.7410745025
-0.1827958375 -0.08582479507 1.041839004 -0.5980882645 -0.1396705657 -0.28612867
-0.1793461442 -0.08234702796 1.026784539 -0.4213907123 -0.2945132554 -0.5715367198
-0.1848751605 -0.08421704173 1.026352525 -0.3720834255 -0.1953008473 -0.6056038141
-0.1924990267 -0.08449272811 1.010487199 -0.09736678749 -0.1511112005 -0.9581568241
-0.1828888208 -0.08465886861 1.033892155 -0.4897699952 -0.1861563176 -0.4455885291
-0.1922462881 -0.08523021638 1.015963912 -0.1734988391 -0.1225491837 -0.8473951221
-0.1777216196 -0.08371561766 1.039629579 -0.6080613732 -0.2465266883 -0.3070112467
-0.1999422014 -0.100176312 1.012681127 -0.03162527084 -0.2620821595 -0.9575970173
-0.199659735 -0.1073135585 1.016775966 -0.04216019809 -0.3124452233 -0.9417074919
-0.2039950639 -0.1109472215 1.019417644 -0.05239972472 -0.3755321503 -0.9174766541
-0.1978760064 -0.1125139371 1.019292951 -0.05260947719 -0.3409317732 -0.9344325066
-0.01321546733 -0.08574127406 1.078732491 -0.3249627054 -0.201442644 -0.9230439067
-0.04427023605 -0.1540929824 1.087388873 -0.1179490164 0.1404765993 -0.9826586246
-0.02274604514 -0.08824633062 1.08389926 -0.3148175776 -0.1985692084 -0.9271759391
-0.03233179078 -0.1056464687 1.089839458 -0.1182485074 -0.1070448905 -0.9863079786
-0.02695761435 -0.09631233662 1.086986542 -0.2289122194 -0.1669498682 -0.954415679
-0.03049444966 -0.1004504338 1.089720845 -0.1829414964 -0.1445034742 -0.9680708051
-0.05943137407 -0.1582535207 1.091911793 -0.07871285081 0.1531965882 -0.9845780134
-0.0668611899 -0.1632456183 1.089415789 -0.05165922269 0.1560930312 -0.9860690832
-0.05337111279 -0.1427705586 1.094032645 -0.1068220809 0.09864459932 -0.9888914227
-0.06087246165 -0.1504263878 1.092438817 -0.07416754961 0.1185728535 -0.9889464378
-0.0666955933 -0.1543183476 1.092333078 -0.04712151363 0.1199598834 -0.9907874465
-0.05465511978 -0.1557027102 1.089258671 -0.08295479417 0.1433856487 -0.9857813716
-0.1633942723 -0.1071809083 1.072836995 -0.5806768537 -0.7268055677 0.3642261922
-0.1623598039 -0.1014846191 1.074250698 -0.5927381516 -0.7226566076 0.3504782021
-0.170644626 -0.1054116711 1.074163795 -0.5695010424 -0.7043675184 0.4225591719
-0.1580938101 -0.1066157147 1.072024941 -0.5806251168 -0.7358137369 0.346460849
-0.0823835209 -0.1626853198 1.090060353 -0.02692780644 0.1257203966 -0.9917001724
-0.09421466291 -0.1678263396 1.088093758 -0.02692780644 0.1257203966 -0.9917001724
-0.09923870116 -0.1685380936 1.086887598 -0.02692780644 0.1257203966 -0.9917001724
-0.08799015731 -0.1667670608 1.087139249 -0.02692780644 0.1257203966 -0.9917001724
-0.02813313343 -0.0732974261 1.090406656 -0.3407612145 -0.2026813328 -0.9180425406
-0.02262073942 -0.0733839348 1.077519894 -0.3407612145 -0.2026813328 -0.9180425406
-0.02110487968 -0.08356728405 1.081492662 -0.3407612145 -0.2026813328 -0.9180425406
-0.1317170411 -0.006930725183 0.9938899279 0.03974581882 0.4887854457 -0.8667439222
-0.1151998714 -0.002892443677 0.9989601374 0.161224097 0.3950887322 -0.8972156644
-0.1215327755 -0.005700253416 0.9969554543 0.1196463332 0.4145002365 -0.8939341307
-0.1117741615 -0.007519310806 0.998046577 0.2122460455 0.3385253251 -0.9059277773
-0.1153656766 -0.01674589142 0.9937897325 0.2256597728 0.3052539825 -0.8999144435
-0.1247475445 -0.0153450435 0.9926691055 0.1381495148 0.3748460412 -0.8896071911
-0.1163041666 -0.01032015122 0.996142149 0.1867013276 0.3507886827 -0.9002145529
-0.1100188717 -0.01914005727 0.9938027263 0.283201009 0.2557998002 -0.9054507017
-0.1102495715 -0.01277193241 0.9962584972 0.2506136 0.296379298 -0.9065385461
-0.1147122979 -0.02152194828 0.9903025031 0.2662970722 0.2152905017 -0.9157751203
-0.1218427867 -0.01922232285 0.9896429777 0.1958869696 0.2662460804 -0.9109243751
-0.1175202429 -0.02401457168 0.9856604338 0.2765847743 0.1147039756 -0.9417333007
-0.1273623705 -0.02167037874 0.9876397252 0.185767144 0.2612429261 -0.9140635729
-0.1314882338 -0.01653082483 0.989689827 0.1042430997 0.359772712 -0.8974208832
-0.1261541247 -0.02741315961 0.9857951999 0.2539390326 0.1945673674 -0.9240788221
-0.1264202446 -0.004999600351 0.9940983653 0.0872457549 0.4574713111 -0.8757855296
-0.1577609032 -0.1121196523 1.069075942 -0.5632928014 -0.7425680161 0.36232844
-0.1600946933 -0.100291349 1.066195369 -0.7322387695 -0.5427103639 0.2660974562
-0.1637472212 -0.09461168945 1.066834569 -0.8123520017 -0.4591706395 0.2185918093
-0.1711041182 -0.08664537221 1.06600821 -0.9403308034 -0.2650365531 0.1745259315
-0.1609859318 -0.06344210356 0.9747209549 -0.3386546671 -0.08554594219 -0.925070107
-0.1578769237 -0.05823378265 0.9740539789 -0.241541326 -0.005951677915 -0.9639472961
-0.2016900182 -0.08038578928 1.005260587 -0.1898339689 -0.1417207569 -0.9628520608
-0.2075637728 -0.08148464561 1.006828427 -0.196861431 -0.04308149219 -0.977096498
-0.2174475342 -0.08524659276 1.007277727 -0.2104637176 -0.1011940539 -0.9691901207
-0.1890791059 -0.1050636321 1.008125186 -0.01370667107 -0.3723390698 -0.9251188636
-0.1940481812 -0.1102118343 1.01256454 -0.04284023494 -0.4285899401 -0.9002228975
-0.2000129521 -0.1074628904 1.010351539 -0.08072446287 -0.3978380263 -0.9104495049
-0.1746042669 -0.1266652048 1.01875031 -0.009898970835 -0.2326240838 -0.9713696837
-0.1800604314 -0.1346771121 1.018007398 -0.02552908659 -0.2096759528 -0.9739755392
-0.1825314611 -0.1211626902 1.01417017 -0.01117638499 -0.3174192011 -0.9396601319
-0.1739387661 -0.1216567382 1.01801765 -0.002952834358 -0.2632033527 -0.9627048969
-0.1815015674 -0.1145252809 1.013263702 -0.001818891964 -0.3570692539 -0.9285563827
-0.1681830138 -0.1134061739 1.061626434 -0.4772987664 -0.6494848728 0.1380849332
-0.1721254289 -0.115394257 1.048105955 -0.3515458405 -0.539937377 -0.2083590627
-0.1709443182 -0.1140164882 1.056463718 -0.4198540747 -0.5946151018 -0.01680741087
-0.1676059365 -0.1118459851 1.067965031 -0.5395054817 -0.6752940416 0.2853619158
-0.1792832911 -0.09632947296 1.063379884 -0.8201990128 -0.1437199861 0.2242934406
-0.1744205207 -0.1122848392 1.052278519 -0.4197158515 -0.4834929705 -0.1309462935
-0.1817653328 -0.1068040654 1.043530583 -0.4684528112 -0.2025104612 -0.3409217596
-0.1752129346 -0.100250721 1.067016363 -0.7667862773 -0.3104595542 0.305216074
-0.1745323688 -0.104830943 1.062246084 -0.6406229734 -0.3872874975 0.161384657
-0.1782383621 -0.1006834954 1.059726119 -0.7064964771 -0.2282746881 0.1108500361
-0.1712532192 -0.1058211997 1.068147898 -0.6623767614 -0.4945658445 0.3135369122
-0.1801052839 -0.1120876819 1.039964557 -0.3366117775 -0.3164665103 -0.4556482732
-0.1784760803 -0.1065454483 1.051166296 -0.5276703835 -0.2945050597 -0.1381026804
-0.1773354709 -0.1113775373 1.047069192 -0.4011856019 -0.3877922893 -0.2651159465
-0.1746116281 -0.1083093062 1.057303667 -0.5354787111 -0.4283761978 0.01727694273
-0.1798812598 -0.1021205708 1.054119825 -0.6378500462 -0.1986381561 -0.04289521277
-0.1849282235 -0.1142181456 1.029327631 -0.2152032107 -0.2551644444 -0.7419105768
-0.185492605 -0.1037241668 1.046576023 -0.5445055962 -0.1799233407 -0.2410020977
-0.1875461787 -0.1096915901 1.036509156 -0.3500259817 -0.241367355 -0.5273815393
-0.1887438148 -0.1174210235 1.023629069 -0.1025691256 -0.3094637692 -0.897374332
-0.1907691211 -0.1121818423 1.032050729 -0.2616730928 -0.2855992317 -0.6484211087
-0.1864570826 -0.09742467105 1.048920274 -0.6177597642 -0.1376946121 -0.1237094924
-0.1960726529 -0.1027477533 1.017881513 -0.09336628765 -0.2483822405 -0.8729653358
-0.1841842532 -0.09681309015 1.056529403 -0.7419732809 -0.1167746037 0.05336092785
-0.1920630336 -0.1065927371 1.033380747 -0.3145022392 -0.2514008582 -0.5608169436
-0.1964017153 -0.1170136854 1.022755861 -0.08115123212 -0.3663665056 -0.8992700577
-0.1946234107 -0.1051784083 1.023922324 -0.1737170666 -0.2579135001 -0.7601917386
-0.1885078102 -0.09960054606 1.042739153 -0.5063453317 -0.1697387397 -0.2835530043
-0.1937177777 -0.1084771231 1.028447509 -0.2246529311 -0.278300792 -0.6898027062
-0.1928025484 -0.1021092907 1.02893126 -0.2721811235 -0.2202407718 -0.6182103753
-0.1931355 -0.09577129781 1.025107145 -0.2513690889 -0.1711881906 -0.6438473463
-0.1945787966 -0.09476671368 1.01968801 -0.1719244868 -0.1731782258 -0.7562245727
-0.1913015097 -0.09934850782 1.032963037 -0.3532561958 -0.1873141825 -0.5011570454
-0.1896808743 -0.1053673178 1.041109681 -0.4444527328 -0.2247358561 -0.3752017617
-0.1530391127 -0.02771621384 0.973516047 -0.104302533 0.2022009939 -0.9631505013
-0.141140312 -0.02919053473 0.9683297873 0.01270140428 0.1967535317 -0.976011157
-0.185553059 -0.0476115644 0.9900470376 -0.5372700095 -0.1261668503 -0.8218659759
-0.1889565289 -0.05328018218 0.9955820441 -0.5194108486 -0.2473295927 -0.8103231788
-0.1815856099 -0.03981760889 0.9864768982 -0.5457735658 -0.005930259824 -0.8304692507
-0.1657060981 -0.02467768081 0.9852216244 -0.1990574449 0.3043244779 -0.8910166025
-0.1691218168 -0.02916495502 0.9871492386 -0.2709447742 0.2235963196 -0.8706955314
-0.1771738827 -0.03513635695 0.9854882956 -0.450486511 0.0856666714 -0.8501074314
-0.1786217839 -0.04988935962 0.9897084832 -0.5848599076 -0.1060468778 -0.7919508219
-0.1764736921 -0.05613617599 0.9898353219 -0.5845099688 -0.1980244368 -0.7675197124
-0.1827827692 -0.05333746225 0.9938628674 -0.5921233296 -0.2069243342 -0.7726717591
-0.1622370034 -0.02105290443 0.9829340577 -0.1278625429 0.3565195203 -0.9197456837
-0.1697376817 -0.03743352368 0.9847496748 -0.3373957872 0.08278889954 -0.9112123251
-0.1771351546 -0.04116210341 0.9899064898 -0.4568098783 0.005364900921 -0.8401834369
-0.1727036834 -0.03369539231 0.9888258576 -0.3473057151 0.1405796111 -0.8511768579
-0.1652089655 -0.03065903299 0.9833167195 -0.2317000479 0.2064386159 -0.927609086
-0.1735096723 -0.04221643507 0.9857230186 -0.4708414972 0.02558995225 -0.8620159626
-0.2078788579 -0.1085400432 1.015588641 -0.09503446519 -0.4076341987 -0.9079458117
-0.2085740417 -0.1174995229 1.019745231 -0.05797958747 -0.381238997 -0.9207118154
-0.2040409446 -0.12205448 1.021955132 -0.04496255517 -0.3250299692 -0.944034934
-0.2043795586 -0.09744413942 1.010895729 -0.1157181412 -0.2473000437 -0.9579271078
-0.2170146704 -0.09822752327 1.012791872 -0.1424134225 -0.265866667 -0.9436619878
-0.2213579118 -0.09249357879 1.00777626 -0.1716963798 -0.1675370634 -0.9697548747
-0.2142240703 -0.09202610701 1.006100297 -0.1856288463 -0.1655148566 -0.9666097164
-0.2103710771 -0.09584834427 1.005573392 -0.1594586074 -0.1978772879 -0.965272069
-0.02434252016 -0.1183421761 1.090057731 -0.1167075634 -0.04525805637 -0.9911687374
-0.0483058393 -0.1368279308 1.093693137 -0.1283138245 0.07694728673 -0.9885215163
-0.04071142152 -0.1456829906 1.08865428 -0.1425265223 0.1131661907 -0.9825116992
-0.040640641 -0.1381371319 1.089138031 -0.1415748596 0.08116488904 -0.985245645
-0.01881972514 -0.1230311319 1.089898944 -0.1033965051 -0.02913253754 -0.9939272404
-0.02587940544 -0.1338374913 1.088734746 -0.1363659799 0.03117215261 -0.9892389774
-0.02226681821 -0.1271811426 1.090000033 -0.1234233826 -0.000523247174 -0.9915283322
-0.03225987405 -0.1414902657 1.087281227 -0.150050059 0.07805664837 -0.9850712419
-0.1026971415 -0.0380788818 0.9881974459 0.3957643509 0.04016446322 -0.9173343182
-0.09649910778 -0.03206816688 0.9945006371 0.4107247889 0.126323998 -0.9025799632
-0.1001271158 -0.02929025888 0.9884448051 0.3822109699 0.1016597301 -0.914716363
-0.1005023792 -0.02012109198 0.9878315926 0.3578699529 0.1606429219 -0.9159397483
-0.05369615555 -0.1510583311 1.093163371 -0.09689588845 0.1295391172 -0.9865933657
-0.04752859473 -0.1491360217 1.091797948 -0.1175124943 0.1153791323 -0.9861651659
-0.01438920386 -0.0984011367 1.090000033 -0.2344062626 -0.1952318549 -0.9522246122
-0.02298816293 -0.09942154586 1.090000033 -0.221699059 -0.1782312393 -0.9572150111
-0.02657426149 -0.1048915461 1.090000033 -0.1529353857 -0.1345910877 -0.9773933291
-0.03391031548 -0.1124730334 1.089983463 -0.1171053872 -0.04401016235 -0.9911280274
-0.0210603904 -0.09915269911 1.084848642 -0.179303214 -0.1471124589 -0.9678975344
-0.02021603473 -0.09382683039 1.083610535 -0.2510186136 -0.1738579124 -0.9462340474
-0.06138400361 -0.1640025228 1.090948701 -0.06198710576 0.1657369882 -0.9840607643
-0.04931532219 -0.1583872736 1.087541342 -0.091231592 0.1484426558 -0.9845846295
-0.05730872229 -0.1633692682 1.087113857 -0.07920578122 0.161667496 -0.9833622575
-0.06518756598 -0.1690983921 1.090279698 -0.05928264558 0.1690953225 -0.9837226272
-0.08594644815 -0.1727580279 1.090139031 -0.02692780644 0.1257203966 -0.9917001724
-0.09083257616 -0.173009932 1.087518215 -0.02692780644 0.1257203966 -0.9917001724
-0.0779453665 -0.1698438376 1.087000012 -0.04202978313 0.1496677697 -0.9873555303
-0.2117049098 -0.0781776756 1.011141896 -0.191428706 -0.08129993081 -0.9773430824
-0.214722231 -0.07390540093 1.01190424 -0.2172124684 -0.1056583822 -0.9698915482
-0.199202463 -0.08629193902 1.00999999 -0.04422239214 -0.03647844121 -0.9971494675
-0.1970020533 -0.07932824641 1.00999999 -0.1412059218 -0.1498549879 -0.9672178626
-0.2035629004 -0.07603756338 1.01000011 -0.1644512266 -0.1123313457 -0.9756603241
-0.1322980672 -0.05412936211 0.9758862257 0.1944149733 -0.02140405029 -0.9645264745
-0.1239074916 -0.05111368373 0.9805834293 0.3431381285 0.002388189314 -0.9358308315
-0.1209662631 -0.03013105132 0.9778665304 0.3265797794 0.09512282163 -0.9372016788
-0.1203042194 -0.03765369207 0.9796422124 0.3513887525 0.06382089853 -0.9304269552
-0.1166740656 -0.04284495115 0.9832239151 0.4029238224 0.06595811248 -0.9124062061
-0.1246758625 -0.03810654581 0.9827275276 0.3475867808 0.07994291186 -0.932515502
-0.1146724895 -0.03726755455 0.9824990034 0.3828659356 0.07795765996 -0.9188364744
-0.1117226705 -0.04162632674 0.9847397804 0.393737942 0.04844766483 -0.9172534347
-0.1099024788 -0.03319465369 0.9845186472 0.3704549372 0.06142182648 -0.9250056744
-0.1138888597 -0.0282064192 0.9814184904 0.3534859717 0.1005372405 -0.9280189872
-0.1199770495 -0.04744774103 0.9816288352 0.3774088621 0.02811554819 -0.9242421389
-0.1366937459 -0.008771724999 0.9926458001 0.006539014634 0.4998538494 -0.8657326698
-0.1482528746 -0.01269697677 0.9900385141 -0.05317402631 0.4498849511 -0.8896907568
-0.1545502096 -0.01626873203 0.9860444665 -0.08664958179 0.4584095478 -0.8796216846
-0.1424541175 -0.009065992199 0.9928506017 -0.03254532441 0.4817964733 -0.8750362396
-0.1333957464 -0.02971816808 0.9841170311 0.1877365261 0.2264390439 -0.9400910735
-0.134882912 -0.02410133742 0.9864649773 0.1297184825 0.3058734536 -0.9213967919
-0.1289573759 -0.03403839841 0.9830197692 0.2788246274 0.1466680765 -0.9443746209
-0.1382109672 -0.01820901595 0.9889343381 0.05506514013 0.3743880391 -0.909386754
-0.1397682577 -0.01620282605 0.9837337732 0.001405556104 0.5291907191 -0.8457456827
-0.1343019456 -0.01334961783 0.9853587747 0.02615277283 0.4911623895 -0.8688005209
-0.1216424108 -0.008283779025 0.9866711497 0.121580556 0.4507521689 -0.8824586868
-0.125254944 -0.01227728371 0.9836851954 0.1046446115 0.4742133617 -0.873565197
-0.1193539649 -0.01306542102 0.9833880067 0.1705754995 0.3743213117 -0.9013755322
-0.1214647889 -0.01878523827 0.9797872305 0.2103783488 0.3182385564 -0.9045544863
-0.1160339415 -0.009610773064 0.9859755635 0.1870252341 0.3512584865 -0.9099234939
-0.1287008673 -0.00834225025 0.9879952669 0.06375592947 0.4844217896 -0.8713294864
-0.1716852337 -0.1318697035 1.01880908 -0.01436013356 -0.2223478407 -0.9739258885
-0.1824465841 -0.07311072201 0.9952480793 -0.4034246802 -0.3852023482 -0.8172156215
-0.1854969263 -0.06829080731 0.9951999187 -0.3970078826 -0.3396651745 -0.8430505395
-0.1809574515 -0.06810096651 0.9915552139 -0.468562454 -0.3305623829 -0.8047668934
-0.1889562607 -0.06446970999 0.99667871 -0.4120660424 -0.3278522193 -0.8458636999
-0.1844487488 -0.06292271614 0.9925790429 -0.5004700422 -0.3151898682 -0.8004550338
-0.1776158214 -0.07048355788 0.9987026453 -0.4320655465 -0.3391706944 -0.8031023145
-0.1802860647 -0.07789081335 1.007869005 -0.2291514724 -0.3405973017 -0.8993762136
-0.1774345189 -0.0749630332 1.002244473 -0.329552263 -0.3374843895 -0.8449550867
-0.1670399755 -0.1226947084 1.018443346 -0.003886299441 -0.2681015432 -0.9625843763
-0.160155803 -0.1178387254 1.016712189 -0.006413772702 -0.3303967416 -0.9429556131
-0.1574462354 -0.1116758361 1.021505833 -0.1067645326 -0.4111376107 -0.762865901
-0.1550540477 -0.1085904539 1.047792315 -0.4062502384 -0.6029886007 -0.1321338415
-0.1561909914 -0.1100882068 1.035240889 -0.2630012035 -0.5112155676 -0.433583349
-0.1571932435 -0.1101941168 1.026429534 -0.1720541865 -0.4532376826 -0.6342138648
-0.1597056091 -0.1059180275 1.031114221 -0.2853780687 -0.4205174446 -0.518063128
-0.1652377099 -0.09758466482 1.049007297 -0.6127130389 -0.3420868814 -0.1240872145
-0.1631317288 -0.1009412557 1.040877342 -0.471608609 -0.367035836 -0.3039356768
-0.1610364616 -0.105457224 1.02436924 -0.2258860916 -0.3605099022 -0.673625648
-0.1543081999 -0.1077825353 1.058499813 -0.5270395875 -0.6639975309 0.1135336384
-0.1587230861 -0.1090061888 1.016427517 -0.08325754106 -0.3915975094 -0.8487811685
-0.1683656871 -0.09311877191 1.057363987 -0.7757714987 -0.2911860943 0.05879131705
-0.1646754593 -0.09732781351 1.055088162 -0.6782740355 -0.3794691861 0.0148443561
-0.1640903205 -0.1013089865 1.031012058 -0.3661147356 -0.3051712811 -0.5294263959
-0.1658177376 -0.0951467976 1.062077284 -0.7870795727 -0.3755410612 0.1708345115
-0.1608588248 -0.1014041603 1.054715991 -0.6022277474 -0.4781541526 0.01428675186
-0.1569716483 -0.1042840555 1.063438535 -0.638646543 -0.6125505567 0.2199307531
-0.1577145457 -0.106792219 1.039882541 -0.3578363359 -0.5053687096 -0.315294385
-0.1700377613 -0.09223885834 1.051043749 -0.7279750109 -0.2238137126 -0.08785307407
-0.1610596478 -0.1024407148 1.045782328 -0.4942164421 -0.439627111 -0.1885310262
-0.1616183221 -0.09979848564 1.060476065 -0.6884972453 -0.479686439 0.1432214379
-0.157490015 -0.1054493189 1.051187634 -0.4950720072 -0.5533466339 -0.05870097503
-0.1829939187 -0.1294193715 1.01640439 -0.0170489382 -0.2490475774 -0.9608340859
-0.1885430366 -0.1297607571 1.01875186 -0.06298853457 -0.2396732718 -0.9657228589
-0.18813546 -0.1203453913 1.015301228 -0.04233383015 -0.3207780421 -0.9393553138
-0.1918781102 -0.1240492538 1.018351793 -0.08721712977 -0.2862728834 -0.9521675706
-0.1858901083 -0.1397188604 1.021624565 -0.03642197326 -0.1456773579 -0.9874367118
-0.1889103055 -0.1343337446 1.022953868 -0.04510849714 -0.1913112253 -0.9800481796
-0.1710972488 -0.1166000664 1.01612401 -0.01154031605 -0.3334488571 -0.9397152662
-0.1762638837 -0.1145665795 1.014457703 -0.005807395559 -0.3531123698 -0.9317095876
-0.2105423659 -0.06842452288 1.010940671 -0.2262895852 -0.1407234967 -0.9629163742
-0.2070845515 -0.07582756132 1.005846977 -0.2445293665 -0.1060955301 -0.9560735226
-0.2050876468 -0.06889732927 1.005942464 -0.2295563668 -0.2117296159 -0.9449759722
-0.2008517385 -0.07172621787 1.004596233 -0.2258562297 -0.2436350435 -0.9395365119
-0.1717918068 -0.04902471602 0.9855331779 -0.492985934 -0.04779421166 -0.8443692923
-0.1676929146 -0.04559985548 0.9828855395 -0.3995898962 0.0306686461 -0.9068194628
-0.1681320816 -0.0543272011 0.9854112864 -0.4269777834 -0.1179374233 -0.8489167094
-0.1617479622 -0.04722753912 0.9804247618 -0.2987582386 0.04451419786 -0.9375026822
-0.1641634107 -0.06030992419 0.9850181341 -0.3732516468 -0.1890671998 -0.8362331986
-0.1625338048 -0.05569516867 0.9830156565 -0.3335186243 -0.1012022793 -0.8771097064
-0.1532121897 -0.05243761465 0.9775856137 -0.1640675962 0.01830512844 -0.9601275921
-0.173311621 -0.06127623841 0.9897664189 -0.5339756608 -0.2694213688 -0.7692969441
-0.19631356 -0.05976524949 0.9997099042 -0.3765574992 -0.2965500355 -0.8688095212
-0.2003143728 -0.06352080405 1.003066301 -0.2921297848 -0.2765693963 -0.9078092575
-0.195941478 -0.06580472738 1.001237869 -0.3210255206 -0.2963463664 -0.8929741979
-0.1955935657 -0.07390513271 1.002708673 -0.2337423712 -0.2869548202 -0.927472353
-0.1936495155 -0.07088153809 1.007519603 -0.2266687453 -0.2919495702 -0.9237889647
-0.1877028793 -0.07754746825 1.00999999 -0.1896662861 -0.2826189101 -0.9339788556
-0.03456281126 -0.1477662325 1.087702274 -0.1549711525 0.1120533943 -0.981091857
-0.03264604881 -0.1252559423 1.089984536 -0.1453774124 0.03130341321 -0.9888532758
-0.03827272356 -0.1287218034 1.091457963 -0.1406697482 0.04378802329 -0.9889879823
-0.04192955792 -0.132784009 1.093171 -0.1345649362 0.05328735337 -0.9893778563
-0.03567001969 -0.1326787472 1.088861465 -0.1433878094 0.0468730405 -0.9884195924
-0.03505786508 -0.1379032433 1.09158051 -0.1440863907 0.06215168908 -0.9875856638
-0.02817024104 -0.1276665479 1.090407968 -0.1457060277 0.03142092377 -0.9886424541
-0.01174682844 -0.1031309068 1.090022087 -0.214127183 -0.1882369965 -0.9581374526
-0.01433104556 -0.09118618071 1.080683351 -0.302138567 -0.180547744 -0.9339012504
-0.01586949639 -0.1023166329 1.086179018 -0.2562236488 -0.1522642076 -0.9531388879
-0.0763014853 -0.1640863568 1.091697097 -0.02692780644 0.1257203966 -0.9917001724
-0.07010824233 -0.1721607894 1.089027405 -0.05974002555 0.177751109 -0.9822604656
-0.1501946002 -0.03487186134 0.9723742008 -0.1067917719 0.1655576378 -0.9704750776
-0.1436295062 -0.0350917764 0.9696885347 -0.03917257488 0.1675167829 -0.9774419665
-0.1565553248 -0.03322707117 0.9748079181 -0.1643224955 0.1709951758 -0.9629765153
-0.1555115432 -0.04373565316 0.9756126404 -0.2119731158 0.117643021 -0.9695599079
-0.1600791812 -0.02799252607 0.9757118225 -0.1775624901 0.1727822572 -0.9623704553
-0.1478683054 -0.03007888794 0.9708753824 -0.05786301196 0.1818492711 -0.9727227688
-0.1373530477 -0.03317295015 0.9677695036 0.05880278349 0.1709163189 -0.9794684649
-0.1338136345 -0.04181854427 0.9712804556 0.1472663134 0.08776396513 -0.9728593826
-0.1350948513 -0.04745295271 0.972117722 0.1407920718 0.06902171671 -0.9819921255
-0.1301560253 -0.0442709364 0.9744582176 0.2344767153 0.02834153175 -0.9603559971
-0.1298646778 -0.02436683699 0.973407805 0.1281305403 0.2908829749 -0.9298001528
-0.1230949163 -0.02480950765 0.9753060341 0.2638985515 0.1565449089 -0.9430243969
-0.1339099556 -0.03595842794 0.970813632 0.1366808861 0.1198782548 -0.9697222114
-0.1261878461 -0.02897327393 0.974226892 0.2314123213 0.1373250037 -0.9507808089
-0.1285917461 -0.0375918895 0.9746319056 0.2366349995 0.07173474878 -0.9559289217
-0.1308668852 -0.03103281744 0.9716638327 0.1623069644 0.1470390856 -0.9625102878
-0.1676201224 -0.1358859539 1.021227837 -0.03111238405 -0.2049789429 -0.9779980779
-0.1638419777 -0.1321085095 1.019306064 -0.02053166926 -0.2282548249 -0.9725250006
-0.1574475914 -0.1304824054 1.02054131 -0.02069861442 -0.2381902933 -0.9706273079
-0.1556538343 -0.1243623495 1.017962694 -0.009537250735 -0.2687399089 -0.9631230235
-0.1761139333 -0.1176836714 1.038244128 -0.2502408922 -0.4416346848 -0.4823385775
-0.1735188216 -0.1197362244 1.043727636 -0.3052559495 -0.4770925045 -0.3274345696
-0.1814229786 -0.1193273365 1.027557492 -0.1339658052 -0.329938978 -0.7960671782
-0.1789017618 -0.1188531965 1.032660365 -0.1889882684 -0.3809286058 -0.6469142437
-0.1833167821 -0.1246756315 1.024178624 -0.08945218474 -0.258182168 -0.9053930044
-0.1684040427 -0.06257728487 0.9768167138 -0.4970423281 -0.1448166966 -0.8530301452
-0.1755619794 -0.06800404191 0.9869462848 -0.5476350784 -0.3114255369 -0.7672823668
-0.1766984016 -0.06262429059 0.9844383001 -0.5397081971 -0.2411260158 -0.8008342981
-0.1724902093 -0.0602203086 0.9803737998 -0.5495634675 -0.1451711208 -0.8217617273
-0.1836568862 -0.05869537219 0.9889771938 -0.4921040833 -0.2488791794 -0.829415381
-0.188801527 -0.0798298046 1.001355171 -0.1977881938 -0.2815521359 -0.9261407256
-0.1879905164 -0.07470543683 0.9986643195 -0.2702259719 -0.3409087658 -0.8969712257
-0.188858673 -0.1134183034 1.013283014 -0.0327668786 -0.3877241611 -0.9172084332
-0.1804501861 -0.08931697905 1.053381205 -0.7612751722 -0.1458807886 -0.01718465984
-0.1816092134 -0.09140884876 1.060418844 -0.8420627117 -0.07955859601 0.1772814691
-0.1839942783 -0.09152046591 1.049939275 -0.6794663072 -0.1176343113 -0.07213546336
-0.1907812804 -0.09342426062 1.029561043 -0.3411753178 -0.1599518061 -0.5361493826
-0.1799825877 -0.09107084572 1.066007018 -0.9324163795 -0.06449270993 0.3068145216
-0.1898319721 -0.09354636818 1.03472352 -0.4189520776 -0.1378642917 -0.4110773802
-0.1874660552 -0.09307526797 1.042973518 -0.5519798398 -0.1150967926 -0.2194938064
-0.1394421309 -0.04347553104 0.9776362181 0.07840034366 0.0998153463 -0.9808119535
-0.1295707971 -0.04315840453 0.9809280038 0.2719802856 0.06607457995 -0.9574674964
-0.1294770092 -0.04915962368 0.9796224833 0.254350543 0.03014600091 -0.9537817836
-0.1478796899 -0.02432495728 0.9854416847 -0.07122112811 0.3014482558 -0.9341263771
-0.1479367018 -0.0296718888 0.9829509258 -0.04597572982 0.2370576859 -0.9509930015
-0.1390255541 -0.02845982276 0.9841557741 0.097477898 0.2456045896 -0.9445551038
-0.1574855894 -0.02337622829 0.9837870598 -0.119597055 0.3374644816 -0.9271954298
-0.1437485665 -0.01522100717 0.9899718165 -0.04648201913 0.40835464 -0.9042176604
-0.1485874653 -0.01832714304 0.9877153635 -0.07365972549 0.3801755309 -0.9131952524
-0.1609540284 -0.03539349139 0.981353581 -0.2371132076 0.1568578333 -0.9540782571
-0.1340427697 -0.03538396209 0.9815011621 0.2111406475 0.1577999145 -0.9632647038
-0.1406068504 -0.03782695159 0.9810189605 0.09318295121 0.1278257817 -0.963570416
-0.150128752 -0.04236071929 0.9815552235 -0.0826228112 0.07373280823 -0.9438501
-0.152488485 -0.03633598983 0.9811803699 -0.1123915315 0.1553088427 -0.9566867352
-0.1641161889 -0.04201155156 0.9818451405 -0.3273456991 0.0874042958 -0.9322602153
-0.1459472477 -0.03620515391 0.9810239077 0.002621181076 0.1528234482 -0.9628360271
-0.1465487182 -0.04411848262 0.9764214754 -0.06164848432 0.110597983 -0.9823982716
-0.1582190543 -0.02973205782 0.981757462 -0.1640288234 0.2472343445 -0.9498735666
-0.01394520793 -0.1089198738 1.08807683 -0.1614800394 -0.1457321197 -0.9744432569
-0.01649876125 -0.1149538681 1.090272665 -0.1160775945 -0.08491953462 -0.9886645675
-0.02563844249 -0.1113753021 1.090055227 -0.1172671318 -0.09469103813 -0.9881877303
-0.02115529962 -0.1071818173 1.087280512 -0.1283999532 -0.1221028045 -0.9839944243
-0.1310684383 -0.020047931 0.9779683948 0.07567511499 0.4602873921 -0.8782949448
-0.1372004449 -0.02206503227 0.9760805368 0.03530600667 0.3957339823 -0.9004986882
-0.1441465169 -0.02088065818 0.9778387547 -0.02223275974 0.436709404 -0.8769795299
-0.147358343 -0.01781832799 0.9817617536 -0.05558285117 0.529031992 -0.8358243704
-0.1428189725 -0.02500163764 0.9721280932 -0.004337787628 0.3334595561 -0.9186064005
-0.1530251503 -0.02566407621 0.9782311916 -0.1007611454 0.3868299127 -0.9088674784
-0.1534903944 -0.01813910156 0.9806395769 -0.1105170473 0.5646188855 -0.8112360239
-0.1476345509 -0.0250879731 0.9747985601 -0.04982047155 0.363989979 -0.9100946188
-0.1571640819 -0.1300402284 1.026905775 -0.08328635991 -0.283526212 -0.831738174
-0.1574341953 -0.1272481382 1.033268452 -0.159399569 -0.3580387235 -0.6406499743
-0.1622537971 -0.1268119067 1.036913872 -0.2035220414 -0.3844931424 -0.5475562811
-0.1656569988 -0.1322740167 1.02664876 -0.08114774525 -0.250915885 -0.8693358898
-0.1600057632 -0.1220663115 1.046225786 -0.3146253824 -0.5027458668 -0.2586045563
-0.1652620435 -0.1299597174 1.031579137 -0.1400610805 -0.3107587099 -0.7191392183
-0.1617311239 -0.1240839288 1.018377542 -0.003775055986 -0.2636504471 -0.9645516276
-0.1532122493 -0.1102243513 1.062947035 -0.5546060801 -0.6867992878 0.194284752
-0.1582567394 -0.1127685457 1.064014792 -0.5329707265 -0.7075653076 0.2669727802
-0.155704394 -0.1227917671 1.040761709 -0.2567178905 -0.4435376227 -0.4250724912
-0.1557169557 -0.1162552536 1.053903222 -0.4228019714 -0.5902448297 -0.04583547637
-0.1583846807 -0.1156967059 1.058291316 -0.4597076774 -0.6439046264 0.1029132083
-0.152064994 -0.1146750823 1.048652053 -0.3777526617 -0.5576356649 -0.1740574986
-0.1493550986 -0.1220343933 1.021430492 -0.04298027232 -0.3238552809 -0.8581740856
-0.1533091962 -0.1265131086 1.0269835 -0.09569045901 -0.3131963611 -0.7967345119
-0.1534024626 -0.1187833771 1.044707417 -0.3213151395 -0.4940781295 -0.3129281998
-0.1509497762 -0.1170426458 1.038933635 -0.2589123249 -0.476708442 -0.4149006903
-0.1533108801 -0.1232734844 1.034264088 -0.1885406673 -0.3881275356 -0.5971547365
-0.1525292844 -0.1162097305 1.033861041 -0.2039991021 -0.4538919628 -0.5246584415
-0.1541918069 -0.118498385 1.018183231 -0.01851209253 -0.3372871578 -0.9075633883
-0.1527867466 -0.1113641188 1.053460956 -0.4428492486 -0.6182395816 -0.03153438866
-0.1498726904 -0.1199088991 1.027751684 -0.1218681857 -0.3821777999 -0.6942886114
-0.1759555638 -0.138748467 1.020444036 -0.03416867554 -0.1816475242 -0.982619822
-0.1635251641 -0.116369985 1.060691833 -0.4885296226 -0.6586121917 0.1674346924
-0.1654269993 -0.125465259 1.04156208 -0.2598150074 -0.4262598753 -0.417203784
-0.1650667191 -0.1230394095 1.046720147 -0.3215854764 -0.4878391325 -0.2598184645
-0.1716578305 -0.1324074864 1.028777599 -0.1102461368 -0.2361464351 -0.8161761761
-0.170336619 -0.1284961253 1.036812901 -0.2059699297 -0.3374123275 -0.5697346926
-0.1633239537 -0.1190866381 1.054685593 -0.416190505 -0.591265738 -0.01479867566
-0.1767713875 -0.1286101043 1.035679221 -0.18775177 -0.3288075924 -0.5989464521
-0.1711188257 -0.1251038909 1.043209672 -0.2799224854 -0.4245658219 -0.3703455627
-0.1810174137 -0.1343376637 1.024288177 -0.05228361487 -0.1760744452 -0.9498490095
-0.1787250787 -0.1313735396 1.030200601 -0.1226782501 -0.255186975 -0.76782161
-0.1803529561 -0.1265875846 1.030611277 -0.1464820951 -0.3013007045 -0.7304293513
-0.1845396459 -0.1305783689 1.022557378 -0.0493423976 -0.1949915439 -0.9774233103
-0.1696128994 -0.1196032763 1.051842093 -0.385638237 -0.551853478 -0.0972995311
-0.1916737854 -0.0850186348 1.004166365 -0.1017037854 -0.1947701573 -0.9677778482
-0.1911788881 -0.09120830894 1.005792499 -0.02313511632 -0.2016013861 -0.9761754274
-0.1794731766 -0.08283725381 0.9993402362 -0.2980190516 -0.3746117949 -0.8321782947
-0.1823899597 -0.09070270509 1.00364387 -0.1217403784 -0.3283055127 -0.9092890024
-0.1846081018 -0.08413884044 1.001952529 -0.1978484392 -0.3465609848 -0.9002502561
-0.1700427979 -0.1047637463 1.010652304 -0.009924411774 -0.3471718132 -0.9375852346
-0.1768073887 -0.109584108 1.011714339 -0.004196131136 -0.3776478469 -0.9249258637
-0.1833624393 -0.1069220304 1.009472013 0.005415751599 -0.3873894215 -0.9205776453
-0.1716786772 -0.1108819321 1.012953401 -0.00899228733 -0.3565373719 -0.9338653684
-0.1643224657 -0.108674854 1.013259411 -0.02391964383 -0.3591051102 -0.9328967929
-0.1654834449 -0.1032901108 1.019222379 -0.1543081403 -0.3292647898 -0.778000474
-0.1678130925 -0.09625720978 1.040747046 -0.5458187461 -0.257365942 -0.3137707114
-0.1698280573 -0.09366166592 1.045655012 -0.6341406703 -0.2352649271 -0.2041798383
-0.1663435549 -0.1012604237 1.024940848 -0.2581676841 -0.3092355728 -0.6540594101
-0.1772797406 -0.1001172811 1.007019043 0.01044231281 -0.3489436507 -0.9368970394
-0.1729360819 -0.09557884932 1.007000089 -0.01485673152 -0.3686973453 -0.9291911721
-0.1717187315 -0.08224932849 0.996743083 -0.2737036645 -0.3492552042 -0.8486942649
-0.1758526117 -0.07312797755 0.9917239547 -0.4852729142 -0.3730596006 -0.7693923116
-0.1662721038 -0.06945592165 0.9807712436 -0.3997036815 -0.1963757724 -0.8756713271
-0.167534098 -0.07446428388 0.986332655 -0.3371629715 -0.2418093383 -0.8758063316
-0.1578938514 -0.06821451336 0.9786074758 -0.1729346216 -0.07176251709 -0.9715691805
-0.1767778695 -0.08660168201 1.002170324 -0.2081929594 -0.3874463141 -0.8603696823
-0.1776436865 -0.07748617977 0.9963054657 -0.4187912345 -0.4028849304 -0.7800701857
-0.1684093922 -0.07461246103 0.9921818376 -0.2926949263 -0.2643852532 -0.8621095419
-0.1628334522 -0.06475712359 0.9806600809 -0.3176294565 -0.1328355074 -0.8989035487
-0.1668645889 -0.08710175008 0.9992985129 -0.08960387856 -0.2974545956 -0.9222593307
-0.1637293845 -0.07754402608 0.9900997877 -0.1590406448 -0.2051433176 -0.929764688
-0.1671015024 -0.06590780616 0.9851491451 -0.3867531717 -0.204329446 -0.8497560024
-0.1644496024 -0.08241888881 0.9940276742 -0.1061214954 -0.2385864258 -0.9368348122
-0.1624395549 -0.07186486572 0.9851320386 -0.2117131054 -0.159186542 -0.9271179438
-0.1687512547 -0.09311464429 1.005011082 -0.04421264306 -0.3541981578 -0.9186008573
-0.1757968366 -0.06762173772 0.9940648675 -0.5238587856 -0.3408074081 -0.7559429407
-0.1751558036 -0.08395072818 1.006591082 -0.1583843231 -0.3408286273 -0.9035091996
-0.1673422307 -0.1006529108 1.014317513 -0.06869167835 -0.3321637511 -0.8653742671
-0.1699439734 -0.09514435381 1.035057306 -0.4427745044 -0.2639615834 -0.4242375195
-0.1687348634 -0.09792850167 1.030691266 -0.3621534705 -0.2827843726 -0.5243142843
-0.1696460545 -0.09546244144 1.025328875 -0.2699129581 -0.2897253036 -0.6211041808
-0.174286589 -0.08793188632 1.028044462 -0.3700620234 -0.2778414488 -0.5589843392
-0.1716004759 -0.0929588303 1.012479663 -0.0777965486 -0.3276617825 -0.8877466321
-0.1758326888 -0.08643394709 1.012719512 -0.1341361254 -0.3253304064 -0.8805779219
-0.1715319604 -0.09147928655 1.040059805 -0.5359564424 -0.2411842942 -0.3076196909
-0.1734596789 -0.08820022643 1.045512438 -0.65054667 -0.2233632207 -0.1919536144
-0.1725110114 -0.09121845663 1.018388271 -0.1873931438 -0.3087902963 -0.7630004287
-0.1722318083 -0.09088147432 1.031726718 -0.4059274197 -0.267059356 -0.4825596809
-0.1681052893 -0.0981028825 1.009449363 0.003258092096 -0.343583405 -0.938988924
-0.1642139256 -0.1035102159 1.010550022 -0.0211394541 -0.3641867638 -0.93083179
