# .PCD v0.7 - Point Cloud Data file format
VERSION 0.7
FIELDS x y z normal_x normal_y normal_z
SIZE 4 4 4 4 4 4
TYPE F F F F F F
COUNT 1 1 1 1 1 1
WIDTH 512
HEIGHT 1
VIEWPOINT 0 0 0 1 0 0 0
POINTS 512
DATA ascii
-0.09241268039 -0.03477909788 1.096388817 0.351359725 0.1518818736 0.9238388538
-0.08842027932 -0.03051430732 1.094591498 0.351359725 0.1518818736 0.9238388538
-0.1925276071 0.02440900356 0.988466084 -0.1592199206 -0.2595127821 0.9520554543
-0.1831579506 0.02698639408 0.9908542037 -0.1510332227 -0.2647899389 0.9514834881
-0.1857647449 0.03247188404 0.9938239455 -0.1358672529 -0.3085747361 0.9412831068
-0.1964037418 0.02843129635 0.992087543 -0.1635255367 -0.3050867319 0.9376818538
-0.150949806 0.01243687142 0.9909562469 -0.2291028053 0.04344049841 0.9680393338
-0.1487106234 0.008742227219 0.9946793914 -0.2523201108 0.03932400793 0.9644762874
-0.1583486795 0.0002430482855 0.9901413321 -0.3096110225 0.02545962669 0.948385179
-0.1617299318 0.003386161989 0.985665977 -0.2902470231 0.02852290124 0.9506282806
-0.155536443 0.005155251361 0.9903204441 -0.277222991 0.03265307471 0.9562128782
-0.1677052379 0.01332931407 0.9871182442 -0.2685285211 -0.04026294127 0.9608594179
-0.1536962092 0.01862649806 0.9875210524 -0.1967656314 0.03727104887 0.97464782
-0.1586497426 0.01495517325 0.9870976806 -0.2297037989 0.01540908776 0.9673956633
-0.1652829498 -0.0009938057046 0.9848074913 -0.3202122748 0.02020747215 0.9431028962
-0.1655091494 0.007660043426 0.9861661196 -0.2846150398 -0.008035047911 0.9544306397
-0.1477661431 -0.1331555843 1.101237655 0.1869807541 -0.5663715601 0.8026589751
-0.1581323296 -0.1354913861 1.096966028 0.1869807541 -0.5663715601 0.8026589751
-0.1499997973 -0.1284432411 1.099258184 0.1781064421 -0.5474998355 0.8169928193
-0.1443918794 -0.1321614385 1.096276283 0.1859765351 -0.5642360449 0.8042809963
-0.1520062089 -0.1339579821 1.096680999 0.1864531785 -0.5652496815 0.8035111427
-0.2284582704 -0.05238426477 1.079968452 -0.9331522584 -0.3347405791 0.03817238286
-0.2336675525 -0.05528188497 1.08012569 -0.8189498782 -0.4555903673 0.1976739019
-0.1443134099 -0.1215064824 1.103232741 0.1752646267 -0.5414565206 0.821582973
-0.1516184062 -0.124665387 1.103164077 0.1804120988 -0.5524029732 0.8132687211
-0.08149276674 -0.04225493595 1.091621876 0.351359725 0.1518818736 0.9238388538
-0.08562312275 -0.0377904512 1.093350291 0.351359725 0.1518818736 0.9238388538
-0.08794485778 -0.03858613968 1.098369122 0.351359725 0.1518818736 0.9238388538
-0.2021300048 0.023670258 0.9931201339 -0.1578133106 -0.2549455464 0.9539650083
-0.2056511939 0.02400279045 0.9886110425 -0.1606224328 -0.2715629637 0.9483848214
-0.1468102485 0.01988155209 0.9931522608 -0.1866378486 0.06932651252 0.9790961146
-0.1359760761 -0.1294772029 1.094958425 0.1735492647 -0.5580870509 0.8111290932
-0.1397487819 -0.1261066645 1.098269224 0.1768791229 -0.5444526076 0.8192618489
-0.1308502108 -0.1259109676 1.0912534 0.1694926172 -0.5227072835 0.8351503611
-0.1705798507 -0.1344988495 1.103092074 0.1869807541 -0.5663715601 0.8026589751
-0.179708302 -0.136686787 1.104755282 0.1869807541 -0.5663715601 0.8026589751
-0.1757277995 -0.1325189024 1.106536508 0.1869807541 -0.5663715601 0.8026589751
-0.1744861454 0.02212476172 0.9877893925 -0.1272988766 -0.1968707442 0.9694142938
-0.168522343 0.01903392188 0.9879539013 -0.2238516062 -0.05627750605 0.9707834721
-0.2705028057 -0.01569918729 1.010166883 0.3299903274 0.1801267713 0.9232535958
-0.2648485303 -0.01205641031 1.004643917 0.3588069081 0.2319819331 0.9009301662
-0.1193139106 -0.09733893722 1.107838511 0.03635187447 -0.09459137172 0.9846519828
-0.1298812479 -0.1089126989 1.105606675 0.0600200519 -0.3396781683 0.9352926612
-0.1028473899 -0.08495517075 1.112000108 0.1450238377 0.1020061746 0.9833995104
-0.1050998941 -0.06990884244 1.112000108 0.2282589823 0.1349045634 0.9634417295
-0.08956661075 -0.04886544123 1.102509379 0.351359725 0.1518818736 0.9238388538
-0.0906066373 -0.04220173135 1.101707816 0.351359725 0.1518818736 0.9238388538
-0.08646862954 -0.04601592198 1.0965662 0.351359725 0.1518818736 0.9238388538
-0.08703251183 -0.05444384366 1.100990534 0.351359725 0.1518818736 0.9238388538
-0.09152932465 -0.05618273094 1.103275776 0.3358675539 0.1502498835 0.9289267659
-0.09975510091 -0.05373237282 1.104454875 0.3502180278 0.1517616063 0.9242138267
-0.241401583 -0.05079958215 1.075789571 -0.6746863127 -0.6299797297 0.3270464838
-0.2350740582 -0.05008935928 1.078253508 -0.8794913292 -0.4461778104 0.138600871
-0.2321887612 -0.05074004456 1.071596742 -0.8447640538 -0.4634602666 0.1042783186
-0.2370820045 -0.04440969601 1.073465824 -0.8037151098 -0.5447781086 0.15509592
-0.2395127863 -0.09420643002 1.028591394 -0.2099747509 0.3936768472 0.8940089345
-0.08145722747 -0.04760119691 1.092379928 0.351359725 0.1518818736 0.9238388538
-0.1619915664 -0.1280636042 1.106608748 0.1869807541 -0.5663715601 0.8026589751
-0.1568332165 -0.1329169869 1.102688193 0.1869807541 -0.5663715601 0.8026589751
-0.1565768123 -0.1274264306 1.103351712 0.1869807541 -0.5663715601 0.8026589751
-0.1672917157 -0.1356929243 1.097903728 0.1869807541 -0.5663715601 0.8026589751
-0.1659428775 -0.1318684667 1.104719996 0.1869807541 -0.5663715601 0.8026589751
-0.2655800581 -0.01876818202 1.003048539 0.3250754774 0.1938980967 0.9220999479
-0.2734226286 -0.02472104132 1.006299615 0.3009263873 0.1389796585 0.9422754645
-0.1599782407 -0.002254681429 0.9959807396 -0.3542812765 0.06415291131 0.931610465
-0.1633052826 -0.003860058496 0.9918116927 -0.3554714322 0.04427315667 0.932462275
-0.1671230644 -0.005848683883 0.9866928458 -0.3573577702 0.0233197473 0.9331648946
-0.1733787805 -0.008682982065 0.9847050309 -0.3217847347 -0.03744183481 0.9436240196
-0.1763319969 -0.003470568452 0.9847673178 -0.2834692299 -0.05818539113 0.9519348145
-0.1695367396 -0.004446691833 0.9923176169 -0.3318969309 -0.02455521561 0.941816926
-0.1944719702 0.01990268379 0.9926950336 -0.1482302994 -0.2513082623 0.9561894536
-0.1765502691 -0.006142951082 0.9895548224 -0.3175488412 -0.05206012726 0.9448964
-0.2228784859 -0.06955718994 1.02208209 -0.1911242753 0.4381933212 0.8776420951
-0.2266542166 0.01121673733 0.9831569791 0.2027577907 -0.1233593002 0.9362276196
-0.2181636542 0.01827562414 0.9780053496 -0.03424984217 -0.2204960138 0.9725651145
-0.2224984467 -0.0710715428 1.02713728 -0.2818371058 0.4187589586 0.8427172899
-0.2201588005 -0.0776745528 1.024029016 -0.2111010253 0.4227843285 0.8806521893
-0.2804071903 -0.04051846266 1.008484483 0.2394894511 0.1825345159 0.9502823949
-0.2685189843 -0.04157902673 1.007389665 0.190552488 0.2347474098 0.9502519965
-0.2745197117 -0.04675881937 1.010048509 0.1868423969 0.2517096996 0.9472104907
-0.2736292779 -0.0398872532 1.007404804 0.2177326381 0.2029357404 0.9509260654
-0.1554796249 0.02498723753 0.9874155521 -0.161159575 0.03071172349 0.9813731909
-0.1604190767 0.02282249928 0.9875515103 -0.1858285367 0.00288726599 0.9775839448
-0.1576309353 0.03058115207 0.989694953 -0.09299759567 0.0009454703541 0.9881094098
-0.1712732464 0.02813005075 0.9920099378 -0.1145316139 -0.09228374064 0.983964324
-0.1646826863 0.02680893056 0.989593327 -0.1303007603 -0.02291168272 0.9862747788
-0.1506663263 0.02059698291 0.9975420833 -0.1690367758 0.07504011691 0.9826179743
-0.1516809016 0.02778260037 0.9934492707 -0.1434359699 0.07036608458 0.9870010614
-0.1475156844 0.02627887204 0.9899264574 -0.1424798071 0.06542412192 0.9875379801
-0.121103324 -0.1084915102 1.100033164 0.0903666392 -0.2454578131 0.9277950525
-0.1246337518 -0.1215860769 1.095634341 0.1259947568 -0.4424107969 0.8799335957
-0.1244292557 -0.1071131453 1.105414629 0.03915203363 -0.3005983531 0.9433521628
-0.1194221154 -0.1033158824 1.102843761 0.06788128614 -0.1700572819 0.9516769052
-0.1256484091 -0.1126126871 1.100474238 0.08029858023 -0.362213105 0.9115893245
-0.1257341057 -0.1162805855 1.096134543 0.117719762 -0.3879392743 0.8880289793
-0.1033208296 -0.0635439977 1.108799458 0.2834069431 0.1445865929 0.9463353157
-0.1091788411 -0.07940451056 1.108384132 0.1313074082 0.1022814438 0.9812816978
-0.1066012457 -0.07433065772 1.10688746 0.1902416646 0.1162508726 0.9683049321
-0.1165265813 -0.09113087505 1.111973286 0.04840061069 -0.03316994384 0.993157506
-0.109924227 -0.08560074866 1.107875347 0.08839777857 0.08699368685 0.9916101694
-0.1109255478 -0.09291413426 1.112000108 0.06957532465 -0.0002037085651 0.9963620305
-0.1058725864 -0.09788849205 1.112277508 0.06420820951 -0.009786974639 0.9965907335
-0.09917998314 -0.06752802432 1.104711413 0.2830332518 0.1419143528 0.9477673173
-0.09666275233 -0.09802941978 1.105967879 0.1178109869 0.01317535527 0.992025435
-0.0991500169 -0.09152500331 1.105873823 0.1372922212 0.06198014319 0.9857177734
-0.09037226439 -0.08677701652 1.104466081 0.1948789805 0.09600027651 0.9731047153
-0.09311342984 -0.09257891774 1.10464263 0.156405434 0.05651143193 0.9816812873
-0.09943256527 -0.08502138406 1.106324434 0.1670165509 0.105369918 0.9789764285
-0.2271751463 -0.06106499955 1.07109344 -0.9427345991 -0.3281311691 0.0555797182
-0.2295306474 -0.05764727667 1.076232076 -0.9317537546 -0.3454811275 0.08116299659
-0.2473640889 -0.09619344771 1.029311538 -0.170835495 0.3884248734 0.9041928053
-0.2421824783 -0.100781247 1.030578732 -0.2015152276 0.3955302238 0.8951927423
-0.1014740244 -0.06008581445 1.104916215 0.3203763366 0.1477556825 0.9351441264
-0.09526757151 -0.06039722636 1.100837588 0.3236286044 0.1500360668 0.9338871241
-0.09446228296 -0.03749823198 1.103693843 0.351359725 0.1518818736 0.9238388538
-0.09552199394 -0.0434497036 1.098953366 0.351359725 0.1518818736 0.9238388538
-0.09774190187 -0.0484184809 1.101833105 0.351359725 0.1518818736 0.9238388538
-0.09568514675 -0.05374753848 1.09965229 0.351359725 0.1518818736 0.9238388538
-0.1409460902 -0.1306591332 1.101187468 0.1866910905 -0.5659549236 0.8029937744
-0.2772684395 -0.04219197854 1.013501883 0.2438465357 0.169979021 0.9540877938
-0.2812205255 -0.02669193968 1.013306379 0.2941727638 0.1367708147 0.9455428123
-0.2819735408 -0.03705016151 1.014464021 0.2809084654 0.1745420694 0.9429515004
-0.2820718884 -0.03350185603 1.007154226 0.2759077251 0.1427227557 0.9504668117
-0.2793180645 -0.02380825207 1.008661032 0.3066625297 0.1383842528 0.9412611127
-0.2750785947 -0.01764026657 1.013328314 0.3127650917 0.1400497258 0.9393911958
-0.2807146311 -0.01955461316 1.014741659 0.3163089156 0.1327030361 0.9392219186
-0.1789277494 0.008437879384 0.9923139811 -0.2758721709 -0.1267896742 0.9468697309
-0.1740968674 0.002449020278 0.9922438264 -0.3262101114 -0.06250048429 0.9411194324
-0.1804185361 -0.0008032851038 0.9898731709 -0.2811946273 -0.07610372454 0.9510955215
-0.1882638037 0.004474612419 0.988889575 -0.2072671056 -0.154588297 0.9618703127
-0.188024953 0.01008153427 0.9911291003 -0.2032801956 -0.1688548326 0.9564349651
-0.1495739073 0.01426892169 0.9979242682 -0.2056797594 0.06291504204 0.9752009511
-0.1562932134 0.02682711557 0.9979242682 -0.1452514827 0.05643453822 0.9870325923
-0.1562642753 0.01951954141 1.000905395 -0.1604872048 0.02309792675 0.9854557514
-0.1515569091 0.00360642164 0.9985173345 -0.2882326543 0.04754989967 0.9548982978
-0.154563114 0.0003712257312 0.9941491485 -0.3129720986 0.03808200732 0.9478724003
-0.1587985903 0.008343247697 0.9984175563 -0.2705734074 0.02319446951 0.9599593282
-0.2596892118 -0.01892247982 1.005633235 0.3206671774 0.2222326994 0.9194383025
-0.2652926147 -0.02193009108 1.008202672 0.3034738004 0.1756587476 0.9354650378
-0.2593353391 -0.02456228249 1.004948616 0.2994523942 0.1977150142 0.9323387742
-0.2603015006 -0.01563242823 1.001099348 0.3394171298 0.2397918403 0.9073197246
-0.2333633155 0.008434312418 0.9793328047 0.2996897399 -0.03887659684 0.944177568
-0.2392108291 0.002285359195 0.9830816388 0.4454175234 0.07646567374 0.8848485351
-0.2296111584 -0.04364993423 0.9945753813 0.2209844738 0.2558827698 0.8786859512
-0.2260501385 -0.04092501849 0.988522768 0.2484451681 0.1427762657 0.8947883844
-0.222667098 -0.03538958728 0.9793468118 0.371899426 0.01288643759 0.8892079592
-0.2822189033 -0.04670602828 1.013930678 0.2533428371 0.212439701 0.9425819516
-0.247408554 -0.04773757234 1.005188942 0.2091762722 0.3608669043 0.8823408484
-0.2425793856 -0.04266846552 1.001633525 0.3837681413 0.3313592672 0.811968565
-0.2348771393 -0.05507491902 1.01946032 -0.1312891245 0.3178941011 0.8109681606
-0.2350002527 -0.05333452672 1.025059223 -0.2063285559 0.1902512461 0.7406362891
-0.2397885174 -0.0438414216 1.048452377 -0.4751836658 -0.364559263 0.4250974953
-0.2279006094 -0.06632076204 1.039261937 -0.60808599 0.2054003477 0.5864180923
-0.2294050157 -0.06174706295 1.034316778 -0.4728298187 0.1926325709 0.6455702782
-0.2405332625 -0.04378928617 1.055484414 -0.5873866081 -0.4735046923 0.3313549757
-0.2309546471 -0.06011136621 1.040410995 -0.5495399237 0.06872069091 0.5608522892
-0.230047226 -0.05709007382 1.022367358 -0.2251147628 0.2845837772 0.7989029884
-0.2376636863 -0.04874781147 1.051218629 -0.5808756948 -0.3135386109 0.396853745
-0.2276304513 -0.06298979372 1.025044918 -0.3407054842 0.3572322726 0.7724381685
-0.2341526747 -0.05171557143 1.034725666 -0.3552176356 -0.006204956677 0.6237603426
-0.2335554361 -0.05505956337 1.04224813 -0.5162629485 -0.05617446452 0.5279026031
-0.2342943847 -0.05513546988 1.048267841 -0.6129643917 -0.146087423 0.4469703138
-0.2372358143 -0.04810322449 1.045548201 -0.4826927781 -0.239845708 0.4721601605
-0.2273966372 -0.06715171039 1.018661499 -0.1696524918 0.4503004551 0.8765169382
-0.1642924696 0.03205909953 0.9992198348 -0.09707389027 0.016914526 0.9945715666
-0.1651810855 0.03262496367 0.9929076433 -0.07038086653 -0.0819145143 0.9856266975
-0.1709141284 0.03341345862 0.9947968721 -0.06027998775 -0.1390277892 0.9836259484
-0.1588690132 0.03130145371 0.9954016209 -0.1158669591 0.03492612019 0.9916152358
-0.111019887 -0.09705723822 1.106977701 0.04745218903 -0.03032787703 0.9942568541
-0.1110949591 -0.102222614 1.10585773 0.05901761726 -0.09992414713 0.980168879
-0.1149878278 -0.1085101515 1.10477221 0.06267888844 -0.2096947432 0.9590069652
-0.1034419611 -0.1028227806 1.105167866 0.08135586977 -0.05751419812 0.9866207838
-0.1007840708 -0.1007982641 1.110026598 0.08401870728 -0.01677346043 0.9948352575
-0.101304315 -0.09490468353 1.112020493 0.1005130932 0.03022105992 0.9940849543
-0.08485487103 -0.05289524049 1.095420122 0.351359725 0.1518818736 0.9238388538
-0.08539590985 -0.06257327646 1.101006866 0.351359725 0.1518818736 0.9238388538
-0.09017176926 -0.06286298484 1.103745699 0.325571835 0.1491653174 0.9323080778
-0.0863500312 -0.06807416677 1.102697849 0.3322917223 0.1478660107 0.931063354
-0.0922896564 -0.07196426392 1.106298804 0.2845342755 0.1412737817 0.9474962354
-0.08670354635 -0.07417800277 1.103651404 0.3023316264 0.1413977295 0.94257164
-0.1002779081 -0.07954019308 1.110528708 0.1933507472 0.1287428141 0.97176373
-0.0917154327 -0.07888338715 1.104870558 0.2392745465 0.1310799122 0.9616030455
-0.09533946216 -0.09092023969 1.110133767 0.162513271 0.05872089416 0.9832741618
-0.2290275544 -0.07291330397 1.058722258 -0.7200866938 -0.09968654066 0.3278028965
-0.2315227389 -0.0884521082 1.039933085 -0.3665415943 0.2624564171 0.7334601283
-0.2338301837 -0.09603806585 1.032400966 -0.2324211895 0.3994489312 0.8867236972
-0.219329983 -0.08046961576 1.029555678 -0.2298732549 0.4100200832 0.8826146126
-0.2226833552 -0.08771087229 1.030001402 -0.2369002849 0.4081785083 0.8815805912
-0.2246695161 -0.08481947333 1.036928296 -0.3244523704 0.3172803223 0.7817881107
-0.226223141 -0.07952530682 1.047819495 -0.5417693257 0.08820235729 0.5296692848
-0.2253706306 -0.06875803322 1.059136152 -0.778110683 -0.1650490314 0.250210911
-0.2216257006 -0.0758305639 1.04007864 -0.4022321105 0.2294578403 0.684091866
-0.2207975537 -0.07805872709 1.035024285 -0.3018383682 0.3351059258 0.8003341556
-0.2265710384 -0.08456943184 1.042379022 -0.4284126461 0.2095707357 0.6635798216
-0.2262754291 -0.07593482733 1.052501917 -0.6378301978 -0.01408541948 0.4169099629
-0.2216599733 -0.0712448284 1.044740677 -0.5257498622 0.1311352253 0.5573242903
-0.1358354688 -0.1122374907 1.105809927 0.1056883335 -0.4056024849 0.9013485312
-0.1318217516 -0.119743295 1.096301675 0.1390881538 -0.4679180682 0.8664383888
-0.1400963515 -0.1169745401 1.102975368 0.1453294456 -0.4828601182 0.8586043715
-0.1373174638 -0.1206113994 1.098307371 0.1610558033 -0.5092755556 0.8442151546
-0.133886084 -0.1163279563 1.100409031 0.1227070391 -0.440008074 0.8816146255
-0.1308347881 -0.1139175817 1.107766747 0.1072348356 -0.395891428 0.9077156186
-0.1205852479 -0.1190402433 1.101739287 0.08985347301 -0.3873024285 0.9146423936
-0.1310258508 -0.1255234778 1.097320557 0.1661236435 -0.5263792276 0.8332085013
-0.1317668706 -0.1250031143 1.104147911 0.1768539995 -0.5182782412 0.8357217908
-0.2695130408 -0.03603457659 1.010639787 0.2336471528 0.1184698194 0.964320004
-0.2738695443 -0.02497829869 1.012858629 0.281662792 0.130922839 0.9494292736
-0.2772128582 -0.03179196641 1.014251471 0.2670714557 0.1421690881 0.9518973827
-0.2550926805 -0.02884140238 1.0041008 0.2708354592 0.2399620116 0.9313454628
-0.2631436586 -0.03740410507 1.007734418 0.2248837203 0.166190818 0.9575625658
-0.2577133477 -0.0358264558 1.005360365 0.2254603505 0.22333543 0.9466614723
-0.264321506 -0.03106774203 1.007246137 0.2644353211 0.1507948786 0.950514853
-0.1779736429 0.03374902904 0.9954843521 -0.08058615029 -0.2248336673 0.9677482843
-0.1872088164 0.02704756148 0.996201992 -0.1332339048 -0.2083819211 0.9573726654
-0.1710088849 0.03140789643 0.9998479486 -0.08977416158 -0.03049773164 0.9865190387
-0.1638651639 0.02462056838 0.9991013408 -0.1382984519 0.0290956907 0.9870386124
-0.1592188776 0.01548282616 0.9984859824 -0.2009776831 0.02380862646 0.9782084227
-0.1634843051 0.01170489565 0.9953095913 -0.2593193054 0.0318810679 0.9640164375
-0.1544327289 0.01291696634 1.001085162 -0.2026630789 0.01369581558 0.9783049822
-0.1641535312 0.006250366569 0.9954863191 -0.3192715049 0.02893902361 0.94642061
-0.1755578071 0.0130176032 0.9922454953 -0.2733542919 -0.1397295743 0.9452444315
-0.1878703088 0.01549882069 0.9921522141 -0.189610824 -0.203682825 0.9550353885
-0.1892185509 0.02158627659 0.9922169447 -0.1456489861 -0.2534100413 0.9554022551
-0.1811892688 0.01626305468 0.9923943877 -0.2179845721 -0.1928303093 0.9480994344
-0.1736037284 0.02551464178 0.9961723685 -0.1490032673 -0.09920737147 0.9700852633
-0.1747407466 0.01972849295 0.9938240647 -0.2147980332 -0.1287622601 0.9562775493
-0.1790451705 0.02319620177 0.9936648011 -0.1715110689 -0.1836548448 0.9566736221
-0.1672099084 0.01621611044 0.9946730137 -0.2388681322 -0.01668520831 0.9651133418
-0.1696153283 0.007616627961 0.993252039 -0.323256582 -0.05366258696 0.9429501295
-0.1816680282 0.01238819677 0.9862500429 -0.1783895046 -0.1741761863 0.9677292705
-0.1835744679 0.006050460506 0.9854791164 -0.1909929961 -0.1333784312 0.9722808003
-0.1715018749 0.000759063405 0.9850345254 -0.3011597693 -0.05644780025 0.9439986348
-0.1738121957 0.008063165471 0.9860212803 -0.246555686 -0.1227045283 0.9540394545
-0.1777562201 0.002563183662 0.9851350784 -0.2488783151 -0.08876872063 0.9580925703
-0.1742295325 0.01396374125 0.9868634939 -0.2128518969 -0.1679510176 0.9597545266
-0.2497135103 -0.003281845711 0.9906779528 0.4421271086 0.1815169901 0.8725799322
-0.2545235455 -0.005110878032 0.9935910106 0.4138596356 0.2182487547 0.8785561323
-0.2599841058 -0.007465104572 0.9971490502 0.3849001527 0.2669470906 0.8821676373
-0.229136467 -0.05812148005 1.014286041 -0.1215740144 0.4312055707 0.8908228874
-0.2324427217 -0.05419892073 1.011739373 -0.03104547225 0.4404420555 0.8870677948
-0.2356241941 -0.03708525747 0.9992575049 0.5002758503 0.3318991065 0.7664645314
-0.2275110781 0.006623477675 0.9779065251 0.2344780415 -0.07403611392 0.9686437845
-0.2256764323 0.0001863988291 0.9777245522 0.2052721232 -0.05987270921 0.975815177
-0.2127061188 -0.02587403171 0.9780476689 0.2384013087 -0.1479143798 0.9282755852
-0.2246679515 -0.03363590315 0.989803791 0.4265085459 0.08734053373 0.8374255896
-0.2334774733 -0.04275749996 1.0006603 0.3373067379 0.3424935639 0.8051527143
-0.2287795544 -0.03554388508 0.9933854342 0.4698742926 0.1854985654 0.7957715392
-0.2209375054 -0.03391911834 0.985414207 0.3354150057 0.0006128071691 0.8940939903
-0.2310835719 -0.0481315963 1.001164794 0.09065181017 0.3333418667 0.9003526568
-0.2190283239 -0.03150114417 0.980711937 0.3888367116 -0.07200823724 0.8927280307
-0.222346127 -0.0296452716 0.9741874337 0.4878090024 -0.05774639919 0.8696924448
-0.2269389182 -0.03091727011 0.9792689681 0.5472537875 0.06737516075 0.8157095909
-0.2320574522 -0.0324106738 0.9887080193 0.6199246049 0.2043964118 0.7434656024
-0.2390148491 -0.05217873305 1.07019031 -0.7775939107 -0.5467590094 0.2072850764
-0.2350151688 -0.05693715811 1.070973873 -0.8411056995 -0.4667152166 0.1749768853
-0.2442019135 -0.047213424 1.071302533 -0.59654212 -0.7149235606 0.3359033167
-0.235628143 -0.06130160764 1.076797247 -0.7062652111 -0.5458934307 0.3297406137
-0.2395654023 -0.05630106479 1.075969696 -0.5721052885 -0.6767229438 0.4056469798
-0.2376864254 -0.0477178283 1.059803843 -0.6916512847 -0.473987788 0.250030309
-0.2241843045 -0.07287070155 1.034616232 -0.6147789359 0.4013410509 0.6586171985
-0.2320476174 -0.05711662024 1.053505301 -0.7041534781 -0.2007453144 0.3420038819
-0.2259660214 -0.06255966425 1.06462872 -0.9070022702 -0.2979527712 0.1072571129
-0.2259046435 -0.06733018905 1.046741128 -0.7188055515 0.09479235113 0.4403811097
-0.2410226911 -0.0425093919 1.062185049 -0.6700344682 -0.6062259674 0.2206893414
-0.2338103354 -0.0514847897 1.06575644 -0.8089203835 -0.5110743642 0.1216052398
-0.2290810198 -0.0590190962 1.061804175 -0.8334671855 -0.3110043705 0.1739476472
-0.2297718376 -0.06214309111 1.046255946 -0.6594478488 0.01249807701 0.4668598473
-0.2355740666 -0.05180160329 1.055295706 -0.67362535 -0.3246296346 0.3245322108
-0.2250291705 -0.06709721684 1.05222261 -0.7890163064 -0.004074645694 0.3342678547
-0.2441833466 -0.0372403115 1.066568732 -0.6450843215 -0.7310732007 0.2200543433
-0.2410410196 -0.039211303 1.071244359 -0.7058864236 -0.6649059057 0.21551314
-0.2729518712 -0.03227994591 1.006865382 0.2555565238 0.1405727118 0.956130445
-0.2678646147 -0.02636187524 1.006308556 0.2889539599 0.1434826255 0.9462964535
-0.2394038737 -0.03342122957 1.001930952 0.4597349465 0.3237885833 0.8214289546
-0.245389089 -0.03713386878 1.00444901 0.2623136044 0.3264244497 0.9062033892
-0.2515294552 -0.03575721383 1.004386067 0.2447113544 0.2781104445 0.927306056
-0.2551024258 -0.04288364574 1.006345987 0.1805210412 0.3106962144 0.9324713349
-0.2398196459 -0.03048700839 0.98735255 0.4701208174 0.1700498164 0.8402776718
-0.2509853244 -0.04137266427 1.002267003 0.2412585914 0.2922748625 0.9081619382
-0.2499512881 -0.0353141278 0.9991214871 0.2968344688 0.2379374057 0.905703783
-0.233027488 -0.02984529361 0.9835112095 0.602093935 0.1702915281 0.7699699998
-0.2407622188 -0.03542428836 0.992687583 0.4519053996 0.2347120345 0.8221434951
-0.241183266 -0.03754872084 0.9983474016 0.4795197248 0.2877875268 0.7883554697
-0.2382293493 -0.04568138719 1.005625129 0.1382357776 0.4328617156 0.8898108602
-0.2443119138 -0.04051120579 1.044013381 -0.3706711233 -0.3375143111 0.4563573897
-0.2423959821 -0.04743945971 1.015210271 -0.001872254768 0.2662121356 0.8234425783
-0.2448257208 -0.03879925609 1.050782681 -0.4567551315 -0.4808399379 0.3697386682
-0.2392137945 -0.05079672486 1.020660281 -0.1046867445 0.2321354449 0.7732640505
-0.2446760386 -0.04160084203 1.033753037 -0.2295439392 -0.1461218745 0.5814282894
-0.2426760197 -0.043460574 1.03881526 -0.3161360323 -0.1993855089 0.5296224356
-0.2398375273 -0.04827737063 1.031762362 -0.2479093075 0.002024858491 0.6323956847
-0.2420040071 -0.04632587731 1.025866866 -0.1485791206 0.06773839146 0.6936154962
-0.2392392755 -0.0520314835 1.012367249 0.006876724306 0.3929111362 0.8758171201
-0.2443614751 -0.04577662051 1.009157896 0.09768842161 0.3395192027 0.8876958489
-0.245353967 -0.04208928719 1.026078343 -0.1210360974 -0.009052990004 0.6742271781
-0.2532531023 -0.0443521291 1.02199471 -0.04102535546 0.07042400539 0.7660810947
-0.2554974258 -0.04588318989 1.014860988 0.06199780107 0.2088496983 0.8659695983
-0.2503719926 -0.04104214907 1.040195465 -0.2948268652 -0.2826481164 0.5261428356
-0.2495439649 -0.04434226081 1.016832113 0.01656964049 0.1704104692 0.810411334
-0.243637234 -0.05356592685 1.009269238 0.05561730638 0.4171164036 0.9066534638
-0.2356089652 -0.05086242035 1.006485343 0.04154786468 0.4276192188 0.9017890096
-0.2378276289 -0.06200043112 1.012699962 -0.05845783651 0.4175609946 0.9018468857
-0.2329143733 -0.06716518849 1.015251756 -0.1328554302 0.4326042831 0.8859187365
-0.2417709082 -0.06840515137 1.016684651 -0.09486735612 0.404563427 0.9057742953
-0.225370869 -0.07884903252 1.022791862 -0.2080071867 0.4278930128 0.8790209889
-0.2299442291 -0.09014263004 1.028573275 -0.2291358113 0.4045104086 0.8853098154
-0.2277511954 -0.09266074002 1.032767892 -0.2427791804 0.4057896733 0.8811004162
-0.1273302585 -0.1030922011 1.109519482 0.02314254455 -0.2441558689 0.9645776153
-0.1221190318 -0.1091536358 1.1134727 0.02779152989 -0.2679851055 0.9610589743
-0.1232834831 -0.1168940291 1.110862255 0.09639694542 -0.3818541169 0.9097159505
-0.1264141202 -0.1217668578 1.105651498 0.1591401398 -0.4759858847 0.8622562289
-0.1176910549 -0.1160704345 1.109933257 0.06351401657 -0.3376370072 0.9353066683
-0.1157065406 -0.1154748574 1.103349209 0.07643203437 -0.3076525331 0.9394014478
-0.1070475578 -0.1087500677 1.104678392 0.0830706805 -0.1611917168 0.9672761559
-0.1056682542 -0.1064965576 1.110318661 0.05972716585 -0.115899168 0.982616663
-0.2001646906 0.01607305929 0.9848867655 -0.1789501905 -0.2273283005 0.9569087625
-0.1940268725 0.01795256697 0.9860793352 -0.1614907533 -0.2251488715 0.9602248073
-0.1990427822 0.02176070213 0.9866095781 -0.163211152 -0.2515757382 0.9536422491
-0.1884227395 0.01828986593 0.9867548943 -0.1587485671 -0.2185909599 0.9623791575
-0.1858479381 -0.006698969286 0.9856060147 -0.2438358963 -0.1146206856 0.9621453881
-0.1911780536 -0.002794922562 0.9858058691 -0.2121062875 -0.1471602321 0.9647197127
-0.2223858386 -0.02836080641 0.9860942364 0.4791712165 -0.01199442334 0.8502363563
-0.2330667078 -0.03171749786 0.9951414466 0.5891227126 0.2229131758 0.7538207173
-0.2477733195 -0.05161819234 1.054162741 -0.4838019311 -0.4131079614 0.4503463805
-0.2407310903 -0.0666724965 1.041875839 -0.4553417563 -0.01626755297 0.573928237
-0.2456541955 -0.06151337922 1.042183042 -0.3893093169 -0.1118395403 0.6152456999
-0.2421095967 -0.04724496603 1.065372229 -0.687310338 -0.5975450277 0.2400025874
-0.2392519414 -0.05754995719 1.055677176 -0.6238247156 -0.3166501522 0.3564681113
-0.2358166277 -0.05630131811 1.06177485 -0.7374311686 -0.3994716406 0.2344834059
-0.2464614064 -0.04635044932 1.060871482 -0.5778834224 -0.5689854026 0.3469562531
-0.2365818024 -0.06674129516 1.047187805 -0.5705968738 -0.06767611206 0.4568874538
-0.2414478511 -0.06013855338 1.049448729 -0.5262685418 -0.2084993273 0.46884197
-0.2319363058 -0.06668829173 1.053304434 -0.7014462948 -0.1292420924 0.323351711
-0.2444031686 -0.06990358979 1.032889128 -0.3074928522 0.1307389885 0.7407549024
-0.2438530028 -0.05594059825 1.051782608 -0.5173723102 -0.3069173992 0.4567985535
-0.2575992346 -0.08104231954 1.023219109 -0.04419930652 0.3568509817 0.9301512837
-0.2704161108 -0.04891492426 1.013321877 0.1923708469 0.2276433259 0.9515489936
-0.2645606697 -0.04610576108 1.009122372 0.1612075865 0.2785084546 0.9466319084
-0.2783032656 -0.05289811641 1.012910485 0.1716085374 0.2838391364 0.9433429241
-0.2664029896 -0.0413085334 1.013056993 0.1577883661 0.1089270636 0.9242286682
-0.2535799444 -0.03845911101 1.043723345 -0.3179635108 -0.4021211863 0.4909851849
-0.2608409822 -0.04208959267 1.024808288 -0.03766096383 -0.03747673333 0.7560701966
-0.2643901706 -0.03976365179 1.018714309 0.0771747306 -0.01224797964 0.8454699516
-0.2589874566 -0.03925113007 1.031106114 -0.1195530891 -0.2018947005 0.6696720123
-0.250048697 -0.0384583585 1.049222231 -0.4110343158 -0.4813198149 0.4099999964
-0.2540183961 -0.04209094495 1.03229475 -0.1723703146 -0.1471948177 0.640627563
-0.2554803193 -0.03873578459 1.03788197 -0.2279877514 -0.3124140799 0.5721822381
-0.2583735883 -0.04659725353 1.030657053 -0.1146335304 -0.06366159767 0.6894189715
-0.2607586384 -0.0491168052 1.024770379 -0.01987030171 0.06471832097 0.777967751
-0.263256222 -0.04707652703 1.017698288 0.06906402856 0.1614311337 0.863409996
-0.2489243001 -0.03993261606 1.054623127 -0.482771486 -0.5455393195 0.3437636197
-0.2550476491 -0.04848463088 1.00710988 0.1517012864 0.3424001336 0.9260728955
-0.2647426426 -0.07336361706 1.021067142 0.05063214898 0.3404326141 0.9365314841
-0.2716766298 -0.05571719632 1.014894843 0.1599812657 0.3066166937 0.9381999969
-0.272228837 -0.06210004166 1.016103625 0.1322091967 0.3108089566 0.9410510063
-0.2675974369 -0.06522607803 1.017461538 0.1151964962 0.3235107958 0.9391380548
-0.2583683431 -0.0530301109 1.010792136 0.1466719657 0.3395783007 0.9284505248
-0.25091663 -0.05264378712 1.008776426 0.1167083159 0.3818822801 0.9154086709
-0.2646178007 -0.05609741807 1.01428628 0.1452498287 0.3133895099 0.9381721616
-0.2591270506 -0.058412157 1.012323737 0.1083568782 0.3469659984 0.9313821793
-0.2456994653 -0.07498702407 1.018742204 -0.09629009664 0.3855114877 0.9160596728
-0.2621828616 -0.07786153257 1.018490791 -0.004881675821 0.34775877 0.9365921021
-0.2519139647 -0.100383319 1.027843237 -0.1124672368 0.3751678169 0.9200784564
-0.2557395995 -0.08663213253 1.019955754 -0.07143256813 0.3564553261 0.9312852025
-0.2533868253 -0.09598428756 1.025369763 -0.09957998991 0.369017005 0.923707664
-0.2569290102 -0.09109601378 1.025038004 -0.0896217972 0.3673755825 0.9253908992
-0.2337927669 -0.0769180283 1.020571232 -0.2131709754 0.4240190387 0.8797878623
-0.2327206433 -0.08294867724 1.024073958 -0.2339846045 0.4125205278 0.8799920678
-0.2415055484 -0.07907243818 1.019926548 -0.1732139736 0.3988519907 0.896713078
-0.2497226149 -0.08050595969 1.018478632 -0.1105507836 0.3748108149 0.9168815017
-0.2499226928 -0.09031000733 1.022886038 -0.1089039966 0.3715115786 0.9194529057
-0.2432740629 -0.08428259194 1.022294044 -0.1787997782 0.3863323033 0.8998147249
-0.1196896881 -0.1023646072 1.112767816 -0.0002610608935 -0.1949923635 0.9787914753
-0.1141983271 -0.1075272113 1.113258362 0.02041194774 -0.2278291583 0.9711659551
-0.1149408147 -0.09698048234 1.112036586 0.03656174615 -0.06544624269 0.9964323044
-0.2524205446 -0.02153077908 1.002822518 0.3554358184 0.2592925131 0.8940761685
-0.2173773944 -0.0138880834 0.9766278863 0.1004460976 -0.1244501173 0.9824089408
-0.211187914 -0.02107510343 0.9762874842 0.05930657685 -0.1578586698 0.9702495933
-0.2193774581 -0.02498748899 0.9744465947 0.3234094977 -0.09292208403 0.9212194085
-0.2197519243 -0.01924361102 0.9759385586 0.2525884509 -0.114255622 0.9458497763
-0.2172616124 0.01653000899 0.985969007 0.0005429370794 -0.196249634 0.9458357096
-0.2213899195 0.01244349685 0.9851192236 0.1120435372 -0.153396517 0.9438063502
-0.2302518189 -0.02402118221 0.9943836927 0.4094071388 0.1778536588 0.8161364794
-0.2362406254 -0.02391009219 0.9945847392 0.5467204452 0.2471950501 0.7699892521
-0.2159292102 -0.01918983087 0.9876160622 0.1460107118 0.0008067763411 0.8959485888
-0.2251144648 -0.02536103316 0.9915062785 0.3725378811 0.08103267103 0.8507130742
-0.2375727147 -0.02871243842 0.9993901253 0.5429452062 0.2619599998 0.7851495147
-0.2200181633 -0.02312370576 0.9893137217 0.2659119368 0.02497439086 0.8785193563
-0.2170745879 -0.02478784323 0.984523952 0.3303028941 -0.06866919249 0.8912144899
-0.213773489 -0.01447615959 0.9846460223 0.1098450124 -0.0499227494 0.926368475
-0.2077761441 -0.01555535384 0.9833950996 -0.004182239063 -0.1056501269 0.9463821054
-0.2237554938 -0.00715247402 0.9850338101 0.2883054018 0.004217377398 0.933006525
-0.2324340045 -0.01715188287 0.9903877974 0.4770002961 0.1656189859 0.8204903603
-0.220398441 -0.01421105675 0.9863120914 0.2377043366 0.01811204851 0.8975606561
-0.1878559887 0.01245318819 0.9853566885 -0.1681462526 -0.2002499998 0.9649534225
-0.1917777658 0.006906928029 0.9835996628 -0.1914805472 -0.1935835481 0.9618119001
-0.2127998769 0.01392577309 0.9880921245 0.01708300412 -0.1730932444 0.9626005292
-0.214884311 0.007968811318 0.9843660593 -0.02049332298 -0.1595546454 0.9776558876
-0.2113496214 0.01971472986 0.9877120852 -0.09947343171 -0.2278460413 0.9564718604
-0.2449600995 -0.03022666462 1.002562523 0.3693474233 0.3007202446 0.8736761808
-0.2470095456 -0.02449491434 1.001711249 0.3948581219 0.2862010896 0.8724592328
-0.2479886115 -0.01977614127 0.9985103011 0.4666329324 0.301643163 0.824241817
-0.2425839454 -0.02480228804 0.995534122 0.5257230401 0.291788429 0.7902715802
-0.2468466163 -0.03039491735 0.9967011213 0.391130209 0.2402641177 0.8647075891
-0.2702538967 -0.07548345625 1.022028089 0.0598164089 0.3271459639 0.9427317977
-0.2638382614 -0.08260738105 1.022721052 -0.03171321005 0.3506388664 0.9341530204
-0.2736502886 -0.07296132296 1.017245173 0.08226154745 0.3266876936 0.941496253
-0.2515322268 -0.07003735006 1.028928399 -0.1497481614 0.1773643792 0.8114040494
-0.2509239912 -0.06370406598 1.035815001 -0.2357919812 0.004924547393 0.7077444792
-0.2499552965 -0.05466311425 1.046078086 -0.3644869626 -0.248817727 0.5550089478
-0.2539392412 -0.06195005774 1.024018049 -0.07366772741 0.1974794567 0.8299055696
-0.2524142861 -0.06344526261 1.029574513 -0.1508110017 0.1122444794 0.775308609
-0.2514678836 -0.07491707802 1.025916457 -0.1145824715 0.2699972987 0.8660159111
-0.2529974282 -0.06752741337 1.024313092 -0.08418922126 0.2378161103 0.8511788249
-0.250685215 -0.05860302597 1.040280819 -0.2904271781 -0.1150093302 0.6361535788
-0.2523912787 -0.05703411624 1.033994436 -0.2032939792 -0.01757694408 0.6984617114
-0.2597246468 -0.06951194257 1.018873096 0.04648683965 0.3453698456 0.9334695339
-0.2475388795 -0.06717544049 1.015851617 -0.03085817397 0.3909288645 0.9198157787
-0.2529731691 -0.07318642735 1.017522097 -0.02600914799 0.3792386353 0.9247041941
-0.2622819543 -0.06120572239 1.025347114 -0.003356215544 0.16213952 0.8322182298
-0.2567809224 -0.05903078243 1.029403925 -0.1060732827 0.07667518407 0.7663900852
-0.2512640655 -0.04945404083 1.049152613 -0.3877426386 -0.3460794389 0.5011196733
-0.2567782998 -0.06387475878 1.01913321 0.01092047337 0.2974410355 0.896894455
-0.2612764835 -0.0552280806 1.026718259 -0.02699790895 0.09224078059 0.79442662
-0.2580498755 -0.05512699112 1.037136793 -0.1810093969 -0.09238651395 0.6703544855
-0.259323895 -0.05282559246 1.032186508 -0.1094721183 -0.02260378003 0.7207784057
-0.2519725561 -0.04489380494 1.053171515 -0.4250781536 -0.4534980357 0.4428194165
-0.2556971014 -0.05192441121 1.043615699 -0.2789759636 -0.2311768383 0.5818014145
-0.2476170212 -0.04049854726 1.063801289 -0.594573915 -0.682798326 0.2823298872
-0.262947619 -0.05339710414 1.020453572 0.0633289665 0.1879749298 0.860288322
-0.2545132935 -0.04581028968 1.042651772 -0.2818090916 -0.2720065117 0.545996964
-0.2571596801 -0.04864271358 1.037207246 -0.1890115738 -0.145266965 0.6412193179
-0.2618581653 -0.06455264241 1.014550924 0.07852013409 0.347165972 0.9338625073
-0.2531176805 -0.0627444461 1.014656663 0.03669686988 0.3675940931 0.9278949499
-0.2472097278 -0.06096143648 1.013474703 0.01460439619 0.3934739232 0.9168302417
-0.2355795205 -0.08924818039 1.027341366 -0.2275148034 0.3984825611 0.8884714246
-0.2297489047 -0.0668611899 1.066707015 -0.846814394 -0.2535724044 0.1935981065
-0.2333562821 -0.07614810765 1.056293368 -0.6222628355 -0.05309732258 0.4648017287
-0.2332462668 -0.08391042054 1.045862794 -0.468039453 0.1404596865 0.6195973754
-0.2416695952 -0.09086991102 1.038395166 -0.3239687085 0.265889287 0.7733297944
-0.2388998568 -0.08772739768 1.042164922 -0.3831973374 0.2020515203 0.7165799737
-0.2378184199 -0.08201806247 1.049501538 -0.4997911453 0.06687935442 0.5956671238
-0.2368644327 -0.09211593121 1.036171794 -0.287055254 0.3198786378 0.8224437833
-0.1837720275 -0.0121790003 0.9848511219 -0.2574578226 -0.1049052179 0.9596582651
-0.1921546012 -0.01270311605 0.9839672446 -0.2187056988 -0.125725314 0.9669620395
-0.1989662051 -0.008139254525 0.9829959273 -0.1844860613 -0.1203482151 0.9745844603
-0.2011081427 -0.01761063002 0.9827913642 -0.03718120605 -0.1318202466 0.9506605864
-0.2073470801 -0.02164642327 0.9819981456 0.1541345567 -0.1314861923 0.926717639
-0.2052712142 -0.01633758843 0.9779322147 -0.06780469418 -0.1680316925 0.9824997187
-0.2355449349 -0.01352848019 0.9809850454 0.5387008786 0.1017590687 0.8315147758
-0.2417733967 -0.02127849497 0.9910188317 0.5423977971 0.2545974255 0.793469131
-0.240989536 -0.01900273003 0.9855519533 0.5396789312 0.1965556741 0.8100392818
-0.2458478063 -0.01485586632 0.9896880388 0.5060591698 0.2375873625 0.8213881254
-0.2499282211 -0.01217017509 0.9944611788 0.4800268412 0.285969913 0.8259384632
-0.2375401109 -0.02379470319 0.9856266379 0.5686585307 0.1996858418 0.790436089
-0.2396755368 -0.007132925093 0.9836615324 0.5097416639 0.1282383353 0.8461855054
-0.2336809039 -0.02175239101 0.9794977307 0.5797169209 0.1225825548 0.8027258515
-0.2437618971 -0.006608751137 0.9871064425 0.4903998673 0.1740578115 0.8472167253
-0.2535946369 -0.008750732057 0.9982718229 0.4327813089 0.2768486738 0.8552254438
-0.2504601777 -0.01534129865 1.000755429 0.4341204762 0.2999658883 0.8489081264
-0.2437946647 -0.07598097622 1.034254432 -0.3071157634 0.1963957399 0.6999871731
-0.2441899031 -0.0813858062 1.030113339 -0.2348863035 0.3082978129 0.8034209609
-0.2365285754 -0.07131737471 1.042094946 -0.5152177215 0.06268914789 0.5281974077
-0.2461369783 -0.07783010602 1.023689151 -0.1776802242 0.3548309803 0.8784277439
-0.2419252247 -0.07604959607 1.028269768 -0.2926413715 0.2863171399 0.7851915359
-0.2310195863 -0.066847004 1.061298013 -0.7854179144 -0.2135632336 0.2462099344
-0.234296307 -0.06485757232 1.069190025 -0.8213512897 -0.3067593277 0.2560454905
-0.240658924 -0.07688494772 1.044282317 -0.4388018548 0.1051723063 0.6295711994
-0.2443723679 -0.08916950971 1.028817654 -0.1927581131 0.3873392045 0.882268548
-0.2432534844 -0.09528987855 1.032775283 -0.2349450588 0.3673765063 0.863991797
-0.2417073995 -0.08160355687 1.039905906 -0.3660790622 0.1921317875 0.7077547908
-0.2364920974 -0.07066556066 1.06131506 -0.692540884 -0.164090395 0.3891161978
-0.243046701 -0.08466347307 1.034389138 -0.2814173996 0.2852841318 0.7910665274
-0.2384117693 -0.07502576709 1.053409576 -0.5712766647 -0.03074293397 0.5083781481
-0.2478450984 -0.08594787866 1.025626659 -0.1418038607 0.3923097253 0.907994926
-0.2149298638 -0.0046489737 0.9830907583 0.07468175143 -0.04287777469 0.9657363892
-0.2109011412 -0.009332609363 0.9827188253 0.03040939011 -0.09372516721 0.9675754905
-0.2204475701 0.005052297842 0.9830782413 0.1032915935 -0.116894193 0.9747421145
-0.1950827688 0.004033481702 0.9871180654 -0.1765207499 -0.1868406236 0.9649640322
-0.1977402568 -0.002700134646 0.9842449427 -0.1823035926 -0.1469611824 0.9707520604
-0.1974970847 0.01082794182 0.9844834805 -0.1893586069 -0.2216275036 0.9563667178
-0.2043760568 0.006444305647 0.9855821729 -0.1193817556 -0.1611980945 0.9765660167
-0.1968028098 0.01308569498 0.9896094203 -0.1432901621 -0.2041512877 0.9662319422
-0.2098339498 0.002164121484 0.9828497171 -0.1003881842 -0.1337963194 0.9836761355
-0.2090911716 0.009774186648 0.9857088923 -0.08566859365 -0.1845199168 0.9772493839
-0.2061009854 0.01504058763 0.9886744618 -0.1131746694 -0.2111186534 0.9684628248
-0.2093106806 0.0166166462 0.9820208549 -0.1447307616 -0.2344403118 0.959249258
-0.213724643 -0.001755332458 0.9771124721 -0.02549224719 -0.09976516664 0.9895711541
-0.2125097066 0.01252240781 0.9791849852 -0.1072899327 -0.2150465548 0.9670068622
-0.212656498 0.006520956289 0.9784709811 -0.07921865582 -0.1689671278 0.9755100012
-0.221137315 -0.009054171853 0.9772401452 0.1419548243 -0.05992314592 0.9858160019
-0.2202041447 -0.003271348076 0.9770581722 0.1174206659 -0.05869370326 0.9860639572
-0.2190240473 0.002602140419 0.976826787 0.05058024451 -0.09627740085 0.9914265871
-0.2237632424 0.01207723189 0.9774612188 0.09682252258 -0.1346374154 0.9839244485
-0.2275317609 0.004507652018 0.983850956 0.2935512364 -0.06762595475 0.9478513598
-0.2371229827 -0.004385378212 0.9901293516 0.5086333156 0.1154482663 0.8398686647
-0.2324770242 0.001932134503 0.9855086207 0.3949992359 -0.0144684175 0.9039087296
-0.2281662971 -0.001889039762 0.9856438041 0.3455393314 0.0101084942 0.927261591
-0.232805863 -0.004169866443 0.9813141227 0.3653109968 0.03235733882 0.9136013985
-0.2285810709 -0.01391949039 0.9809746146 0.4364514351 -0.05277329311 0.8929412961
-0.2268128693 -0.02607943676 0.9769073129 0.5449942946 -0.005074437242 0.8306591511
-0.2243105173 -0.0157270655 0.9782040715 0.3401436508 -0.1013787314 0.9308285117
-0.2378846407 -0.01381319482 0.9922606349 0.5564172864 0.2477942556 0.7842841744
-0.241575256 -0.008038188331 0.9929397106 0.5334239602 0.2072459459 0.8179166913
-0.2317210585 -0.007829591632 0.9881893396 0.433825165 0.1117882878 0.8728484511
-0.2445165515 -0.01496233046 0.9969629645 0.4899840355 0.2994875014 0.8170776367
-0.2146077603 -0.008958896622 0.9762436152 0.01951173507 -0.08471216261 0.9951851368
-0.2095054239 -0.01244692132 0.9769548774 -0.02775198594 -0.1321284473 0.9887888432
-0.2019143254 -0.003765951376 0.9800785184 -0.1514166892 -0.1698647588 0.9725580812
-0.1977322251 0.003278731834 0.9819155931 -0.1889161319 -0.1954368651 0.9617331624
-0.2077293992 -0.006043574307 0.978423059 -0.1168551445 -0.1511462629 0.9791033268
-0.2044596523 -0.01040392183 0.9790138006 -0.1124445796 -0.1607917696 0.9791407585
