# .PCD v0.7 - Point Cloud Data file format
VERSION 0.7
FIELDS x y z normal_x normal_y normal_z
SIZE 4 4 4 4 4 4
TYPE F F F F F F
COUNT 1 1 1 1 1 1
WIDTH 512
HEIGHT 1
VIEWPOINT 0 0 0 1 0 0 0
POINTS 512
DATA ascii
-0.02303593792 -0.08993094414 1.084030986 -0.3749492764 -0.06297860295 0.9240279794
-0.02716653608 -0.08641302586 1.085375786 -0.3769890368 -0.09475943446 0.9195010066
-0.01686730795 -0.0925424397 1.086217046 -0.3681517243 -0.04782652855 0.9280563593
-0.02117124386 -0.09108671546 1.089108229 -0.369543761 -0.06767989695 0.925190568
0.01260830741 -0.169370532 1.195220113 0.3490239382 -0.08700312674 0.9330663085
0.0132006295 -0.1746991277 1.196215749 0.3490239382 -0.08700312674 0.9330663085
0.008535820059 -0.1711165458 1.200867414 0.3490239382 -0.08700312674 0.9330663085
0.01343013532 -0.181620568 1.19205904 0.3490239382 -0.08700312674 0.9330663085
-0.1589765847 -0.1173398644 1.072490573 0.1783182323 -0.1891306043 0.9645695686
-0.1547223181 -0.1196989045 1.070263147 0.1274849474 -0.1080526561 0.9757559896
-0.0002954402298 -0.1814744771 1.202000022 0.3031693697 -0.1062514558 0.9464398026
0.004748289008 -0.1749875695 1.200884342 0.3458035886 -0.08835492283 0.9340054989
-0.05808672681 -0.2499813586 1.191565752 -0.2360779196 -0.1081178263 0.9654090405
-0.06983398646 -0.2514401078 1.185221553 -0.2491778135 -0.09615203738 0.9635061026
-0.06644091755 -0.2482746691 1.186796188 -0.2382454574 -0.1061379462 0.9650941491
-0.1504980475 -0.1096399575 1.075244904 0.2034187317 -0.2702262104 0.9388383031
-0.1529088318 -0.1116687357 1.07087636 0.2235538065 -0.236195758 0.9452984929
-0.1558851153 -0.157678321 1.081651092 0.01738039777 0.1554530114 0.9860895872
-0.1591622531 -0.1313727051 1.075678706 0.06933196634 0.06111576408 0.9943628907
-0.1573418081 -0.1268058419 1.074168324 0.06933156401 -0.00513380859 0.994969964
-0.1519617736 -0.1278242618 1.073908925 0.06319522858 0.02107015066 0.9962486625
-0.1451632977 -0.1301733255 1.074663639 0.1019053608 0.0376678817 0.9918733239
-0.08532880992 -0.09106314927 1.064206481 0.1897883713 -0.2211320847 0.9542413354
-0.09092667699 -0.0907189101 1.064797521 0.2566319704 -0.1879330277 0.9466468096
-0.0414098464 -0.08616571873 1.078264594 -0.3804352283 -0.1604026556 0.9105997682
-0.03657723591 -0.08740515262 1.079087853 -0.3832599223 -0.1262840629 0.9138498902
-0.03135707974 -0.08667315543 1.080984116 -0.3849066496 -0.08040754497 0.918495059
-0.03501075134 -0.08314820379 1.083018661 -0.3863652647 -0.1137067005 0.9138450623
-0.0399374254 -0.07817818969 1.086035967 -0.3879342079 -0.1612101197 0.9074320197
0.009375811554 -0.1857662201 1.198339939 0.3544705808 -0.08363769203 0.9312684536
0.01008703094 -0.1974325031 1.197780371 0.3623313606 -0.07878057659 0.9286736846
0.00955990795 -0.1784734577 1.19839561 0.349742502 -0.08655913919 0.9328291416
0.01315555535 -0.186970979 1.194879174 0.3535454273 -0.08420934528 0.9315738082
0.01257361285 -0.1924325973 1.195676327 0.3580261767 -0.08144072443 0.9300947785
-0.1485845447 -0.1161502749 1.068327427 0.171427086 -0.1517171264 0.9615522623
-0.1436181813 -0.1191157475 1.070078373 0.1179830357 -0.07790463418 0.9736376405
-0.1457043588 -0.1238551065 1.072689295 0.1196209416 -0.05549753085 0.9887308478
-0.01617413387 -0.1015034616 1.089242697 -0.3944267929 -0.01323579997 0.9182972312
-0.0242554415 -0.1039959043 1.084304571 -0.4104345739 0.03348274902 0.908605814
-0.02322648279 -0.09847901016 1.082867026 -0.3918667734 0.009411466308 0.9164398313
-0.02686098777 -0.09523558617 1.081016421 -0.3922954202 -0.01189101581 0.916554153
-0.03247441724 -0.1050289869 1.078861117 -0.4225333929 0.0735013783 0.9005665779
-0.1453835219 -0.1477071941 1.080831051 0.02057799324 0.1800883859 0.9828768373
-0.1498555392 -0.1596816033 1.082377553 -0.0004940208746 0.2049798667 0.9780480266
-0.1468688846 -0.1537946314 1.081283689 0.01563532464 0.1960520297 0.9797304869
-0.08094744384 -0.2525271773 1.174925566 -0.2551437318 -0.09070263058 0.962639451
-0.07704173028 -0.2450219244 1.175449133 -0.2551437318 -0.09070263058 0.962639451
-0.08614037186 -0.2518701851 1.17129755 -0.2551437318 -0.09070263058 0.962639451
-0.07490649074 -0.2476635426 1.180185199 -0.2551437318 -0.09070263058 0.962639451
-0.08484143764 -0.2487500757 1.174815774 -0.2551437318 -0.09070263058 0.962639451
-0.06807375699 -0.2556179464 1.176507354 -0.2551437318 -0.09070263058 0.962639451
-0.07411494106 -0.2511977851 1.17461741 -0.2551437318 -0.09070263058 0.962639451
-0.06949330866 -0.2489615083 1.176824093 -0.2551437318 -0.09070263058 0.962639451
-0.07709783316 -0.1208546236 1.062363267 -0.01372357644 -0.02096123621 0.9978283644
-0.07869149745 -0.1161560565 1.061527848 0.01724051498 -0.01690841466 0.9974297285
-0.08305978775 -0.1194949001 1.061110139 0.07722391933 -0.01802114956 0.9950296283
-0.07253239304 -0.116239287 1.062678456 -0.1041678712 -0.02516437322 0.9877204299
-0.07020065933 -0.1219662428 1.064499259 -0.1376545876 0.002347321017 0.9858285785
-0.06688819826 -0.1167525351 1.064007401 -0.2420870513 -0.02747451887 0.9658663273
-0.07951441407 -0.09475654364 1.064442635 0.01252205018 -0.1677478403 0.9711228013
-0.07730695605 -0.08706372976 1.065184832 -0.05234687403 -0.2674060166 0.9522581697
-0.1616390944 -0.1573901027 1.083086014 -0.001722342102 0.1604154408 0.985681355
-0.1605533957 -0.1522016972 1.081733108 0.02748819627 0.1736641079 0.9830192327
-0.07290403545 -0.09731493145 1.065147877 -0.1883010268 -0.1407051831 0.9670471549
-0.07126493752 -0.1058948487 1.06432128 -0.1995115131 -0.06969532371 0.9687783122
-0.06549583375 -0.1106287315 1.065245748 -0.3127764165 -0.06121844426 0.9451789856
-0.006516239606 -0.1908171773 1.199155569 0.2369257659 -0.07591709495 0.9664016366
-0.009645425715 -0.1958666742 1.197372079 0.2064021975 -0.05181708932 0.9757113457
0.01338202786 -0.1896584779 1.188256979 0.3490239382 -0.08700312674 0.9330663085
-0.1389267445 -0.1204808652 1.070393324 0.1072406322 -0.03594174236 0.9782024622
-0.1355099678 -0.1151139513 1.072245836 0.102822274 -0.1735517532 0.9764652252
-0.1323088109 -0.1212011054 1.070246577 0.115918465 -0.005371964537 0.9806482792
-0.1267299354 -0.1236331016 1.071365476 0.0867439881 0.05557180941 0.9898466468
-0.03199176118 -0.08357550949 1.087854266 -0.3784550428 -0.1265523285 0.9151567817
-0.01752317138 -0.09661667794 1.090000033 -0.3681334257 -0.03646132722 0.9289932251
-0.1594431251 -0.1619937122 1.081003308 -0.03475178033 0.2011487633 0.9736894369
-0.1544031203 -0.1674439907 1.079503894 -0.06342868507 0.2431705892 0.962064743
-0.1490323097 -0.1724412888 1.077660203 -0.07976090908 0.2850462794 0.9502535462
-0.1433479786 -0.1736141443 1.087907434 -0.1158364415 0.4307276905 0.8807560205
-0.1471504122 -0.1684651077 1.08533752 -0.07691878825 0.3142723739 0.932518959
-0.140210703 -0.1281328201 1.074258089 0.06409171969 0.05227364972 0.994489789
-0.06638219208 -0.2552594841 1.181411982 -0.2551437318 -0.09070263058 0.962639451
-0.05948072299 -0.2554252446 1.190657854 -0.2551437318 -0.09070263058 0.962639451
-0.001303725992 -0.1900359094 1.195824027 0.2912526131 -0.105280906 0.950453043
-0.005024332087 -0.1955690384 1.196082354 0.2624133527 -0.0762976557 0.9612296224
0.002394728828 -0.1959158927 1.191747665 0.263127476 -0.06225804985 0.9472054839
-0.002632330637 -0.1991079003 1.192487359 0.1304430217 -0.01199469715 0.9589366913
-0.008563200943 -0.2010403872 1.194674373 0.04919713736 0.01282521617 0.9711225629
-0.03329734877 -0.1115666479 1.081362367 -0.4366118014 0.1038019061 0.8933508396
-0.02875205874 -0.1088560373 1.083432317 -0.4254509807 0.07247591019 0.8999861479
0.008706563152 -0.1811051518 1.193399668 0.3484879434 -0.08722812682 0.9332226515
0.004759362899 -0.1787942648 1.196692705 0.3342137039 -0.09322001785 0.9373857379
0.004960112274 -0.1902600378 1.191741228 0.3164777458 -0.100665018 0.9425584078
-0.002191311214 -0.1886749715 1.201860189 0.3110332787 -0.1028558537 0.9441279769
0.003189801006 -0.1864930242 1.200950146 0.3469475806 -0.08716423064 0.9335340261
0.002597798593 -0.1942308247 1.200070739 0.3288695216 -0.09415768087 0.93869102
-0.05721360445 -0.2433041483 1.178638577 -0.2230384648 -0.1285156906 0.9649069309
-0.04422108084 -0.2460739613 1.17753005 -0.2033185512 -0.149294138 0.9666563869
-0.05343011022 -0.2403769791 1.183213711 -0.1984724402 -0.1612927467 0.9660816789
-0.06320949644 -0.2425829768 1.178419352 -0.2349473983 -0.114939183 0.9640002847
-0.03978440166 -0.2485760003 1.177000046 -0.1980858892 -0.1545346677 0.9671604037
-0.04910897836 -0.2488459796 1.177000046 -0.2163493484 -0.1341028661 0.9657133222
-0.05677342787 -0.252576828 1.177000046 -0.2335994542 -0.1148047522 0.9643465281
-0.05449162796 -0.2472754419 1.177000046 -0.2257908136 -0.1235404685 0.9649652243
-0.06063888595 -0.248730123 1.177000046 -0.2386454195 -0.1091597006 0.9639467001
-0.05051041767 -0.2538006902 1.183742762 -0.2079993039 -0.1337625384 0.9683331847
-0.04589828104 -0.2519571781 1.180997849 -0.2036679089 -0.1425496191 0.9678791761
-0.05197232589 -0.2529025972 1.178681493 -0.2209438682 -0.1265485287 0.9658375978
-0.01179111563 -0.2124796063 1.200482726 -0.1495067626 0.07100681216 0.9607282281
-0.01650633849 -0.2158002257 1.199319005 -0.2650385499 0.09083342552 0.9475311041
-0.01401745062 -0.2031431347 1.196235299 0.0114422692 0.02015035972 0.9762650132
-0.0218397323 -0.2142602205 1.196525335 -0.2767481506 0.07633151114 0.9411755204
-0.01820435748 -0.2102923393 1.195598245 -0.2203304023 0.08574303985 0.9626167417
-0.00964847859 -0.2016012073 1.199767113 0.09966921806 -0.02222508937 0.9654456377
-0.1306016147 -0.1155685484 1.072208047 0.09340403229 -0.1611257344 0.9798572659
-0.1522999257 -0.1800419837 1.081125736 -0.09792151302 0.3963002861 0.9086431861
-0.1475637853 -0.1777605414 1.078034997 -0.1129791364 0.3214265108 0.9391397834
-0.1566661447 -0.1748276651 1.088350654 -0.1246721447 0.2993316948 0.937700212
-0.1474642009 -0.184844017 1.092156053 -0.1088732332 0.4711975157 0.8730801344
-0.1503594518 -0.1806664169 1.093814254 -0.1238160953 0.3925789893 0.9000941515
-0.145420447 -0.1850403845 1.098645568 -0.1250753403 0.4608548582 0.8719366193
-0.1536700428 -0.1790660918 1.086870432 -0.1100319102 0.378662914 0.9102967381
-0.1599880904 -0.172091186 1.084529519 -0.1218288392 0.2583234012 0.9553009272
-0.1172422767 -0.1450506002 1.083031178 -0.04355667531 0.2618272007 0.9639564753
-0.03113822825 -0.09364996105 1.088831782 -0.3878261745 -0.06805630773 0.9157944322
-0.02563687786 -0.09413619339 1.089285851 -0.3746306002 -0.06179235131 0.9231330752
-0.02965064719 -0.0983267203 1.089361668 -0.3904402852 -0.03928444907 0.9171296954
-0.02538831532 -0.1048647016 1.090119243 -0.3919939995 -0.0163916219 0.9196397662
-0.02156469971 -0.1012682244 1.090070724 -0.379562974 -0.02856267802 0.9245581627
-0.1564217806 -0.1474018842 1.07665062 0.06639889628 0.161135897 0.984084785
-0.1618058681 -0.1439214051 1.079019904 0.06868617982 0.1532668173 0.9854589701
-0.1566560119 -0.1408590227 1.076731563 0.06710901111 0.1649813801 0.9824299216
-0.1523980498 -0.1336760819 1.081009626 0.08268038183 0.08716276288 0.9818243384
-0.1473012418 -0.1346351057 1.080704451 0.06544663757 0.1133122146 0.9828721881
-0.1584555358 -0.129447341 1.082121253 0.1211378425 0.01611646079 0.9761152864
-0.1517421603 -0.1276693493 1.082456589 0.1161355898 0.01120956056 0.9731007218
-0.1579330713 -0.1240265295 1.083428025 0.1514884531 -0.05261512473 0.9682471752
-0.1493942589 -0.1209556907 1.084050655 0.1498360783 -0.06932897866 0.9632433653
-0.1525151134 -0.116948694 1.085066557 0.1802891791 -0.1295893788 0.9576599598
-0.1599511355 -0.1381876469 1.080023646 0.07369505614 0.125175789 0.9888448119
-0.1633774489 -0.1344953179 1.079380751 0.1071577892 0.05272288993 0.9854453206
-0.158679828 -0.1204242781 1.079861283 0.1857760847 -0.144542411 0.9678841233
-0.1579985172 -0.1154376268 1.078787684 0.1826745868 -0.1975391656 0.9621556401
-0.1619326472 -0.1248166114 1.075609684 0.1683180481 -0.1215764657 0.9779054523
-0.1523356289 -0.1076688617 1.087992549 0.2214532197 -0.2380664647 0.9456002116
-0.1518244445 -0.1039237902 1.092807055 0.2096121758 -0.2568536103 0.9429599643
-0.1471643597 -0.1058592945 1.084987521 0.173992753 -0.3225880265 0.9287185073
-0.1519968212 -0.1103390008 1.081762195 0.2166373432 -0.2484494448 0.9429337978
-0.1461943835 -0.1263055354 1.083744884 0.1032139957 0.01804787107 0.9719321728
-0.1507769525 -0.112407051 1.086939931 0.1964608282 -0.176343441 0.9518812299
-0.1469843835 -0.1090417355 1.089457154 0.1452852786 -0.2394468933 0.9370698333
-0.1472331434 -0.1161822528 1.087976813 0.131861195 -0.1173717156 0.954826057
-0.1423155665 -0.1693934202 1.085136294 -0.1069374308 0.3486158848 0.918710947
-0.1373357177 -0.1722272336 1.08698988 -0.1874686033 0.3988928795 0.8905234337
-0.1424233913 -0.1821626723 1.082513094 -0.1667971611 0.3755875826 0.906881094
-0.1346263885 -0.1824489683 1.087870717 -0.2105711401 0.4609359503 0.8541004658
-0.1270546913 -0.1823087335 1.089592934 -0.2730605304 0.5128422976 0.8093496561
-0.03003451042 -0.1073060334 1.090051889 -0.4066806436 0.009358966723 0.9133062959
-0.0290191751 -0.1160340458 1.087250113 -0.4364823401 0.1011919454 0.893658638
-0.02431622706 -0.1111860797 1.090086222 -0.4246599972 0.03854966536 0.90371418
-0.05753237754 -0.1169460118 1.072544098 -0.3884697556 0.03064472787 0.9144925475
-0.04815732315 -0.1183245555 1.079727292 -0.4505493343 0.1146802455 0.8781802654
-0.05229992419 -0.1168875918 1.07615459 -0.4334030747 0.06554605812 0.8920896649
-0.06064894795 -0.1211363524 1.072394609 -0.3100766838 0.07009995729 0.9385592937
-0.05611658469 -0.12149515 1.07555902 -0.3425085247 0.1050057262 0.9207826853
-0.06341408938 -0.1204423755 1.066566944 -0.2623423636 0.01512676664 0.9618797302
-0.04818919301 -0.1145912781 1.07496202 -0.4325408936 0.08448270708 0.8923367262
-0.1307693124 -0.1693849415 1.086479425 -0.2030477077 0.3711382151 0.9046133161
-0.1188771203 -0.1637113839 1.086339951 -0.1421277374 0.3529930711 0.92445755
-0.05392266437 -0.1117043942 1.07401228 -0.4381271601 -0.002096686279 0.8962446451
-0.03581863642 -0.2356696725 1.193000197 -0.2156912833 -0.1513740122 0.9646120071
-0.0362050049 -0.2303692997 1.19139421 -0.2442244887 -0.1138393134 0.961186111
-0.04178821668 -0.2346220016 1.191171169 -0.2047402412 -0.1433501989 0.9675480723
-0.03464736789 -0.2469218671 1.177849412 -0.1877230853 -0.1662899107 0.96788764
-0.03517417982 -0.2376522422 1.184926152 -0.220347181 -0.1370104551 0.9637135267
-0.04017594084 -0.23799254 1.185021639 -0.1947915256 -0.1591050178 0.9666237831
-0.03767917305 -0.243784368 1.180446625 -0.184922725 -0.1683251858 0.9680416584
-0.0394997336 -0.2495684475 1.182971358 -0.19973059 -0.1504788697 0.9679801464
-0.04695512354 -0.2433031052 1.193000078 -0.2162247151 -0.1343346685 0.9669491649
-0.0430825986 -0.2401783615 1.193000078 -0.2116380334 -0.1395429969 0.9672455788
-0.05294571817 -0.2528412938 1.193000078 -0.2446153313 -0.1029958427 0.9637468457
-0.03872789815 -0.2433723211 1.193000078 -0.2176835388 -0.1429082155 0.9652447104
-0.05345554277 -0.2465380132 1.193000078 -0.2233599275 -0.1218620166 0.9669210911
-0.04482357949 -0.2494470626 1.191690922 -0.2259818465 -0.1268437207 0.9651066065
-0.04314455017 -0.2418842167 1.18226862 -0.184577778 -0.1713947356 0.9677362442
-0.04939723387 -0.2383824736 1.188596606 -0.198080048 -0.1562564224 0.9674112201
-0.04758742079 -0.08320524544 1.082737327 -0.3878733516 -0.1850640923 0.9025315046
-0.05176355317 -0.07801032811 1.081606507 -0.375410229 -0.1981066167 0.9053583145
-0.1471002996 -0.1068594009 1.078595519 0.1785126477 -0.3272260427 0.9230822325
-0.1250434369 -0.1379900426 1.079112053 -0.002783706412 0.2082303762 0.9775047898
-0.1414832473 -0.1244444698 1.082419515 0.06866911054 -0.003393200459 0.964694798
-0.1382024735 -0.1325390339 1.078508377 0.02640290931 0.124147296 0.9795506001
-0.1423468739 -0.1316279322 1.081085086 0.05288781226 0.08741486818 0.9768359065
-0.142268911 -0.1160146669 1.084842324 0.09795475006 -0.1228685603 0.9497323036
-0.1436942965 -0.1111950353 1.08561945 0.1232771277 -0.2131379098 0.9393388629
-0.1393205076 -0.1205022261 1.079584718 0.07202265412 -0.07072654366 0.9589869976
-0.1377675831 -0.1258752495 1.07840395 0.04625307024 0.01950089633 0.9676111937
-0.1292718947 -0.1343081445 1.076869965 0.0001403035712 0.1695700735 0.9835942388
-0.07855913788 -0.1238798276 1.066246748 -0.009761147201 0.02228106745 0.978269279
-0.069375135 -0.1245490536 1.068907022 -0.167264685 0.06625440717 0.9752393365
-0.0949215889 -0.124766849 1.06665194 0.2266633958 0.001764343586 0.9673507214
-0.107749179 -0.1398494691 1.07220149 0.07102164626 0.151125744 0.9603487253
-0.09840876609 -0.1291582435 1.068703532 0.1799680889 0.04695274308 0.9643870592
-0.1137767956 -0.1495003104 1.079589725 -0.04071192816 0.2616726458 0.947724402
-0.1018728614 -0.1337064356 1.071088195 0.1307832599 0.09476858377 0.9607661963
-0.1099350974 -0.1412942261 1.078261733 0.02472221665 0.1975102872 0.9585362077
-0.1169676855 -0.1485964358 1.075738192 -0.03357160091 0.2461183667 0.958820045
-0.1167205945 -0.1432192177 1.075632095 -0.02064561471 0.2197827995 0.966162622
-0.1121088117 -0.133132115 1.072424531 0.06739396602 0.1509364843 0.9746653438
-0.1080482379 -0.1322468668 1.07651031 0.1631335914 0.06209997833 0.9481811523
-0.1021166444 -0.1262063533 1.072566271 0.2412812859 -0.05122132227 0.9431854486
-0.1176930144 -0.1390744597 1.079978943 -0.001984918257 0.2211757153 0.9712979198
-0.1131126583 -0.1361124516 1.078714967 0.08699382097 0.1508245319 0.9580255151
-0.06597723812 -0.1060551181 1.06756711 -0.3214339316 -0.08836296201 0.9288455248
-0.08107105643 -0.1100869179 1.062203407 0.0311064925 -0.01283675712 0.9927443862
-0.0760422051 -0.1086183861 1.062463045 -0.06568903476 -0.04300213233 0.9946921468
-0.0744580254 -0.1023248732 1.066068292 -0.1205520481 -0.0927208066 0.9533372521
-0.08375700563 -0.09716468304 1.063978791 0.1531983614 -0.1464618891 0.9716752172
-0.08434292674 -0.1031171158 1.063841939 0.1386801004 -0.06423036009 0.9844780564
-0.03574077785 -0.08918129653 1.087900281 -0.3935983479 -0.09904069453 0.9100281
-0.03893339634 -0.0836429894 1.086153507 -0.3954946101 -0.1423279047 0.9054039717
-0.03741181269 -0.09470830113 1.086824417 -0.4073067009 -0.07904788107 0.9053946733
-0.1414274424 -0.1393650621 1.075889468 0.04538973048 0.1724656671 0.9824937582
-0.1371887475 -0.1434246004 1.076106548 -0.009535687976 0.2084835321 0.9771974683
-0.1518728286 -0.1389176548 1.07607317 0.05926936865 0.1303664893 0.9877870083
-0.1471243501 -0.1414888948 1.075903416 0.05895360559 0.1643328369 0.9829497933
-0.148627758 -0.1345866472 1.075803399 0.08488892764 0.09117294848 0.9919672012
-0.14247787 -0.1638641804 1.082275867 -0.07777676731 0.2583690882 0.9611803293
-0.1367442161 -0.1636676043 1.08293581 -0.129035458 0.294487536 0.9445910454
-0.143723473 -0.1587306708 1.080783725 -0.0004766699858 0.2291963696 0.9713107944
-0.1351976693 -0.1426351666 1.080910206 0.007118787151 0.1963155717 0.9787539244
-0.1278903484 -0.1491736621 1.081447005 -0.04431019723 0.243643254 0.968000412
-0.1287105232 -0.1435824931 1.081692815 -0.01150955353 0.2202657163 0.9733363986
-0.1230334342 -0.144749105 1.082356334 -0.02969018556 0.2424806952 0.9683083296
-0.1345511824 -0.148177743 1.080644965 -0.02505389415 0.2189655304 0.9735827446
-0.1249339059 -0.1448880583 1.074083924 -0.04508547857 0.2447942495 0.968382597
-0.1223601624 -0.1500515193 1.075763106 -0.06050185859 0.2703545392 0.9604280591
-0.1269688904 -0.151639387 1.076543212 -0.06007157639 0.2777934968 0.9584997296
-0.1408262998 -0.1830921918 1.088771582 -0.1691838503 0.4171691537 0.8865492344
-0.1401316524 -0.1842797846 1.094069719 -0.1523365229 0.4459146857 0.8757556081
-0.1190952659 -0.1823007911 1.095654488 -0.3516391218 0.5114791393 0.7823873162
-0.1265575886 -0.1849337816 1.10121727 -0.2661673725 0.5163500309 0.8062028289
-0.136865139 -0.1897302717 1.111241579 -0.1526583135 0.5228188038 0.8378306031
-0.131288901 -0.1867640167 1.103091002 -0.216826722 0.5261280537 0.8181575537
-0.1475633383 -0.1826068759 1.082960963 -0.1335179061 0.389793247 0.9073925614
-0.1282326579 -0.1835434288 1.0945611 -0.2504282892 0.5289562941 0.808457911
-0.1414674222 -0.1871428043 1.101786494 -0.1298874766 0.5026584864 0.8533630371
-0.1380487829 -0.1790300012 1.093302131 -0.1624439806 0.4982823133 0.8491467834
-0.1487901658 -0.1754287928 1.094559193 -0.0934619382 0.3395134211 0.9131374359
-0.1522604525 -0.1727309972 1.092429519 -0.07905396074 0.2896520793 0.933119297
-0.1405158937 -0.1863420159 1.107660413 -0.1324104518 0.4743016064 0.8591211438
-0.1441901177 -0.1823071688 1.103295326 -0.1159471199 0.4173273444 0.8819535375
-0.1613139361 -0.1657195836 1.084702849 -0.05591654032 0.1702943295 0.9826495051
-0.1340677291 -0.180918023 1.098180056 -0.1649137735 0.4801760912 0.8578016162
-0.1284757257 -0.1724888086 1.090633988 -0.1814391613 0.4092340767 0.890461266
-0.1292947382 -0.1781215072 1.097180724 -0.146625787 0.4647122025 0.8689191341
-0.1333547384 -0.1762159616 1.092730165 -0.1937366724 0.43394503 0.875787437
-0.154612273 -0.1653133929 1.085167646 -0.03814923391 0.2109136879 0.9739861488
-0.1394894123 -0.1820320934 1.099825859 -0.1272996664 0.4668360651 0.863628149
-0.1438327134 -0.1789630651 1.097225666 -0.1125250757 0.4084304869 0.8859556317
-0.1548911035 -0.1690344959 1.088640928 -0.06169078127 0.2413016558 0.9542357922
-0.05865607038 -0.2407635152 1.183182597 -0.2130424976 -0.1427361369 0.9653653502
-0.05926543847 -0.243839711 1.187394857 -0.2249302417 -0.1218556166 0.9661407471
-0.06634765863 -0.2441695333 1.182697177 -0.2436308712 -0.10121876 0.9643118382
-0.07075898349 -0.244315207 1.179449797 -0.2522275448 -0.0933663249 0.9630630612
-0.06103809178 -0.2561622858 1.184846282 -0.2551437318 -0.09070263058 0.962639451
-0.06142659858 -0.2554513812 1.179814816 -0.2429999411 -0.1016764864 0.9641299248
-0.0553275235 -0.254642874 1.18439436 -0.238660872 -0.1055975258 0.9646624923
-0.0001460166532 -0.1986627579 1.200986981 0.2796792686 -0.07448390126 0.953196764
0.002800594317 -0.2065000236 1.201201558 0.2297111899 -0.008116933517 0.9678816795
0.007410316262 -0.2044086903 1.19898665 0.3015984595 -0.04411992431 0.9465602636
-0.03918622062 -0.1159603819 1.08216393 -0.4738006592 0.1219811141 0.8714427352
-0.03321331739 -0.1162741408 1.085073352 -0.4513813555 0.1126149595 0.8846859932
-0.03705415875 -0.1103360131 1.077355862 -0.4472592473 0.1018638536 0.8885145783
-0.1330583245 -0.1739564091 1.081251025 -0.17751652 0.3615444303 0.9116891623
-0.1289869398 -0.1746819615 1.083871841 -0.2473715693 0.3799598813 0.8871673942
-0.1429232806 -0.1792929173 1.077586412 -0.1341497451 0.3329849243 0.9331403971
-0.138566196 -0.1740257591 1.078899264 -0.1211691797 0.3423093259 0.9313502908
-0.1295736879 -0.1680000871 1.081406355 -0.130445987 0.3640823364 0.9219127297
-0.1302813143 -0.1796686649 1.084139466 -0.2491058707 0.4569857121 0.8441812396
-0.1358805895 -0.1785790175 1.081102014 -0.2103359401 0.3640487492 0.901935935
-0.1201398894 -0.1762114763 1.092253685 -0.3035157919 0.4924650788 0.808739543
-0.1234546527 -0.1721396744 1.092427373 -0.1539424509 0.4206430912 0.8888701797
-0.1245679557 -0.1787624657 1.095211387 -0.2585847974 0.5000683665 0.8181494474
-0.05796618015 -0.1029310301 1.071205497 -0.3946186602 -0.1023153961 0.9119156003
-0.06301362067 -0.09839057177 1.069010735 -0.3554758728 -0.1578078568 0.920168221
-0.03091550618 -0.2368706912 1.195121527 -0.2311329693 -0.1202122271 0.960639298
-0.02673543617 -0.2376268655 1.19803977 -0.248284623 -0.07316140085 0.9567047358
-0.01658167131 -0.2317338586 1.204567075 -0.2945893407 0.02801863104 0.9454749823
-0.04897428676 -0.08865318447 1.081615806 -0.3877071738 -0.150181666 0.903688848
-0.04536030442 -0.1062237173 1.082127094 -0.4523969889 0.02376867831 0.8769416809
-0.04457272589 -0.1121898368 1.082499743 -0.4748750329 0.08325183392 0.8662167788
-0.04822939634 -0.09957458824 1.081669331 -0.4265493155 -0.04693093896 0.8859084845
-0.05096175149 -0.09544133395 1.079630971 -0.4043776691 -0.1045461446 0.898242116
-0.04908960313 -0.1100754365 1.078415155 -0.4524603188 0.02702337317 0.8818929195
-0.05004139245 -0.1038978621 1.078753829 -0.4315333366 -0.03001575917 0.889359951
-0.06560099125 -0.08068347722 1.072354913 -0.2785459161 -0.260509789 0.9218726754
-0.0691871196 -0.08318157494 1.069515824 -0.2178480923 -0.2619578838 0.9350361228
-0.07122863084 -0.09225416183 1.066568613 -0.2129463851 -0.2067600787 0.9477876425
-0.09144677967 -0.08693771064 1.071884036 0.1366093904 -0.2173933834 0.940562129
-0.1011958122 -0.08871068805 1.074079156 0.2721004784 -0.1564952582 0.9447429776
-0.08090982586 -0.08520723134 1.070700526 -0.02733851969 -0.2818816304 0.936766386
-0.08574620634 -0.0854800716 1.067906499 0.09704657644 -0.2560197115 0.9364796281
-0.095577389 -0.08930104971 1.074185252 0.1906625479 -0.1845072657 0.9396531582
-0.08734930307 -0.09120251238 1.070360184 0.1499779671 -0.2234044969 0.9256094098
-0.1014856324 -0.100863114 1.069373488 0.293610245 -0.1471670419 0.9416636825
-0.09696798027 -0.09831730276 1.067299724 0.3122367263 -0.1476958394 0.9363427162
-0.07074402273 -0.08833942562 1.069450617 -0.2130492628 -0.2724431753 0.9307235479
-0.07753092796 -0.0899508968 1.069746256 -0.06353800744 -0.2473983616 0.9280598164
-0.07585085928 -0.09528496861 1.069182992 -0.1090924591 -0.1793061644 0.923453629
-0.09487243742 -0.1029018536 1.068234921 0.3722696304 -0.1176485419 0.9138242602
-0.09087181091 -0.09935212135 1.069105029 0.2516006231 -0.1396080703 0.9174103141
-0.07995972782 -0.1014851183 1.066367149 0.01896435954 -0.1047628224 0.9489557147
-0.1041830406 -0.1028737053 1.075451493 0.3067608774 -0.1543191671 0.9387559295
-0.09878665209 -0.09276618809 1.069950223 0.316544801 -0.1742122471 0.9318501353
-0.09592017531 -0.08697089553 1.067310572 0.2814396322 -0.1960404366 0.93878299
-0.1035484374 -0.0939598009 1.07583642 0.3134865165 -0.1404572278 0.9382978678
-0.1219935492 -0.126614809 1.072340965 0.0748949945 0.09667924047 0.9900532961
-0.1002558246 -0.1235123947 1.067821383 0.2050231546 -0.0003627452534 0.9752445817
-0.1229942366 -0.1404723227 1.073982 -0.02202879265 0.2242834419 0.9736980796
-0.1220391616 -0.1349243969 1.073713899 -5.708944082e-05 0.1893430203 0.9816883206
-0.1289331317 -0.1296791583 1.073087692 0.01064532436 0.1196400002 0.9908784628
-0.1338345259 -0.1381081492 1.075762391 -0.01273556519 0.1891122013 0.9815433025
-0.1314392537 -0.1428776085 1.075229645 -0.03281669691 0.2151720375 0.975779891
-0.07459922135 -0.1214267984 1.070000052 -0.08622021228 -0.0007818707381 0.95816046
-0.08301924914 -0.1172401235 1.070000052 0.04637893662 -0.09738788754 0.9398080111
-0.06739605218 -0.1160063297 1.070000052 -0.2359961271 -0.04422172904 0.9406833053
-0.08951117098 -0.1150512472 1.06997025 0.1551493853 -0.1545251459 0.9297775626
-0.07864802331 -0.1133487225 1.06989789 -0.03892475367 -0.1226123795 0.9279762506
-0.08745161444 -0.110699974 1.06911099 0.1684527099 -0.1257007122 0.922806859
-0.09504046291 -0.1136183888 1.069524527 0.2825277746 -0.1577692926 0.9269105196
-0.06340485811 -0.1117165387 1.06995523 -0.3206608295 -0.08211082965 0.9266940951
-0.08138210326 -0.1089296788 1.068898678 0.07020437717 -0.1032399759 0.9204526544
-0.08858947456 -0.1055690721 1.066878915 0.2426983416 -0.08502689749 0.9346489906
-0.07323870808 -0.1090445444 1.068886042 -0.09527534992 -0.08406498283 0.925929904
-0.09121654183 -0.1204746291 1.070000052 0.1982627362 -0.1024967432 0.94295156
-0.08623538166 -0.1232920289 1.067165732 0.1217584684 0.002136440715 0.9679572582
-0.1522925496 -0.1502718478 1.076405048 0.06061374769 0.1782896072 0.9819417
-0.1516386271 -0.1445973366 1.076468945 0.0591458194 0.2041831166 0.9771278501
-0.1430530995 -0.1426333785 1.080000043 0.03228722885 0.1713542789 0.98453933
-0.1372343749 -0.1532628238 1.080000043 -0.04587424546 0.2293817252 0.9712110162
-0.150758937 -0.1575145572 1.07674849 0.02481029928 0.2136618197 0.9718711972
-0.1503057629 -0.164635703 1.07676661 -0.02140793391 0.2445274591 0.9619937539
-0.1408760101 -0.1617791206 1.077000022 -0.05249535292 0.2748055756 0.9567162395
-0.1417483687 -0.1536494344 1.077000022 0.007852355018 0.239032954 0.9682565928
-0.1449018717 -0.1657006741 1.077000022 -0.03703730553 0.2762331069 0.9551336765
-0.1391755342 -0.1484207362 1.076513886 -0.001319776755 0.2313914746 0.9707626104
-0.1438776702 -0.1461396068 1.07611537 0.04670455679 0.2089385539 0.9762667418
-0.1278431565 -0.1581495702 1.082820654 -0.1099590361 0.2979476452 0.9468526244
-0.1308191419 -0.1619009227 1.083438158 -0.1399373561 0.3104737699 0.9397804737
-0.1334619969 -0.1643738449 1.077369809 -0.08815334737 0.3113014996 0.9455173612
-0.1299811453 -0.159636274 1.077147484 -0.07710353285 0.3023287356 0.9496002197
-0.1258878261 -0.1647766083 1.082456708 -0.1286604106 0.3725031018 0.9189711213
-0.1232466325 -0.1567706466 1.078727245 -0.08662052453 0.3159205914 0.9434509873
-0.1186893359 -0.1549022049 1.083800673 -0.100567773 0.317301929 0.9425139427
-0.1238278672 -0.1523125321 1.082364798 -0.07224438339 0.2771555781 0.9569981098
-0.119138822 -0.1495702118 1.0830971 -0.06646327674 0.2809632421 0.9564515948
-0.1392705142 -0.1673535705 1.077000022 -0.09139117599 0.3022731543 0.947966814
-0.1323821694 -0.1541137248 1.076999903 -0.06571737677 0.2730423212 0.9593724608
-0.005739974789 -0.1964105219 1.202000022 0.2071065009 -0.07814566791 0.9519855976
-0.006400824524 -0.217509985 1.202000022 -0.24218674 0.150512889 0.9539092779
-0.004993454553 -0.2068133801 1.202000022 0.01438590605 0.03194560856 0.9557401538
-0.1237734854 -0.1788037568 1.087020755 -0.2761782408 0.5170865655 0.8079420924
-0.1217793897 -0.1733194888 1.08664 -0.2618678212 0.4180781543 0.8672084808
-0.119053185 -0.1591299772 1.080173731 -0.1124969199 0.3279925287 0.9338502288
-0.1172514632 -0.1698093116 1.086850762 -0.1929735243 0.4074733853 0.8920137286
-0.1218384281 -0.1684409529 1.085071564 -0.1899116039 0.3943174183 0.8965362906
-0.05816180632 -0.09404538572 1.073514819 -0.3679236472 -0.1439666152 0.9153246284
-0.0650409162 -0.08891908079 1.070936918 -0.3148781061 -0.2068900019 0.9258429408
-0.06522908062 -0.09393627197 1.069250226 -0.3310502172 -0.1874362081 0.9245676398
-0.05338133872 -0.09104099125 1.077942133 -0.3830548525 -0.1539297104 0.9087764025
-0.05548154935 -0.09881016612 1.073912382 -0.3968319893 -0.1065851599 0.9101905227
-0.05891561881 -0.08324754983 1.076455832 -0.3322204649 -0.2197163105 0.916446507
-0.05532884225 -0.0777869001 1.076577663 -0.3577348888 -0.2073426992 0.9104433656
-0.05024671555 -0.08340232819 1.076686263 -0.3716965616 -0.1854772419 0.9092755318
-0.04905481264 -0.09002133459 1.075351477 -0.376853466 -0.1767847389 0.9090066552
-0.03923807666 -0.09798107296 1.076474786 -0.4082112908 -0.05775300041 0.9070619345
-0.03972351179 -0.1063260883 1.076410294 -0.4382295609 0.05644880608 0.8942542076
-0.04469085485 -0.09827908874 1.075460672 -0.405746758 -0.1009836718 0.9052037001
-0.04269697145 -0.1114069149 1.076260567 -0.4603990018 0.08287647367 0.8831896186
-0.05866364017 -0.112793617 1.067941904 -0.344101578 -0.009350057691 0.9334082603
-0.05002932623 -0.1090518087 1.072943807 -0.4179123044 0.01216765866 0.9037571549
-0.05777686462 -0.1081382781 1.06993854 -0.3714619875 -0.0536641106 0.9238831997
-0.05126448348 -0.1019826308 1.073663831 -0.4162568152 -0.07837697864 0.902102828
-0.05098246038 -0.09514451772 1.073579311 -0.3729221225 -0.1773104966 0.910353899
-0.04256914929 -0.09199006855 1.076294899 -0.3813672066 -0.1565945148 0.9110553861
-0.03116570041 -0.09190399945 1.078990102 -0.3884598017 -0.05488832667 0.9176129699
-0.03349012509 -0.09751942754 1.078163266 -0.4044168293 -0.005762483459 0.9092011452
-0.1074316651 -0.09675750136 1.074355006 0.2953748405 -0.1704001427 0.9358183742
-0.1133296415 -0.1025198102 1.070413947 0.1867875755 -0.1955091059 0.9580801129
-0.107762605 -0.1001512855 1.068944693 0.2173985243 -0.1857084036 0.9535611868
-0.1438628286 -0.1130171716 1.067741394 0.183380723 -0.21332331 0.9572232962
-0.1368499398 -0.1107021645 1.069871426 0.1598680466 -0.2163098902 0.9612073898
-0.1308819354 -0.110423848 1.071210265 0.1351386756 -0.2091698796 0.9670664072
-0.1094437689 -0.1214564219 1.07387507 0.2349080145 -0.05729755387 0.9557830095
-0.1118919551 -0.1278712302 1.075860143 0.1600426137 0.04412811622 0.9596735835
-0.1193933636 -0.1093856245 1.073414803 0.1646663249 -0.170098424 0.9695940614
-0.1250106394 -0.1116752625 1.072097778 0.1068959907 -0.1932898611 0.975020051
-0.1230695918 -0.1193003729 1.071653962 0.09802722931 -0.06642400473 0.9859699607
-0.08478368074 -0.1147301495 1.061458111 0.1125647053 0.02581075393 0.9926612377
-0.08880191296 -0.09988801181 1.064465761 0.2161607593 -0.09332554787 0.9666662812
-0.09101842344 -0.109988004 1.06484735 0.2549140453 -0.04303622991 0.9626219273
-0.09266484529 -0.09628442675 1.065105319 0.2862804234 -0.1409311444 0.9454069138
-0.08813720942 -0.1210138425 1.0624336 0.167935133 -0.03434609622 0.9809276462
-0.09024849534 -0.1158953756 1.06369853 0.2267121673 -0.01545677334 0.9685835838
-0.0962850377 -0.1076125428 1.067270637 0.3579064012 -0.09257930517 0.9253614545
-0.1103978232 -0.1138210371 1.068632483 0.203071937 -0.1141574606 0.9631151557
-0.1023883298 -0.1070037559 1.068693399 0.3238337338 -0.1242716238 0.9288455844
-0.1119563431 -0.1078174934 1.07217443 0.2359918505 -0.1484895796 0.9538270831
-0.1157253236 -0.1113787368 1.070406437 0.1919332445 -0.1544110328 0.9590646029
-0.1147016808 -0.1170251295 1.070086598 0.155710429 -0.08769092709 0.9761884809
-0.1033591628 -0.1155624092 1.067422867 0.23484689 -0.06017592922 0.9632703066
-0.1059825718 -0.1213844791 1.069482327 0.1881957054 -0.001955314539 0.9785119295
-0.09562715888 -0.1181474403 1.066089988 0.2669542134 -0.02168705501 0.9618225098
0.01123659033 -0.196052283 1.188057303 0.2998077273 -0.05412315577 0.9423818588
0.008795592934 -0.2016977668 1.1913414 0.2326414585 -0.009251241572 0.9550949931
0.003462657332 -0.2114822268 1.20178926 0.1841996759 0.03846690431 0.9811142683
0.01140892971 -0.2025425136 1.19683063 0.3605617285 -0.07400017977 0.9286146164
0.004725505598 -0.2106705457 1.19607389 0.1145609766 0.06994210929 0.977411449
-0.04115004092 -0.09664880484 1.084574461 -0.402105391 -0.06002951413 0.9054626226
-0.04473181441 -0.08853433281 1.08400178 -0.3930669129 -0.1445963085 0.9041147232
-0.03479537368 -0.1012641042 1.088237524 -0.4083570838 -0.03335266933 0.9088250399
-0.04546206072 -0.09467858821 1.081431985 -0.4069113135 -0.08815158904 0.9014137983
-0.03514220566 -0.1102866307 1.087804556 -0.4337436557 0.04995610937 0.8964443803
-0.03673304245 -0.1067597121 1.083972812 -0.4416419268 0.0594990775 0.8943992257
-0.1315064132 -0.1018839404 1.078311563 0.1631883383 -0.4161320031 0.882530272
-0.1155504584 -0.0932726562 1.078838944 0.245531708 -0.2591858208 0.9112277031
-0.1257648766 -0.09712551534 1.080138803 0.2001414001 -0.3759784698 0.880158186
-0.1363973469 -0.1006326079 1.081988692 0.1551145762 -0.5025019646 0.843965292
-0.1098345593 -0.09164312482 1.077592015 0.2686088383 -0.1886524856 0.9326419234
-0.1200351343 -0.09560041875 1.078781962 0.2227962315 -0.3042085171 0.9024535418
-0.1209259927 -0.1038061827 1.07412374 0.1558355838 -0.2049499005 0.9618522525
-0.1289400309 -0.1066544726 1.074498415 0.1287192404 -0.3070572913 0.935621202
-0.1128496602 -0.09654910862 1.0756464 0.2254577279 -0.1711895913 0.9531855583
-0.1171427667 -0.09898713976 1.07545197 0.2021362633 -0.2115104645 0.9464330673
-0.1363437176 -0.1069243327 1.074513435 0.144792065 -0.3851249814 0.9066827297
-0.1415925324 -0.108530283 1.071893573 0.169901371 -0.3384655118 0.918636322
-0.140312165 -0.1021668836 1.084247351 0.1478660703 -0.4330074787 0.8855749369
-0.1448640078 -0.1024271026 1.087700367 0.1619383246 -0.3902801275 0.9014188051
-0.1280490458 -0.1167782396 1.079658866 0.09052823484 -0.1716378629 0.9309497476
-0.1166658774 -0.1224176437 1.076298594 0.1081500053 -0.03035336919 0.9725548029
-0.1224008277 -0.1291201413 1.079729438 0.03558880091 0.05024730414 0.9554176927
-0.1239849031 -0.1140151694 1.077589393 0.1286925226 -0.1971598119 0.9438902736
-0.1170088723 -0.1278335452 1.077417016 0.0703458786 0.05422561616 0.9735392928
-0.1241928115 -0.1223392338 1.079185247 0.07213842124 -0.06571755558 0.9465068579
-0.1304951608 -0.1101009697 1.079385638 0.1232113168 -0.2889195979 0.9198195338
-0.1179650202 -0.1334529966 1.078808784 0.02820727043 0.1392626315 0.9724859595
-0.1170102805 -0.1170010939 1.075444937 0.1426219642 -0.1180583984 0.9691941738
-0.1327755153 -0.1149783432 1.079335809 0.08246125281 -0.1982581615 0.9294406772
-0.1308172494 -0.1241315529 1.076942921 0.03609878197 -0.001195651828 0.968159318
-0.1352694482 -0.1201282591 1.075308204 0.04558862373 -0.05089784786 0.9738224745
-0.13780047 -0.114116177 1.078266263 0.08455738425 -0.1761625856 0.9502407908
-0.1409432292 -0.1107939407 1.08088243 0.1129380465 -0.2360259891 0.9422813058
-0.1423214674 -0.104973346 1.076681972 0.1709183007 -0.4236376584 0.8768452406
-0.1475578696 -0.1086294502 1.07126832 0.1973200887 -0.3272202611 0.9123964906
-0.1268427372 -0.1041718572 1.079753041 0.1730405986 -0.3164035082 0.9210062623
-0.1180878878 -0.107360594 1.077818871 0.1920108199 -0.2108770907 0.9498164654
-0.1234541684 -0.1078591421 1.077935934 0.1679751277 -0.2632203698 0.9379499555
-0.1187796295 -0.1024558917 1.079998255 0.214045912 -0.2426186502 0.9365531802
-0.1306796372 -0.09934206307 1.082795143 0.1846610904 -0.433193028 0.8617941737
-0.1132738218 -0.09962996095 1.080267191 0.2493497282 -0.1940416098 0.9431689978
-0.1076067835 -0.1093168184 1.075957537 0.2854173481 -0.1466172189 0.9456883669
-0.108161442 -0.1030643284 1.07894969 0.2895714343 -0.1442398429 0.9461272359
-0.104485929 -0.1136602536 1.073198557 0.3185085058 -0.1538198143 0.9353198409
-0.1088523269 -0.1163094416 1.073339462 0.2556475401 -0.1291614175 0.953818202
-0.09987715632 -0.1147990748 1.070952058 0.3156866431 -0.1745831221 0.9325834513
-0.1027370095 -0.1077413186 1.073790431 0.3059214652 -0.1633484066 0.9377018809
-0.005785598885 -0.2130735517 1.19674933 -0.1160625294 0.12876454 0.9839811325
-0.01099938992 -0.2136240602 1.195465922 -0.2248239815 0.1235403121 0.959638834
-0.004591460805 -0.2083603591 1.195082188 -0.03768250346 0.08458899707 0.9764448404
0.002846867777 -0.2010846734 1.192001104 0.1627158225 -0.002878852887 0.9540756941
-0.0001530465088 -0.2057790756 1.193879962 0.05972333252 0.04813601822 0.9660321474
-0.0315627344 -0.2418977767 1.181415439 -0.2326690704 -0.1204894036 0.9585541487
-0.02827801928 -0.2342751026 1.187366486 -0.2874287367 -0.06648866087 0.947398603
-0.02662529796 -0.2284033746 1.190747261 -0.3341036439 -0.0159200076 0.9378833771
-0.007113149855 -0.2266075909 1.198028803 -0.2666293979 0.1167033613 0.947381556
-0.006059642881 -0.2240359187 1.203773975 -0.2824988663 0.124820061 0.9494671822
-0.002704626415 -0.22092399 1.205822229 -0.08122937381 0.07994765043 0.9601100683
-0.0010827441 -0.2146845758 1.202038288 -0.01548836567 0.09376686811 0.9700173736
-0.02103830315 -0.2209197581 1.198510408 -0.3216341138 0.06150134653 0.9423621297
-0.02824815921 -0.2242309451 1.194695234 -0.2968122363 -0.03070372343 0.9505509734
-0.0169807151 -0.2249175906 1.201294422 -0.2964212298 0.04250437394 0.9513347149
-0.02525859885 -0.2192432433 1.195672512 -0.3353822827 0.05313671008 0.9375710487
-0.02279652841 -0.2262476087 1.198271513 -0.2894281447 -0.01105689257 0.9532299638
-0.01284998842 -0.2267902195 1.204916954 -0.3062930107 0.07332165539 0.947155416
-0.02325177193 -0.2312133908 1.199759364 -0.2769693136 -0.03222560138 0.9513018727
-0.02724462003 -0.2292834669 1.196582198 -0.27658391 -0.05866877362 0.9538971782
-0.03171008825 -0.2282547802 1.193237662 -0.2690652311 -0.09494909644 0.9574224949
-0.0176980719 -0.2371440977 1.19963181 -0.2601397932 -0.06665948033 0.9506655931
-0.04560374841 -0.252808243 1.18631947 -0.1959506571 -0.1461331546 0.9696338177
-0.03742971644 -0.2473845333 1.189550638 -0.2049239576 -0.1566571891 0.9659628868
-0.02725310065 -0.2434063405 1.19107163 -0.2140214294 -0.1715656072 0.9614726901
-0.03420945257 -0.2445459217 1.187262654 -0.230068326 -0.1349543929 0.9637316465
-0.01301832311 -0.2198675275 1.195083618 -0.2857856154 0.1216699481 0.94312042
-0.000249842793 -0.214822948 1.196866035 -0.01846811548 0.1234731525 0.9868451953
-0.008117511868 -0.2183054388 1.195966125 -0.1841892451 0.124360092 0.9621328712
-0.002015924314 -0.2196820378 1.196878672 -0.09324825555 0.1185550839 0.972001195
-0.01238016505 -0.2259704769 1.195502758 -0.3195212781 0.1161106452 0.9336751699
-0.02290183306 -0.2241486609 1.193305135 -0.362067908 0.04005790874 0.9302401543
-0.01770179905 -0.2175858617 1.19401443 -0.3434136212 0.1004604399 0.9328433275
-0.01773973927 -0.2251266837 1.194135189 -0.3668105602 0.1018669829 0.9239963293
-0.01200272795 -0.2185017616 1.20196259 -0.2845355272 0.111281842 0.9520563483
-0.0173331257 -0.2346219569 1.193747401 -0.3512745798 0.005260902923 0.9308968186
-0.008660500869 -0.2302069217 1.20856905 -0.3290249705 0.1124866679 0.9373162389
-0.0110987518 -0.2320193946 1.20463109 -0.3106076419 0.06426570565 0.9408382773
-0.009852518328 -0.2304329425 1.199687004 -0.3244176805 0.1004236862 0.9381973147
-0.01332961582 -0.2332926691 1.196969867 -0.2963215113 0.02686120197 0.9435703158
-0.02098890208 -0.2294299453 1.192543149 -0.3217025101 0.02201945148 0.935998559
-0.02389799431 -0.2333096564 1.191074371 -0.2792074978 -0.05107395351 0.9472424388
-0.02144429646 -0.2383733392 1.192265391 -0.2884553671 -0.08274759352 0.9450660944
-0.02495311946 -0.2388934642 1.188010931 -0.2778659761 -0.08117967844 0.9484851956
-0.02763224766 -0.2426597029 1.185100079 -0.2445446253 -0.1153397039 0.9559394121
