# .PCD v0.7 - Point Cloud Data file format
VERSION 0.7
FIELDS x y z normal_x normal_y normal_z
SIZE 4 4 4 4 4 4
TYPE F F F F F F
COUNT 1 1 1 1 1 1
WIDTH 512
HEIGHT 1
VIEWPOINT 0 0 0 1 0 0 0
POINTS 512
DATA ascii
0.09121611714 -0.150549829 1.159405231 0.5904582739 0.03233581036 0.8064201474
0.01115055755 -0.2479458004 1.157437682 -0.1686030328 -0.3476448357 0.9223427176
0.02161048353 -0.2516975403 1.160518169 -0.1686030328 -0.3476448357 0.9223427176
0.06241470948 -0.230079934 1.169965982 -0.1100106761 -0.07922855765 0.9894017577
0.07019175589 -0.223051995 1.174733162 -0.1141130552 0.02643793263 0.9926781654
0.08841682225 -0.1539603472 1.163236618 0.5853283405 0.01965988055 0.8103794456
0.08138413727 -0.1455366015 1.165886641 0.5783106685 0.00231923745 0.8157957196
0.008455308154 -0.2520608008 1.153352976 -0.1686030328 -0.3476448357 0.9223427176
0.09109742194 -0.1636543423 1.159734845 0.5904582739 0.03233581036 0.8064201474
0.03832804784 -0.2429466099 1.152353168 -0.1735966355 -0.3404705822 0.9240816832
0.01295931265 -0.2501341999 1.149542332 -0.1686030328 -0.3476448357 0.9223427176
0.01824953221 -0.250336498 1.15551579 -0.1686030328 -0.3476448357 0.9223427176
0.01315061282 -0.2437948138 1.159751654 -0.1686030328 -0.3476448357 0.9223427176
0.0655259341 -0.2198550701 1.16900003 -0.1006214097 -0.01743507199 0.9918763638
0.07421783358 -0.2144742161 1.16998899 -0.05178650841 0.05064695701 0.9950894117
0.0706314221 -0.218793869 1.16910708 -0.0721796006 0.004870289005 0.9930937886
0.06653308123 -0.225242272 1.170163274 -0.1113556698 -0.03879570961 0.9906405807
-0.07535549253 -0.172902301 1.065682292 0.1104872227 0.4831468761 0.8673718572
-0.05401897058 -0.1498348415 1.062485576 -0.03817540035 0.3216475546 0.942779243
-0.05147421733 -0.1572141498 1.070860028 -0.1516103595 0.3584977984 0.9209971428
-0.05459069088 -0.1630622894 1.067632675 -0.1302403212 0.4112726748 0.9003892541
-0.04797003418 -0.173537761 1.074286222 -0.09636317939 0.5488545895 0.8292315602
0.02772049792 -0.09445694089 1.063704252 -0.4544818103 -0.1071563363 0.8818800449
0.03343065456 -0.0944532901 1.070527196 -0.4241487384 -0.1384928226 0.8913238049
0.03308613598 -0.09975775331 1.067729473 -0.4325634539 -0.09352587163 0.8957499266
0.02665989473 -0.08707094938 1.065759778 -0.450946182 -0.1613238007 0.8731687069
0.03002239764 -0.08522523195 1.070606828 -0.4307955205 -0.1947485507 0.8769934177
0.03777701408 -0.1021506488 1.071759224 -0.4151456654 -0.09695928544 0.9042431116
0.03171083331 -0.2464984357 1.156053901 -0.1714763045 -0.3435168266 0.9233433008
0.0232920479 -0.2491168678 1.156475306 -0.1695802212 -0.3462409079 0.9226830006
0.08995518833 -0.1601623595 1.155942678 0.5904582739 0.03233581036 0.8064201474
0.09084881842 -0.1530248225 1.154396772 0.5904582739 0.03233581036 0.8064201474
0.08394445479 -0.1903371215 1.169345021 0.3370085359 0.09275051951 0.9291011095
0.08869093657 -0.1468497962 1.16386795 0.588311553 0.02703131363 0.8080769777
0.08526599407 -0.153336525 1.158445716 0.588850677 0.02836341411 0.8076608777
0.08597269654 -0.1633935422 1.15737009 0.590046823 0.03131912649 0.806737721
0.08265900612 -0.1570150256 1.162413716 0.584438026 0.01745993085 0.8110665679
0.07892920077 -0.1527809352 1.16804719 0.5781294703 0.001871528453 0.8159355521
0.08330480754 -0.1501392126 1.161373973 0.5855370164 0.02017546073 0.8102183938
0.07779591531 -0.2100055814 1.169242144 -0.01316646487 0.08002765477 0.996160388
0.07570237666 -0.2108739167 1.173913598 -0.04585668445 0.0758144334 0.9948171973
-0.08997544646 -0.1183027625 1.066494465 0.2336355448 -0.1060305312 0.9637557864
-0.08783917874 -0.1134498119 1.068566322 0.2269641906 -0.1394345015 0.9602569342
-0.09698523581 -0.122711584 1.067108631 0.2285736054 -0.05719600618 0.969610393
-0.07983240485 -0.1059717983 1.070559621 0.2386213392 -0.1710537821 0.9557266831
-0.09487560391 -0.1209478676 1.063066721 0.2190021425 -0.0781398192 0.9667064548
-0.09774075449 -0.1261475235 1.06316936 0.2251170427 -0.01432836149 0.9672629833
-0.09941677004 -0.1360336989 1.057880044 0.2277820408 0.1190296635 0.9610521793
-0.05104294792 -0.1106324568 1.060327172 0.387080282 -0.1290232837 0.9120292068
-0.05468446761 -0.1017148346 1.057538748 0.4143372774 -0.1079349965 0.9011604786
-0.05183732137 -0.09783826768 1.053143501 0.4660676122 -0.1065372825 0.8773953319
0.05512341857 -0.2351054698 1.168748975 -0.1218585223 -0.1375407577 0.9823541641
0.04812401533 -0.2381159365 1.170201778 -0.1371327788 -0.1680963188 0.976085484
0.04782743379 -0.2403048575 1.160192847 -0.1520049572 -0.2373341918 0.9550415874
0.0510789603 -0.2344989181 1.173135281 -0.1320014149 -0.1305358559 0.9800554514
0.006731757428 -0.2469810694 1.152825117 -0.1686030328 -0.3476448357 0.9223427176
0.01261211839 -0.2452885062 1.152720332 -0.1735655814 -0.3404647112 0.9239845276
0.07957816124 -0.1850410402 1.171668887 0.3548330665 0.0769559145 0.9254525304
0.0776225999 -0.1802826375 1.171799302 0.4024813771 0.05829480663 0.9113778472
0.07996898144 -0.1902571917 1.173134685 0.2753095031 0.0994163081 0.950697422
0.07976899296 -0.2037386298 1.168192148 0.06304444373 0.07581419498 0.9832770228
0.07864747941 -0.1988840997 1.16724813 0.1067305356 0.05811426044 0.9690402746
0.08144440502 -0.1944913566 1.165848851 0.2001235038 0.05875456706 0.9459123015
0.08771171421 -0.190762043 1.164215088 0.335842669 0.07606755197 0.9162601233
-0.06141000986 -0.1523251086 1.061299324 -0.01651649363 0.3171178401 0.9474788904
-0.05689553171 -0.1548972428 1.062629342 -0.05723075196 0.3258776069 0.9434577227
-0.05469780788 -0.1866645366 1.081001639 -0.1184084639 0.6024599075 0.7892740965
0.02313241921 -0.1110292375 1.061187625 -0.4067628086 0.08808219433 0.9085094333
0.03053852729 -0.106369026 1.067161441 -0.4109284282 -0.01429964416 0.9067671299
0.02828992531 -0.1117268577 1.06029284 -0.4207892716 0.02716626786 0.9050032496
0.05756849796 -0.2273486555 1.1738621 -0.1376877874 -0.06314896047 0.9861975312
0.03910391405 -0.2429153323 1.16354394 -0.1703339815 -0.2850073278 0.9411492348
0.04409245774 -0.2413303405 1.163585186 -0.1718862951 -0.2297088504 0.9577501416
0.02884782292 -0.249299854 1.160662651 -0.1698023081 -0.3381772041 0.9251041412
0.04129586369 -0.2427579761 1.158461452 -0.1727620214 -0.295528084 0.9377551079
0.03594882414 -0.2455702126 1.159698129 -0.1714108288 -0.3109334111 0.9332098365
0.04842757061 -0.2400177717 1.165470362 -0.1460528076 -0.1833880842 0.9717204571
0.02869042382 -0.2457661629 1.164716959 -0.1634809524 -0.3176148236 0.9313723445
0.04169236869 -0.2399112284 1.170799851 -0.1448944658 -0.2086449116 0.9641382694
0.03447024152 -0.2446860969 1.165706635 -0.1601472348 -0.2980697453 0.9372493029
0.01882217266 -0.2441607416 1.162486672 -0.1686030328 -0.3476448357 0.9223427176
0.07525360584 -0.1868662387 1.173000216 0.2649076283 0.05952034891 0.9585342407
0.07215567678 -0.2053857744 1.173000097 -0.03234047815 0.06536476314 0.9951405525
0.07364356518 -0.1980427802 1.16900003 0.03090742789 0.05845024809 0.9970933199
0.08204593509 -0.1992509663 1.173000216 0.1380188316 0.1044951081 0.9819990396
0.0696426481 -0.1989143491 1.173000097 0.01334252208 0.06415277719 0.9950976968
0.07861439139 -0.1703755409 1.17103672 0.5324075222 0.02616321295 0.842749536
0.008368694223 -0.1083885059 1.053552866 -0.3801569641 0.04489304125 0.9228988886
0.004508030135 -0.1123326495 1.053510547 -0.3985803723 0.01765963808 0.9166787267
0.01565885171 -0.1119401082 1.056901574 -0.3944669962 0.1330958456 0.9087151885
-0.0830963999 -0.1179772243 1.06718266 0.2273544669 -0.06405677646 0.9637627006
-0.09075216949 -0.1229784489 1.065285087 0.2355574965 -0.05487342551 0.9676452875
-0.08161394298 -0.1133142412 1.068531394 0.2322474569 -0.1033107936 0.9607416391
-0.07463763654 -0.1056848317 1.065116405 0.2588417232 -0.1662426442 0.9513278604
-0.07090017945 -0.1083143726 1.066664457 0.2765175104 -0.1549155712 0.946821034
-0.06638863683 -0.1094758287 1.064789057 0.2976553738 -0.1460963786 0.9414833784
-0.05645783991 -0.1110402271 1.061302423 0.349570483 -0.1249913871 0.9280720949
0.04585994408 -0.2248418778 1.170030475 -0.170603022 -0.09855820984 0.9787971377
0.05108550563 -0.2285120189 1.172415853 -0.1558744609 -0.1073600501 0.9803920984
0.04308599234 -0.2201887518 1.168664694 -0.1785644591 -0.09543668479 0.977219224
0.04373418167 -0.2310343981 1.170440793 -0.144495219 -0.1482133567 0.9776161313
0.06002399325 -0.1983175874 1.169975042 -0.05118408427 0.07703953236 0.9940097928
0.03962191194 -0.2358812839 1.157975435 -0.1763958335 -0.3127316535 0.9296307564
0.0410627611 -0.2311929911 1.160732985 -0.1817441881 -0.2506133914 0.9414066076
0.03480219096 -0.2301720977 1.163241267 -0.1772960126 -0.295045197 0.9332293272
0.06434940547 -0.2093463391 1.16900003 -0.0919226259 0.04402106255 0.9944126606
0.06881947815 -0.2061462402 1.16900003 -0.06743458658 0.06217239797 0.9951301217
0.05978740007 -0.2049031407 1.173000097 -0.08975927532 0.06574109942 0.9926272631
0.06473480165 -0.2026670873 1.173000097 -0.04447276145 0.05693350732 0.9947273135
0.06715261936 -0.1944783777 1.16900003 0.004873132333 0.05104637519 0.9965649843
-0.05453861877 -0.1162937582 1.059708834 0.3286177516 -0.08798459917 0.9368710518
-0.06139905378 -0.1130481437 1.060370684 0.3059049249 -0.1442666948 0.9399434924
-0.06031605229 -0.1216577664 1.05849421 0.2614286542 -0.06874158978 0.9588198662
-0.06349694729 -0.1443882585 1.064370751 0.05999014527 0.21877487 0.9541018009
-0.06306020916 -0.1502287239 1.066544771 0.01193956751 0.2837502062 0.9417461157
-0.069437325 -0.1421341151 1.062359452 0.1335611641 0.194793731 0.9615445137
-0.06789051741 -0.1502276659 1.065474272 0.06172137335 0.2744124532 0.9465920329
-0.07316631079 -0.1455948651 1.062835813 0.1431886852 0.2338260114 0.9561282396
-0.06282658875 -0.1560224146 1.068417907 -0.02367070131 0.3203177452 0.9366859794
-0.07419928908 -0.1512651294 1.064325213 0.1240253076 0.2597852647 0.9543218613
-0.0657306239 -0.1488383412 1.06117034 0.04497208819 0.2983192801 0.9519369602
-0.06089320779 -0.1477852762 1.059037209 0.01220170408 0.3046714365 0.9518330693
-0.06771758944 -0.1401112676 1.057202816 0.1366136223 0.1961111128 0.9648138881
-0.06542205065 -0.1443824619 1.059315205 0.07977929711 0.2713109851 0.9568576813
-0.04733224586 -0.1802324355 1.076359272 -0.11258059 0.5853330493 0.8025329709
-0.05333479494 -0.178323552 1.07451272 -0.1099865064 0.5634307861 0.8180155754
-0.05880552158 -0.1776173562 1.072493792 -0.09770648181 0.5278432965 0.8387805223
-0.06824075431 -0.185265407 1.079927802 0.0009398857947 0.6144837737 0.7834875584
-0.07782916725 -0.1889093667 1.083776712 0.1096981987 0.6275465488 0.7691209316
-0.07417811453 -0.1859268695 1.0804075 0.07205791026 0.6143975258 0.7792166471
-0.06864544749 -0.1895287186 1.084525824 0.008243969642 0.6270597577 0.7727726102
-0.05970362574 -0.187761426 1.082228541 -0.0797001943 0.6106336713 0.7839627862
-0.05494373664 -0.1686309725 1.075639486 -0.09841101617 0.4724846184 0.8625043631
-0.05210334063 -0.1621877998 1.072708845 -0.1356020272 0.4081233144 0.897552669
-0.0573063083 -0.1733019948 1.077856302 -0.06873954087 0.5192759037 0.836807251
-0.05866681784 -0.1789112389 1.080001116 -0.03052872792 0.5833610296 0.8030227423
-0.05255163088 -0.1731018722 1.076251507 -0.08965101838 0.5271161795 0.8363137245
-0.04943915084 -0.1671429574 1.073456883 -0.1430248767 0.4594522417 0.873210907
-0.05924946815 -0.1834276319 1.077753782 -0.08934042603 0.6023104787 0.7928414941
-0.06285678595 -0.1840431094 1.082920194 0.0003227525449 0.6243836284 0.7781100869
-0.07291186601 -0.179096207 1.0726583 0.08088841289 0.5869851112 0.8009188771
-0.06748797745 -0.1804351807 1.074338317 0.006358971354 0.5884158611 0.8021795154
-0.06272959709 -0.1808904558 1.075340867 -0.0675509125 0.5773226619 0.8103515506
-0.06755936891 -0.1769158542 1.070533037 -0.006191482767 0.5237547755 0.8435972333
-0.07114546746 -0.174354434 1.067309976 0.04226906598 0.4909484982 0.8640221357
-0.07993824035 -0.178817749 1.071916819 0.1550784558 0.5622087121 0.8093768954
-0.07930316776 -0.1751722395 1.068490863 0.1469629705 0.5281963348 0.8340143561
-0.07147786021 -0.1829771847 1.077129364 0.04847766086 0.6048622131 0.7876181006
-0.06093656272 -0.1708355099 1.068081498 -0.09393075109 0.4591314197 0.8811235428
-0.05596173182 -0.1705691367 1.069949865 -0.1168774366 0.4911762178 0.8607068062
-0.07354577631 -0.1680914462 1.065329432 0.06800864637 0.3966650963 0.9115258455
-0.08468136936 -0.1587122083 1.070028663 0.1511437148 0.3419599533 0.9244089127
-0.06539511681 -0.1653866768 1.070253491 -0.04587846622 0.4025277495 0.9082203507
-0.06607490033 -0.1590448469 1.070628524 -0.02134105191 0.3599795699 0.9208212495
-0.05684691295 -0.1588071138 1.070951223 -0.1057257876 0.3662514389 0.9198352695
-0.07034579664 -0.1625266075 1.070267677 0.007999925874 0.3793910444 0.9146350622
-0.07854229957 -0.1570383757 1.068741202 0.1114514023 0.3212140203 0.9337536693
-0.0722040087 -0.1561075598 1.067496896 0.06715327501 0.3063294888 0.9412381649
-0.07579131424 -0.1654881537 1.070469737 0.05739955604 0.3969888389 0.9068959951
-0.08123018593 -0.162424922 1.070419431 0.1155363917 0.3718112707 0.9140835404
-0.05764729157 -0.1649439931 1.073277473 -0.09346045554 0.4250987768 0.8900362253
-0.06434471905 -0.1789458245 1.080403805 -0.004237777088 0.5689104199 0.8099076152
-0.06191814318 -0.1687321216 1.072241068 -0.0704125911 0.4420034587 0.887522161
-0.06219931692 -0.1742946208 1.077940822 -0.03391148522 0.5204278827 0.837143898
-0.08097142726 -0.1854384542 1.082525373 0.1425557733 0.6075937748 0.7786071897
-0.07874855399 -0.1838172823 1.087373137 0.1202020049 0.613512516 0.7762932181
-0.07484582067 -0.1890525222 1.089975238 0.08430059254 0.6416969895 0.7622567415
-0.08245842904 -0.1827908307 1.076729178 0.1743280441 0.5983285308 0.7818487883
-0.08590876311 -0.1795621216 1.077816725 0.1857492775 0.5792485476 0.7922411561
-0.07019802928 -0.1685583293 1.070567966 -0.002759401686 0.4232775569 0.8990759254
-0.08443510532 -0.1670635343 1.073572993 0.1586576998 0.4295761287 0.8811994195
-0.07976656407 -0.1685561091 1.073492289 0.1058625728 0.4449781775 0.8770567179
0.03586171567 -0.1040265635 1.066690683 -0.4363510013 -0.06930201501 0.8959707022
0.03176598996 -0.1101809815 1.063362479 -0.4187346101 -0.007042505778 0.9061201215
0.03232371062 -0.0999571234 1.060853243 -0.4360791445 -0.076567702 0.8960568905
0.03400073946 -0.09489212185 1.062076569 -0.4450981021 -0.1055040434 0.8892242908
0.02753002569 -0.07819852233 1.069994926 -0.4425107241 -0.2335996032 0.8638347387
0.0333134979 -0.0894028917 1.068994641 -0.4448033273 -0.1599742621 0.8781413436
0.03004080616 -0.08712299913 1.060800076 -0.4503233135 -0.1473442912 0.8785744905
0.02834429778 -0.08196951449 1.065121412 -0.4465163946 -0.1939035207 0.8704565167
0.02280197851 -0.0834787339 1.063204408 -0.4227953851 -0.2189722061 0.8737441897
0.07121763378 -0.2131048739 1.174159765 -0.08764730394 0.06328899413 0.9940245152
0.06696216017 -0.2103589028 1.173358202 -0.09399158508 0.04830313101 0.9943392873
0.06572593749 -0.2158314139 1.174475551 -0.1110688597 0.04355903342 0.9928115606
0.06062927097 -0.2225921601 1.17396307 -0.1236984879 -0.01493928302 0.9912565947
0.06157312915 -0.213020876 1.173726439 -0.1079617366 0.04542953521 0.9929310679
0.03685249761 -0.2356918752 1.167668223 -0.18836914 -0.2294225544 0.9542343616
0.08762077987 -0.1688597053 1.163963079 0.5633022785 0.04042046517 0.8240913749
0.07722444832 -0.1659950912 1.17291522 0.5778977871 0.001906258054 0.816087842
0.08395183831 -0.1747838706 1.165776491 0.5192804337 0.05993030965 0.8524577022
0.088452667 -0.1637941599 1.164003372 0.5879198313 0.02606335469 0.8083792925
-0.08364541829 -0.1585735083 1.06499815 0.1603815109 0.2986686826 0.9371927977
-0.09069015086 -0.155832395 1.064998269 0.2118538767 0.2732110918 0.9364767671
-0.07737892866 -0.1635357141 1.06494689 0.1079356223 0.3413656652 0.93174088
-0.02411948889 -0.1089741886 1.050000072 0.07695242018 -0.119900696 0.8860788345
-0.01310665533 -0.1061802506 1.050000072 -0.2240302116 -0.1161519364 0.915442884
-0.01028779615 -0.1102494821 1.050000072 -0.2517816126 -0.09534300864 0.9046540856
-0.0299701076 -0.1137494221 1.050000072 0.2707542181 -0.1082387492 0.8578879237
-0.01808146201 -0.1124946326 1.050000072 -0.03601925448 -0.09688443691 0.882848382
-0.02255192213 -0.1145687029 1.050000072 0.09584229439 -0.09450662136 0.8673324585
-0.004793504253 -0.107406415 1.045072675 -0.3463070393 -0.08124165237 0.9318806529
-0.01145412307 -0.1063325778 1.041124701 -0.2414098382 -0.1616865695 0.9554696083
-0.001471551019 -0.09767141193 1.04550755 -0.305485934 -0.1347166896 0.9414026737
-0.01666306704 -0.1065895334 1.038473487 -0.206092611 -0.1758220196 0.9624336958
-0.0005194414407 -0.1133157089 1.050942779 -0.4113130569 -0.04351442307 0.9095942378
-0.00679194089 -0.1140017435 1.045161724 -0.3561156094 -0.05859228969 0.9248111844
-0.01137928851 -0.1165600717 1.04465425 -0.1765175164 -0.1484756917 0.9245097041
-0.01627429947 -0.1185119301 1.040468931 -0.05693842471 -0.1806453466 0.9441601038
-0.01253499091 -0.1139784679 1.040773869 -0.2206410021 -0.1615112722 0.9591056705
-0.006026742049 -0.07400115579 1.057572126 -0.2632308602 -0.3636700809 0.8922852874
-0.01375707891 -0.07804568857 1.049547076 -0.2137482911 -0.3044169247 0.9271762371
-0.02143086679 -0.08355427533 1.044041395 -0.08514233679 -0.296659559 0.9482238293
-0.02433466539 -0.09461265802 1.04009366 -0.01003239863 -0.2804165483 0.9424354434
-0.01979346573 -0.1017965451 1.038764358 -0.1357791722 -0.2132670879 0.9565252662
-0.03017289005 -0.118445456 1.03957212 0.3192224503 -0.1757341623 0.9228096008
-0.03419388086 -0.1204018146 1.049705744 0.3978669345 -0.1437654346 0.8448396325
-0.02454969659 -0.1187261119 1.047508001 0.1753658205 -0.112247929 0.8794429898
-0.01459614467 -0.1161642075 1.049862504 -0.1018808782 -0.09886457026 0.8824706078
-0.009079610929 -0.1149694622 1.049917221 -0.242663309 -0.08626942337 0.8929882646
-0.02078645118 -0.1188786477 1.042970896 0.08168932796 -0.1636892855 0.9177902937
-0.02604992688 -0.1206307709 1.039973855 0.2208643407 -0.2084763497 0.9279099107
-0.02912000753 -0.120205611 1.044772506 0.3180694282 -0.1144285873 0.8897073865
-0.04909228906 -0.1365668923 1.052938223 0.1757473797 0.1558286101 0.9298398495
-0.05414601788 -0.1454075426 1.059188366 0.031842608 0.2882886231 0.947398901
-0.05119526014 -0.1417954266 1.056880593 0.09404753894 0.2277417332 0.9383504391
-0.03938789666 -0.1312370002 1.052507043 0.2956059575 0.002651804592 0.8826944232
-0.04538308457 -0.1471012235 1.063179255 0.006580238696 0.2189920098 0.9050008655
-0.04178949818 -0.1361436397 1.054387689 0.1911677569 0.09070053697 0.9055155516
-0.03892364725 -0.1281427443 1.048437834 0.3307414651 -0.01032886934 0.9005333781
-0.05127644539 -0.1049752459 1.059167862 0.430682689 -0.135144487 0.8916533589
-0.01986577548 -0.1045633033 1.050585985 -0.08584270626 -0.131370455 0.9119451046
-0.03641450405 -0.1137660071 1.051619411 0.3964425623 -0.1146454811 0.8518089056
-0.03320722654 -0.1051102653 1.055300474 0.1512427032 -0.1404033452 0.901530385
-0.02922515571 -0.1089060381 1.051657319 0.1678893268 -0.1247356683 0.8827089071
-0.04294371232 -0.1067311838 1.05805099 0.3512405455 -0.1429924369 0.8871622682
-0.03790341318 -0.1072345823 1.055868983 0.2773481607 -0.1372534782 0.8871637583
-0.02479146793 -0.1035919487 1.052989244 -0.02421503142 -0.1385496557 0.9145991206
-0.04302588478 -0.1144347414 1.053883076 0.5113298297 -0.1175645292 0.8480788469
-0.04668900371 -0.1106646582 1.057886243 0.4528434873 -0.1320621818 0.8787569404
-0.002264532493 -0.1084514856 1.052050948 -0.3700475693 -0.04602498561 0.9240155816
0.00353698642 -0.1058295965 1.052170753 -0.360348165 0.02219803073 0.9314706326
-0.01027130429 -0.1015907973 1.050353885 -0.3214216828 -0.1222138107 0.9374060631
-0.004646536894 -0.1028692722 1.051014423 -0.3347149789 -0.06270224601 0.9359671474
0.0018986098 -0.1010960415 1.048782468 -0.346924752 -0.04928191006 0.9334045649
-0.001994704362 -0.1033227742 1.046166182 -0.3539169133 -0.07984640449 0.9302321672
-0.08743467927 -0.147421971 1.064906001 0.2021318078 0.2355723977 0.9486637115
-0.08130747825 -0.14949435 1.0647403 0.180601269 0.2655333281 0.9457068443
-0.08463215083 -0.1528593302 1.064767122 0.1799420118 0.2560606003 0.9479350448
-0.09742703289 -0.1443645954 1.060036421 0.228814438 0.1964330524 0.9522292018
-0.09494554251 -0.1470224708 1.063420653 0.2420832068 0.2263408005 0.9430220723
-0.0896390453 -0.1399284899 1.058386445 0.2150063962 0.1653801054 0.9621228576
-0.08416282386 -0.1408964545 1.059612393 0.2060305476 0.1718937904 0.9628303051
-0.07993507385 -0.1440697908 1.062439322 0.1865482926 0.2076957524 0.960016191
-0.09283845127 -0.1281635314 1.064444542 0.2270156145 -0.003358166665 0.9714679122
-0.09998457879 -0.131549716 1.063634276 0.2321169376 0.05160009116 0.9665163755
-0.09835062921 -0.1360429376 1.063257456 0.2370910347 0.110603258 0.958940804
-0.09595473111 -0.1409274489 1.063847303 0.244154036 0.172763437 0.9497622252
-0.08681249619 -0.1423453838 1.063897729 0.200956136 0.1770828664 0.9605505466
-0.09347739816 -0.1330648363 1.065363169 0.2164901644 0.0628182441 0.9686116576
-0.08998451382 -0.1369181871 1.064524889 0.2086069435 0.1113194302 0.9660518765
-0.08822951466 -0.1151912361 1.06309104 0.2091720849 -0.1553111225 0.9652063847
-0.08432518691 -0.10932035 1.064711094 0.2217031121 -0.1944151074 0.9552550912
-0.08587054163 -0.1221581995 1.061754465 0.2078700215 -0.1120627522 0.9712510109
-0.08271680027 -0.1277113557 1.064050436 0.2108181864 0.02004244551 0.9700158238
-0.07832044363 -0.1291847825 1.060795188 0.2015502751 -0.02998182736 0.9734705091
-0.08273416013 -0.133933574 1.062018275 0.1971468776 0.07516402006 0.975068152
0.06570582092 -0.1895935386 1.171918035 0.1167664751 0.04320317507 0.9863551259
0.07074970752 -0.1905246973 1.173000097 0.127985388 0.05328058079 0.988553822
0.07383816689 -0.1942328513 1.173000216 0.08397483081 0.07262774557 0.9929156303
0.05089824647 -0.212189436 1.16900003 -0.152738139 -0.01551594306 0.9858348966
0.05455698818 -0.2068838477 1.170465946 -0.1247945726 0.03788753226 0.9884847999
0.03010891005 -0.239047125 1.165368319 -0.1833930016 -0.2935498357 0.936438024
0.01825400814 -0.2457881421 1.150774717 -0.1697378606 -0.3454219997 0.9229566455
0.02497981861 -0.2406836599 1.155103683 -0.1714037806 -0.34207654 0.9238883257
0.03112418577 -0.2391825765 1.156092167 -0.1726476997 -0.3403012156 0.9243171215
0.02531458437 -0.2450661063 1.150969863 -0.1710790843 -0.3437882364 0.9233154655
0.03579228371 -0.2397648841 1.155227065 -0.1734412909 -0.3396503329 0.9244128466
0.0181180723 -0.2420556843 1.155176401 -0.1731470227 -0.3400283456 0.9242548347
0.01784836128 -0.2376521081 1.161997676 -0.1827980727 -0.3265784979 0.927246213
0.02644289471 -0.2316608429 1.164573073 -0.1763138771 -0.3332968354 0.9261459112
0.02198989131 -0.2351568788 1.162649632 -0.1788672358 -0.3309457004 0.9264636636
0.02273629792 -0.2378373146 1.158061981 -0.1717182845 -0.3407579958 0.9243069291
0.0221417211 -0.2410115153 1.16387403 -0.1771198362 -0.3353221714 0.925160408
0.03192650527 -0.2344986647 1.166315079 -0.1885780841 -0.2647665739 0.9442722201
0.03557881713 -0.2271546572 1.16767323 -0.1444943845 -0.1961430609 0.9685668945
0.07839416713 -0.1841668934 1.16356039 0.3119468689 0.0437559858 0.9111858606
0.0754224509 -0.1880654842 1.165959835 0.2074400485 0.04636389762 0.9484376311
0.08530800045 -0.1802188009 1.159825087 0.4654943347 0.05060555041 0.853508234
0.08319989592 -0.1885000616 1.164880276 0.2905157208 0.06547170132 0.9292953014
0.08820222318 -0.1846076548 1.16266942 0.4169597924 0.06724882126 0.8932086825
0.07632113248 -0.1925854385 1.167133808 0.1398603767 0.06004852429 0.9673596621
0.08600176871 -0.1735964566 1.158015728 0.5451716781 0.04092656821 0.8245283961
0.08125345409 -0.1753885448 1.160758257 0.4345473349 0.03630885109 0.8662925363
0.07614840567 -0.1783017814 1.16746664 0.3824194372 0.05248499289 0.9005813599
0.08337584883 -0.1687837392 1.159177423 0.5156009197 0.03382229805 0.835970521
0.07088322937 -0.1863585562 1.167979717 0.1701360196 0.03616302833 0.9689488411
0.07881917804 -0.1747059673 1.164790154 0.4397008419 0.04768231511 0.875214994
0.08499893546 -0.1800609231 1.165684462 0.479567945 0.06428770721 0.8740694523
0.08858148009 -0.1737935692 1.162908316 0.5553762317 0.04531748593 0.8288224339
0.09048021585 -0.1698451936 1.15762341 0.5882574916 0.03758578748 0.8077663183
-0.06366000324 -0.1304875463 1.055630207 0.1726800948 0.04557714984 0.9788418412
-0.04633408785 -0.1309253424 1.050876975 0.2539539039 0.08075160533 0.9264354706
-0.05437695235 -0.1364216506 1.055332065 0.1345317215 0.2043457031 0.9541137815
-0.05199694261 -0.1314639896 1.054385066 0.2368018925 0.1179999635 0.9302868247
-0.06257163733 -0.1387248337 1.056581736 0.1089921668 0.1820621043 0.9689158201
-0.05775946006 -0.1420356035 1.056948423 0.05469033122 0.2801156044 0.9573098421
-0.05768987909 -0.1474093795 1.066188574 -0.0009661581717 0.2456244528 0.9433366656
-0.05608713627 -0.1380301863 1.061604738 0.1148719788 0.1206366271 0.9557725191
-0.06293557584 -0.1337226331 1.059254527 0.1900419891 0.08144800365 0.9702594876
-0.06799804419 -0.1354881376 1.059963584 0.1820271611 0.1164081544 0.9734269977
-0.06172695756 -0.1390096098 1.061906695 0.1186271235 0.146830529 0.9608057141
-0.05760757625 -0.1426719874 1.063849807 0.05964972824 0.1842400581 0.9504593611
-0.0536977835 -0.1511864662 1.068184257 -0.061048273 0.2848211229 0.9329628348
-0.04561162367 -0.1417079568 1.062026143 0.1157527268 0.1406210363 0.8859407306
-0.04865922779 -0.1379394978 1.064973712 0.07727058977 0.1411646307 0.9133213758
-0.04862296209 -0.1266216636 1.062394142 0.2173594087 0.01912270673 0.9131370187
-0.04860028997 -0.1534021199 1.06836307 -0.1111030504 0.3064404428 0.9126002789
-0.04755230248 -0.1330420375 1.062499881 0.1682503968 0.07366793603 0.903454423
-0.04340262339 -0.1323325485 1.057178378 0.292422533 0.01019827742 0.866245091
-0.04439355806 -0.1372054666 1.059502482 0.2049713284 0.07587035745 0.875072062
-0.04355436936 -0.119865492 1.054575324 0.4414027035 -0.1216558963 0.8677613139
-0.04840896651 -0.1149697229 1.059518576 0.3664987981 -0.1088995859 0.9113627672
-0.04301143438 -0.1264100671 1.055365443 0.3760850132 -0.05867424607 0.8628102541
-0.05042739958 -0.1212200746 1.061008811 0.2755022943 -0.03708496317 0.9263913035
-0.05101035163 -0.1426877528 1.065338492 0.01633567363 0.1901513636 0.9298629761
-0.05361824483 -0.1339798123 1.061271906 0.1437360644 0.08193956316 0.9467240572
-0.05326212198 -0.1253060848 1.0596205 0.2475045919 -0.009192359634 0.9445468187
-0.08113626391 -0.1804938167 1.0844872 0.1488948166 0.590744555 0.7890378833
-0.07109181583 -0.1858007908 1.086717606 0.06586357951 0.6363644004 0.7679476142
-0.07269496471 -0.1736466438 1.075736284 0.03600949794 0.495313704 0.8543539047
-0.06700211763 -0.1718585193 1.072456002 -0.03272475675 0.4600800872 0.880621314
-0.07767790556 -0.1765063852 1.079696774 0.1004634276 0.5392827988 0.8234363794
-0.07740695775 -0.1727654934 1.076465011 0.08507478982 0.5005305409 0.8470680118
-0.08293191344 -0.1766744107 1.081477165 0.1589862108 0.5567680597 0.8082684875
-0.07330209762 -0.1785101444 1.080017328 0.05882808566 0.5464605093 0.8229448199
-0.08698118478 -0.1737499833 1.080280185 0.193967402 0.539272368 0.8152753711
-0.06338920444 -0.1633625329 1.065570116 -0.04356754199 0.3654369116 0.9295644164
-0.06172950566 -0.1584379524 1.063905597 -0.04455112666 0.3406022191 0.9387113452
-0.06594729424 -0.169027552 1.066085339 -0.05603146181 0.4097922444 0.9094676375
-0.06713841856 -0.1584374756 1.063534379 -0.008902734146 0.3370550275 0.939753592
-0.07260099053 -0.1614745408 1.064454436 0.06345596164 0.3373039365 0.9372962117
-0.08778271079 -0.1746301055 1.074814916 0.1876408607 0.5602148175 0.8059972525
0.01631474122 -0.07173095644 1.066055655 -0.3571213484 -0.3501877487 0.8589143157
0.02390181832 -0.0737715587 1.069389224 -0.4285036922 -0.2733272016 0.8588947058
0.01181848999 -0.07106387615 1.064088702 -0.313506335 -0.3927281797 0.8605895042
0.004372566938 -0.08520094305 1.054980755 -0.292535454 -0.1945456117 0.9159250259
-0.001240508514 -0.08597517014 1.054745197 -0.3014064729 -0.2517246306 0.9079310894
-0.0006031026714 -0.07214306295 1.060017586 -0.2722296715 -0.3986371756 0.874712348
0.02365077287 -0.105615519 1.061345339 -0.4160116613 0.03895838559 0.9074922204
0.03055170551 -0.105102323 1.059596419 -0.4315409362 -0.03397867829 0.8991656899
0.02673406713 -0.1020134836 1.057166219 -0.4310755134 -0.01096561179 0.8966059089
0.03025333956 -0.09503486007 1.057179809 -0.4416854084 -0.0827902928 0.8911364079
0.02427695319 -0.0972057879 1.056720257 -0.4388211668 -0.02069907449 0.8946444988
0.02141446806 -0.09901039302 1.060244679 -0.4200158417 -0.0326449275 0.8950654864
0.02225538902 -0.09321480989 1.06033659 -0.4245642722 -0.119460173 0.8858962059
0.0189587567 -0.09567227215 1.05502069 -0.4038584828 -0.01964226738 0.9118400812
0.02332369983 -0.08895527571 1.055485487 -0.4365619421 -0.1513446867 0.882694304
0.02921632491 -0.08941435814 1.056659222 -0.4499977827 -0.1372809112 0.8815556169
0.05906899646 -0.2182249427 1.16900003 -0.1224785447 -0.008526246063 0.991012454
0.05913721398 -0.2134824246 1.16900003 -0.1154516488 0.0206685178 0.9924170971
0.04379193857 -0.2408121079 1.153467536 -0.1733728498 -0.3285547197 0.9263961911
0.05069609731 -0.2277452052 1.162158489 -0.148783356 -0.1444194019 0.9623023868
0.05430095643 -0.2227214724 1.166027904 -0.1375252604 -0.0681245327 0.9781769514
0.05385687202 -0.2331638038 1.161901236 -0.1475446224 -0.1859084666 0.9605318308
0.04719595611 -0.2321515232 1.158576727 -0.1593001038 -0.2132960111 0.9476419687
0.06069036201 -0.2254479378 1.168564677 -0.1277915835 -0.06122179329 0.9877377152
0.05828428641 -0.2309182733 1.165195227 -0.1371663809 -0.1355051547 0.9737606049
0.04521889612 -0.2277697921 1.161854863 -0.1854135692 -0.1785489768 0.9548584223
0.04509782791 -0.2362956703 1.156141043 -0.1694982201 -0.271375984 0.9368978739
0.04707031325 -0.2209388018 1.165981889 -0.1812382042 -0.09290282428 0.9707227349
0.05587139353 -0.2213054448 1.172469974 -0.1449069977 -0.04221274704 0.9871589541
0.04689954594 -0.2168575525 1.169252396 -0.1924612522 -0.05027814209 0.9795553684
0.05447847024 -0.2146486342 1.171742558 -0.1311509758 0.005805232562 0.9892191291
-0.09037779272 -0.1623769403 1.067639351 0.2109218091 0.3826129735 0.8906590939
-0.08507544547 -0.1648147106 1.06649375 0.1853231341 0.4003022909 0.8913068175
-0.09339551628 -0.1659053564 1.073327661 0.2157043666 0.4485738873 0.8664771318
-0.09084931016 -0.1700428277 1.073827744 0.2084994167 0.5120735765 0.8318139315
-0.08422000706 -0.1734623313 1.070359111 0.1703299135 0.5453142524 0.8202053308
-0.08851955831 -0.1619584113 1.072427392 0.1890439242 0.3903191388 0.8962748051
-0.09152404219 -0.1715524048 1.078573465 0.2218022346 0.5314410329 0.8173669577
-0.0932450518 -0.1591471285 1.070342183 0.2195309401 0.3704691529 0.8968697786
-0.09359814227 -0.1531706601 1.067591429 0.2289868742 0.3078640997 0.9169119596
-0.00434780959 -0.09120731801 1.052339792 -0.3038324714 -0.1987962276 0.9239266515
-0.01019344665 -0.09303285927 1.051043868 -0.2817111015 -0.1962919384 0.9360460639
-0.003601354081 -0.07866461575 1.057140827 -0.2780364156 -0.3316517174 0.8935878873
-0.008922144771 -0.08634327352 1.053529978 -0.2730599344 -0.26049456 0.9196426272
0.002815106185 -0.08613966405 1.048432112 -0.2626137435 -0.274713397 0.9241540432
0.01298330072 -0.0927227214 1.052479029 -0.3493399024 -0.0760782361 0.9257394671
0.009797297418 -0.08824411035 1.050203204 -0.3239685893 -0.2102103829 0.9146384001
0.01610556431 -0.08675289899 1.05249989 -0.3727698028 -0.2280535549 0.8940079808
0.002962513128 -0.08084787428 1.051243901 -0.2700809836 -0.3456959724 0.8949080706
-0.001984605798 -0.0849006176 1.047528744 -0.2460061312 -0.2795429826 0.9264840484
-0.004585514311 -0.08038006723 1.049531579 -0.2380262762 -0.3272355795 0.9108322263
-0.0006801379495 -0.07746136189 1.052297354 -0.2568341792 -0.3759786189 0.8872662187
-0.008388744667 -0.07690092176 1.052341104 -0.2513109148 -0.3034630716 0.9178576469
0.003883246332 -0.09140743315 1.047985673 -0.3036750853 -0.1664253175 0.932805419
-0.0223271288 -0.113858819 1.036266565 0.06065397337 -0.1671465933 0.9819557071
-0.01920008846 -0.117275171 1.034907103 -0.03688526154 -0.1711139232 0.981606245
-0.02260310017 -0.108340174 1.037467718 0.04122146964 -0.1744805127 0.9778395295
-0.02435057424 -0.09990180284 1.039072394 0.02983832918 -0.2415337414 0.9537549615
-0.029736178 -0.09561213851 1.039897561 0.1903987527 -0.2801205218 0.9317210317
-0.02862641774 -0.1033867449 1.03866148 0.2114726901 -0.1960721463 0.9479762912
-0.02905798145 -0.1122687757 1.037737966 0.2592105865 -0.1452206373 0.9499708414
-0.03189599141 -0.1082426459 1.038701534 0.3312205374 -0.1307053864 0.9331361651
-0.04013721645 -0.1057742238 1.044576168 0.4240414798 -0.1168765202 0.8940668702
-0.04816154763 -0.09970992059 1.050002098 0.4691332877 -0.1089202538 0.875330925
-0.03629234433 -0.1063937172 1.041792631 0.3741540015 -0.1241289824 0.9151004553
-0.03332815692 -0.1137394682 1.039699316 0.3846777081 -0.1352262199 0.9093973041
-0.0270075649 -0.09661053866 1.0510391 0.1256638616 -0.1851676106 0.8946044445
-0.03003610298 -0.09939575195 1.053510308 0.1287752986 -0.1720668226 0.9026722312
-0.04241017625 -0.1019375622 1.055634975 0.42266047 -0.1695525497 0.8713892102
-0.03615164384 -0.1001342013 1.054093361 0.2904920578 -0.1738127768 0.8834476471
-0.02128926292 -0.09867474437 1.052513957 -0.09945996851 -0.1666170657 0.9283206463
-0.04313031584 -0.09764611721 1.052760363 0.5042183995 -0.145755738 0.8497084975
-0.04686611146 -0.1034980267 1.057497978 0.4685961008 -0.1396578103 0.8711776733
-0.04352236539 -0.09388842434 1.048131466 0.3646605611 -0.1960757822 0.8880383372
-0.03021882661 -0.0885970071 1.052833438 0.2110688537 -0.2150422782 0.8714748621
-0.01904154755 -0.07878597081 1.049288869 -0.06716796756 -0.3329088688 0.9292973876
-0.01924540102 -0.08136948198 1.05419898 -0.07709886879 -0.2734824121 0.8983068466
-0.02490388043 -0.0846587196 1.053692341 0.05630775914 -0.2391980141 0.8876110911
-0.03794704005 -0.09196342528 1.051970363 0.3654759824 -0.1667144001 0.8663985133
-0.02918455191 -0.08538834006 1.047673464 0.1643178314 -0.2808682621 0.9095237255
-0.03469004482 -0.08955046535 1.048802733 0.2878812253 -0.2285070419 0.8883343935
-0.02683854848 -0.08540281653 1.042923212 0.08578965813 -0.3487953246 0.9294089675
-0.0683093816 -0.1275133789 1.060048223 0.2186977714 0.01441187505 0.9650591016
-0.06618007272 -0.1205563769 1.059982061 0.2496084273 -0.072050035 0.9560837746
-0.06354597956 -0.1256148368 1.058917284 0.2361581922 -0.01739941165 0.9642212987
-0.07121646404 -0.1298608631 1.056605101 0.2164865434 -0.00412113592 0.9695742726
-0.07339006662 -0.1335360855 1.060251355 0.1763382852 0.06990566105 0.9781768322
-0.0857199952 -0.1358864307 1.056899071 0.2207840681 0.1038513854 0.9645159245
-0.07717064023 -0.1334091127 1.056814432 0.2170542181 0.05832459778 0.9672161937
-0.07852517068 -0.1380241066 1.05698967 0.2082030177 0.1421759725 0.9669576287
-0.08433852345 -0.1294348538 1.05795908 0.2239496857 -0.01468710694 0.9673152566
-0.09487816691 -0.1347480118 1.057907581 0.2253104746 0.08269256353 0.9635926485
-0.08989983797 -0.1328691691 1.057454586 0.227007255 0.04866376892 0.9643754959
-0.0696098879 -0.1124691367 1.062860131 0.2635788321 -0.1585484296 0.9511448741
-0.07546553761 -0.114668943 1.0646981 0.2372525781 -0.1457657069 0.9597533345
-0.01919028722 -0.094404459 1.041224241 -0.1398445666 -0.236581549 0.9573684931
0.07244879752 -0.1779957265 1.173151731 0.359190315 0.02976826578 0.9158765674
0.06928113103 -0.1838146448 1.172036648 0.2292171419 0.02812347375 0.9603387713
0.08065205067 -0.1614931077 1.165242076 0.5812928081 0.00968808867 0.8134940863
0.0829327181 -0.1645090282 1.161777973 0.5851450562 0.01920693554 0.8105208874
0.07819263637 -0.1590901464 1.170028806 0.5780034065 0.00156002515 0.8160328269
0.08046194911 -0.1688713282 1.165237904 0.549880743 0.03221833333 0.8323068023
0.007009323686 -0.09224141389 1.05367589 -0.3101596236 -0.07329183072 0.9301173687
0.01007498428 -0.09590553492 1.055268645 -0.3338446915 -0.02549862117 0.921464026
0.005890191067 -0.07762692869 1.059621811 -0.29092592 -0.3156213164 0.8820464015
0.008091417141 -0.08511634916 1.058376908 -0.3118067086 -0.1990121007 0.8945798874
0.01211954467 -0.0883115381 1.056631565 -0.3215762675 -0.2099225223 0.897339046
0.01532263681 -0.1065324768 1.057777524 -0.387968123 0.08220897615 0.9174062014
0.01740101352 -0.09194359928 1.058745384 -0.3781836033 -0.115916498 0.8975529075
0.0152078066 -0.1014747545 1.056597829 -0.3723599017 0.04562757909 0.9170122147
0.0207925532 -0.10806036 1.056892514 -0.4106676579 0.08560133725 0.9075315595
0.01610559784 -0.08710698783 1.059301496 -0.3564441502 -0.1803802997 0.892726779
0.01591318473 -0.07882136852 1.0615834 -0.3348670006 -0.3085599244 0.8784745336
0.008243740536 -0.09590212256 1.05057919 -0.3459106982 -0.05081216991 0.9331434369
0.007815349847 -0.1020323038 1.052198768 -0.3540263772 0.02051402256 0.9305291772
0.01243997552 -0.07570814341 1.059049129 -0.3078434169 -0.3887495697 0.8662870526
0.02163942531 -0.08214322478 1.057496428 -0.410371989 -0.2562489808 0.8685571551
0.005732649006 -0.07772027701 1.054587603 -0.2778612375 -0.3884430826 0.8772257566
0.007313189562 -0.07227995247 1.061638474 -0.2879964709 -0.4024691284 0.8685775995
0.02507832274 -0.07807917893 1.064109087 -0.4441397786 -0.2320480049 0.8635130525
-0.01197621319 -0.08298704773 1.046478748 -0.1976838857 -0.282568574 0.937487781
-0.001138275373 -0.08993647248 1.047000051 -0.2914821208 -0.2145864666 0.9302354455
-0.04708072543 -0.1170112416 1.048761368 0.4708800316 -0.1455057561 0.8614026904
-0.05947086215 -0.1201189756 1.053470492 0.2984429896 -0.1156385243 0.9350318313
-0.05483144894 -0.1068252549 1.052835226 0.4099884033 -0.1284514666 0.8954224586
-0.04526697844 -0.112501651 1.048356414 0.5064655542 -0.140430361 0.8486850262
-0.04841430858 -0.1065646484 1.050122261 0.4854749441 -0.1277096272 0.8619717956
-0.05133749172 -0.1107843816 1.051063776 0.4402477443 -0.1368953139 0.8793187737
-0.05318167433 -0.1172944009 1.051381707 0.401542902 -0.1509919912 0.8922417164
-0.03790656105 -0.1135495901 1.043541431 0.4836506546 -0.1124179438 0.8678969145
-0.04426213354 -0.1059112698 1.047605395 0.4831437469 -0.1112816036 0.868273139
-0.04608029127 -0.1224392354 1.050266266 0.4263744354 -0.05217117816 0.8693181276
-0.05804425478 -0.1325524747 1.055817962 0.1506622434 0.1444862783 0.9639689922
-0.06167252362 -0.1251596659 1.05414331 0.2102695107 -0.02842831984 0.9649039507
-0.05580877513 -0.127958253 1.053782701 0.2349354029 0.05352260545 0.9397389889
-0.05054622889 -0.123846285 1.051238656 0.3446708918 -0.01591201499 0.9000295997
-0.05563905835 -0.1225375906 1.051928043 0.3084097803 -0.06286910921 0.9247867465
-0.04110990465 -0.1166734993 1.046182752 0.5128103495 -0.1412582397 0.8461268544
-0.03487859666 -0.120648019 1.044277787 0.4574881792 -0.1222275868 0.88027215
-0.02302085236 -0.09318129718 1.050577164 0.04818767682 -0.2054778636 0.8978617191
-0.01684928499 -0.09028900415 1.051305532 -0.1298176497 -0.2217058092 0.9169980288
-0.01517697424 -0.0952379033 1.050011158 -0.1902210414 -0.1815524399 0.9324342012
-0.02060582303 -0.08727971464 1.0521034 -0.01134316809 -0.2488961518 0.8968209028
-0.01327173598 -0.0806824863 1.053791523 -0.21617046 -0.2927396297 0.913910985
-0.03123735078 -0.09389039129 1.050424814 0.2918434441 -0.2082871497 0.8667671084
-0.07497605681 -0.1230345741 1.057923794 0.2218672186 -0.1126254126 0.9681837559
-0.07965388149 -0.1245295256 1.059444547 0.2157419175 -0.09924324602 0.9711823463
-0.08064636588 -0.1180297211 1.060563326 0.2090014666 -0.1482089907 0.9662488699
-0.08292925358 -0.113764368 1.062247753 0.2099731714 -0.1742239743 0.9617731571
-0.07523367554 -0.1167216823 1.059007049 0.2216906548 -0.1595309675 0.9616408348
-0.06085510924 -0.1092115492 1.054582119 0.3467189074 -0.1298501194 0.920029819
-0.06241965666 -0.1148214266 1.055447102 0.3013136685 -0.1456459165 0.9383892417
-0.07082366198 -0.1193293035 1.056917191 0.2280325145 -0.1447857916 0.9625400305
-0.06653480232 -0.1113148257 1.058179379 0.2890289724 -0.1491027772 0.9413243532
-0.0607365109 -0.1042500362 1.057197809 0.3631418049 -0.1408885568 0.9146524668
-0.06664348394 -0.1224482432 1.055569768 0.2042885572 -0.08941672742 0.972951591
-0.07496009022 -0.1111472175 1.061250567 0.2393815517 -0.1647301465 0.9564569592
-0.07966098189 -0.1099971831 1.062591434 0.2294835597 -0.1860800236 0.9549571276
-0.004881269764 -0.09756863862 1.050000072 -0.3174976408 -0.1328087151 0.9385932088
-0.007375427987 -0.09923859686 1.042829037 -0.2661462426 -0.1567133665 0.9483907819
-0.01269846968 -0.1009596661 1.040824533 -0.231035322 -0.1871337295 0.9529203176
-0.00610490609 -0.09173742682 1.045521975 -0.2730289698 -0.2273241282 0.9334812164
-0.01518100034 -0.08617351949 1.045204878 -0.1766101271 -0.2638721466 0.9468021989
-0.01055348758 -0.08863847703 1.045484066 -0.2255887985 -0.2490008324 0.9393506646
-0.01517174486 -0.09196715057 1.043242574 -0.1899882704 -0.2379597425 0.9503853917
-0.0321146138 -0.1013941467 1.041038275 0.3220648468 -0.1929514855 0.9118646383
-0.03015541099 -0.08935045451 1.040881038 0.158879593 -0.349409461 0.9216281772
-0.03608840704 -0.1021995097 1.044819474 0.4394925833 -0.1433349699 0.878333807
-0.03359706327 -0.09588441998 1.043188334 0.3089452982 -0.2410430759 0.897647202
-0.03789332137 -0.09558842331 1.045307875 0.3413392901 -0.2149897814 0.8925605416
