# .PCD v0.7 - Point Cloud Data file format
VERSION 0.7
FIELDS x y z normal_x normal_y normal_z
SIZE 4 4 4 4 4 4
TYPE F F F F F F
COUNT 1 1 1 1 1 1
WIDTH 512
HEIGHT 1
VIEWPOINT 0 0 0 1 0 0 0
POINTS 512
DATA ascii
-0.1546691507 -0.1228372231 1.069289446 -0.3841185272 0.2980858684 0.826190114
-0.1546685845 -0.1136466339 1.054975271 -0.5130349398 0.4933512807 0.6015769839
-0.155156821 -0.1239418462 1.063549995 -0.2488957942 0.34179914 0.8051770926
-0.15373303 -0.1130106077 1.048303366 -0.5010807514 0.5414382219 0.6332640052
-0.04708950222 -0.07405210286 1.07796967 -0.4189334512 -0.3779032826 0.8254278302
-0.02829902247 -0.08645501733 1.085837841 -0.5341145396 -0.1670021266 0.8283174634
-0.04039128497 -0.07608136535 1.080595613 -0.4594386816 -0.3258842528 0.8191820383
-0.03562261164 -0.07995684445 1.082799315 -0.4894827306 -0.2652722895 0.8219144344
-0.152265802 -0.1091205925 1.045855165 -0.6003441215 0.5624079704 0.5618507266
-0.1419970989 -0.1840347797 1.087445736 -0.2461645752 0.3303825855 0.9051579237
-0.1489545554 -0.1699004918 1.083420873 -0.1935466826 0.1619386226 0.9556407928
-0.1456185877 -0.1819134951 1.084048152 -0.2805621028 0.2843530476 0.9087051749
-0.147429809 -0.1762314737 1.083351731 -0.2428085506 0.2244884372 0.9309162498
-0.1463383287 -0.1721626371 1.086944461 -0.1809345782 0.2017220706 0.9467079639
-0.1439613253 -0.1792043298 1.088034153 -0.2257916629 0.277025938 0.9191755652
-0.143670857 -0.154130429 1.077000022 -0.03555353731 0.1295714527 0.9854564071
-0.1399434358 -0.1595503092 1.077000022 -0.1179447472 0.1830429286 0.9675024152
-0.0659821108 -0.2520652115 1.174631 -0.183913365 -0.4973710477 0.8478169441
-0.03942109644 -0.0823385641 1.084931135 -0.5190015435 -0.2577363849 0.8143577576
-0.03909259662 -0.07731726021 1.085722566 -0.5029196739 -0.3089223802 0.8061805964
-0.03232500702 -0.07914102077 1.089675188 -0.5472873449 -0.2430972755 0.8005866408
-0.06694976985 -0.2451989949 1.176876426 -0.1830215305 -0.5000185966 0.8464508653
-0.07074713707 -0.2504466474 1.173501849 -0.1835715622 -0.4983857274 0.8472933769
-0.1536157727 -0.1164681539 1.068543434 -0.7874951959 0.3450294733 0.432066232
-0.1540845484 -0.1152138561 1.062647939 -0.6476660371 0.4098618925 0.5523614287
0.02200584672 -0.1784155369 1.189137459 0.5507732034 -0.1211582646 0.8258144855
0.02201732993 -0.1674103439 1.194748878 0.5507732034 -0.1211582646 0.8258144855
-0.05677780882 -0.08456521481 1.069755316 -0.3545206189 -0.2689818144 0.8939725757
-0.05304370821 -0.08072080463 1.072086334 -0.3754757345 -0.3095123768 0.8693047762
-0.05414859951 -0.08918123692 1.067936659 -0.3666038513 -0.2382367104 0.8964555264
-0.04962365702 -0.09253404289 1.067796469 -0.409306556 -0.2043796331 0.8871700168
-0.1484526992 -0.1510383934 1.077000022 -0.004047024064 0.08892041445 0.9947172403
-0.1459614336 -0.159953177 1.077000022 -0.1228643954 0.1290863603 0.9758366942
-0.1538678855 -0.1503024846 1.077079415 -0.01248801034 0.05474926159 0.9982790351
-0.1524736881 -0.1460688263 1.079653621 0.04324585199 0.1222498566 0.9891818762
-0.06026889011 -0.2530965507 1.173947692 -0.1841944605 -0.4965366125 0.8482474685
-0.01059194654 -0.2353446931 1.197247505 -0.02818867192 -0.3544661105 0.9296625257
-0.01596047543 -0.2400212586 1.194051623 -0.06328463554 -0.4601221681 0.8815282583
-0.03961477429 -0.08077777177 1.078840733 -0.4774729013 -0.2939978838 0.8204966187
-0.03393230587 -0.08636214584 1.081036925 -0.5202460885 -0.219153285 0.8215036392
-0.04733021185 -0.08140245825 1.073171139 -0.4184087515 -0.3070528507 0.8483039141
-0.04736948758 -0.08706196398 1.071105123 -0.4248521328 -0.2550573051 0.8622893095
-0.04284373671 -0.08334235847 1.075383306 -0.4657643735 -0.290674746 0.829112649
-0.0174760744 -0.0983081311 1.090080857 -0.5597866178 -0.1709268391 0.8108131886
0.01730840467 -0.1738664806 1.189799547 0.53816396 -0.1192442402 0.8337746859
-0.04567199945 -0.08290068805 1.081829071 -0.4758501351 -0.2922147512 0.8279812932
-0.0475432016 -0.07821106911 1.081197023 -0.4318989813 -0.3497363031 0.8310388327
-0.05326934904 -0.07647970319 1.075677991 -0.3987232447 -0.3272281885 0.8560125232
-0.02718965709 -0.09227199852 1.085685015 -0.5512331128 -0.1694767922 0.8167656064
-0.01896320656 -0.2411001176 1.184105039 -0.1142917648 -0.4353807271 0.8836767077
-0.01079933997 -0.2339774519 1.184748054 -0.05226190761 -0.3404111266 0.9263949394
-0.01435462479 -0.2377317846 1.18759644 -0.06709931791 -0.4177535176 0.8948612213
-0.02179385163 -0.2418528646 1.179846168 -0.1490516067 -0.416760385 0.8880020976
-0.02657922357 -0.236623928 1.183515072 -0.1409095228 -0.4589277804 0.8749982715
-0.02211943641 -0.2292227447 1.188120484 -0.07812652737 -0.4302186668 0.8930913806
-0.01798374392 -0.2334916145 1.185113311 -0.08372891694 -0.3939919174 0.9044515491
-0.07130990177 -0.2505474091 1.168389916 -0.1817983985 -0.4959222972 0.8490971923
-0.05875818431 -0.2450385988 1.175939798 -0.1793518513 -0.4952950478 0.8499647975
-0.06337460876 -0.2408134937 1.17929554 -0.1812877506 -0.5004047751 0.8465797901
-0.05790410563 -0.2377885729 1.176716208 -0.1675278246 -0.4926555455 0.853928566
-0.06695493311 -0.2463837415 1.17102313 -0.1770827025 -0.4947718382 0.8507351875
-0.03922332078 -0.2525530159 1.177701831 -0.1903209537 -0.4890560806 0.8512321711
-0.02875282429 -0.2480798066 1.181945443 -0.1546241194 -0.4937074482 0.8545681834
-0.02480677515 -0.245736286 1.184213519 -0.1384619027 -0.4918247759 0.858227551
0.008132595569 -0.1924120188 1.202041745 0.4843668044 -0.144489795 0.8592484593
0.009054334834 -0.2008464187 1.202156782 0.4710729718 -0.2048525214 0.8573723435
0.007003688719 -0.1780113429 1.202928901 0.4754786193 -0.09474211931 0.8745831251
0.0114549296 -0.1833376884 1.199688435 0.5307896733 -0.1254001856 0.8344943523
0.01339509524 -0.1920556277 1.197869301 0.585701108 -0.1704957038 0.7898054719
-0.06358934939 -0.1170673519 1.064476132 -0.2213668078 0.09807778895 0.9663473368
-0.05732018873 -0.1197829023 1.067574859 -0.3531815708 0.1493866891 0.9211249948
-0.05218470842 -0.1169065684 1.070058823 -0.4125445783 0.1169226691 0.8969557285
-0.05325857177 -0.09703193605 1.066892982 -0.3886913359 -0.1654040068 0.9040823579
-0.06034530327 -0.1122628078 1.065295815 -0.2647812068 0.04125810415 0.952488482
-0.08041431755 -0.1128011718 1.060631394 0.09375772625 0.01817202196 0.9895657897
-0.06954653561 -0.1121586859 1.061742783 -0.1160489395 0.02034077793 0.9860557914
-0.07431987673 -0.1066187173 1.059963465 -0.04698226228 -0.06374553591 0.9928541183
-0.07530351728 -0.1167678609 1.061274529 -0.0003526190994 0.07554130256 0.9963822961
-0.07940338552 -0.1212427989 1.062880158 0.09215500206 0.0986776948 0.9868777394
-0.08619360626 -0.1181910411 1.063120723 0.205111444 0.03550007939 0.9766528606
-0.1559415907 -0.1345048994 1.07490623 -0.0002387495915 0.171682626 0.984914124
-0.1544913054 -0.1290159076 1.075528622 -0.2229176909 0.2069970816 0.9336186647
-0.1527303308 -0.1349061728 1.079263449 0.0126022594 0.16756244 0.9742900729
-0.1459507942 -0.1355232149 1.080000043 0.1235686541 0.07554576546 0.9882132411
-0.1454451978 -0.1677034497 1.077000022 -0.2321969569 0.1545659304 0.959666431
-0.1520032734 -0.1633422077 1.07711935 -0.2021058947 0.1161268204 0.950361371
-0.150846526 -0.1711900532 1.077651858 -0.3122975528 0.1493468881 0.9249375463
-0.02823292464 -0.09830652177 1.087771654 -0.5518066287 -0.1424506605 0.8213012218
-0.03186132386 -0.08442167193 1.089031696 -0.5515595078 -0.2173050046 0.8041993976
-0.03863504156 -0.09341672063 1.083133698 -0.5254027247 -0.1927546561 0.8237583637
-0.04154310748 -0.08781439066 1.082846403 -0.509518683 -0.2363588363 0.8241981268
-0.03348664939 -0.1011868492 1.08427012 -0.5483810902 -0.1364800781 0.8222231269
-0.03241721913 -0.09329608828 1.085596919 -0.5470659733 -0.197161153 0.8112033606
0.02159240469 -0.1735872328 1.187411666 0.5507732034 -0.1211582646 0.8258144855
0.01588696241 -0.1651182622 1.194287062 0.54618752 -0.1204621717 0.8287094235
0.01256471407 -0.1715030968 1.19550848 0.5169104934 -0.1160180792 0.847192049
0.021419378 -0.1622361094 1.195472479 0.5433997512 -0.1200390086 0.8304693103
0.02039004862 -0.1622799933 1.190567732 0.5305305719 -0.1180855334 0.8385936618
0.01912560314 -0.1666457355 1.188048005 0.550121069 -0.1210592687 0.8262261748
-0.08773551881 -0.1062500924 1.062122703 0.3031682968 -0.07968251407 0.9253069758
-0.09209089726 -0.1115109548 1.064413309 0.3599338233 -0.06237629429 0.923824966
-0.08365865052 -0.1090739518 1.059963822 0.1422512978 -0.05995626748 0.9767184258
-0.008423837833 -0.2329844236 1.190303206 -0.01704683714 -0.3563999534 0.924885273
0.00418203976 -0.1865724027 1.202782393 0.4677582383 -0.1051589251 0.8759382367
0.0009918505093 -0.1925404072 1.203752398 0.4225465953 -0.1507356167 0.890383482
-0.002502096584 -0.1988286823 1.203837156 0.3437082767 -0.1857206821 0.916275382
0.003928795457 -0.1917168498 1.19873333 0.4500739872 -0.1388538629 0.8656964302
0.0002950386843 -0.1967284083 1.200186372 0.3553008735 -0.1539747864 0.9027713537
-0.03041973896 -0.1065315604 1.085542202 -0.5519083142 -0.09746593237 0.8265715837
-0.03011607565 -0.1146507189 1.086271048 -0.5418761373 -0.0457097441 0.8381567001
-0.0249159541 -0.1043816283 1.085677505 -0.5529757738 -0.1049131975 0.8240549564
-0.02840429358 -0.1012422964 1.0831182 -0.5445224643 -0.1051351875 0.8290042877
-0.02312654443 -0.09947547317 1.086860776 -0.5604200363 -0.1446913034 0.8139216304
-0.03314927965 -0.0980976522 1.080213547 -0.5421708226 -0.1340456605 0.8262833953
-0.0441547893 -0.0940091759 1.071986198 -0.4537377357 -0.1825456172 0.8707953691
-0.03781853616 -0.09353005886 1.076272964 -0.5318155885 -0.2035959363 0.8208941817
-0.1492150575 -0.1632140726 1.082471132 -0.1575244069 0.112082921 0.9763283134
-0.1424349099 -0.1663846523 1.084614158 -0.1786290705 0.2084231824 0.9498283863
-0.136132583 -0.1645587087 1.084484696 -0.2173896581 0.2401694953 0.944976151
-0.1383840442 -0.1710650176 1.087132931 -0.1800643504 0.2997235954 0.922450006
-0.1444181651 -0.1609079093 1.083158612 -0.1627426445 0.1499985009 0.968739748
-0.1497972608 -0.1580002457 1.08233428 -0.1229638308 0.09068772942 0.9846182466
-0.1382802576 -0.1866253167 1.09183979 -0.2069207579 0.3737376034 0.9017339945
-0.1345056295 -0.1889832169 1.100247979 -0.186521098 0.4255715907 0.8851137757
-0.1366605461 -0.1437019408 1.08009088 0.05418534577 0.1474494487 0.9828196764
-0.1239720285 -0.14435938 1.08035624 0.03699445724 0.2182448208 0.9692981243
-0.1389486641 -0.1374630779 1.080088973 0.107289359 0.09947104007 0.9839844108
-0.128843084 -0.1463020742 1.080237865 0.02565974556 0.203695789 0.974945724
-0.08162233233 -0.1215452477 1.072237611 0.10559237 -0.001232146518 0.9608849287
-0.07191123813 -0.1197204217 1.071755886 -0.08595881611 0.007384495344 0.9387869835
-0.07124003768 -0.1139811426 1.071169376 -0.1044293568 -0.04830828682 0.9516852498
-0.05922348425 -0.1137163341 1.070769787 -0.3395980597 -0.01765789837 0.9192185998
-0.06497577578 -0.1117788926 1.070757627 -0.2289471626 -0.05302992463 0.9400652647
-0.06621341407 -0.1175127402 1.071361184 -0.199407801 0.001038414426 0.928743422
-0.06886172295 -0.1228355393 1.068294048 -0.1291273385 0.1250388622 0.9460106492
-0.07514426112 -0.1240713522 1.068777084 -0.006734450813 0.09969991446 0.9602020979
-0.06212829798 -0.1214302182 1.066579461 -0.257165134 0.1563687325 0.9399902821
-0.07452359796 -0.1222542748 1.063063622 -0.0003842579608 0.1245548651 0.9871646166
-0.0827178359 -0.1252200603 1.069427848 0.1415733546 0.06960000843 0.9727966189
-0.1451594085 -0.1099205688 1.069150567 -0.1557411104 0.03325186297 0.6617128253
-0.1442945153 -0.1085771918 1.075550318 0.02391863428 -0.1647766829 0.7208296657
-0.1515422761 -0.1158700585 1.073178172 -0.7260894775 0.2408829927 0.417792052
-0.1483736634 -0.1122582778 1.074310899 -0.3833595514 0.07822858542 0.5593058467
-0.1482893229 -0.1113609299 1.065296292 -0.4591228366 0.3565884829 0.5604072809
-0.1453090161 -0.1092638597 1.08103776 0.0009723517578 -0.2550899982 0.6978347301
-0.1458771229 -0.1142533943 1.079974055 0.234248057 -0.3436440527 0.6809883714
-0.1539675444 -0.1421333253 1.076498508 0.03504557163 0.1131561399 0.9919731021
-0.1408165246 -0.1447281539 1.076999784 0.06688792259 0.1725940108 0.9820902944
-0.1474858671 -0.1439510733 1.080000043 0.07041848451 0.1377975196 0.9865466356
-0.14381513 -0.140688628 1.080000043 0.08771768212 0.1049877554 0.9877024889
-0.1482667923 -0.112310566 1.054188251 -0.5194479823 0.5725964904 0.6275398135
-0.1505726427 -0.1173757166 1.058164477 -0.3980405629 0.4792833626 0.7114468217
-0.1542053074 -0.1218931973 1.059080243 -0.286681205 0.3936931193 0.7884093523
-0.1554632336 -0.129563272 1.068829775 -0.1071999148 0.2557447255 0.9124522805
-0.1466928124 -0.1393041462 1.074549556 -0.002073017415 0.1998340189 0.948122561
-0.1499956101 -0.1238287315 1.065886021 -0.2639720738 0.3795731962 0.7991495728
-0.145468697 -0.1344569474 1.070970178 -0.1083537787 0.2795834541 0.8775488734
-0.1502465308 -0.1340227425 1.072523117 -0.0654014051 0.2359796613 0.9229717851
-0.1464865208 -0.1293924302 1.068110704 -0.1947403252 0.3390599191 0.828128159
-0.152074486 -0.1089188084 1.054582119 -0.5429311395 0.460029006 0.5343083143
-0.1460348666 -0.1078915745 1.05723393 -0.3075505197 0.1648180634 0.6756162643
-0.1271273494 -0.1093780398 1.068826079 -0.01292365417 -0.4387685061 0.8263325691
-0.1471785307 -0.1081230044 1.048189282 -0.5886240602 0.4396950603 0.6243021488
-0.1373953223 -0.1088698506 1.058087111 -0.31179443 0.02015970089 0.7263949513
-0.1272800565 -0.1400613785 1.073719263 0.06086210534 0.2164878696 0.9742194414
-0.1316740066 -0.1425496787 1.075629115 0.06333065033 0.2140565366 0.9746903181
-0.1359485239 -0.1366765797 1.075334072 0.1002928913 0.148391515 0.9835303426
-0.1400945485 -0.1323426962 1.071448445 -0.04547399655 0.2433047593 0.9026628137
-0.1451529413 -0.1164416447 1.060050488 -0.4264160693 0.508323431 0.6810057759
-0.1447764784 -0.1212980375 1.063086152 -0.3345005214 0.443077445 0.7364991903
0.0007374662673 -0.203405261 1.202488184 0.3120377362 -0.1771115959 0.9311209321
-0.05551173538 -0.2465130985 1.180950284 -0.1835552454 -0.498434186 0.847268343
-0.04485399276 -0.2487894595 1.182901621 -0.1796640158 -0.4899832904 0.8529598713
-0.0520997867 -0.2531392872 1.176674604 -0.1853118241 -0.4947675169 0.8490307927
-0.03817759827 -0.2505667508 1.181945562 -0.188612625 -0.4815145731 0.8557281494
-0.03477809578 -0.2450709939 1.185302734 -0.191101402 -0.4555363357 0.8694332838
-0.04143432528 -0.2455976307 1.18504405 -0.1831625551 -0.4799479246 0.8577744961
-0.03824105486 -0.241123125 1.188045025 -0.1906029582 -0.4666152894 0.8635417819
-0.02052493766 -0.1024047807 1.090410709 -0.5612760782 -0.1543063074 0.8129857779
-0.02240175009 -0.1093139946 1.089969397 -0.5643860698 -0.1188980043 0.8162431717
-0.02577965334 -0.1141393706 1.089835882 -0.5592976213 -0.09722001851 0.8231732249
-0.0257335864 -0.08781263977 1.09025085 -0.536842525 -0.1629154384 0.8276318908
-0.02418975346 -0.09270257503 1.090480208 -0.544387877 -0.1621507108 0.8227847815
0.01010411233 -0.1693998575 1.201449037 0.4797751009 -0.09838561714 0.8716242909
0.01247145794 -0.1647869051 1.198991895 0.4895995557 -0.1045520604 0.8650367856
0.01577975042 -0.1561944634 1.195708394 0.4882604778 -0.1109398529 0.8653389812
0.01139974315 -0.1751891673 1.201109886 0.4894819856 -0.09823647887 0.8656300306
0.01968359761 -0.1753018051 1.194255948 0.5507732034 -0.1211582646 0.8258144855
0.01819784194 -0.1803082079 1.193824887 0.5507732034 -0.1211582646 0.8258144855
-0.06021207944 -0.1017639041 1.07145071 -0.3121204376 -0.1474238783 0.9328390956
-0.06279727817 -0.0878547132 1.074155092 -0.2390388548 -0.3120189309 0.9016363025
-0.05843529478 -0.09546099603 1.073709488 -0.322763592 -0.2175567299 0.9076701403
-0.05682881549 -0.08885691315 1.075986624 -0.330127418 -0.2914262116 0.8822533488
-0.06317834556 -0.09605389088 1.071893334 -0.2538439333 -0.2178707868 0.9271562696
-0.06031444296 -0.08380784094 1.076075673 -0.2657915354 -0.3550218344 0.8804557323
-0.05411727726 -0.08085613698 1.078647137 -0.3539320529 -0.3634466529 0.8527482152
-0.06550741941 -0.08189027011 1.0747329 -0.1841275692 -0.3840988278 0.8944815397
-0.1181640103 -0.111361146 1.067079425 0.07465623319 -0.2655818462 0.9367539883
-0.1019042432 -0.1114058495 1.06556654 0.2785868347 -0.133593142 0.9205350876
-0.09728366882 -0.1081423163 1.065218449 0.377853334 -0.106937252 0.8972889185
-0.1069489494 -0.1124034226 1.065899014 0.1993300766 -0.1716183722 0.9304872751
-0.1124910042 -0.1116353422 1.066229582 0.1334179044 -0.2198752165 0.9302114844
-0.1224598214 -0.1135062799 1.066866398 -0.02116045915 -0.2954154611 0.9485979676
-0.09974595904 -0.1167968288 1.065337539 0.2560276687 -0.09761825204 0.9440805316
-0.1066288799 -0.1176935136 1.065684676 0.1579727381 -0.151379317 0.9512565136
-0.1021558866 -0.1009394079 1.071231008 0.3485109508 -0.1943110377 0.9075464606
-0.1059643477 -0.1067371219 1.068140984 0.3145331144 -0.1807076037 0.9145342708
-0.1119478643 -0.1068236902 1.069930434 0.2433975637 -0.2305671573 0.931183815
-0.08194892853 -0.09897243977 1.070089102 0.193366915 -0.2152065635 0.9130223393
-0.08719519526 -0.1138779074 1.071689725 0.2611046135 -0.08659720421 0.9399729371
-0.07497967035 -0.1101815999 1.070927382 -0.009680951945 -0.09350778908 0.9455164671
-0.08480669558 -0.1046001092 1.070722818 0.2393502146 -0.1686564982 0.9222152829
-0.06988485157 -0.1075261086 1.070502877 -0.118558377 -0.1068979949 0.9453754425
-0.08138482273 -0.1095117033 1.071077824 0.1418132037 -0.1144884154 0.9368658066
-0.08087818325 -0.1154109761 1.071624875 0.1085144356 -0.05767529085 0.9504258633
-0.0754493475 -0.104678683 1.070417047 0.02131259441 -0.1464971006 0.9328707457
-0.01241179649 -0.2289543599 1.202000022 -0.01644793339 -0.3080163002 0.9498509765
-0.005396474618 -0.230379492 1.19664979 0.02389190905 -0.3032771051 0.950299859
-0.001772099524 -0.2257397175 1.19568944 0.06893740594 -0.2673758864 0.9587264657
-0.01803311892 -0.2151391506 1.202000022 -0.001007504645 -0.2503477037 0.9679154754
-0.01737625152 -0.2254043072 1.202000022 -0.01239620894 -0.3001015186 0.9527032971
-0.001345395227 -0.2263438553 1.190214872 0.03921294212 -0.2690638602 0.9617959857
0.004324434325 -0.1995960623 1.197000146 0.3494690657 -0.1360260397 0.9150862694
0.0138801951 -0.1996555924 1.198253155 0.5184360147 -0.1931823194 0.82999897
0.001388415345 -0.209732011 1.19542253 0.2302941531 -0.1841433644 0.943138957
-0.0007663954748 -0.2152521312 1.193411469 0.1317099929 -0.2039712518 0.9592090845
0.004479418043 -0.2055419981 1.196793795 0.3412282765 -0.1777336299 0.9207369089
0.008161772043 -0.2109908611 1.194628358 0.3025428951 -0.2148965001 0.9017028213
0.005738107022 -0.2150393277 1.19246912 0.2316870391 -0.2308421135 0.9154031277
0.00251819659 -0.2198638767 1.191024899 0.1445632875 -0.2455857098 0.9378835559
0.010340143 -0.2071152627 1.198948145 0.3902658224 -0.2139337361 0.8806266189
0.001014553709 -0.2154904902 1.200764179 0.1805844754 -0.2078857273 0.944219172
-0.006220827345 -0.2278994769 1.201042891 0.01597761363 -0.2408637404 0.9646816254
0.004510373343 -0.2100361437 1.199899316 0.235494554 -0.1862381846 0.9425719976
-0.002977745375 -0.2088208199 1.20235467 0.2272807509 -0.1849953681 0.9463962913
-0.00523694139 -0.2195725292 1.20216465 0.1188117191 -0.2211622894 0.9521090984
-0.007731371559 -0.205662936 1.202662826 0.1792329401 -0.1658064723 0.9651432633
-0.009538657032 -0.2146661133 1.202496886 0.08330607414 -0.1975584924 0.9697240591
-0.05162641406 -0.08853866905 1.077576518 -0.4069884717 -0.2824301422 0.8594992757
-0.04437017813 -0.1120930091 1.075799584 -0.4892039001 0.0148364827 0.867882967
-0.05025338382 -0.107200563 1.074133635 -0.4249026775 -0.06851059943 0.8997462988
-0.0362168625 -0.1134133115 1.082293034 -0.512085557 -0.0209814813 0.8569343686
-0.03672625497 -0.1068218723 1.08137393 -0.5284866691 -0.08121578395 0.8417672515
-0.04155229777 -0.1083697826 1.078929067 -0.4871891737 -0.06369797885 0.8661631346
-0.05648044124 -0.1070876494 1.070819259 -0.3821044564 -0.07085112482 0.9195125699
-0.0587213859 -0.0947554335 1.066671848 -0.3310090303 -0.2082748711 0.9187182784
-0.06659239531 -0.100508295 1.070432544 -0.1839371324 -0.1716913283 0.9371976852
-0.07372447848 -0.09348178655 1.071105242 -0.01466789935 -0.263828516 0.9193166494
-0.07469312847 -0.08762809634 1.071924448 0.002039259765 -0.3328676224 0.9121387601
-0.06765083969 -0.09257242829 1.07155633 -0.1676551253 -0.2648924589 0.9278619885
-0.08026660979 -0.09449613839 1.070614219 0.150164634 -0.2622805834 0.9101458788
-0.07208937407 -0.101239197 1.061742425 -0.1035241783 -0.1359613985 0.9771828651
-0.07482174039 -0.09288554639 1.061734438 -0.0339419283 -0.2474252284 0.9584808946
-0.1396065801 -0.1595035195 1.083448529 -0.1420338899 0.174827978 0.9681267738
-0.1425873488 -0.1551021039 1.08246541 -0.07294236124 0.1175292954 0.9889301658
-0.1468204111 -0.1514727175 1.081573844 -0.02435623296 0.1216967851 0.9884958863
-0.1518470794 -0.1530542076 1.081671119 -0.05951530486 0.07725317031 0.992488265
-0.138157323 -0.148919642 1.080156088 0.01192274131 0.1665219963 0.9855774641
-0.1352502257 -0.1549685895 1.082658648 -0.05893209949 0.1612395495 0.9848163128
-0.1258342564 -0.1508377045 1.081506968 -0.0235331282 0.218050912 0.9732037187
-0.134459272 -0.1847606152 1.097900271 -0.1831954718 0.4158616364 0.8877827525
-0.142557323 -0.1744553298 1.090563893 -0.167135179 0.2586289346 0.9332746863
-0.1371349543 -0.1791023463 1.093403816 -0.1772419512 0.3575757742 0.9046465158
-0.133316949 -0.1769151539 1.090382576 -0.1827906966 0.4118987322 0.8889293075
-0.1474089473 -0.1228130311 1.08034277 0.3211495876 -0.2243759781 0.8375588059
-0.1497617066 -0.1286863536 1.080139637 0.2101236433 -0.05840114877 0.8985322714
-0.1490740776 -0.1187452525 1.077735066 0.02241524309 -0.1381478459 0.7389343977
-0.1004115343 -0.1258051246 1.07381916 0.2086360306 0.006454808172 0.9697152972
-0.1054810286 -0.1318722367 1.075826168 0.1448491067 0.08550080657 0.9685131311
-0.1154160276 -0.1461091936 1.080174088 0.01849864796 0.2617663145 0.9616307616
-0.08838717639 -0.124168247 1.068226695 0.2356333137 0.03461987153 0.9695120454
-0.09411484003 -0.1217567325 1.064721227 0.2902659178 -0.03458362445 0.95612216
-0.1213341579 -0.1456271708 1.075645328 0.02603891678 0.2513381541 0.9669035673
-0.09715230763 -0.1394072771 1.07602632 0.1503905207 0.1345164031 0.9610546827
-0.1011496857 -0.1494272947 1.078531027 0.08804621547 0.2045899183 0.9545614123
-0.1097094417 -0.161176756 1.081376791 -0.01451715827 0.3037005365 0.9494701028
-0.1066730022 -0.1571285725 1.08039844 0.02148397081 0.2691709995 0.9511674047
-0.0995541811 -0.1340339482 1.075630665 0.170745194 0.1103034094 0.9630661011
-0.1217004061 -0.1382257342 1.073214889 0.0382174626 0.204390496 0.9772870541
-0.116593644 -0.1419129819 1.076046586 -0.00570722064 0.2303569913 0.9716162086
-0.1005250216 -0.1266485155 1.067622185 0.2087388933 0.03255140036 0.9617102742
-0.1083955616 -0.1323212087 1.071103454 0.1040483788 0.1154690906 0.9702675939
-0.09489474446 -0.125179559 1.068130016 0.2526232004 0.008861231618 0.9602940679
-0.094278723 -0.1290282458 1.072593451 0.212868318 0.05967180058 0.966288805
-0.112089783 -0.1385150254 1.074218869 0.05101078376 0.1833763421 0.9680889249
-0.1360587329 -0.123616688 1.064762235 -0.2203332633 0.3793088794 0.8060564399
-0.135090217 -0.1319752783 1.072385669 0.02592895739 0.2010134459 0.9395817518
-0.1371477395 -0.1274691671 1.068739057 -0.1014585271 0.2893407345 0.8675284386
-0.1394077986 -0.1054777876 1.061893225 -0.2444711477 0.0521863997 0.7226784825
-0.1356271058 -0.1054233089 1.066166043 -0.1269565523 -0.1320136636 0.7538263202
-0.1338141412 -0.1038901657 1.071198821 -0.008699573576 -0.220317781 0.7925084233
-0.1328800768 -0.103847906 1.076577425 0.1623524576 -0.3887614608 0.8289550543
-0.1372419149 -0.1060236543 1.077337265 0.2659229338 -0.4607974589 0.8252170086
-0.1438545436 -0.1075292081 1.062329173 -0.1541178823 -0.001974885585 0.7170575261
-0.138811022 -0.106044367 1.070742726 0.05793695897 -0.2453030646 0.7803138494
-0.1137909666 -0.09598010033 1.077239871 0.2747447193 -0.364834249 0.8707827926
-0.1216496453 -0.1037078649 1.073845029 0.1409185082 -0.5214383602 0.8202829361
-0.1178153232 -0.09925876558 1.076242566 0.2216898501 -0.4292140603 0.851682663
-0.1272764504 -0.1044020131 1.076699018 0.1554475278 -0.5207982063 0.8323276043
-0.1075626016 -0.09506419301 1.075463176 0.2894493043 -0.3223843873 0.8794008493
-0.1133273095 -0.1020736247 1.073397994 0.2153397948 -0.3653066158 0.8807159662
-0.1087607369 -0.100078851 1.073805809 0.2675875127 -0.276475817 0.913416326
-0.1210858375 -0.1082382724 1.071150661 0.1344622374 -0.4028330147 0.8846669793
-0.05364498124 -0.2373027056 1.180676699 -0.1813107431 -0.5004177094 0.8465675116
-0.05239028111 -0.2367129922 1.186646461 -0.1875898689 -0.4891766608 0.8516392112
-0.05931422114 -0.2385562807 1.182566047 -0.1840097308 -0.4978393316 0.8474627137
-0.04269217327 -0.2342473269 1.192093372 -0.1923690289 -0.4776128232 0.8572143912
-0.04761881009 -0.240072459 1.186843991 -0.187921688 -0.4882867932 0.8520841599
-0.04997220263 -0.2485389858 1.182503581 -0.1851343513 -0.4944706261 0.8492054343
-0.05133343115 -0.2422499359 1.183616042 -0.1849424541 -0.4955762029 0.8485549688
-0.02268435061 -0.2194756567 1.200802684 -0.04412543774 -0.2798212767 0.9535905719
-0.02942045778 -0.2243435085 1.196761489 -0.1698681861 -0.3560513556 0.911241293
-0.02739732713 -0.2277581841 1.190340877 -0.1033995375 -0.4458802044 0.8866730928
-0.03666051477 -0.2328044325 1.186955571 -0.1483412236 -0.4683503211 0.8695484996
-0.04675662518 -0.2346514165 1.185328841 -0.1951662451 -0.4671894908 0.8606123924
-0.03479428962 -0.228412196 1.193983793 -0.2207533568 -0.400308013 0.8886722922
-0.03039699234 -0.2459519356 1.177000046 -0.1963119507 -0.4591499567 0.8662227392
-0.04222068563 -0.2409492731 1.178305864 -0.1845095605 -0.4713599086 0.8620662689
-0.04695749283 -0.239292115 1.178528905 -0.1796580553 -0.4774145484 0.8597887158
-0.03554257005 -0.2432883978 1.177985311 -0.1913393438 -0.4628298581 0.8652759194
-0.03414548188 -0.2495759279 1.177000046 -0.1982601732 -0.477907002 0.8557047844
-0.05085558817 -0.2441046089 1.177000046 -0.1763523817 -0.4908336699 0.8531332612
-0.03999855742 -0.2463054359 1.177000046 -0.1901519597 -0.4813589752 0.8554832339
-0.04533660039 -0.248324573 1.177000046 -0.1846929342 -0.4880715311 0.8529285192
-0.08593435585 -0.09150217474 1.072498441 0.2291278243 -0.2928934097 0.9044302702
-0.09495712817 -0.0920343101 1.07661438 0.2970233858 -0.2665332854 0.9070335627
-0.08005755395 -0.08908151835 1.071598649 0.1322513968 -0.3231840432 0.905805409
-0.09027554095 -0.08899075538 1.076855063 0.1915380657 -0.2977187335 0.9097800851
-0.09940826148 -0.09126669914 1.079529285 0.304366231 -0.2600462735 0.9098429084
-0.08370689303 -0.08671124279 1.075483441 0.0940746665 -0.3288795054 0.9106861949
-0.07842647284 -0.08404955268 1.073822618 0.02375757694 -0.363810271 0.9071316719
-0.006619550288 -0.225808993 1.189510107 0.009875182062 -0.3012627363 0.9483990669
-0.01630220003 -0.2249694467 1.190503955 -0.03397222981 -0.3588318825 0.9237427115
-0.01183950622 -0.2185445875 1.194239855 0.006395889446 -0.256524384 0.9654146433
-0.01738119312 -0.2190964818 1.194172978 -0.02175462991 -0.3009571731 0.9467096329
-0.02112206072 -0.2220647782 1.192552924 -0.04831353575 -0.3593567014 0.9227832556
0.01958662458 -0.1860306859 1.191452861 0.5563755035 -0.140399456 0.8175787926
0.0117912665 -0.1878580302 1.19420445 0.5224476457 -0.1227481812 0.8419716954
0.008346100338 -0.194184348 1.196463227 0.4545194507 -0.1265610009 0.880718708
0.01003351808 -0.1993298233 1.195199609 0.4255166948 -0.1653304696 0.8844023943
0.01520400122 -0.1940774173 1.193590164 0.4958134592 -0.1559613347 0.8507569432
0.01102268882 -0.1799485236 1.195264935 0.4987100661 -0.1132553443 0.8586820364
-0.008270055056 -0.2091403455 1.198020816 0.06961101294 -0.1626891792 0.9826425314
-0.01411061268 -0.2132068425 1.198330641 0.02003961056 -0.2221593261 0.9738084674
-0.01332266815 -0.2185097784 1.202253699 0.009388516657 -0.2283150405 0.9720557332
-0.0129709132 -0.2091736048 1.202701926 0.0533818081 -0.1830380559 0.9811093211
-0.007744890172 -0.2139451802 1.195198536 0.04908374697 -0.1989182383 0.9760110974
-0.002526616445 -0.2211058885 1.191277027 0.04863892123 -0.2327838689 0.9691927433
-0.04485332221 -0.09876348078 1.070900559 -0.4548406303 -0.1236814931 0.8773588538
-0.04322401807 -0.1032958552 1.073267102 -0.4852879643 -0.07349573076 0.8695893288
-0.05029209331 -0.1039272025 1.0689255 -0.4104323983 -0.06430702657 0.8977967501
-0.04778230563 -0.1129802167 1.072161674 -0.4670869112 0.05877673626 0.8759997487
-0.03989805281 -0.09908573329 1.07497704 -0.4990970194 -0.1183447018 0.8540689945
-0.04480826855 -0.1005180627 1.07801199 -0.4762932658 -0.1288334578 0.862148881
-0.05119314045 -0.09963767231 1.074719667 -0.4291761816 -0.1318849772 0.8871460557
-0.03981119022 -0.1002384722 1.080817103 -0.5140545368 -0.134378314 0.8406240344
-0.04499480501 -0.09161929786 1.080007792 -0.4830269814 -0.2015932351 0.8449158669
-0.05185463279 -0.09422681481 1.07583046 -0.4170868397 -0.2006597668 0.8760588169
-0.06273719668 -0.09854094684 1.066159368 -0.294498384 -0.1691638231 0.9373065829
-0.06804916263 -0.09880368412 1.064161777 -0.18840909 -0.1667611748 0.9614300132
-0.06923082471 -0.1068649888 1.062909484 -0.1536273807 -0.06025397032 0.9801249504
-0.06361810863 -0.1077824235 1.064994097 -0.252361834 -0.04189318419 0.9590790272
-0.06098224968 -0.08993864805 1.066436887 -0.2879425883 -0.2453194261 0.9210751057
-0.06711920351 -0.09310571104 1.065315366 -0.2019497305 -0.240060702 0.9445296526
-0.06595489383 -0.08831807226 1.065373063 -0.1909053624 -0.2811531723 0.9278299212
-0.06604040414 -0.08249856532 1.069475055 -0.1818126142 -0.3385941386 0.9213333726
-0.07241196185 -0.08631582558 1.064337373 -0.06948453933 -0.3378327191 0.9358109236
-0.07967231423 -0.08901119232 1.063179016 0.08420089632 -0.304415673 0.9391537905
-0.08093355596 -0.1017285958 1.059042215 0.09701196849 -0.1337813735 0.971685648
-0.08442771435 -0.09302458912 1.063327551 0.2055296749 -0.2528726459 0.9276866913
-0.08674350381 -0.09802370518 1.063418984 0.2839917243 -0.1824196875 0.9153174162
-0.08192694932 -0.08562009037 1.068385363 0.149010554 -0.345841974 0.9110857844
-0.07144117355 -0.0821377784 1.072616696 -0.08880590647 -0.3895444274 0.9128927588
-0.0747378543 -0.08415970951 1.068406343 -0.01802472956 -0.365201056 0.9228636622
-0.08964402974 -0.08901135623 1.068638206 0.2853569984 -0.3053272367 0.90020895
-0.08982966095 -0.09518957883 1.066496253 0.3441682458 -0.2199440897 0.8946905136
-0.0927021876 -0.1024853662 1.066222668 0.4499654174 -0.1174310595 0.8788986802
-0.1300249696 -0.1590176225 1.084002137 -0.1018565074 0.2456142753 0.9557892084
-0.09320486337 -0.1348974258 1.075029373 0.1959251016 0.09422154725 0.9622537494
-0.1064813659 -0.1484499276 1.080542922 0.08451990783 0.242056638 0.949216187
-0.09862869978 -0.1446057111 1.07756567 0.1257933825 0.1700762212 0.9563803077
-0.1110745221 -0.1556173563 1.082619071 0.03134928271 0.3023879528 0.9443805218
-0.1112039834 -0.1490037292 1.081849813 0.06332655251 0.2750688493 0.9473742843
-0.1062405109 -0.1409677416 1.078362584 0.09982038289 0.196151495 0.9601542354
-0.1162962317 -0.1505887061 1.082205534 0.01388207264 0.302749455 0.9521398544
-0.1292966604 -0.1528666466 1.076999903 -0.01636687107 0.2507736981 0.9652022123
-0.1336878836 -0.1578445286 1.076999903 -0.08707672358 0.2255776376 0.962150991
-0.1340425164 -0.1519349664 1.077000022 -0.01207990851 0.2171230763 0.9730557799
-0.1272010654 -0.1630000025 1.081474662 -0.09132764488 0.2798536718 0.9524819851
-0.1403606683 -0.1645583212 1.077193022 -0.1814394593 0.1866121292 0.9593589306
-0.1265826523 -0.1463757008 1.075021505 0.04394538328 0.2401650995 0.9693573713
-0.145696938 -0.1743579805 1.077578187 -0.2918446362 0.2258414626 0.92905128
-0.1370043457 -0.1688050181 1.079579592 -0.1939100176 0.2399142981 0.9446681738
-0.1299491823 -0.1722003222 1.088245988 -0.2200134695 0.3596366346 0.9020646214
-0.1216342449 -0.1588887721 1.084879518 -0.05278194323 0.3242768049 0.9366513491
-0.1257895082 -0.1002928987 1.080600142 0.2330201268 -0.4371992052 0.864608407
-0.144803524 -0.1292581707 1.080000043 0.1144144982 0.03049424291 0.9921625257
-0.02091701888 -0.2425850183 1.190294147 -0.1050240993 -0.4958800077 0.8618791699
-0.02926228754 -0.2456717044 1.187756181 -0.1492994428 -0.4809373915 0.8627828956
-0.01760793477 -0.2361567765 1.197907805 -0.06752888858 -0.4138313234 0.9023817182
-0.03280059621 -0.2347947955 1.19369185 -0.1866205037 -0.494713515 0.8472080231
-0.02088490501 -0.2392304093 1.194861174 -0.0961760357 -0.4592117965 0.8796185851
-0.01668540388 -0.2318728715 1.200477719 -0.04836639017 -0.3680566847 0.9227234125
-0.02550143003 -0.2310163528 1.197579145 -0.1086790636 -0.4094338119 0.8940572143
-0.02324570343 -0.2263189405 1.199786544 -0.059665896 -0.341286391 0.9277573228
-0.100439392 -0.09270423651 1.074798822 0.3337113857 -0.2676724792 0.902972281
-0.09494520724 -0.08799060434 1.073632598 0.3418315053 -0.3154655993 0.8850814104
-0.09643024951 -0.09997355938 1.069477677 0.4056018591 -0.1646882892 0.8907370567
-0.08958683908 -0.1079384387 1.071648479 0.3238041401 -0.1387865394 0.9227768183
-0.09223848581 -0.1009387746 1.072250247 0.3723366559 -0.1862147897 0.9005877972
-0.1159224063 -0.1577849239 1.084407806 0.005037035793 0.3371888101 0.9410385489
-0.1195860207 -0.1528656781 1.077781677 0.004456247203 0.2872639298 0.95758003
-0.1155630052 -0.1569557488 1.079391599 -0.003283169121 0.3007087708 0.9532110095
-0.1234656796 -0.1581160873 1.079798937 -0.03648211807 0.2917080224 0.9549707174
-0.1145526618 -0.1624810696 1.081259847 -0.02573415637 0.3125856817 0.9490834475
-0.1200020462 -0.1619974226 1.08153832 -0.04743854329 0.3039776981 0.9507095814
-0.126718834 -0.1678782105 1.083543777 -0.1207985282 0.3256132603 0.9333145022
-0.1312537938 -0.1697172225 1.082509756 -0.168067053 0.3064866364 0.9302822948
-0.125470385 -0.1789380014 1.086588144 -0.1638423353 0.3947506547 0.9017037153
-0.1373106837 -0.1827122867 1.084548593 -0.2098486125 0.3488995731 0.9120596051
-0.1217936799 -0.1829753369 1.088765264 -0.178212598 0.4058197439 0.8956605196
-0.1419344097 -0.1784627438 1.079504848 -0.271050036 0.2938026786 0.9119236469
-0.1463014185 -0.1815036237 1.077958941 -0.2925390899 0.2723992467 0.9157499075
-0.1336790323 -0.1771387309 1.082961798 -0.1922855377 0.3562208712 0.9078494906
-0.13151218 -0.1850602329 1.092759728 -0.2023620903 0.4114403129 0.8881334066
-0.1271972358 -0.1869776845 1.096183538 -0.1854657829 0.4267406464 0.8849754333
-0.1270609349 -0.1829522848 1.08985281 -0.2097987384 0.4116580188 0.8863363266
-0.1103029549 -0.09432937205 1.08145225 0.299449712 -0.3178185523 0.8929281831
-0.1216199845 -0.09553849697 1.083327174 0.2870742977 -0.4132231474 0.8531939387
-0.105152227 -0.0916268006 1.079645753 0.3341747224 -0.277553916 0.8957995176
-0.1162794381 -0.09415254742 1.082006693 0.3038930893 -0.3686308861 0.8665980101
-0.1397614181 -0.0992814377 1.088487744 0.1531606913 -0.5886715055 0.7899106145
-0.1388962716 -0.1022218615 1.083951354 0.2267340273 -0.5372860432 0.8054724932
-0.1108098179 -0.1260765344 1.068881989 0.1434772909 0.02813991532 0.977946341
-0.1057867408 -0.1273278147 1.068738341 0.1551372111 0.05239114165 0.9712663293
-0.1192126647 -0.1266621649 1.070293188 0.08907082677 0.03333256394 0.9891920686
-0.1134169623 -0.1316162944 1.071662188 0.05678907782 0.1212802157 0.9815776348
-0.1202774718 -0.132922098 1.072276711 0.03402962908 0.1520509869 0.9847416282
-0.1140015945 -0.1210426539 1.06755507 0.1265892237 -0.08566969633 0.9712520838
-0.1195939481 -0.1201338843 1.06816566 0.07174398005 -0.1186774075 0.9727529883
-0.1397470683 -0.1159680039 1.060910583 -0.3402527273 0.3971096873 0.7378806472
-0.1427685022 -0.112806797 1.054930091 -0.443698734 0.411416173 0.696449101
-0.1290989965 -0.112979807 1.063334465 -0.1481421143 -0.1349653453 0.8864426017
-0.1248722747 -0.1189071462 1.068385124 0.01207767054 -0.1485002339 0.9687706232
-0.1329462826 -0.1188191324 1.062155247 -0.1630159318 0.1638484895 0.8625156283
-0.1334264725 -0.1123841107 1.05982852 -0.2483822405 0.01845791377 0.8270019293
-0.1248259917 -0.1255473793 1.070330858 0.07996681333 0.01529285125 0.9945983887
-0.1310081631 -0.127941072 1.06742835 -0.1051019058 0.3051241338 0.8774316311
-0.1271619052 -0.1308970153 1.069886804 0.002136876108 0.2163189054 0.942881763
-0.1139262915 -0.1162476689 1.079371095 0.1512175798 -0.1654030383 0.964235723
-0.1243840232 -0.1374913752 1.077815056 0.07178982347 0.1573842764 0.9721286893
-0.1161350086 -0.136965096 1.079963565 0.05615054443 0.1317364722 0.9631392956
-0.1288441271 -0.1353552639 1.076516032 0.09192228317 0.1371033043 0.977401197
-0.1168984696 -0.12919043 1.079320669 0.09533551335 0.0237459857 0.9653033018
-0.1202886626 -0.1333042681 1.078658819 0.08296242356 0.08926941454 0.9683341384
-0.1141716689 -0.1220157221 1.079633594 0.123935096 -0.08349131793 0.9635236859
-0.1238529161 -0.1289590001 1.077471018 0.1117769331 0.03584496677 0.9729968309
-0.1278796792 -0.1245147958 1.077918053 0.127044484 -0.02396831475 0.9778029323
-0.1293193251 -0.1294028312 1.076207876 0.1203578562 0.05365285277 0.9789040089
-0.1219911724 -0.1220452115 1.078000188 0.1373549402 -0.06726773083 0.9720316529
-0.1367476732 -0.13061966 1.076853037 0.1091973335 0.07856856287 0.9863218069
-0.121668376 -0.1172969118 1.079824448 0.1424056143 -0.1418190598 0.9720489383
-0.1368143111 -0.1235986128 1.079632878 0.115934886 -0.03123611584 0.9868970513
-0.1346170753 -0.1144343838 1.081396818 0.08782178164 -0.3128789961 0.8873085976
-0.1299128979 -0.112426348 1.081434965 0.09500196576 -0.3517445326 0.880025804
-0.1245394126 -0.1121027172 1.081106067 0.1119453013 -0.3289199471 0.8976988792
-0.1325402558 -0.1058015525 1.082877755 0.05662090704 -0.5943394899 0.7818951011
-0.1304982901 -0.1198491976 1.08007443 0.1259353161 -0.102168411 0.9755661488
-0.1396314353 -0.1192704588 1.080846667 0.09212876111 -0.1794767976 0.9306353927
-0.1178925857 -0.1117770523 1.080685139 0.1332348138 -0.2981397808 0.9205447435
-0.03190366924 -0.2377229035 1.183258533 -0.1622625291 -0.4627696872 0.8701204658
-0.03054332919 -0.2328208834 1.186339021 -0.1306314915 -0.4670548737 0.8731689453
-0.04108898714 -0.2354459167 1.185567141 -0.1740093827 -0.4683171213 0.8653708696
-0.0260922201 -0.2419854701 1.191031694 -0.1352069229 -0.4782752693 0.8666425943
-0.0315718092 -0.2407562286 1.189742684 -0.1742886901 -0.4766401052 0.8605136275
-0.1219248399 -0.1859823763 1.09545362 -0.1860055327 0.4174745679 0.8893382549
-0.1185686439 -0.1818416864 1.092488289 -0.1659872234 0.4118244946 0.8955610394
-0.110204652 -0.182344377 1.090013146 -0.1854632944 0.4050492048 0.8952309489
-0.1169789806 -0.1644121706 1.086513519 -0.04260910675 0.3642115295 0.9267808795
-0.118793346 -0.1758642048 1.089656353 -0.1303333938 0.4047102928 0.9036058187
-0.1242178231 -0.1736160219 1.089431405 -0.1728141159 0.4087325335 0.8910494447
-0.1210127473 -0.1691683382 1.088146567 -0.112095356 0.3897212744 0.9067611694
-0.1237795204 -0.1799952984 1.092805505 -0.1625143588 0.41637519 0.8937169909
-0.141904518 -0.1037846878 1.088950634 0.2055389881 -0.4891894758 0.8271385431
-0.1427748203 -0.1091031358 1.086631775 0.192389071 -0.3696983457 0.8669428825
-0.137934193 -0.1100711748 1.082579851 0.0593800731 -0.4784762561 0.8181275725
-0.1264754534 -0.1050261557 1.085630536 0.1484561712 -0.4462680519 0.8588109016
-0.1346876174 -0.1010999233 1.088613153 0.1402348876 -0.563600421 0.8048500419
-0.1300223321 -0.1002602875 1.085312009 0.2040314078 -0.4769780636 0.848842144
-0.1082548872 -0.1142119542 1.080030799 0.1264824867 -0.1355133653 0.9764896035
-0.1108771712 -0.1307260841 1.078686357 0.08201891929 0.07908478379 0.9724912047
-0.1095016077 -0.1255346239 1.078504324 0.1016978547 0.01515858341 0.9751543999
-0.1062570065 -0.121607542 1.075805187 0.1420617551 -0.02129226923 0.9824120998
-0.1015430614 -0.1197373271 1.075410128 0.1994950026 -0.06879882514 0.9725919962
-0.09479798377 -0.1229422688 1.074499011 0.2375878841 -0.03353146091 0.9658305645
-0.09237003326 -0.1148948669 1.073513746 0.3009601235 -0.069069013 0.9380308986
-0.09039758891 -0.1213488877 1.073188066 0.2767110467 -0.01394712925 0.9530825019
-0.09921754152 -0.1029301956 1.075525045 0.3063130081 -0.1860643327 0.9204884768
-0.09621170908 -0.1170909852 1.075393796 0.2367024273 -0.07125585526 0.9578054547
-0.1033189818 -0.1131126657 1.078193426 0.1785342693 -0.1325744987 0.9676567316
-0.09903677553 -0.1089110747 1.075949907 0.2634005547 -0.1426271498 0.939784646
-0.1009046808 -0.09651073813 1.078210831 0.3151718676 -0.2267963141 0.9153041244
-0.1037894562 -0.105183892 1.07837832 0.2276987582 -0.1878934354 0.9456048012
-0.1157641634 -0.09929199517 1.08197999 0.2467779368 -0.330770582 0.89993155
-0.1177162677 -0.1045012921 1.082032919 0.1956583411 -0.3102176785 0.9166213274
-0.1052431241 -0.1001404896 1.08021903 0.2481620759 -0.2265108526 0.9339233041
-0.1106128171 -0.1000258178 1.081101537 0.2444382161 -0.2773556411 0.9179389477
-0.1083320454 -0.1055465862 1.080447435 0.1941588372 -0.2150786668 0.948176384
-0.1135884225 -0.1709300578 1.085947037 -0.05130565166 0.3667890728 0.9283947349
-0.1096829921 -0.1665565968 1.08305347 -0.02907991596 0.3313392997 0.9428918362
-0.1142025217 -0.1758157462 1.086366415 -0.1073601991 0.4034469128 0.907782495
-0.1089763492 -0.1777919382 1.087217569 -0.1080224961 0.394012183 0.9103671312
