# .PCD v0.7 - Point Cloud Data file format
VERSION 0.7
FIELDS x y z normal_x normal_y normal_z
SIZE 4 4 4 4 4 4
TYPE F F F F F F
COUNT 1 1 1 1 1 1
WIDTH 512
HEIGHT 1
VIEWPOINT 0 0 0 1 0 0 0
POINTS 512
DATA ascii
-0.1057471558 -0.1668049991 0.9412594438 0.4447057545 -0.1054193452 0.8835793138
-0.09719570726 -0.1659038812 0.9406200647 0.3737633824 -0.1574637145 0.9113242626
-0.09299018979 -0.1684191674 0.9395391941 0.3547820151 -0.1511331797 0.9206800461
-0.1064348742 -0.1612200141 0.94271487 0.4194179475 -0.1701918691 0.8895393014
-0.09076096117 -0.1730399132 0.9378737211 0.360158354 -0.1431722939 0.9208331108
-0.08535522223 -0.1895938814 0.9353524446 0.3919367492 0.07473546267 0.9009677768
-0.08040766418 -0.2682212293 0.9823839068 0.02767222933 0.2186329365 0.9715288877
-0.08484503627 -0.2662494779 0.9833433032 0.05220760033 0.257407248 0.9612204432
-0.08980660141 -0.2667089105 0.9848418832 0.04975233972 0.2987733185 0.948538363
-0.08582776785 -0.1687614471 0.9369854927 0.2809308767 -0.2070013881 0.9336455464
-0.06780467182 -0.116289936 0.9575406909 0.09876235574 -0.4848268926 0.8504565954
0.0763400048 -0.1855515838 1.040116787 0.3967604339 0.1276204586 0.9073383808
0.07648926228 -0.1914724112 1.036484003 0.4044109583 0.1048645899 0.9024323225
0.07661178708 -0.1963025779 1.03765583 0.4292971492 0.07398689538 0.897993505
0.07383576035 -0.1755325943 1.030780554 0.3098423481 0.2151006162 0.9185128808
0.07355825603 -0.1821356416 1.033829808 0.3498918414 0.1689266413 0.9124407768
0.07534372807 -0.1866318285 1.034436464 0.3736337721 0.1397188604 0.9075380564
0.06870571524 -0.1846364737 1.038518667 0.3735450804 0.1460688114 0.9119877219
0.07315090299 -0.1702874452 1.02903235 0.2796468437 0.250755161 0.9236884713
0.06075009704 -0.1604287773 1.041000128 0.2465831488 0.2900488973 0.9246990681
0.07678169757 -0.2012056112 1.03874743 0.3981930315 0.009337870404 0.9154298306
0.0637370646 -0.1972262412 1.046876669 0.3708158731 0.03475363553 0.9264213443
-0.08816476166 -0.1377133131 0.9495766163 0.2708181739 -0.4094366729 0.8597221375
-0.08520652354 -0.1407268196 0.9446348548 0.2287254632 -0.3548396528 0.8978807926
-0.08450137079 -0.1329964846 0.9511204362 0.2510378957 -0.4696892798 0.835165441
-0.08074597269 -0.1372231692 0.9444831014 0.1960667074 -0.3943091929 0.8870161772
-0.09925581515 -0.154833883 0.944850862 0.2892403603 -0.2879648507 0.9106962085
-0.08622445911 -0.1621361971 0.9394519329 0.2330587953 -0.1709628254 0.9533362985
-0.09648875892 -0.1598386168 0.9428460598 0.3216298819 -0.2134601325 0.9198628664
-0.1102204397 -0.1638904959 0.9475870728 0.4994440675 -0.0650556162 0.8457567096
-0.1074658185 -0.1710526049 0.9522480965 0.5647259951 0.08235483617 0.8068201542
-0.1129120961 -0.1700799167 0.9499773383 0.5877554417 0.07192359865 0.7779303789
-0.1097566858 -0.1749135852 0.9543556571 0.5838432312 0.1529596448 0.783378005
-0.1136311218 -0.1787147969 0.9560687542 0.6149899364 0.2238333225 0.7468739152
-0.09072760493 -0.1827869117 0.9362259507 0.4577409029 -0.0005074061337 0.8788671494
-0.08280110359 -0.1834442168 0.9345083833 0.2964070737 -0.03937358037 0.9476925731
-0.08443980664 -0.1763397306 0.935144484 0.2808270156 -0.1771342158 0.9399672747
-0.06066055968 -0.2257158756 0.9690836668 -0.06780557334 0.3989542425 0.8976345062
-0.05708778277 -0.2307609469 0.9719299674 -0.1206454858 0.3451604545 0.9136570692
-0.05420682579 -0.2363981605 0.977216363 -0.18831186 0.2639916241 0.9400401115
-0.04360498488 -0.1233771369 0.9590210319 -0.2417553663 -0.3984851837 0.8844960928
-0.04718998447 -0.1215810999 0.9506347179 -0.2555217147 -0.3908544779 0.8838410378
0.05782321095 -0.169694677 1.040067077 0.2541068196 0.2581161559 0.931257844
0.0603107214 -0.2056239694 1.047676086 0.3448783159 -0.04692213982 0.9363734126
0.07179473341 -0.2051889449 1.041981339 0.36978212 -0.02957130969 0.9284983277
0.06747905165 -0.1725285649 1.041000128 0.3131451607 0.2240395695 0.9191285968
0.07225167006 -0.1791370213 1.041078329 0.370144248 0.1655135006 0.9139053226
0.0721180588 -0.194091931 1.039838552 0.4165228605 0.08279726654 0.9041757584
0.06481587142 -0.1918352842 1.046171904 0.3635182083 0.07405480742 0.9265995026
0.06704849005 -0.2022700459 1.042507291 0.3752534091 -0.01782740839 0.9246298671
0.06767813116 -0.1964014173 1.042640567 0.3915284574 0.05072396994 0.9178489447
-0.07146908343 -0.1380785853 0.9519113898 0.09623409808 -0.4183705747 0.8982359767
-0.06631994247 -0.1394210905 0.9512863755 0.02535022981 -0.3833421171 0.9095948339
-0.06507734954 -0.1492697448 0.9475280046 -0.1017373353 -0.2806321084 0.9415268898
-0.07058921456 -0.1425346881 0.9502037168 0.03531584144 -0.3705573082 0.9131307602
-0.08115104586 -0.1350234449 0.9552796483 0.1886251867 -0.483369112 0.8529240489
-0.07727879286 -0.1244774982 0.956115365 0.2864861786 -0.5272661448 0.7995778918
-0.07747353613 -0.1205127612 0.9597616196 0.1844866723 -0.5013414621 0.8386882544
-0.08035819978 -0.1283103377 0.9579690695 0.1875764132 -0.4843736291 0.8518196344
-0.07305425406 -0.1176865026 0.9613217115 0.1485098004 -0.4717705548 0.8644750118
-0.07425827533 -0.1319523007 0.9549160004 0.1790928543 -0.4789534509 0.8539144993
-0.06914556772 -0.1301659495 0.9545913339 0.1640473157 -0.4728758633 0.8583321571
0.04201391712 -0.2509794831 1.04326129 0.3531002104 -0.204081431 0.9129723907
0.04027817771 -0.257658571 1.042085648 0.3594947159 -0.2071063668 0.9097200632
-0.04044071957 -0.130795002 0.9541633725 -0.3001274168 -0.3194933832 0.8975490332
-0.03834737465 -0.128226921 0.9625402689 -0.2511130571 -0.3820793629 0.8892068863
-0.05661887676 -0.1161386073 0.9511414766 -0.1655999869 -0.4340275824 0.8799748421
-0.06066652015 -0.1150873601 0.9551200271 -0.09697878361 -0.4446649253 0.8858120441
-0.0505570583 -0.117952086 0.952093482 -0.2280570567 -0.4161008298 0.8796162009
-0.05249281228 -0.1151293293 0.9561192393 -0.1959950924 -0.4154644907 0.8870115876
-0.0571343638 -0.1098609418 0.9572985172 -0.158702597 -0.4202150702 0.8929450512
-0.04696552828 -0.121095337 0.9564533234 -0.2322828919 -0.4085197747 0.882366538
-0.05704091862 -0.1134974584 0.960877955 -0.1321052462 -0.4058972001 0.9011346102
-0.05374222621 -0.1171118394 0.9619880319 -0.1489648521 -0.4004819095 0.8998004198
-0.06294968724 -0.1113081351 0.9615744352 -0.07735400647 -0.4004145861 0.9110223055
0.07004772127 -0.1634282768 1.036260366 0.2496495247 0.286349982 0.9249706268
0.07208782434 -0.167088002 1.03313756 0.2608273029 0.274223417 0.9247644544
0.07530891895 -0.1762021482 1.037950158 0.3478358984 0.1879613996 0.9159932137
0.07209587842 -0.1692598611 1.039507508 0.3026115 0.2340130657 0.9194812179
0.06638877094 -0.1587897092 1.041000009 0.2568251491 0.2798055112 0.9237452745
0.06378284097 -0.1516613215 1.036207557 0.247535184 0.2889004648 0.924783349
0.06746542454 -0.158126533 1.034742594 0.2528390288 0.282502532 0.9252530336
0.06928925216 -0.1611369103 1.029960155 0.2582951188 0.2759209573 0.9257361293
0.06103244051 -0.2201419622 1.044051051 0.3734905124 -0.1714400351 0.9112281799
0.06671190262 -0.2224693745 1.041451335 0.3844442964 -0.1817671508 0.9049834013
0.06824848056 -0.2091665715 1.040951014 0.3591866493 -0.08534321189 0.9279234409
-0.08702998608 -0.1533665061 0.9401415586 0.172094956 -0.239152506 0.9503523111
-0.08222024143 -0.1447794288 0.9399752021 0.1479773819 -0.3325647712 0.9248081446
-0.08790796995 -0.1453434229 0.941716969 0.1881727725 -0.3174544275 0.9223170877
-0.08076152205 -0.1535471082 0.938092649 0.1268189698 -0.2478300035 0.9558327198
-0.09360574931 -0.1448215991 0.9454078674 0.2720463872 -0.3075882494 0.9090486765
-0.1072717831 -0.1526222974 0.9454132318 0.3762844205 -0.2326017022 0.8902017474
-0.1035394818 -0.1489683092 0.9498400092 0.3587891757 -0.3001795113 0.8712782264
-0.06451696157 -0.2289111465 0.9749953151 -0.1281618476 0.2798634171 0.9450484514
-0.06754861772 -0.2177221179 0.9663584232 0.01224699523 0.4771496952 0.8747906685
-0.07050290704 -0.149595052 0.9476816058 -0.04133195058 -0.2981016338 0.9339892268
-0.07691816241 -0.1464278102 0.9498611093 0.09569406509 -0.344502598 0.9103742838
-0.08229973167 -0.1478249878 0.9511452913 0.2011917084 -0.329015106 0.8971897364
-0.07741338015 -0.1543935686 0.9489274621 0.08713494241 -0.2378908992 0.9219686985
-0.07973909378 -0.159573257 0.9488683343 0.1220615804 -0.169782728 0.9237487912
-0.07310503721 -0.1581198722 0.9472491741 -0.008616250008 -0.1852649301 0.9404414892
-0.08642155677 -0.1616848409 0.9504124522 0.2521835268 -0.1454961002 0.9079926014
-0.09697884321 -0.1494614333 0.9440050125 0.2485654205 -0.2624328732 0.9289887547
-0.0924898535 -0.1548037976 0.9435023665 0.2227628529 -0.2843910754 0.9300513268
-0.1127527356 -0.174664259 0.9484086037 0.5937172174 0.1089090556 0.7848760486
-0.1102346182 -0.1835538447 0.954618454 0.66891855 0.2666174471 0.6889808774
-0.1107679978 -0.1790649146 0.9503422379 0.6353367567 0.1785151958 0.7346854806
-0.1010536402 -0.180974111 0.9410006404 0.5836879611 0.1119453833 0.8016571999
-0.1038850397 -0.1758097559 0.940856576 0.5327777863 0.01925763302 0.8400438428
-0.09629718214 -0.180290103 0.9381901622 0.5087794662 0.01829623803 0.8514676094
-0.1117785275 -0.2120941132 0.9736717939 0.1293637753 0.2259773016 0.9554610848
-0.07683547586 -0.2085053921 0.9556473494 0.239305824 0.4366720021 0.8228302002
-0.08713264763 -0.1995037198 0.9447260499 0.4751384258 0.3708336949 0.7730871439
-0.08075967431 -0.2040606141 0.9508904815 0.3235988915 0.3992560208 0.8173068762
-0.08607874066 -0.2232734859 0.9724357128 -0.04422420263 0.2994027436 0.9517246485
0.05161217973 -0.2465411723 1.039699435 0.3655677438 -0.2099792361 0.9066312909
0.05458598956 -0.2420889735 1.039542675 0.3730934858 -0.2135393173 0.9028035998
0.06279807538 -0.2379515469 1.038000107 0.3891299665 -0.213180244 0.8961738348
-0.05932034552 -0.2470614314 0.976549685 -0.1794107705 0.2123337686 0.9594826698
0.05109068751 -0.1482493281 1.033084512 0.2465831488 0.2900488973 0.9246990681
0.05524367839 -0.1582639962 1.040805697 0.2465831488 0.2900488973 0.9246990681
0.05433660746 -0.1574953198 1.035266399 0.2424429059 0.2798525393 0.9287848473
0.06888762116 -0.175795421 1.034672499 0.3213988543 0.2069770545 0.9199485183
0.06370865554 -0.1801206768 1.040236235 0.344142288 0.1757316142 0.9190198779
0.05636961013 -0.2009570152 1.049489737 0.3319050372 -0.008795275353 0.9414792061
-0.0797464028 -0.1908653975 0.9428743124 0.2462308556 0.2272975594 0.9051859975
-0.07510557771 -0.2006690353 0.9514818788 0.1627364606 0.3295767009 0.8906810284
-0.07140059024 -0.204508841 0.9556930661 0.08317091316 0.3599457145 0.8918264508
-0.07274401188 -0.1899437755 0.9453750849 0.0693724677 0.1794871539 0.9334561229
-0.07947866619 -0.1983796209 0.9480081201 0.2639110684 0.3225814104 0.8821704388
-0.07472983003 -0.1844392419 0.9408179522 0.1008598581 0.1188765019 0.9438426495
-0.07366913557 -0.1962924153 0.9492002726 0.1128985584 0.2659026682 0.9098461866
-0.06815388799 -0.2127962261 0.9626684189 0.02938461117 0.4498791397 0.8771184087
-0.06727210432 -0.1817163378 0.9441513419 -0.07152397931 0.03406388313 0.9670420289
-0.06852447242 -0.1773418337 0.9388712645 -0.07586433738 -0.004462743178 0.9887465835
-0.06770431995 -0.19721286 0.9529240727 -0.02686067484 0.2442588359 0.9253852963
-0.07678793371 -0.2027208954 0.9571234584 0.1630086154 0.5500105023 0.7663966417
-0.06865650415 -0.2069691718 0.9601409435 0.02455236576 0.4021908343 0.8707433939
-0.07144230604 -0.1845343113 0.9475490451 0.02446554229 0.1846371442 0.8792631626
-0.06664723158 -0.1898609698 0.9508828521 -0.0507905893 0.1335372776 0.9348425269
-0.0733057186 -0.1892931759 0.9500156641 0.06917925179 0.2917936444 0.8432548642
-0.07922519743 -0.1978557706 0.9542402029 0.1963727921 0.5484008193 0.7426993251
-0.06933441013 -0.1646627039 0.9437832832 0.01958790235 -0.2227069885 0.9589333534
-0.07379730046 -0.1684980839 0.9440848827 0.1319014877 -0.2070504427 0.9515849948
-0.08992294222 -0.1655256748 0.9508020878 0.3180189729 -0.1003658548 0.9041032195
-0.08041882515 -0.1644389778 0.9477921724 0.1712715477 -0.1547917128 0.928557992
-0.08634376526 -0.1704885364 0.9484516382 0.3345261812 -0.1174506396 0.9110761881
-0.09682523459 -0.1723307371 0.9535719156 0.510495007 0.008198849857 0.8538720608
-0.09110619128 -0.1722761393 0.9510744214 0.4286335707 -0.0426142551 0.876812458
-0.08112276345 -0.1778493822 0.9479641318 0.2730002403 0.04247603565 0.8656416535
-0.08155121654 -0.1730797291 0.947080493 0.2863693833 -0.09763596952 0.9069871306
-0.08390834928 -0.1957921088 0.9532108903 0.2879239023 0.6058148146 0.6928890347
-0.08706666529 -0.1773589402 0.9504528642 0.3618742526 0.07671580464 0.8467931151
-0.09016191959 -0.1865241677 0.9538640976 0.394299835 0.3782614768 0.7520023584
-0.0815153569 -0.1836218089 0.9494318962 0.2703330517 0.2195576727 0.8120363951
-0.09312840551 -0.1789986342 0.9534713626 0.4493630826 0.1760797054 0.8082689643
-0.0861313045 -0.1836280972 0.95145154 0.3387818933 0.2578080595 0.7939065695
-0.08713244647 -0.1911268681 0.9535729885 0.3426010609 0.4918988049 0.7223467231
-0.0705055818 -0.1745996326 0.9429528117 0.05897176266 -0.08475591987 0.9371464849
-0.07485082 -0.1795757711 0.9456186295 0.175894931 0.04422238469 0.8746417761
-0.07955503464 -0.1896294653 0.9500231743 0.2154985815 0.4003757238 0.7656932473
-0.07896780968 -0.1783719808 0.9350839853 0.2050787508 -0.1344140172 0.9638346434
-0.07942353189 -0.1871030778 0.9384673238 0.2245981693 0.1009953842 0.9432031512
-0.07357829809 -0.1804985553 0.9376859069 0.05879449099 0.02434914187 0.9729409218
-0.08415580541 -0.1949465871 0.9435287118 0.3688575029 0.2984296083 0.8775156736
-0.04137210175 -0.1304454058 0.9595200419 -0.2644850612 -0.3336760402 0.9014360905
-0.0370634757 -0.1343767345 0.9591355324 -0.2933841944 -0.3130031228 0.8985786438
-0.04313600436 -0.1365133822 0.9553027749 -0.3098039627 -0.244339928 0.9148378372
-0.03859952837 -0.1394537836 0.9545276761 -0.3428816497 -0.2231676579 0.9108675718
-0.04429975152 -0.1273443252 0.9503703713 -0.2865070105 -0.3377292156 0.8948062658
-0.07428726554 -0.1370960921 0.9397947788 0.1303443164 -0.3764297962 0.9132870436
-0.07736939937 -0.1335564107 0.9455814958 0.183486551 -0.4366686344 0.8695473075
-0.0814749226 -0.1290971935 0.9529606104 0.2505615056 -0.5139889121 0.8136638999
-0.07402891666 -0.1260803491 0.9519164562 0.2396598905 -0.4786389172 0.8365982771
-0.06060247123 -0.1468146145 0.9486008883 -0.1333775073 -0.2680075765 0.93095994
-0.05791948736 -0.1556669623 0.945541203 -0.2533119023 -0.1641548425 0.9518603683
-0.0619629547 -0.1527666003 0.9427990913 -0.157064274 -0.2164326757 0.9416456819
-0.07247906923 -0.1424082667 0.9385646582 0.06184957176 -0.3645924926 0.9204436541
-0.06654980779 -0.1500910968 0.9406235218 -0.06375916302 -0.2711013854 0.9348148108
-0.05382733792 -0.2401834428 0.9816593528 -0.1941267252 0.231205821 0.9531871676
-0.05202223733 -0.2482328564 0.9801949859 -0.1933839619 0.2276460975 0.9539034367
-0.04899807274 -0.2448275834 0.9784383774 -0.2067200392 0.2347911894 0.9494072199
-0.04962063208 -0.2523678541 0.9852485657 -0.1746237874 0.2175949365 0.9602283239
-0.05201200768 -0.1257895082 0.960164547 -0.1094333977 -0.4126301706 0.8918065429
-0.06368231773 -0.1294300258 0.9555583596 0.06002937257 -0.4379100204 0.8936818242
-0.06413573027 -0.120401226 0.9600807428 -0.0008684323402 -0.4101337194 0.9077872634
-0.04822199419 -0.1221350059 0.9629278779 -0.1826601028 -0.3966673315 0.8949806094
-0.06325127184 -0.1247373074 0.9580653906 0.0202270411 -0.4226813316 0.9005877376
-0.05710209534 -0.1236671433 0.9600576162 -0.06282357126 -0.4120207131 0.898301959
-0.06137922406 -0.1165197641 0.9627177715 -0.06313030422 -0.3946868181 0.9119679928
-0.06847982854 -0.1139176115 0.963147521 0.03438916057 -0.4224360287 0.9023893476
0.06103079766 -0.1506640017 1.030441523 0.2509913743 0.2847313285 0.9250894189
0.05555807799 -0.1466870159 1.028078914 0.2499865144 0.2859434783 0.9250004292
0.05098829418 -0.1436367482 1.029524922 0.2469545007 0.2896009684 0.9247319698
0.05986634269 -0.2115978301 1.047617197 0.3574552834 -0.1300947517 0.9241840839
0.06594733149 -0.2120516598 1.044440746 0.3648420274 -0.1208696589 0.9222701788
0.07449498773 -0.2103797793 1.039202809 0.3694754243 -0.08711640537 0.9235317111
0.07126850635 -0.2209294438 1.038452387 0.3671075106 -0.1590278745 0.9160463214
0.05799213052 -0.1796641648 1.042386293 0.3215328455 0.1727167666 0.9294663668
0.05806424841 -0.1853877753 1.044148564 0.3591950536 0.1284185797 0.9243418574
0.05978333578 -0.1905029118 1.046453714 0.3539646566 0.08291075379 0.929934144
0.06898401678 -0.1876668334 1.043623686 0.3752794862 0.1118055731 0.9188379049
0.05743965879 -0.1950388402 1.049077272 0.3421717882 0.04119253531 0.9379429221
0.06280761212 -0.1853302121 1.043430686 0.3676843643 0.1303745955 0.9206280112
-0.08512669057 -0.2599769831 0.9820030928 0.06138507277 0.2514978945 0.9637254477
-0.07695501298 -0.2630033195 0.9813216329 -0.005245367065 0.1752374917 0.9829972982
-0.09294497222 -0.2600035071 0.9818926454 0.06490460783 0.3377122283 0.9386632442
-0.09810474515 -0.2240422815 0.9736786485 -0.04280750453 0.3391530216 0.937264502
-0.1002484262 -0.2290054113 0.9734225869 -0.07053403556 0.3292633891 0.9403211474
-0.09504659474 -0.2182688266 0.9738954306 -0.01420584228 0.3519477546 0.9333158731
-0.09705747664 -0.2098258585 0.9748796225 0.06838934869 0.3482469022 0.9330706
-0.1076076552 -0.2158357203 0.973834753 0.07794375718 0.2640956342 0.9495384097
-0.1217417866 -0.2144613862 0.9727343917 0.1663148403 0.1386443526 0.9716003537
-0.1060241312 -0.2210741043 0.9737964272 0.0272788927 0.2850084901 0.9470667839
-0.104762949 -0.231363982 0.9735715389 -0.06212223321 0.30991593 0.9450983405
-0.1113277599 -0.2232445776 0.973298192 0.03890245035 0.2415577769 0.9553452134
-0.1012801751 -0.2153722644 0.9743615985 0.04703090712 0.3188019097 0.9396619201
-0.1153106764 -0.2173363715 0.9731635451 0.1080688685 0.1987597346 0.9615620971
-0.1095759049 -0.2473065853 0.9731525779 0.0465939641 0.4105048776 0.9102379084
-0.1012047231 -0.2484988123 0.980078876 -0.01736890525 0.4011048079 0.9152704477
-0.1043979228 -0.2549687326 0.9802635312 0.05328216776 0.4243432581 0.9037388563
-0.09472551942 -0.2637791634 0.9854838848 0.07321754098 0.3418858647 0.9365318418
-0.09580072016 -0.2556121349 0.9790608287 0.05662772059 0.3625991344 0.9293602705
-0.09944666922 -0.253433615 0.9828342795 0.002073092619 0.3976045549 0.9156000018
-0.1020198837 -0.2577446401 0.9839642644 0.05456699803 0.4139175713 0.9075580835
-0.1197951362 -0.2375642359 0.9754424691 0.1497119814 0.2937915325 0.9383527637
-0.1082784161 -0.2482317984 0.9792957902 0.06986568123 0.3806607723 0.916692555
-0.1134915352 -0.2449253052 0.9773376584 0.1133258119 0.3509458601 0.9226820469
-0.1130719855 -0.2282846719 0.9731224775 0.01666899957 0.2392019629 0.9565373659
-0.1184831858 -0.2253759056 0.9731220007 0.09330818802 0.2047120929 0.9607796073
-0.1106853485 -0.2332838178 0.9734947085 -0.01326378714 0.2832176089 0.9486958981
-0.1210114583 -0.2195648551 0.972676158 0.1244808882 0.154090941 0.9699141979
-0.1143444777 -0.2423625737 0.9706843495 0.07619437575 0.3685547411 0.9229286909
-0.1161036119 -0.2388090938 0.9667789936 0.10232272 0.2909731865 0.9486590624
-0.08794561774 -0.2125464678 0.9728314877 0.0419213213 0.3725885153 0.924612999
-0.07993038744 -0.2220021039 0.973921299 -0.03990230709 0.2540977597 0.9611667991
-0.07162956148 -0.2196819484 0.9685918689 -0.01063840557 0.388358891 0.9151780605
-0.07554344088 -0.2253768444 0.9735577703 -0.06773971766 0.2274443805 0.9687098861
-0.08414187282 -0.2171048671 0.9733865857 0.002421746263 0.3148490489 0.9424521327
-0.06990487874 -0.2248561233 0.9720341563 -0.0838752687 0.2959370911 0.9459664822
-0.08526963741 -0.2028678507 0.9599947333 0.2110580951 0.5859191418 0.7513564825
-0.09205068648 -0.208970353 0.9718903303 0.08450032026 0.4031694531 0.898575604
-0.08082015067 -0.2068738788 0.9615358114 0.1583089978 0.5513971448 0.7873423696
-0.07384604216 -0.2148099542 0.9658848047 0.04753972217 0.4653401673 0.871173799
-0.08676003665 -0.2097683996 0.9690959454 0.08899983019 0.4385711253 0.8757308722
-0.08524487168 -0.2068856508 0.9646653533 0.1430318654 0.508694768 0.8176903129
-0.09070498496 -0.2058591992 0.9673125744 0.1418268979 0.4760698378 0.8379092813
-0.08013357222 -0.2105804086 0.9653772116 0.09781454504 0.4865269363 0.8440141082
-0.08217574656 -0.209287554 0.9550157785 0.3050087392 0.4197453558 0.7905082703
-0.08534780145 -0.2071434408 0.952052772 0.3776742816 0.4139348865 0.7643530965
-0.08342184126 -0.2121234685 0.9597150683 0.1679261178 0.4077919126 0.8428411484
-0.07956057787 -0.2161914706 0.9656460285 0.01381740719 0.4110313058 0.8994967341
-0.07652340084 -0.2136261165 0.9611212015 0.1522015482 0.4287373424 0.8459308743
-0.08821628988 -0.2044202536 0.948123157 0.4787014127 0.4107425511 0.7273515463
-0.08525571227 -0.2148075104 0.964256525 0.03325731307 0.3941164911 0.8945047259
-0.07985126227 -0.2283006608 0.9693422914 -0.06093488261 0.2652502954 0.9613414407
-0.0896608457 -0.2305310816 0.967946887 -0.1087016389 0.2296203822 0.96568501
-0.07356081158 -0.2248889804 0.9682260156 -0.06519031525 0.2729487121 0.9593212008
-0.0845009014 -0.2260574847 0.9669052958 -0.10985668 0.2383763939 0.9638556838
-0.08221030235 -0.2214081436 0.9667637348 -0.08261626959 0.2852860093 0.951905489
-0.09796893597 -0.1745284796 0.9385445118 0.4287086725 -0.08838778734 0.8928165436
-0.1109500155 -0.1682095677 0.9426476359 0.5076258779 0.01384946145 0.8582139611
-0.1035987511 -0.1678379625 0.9513117671 0.4988324046 0.01214443613 0.8633595109
-0.1110180318 -0.1586015075 0.9438695312 0.4396647513 -0.1797026247 0.8790127635
-0.1036991701 -0.1569716632 0.9476145506 0.3756524026 -0.2141125202 0.8875125647
-0.09922194481 -0.1508254409 0.952722609 0.3546974063 -0.2609092891 0.870069921
-0.1019622758 -0.1599584222 0.9510519505 0.4233106673 -0.1262072474 0.8712224364
-0.09861757606 -0.1664328724 0.9526540041 0.4577688575 -0.06135290116 0.8786736131
-0.09678324312 -0.1574204117 0.9540349841 0.3947666883 -0.1848930866 0.8749771714
-0.08704421669 -0.1305978 0.9561576843 0.2691671848 -0.5171918273 0.8101946712
-0.09143614024 -0.1352084726 0.9521853924 0.2768965662 -0.4440435171 0.8405789137
-0.09767408669 -0.1418897808 0.9500967264 0.2796369791 -0.3550136089 0.8860464096
-0.09241840988 -0.1405417323 0.9495622516 0.2942071855 -0.3757745326 0.8699195385
-0.09967061877 -0.1456231326 0.9465301037 0.2899234593 -0.2976571023 0.9081412554
-0.0978146717 -0.1849264205 0.9608386755 0.3849079907 0.1468483806 0.869453311
-0.09810955077 -0.2058399916 0.9718148708 0.1479803175 0.3682020903 0.9014173746
-0.1046224311 -0.1967938393 0.9634854794 0.3682170808 0.40030545 0.8216167092
-0.09969318658 -0.1933343261 0.9643021822 0.3208649158 0.2697245479 0.8648180962
-0.1015075296 -0.1889858246 0.9610082507 0.4033894241 0.2598114312 0.8395366669
-0.09918872267 -0.1983485073 0.967244029 0.2538604736 0.3117218614 0.8781961203
-0.09354779124 -0.1989403069 0.9656008482 0.2176336646 0.3647126853 0.8510505557
-0.08983299136 -0.2015537471 0.9627214074 0.2101521194 0.5152460337 0.7866986394
-0.09159382433 -0.1952342838 0.9608263373 0.2803657055 0.4087471366 0.7993862033
-0.08725744486 -0.1971254349 0.9567210078 0.2868481576 0.5764471292 0.720200479
-0.09336111695 -0.1877370775 0.958183527 0.3659866452 0.2938712239 0.8080716729
-0.09674269706 -0.1795535237 0.9570803046 0.4489626884 0.1166884676 0.8462972641
-0.1126710996 -0.1852495819 0.9611740112 0.4662838876 0.2820138931 0.8299577832
-0.104118377 -0.1791865379 0.9574443698 0.4963724017 0.1512764394 0.8375290632
-0.1025835127 -0.1848271936 0.9585986137 0.4622274637 0.2303819209 0.8269715905
-0.1005073637 -0.1759568751 0.9556881785 0.5130124092 0.08586815745 0.8419118524
-0.1075573117 -0.1855493188 0.9600076675 0.4612075984 0.263672471 0.8275339603
-0.09297937155 -0.1884940714 0.9369449019 0.5756652951 0.1126145422 0.8062645793
-0.09019608796 -0.1939170361 0.9371706247 0.5389903188 0.1761502624 0.8071926832
-0.1138139516 -0.2180899382 0.9650688171 0.2055959105 0.150607273 0.9586796165
-0.106173791 -0.2156620026 0.9577789307 0.3198038638 0.2197218686 0.8695988059
-0.1084564552 -0.2114842087 0.959461987 0.3221680522 0.2265565842 0.8852481842
-0.09712463617 -0.2054550648 0.9484046102 0.5096283555 0.342676878 0.7476941943
-0.1098420545 -0.21877864 0.9614759684 0.2504518926 0.1756023467 0.9167321324
-0.1154240519 -0.2224166095 0.9664441943 0.1619991213 0.1166092157 0.9790936708
-0.1179311201 -0.2140803188 0.9662047029 0.2145742029 0.1988650113 0.9479126334
-0.1187443063 -0.2088234872 0.9683704972 0.2244333327 0.2240754068 0.9445598125
-0.06229623407 -0.2519762516 0.9775977731 -0.1541076303 0.1868361682 0.9694805145
-0.06778576225 -0.2586393058 0.9777205586 -0.09168580174 0.1741596162 0.9794609547
-0.06764896959 -0.2446216494 0.9795250893 -0.1201155335 0.2008082569 0.9690615535
-0.07306221128 -0.2516218126 0.98068887 -0.05448028818 0.1732371151 0.9811606407
0.04714692757 -0.2584047019 1.038847923 0.3772048056 -0.215484187 0.9007125497
0.0502464585 -0.2545253634 1.039624333 0.3772048056 -0.215484187 0.9007125497
0.06008506939 -0.2423697859 1.038540125 0.3872453868 -0.2135443389 0.8968911171
0.05652206764 -0.2477317899 1.038000107 0.3821216226 -0.2145342529 0.8988412023
0.06705502421 -0.2168109417 1.040145516 0.3524258137 -0.1430009902 0.9248192906
0.06810882688 -0.2272793502 1.038738608 0.3882583082 -0.1929564923 0.9009879827
0.05854873359 -0.2257576287 1.044313669 0.3678852618 -0.1885290742 0.9097154737
0.06068993732 -0.2252144217 1.039807796 0.3725951016 -0.1873441786 0.9087403417
0.05562551692 -0.2334104925 1.040903807 0.3759810925 -0.212106213 0.9019708037
0.06426261365 -0.2322220951 1.038141966 0.3870994449 -0.2056405991 0.8987128735
0.05435567349 -0.22701855 1.04207015 0.3622055352 -0.1889929026 0.9125599265
0.04856036231 -0.23763901 1.043740749 0.3515120447 -0.1902416945 0.9162548184
0.0512784943 -0.2269424945 1.046342969 0.3515233099 -0.1702752709 0.9200251698
0.04664744437 -0.2447522432 1.042071104 0.3510510027 -0.2029783875 0.9140399098
0.05515408143 -0.2146732211 1.048890352 0.3547985256 -0.1512649059 0.922246635
0.05938676 -0.1545670331 1.039519548 0.2465831488 0.2900488973 0.9246990681
0.05358307809 -0.1528520882 1.037398934 0.2465831488 0.2900488973 0.9246990681
0.05920782313 -0.1646848023 1.037931442 0.2466796786 0.2899324596 0.9247076511
0.06423481554 -0.1599410772 1.029873013 0.2567917705 0.2777344286 0.9256030321
0.05660659075 -0.1535653621 1.031742454 0.2503338158 0.2855245471 0.9250311852
0.05906266347 -0.1586692631 1.033468962 0.2504155934 0.2854258716 0.9250384569
0.05624071509 -0.1468004882 1.033877969 0.2465831488 0.2900488973 0.9246990681
0.05229878053 -0.1387928873 1.028553128 0.2465831488 0.2900488973 0.9246990681
0.0635284707 -0.1668406129 1.034837723 0.2497954071 0.2777802348 0.9274437428
0.06744492054 -0.1690716743 1.03208065 0.2536205649 0.2646606565 0.9301757812
0.06339104474 -0.1726802438 1.037958264 0.305147171 0.2230551243 0.9245679975
-0.08095935732 -0.1647116393 0.93712008 0.1726418883 -0.2214477062 0.9581409097
-0.0798689127 -0.1707117707 0.9360557795 0.1917262673 -0.2128944248 0.9551153779
-0.07476843148 -0.1698900759 0.936811626 0.06612724066 -0.1595058739 0.9756184816
-0.07952681929 -0.1594710499 0.937453866 0.1272872686 -0.2331173271 0.9616314769
-0.07595747709 -0.1467301995 0.9378452301 0.1052797958 -0.3355726898 0.9319665432
-0.04649463668 -0.1395775229 0.9530593157 -0.3078747392 -0.2088410407 0.9165974259
-0.05482055247 -0.1354577541 0.9536670446 -0.1176464483 -0.3263217807 0.904966414
-0.05410662293 -0.1303660721 0.9568548799 -0.07993195951 -0.3955904245 0.8950808644
-0.04757453501 -0.1278092563 0.9598070979 -0.1717900783 -0.3875634968 0.8927802444
-0.04847909883 -0.1328584254 0.9556540847 -0.2089685351 -0.3073347509 0.9112656713
-0.06846097857 -0.1698390692 0.9420649409 0.03378414363 -0.2067971081 0.9700310826
-0.06599738449 -0.1607408673 0.9441117048 -0.09242863953 -0.2176955789 0.9639055729
-0.0631442368 -0.1685154587 0.9417251348 -0.1547430754 -0.1270785779 0.9771428108
-0.06943435222 -0.1725225747 0.93765378 -0.05742866918 -0.07440490276 0.9878491163
-0.0589029789 -0.1622122675 0.943744719 -0.2375055701 -0.1384320855 0.9597961903
-0.07547508925 -0.1535301507 0.9375593662 0.1011491194 -0.3005085588 0.9419391155
-0.07197864354 -0.1645406336 0.9387429953 0.01674817689 -0.1978079379 0.9626806378
-0.07313846052 -0.158488065 0.9383426905 0.0486163944 -0.2497068644 0.9511931539
-0.06633590162 -0.1554288715 0.9405674338 -0.0761058107 -0.231768176 0.9445564747
-0.07128176093 -0.1490264982 0.9389224052 0.02848849259 -0.3088991046 0.9328231215
-0.06139099598 -0.1354222149 0.9530575871 0.00241637812 -0.3873355687 0.8983796239
-0.05800541863 -0.1390600204 0.9520198107 -0.09421251714 -0.3204060197 0.9076741338
-0.05211869255 -0.1417078376 0.9517607093 -0.2256356329 -0.2398350388 0.9137692451
-0.06534105539 -0.1444283128 0.9419304132 -0.06990161538 -0.2870272994 0.9323471189
-0.06151417643 -0.1470935643 0.9436537027 -0.1478642374 -0.2389293164 0.9387622476
-0.05671789125 -0.1443321258 0.9458888173 -0.2108659446 -0.2013583332 0.9490889311
-0.05907128006 -0.2435602397 0.9815526009 -0.1587674767 0.2160935551 0.9605259895
-0.06348055601 -0.2477957755 0.9815803766 -0.119049646 0.1989296526 0.9687672853
-0.06718231738 -0.2521656156 0.9817118049 -0.08284127712 0.1828796118 0.9765149355
-0.05931808054 -0.2523901761 0.9828819036 -0.1363697499 0.2028701156 0.9672374725
-0.0949388966 -0.250405699 0.9810000658 -0.02225298062 0.35525316 0.9298543334
-0.08153712004 -0.2560486495 0.9810000658 0.01654306427 0.2139281183 0.9729003906
-0.08948874474 -0.2556639612 0.9810000658 0.03857550025 0.2908464372 0.9512465
-0.09007538855 -0.2502652407 0.9807698727 -0.03761247173 0.3110427558 0.942250967
-0.103497915 -0.2446042299 0.9776095152 -0.03001548722 0.3874603212 0.920714736
-0.0969901979 -0.2457305193 0.9794457555 -0.03608044982 0.3818176687 0.9227510691
-0.1050263047 -0.250657171 0.9746323228 0.04721518978 0.3982566595 0.9150489569
-0.1128936335 -0.24346672 0.965261519 0.05443962663 0.356277138 0.9327527881
-0.09665685892 -0.2353876829 0.9766695499 -0.05458233133 0.3691450655 0.926954627
-0.09954069555 -0.2406069785 0.9776275158 -0.05619217455 0.3669535518 0.9273450375
-0.09482803196 -0.2302500159 0.9753414392 -0.05741184577 0.3644944131 0.9287946224
-0.102010563 -0.2363218516 0.9749962687 -0.07601456344 0.3361426592 0.9376789927
-0.09280305356 -0.2244612128 0.9738314152 -0.06075566262 0.3590142429 0.9309462905
-0.07700701058 -0.2680814862 0.9780000448 0.01006505173 0.1882582009 0.9804909825
-0.07475069165 -0.260138303 0.9773179293 -0.01571696997 0.1691430211 0.9851220846
-0.1003493145 -0.2346805334 0.9664223194 -0.08538719267 0.2480569184 0.9589484334
-0.1161715835 -0.2334061712 0.9669032097 0.1285556108 0.2097890526 0.9672211409
-0.1188378632 -0.2273533642 0.9669242501 0.1495975107 0.1441596448 0.9752970934
-0.1206261963 -0.2334981412 0.9699741006 0.1465563327 0.2208889574 0.9618954659
-0.1291785687 -0.2156417072 0.9736296535 0.1727517843 0.1155256629 0.977807641
-0.1259957105 -0.2290942371 0.9738844633 0.1810277849 0.2063936591 0.9585692286
-0.1240856797 -0.2226819545 0.9693665504 0.1602201313 0.09724452347 0.9821494818
-0.1277592331 -0.2206999362 0.9726927876 0.1548728645 0.107836917 0.981928587
-0.1305345893 -0.2094828039 0.9748705029 0.2304735184 0.1907441467 0.9540864229
-0.1259997636 -0.2103291452 0.9725180268 0.2072052211 0.1741857976 0.9613499045
-0.1217715666 -0.216986686 0.9683172703 0.1865108311 0.1292434633 0.9720381498
-0.1063586846 -0.1836953908 0.9496450424 0.6738351583 0.2304328829 0.6958773136
-0.1060550585 -0.1801277995 0.9456844926 0.6307922006 0.1537769884 0.7524734139
-0.08611905575 -0.1517515481 0.9516135454 0.2664839923 -0.2778888345 0.893197298
-0.08104969561 -0.1412860751 0.9512009025 0.1644817889 -0.4087779522 0.8956350684
-0.09185148776 -0.1561128497 0.9520549178 0.3420897722 -0.2146727592 0.8900889158
-0.08783540875 -0.1370711029 0.9554057121 0.227628231 -0.4629049599 0.8553399444
-0.09140087664 -0.1444246918 0.9541702867 0.2772983313 -0.3555182219 0.8773490191
-0.08632721007 -0.1427693516 0.9518003464 0.2207603902 -0.379965663 0.8915070891
-0.09381818771 -0.1400907487 0.9563318491 0.2777060568 -0.4054224491 0.8643900156
-0.09455334395 -0.1506523639 0.9545949101 0.3393531442 -0.2778567672 0.8748583198
-0.1159263775 -0.2076671422 0.9737331271 0.1642038822 0.2520443201 0.9472388029
-0.112331599 -0.2031284571 0.9705011249 0.1863491535 0.3246461153 0.9185737967
-0.1037770361 -0.2085104883 0.9743474126 0.1058905721 0.3188496232 0.9363676906
-0.1185880825 -0.2029345483 0.9703561664 0.2144004554 0.2875911295 0.9254496694
-0.1221720353 -0.2063740492 0.9728044868 0.2012539059 0.2271861136 0.9482590556
-0.1113866642 -0.198983863 0.9675472379 0.2164567411 0.3762990534 0.8953518867
-0.1070947126 -0.2027000487 0.9702013135 0.1677298844 0.362180531 0.909678936
-0.1165139228 -0.1989649236 0.967528224 0.2382934242 0.3443877399 0.9017306566
-0.1245642751 -0.2017375976 0.9702308178 0.3038174212 0.2323917747 0.9140453339
-0.1180621013 -0.1923318952 0.9648402333 0.3954795897 0.2813757956 0.8644233346
-0.1222508997 -0.1965816021 0.9677865505 0.3581613302 0.2586117685 0.8855319023
-0.115587756 -0.2048480213 0.9663867354 0.2538285851 0.3097170591 0.9142355919
-0.1104007885 -0.1934211105 0.9579516053 0.5188012719 0.2972594202 0.7626051307
-0.1102749854 -0.194832772 0.9633144736 0.3766669333 0.4089055359 0.8260917068
-0.09002573043 -0.2092984468 0.9550276399 0.2731974125 0.383464545 0.8063583374
-0.09001366794 -0.2186802626 0.9657984972 -0.04643940926 0.3295488358 0.9293116927
-0.09280255437 -0.2180451453 0.9612409472 0.05805852264 0.2935253978 0.8929795027
-0.09376638383 -0.2230930179 0.965703845 -0.08508466184 0.2507086992 0.9493867755
-0.09165372699 -0.2070680559 0.950235486 0.3974840343 0.3731571734 0.7608021498
-0.06342154741 -0.2555184066 0.9824767709 -0.1104260236 0.1924497485 0.9723128676
-0.07110647112 -0.261331141 0.9810328484 -0.05735096335 0.1704598218 0.9832517505
-0.06489376724 -0.2648592293 0.9819121957 -0.08391565084 0.1803862453 0.9786857963
-0.06081301346 -0.2597747147 0.9808398485 -0.1107369289 0.1903043687 0.9741295576
-0.05440952256 -0.256962657 0.9841794968 -0.1372663081 0.2026744783 0.9675338864
-0.07165309042 -0.2668758333 0.9810000658 -0.04683301225 0.1672414094 0.9842759967
-0.07349289954 -0.2713527381 0.9785176516 -0.01954107173 0.1593704224 0.9869522452
-0.07479464263 -0.2566805482 0.9810000658 -0.03170907497 0.1628973782 0.9859809875
-0.07017178833 -0.2342326939 0.976298511 -0.1183909923 0.2419833988 0.9616073966
-0.07076164335 -0.2289601564 0.9755823612 -0.1064304337 0.2149929702 0.9692805409
-0.06187479571 -0.2333890349 0.978802979 -0.1631365269 0.2276806682 0.9581196308
-0.07694536448 -0.2301957458 0.9740069509 -0.07668304443 0.2399373204 0.9671757817
-0.08783063293 -0.2379961163 0.9752680063 -0.04933087155 0.3201028705 0.9439273477
-0.08239465207 -0.2360567749 0.9748982191 -0.06631173939 0.2891821563 0.952971518
-0.08625425398 -0.2299803048 0.9732394218 -0.03985157236 0.2918740809 0.9544919133
-0.08983174711 -0.2427062988 0.9771457911 -0.0527949743 0.3412420154 0.935991168
-0.07804469764 -0.2434124053 0.9770593047 -0.09721800685 0.2430096269 0.9615950584
-0.0843192488 -0.2408035249 0.9773168564 -0.07159143686 0.305780828 0.9457857013
-0.08629221469 -0.2464411855 0.978841126 -0.07506377995 0.3001735806 0.9444770813
-0.07957295328 -0.2402383238 0.9736407399 -0.02942804061 0.251381427 0.9652238488
-0.08508328348 -0.2414575368 0.9718199372 -0.002266991418 0.2485883236 0.9663896561
-0.08919814974 -0.2365649194 0.9698688984 -0.06039927155 0.2345339656 0.9667137861
-0.1026100889 -0.2466580272 0.9689939022 0.05411337316 0.3269275427 0.9422139525
-0.09205339104 -0.2528720796 0.9761402011 0.05660395697 0.3253031969 0.9430223107
-0.0973322466 -0.2498627603 0.9726765752 0.05545997992 0.3270548284 0.9423276186
-0.08560064435 -0.2510294616 0.9741855264 0.05228765309 0.2702389359 0.9602341056
-0.09251978993 -0.2484976649 0.9712290168 0.05225035176 0.2860756218 0.955137074
-0.07111228257 -0.2488730848 0.9757348299 -0.09390208125 0.2102409154 0.9680531025
-0.07669979334 -0.2493117452 0.9744023085 -0.02485882305 0.2266794741 0.9681740403
-0.107257694 -0.2436804473 0.9663296938 0.04380968958 0.3287640512 0.9409496188
-0.086371243 -0.2465727627 0.971595645 0.01919086277 0.2430342436 0.9668185711
-0.09046409279 -0.2425057888 0.9699636698 -0.01913870685 0.241462186 0.9649504423
-0.0959205851 -0.2432938665 0.9688526392 0.00632481603 0.2719610035 0.9567805529
-0.09467857331 -0.233811453 0.9675106406 -0.1141676977 0.2161902338 0.9671481252
-0.1005647629 -0.2404730916 0.9673084021 -0.01504933741 0.2795934677 0.9530200362
-0.08017807454 -0.2612421811 0.9773884416 0.04294141755 0.2263291925 0.9720915556
-0.07823922485 -0.2557258308 0.9755731225 0.0117298048 0.1962166727 0.9792107344
-0.07446458191 -0.238905713 0.9747875929 -0.08647111058 0.2464684844 0.9630345702
0.05610177293 -0.217967853 1.044740081 0.3565468192 -0.1588388979 0.9203205705
0.05581577122 -0.2083113939 1.049200416 0.3353622854 -0.07652748376 0.938811481
0.06168933958 -0.2093117386 1.043633938 0.3552643359 -0.08881022781 0.9295266271
-0.05625319108 -0.120273456 0.9479082823 -0.1611427814 -0.4313713014 0.8765359521
-0.06017978489 -0.1252937913 0.9481877089 -0.09855391085 -0.4325098097 0.8907362819
-0.06280551106 -0.1195601448 0.9517880678 0.002551125595 -0.4659842551 0.8521514535
-0.07308702916 -0.1290488541 0.9471563101 0.1800964028 -0.4323763847 0.8749025464
-0.06831172109 -0.1223436743 0.9536117315 0.1178096756 -0.4816684127 0.8496735692
-0.06554166973 -0.1263047308 0.9494518638 0.0230248943 -0.4454068542 0.8801720142
-0.07303887606 -0.1329567879 0.9432184696 0.1497660279 -0.4000307322 0.8975037932
-0.1022575572 -0.2181816846 0.9597657323 0.1443782151 0.2222198099 0.8984827399
-0.1065051109 -0.2229730934 0.9644406438 0.04468753189 0.1638959795 0.9591031075
-0.1010523066 -0.213317275 0.9550890923 0.3142367899 0.2650485635 0.8363624215
-0.1100642905 -0.2382135391 0.9655383825 0.01261651888 0.3055148721 0.9476738572
-0.1084714755 -0.2273016721 0.9662256241 -0.00261604297 0.1689065397 0.9786090851
-0.0991070345 -0.2219775766 0.963357389 -0.00186381978 0.215891555 0.9368484616
-0.09415384382 -0.2140260637 0.9556501508 0.2192078978 0.3023020327 0.8345364332
-0.1041568369 -0.2295019478 0.9667729735 -0.06053761765 0.2142052054 0.9738419056
-0.09903343022 -0.2258945554 0.9665712118 -0.1049912944 0.1929803193 0.9745912552
-0.1051166952 -0.2077157795 0.9570251703 0.4024353921 0.3114412427 0.8072907329
-0.09231654555 -0.2008864135 0.9437414408 0.6064352393 0.4121497571 0.6773783565
-0.100836046 -0.2060879469 0.9522120357 0.4614195824 0.324573189 0.7793910503
-0.1016882434 -0.1865884811 0.9456900358 0.6564723253 0.236470744 0.7123293877
-0.09773542732 -0.1861232519 0.9408213496 0.6181532145 0.1629990041 0.7680782676
-0.1025220826 -0.1906118691 0.9487297535 0.669675529 0.3401984274 0.6593651175
-0.1069240794 -0.1872125864 0.9531806111 0.6808217168 0.2718180716 0.6784652472
-0.09634733945 -0.1937981397 0.9423091412 0.6441588402 0.2734260857 0.7037875652
-0.09888558835 -0.1947933137 0.9476847649 0.6402938962 0.3934376538 0.6557148099
-0.1004414782 -0.1977928728 0.9517813921 0.5834288001 0.4328424037 0.6607561707
-0.1065579429 -0.2029066831 0.956200242 0.4602549374 0.2982853353 0.7814841866
-0.1137040034 -0.21090734 0.9642673135 0.2613328397 0.2159516364 0.9254117608
-0.112192452 -0.204473272 0.9623475075 0.3267574608 0.3024402261 0.8719824553
-0.1083340719 -0.1979866922 0.9581322074 0.4772658944 0.3103304803 0.7932987213
-0.1048414484 -0.194871828 0.9526724815 0.5677781105 0.340081811 0.7229233384
-0.06735559553 -0.2225209177 0.9677177668 -0.07469364256 0.2773030996 0.957686007
-0.05859674886 -0.2356956601 0.9738666415 -0.169196412 0.2442050725 0.9532248378
-0.06384121627 -0.233634159 0.9737275839 -0.1448580027 0.2418120503 0.9584433436
-0.04908844456 -0.2408007085 0.9749341011 -0.2206481993 0.2436105013 0.9442950487
-0.05998528376 -0.2383764088 0.9799642563 -0.1810571402 0.2274120152 0.9559240341
-0.06763727218 -0.2392763942 0.9754985571 -0.147602886 0.2354206145 0.9599405527
-0.05451483279 -0.2416952401 0.9753533602 -0.2050919235 0.2381296307 0.9489587545
-0.06389790028 -0.2436092645 0.9760280848 -0.1787312925 0.2290433198 0.9567513466
-0.08318159729 -0.2555837333 0.9755961895 0.07135678083 0.2641453147 0.9611913562
-0.06661634892 -0.1384277493 0.9417834282 0.01111483946 -0.2925765514 0.9442056417
-0.0689349398 -0.1344994009 0.9399225712 0.0357822068 -0.3690021038 0.9163008928
-0.06046273932 -0.1267659217 0.9436234832 -0.115468502 -0.3933595121 0.8950059414
-0.06512570381 -0.130165562 0.9413636327 -0.02191450261 -0.3821489811 0.9065706134
-0.04537717253 -0.1325341612 0.9491739869 -0.3158498108 -0.2771629095 0.89986974
-0.04704300314 -0.1502746642 0.9482414126 -0.3683545291 -0.1265538633 0.9208467603
-0.0443902649 -0.1448844224 0.9514725804 -0.3651269674 -0.1560635865 0.9174702168
-0.05238032714 -0.1520359814 0.9469094872 -0.3200016022 -0.1442222148 0.9347634315
-0.05655407533 -0.1291155517 0.9464460015 -0.2111659497 -0.3302808702 0.9087513089
-0.05979114398 -0.132542491 0.9454599023 -0.1249388307 -0.2908065617 0.9335154891
-0.05958941951 -0.1383617222 0.9455370307 -0.1304062456 -0.223770231 0.9540522099
-0.0501979962 -0.1265348494 0.9470746517 -0.2670816183 -0.3247103095 0.9032664299
-0.0549781099 -0.1360162497 0.947288692 -0.272124052 -0.2027587593 0.9384484291
-0.0491899848 -0.1378979385 0.9474545121 -0.3421153128 -0.2128324211 0.9063208699
-0.05151421577 -0.1454097182 0.9472519755 -0.3217893243 -0.1576945186 0.9294233918
