# .PCD v0.7 - Point Cloud Data file format
VERSION 0.7
FIELDS x y z normal_x normal_y normal_z
SIZE 4 4 4 4 4 4
TYPE F F F F F F
COUNT 1 1 1 1 1 1
WIDTH 512
HEIGHT 1
VIEWPOINT 0 0 0 1 0 0 0
POINTS 512
DATA ascii
-0.1209706068 -0.1680433005 1.050000072 0.05216166377 0.2924044728 0.9543655515
-0.1129462048 -0.1585306674 1.050000072 0.0785838291 0.2630997598 0.960729897
-0.1165039912 -0.1647396833 1.049114943 0.06495020539 0.2793305218 0.9573759437
-0.1142214313 -0.1613321751 1.04558754 0.06571376324 0.2757336497 0.9586928487
-0.01644142531 -0.1556215882 1.038661957 -0.3519093692 0.4710431695 0.8059844971
-0.01022658683 -0.1590563655 1.042695642 -0.3896589279 0.4189356565 0.8186004758
-0.1119904071 -0.157624349 1.043527842 0.08197829872 0.2625512481 0.9608771205
-0.1096467674 -0.1542891115 1.047195792 0.088170968 0.2527223527 0.9630980492
-0.126418516 -0.1473004371 1.044726849 0.01308476739 0.265029788 0.9639648199
-0.1110626534 -0.1492927521 1.048679352 0.07936855406 0.245337382 0.9654018283
-0.1219911054 -0.1514824033 1.046411157 0.04737716541 0.2769358158 0.9588886499
-0.126363799 -0.1551997513 1.046666741 0.04785876721 0.2982909977 0.9532586336
-0.1146808714 -0.153206259 1.050000072 0.07776144892 0.2577517331 0.9621024132
-0.1218993962 -0.1588055044 1.050000072 0.05142546818 0.2845959067 0.9559888244
-0.1300246716 -0.1623717397 1.044754863 0.04357142746 0.2896024287 0.956068337
-0.1402288079 -0.1597819924 1.047621012 0.03687286749 0.2748963237 0.9603962302
-0.1434811205 -0.1561153382 1.047562718 0.0407224521 0.2617237866 0.9638102055
-0.1468524486 -0.15109469 1.050000072 0.04838063568 0.23658593 0.970297277
-0.131102711 -0.1659040749 1.050000072 0.03052699938 0.2998949885 0.9534036517
-0.1275312603 -0.1699269265 1.048504472 0.04324724153 0.2959236801 0.9541897178
-0.1239620522 -0.141931355 1.038130879 0.05622439831 0.2366344184 0.9699090123
-0.1217017397 -0.1470619589 1.040416241 0.04838784412 0.248986721 0.9670596719
-0.1177927703 -0.1432163119 1.03862524 0.05467758328 0.2441806942 0.9680993557
-0.1301785558 -0.1429135948 1.038661122 0.05423063785 0.2337153256 0.970664084
-0.1173527688 -0.1539918184 1.04320693 0.04085113481 0.2663426697 0.9628797174
-0.1347101331 -0.1580023319 1.043181181 0.04149376228 0.2782955468 0.9592491984
-0.1352519095 -0.1481315345 1.040129423 0.0497383289 0.2481271327 0.9669175148
-0.1200829595 -0.1612232625 1.043836951 0.05564687774 0.2786662579 0.9585804343
-0.1259903461 -0.1592039615 1.043349028 0.05057702214 0.2762947679 0.9594137073
-0.1255057156 -0.1529174745 1.041385889 0.056794893 0.256537199 0.9644027352
-0.1355880499 -0.1534427702 1.041786313 0.04457053542 0.2647715211 0.9627117515
-0.1301548034 -0.1485460997 1.040138125 0.05530673638 0.2460674495 0.9672392607
-0.04280302674 -0.1413371265 1.019323945 -0.1498672068 0.1901233643 0.9645798206
-0.03634969145 -0.1350224614 1.018472075 -0.2670609057 0.1671035439 0.947081089
-0.03993776813 -0.1437262744 1.023689032 -0.2519580126 0.3036112189 0.9152723551
-0.01262655482 -0.1480045915 1.033920646 -0.391387552 0.3428130746 0.8272921443
-0.009280847386 -0.1404929608 1.026360512 -0.44226107 0.1822596341 0.8413341045
-0.01172036491 -0.1523837596 1.041341543 -0.3852316439 0.4195860922 0.8218597174
-0.05275083333 -0.1161932126 1.02291429 0.1035361663 -0.2143423855 0.9409220219
-0.051858522 -0.121445708 1.023994327 0.05511102825 -0.1190933064 0.9301791191
-0.0440887399 -0.1400306523 1.025315523 -0.1807134002 0.2351505458 0.9123134017
-0.04337530956 -0.1348681003 1.023391962 -0.1553516835 0.1474715471 0.9298189878
-0.05691746995 -0.1224877164 1.027046561 0.1187015027 -0.1197490618 0.9051787853
-0.05033195391 -0.1281906813 1.025174737 -0.01239616238 0.004642076325 0.9180464745
-0.04373173416 -0.1283778548 1.021653056 -0.1059462652 0.03256323561 0.9463525414
-0.06293359399 -0.1143417582 1.027882457 0.2585603893 -0.2847654819 0.9016073942
-0.04740328342 -0.1203727871 1.021260023 0.0001718795538 -0.121232979 0.9526287913
-0.06238773838 -0.1205221489 1.029426455 0.2086275518 -0.1745722741 0.8867649436
-0.06975699216 -0.1207692027 1.03256011 0.2712815702 -0.2628424168 0.8880790472
-0.06232740358 -0.1259088218 1.030419707 0.1470019966 -0.120318599 0.8931536078
-0.04839124158 -0.1368613243 1.026642203 -0.1014345139 0.1593125761 0.9046195149
-0.05390869826 -0.1342155486 1.028443694 -0.02281460539 0.06444129348 0.9025893211
-0.0561933443 -0.1294919699 1.028533101 0.05210310966 -0.008833056316 0.8963631988
0.01235042419 -0.2295380533 1.137950659 0.1595294625 -0.303398788 0.9394144416
0.009557494894 -0.2287034541 1.144910336 0.1595294625 -0.303398788 0.9394144416
0.00911430642 -0.2348289192 1.136274099 0.1595294625 -0.303398788 0.9394144416
0.007801835425 -0.233113572 1.141509771 0.1595294625 -0.303398788 0.9394144416
0.01398262568 -0.2289260328 1.143301487 0.1595294625 -0.303398788 0.9394144416
0.0013167297 -0.2373337597 1.14056766 0.1595294625 -0.303398788 0.9394144416
-0.004218173213 -0.2388295382 1.139868617 0.1595294625 -0.303398788 0.9394144416
0.002402766375 -0.2315322012 1.143687487 0.1595294625 -0.303398788 0.9394144416
-0.003859826596 -0.2336800992 1.142611623 0.1595294625 -0.303398788 0.9394144416
-0.1359274387 -0.1633190513 1.045312881 0.03582118079 0.2914605737 0.9558794498
-0.1346151978 -0.1590014249 1.050000072 0.03187373281 0.2923114002 0.9557673335
-0.1170082092 -0.2541313171 1.129618168 -0.3762374818 -0.2893946469 0.8801681995
-0.1160592437 -0.2479171008 1.124891639 -0.3762374818 -0.2893946469 0.8801681995
-0.1171861291 -0.2603524625 1.124624848 -0.3762374818 -0.2893946469 0.8801681995
-0.1207564995 -0.2562923133 1.123976469 -0.3762374818 -0.2893946469 0.8801681995
-0.110554494 -0.1509224474 1.041905046 0.08412524313 0.2480042875 0.9645305276
-0.1128930748 -0.1455706209 1.039589882 0.06384709477 0.2474967092 0.9664822817
-0.1318475902 -0.1385094076 1.03723979 0.05910013616 0.2265879214 0.9721606374
-0.130535543 -0.1270162463 1.041117311 0.06689029187 0.186234042 0.9799835086
-0.1428195238 -0.1447784156 1.04178834 0.05211181194 0.2381286472 0.9697844386
-0.1431870013 -0.1361429542 1.042319536 0.0612190105 0.2293945551 0.9713551998
-0.1418918222 -0.1319248974 1.040006161 0.06462206692 0.228150636 0.9714426398
-0.1461859196 -0.1459142566 1.047990441 0.05372778699 0.2329445183 0.9709719419
-0.136719957 -0.1401671022 1.037628531 0.0560380891 0.2270148695 0.97226125
-0.141311273 -0.1537794173 1.042791367 0.04522232711 0.2685109973 0.9618022442
-0.1255085766 -0.1426350176 1.04325664 0.02027654462 0.2396790087 0.9699050784
-0.1301564574 -0.1502340883 1.046525359 0.01903069206 0.2699130177 0.9624351263
-0.1345646828 -0.1542078406 1.048746824 0.0292546507 0.2777754068 0.9599030614
-0.1405407339 -0.1514849961 1.048942685 0.0377661176 0.2524756491 0.9664152861
-0.1392430216 -0.1473367661 1.045056701 0.05986534059 0.2449820042 0.9676060081
-0.137098223 -0.1356609762 1.042877913 0.07018700242 0.2156818658 0.97360605
-0.1352610737 -0.1303108335 1.041953683 0.0739441365 0.2048634738 0.9757424593
-0.1400301456 -0.1397468597 1.043800473 0.06714152545 0.2222498804 0.9724677205
-0.1279417723 -0.1351213753 1.04178071 0.05583749712 0.1995274276 0.9779000878
-0.1333321631 -0.1426858455 1.042925239 0.06191209331 0.2400498837 0.9683589339
-0.06253199279 -0.1197043806 1.017444015 0.3846192956 -0.2615633011 0.8842230439
-0.01222154777 -0.143786639 1.029226065 -0.412807703 0.2678652704 0.831230402
-0.02052621357 -0.1520700753 1.034992337 -0.3294950724 0.4920130074 0.7993657589
-0.01460427977 -0.1487019956 1.0391469 -0.3710305095 0.4353722334 0.8189153671
-0.01737354137 -0.1456670314 1.034725428 -0.3849504888 0.4345161021 0.8141121268
-0.01465421543 -0.1102686077 1.025626659 -0.5301006436 -0.3384569287 0.7731020451
-0.008496429771 -0.1138298362 1.029203176 -0.5729592443 -0.2916494608 0.7573104501
-0.00555274915 -0.1220305562 1.023991585 -0.5630536079 -0.2211135626 0.7894846201
-0.005261747632 -0.1137178913 1.033193588 -0.6047461033 -0.2817552984 0.736895442
-0.0006644627429 -0.123540625 1.028233409 -0.6032361388 -0.1937162876 0.7688981891
-0.004576904699 -0.1185843274 1.028829932 -0.5886039138 -0.2434189767 0.7624658942
-0.01159733348 -0.1098559275 1.029724717 -0.5615756512 -0.3313810229 0.751933217
0.001998682506 -0.1193245202 1.035911083 -0.6486951113 -0.21613352 0.7268812656
-0.04208580032 -0.1327683926 1.015788555 -0.118722342 0.03339467943 0.9890873432
-0.03934076801 -0.1281713247 1.016581893 -0.1502119899 0.004899067804 0.9862713814
-0.03880828619 -0.1226514354 1.017358661 -0.1520142853 -0.05040505528 0.9841629863
-0.03908536956 -0.1169776842 1.018373489 -0.1142758504 -0.1393198669 0.9808030725
-0.03864758834 -0.09942242503 1.018896222 -0.07001323253 -0.2743504941 0.9555254579
-0.04349668697 -0.108084403 1.018783927 0.009978366084 -0.2376402467 0.970746994
-0.0374417901 -0.108194232 1.018768787 -0.09425123036 -0.1981262267 0.974666357
-0.004028137773 -0.1318713278 1.018617153 -0.5131826401 -0.0129416734 0.854270339
-0.00446902262 -0.1419807971 1.029089689 -0.4572608769 0.1577042043 0.8508595824
-0.00448121829 -0.1372427344 1.023817062 -0.4793672562 0.07812798768 0.8552181125
-0.004022427369 -0.1471095532 1.035518765 -0.441457212 0.2430475056 0.8406754136
-0.0011298483 -0.1356749386 1.027659774 -0.5495922565 0.04564319551 0.8143398166
-0.0007303719758 -0.1319673955 1.024214983 -0.5745592117 -0.01737552881 0.8125915527
-0.02106559277 -0.1028669626 1.02899003 -0.4380406737 -0.3346050978 0.8278798461
-0.01399313565 -0.10743469 1.033610582 -0.524405241 -0.3483516574 0.7736150622
-0.01594715379 -0.10628663 1.029027581 -0.522492528 -0.3667126596 0.7678018212
-0.008766189218 -0.1097050384 1.03453958 -0.570699811 -0.3332532942 0.7464841604
-0.07385454327 -0.1084788814 1.034074306 0.3099249899 -0.287448436 0.9059845805
-0.07008621842 -0.1106786355 1.031919718 0.341504246 -0.2992422581 0.8903143406
-0.0896120593 -0.08809368312 1.046882272 0.01724009588 -0.3757384121 0.9262506962
-0.08405423164 -0.09863914549 1.042309403 0.1344380081 -0.3282310069 0.9240351915
-0.07703984529 -0.1114985123 1.037471294 0.2755753398 -0.2729227245 0.9165968895
-0.06065159291 -0.1046037376 1.026598692 0.35662058 -0.2623773217 0.8936995864
0.005185663234 -0.1223186851 1.0401752 -0.6864253879 -0.1324503422 0.707446754
0.007921239361 -0.1288357079 1.037625551 -0.6944129467 -0.01002311241 0.7167019844
0.009585696273 -0.1340199858 1.038128376 -0.6399356127 0.14320831 0.7408604026
0.006342190318 -0.1360310912 1.034174085 -0.599629283 0.1437197477 0.7726306915
0.0002522925788 -0.1423607618 1.035788655 -0.5218471885 0.181935519 0.8042149544
0.003076207824 -0.1344372481 1.031027675 -0.6026411057 0.0550185293 0.7813120484
0.0001430505945 -0.1490449905 1.041102529 -0.4615393877 0.3264528811 0.8156576753
0.004998671357 -0.2386856228 1.133588791 0.1595294625 -0.303398788 0.9394144416
0.002342315856 -0.2338713259 1.134679794 0.1595294625 -0.303398788 0.9394144416
0.005825406872 -0.2303512394 1.137368321 0.1595294625 -0.303398788 0.9394144416
-0.006502355449 -0.2365322858 1.135926127 0.1595294625 -0.303398788 0.9394144416
-0.008212729357 -0.2467641383 1.13725543 0.1595294625 -0.303398788 0.9394144416
-0.01000388991 -0.2409840077 1.136216402 0.1595294625 -0.303398788 0.9394144416
-0.005107307807 -0.241657272 1.135255694 0.1595294625 -0.303398788 0.9394144416
-0.08790389448 -0.2575988472 1.132032037 -0.3381268978 -0.1065240353 0.9312465787
-0.09617847949 -0.2617660761 1.125524879 -0.3054509163 -0.2163950354 0.9243906736
-0.08908033371 -0.2642990947 1.12707305 -0.334097296 -0.1229152605 0.9321258068
-0.09203229845 -0.2685801983 1.122906089 -0.322721988 -0.162464276 0.9305281639
-0.1093689129 -0.2527038753 1.128951907 -0.3370830715 -0.2613278627 0.9033526778
-0.1013373435 -0.2529371679 1.128585339 -0.3220362365 -0.2213242799 0.9159511328
-0.09761377424 -0.2576237619 1.128503323 -0.2844572365 -0.2185181081 0.9316602349
-0.01819125004 -0.2541634142 1.132724881 0.1585762203 -0.2852417529 0.945111692
-0.02301842906 -0.252317071 1.135056496 0.1453483403 -0.2674132884 0.9513668418
-0.0155382175 -0.2580499947 1.130937099 0.1582323015 -0.2786907554 0.9471672177
0.001217095763 -0.2448495179 1.133780241 0.1595148891 -0.3031210899 0.9395015836
-0.006632993463 -0.2518309951 1.135457635 0.1594948024 -0.3027386367 0.9396215677
-0.00268261903 -0.2473134696 1.134952426 0.1595294625 -0.303398788 0.9394144416
-0.01300464198 -0.2538215816 1.13190639 0.1585696489 -0.2851165533 0.9451509714
-0.01458905544 -0.2473019361 1.135069847 0.1592543721 -0.2981588542 0.9410586357
-0.1292367578 -0.2460028231 1.115941286 -0.3762374818 -0.2893946469 0.8801681995
-0.123280488 -0.2512897849 1.123165846 -0.3762374818 -0.2893946469 0.8801681995
-0.1241862997 -0.2465417385 1.121602535 -0.3762374818 -0.2893946469 0.8801681995
-0.106918633 -0.2682791352 1.124163866 -0.3578179181 -0.2610039413 0.8959756494
-0.1128546745 -0.2635052204 1.122421145 -0.3750053644 -0.2874955237 0.8812255859
-0.09719443321 -0.2742175758 1.129004478 -0.3284652233 -0.1954085827 0.9207674861
-0.0930140093 -0.2750797868 1.132674694 -0.3033249676 -0.1526955962 0.9374858737
-0.1138781384 -0.0874575004 1.038452625 -0.02308704145 -0.1762742847 0.9834355712
-0.1162878498 -0.0898142904 1.033971548 -0.01520318724 -0.1520527899 0.9877249599
-0.1154315025 -0.09179154783 1.040130973 0.008856351487 -0.1491211355 0.984387815
-0.1210383624 -0.09992719442 1.036073923 0.04969644919 -0.0649683699 0.9922944307
-0.1152477339 -0.09744486213 1.034389377 0.01147327852 -0.1405257285 0.9877951145
-0.1214003935 -0.09567568451 1.033085108 0.01956501789 -0.1081263497 0.9937689304
-0.1236868724 -0.1041977555 1.033979416 0.07213822752 -0.02299693227 0.9962244034
-0.1173434481 -0.1058385968 1.034306288 0.1054173335 -0.05390960723 0.9913582206
-0.1208058298 -0.1135040075 1.034548759 0.1067854613 0.07600422204 0.989220798
-0.1281042993 -0.1147038415 1.036092162 0.05305893347 0.09614748508 0.9929682612
-0.1266748905 -0.1093827784 1.035257936 0.066470474 0.03811623901 0.9949531555
-0.1242744029 -0.1062843576 1.041758657 0.02641152218 0.006035116035 0.9846506715
-0.120965749 -0.1013421342 1.042299509 0.01550124213 -0.04662481323 0.9829422832
-0.1170205548 -0.09731060266 1.041677356 0.01876664162 -0.1009914503 0.9823769927
-0.1285870224 -0.1118917689 1.041436434 0.03469504416 0.07066598535 0.986507535
-0.1234895512 -0.1368309259 1.042337298 0.04926185682 0.1956720352 0.9790278673
-0.1169886515 -0.1446339041 1.0459584 0.05880888179 0.2309609652 0.9699850678
-0.1162977368 -0.1174182296 1.035196662 0.1507018507 0.112041004 0.9805505276
-0.1313764304 -0.1247345656 1.035999179 0.06867960095 0.1681165099 0.98179847
-0.1262823194 -0.1222828701 1.03593266 0.05832979083 0.1305571496 0.9883310199
-0.1308757812 -0.1321352124 1.036792636 0.05780242756 0.1948526502 0.9782659411
-0.1379663795 -0.1240704656 1.040130019 0.05686144158 0.1922761649 0.9783378243
-0.1338054836 -0.1210046858 1.041000009 0.05721431971 0.1637049168 0.9843274355
-0.1387888193 -0.132664144 1.035955906 0.06380674988 0.2146702856 0.9745189548
-0.1359890103 -0.1270385534 1.036556482 0.07231259346 0.1964930147 0.9776226282
-0.05109360814 -0.1385298371 1.022802472 -0.04409806058 0.1442769766 0.9287023544
-0.06431970745 -0.1303127408 1.028853536 0.1451976895 -0.1021486595 0.9129054546
-0.07495944202 -0.1236647144 1.034371257 0.2912423015 -0.301196456 0.8975589871
-0.05745130777 -0.1347468048 1.022839665 0.07443720102 0.02940366045 0.9327661991
-0.06239953265 -0.1317853928 1.023162246 0.1638776958 -0.06036893651 0.9347372055
-0.05952075124 -0.1331277937 1.029522061 0.04904264584 -0.01630820148 0.9070100188
-0.0704209432 -0.1252993345 1.018875122 0.3015084565 -0.227570042 0.9221772552
-0.07577881962 -0.1239035875 1.020704746 0.2995958924 -0.22943075 0.9238711596
-0.06428481638 -0.1260933727 1.016926646 0.3012598455 -0.2403562814 0.9173035026
-0.05612201244 -0.1235274896 1.015745997 0.1405922621 -0.1061405763 0.9740377665
-0.05495534837 -0.1337428391 1.01389122 0.05534737185 -0.04857594892 0.9962650537
-0.06189548969 -0.1316779554 1.015641332 0.2167361975 -0.06823912263 0.9705631733
-0.05508930609 -0.1362909824 1.018960118 0.06874243915 0.06822673976 0.9505267143
-0.05122860149 -0.1227336153 1.015905261 0.05263538659 -0.1028914526 0.9824546576
-0.0529945977 -0.1170313582 1.016629934 0.1698395461 -0.2132511586 0.9515411258
-0.0457579121 -0.1218949854 1.016483307 -0.03964414448 -0.09955155849 0.9856146574
-0.04655876756 -0.1372504979 1.016278505 -0.06674816459 0.0686692223 0.9903050661
-0.05323506147 -0.1277208328 1.014972687 0.04484309256 -0.06105922163 0.9950148463
-0.0479462631 -0.1277212799 1.015263677 -0.0456029065 -0.04844931886 0.9955402613
-0.04927225038 -0.1332208961 1.014537692 -0.02168595977 -0.01683523133 0.9970104694
-0.01380658336 -0.1217840016 1.020677805 -0.4550683498 -0.1986504644 0.8562627435
-0.007685257588 -0.1260380447 1.019603014 -0.5123664737 -0.1785488576 0.833912611
-0.00953569822 -0.1191822365 1.022361636 -0.5374000669 -0.2545823455 0.7966616154
-0.01493067201 -0.1156377643 1.023219466 -0.4853436351 -0.269726634 0.8179777265
-0.02344061621 -0.1347649992 1.022192597 -0.28708601 0.2382573187 0.9166838527
-0.0283861123 -0.1344648451 1.02062571 -0.2782983482 0.2061643451 0.930343926
-0.01833589934 -0.1339146793 1.021132827 -0.3410934508 0.1788824946 0.9016703367
-0.01920723356 -0.1277061999 1.018352151 -0.3761354089 -0.05581742525 0.9136784673
-0.01496560685 -0.131457001 1.017435312 -0.4264259636 0.01931980439 0.8919665813
-0.02519956976 -0.129694432 1.018266439 -0.3367410898 0.01195923425 0.9276186228
0.002167082857 -0.1249093264 1.032453179 -0.641692102 -0.2005462497 0.7370823026
0.005014037248 -0.1297585815 1.033337831 -0.6627081037 -0.03150499985 0.7441552281
-0.04351219162 -0.09751137346 1.019423246 0.05501391366 -0.2904386222 0.953070879
-0.03506077826 -0.0991762951 1.022423744 -0.1850761622 -0.3002083004 0.9346175194
-0.03614554182 -0.1044503227 1.02220428 -0.1666819155 -0.2525190711 0.9408361912
-0.05282464251 -0.09640933573 1.023730516 0.2437176257 -0.2968042493 0.920588851
-0.0481961295 -0.09670905024 1.022893548 0.1514272541 -0.2910522819 0.9331461191
-0.04580914974 -0.1019545794 1.02339685 0.05672873184 -0.2987349629 0.9265198708
0.0112339044 -0.1397118121 1.044085145 -0.5595389009 0.1899943352 0.7866601944
0.01215436868 -0.1495023966 1.048863411 -0.4210899472 0.2661743462 0.8560630679
-0.007365051191 -0.143561095 1.041000009 -0.4081826806 0.3382173479 0.8332790732
-0.09392339736 -0.1260906756 1.02927649 0.1962613165 0.03537555784 0.9676136971
-0.0743496865 -0.126781553 1.028690577 0.270375073 -0.1812202036 0.9259184003
-0.06990812719 -0.1279750317 1.024567246 0.2713842988 -0.1667782813 0.9357440472
-0.07818668336 -0.130031839 1.02607739 0.2252552956 -0.02114485018 0.9517266154
-0.08217154443 -0.1294221431 1.029111743 0.2195847481 -0.01551954448 0.9466047287
-0.08738134056 -0.1283650547 1.033453822 0.2148579359 -0.01864284836 0.9378257394
-0.08532894403 -0.1277118921 1.025522947 0.228407979 -0.02599216998 0.9570871592
-0.07597454637 -0.1298888773 1.021669149 0.2336578518 -0.02846788988 0.9614441991
-0.08141068369 -0.1250554025 1.022362828 0.268032521 -0.1410775483 0.9513382912
-0.0670145303 -0.1308395267 1.017486334 0.2505856454 -0.06710028648 0.9632094502
-0.09073978662 -0.1304617077 1.029488802 0.18332389 0.1035726964 0.9630761743
-0.02845807374 -0.1010005325 1.023810387 -0.3436405957 -0.3060072362 0.8793558478
-0.07994350791 -0.09804424644 1.03906846 0.1937603801 -0.3233412802 0.9130300879
-0.07513852417 -0.09859765321 1.03557086 0.2791005671 -0.2777192295 0.9051796794
-0.07903382927 -0.09330829978 1.039122939 0.2048782557 -0.2948158979 0.9113260508
-0.076105088 -0.1038505957 1.035480261 0.2675172389 -0.3089357615 0.9070002437
-0.08508247137 -0.0893900767 1.04390347 0.07253803313 -0.359588325 0.9224147201
-0.0664435029 -0.09491727501 1.02921474 0.2898092568 -0.3084948361 0.8996002078
-0.07208814472 -0.0953861326 1.030537844 0.2468336225 -0.3269631863 0.904266417
-0.08769995719 -0.09507273138 1.036463022 0.1106346101 -0.3771907389 0.9184519649
-0.08187323809 -0.09623511881 1.032574177 0.1736893356 -0.3624477684 0.9106161594
-0.06152336672 -0.09807893634 1.027457833 0.3383339345 -0.2587555349 0.9017962217
-0.08802298456 -0.1054172814 1.038346052 0.1113649011 -0.3046751618 0.9375524521
-0.08654089272 -0.1114772484 1.036064029 0.1585526764 -0.2745622396 0.9428339601
-0.08213096857 -0.1090918183 1.037681222 0.2061332315 -0.2820752859 0.9302871823
-0.08299026638 -0.1037853062 1.039681792 0.1733953357 -0.3058608472 0.9268494844
-0.08052520454 -0.1144987643 1.035772562 0.2480453849 -0.2580939531 0.9314085245
-0.08258333802 -0.1021217778 1.033468127 0.1938218474 -0.3295686841 0.9159576893
0.004545293748 -0.1446027458 1.040482879 -0.4910923839 0.2974588573 0.8089085817
0.01059383526 -0.1392722577 1.039054155 -0.5728960037 0.2690628171 0.7708460689
0.01184609253 -0.145450756 1.04373312 -0.4749774337 0.350001663 0.8053753376
0.00231187162 -0.1462848634 1.04626441 -0.4045492709 0.259929806 0.8645682335
-0.0002627713548 -0.1376007646 1.044314861 -0.4487332404 0.146628201 0.8636205196
-0.004249132704 -0.1329372674 1.041029453 -0.4675274491 0.1418326944 0.8492364883
-0.001187128481 -0.142886281 1.043359637 -0.4171206355 0.2692189813 0.8509209156
0.007495876867 -0.1431747973 1.046381354 -0.5111629367 0.1788553894 0.8059430122
0.00474099908 -0.1383955181 1.044971108 -0.5201570988 0.1275388449 0.8128210306
0.00432143826 -0.1277247816 1.041277051 -0.6467457414 0.003161752131 0.7492213249
-0.003271209775 -0.1267281771 1.041497111 -0.5147660971 0.01149820257 0.8517432213
0.002425221028 -0.1326346695 1.04313302 -0.5487235188 0.06590989977 0.8084855676
-0.03109449521 -0.2498237491 1.137314081 0.1110345945 -0.2154509425 0.9603385329
-0.03969525173 -0.254838407 1.136559367 0.04606198892 -0.09664256871 0.9886562824
-0.04496336356 -0.2549724877 1.142986298 0.01507400628 -0.07510109246 0.9872829914
-0.03489164636 -0.2518330514 1.139564753 0.07464598119 -0.1550228149 0.980078578
-0.02695343085 -0.2475686967 1.140830159 0.1168484613 -0.2315455079 0.9650122523
-0.01944090985 -0.2427087724 1.140780568 0.1382293403 -0.267540127 0.9521891475
-0.01351966336 -0.2398364693 1.140358448 0.1555542052 -0.2967064679 0.9417986274
-0.02049565874 -0.2491267771 1.139266133 0.1293663681 -0.2526193559 0.9575046897
-0.01471463591 -0.2523605824 1.136501431 0.1487901062 -0.2853191495 0.9458553791
-0.08823236078 -0.270871222 1.134879708 -0.2800716162 -0.1098621637 0.9528861046
-0.08996009827 -0.264354676 1.134356737 -0.2815389037 -0.1200047359 0.9511091709
-0.08453496546 -0.2613984942 1.13450563 -0.3376409709 -0.06759250164 0.9383711815
-0.08491353691 -0.2672515512 1.135474086 -0.3139426708 -0.07770163566 0.9452605247
-0.09424993396 -0.2561635673 1.132413745 -0.2740641236 -0.1494192928 0.9499933124
-0.03266735002 -0.2676289976 1.134648204 0.07050272822 -0.1236717701 0.9795823097
-0.02826952003 -0.2652672827 1.133017182 0.09809028357 -0.1700623035 0.9694175124
-0.03379627317 -0.2567873001 1.135195613 0.06794855744 -0.1300911009 0.9839728475
-0.02114730328 -0.2593989968 1.131299853 0.1419381648 -0.2481556386 0.9560617805
-0.02667704411 -0.2563810945 1.137816548 0.1107487455 -0.1880395859 0.9748244882
-0.0236448627 -0.2615861297 1.135110974 0.1179749966 -0.1793441772 0.9743530154
-0.08958608657 -0.2744807899 1.123602867 -0.3068023026 -0.09300708026 0.9443469048
-0.08959107846 -0.2763952911 1.129067421 -0.3065156341 -0.1346977055 0.940521419
-0.07427697629 -0.2764466107 1.135007381 -0.2281729877 -0.03673624992 0.970451951
-0.08209624887 -0.2800357044 1.137786984 -0.2811262608 -0.07069437206 0.9566683173
-0.0848543644 -0.2771371901 1.131483197 -0.2905094326 -0.04935627803 0.9550847411
-0.06901388615 -0.2745530903 1.134050012 -0.1936962754 -0.01805749722 0.97931844
-0.07882064581 -0.2754250765 1.131187797 -0.2520082593 -0.03161170706 0.9648884535
-0.07640499622 -0.2582262754 1.13760972 -0.2535850704 -0.02453300543 0.9575976729
-0.06712216139 -0.2625785172 1.142125964 -0.1468603462 0.01733006909 0.9847396016
-0.07754256576 -0.2664925158 1.137644768 -0.2711860836 -0.037247058 0.9572892785
-0.06994923949 -0.2582806647 1.140551805 -0.1778355986 0.007142496295 0.9754542112
-0.07313811034 -0.2636301219 1.13945806 -0.218015641 -0.01313743368 0.9684776068
-0.07310984284 -0.2706063986 1.139937401 -0.2212692052 -0.0190110635 0.9709481597
-0.08205204457 -0.2712428272 1.136778712 -0.3007500768 -0.06281218678 0.9502391219
-0.1188049763 -0.2519103885 1.12033391 -0.3762374818 -0.2893946469 0.8801681995
-0.1150986999 -0.2553158104 1.120261312 -0.3762374818 -0.2893946469 0.8801681995
-0.102617979 -0.2618904412 1.122763634 -0.3255481422 -0.2655461431 0.9058792591
-0.1048752889 -0.2661923468 1.1191293 -0.3605437577 -0.261723727 0.8933407664
-0.09802374989 -0.265704453 1.122164011 -0.3130812943 -0.2298125029 0.9198765755
-0.09398526698 -0.272539556 1.119421363 -0.3184020221 -0.1863458753 0.9289884567
-0.1017199233 -0.2571713328 1.12549758 -0.309895426 -0.2684746087 0.9111742973
-0.108488746 -0.252153337 1.123869419 -0.3730473518 -0.2883886695 0.8816592097
-0.1074922234 -0.2576850653 1.122207642 -0.363529861 -0.2853874564 0.8861073256
-0.1016986519 -0.2719556391 1.124971151 -0.3423085511 -0.2347408235 0.9094245434
-0.1000375301 -0.2690928876 1.130033374 -0.3082594275 -0.2038514167 0.9286919832
-0.1024971679 -0.26093027 1.130316257 -0.3267754912 -0.2346979976 0.9149463177
-0.09545101225 -0.261452198 1.131157637 -0.2846401632 -0.1639472246 0.9434863329
-0.1120893806 -0.2617853582 1.130007625 -0.3666309714 -0.2754802406 0.8881244063
-0.1083779633 -0.2580047846 1.130240679 -0.3379319012 -0.2586367726 0.9039147496
-0.1066570356 -0.267154187 1.128918052 -0.3412892222 -0.2441500127 0.9060482979
-0.0917332992 -0.1030237377 1.03337121 0.03394462913 -0.3456013203 0.9286686182
-0.08909884095 -0.1064304486 1.030995965 0.1532552838 -0.3059725761 0.9281887412
-0.08891122788 -0.1214762256 1.025281668 0.2707929909 -0.180185318 0.9446294308
-0.095214203 -0.1122814044 1.03123939 0.05941260606 -0.1923623979 0.9624057412
-0.09159831703 -0.1156062633 1.028676629 0.1352714151 -0.2235020697 0.9462045431
-0.1082839295 -0.09582811594 1.039545655 0.008049995638 -0.2210910022 0.9662869573
-0.1087762341 -0.09037013352 1.042124152 -0.01451132633 -0.2292330265 0.9691222906
-0.1124490872 -0.1072309017 1.038844109 0.04963124543 -0.08736477792 0.974947691
-0.1126767546 -0.1027539074 1.035772324 0.08028578013 -0.127057761 0.9825309515
-0.1240570769 -0.1246169657 1.041000009 0.06324142963 0.1495645046 0.986487627
-0.1273134649 -0.1205324233 1.040606618 0.06372594833 0.1332934946 0.9872361422
-0.1239929795 -0.1162396595 1.038900375 0.07597515732 0.07292378694 0.988057375
-0.1243060902 -0.1276749372 1.036762118 0.06235453486 0.1669238955 0.9822044969
-0.1236993149 -0.1330384761 1.037594438 0.0636112541 0.2008437663 0.9768304825
-0.1180114672 -0.1287818849 1.036549091 0.07947193086 0.1899377108 0.9762034416
-0.1199045405 -0.1237135828 1.035844922 0.07467827946 0.1544595063 0.9823281169
-0.1168924421 -0.134600848 1.037121296 0.08585351706 0.2328834981 0.9686174989
-0.04995508492 -0.1132307202 1.017572045 0.1274330467 -0.2375954688 0.9564883113
-0.05438157171 -0.1016098857 1.022425652 0.2604226768 -0.2825302184 0.9221484661
-0.06181849539 -0.1065518185 1.022043467 0.3622458875 -0.2768011689 0.8884061575
-0.06022158638 -0.1144357696 1.018602967 0.3724631965 -0.2592405379 0.8881735802
-0.05751857534 -0.1082360819 1.02063334 0.3029048741 -0.2661300302 0.9110236764
-0.05471144989 -0.1122847646 1.018517017 0.275901705 -0.2536129653 0.9227823615
-0.04966843501 -0.1040378958 1.019739747 0.1772308648 -0.2725132704 0.9412767887
-0.07366360724 -0.1174920276 1.034192801 0.3233638704 -0.3105119765 0.8929656148
-0.06796003878 -0.1187880263 1.019258976 0.3767654896 -0.2364635468 0.8927112222
-0.07250360399 -0.119530648 1.020561099 0.3545621634 -0.2247525454 0.9036530256
-0.0650016889 -0.1139934435 1.021916747 0.3912900686 -0.2709504664 0.8772737384
-0.06708218157 -0.1103005931 1.025123119 0.3837359548 -0.2710331976 0.8797373176
-0.07004320621 -0.1139614061 1.026293874 0.3581481576 -0.3290613592 0.8702877164
-0.06761988997 -0.1047209129 1.027711868 0.3894795775 -0.2410150915 0.8870945573
-0.07811754197 -0.1069403589 1.031232834 0.2524645329 -0.3235254288 0.9021188021
-0.07187210768 -0.1028313562 1.030608177 0.3441794217 -0.2609451115 0.8943837285
-0.0763130635 -0.1121455431 1.029008269 0.2736051679 -0.3513455987 0.8878916502
-0.08258839697 -0.1205687448 1.025382161 0.2931743562 -0.2516816854 0.9152252078
-0.07438685 -0.1174008623 1.026466012 0.3069901168 -0.3611634672 0.8757998347
-0.08688370138 -0.1126404777 1.030177712 0.2019917518 -0.2797449231 0.9318304658
-0.08177475631 -0.1100616232 1.031191587 0.2052961737 -0.3533373773 0.9070160985
-0.07970221341 -0.1171618327 1.027045846 0.2779664397 -0.310626477 0.9003846645
-0.03194077685 -0.1387985945 1.022083521 -0.284783721 0.2780071199 0.914245069
-0.0328857936 -0.1453945339 1.025639534 -0.31003654 0.3618734181 0.8745170832
-0.02858385444 -0.1496886611 1.031544685 -0.2960624695 0.4435763061 0.8382745385
-0.02227574028 -0.1468667686 1.032452941 -0.3650554419 0.4299123883 0.8243666887
-0.02743139304 -0.1452270746 1.029809237 -0.3375924826 0.387090534 0.8523765206
-0.02188663557 -0.1397171021 1.023896933 -0.3284123242 0.3626559079 0.8410959244
-0.01081561763 -0.1341757923 1.01950407 -0.4427673519 0.1148822308 0.8539910913
-0.01394078229 -0.1380341798 1.022891045 -0.4227809012 0.2184883207 0.8364263177
-0.01660869829 -0.141380623 1.0265522 -0.4037359655 0.2974610031 0.8302676678
-0.02725184709 -0.1399609298 1.027198911 -0.3618303835 0.2946632504 0.8664174676
-0.01324670948 -0.1223566532 1.032133818 -0.5635439157 -0.2212047726 0.7772199512
-0.02042463236 -0.1359927803 1.030784488 -0.43600595 0.1561377496 0.819702208
-0.02306252904 -0.1407958716 1.03023541 -0.3902257383 0.2897141874 0.8354604244
-0.02283732966 -0.1306024641 1.027780175 -0.4453573823 0.0387946479 0.8409715891
-0.1067701206 -0.1389696151 1.036842346 0.1242419705 0.2345176637 0.9616498351
-0.1067227572 -0.1339144856 1.035809755 0.1127230525 0.2252786756 0.9672012925
-0.112402603 -0.1370347887 1.037217259 0.08308646828 0.2367796898 0.9676419497
-0.104994975 -0.1441338509 1.041640639 0.182109043 0.2413741946 0.9515411258
-0.09538532048 -0.1328350306 1.035506964 0.1997453719 0.1074572131 0.9451004267
-0.1057693586 -0.1477230787 1.047076344 0.1291141063 0.2321883589 0.9601497054
-0.09595497698 -0.1371292621 1.039386392 0.2250594944 0.06286423653 0.9325878024
-0.1013749838 -0.1397929192 1.038104177 0.2245209962 0.1826234907 0.9403932095
-0.08508137614 -0.1299192607 1.038720965 0.2568528056 -0.1620245874 0.9125859737
-0.03133045137 -0.1062685326 1.021500707 -0.2594825029 -0.2374309599 0.9164916277
-0.02530817501 -0.1057014838 1.024847746 -0.4464485943 -0.2814037204 0.8478985429
-0.025810197 -0.1170590445 1.020282984 -0.344498992 -0.1594635695 0.9197426438
-0.02392140403 -0.1112151593 1.022982121 -0.4155817628 -0.2351701558 0.8729400635
-0.02023765258 -0.1169792563 1.021584272 -0.4074037373 -0.2087554932 0.8810677528
-0.01290364191 -0.1430772096 1.037715912 -0.4062901437 0.373971045 0.8204727173
-0.01178422105 -0.1364900023 1.036676764 -0.4466316402 0.2420564145 0.8208898306
-0.008598410524 -0.1252597272 1.037025571 -0.5291890502 -0.06810778379 0.8166332841
-0.01682298258 -0.1400696188 1.033765912 -0.4284628928 0.2756407857 0.8034764528
-0.002337125596 -0.1538528949 1.043492198 -0.3985192478 0.3630841374 0.8419725895
0.008470351808 -0.1531104743 1.048452973 -0.3808420002 0.3178824782 0.8678179979
0.003238917561 -0.1565548033 1.047145247 -0.3884245157 0.3481422067 0.8511537313
-0.005678194109 -0.1485324949 1.042875409 -0.3845678568 0.383545965 0.8381114602
-0.005565031432 -0.1589381546 1.045068026 -0.3968631625 0.3834274411 0.8326184154
-0.08088738471 -0.2573510706 1.134216189 -0.3014928699 -0.04291372746 0.9493561983
-0.08376098424 -0.2625944614 1.129333854 -0.2929768264 -0.07983826846 0.9481573105
-0.07902110368 -0.2641428709 1.127873659 -0.2529695332 -0.04867165163 0.9582517147
-0.07315295935 -0.2588118911 1.133051634 -0.2207155377 0.005704542622 0.9729815722
-0.08265469968 -0.2680533826 1.126294017 -0.2725908458 -0.04945022985 0.954764545
-0.09427098185 -0.2661546171 1.130819321 -0.2777562141 -0.1519386768 0.9481760859
-0.04393917322 -0.2581953704 1.135993361 0.0183522366 -0.04353512079 0.9973213673
-0.04136078805 -0.2632484734 1.135631084 0.01751155779 -0.0337536931 0.9929940104
-0.02949033491 -0.2596764266 1.132552743 0.09820942581 -0.174323976 0.9696034193
-0.04400968552 -0.2710011899 1.136301756 -0.003431707853 0.009557377547 0.9978359938
-0.05282982811 -0.2582112551 1.137695193 -0.02677588724 -0.002836129395 0.9992114305
-0.04994041473 -0.2646742761 1.141516805 -0.02369138971 0.003894125344 0.9982125163
-0.03909648955 -0.2704265714 1.138344049 0.0333773531 -0.06989885867 0.9956955314
-0.04500260949 -0.2676061988 1.139855027 0.001542816521 -0.02653733268 0.9972288013
-0.07332389057 -0.2644077539 1.134060502 -0.2264903486 -0.02518423088 0.9731535316
-0.06781996787 -0.2594712377 1.134293199 -0.1977519095 0.03022675775 0.9792358875
-0.07951584458 -0.2702075541 1.129256248 -0.2548914254 -0.02565282024 0.9648647904
-0.08449593186 -0.2738821805 1.126466036 -0.2818559706 -0.02546292916 0.9579131603
-0.07338261604 -0.2725906968 1.131429791 -0.2180299014 -0.01809259504 0.9734732509
-0.06545809656 -0.2699722946 1.134935498 -0.1725523323 -0.01284105889 0.9845601916
-0.06297522783 -0.258255899 1.139272451 -0.1179230884 0.03441929072 0.9902126193
-0.04150243849 -0.2607117295 1.14075017 0.02103916928 -0.06446036696 0.9932963848
-0.0362732932 -0.2609655261 1.139347553 0.04737907276 -0.09759093076 0.9909434915
-0.03945450112 -0.2534477413 1.142365694 0.04613087699 -0.1218966693 0.9817418456
-0.04882729053 -0.2600467801 1.142806053 -0.01523608435 -0.0199205149 0.9961453676
-0.0364235118 -0.2661958635 1.138297081 0.04283210263 -0.08230795711 0.9952437282
-0.0931892246 -0.09740883857 1.035198569 -0.02665206231 -0.3839170337 0.9177672863
-0.09717901796 -0.1022068411 1.034819484 -0.06790032983 -0.347199142 0.9340710044
-0.1030298769 -0.1024929285 1.035115957 -0.03654900193 -0.3025394082 0.9501538873
-0.103455022 -0.0976344347 1.035293221 -0.05479570851 -0.2955161929 0.9474270344
-0.1113159359 -0.09394186735 1.034787416 -0.03559213504 -0.2014312893 0.9748576283
-0.08931668103 -0.09242394567 1.040524602 0.06591080129 -0.3770434558 0.921821475
-0.09697879106 -0.08795512468 1.045841098 -0.05088927597 -0.3864010274 0.9201123714
-0.1069036648 -0.0907233879 1.035687327 -0.04839697108 -0.257276684 0.9575898051
-0.09680768102 -0.09415376186 1.037648439 -0.0780923292 -0.3771307766 0.9204543233
-0.1033216789 -0.08865188062 1.040198922 -0.04493542761 -0.3043394089 0.9435251951
-0.1040748954 -0.08653594553 1.045511246 -0.01582755335 -0.301710099 0.9525037408
-0.09739213437 -0.09239179641 1.042801976 -0.05192989111 -0.3605171442 0.9281609058
-0.1001586244 -0.09696309268 1.040940166 -0.001401539892 -0.2818522155 0.9433839321
-0.1163912937 -0.1210579425 1.040928125 0.06880885363 0.07891986519 0.9791987538
-0.1069802865 -0.1128179058 1.03716433 0.1271562278 -0.0500933975 0.9754881263
-0.1099039093 -0.1176823378 1.037525177 0.1349576414 0.017358087 0.9799739718
-0.1186616495 -0.1253632158 1.041023135 0.08080475032 0.1375682503 0.9834455252
-0.1065969169 -0.1003010869 1.041284084 -0.007510503288 -0.2000281364 0.9577194452
-0.1134300232 -0.1138953194 1.041346788 0.03575600684 -0.01595246419 0.9714218974
-0.098232463 -0.1169321537 1.029798627 0.1693428308 -0.04098478705 0.9829804301
-0.1117381826 -0.1118568704 1.033683538 0.1525939405 0.00934194494 0.983772397
-0.1067212 -0.1081956476 1.03319025 0.08422670513 -0.1419498175 0.978466332
-0.1084541231 -0.1165983453 1.032759666 0.1800705492 0.06175856665 0.9799958467
-0.09353054315 -0.1206896752 1.028240085 0.1861523539 -0.0274968911 0.9813249707
-0.09952681512 -0.1131265163 1.035347223 0.1727647185 -0.109085381 0.9685717821
-0.09398183227 -0.09686398506 1.041486502 -0.004592858721 -0.3466255069 0.9270911813
-0.09477306157 -0.1078147441 1.037374496 0.1154216602 -0.2204380482 0.9498613477
-0.1010925919 -0.1078858897 1.037300587 0.1149425507 -0.1471621394 0.9610856175
-0.0924347043 -0.1026089638 1.039343953 0.0587602891 -0.3029411435 0.9355948567
-0.018942656 -0.1236852631 1.029190063 -0.4933936596 -0.132066071 0.8205797672
-0.02040245384 -0.1188763753 1.02825737 -0.4640903175 -0.1899223775 0.8414542675
-0.02556789294 -0.1263265014 1.025904655 -0.4108196795 -0.007194463164 0.8694808483
-0.02791895904 -0.1215590984 1.024517894 -0.3697612584 -0.0532220006 0.8975217938
-0.03410643339 -0.1140922159 1.018949866 -0.1799729019 -0.1522834301 0.9679608941
-0.03792242333 -0.1372656375 1.023990154 -0.2756195366 0.2259496748 0.9186127782
-0.03628610447 -0.1318573952 1.023442745 -0.2843272686 0.1478255391 0.9245355129
-0.03361526877 -0.1244956329 1.022578001 -0.3015158176 0.04418483749 0.9316723943
-0.03637559339 -0.1203543171 1.021921158 -0.2327883989 -0.04509084672 0.9461508393
-0.04707222059 -0.1143271253 1.022361398 0.000329569506 -0.2094326019 0.9455656409
-0.05649068579 -0.1135480851 1.027659059 0.1322863698 -0.2559803128 0.9031054378
-0.03982867301 -0.1138559505 1.023117661 -0.1549969763 -0.1650157124 0.9388142824
-0.05190756917 -0.106717743 1.023541689 0.1872439086 -0.2751382291 0.9202941656
-0.0475574322 -0.1088816151 1.022978187 0.0794447884 -0.2427312434 0.9246460795
-0.0002869429882 -0.1164153665 1.03907156 -0.6245272756 -0.2526315451 0.7358931899
-0.01246978156 -0.1263881028 1.018723845 -0.4379089773 -0.1332882494 0.8826730847
-0.02318223938 -0.1237191781 1.019000292 -0.3016379476 -0.09617707133 0.945553124
-0.03051083907 -0.121279031 1.018558383 -0.2642647922 -0.07239033282 0.9589976072
-0.03229260817 -0.1309724748 1.018311262 -0.2719356716 0.07915112376 0.9522261024
-0.04943051562 -0.2615658641 1.13566184 -0.02003303543 -0.005735966377 0.9986034036
-0.06262288988 -0.2608225346 1.134446621 -0.1417182386 0.03652062267 0.9863864779
-0.05677993596 -0.2617648244 1.135362625 -0.07326638699 0.02142210491 0.9952167869
-0.04950369149 -0.2676574886 1.135507584 -0.03387064114 0.01810102724 0.9988244176
-0.06051077694 -0.2663826346 1.134962559 -0.1229290366 0.003741549328 0.990829885
-0.05779516697 -0.2714945674 1.134363413 -0.09565360099 0.01581735536 0.9941016436
-0.07047998905 -0.2783717513 1.141092181 -0.2051193565 -0.02495759726 0.9780907631
-0.06657166779 -0.2709505558 1.142084599 -0.1609548479 -0.005838103127 0.9848052859
-0.06216031313 -0.2674556375 1.143207073 -0.1192060485 -0.0007872392889 0.9896424413
-0.06062978879 -0.260121882 1.14405334 -0.08534849435 0.0278602019 0.9950245619
-0.06269802153 -0.2744729221 1.13569212 -0.1462596059 -0.005041282158 0.9878839254
-0.05444509909 -0.2745139897 1.137267709 -0.08046734333 0.00603837939 0.9928732514
-0.05452810973 -0.2610485554 1.143702388 -0.0449962765 0.02242565528 0.9986053109
-0.0530536361 -0.2689588666 1.140219331 -0.05796444789 0.01205058582 0.9955400825
-0.06378490478 -0.2774554491 1.140090227 -0.160987556 -0.0229673665 0.9831127524
-0.09954254329 -0.1223526672 1.030245304 0.1897345185 0.04323907569 0.9785881042
-0.1070615947 -0.1231951267 1.033800125 0.1797593236 0.1066318899 0.9748979211
-0.1038546115 -0.1277166009 1.032609344 0.1526958346 0.1134575233 0.9742308259
-0.1114357039 -0.1279221773 1.036081314 0.1450664848 0.1726114452 0.9709390402
-0.1124805063 -0.1231755018 1.03837955 0.1344500482 0.09832351655 0.9814240932
-0.09571606666 -0.1188504994 1.035224199 0.195887357 -0.07204408944 0.9626662135
-0.09092363715 -0.1159092486 1.034832478 0.1955994517 -0.1734930724 0.9564934373
-0.02311535925 -0.1147437766 1.027507544 -0.4165380895 -0.2029192001 0.8664118052
-0.02989492938 -0.1139890924 1.023436308 -0.3270772398 -0.1432019621 0.9264191389
-0.01325265039 -0.1164915934 1.033219814 -0.5489066839 -0.2849475443 0.7793251276
-0.01832703315 -0.1139878109 1.030658841 -0.4762744904 -0.2545617223 0.8229371905
-0.02166741155 -0.1091588959 1.028340697 -0.4478262961 -0.2672963142 0.837642014
-0.00989587605 -0.1191852987 1.035757542 -0.5559744239 -0.2210388184 0.789558351
-0.006807050668 -0.1120840982 1.038680196 -0.572676003 -0.3162175119 0.7554863095
-0.006224293727 -0.1189760417 1.039203525 -0.5498925447 -0.1796617955 0.8011188507
-0.1007773802 -0.1398314387 1.043212295 0.164305672 0.1479634494 0.946619153
-0.1006225571 -0.1444943696 1.04708755 0.1410473734 0.1241963208 0.9511204362
-0.09558598697 -0.1396638453 1.044464707 0.176915586 0.03115055896 0.938777566
-0.09248363972 -0.1327982098 1.039650559 0.2187058777 -0.009258375503 0.9272285104
-0.07947430015 -0.1252833158 1.036955476 0.2862282693 -0.2711555362 0.9003807306
-0.09230148047 -0.1265150458 1.03648603 0.2183792144 -0.02530496754 0.9328846335
-0.1003693417 -0.1314195395 1.037320614 0.1925650239 0.1568938792 0.9432471395
-0.08348722011 -0.1198935583 1.035396695 0.2386221737 -0.2361685187 0.9257058501
-0.09717658162 -0.1259324998 1.036442399 0.1888454109 0.04688751698 0.950204432
-0.1023119837 -0.1245614141 1.036042094 0.1951550245 0.09199498594 0.9680712819
-0.1060072929 -0.1286118031 1.037198782 0.1797138453 0.1765146255 0.9646736383
-0.1150022894 -0.1328490227 1.042908072 0.09642025828 0.1828509271 0.9769878983
-0.1098765507 -0.1363482326 1.042186379 0.1284972429 0.2223195136 0.9641283751
-0.111398831 -0.1316342354 1.039782286 0.1344824284 0.2127298266 0.9649357796
-0.1129146591 -0.1388127506 1.045446873 0.09306399524 0.2018668354 0.9739741087
-0.1100880951 -0.1441277564 1.047509193 0.09613491595 0.2210002691 0.9698364139
