# .PCD v0.7 - Point Cloud Data file format
VERSION 0.7
FIELDS x y z normal_x normal_y normal_z
SIZE 4 4 4 4 4 4
TYPE F F F F F F
COUNT 1 1 1 1 1 1
WIDTH 512
HEIGHT 1
VIEWPOINT 0 0 0 1 0 0 0
POINTS 512
DATA ascii
-0.08093782514 -0.1611483395 0.9588003159 0.2593755722 -0.1062295139 0.9578607678
-0.02018336579 -0.1144235656 0.9751369357 -0.2342764437 -0.154318437 0.9597737789
-0.02762905322 -0.1131451428 0.9787493348 -0.2147637457 -0.1581181139 0.9635401368
-0.02203907073 -0.1207769364 0.979793191 -0.2213513255 -0.1472154409 0.9638801217
0.03188983351 -0.2403468192 1.078395367 0.247598961 -0.1253129691 0.9590152502
0.0191289559 -0.2575025856 1.074243546 0.2177783549 -0.2225754708 0.9501458406
0.02930713072 -0.2433702499 1.072321892 0.2547747493 -0.1409665048 0.9558674693
0.03045048378 -0.2626084685 1.068448901 0.2086367011 -0.2099315077 0.9542745352
0.02668124624 -0.2481291145 1.07262218 0.2425424755 -0.1661960483 0.954271853
0.02458189614 -0.2592040896 1.071585655 0.2152051628 -0.213642925 0.9522157311
0.02486913279 -0.2539554536 1.072383046 0.2279615253 -0.1931446344 0.9528978467
0.02176778391 -0.2507458925 1.075287461 0.2268086225 -0.1905597597 0.9538156986
0.02476130053 -0.2495089471 1.079207897 0.190464437 -0.1812402904 0.9644625187
-0.08478793502 -0.1631554961 0.9604407549 0.3282770813 -0.07179466635 0.9354621172
-0.02054348774 -0.1370125413 0.9802737236 -0.2927527428 -0.1225498989 0.9481725693
-0.02498666756 -0.1392630041 0.9767858982 -0.3008396029 -0.09601406008 0.9484837055
0.06397662312 -0.2194481194 1.071947813 0.3056709468 -0.01474633813 0.9514103532
0.06750573218 -0.2111002207 1.071368933 0.2746395767 0.007001380436 0.9604821801
0.03323717043 -0.26605618 1.073975682 0.2230023891 -0.2053131461 0.9520148635
0.03321447968 -0.2665448189 1.068030715 0.2071834952 -0.2160217613 0.9536955357
0.02618295699 -0.2644950151 1.069640756 0.2050215751 -0.2251978666 0.9524309039
0.02811790444 -0.2686346769 1.067361236 0.200315088 -0.2268827558 0.953055501
0.020689914 -0.2623647153 1.071853638 0.2121851146 -0.2263139188 0.9505931139
0.0182579197 -0.2743729353 1.067101121 0.2070144117 -0.2347488552 0.9496923685
0.01664826274 -0.2702015638 1.069319606 0.2113983631 -0.2329010814 0.9491776824
0.007845180109 -0.2677460909 1.075440526 0.2185645103 -0.2265677154 0.9491348863
0.01009201724 -0.2724303305 1.071092844 0.2153418213 -0.233546108 0.9481586218
0.01241761353 -0.2676447034 1.072207808 0.2165461779 -0.2309381813 0.9485234618
0.01379742008 -0.2608447671 1.07517767 0.2191271484 -0.2253493965 0.9493053555
-0.08584006131 -0.2390333414 1.006845593 -0.1393525153 0.3058458865 0.9409835339
-0.08002429456 -0.227657333 1.003931522 -0.1838624775 0.3070825934 0.9331857562
-0.08163076639 -0.232336387 1.004446149 -0.1641898304 0.3092831373 0.9358432889
-0.09094852209 -0.2463434786 1.009204507 -0.1113589481 0.3008005619 0.9471536279
-0.09114985168 -0.1690267771 0.9651304483 0.4725782573 0.1059966683 0.862760067
-0.129065454 -0.2201650143 0.9971895814 0.1502835155 0.3338405788 0.9303668141
-0.1271269619 -0.224842608 0.9988373518 0.137066111 0.3545610905 0.9238824844
-0.1181390509 -0.2299086601 0.9973329306 0.0991063267 0.399703294 0.9102633595
-0.1233147085 -0.2272040397 0.9993557334 0.1192162409 0.3710101545 0.9191673994
-0.1159387529 -0.2315099537 1.00120008 0.08307108283 0.3976636529 0.9122505188
-0.1130572855 -0.2275477797 1.000272751 0.04174087197 0.3772384524 0.9228155017
-0.1288553923 -0.1982937157 0.9935842156 0.1675574481 0.1592065692 0.9725653529
-0.1273634285 -0.2026318312 0.9942014217 0.1645656824 0.2051426321 0.9640259147
0.06955523789 -0.2000753433 1.067480087 0.2748302221 0.05897680297 0.958560288
0.06407959759 -0.1783861369 1.064797401 0.2525625527 0.07788038999 0.9643872976
0.06592430919 -0.1837755293 1.065211058 0.2593914866 0.0778440237 0.9625360966
0.06941793859 -0.1940017939 1.06692028 0.2716495693 0.07777874172 0.9592131376
0.06785276532 -0.1877541244 1.067858577 0.2657516897 0.07781015337 0.9608119726
0.06143526733 -0.2007719129 1.074342132 0.2629352808 0.04441299662 0.9634725451
0.06850996614 -0.1960293055 1.07095015 0.2705769539 0.0682753101 0.9600371718
0.06723526865 -0.2016771436 1.072075486 0.2558022141 0.03870960698 0.965661943
-0.06763069332 -0.1616342664 0.9630168676 0.03068827838 -0.1936784089 0.9797697067
-0.06654556096 -0.1585775763 0.9588409662 0.02013218403 -0.165897578 0.9786684513
-0.07186993957 -0.1605536789 0.9585869312 0.1062242985 -0.1467165351 0.9768733978
-0.08896699548 -0.1620206982 0.9632655978 0.4135199189 0.005767863244 0.9026948214
-0.06052151322 -0.1571509093 0.9590269923 -0.0795366019 -0.201946795 0.9758598208
-0.09269257635 -0.1439568251 0.9706766009 0.3758790195 -0.1465786546 0.9129190445
-0.02790618129 -0.1180121973 0.9803242683 -0.2114770114 -0.1517782211 0.965343833
-0.0188480299 -0.118898645 0.9760549068 -0.2318725735 -0.1482324749 0.9613357186
-0.01884415001 -0.1252983361 0.9769223928 -0.2513542771 -0.1357837021 0.9579353333
-0.02102563716 -0.131854102 0.9808339477 -0.2580574751 -0.127447471 0.9572992921
0.05484076589 -0.2376246303 1.073804975 0.320620209 -0.1257383674 0.9384976625
0.05855543539 -0.2342143655 1.071687102 0.3164364994 -0.1099425331 0.9419515133
0.04291418567 -0.2285581827 1.079426289 0.3019557893 -0.08485160023 0.9488857985
0.04476015642 -0.237154901 1.07850945 0.3056401312 -0.1160387695 0.9441956282
0.04935302958 -0.2386995256 1.077576637 0.3205496073 -0.1327505708 0.9372538924
0.03840641677 -0.2317516506 1.079475522 0.291110009 -0.08725893497 0.952522099
0.03539851308 -0.2553227842 1.076590419 0.247355178 -0.1899336129 0.9500821829
0.02258298174 -0.2681760192 1.077239156 0.2008973658 -0.2294987589 0.9520009756
0.01390661299 -0.2630781829 1.079913855 0.1986529976 -0.2169808447 0.9553639293
0.01886312291 -0.2648620903 1.078671455 0.1970528215 -0.2218306214 0.9545570016
0.01742897555 -0.2599807978 1.080000043 0.18932648 -0.2104110122 0.9587054849
0.02123974077 -0.2531225085 1.079638124 0.19311212 -0.1902771145 0.9621675611
0.007719012909 -0.2661303282 1.079794168 0.2177649736 -0.2218726426 0.9503510594
0.02711447515 -0.2637996972 1.07712245 0.210864231 -0.2177496254 0.9522755742
0.02492546476 -0.2599110603 1.078778028 0.1864482313 -0.2118086517 0.9588547349
0.03032335453 -0.2558961213 1.078071117 0.215518117 -0.1981814951 0.9554011226
0.03387076035 -0.2610289752 1.074554563 0.205684036 -0.2048114389 0.9564231634
0.02745465189 -0.2682096958 1.075806022 0.2185917199 -0.2265252322 0.9487632513
-0.0002574186947 -0.2750998437 1.07761848 0.2196293175 -0.224262014 0.9494574666
0.003693051636 -0.2701565325 1.079213262 0.2196293175 -0.224262014 0.9494574666
0.01403562166 -0.2774525881 1.070503354 0.2121395618 -0.2404802293 0.9471884966
0.01604295522 -0.2740053535 1.075325489 0.2131583244 -0.2382742018 0.9474971294
0.01435264107 -0.2706709504 1.078006148 0.216182977 -0.2317246646 0.9484134316
0.02068835869 -0.2744959891 1.072392106 0.2110588849 -0.2393341959 0.9477013946
0.02581984177 -0.271548152 1.071154356 0.206012696 -0.2339828014 0.9500963688
-0.126793012 -0.2078225762 0.994599998 0.1539254636 0.2478827685 0.955948174
-0.1334205419 -0.202384457 0.9894892573 0.1765055954 0.1724612266 0.9685798287
-0.1373797804 -0.1986242682 0.990854919 0.1977646649 0.1338212788 0.9687562585
-0.07748088241 -0.1643307656 0.9609444141 0.2247910649 -0.06725735962 0.9522697926
-0.07312729955 -0.1638923585 0.9629534483 0.1468658 -0.107579045 0.9577623606
-0.08547579497 -0.1678089052 0.9631385207 0.3866262138 0.04458167404 0.9037610888
-0.09978614002 -0.2214501351 1.000603914 -0.08634012938 0.3409165144 0.9278816581
-0.1050782129 -0.2239385843 0.9996596575 -0.02830620855 0.3601194322 0.9292232394
-0.1027393565 -0.2147834748 0.9949698448 -0.02458484471 0.3085300922 0.9457358122
-0.1044218242 -0.2197179198 0.9972965121 -0.0212410558 0.336805135 0.9373640418
-0.09701318294 -0.2135813683 0.9969365597 -0.09281344712 0.2957272232 0.9411191344
-0.09683261812 -0.21740444 0.9994464517 -0.1090420783 0.315982908 0.9327747226
-0.1200484708 -0.2085343003 0.9943196774 0.1182396859 0.2721014619 0.9530926943
-0.109468095 -0.2214596719 0.9978973866 0.02027365938 0.3564112782 0.9327202439
-0.1106414124 -0.2170352489 0.9955611825 0.04256523773 0.3365684748 0.9396575093
-0.1141811311 -0.2194656283 0.9971832037 0.06001683697 0.35306409 0.9322685599
-0.1191259772 -0.220656082 0.9968426228 0.09329538792 0.3487731218 0.9314916134
-0.0910930112 -0.2157814354 1.00101459 -0.1731033623 0.300375253 0.9297503233
-0.0798689723 -0.221237883 1.003332496 -0.2042690516 0.2932351232 0.9337828755
-0.107647866 -0.2307524085 1.002120376 0.000407068379 0.3898248374 0.9200744629
-0.09335665405 -0.2426508665 1.006393671 -0.103003189 0.3079982698 0.9452975988
-0.1061576232 -0.2357873023 1.003946781 -0.002487338614 0.3856484294 0.9202691913
-0.09878351539 -0.2416414022 1.007165909 -0.05175171793 0.3447098732 0.9329446554
-0.09591311961 -0.2316524088 0.9982999563 -0.1123047918 0.3113801181 0.9416285157
-0.1102974936 -0.2324013114 0.9976833463 0.03806269169 0.392773062 0.9133865237
-0.1411560774 -0.1920580715 0.9896510839 0.2219032049 0.07046241313 0.9721472859
-0.1334512979 -0.2105001062 0.9947605729 0.1487708539 0.2420363277 0.956799984
-0.1394194663 -0.1974962652 0.9955663681 0.1585131139 0.1190918088 0.9774205089
-0.1364667416 -0.202344656 0.9942795038 0.1629434973 0.166351229 0.9699630737
-0.1340509951 -0.1911931336 0.994900763 0.1990494579 0.09891145676 0.972802937
-0.134544611 -0.197353676 0.9942729473 0.1865448058 0.149676159 0.9707095027
-0.1328509301 -0.1852804571 0.9946466684 0.2210447639 0.06661213189 0.9694960713
-0.1363406032 -0.1783697605 0.9953919649 0.2560550272 0.01986090653 0.9659078121
-0.1411446333 -0.1863641292 0.9944426417 0.2322858423 0.05042371899 0.971195519
-0.1410353482 -0.1922602504 0.9949129224 0.1788944751 0.07715077698 0.9802353978
-0.0634464398 -0.1268792152 0.9669632316 -0.07667386532 -0.2809912562 0.9551298022
-0.07221954316 -0.118845813 0.969222486 -0.0009230916621 -0.2845758498 0.9553123713
-0.06621415168 -0.1197349355 0.9703140259 -0.06032427773 -0.2898642421 0.9515004158
-0.129774943 -0.175140366 0.9966505766 0.2812808156 0.06124347821 0.9531341791
-0.08974234015 -0.1903102994 0.9801265597 0.06106877327 0.2108733207 0.9037421942
0.06557890028 -0.2155235708 1.066958427 0.2991500795 -0.01004814729 0.9509962797
0.06571494043 -0.2077339441 1.066637278 0.2807183564 0.0268597696 0.9568464756
0.06107908487 -0.2222635746 1.066380501 0.2941105664 -0.03926474974 0.9529973865
0.06204462424 -0.2286931574 1.066856027 0.3144863248 -0.07039720565 0.9464313388
0.06057097763 -0.2147171795 1.066598177 0.2738196552 -0.005290629342 0.9590674043
0.05196786672 -0.182481125 1.067480683 0.2537474036 0.1015209556 0.9619281292
0.05347224697 -0.1741072685 1.069914103 0.2537474036 0.1015209556 0.9619281292
0.05593719333 -0.1699661314 1.067120552 0.2532446086 0.09941580147 0.9622550011
0.06088647991 -0.1701270342 1.063873768 0.249504298 0.08375615627 0.9646865129
0.06104350463 -0.1810612828 1.067688942 0.2495404035 0.0839073509 0.9646630883
0.05734626576 -0.1766538918 1.068563461 0.2512634397 0.0911212787 0.9635429382
-0.07380989194 -0.1558750868 0.9598974586 0.1273017526 -0.1581956744 0.9710281491
-0.08381155878 -0.16069296 0.9675021768 0.3389586508 -0.01589665189 0.9094054103
-0.08337061107 -0.1704897583 0.9665848017 0.3983599842 0.1266703904 0.8873233795
-0.08402442932 -0.1546088457 0.9680570364 0.3008778989 -0.1051735282 0.9233919382
-0.07636223733 -0.1588158309 0.9658448696 0.1804388762 -0.1344665587 0.9473677874
-0.08092164993 -0.1658982933 0.9663686156 0.318655014 0.02768727578 0.9095626473
-0.06307775527 -0.1535524577 0.9643800259 -0.03015931509 -0.23958233 0.9673524499
-0.07170198858 -0.1542880088 0.9649585485 0.08819293231 -0.2209344208 0.9608920813
-0.06753072143 -0.1563652754 0.9637364745 0.0295719374 -0.2294043303 0.9693189859
-0.07777716219 -0.152334094 0.9666821361 0.1733030826 -0.2022032738 0.9506973624
-0.06599690765 -0.1465895176 0.963879168 -0.03717418388 -0.2403237969 0.968876183
-0.0800480321 -0.1457691938 0.9666420221 0.1736991554 -0.2217353731 0.9496933222
-0.07345224172 -0.1496686786 0.9624463916 0.0837329179 -0.2062708884 0.9686248302
-0.07795441896 -0.1519641131 0.9615656137 0.1684868336 -0.1719557345 0.9621824026
-0.09752506763 -0.1388626695 0.969103992 0.3824309707 -0.1265623122 0.9136907458
-0.09104171395 -0.1459520459 0.9641817212 0.3502451479 -0.1210835576 0.9268390536
-0.09239787608 -0.1407352239 0.9655916691 0.333864361 -0.1458415389 0.9296064377
-0.08792175353 -0.1545943171 0.96211797 0.3647371829 -0.07289595157 0.9252719283
-0.08429791033 -0.1578066349 0.9594533443 0.320851177 -0.07675819844 0.9432752728
-0.06125251576 -0.139390707 0.967566669 -0.102232419 -0.2252773345 0.9673185945
-0.05636529252 -0.1410492063 0.9687384367 -0.1454672366 -0.2209502012 0.962272346
-0.06104103103 -0.1332032531 0.9700000286 -0.1132283732 -0.2192657888 0.9677180052
-0.08486383408 -0.1372806132 0.9661746025 0.1939782798 -0.2139017135 0.9558232427
-0.08329305053 -0.1505139619 0.9617003798 0.2544311583 -0.1353571862 0.9513748884
-0.08381307125 -0.1415269971 0.9647764564 0.2041562796 -0.1930223852 0.9553533196
-0.09099473804 -0.1300394386 0.9669151306 0.218400076 -0.1927504241 0.9559437037
-0.09227122366 -0.1344249696 0.9667331576 0.2851780355 -0.1755856574 0.9406903386
-0.03340398148 -0.1194991246 0.9774857759 -0.2210130244 -0.1548070759 0.962684691
-0.0348729305 -0.1137073636 0.9792883396 -0.2083159387 -0.1608955711 0.9645296931
-0.03707432747 -0.1416542381 0.9752221704 -0.2911787033 -0.1659455895 0.9413815141
-0.04800351709 -0.1498958319 0.9652239084 -0.2056678981 -0.1716372371 0.9622635245
-0.04142488912 -0.1447321475 0.9685416818 -0.2630348504 -0.1466506869 0.951615572
-0.05785027891 -0.1547567397 0.9662540555 -0.1072882637 -0.1950288564 0.964710474
-0.06348691881 -0.1588427126 0.9650011659 -0.02901607379 -0.1962853074 0.9723522067
-0.05230231583 -0.148347795 0.9693772793 -0.1799898148 -0.2029085755 0.9543926716
-0.04310549796 -0.1392924339 0.9680950642 -0.2410716563 -0.1806979328 0.949655652
-0.04624251276 -0.1330749094 0.9669895768 -0.204359442 -0.2276856005 0.948877871
-0.03791593388 -0.1409258842 0.970541358 -0.2907824516 -0.1406384557 0.9444562793
-0.04663617536 -0.1441104859 0.9660074711 -0.2148048431 -0.1821352243 0.9576380253
-0.02750893123 -0.1163551807 0.9743420482 -0.2328815162 -0.1612958908 0.9584801793
-0.05265597627 -0.1388608813 0.9657685757 -0.1501522958 -0.2428633869 0.9569882154
-0.03608581796 -0.1197645962 0.9709710479 -0.2061140239 -0.2078347802 0.9544833899
-0.02667750604 -0.1094024107 0.9748808742 -0.2223493755 -0.1785851568 0.9583647847
-0.04395841435 -0.1250613332 0.9679291844 -0.1863945127 -0.2424259037 0.951102674
-0.0559868291 -0.1348608434 0.9658908248 -0.1142257899 -0.2548004389 0.959007442
-0.06265241653 -0.1345063597 0.9649280906 -0.05539578572 -0.215525791 0.9738591909
-0.05446758494 -0.1291877627 0.9662041068 -0.135564357 -0.2609769106 0.9545026422
-0.06369344145 -0.1421466321 0.963602066 -0.05610281974 -0.2206873596 0.9734456539
-0.05852467194 -0.1517015696 0.9608027339 -0.1017804965 -0.2301054746 0.9674253464
-0.05896410346 -0.141520381 0.9637352824 -0.09166345 -0.2355619818 0.9663723707
-0.06064918265 -0.146031335 0.9621488452 -0.07940082997 -0.2218741924 0.9710936546
-0.0588169843 -0.1475319862 0.9662625194 -0.100991495 -0.2316743731 0.9635187387
-0.05462355912 -0.1484488696 0.9639374614 -0.1319486499 -0.2135382146 0.9672480226
0.04758026078 -0.2440555543 1.076696277 0.315649271 -0.1433201432 0.9379085302
0.04206873104 -0.2422069311 1.077602148 0.2967864871 -0.1249099746 0.9462017417
0.03606714681 -0.2433577478 1.078719854 0.2580636442 -0.1369364262 0.9541574121
0.0306647867 -0.2465721518 1.079321027 0.2191070318 -0.1596886218 0.9605508447
0.03921144083 -0.2376978248 1.079074383 0.2878683805 -0.102950342 0.9517720342
0.04003752023 -0.2475962341 1.077059507 0.2779004276 -0.1542373002 0.9468015432
0.03563473374 -0.2496878356 1.07765317 0.2494883835 -0.1685234308 0.9519850016
0.009862438776 -0.2782253623 1.067973137 0.213017419 -0.2385793328 0.9474544525
0.003595330054 -0.2737813294 1.075667024 0.2196293175 -0.224262014 0.9494574666
0.008627369069 -0.2742625773 1.077112913 0.2159768194 -0.2321710885 0.948350966
0.009994383901 -0.2775292993 1.073360801 0.2130152732 -0.2385839671 0.9474537969
0.003082515206 -0.2798796296 1.075264215 0.2155800164 -0.2330303192 0.9482307434
-0.08308082819 -0.2305544466 0.9994388819 -0.1454859376 0.3253056109 0.9343346953
-0.07952191681 -0.2357309312 1.001420736 -0.1417585313 0.3241586089 0.9353191853
-0.08498270065 -0.2088295519 0.9955888391 -0.2236403972 0.2658154368 0.9373658299
-0.08521921933 -0.1333765239 0.9704294801 0.2026309222 -0.211685136 0.94807899
-0.09536991268 -0.1342819035 0.9713109732 0.3349448144 -0.1395716071 0.9233942628
-0.09005613625 -0.1332208961 0.9708874226 0.2616211474 -0.1771391481 0.9370423555
-0.08840566874 -0.1402327865 0.9702820182 0.2896046042 -0.1910972893 0.9322030544
-0.08120884746 -0.1231535077 0.9679672718 0.1008080319 -0.2480383515 0.9609652162
-0.0856724754 -0.1279001236 0.9705509543 0.1680208296 -0.2086737901 0.9549620152
-0.1365745068 -0.1805406362 0.9907455444 0.2610129714 0.01793397963 0.9645205736
-0.1334783286 -0.1757082045 0.9916970134 0.2779252529 -0.002186557977 0.9604282975
-0.1302617937 -0.1720116884 0.990927577 0.3052196801 0.02718506195 0.9503914118
-0.1251045465 -0.1678274125 0.9892357588 0.3211976886 0.1053959951 0.9389386773
0.03120543621 -0.2526856661 1.069919229 0.232825622 -0.1724719703 0.9551890492
0.03468355536 -0.2420647442 1.070577979 0.2595249712 -0.1332044005 0.9552312493
0.03744147718 -0.2579948306 1.066669345 0.221850127 -0.1880686432 0.9539634585
0.04418800026 -0.2482854575 1.065965295 0.2473184168 -0.150367707 0.953463316
0.03969201446 -0.2421468049 1.068728805 0.2608157098 -0.130961746 0.954470396
0.03171540424 -0.2577355206 1.068813682 0.2207743824 -0.1900481433 0.9548422098
0.03147701174 -0.248211354 1.070633888 0.2437184751 -0.156533137 0.9553871155
0.04496910423 -0.2401819974 1.067153573 0.2671324909 -0.1213545799 0.9537783265
0.03747228161 -0.2471773177 1.068626404 0.2479996085 -0.1498499215 0.9545368552
0.04133147746 -0.2362403572 1.069203019 0.2755759656 -0.1092735305 0.9545384049
0.03657691926 -0.2532883286 1.067842364 0.2329663038 -0.1718842536 0.9543455243
0.05394596979 -0.2352991551 1.06900847 0.3070971966 -0.1038223207 0.9456694722
0.04981682077 -0.2423335165 1.071722746 0.3075837791 -0.1255410612 0.9426664114
0.04668386653 -0.2476828545 1.073006988 0.3039886355 -0.1398922205 0.9418144822
0.04475747421 -0.2524126768 1.069840789 0.2631964684 -0.1490062773 0.9516445994
0.03716525808 -0.2631891072 1.07011342 0.2319923788 -0.1926739365 0.9523865581
0.0512345396 -0.2387889028 1.065134764 0.2724797726 -0.1131946892 0.9528995156
0.04121112078 -0.257778585 1.070303559 0.2499209344 -0.1692954749 0.9518496394
0.04768772796 -0.2444809675 1.065926194 0.2604762316 -0.1333805621 0.9529658556
0.05667669699 -0.2302649468 1.064920545 0.2921950817 -0.0784502998 0.9530833364
0.05949660391 -0.208561793 1.067121744 0.2641119361 0.02161409892 0.9612909555
0.0549871549 -0.1926485151 1.067308426 0.2526963949 0.09588027745 0.96267277
0.06146002188 -0.1995041966 1.067842126 0.2543593645 0.06102868542 0.9636605382
0.05554354191 -0.2125678807 1.066384912 0.2706418037 0.006126581691 0.9591649175
0.05633357912 -0.1971735358 1.06726408 0.2558963597 0.07472191751 0.9623022676
0.04976957664 -0.1875264645 1.071420193 0.2537474036 0.1015209556 0.9619281292
0.061288286 -0.192726776 1.067000031 0.2614057958 0.0885309279 0.9610228539
-0.08642467111 -0.1659383476 0.9677075148 0.4262444675 0.09467423707 0.884665072
-0.09021132439 -0.1547420472 0.9696605802 0.4171471894 -0.03731802106 0.890024066
-0.08827260882 -0.15958938 0.9687293172 0.41588673 0.01727300882 0.8896734118
-0.08158426732 -0.1277715713 0.9666095972 0.110194087 -0.2024739981 0.9718446136
-0.06931994855 -0.1279072016 0.9659615159 -0.007341313642 -0.2450934052 0.9672831893
-0.07153172046 -0.1233773232 0.9668364525 0.002515988657 -0.272303611 0.9596509933
-0.05055104941 -0.1093487069 0.9778977036 -0.1032628566 -0.2894968092 0.9510419965
-0.03949288651 -0.1085540652 0.9802457094 -0.1755574346 -0.1942489445 0.9628975987
-0.0441900976 -0.1085430756 0.97936517 -0.1455433369 -0.2339714915 0.9578740597
-0.03296499327 -0.1144395098 0.9724222422 -0.2080235034 -0.2036508918 0.9557284117
-0.04496067762 -0.1162142679 0.9749090075 -0.1551642865 -0.2383918017 0.9586251974
-0.03960742801 -0.1164374873 0.9729921818 -0.1818523407 -0.2239064127 0.9564577937
-0.0413752608 -0.1205617487 0.9702879786 -0.185852766 -0.2329005301 0.9535567164
-0.04118787125 -0.1115953103 0.9764671922 -0.1713882834 -0.2188189775 0.9600637555
-0.03185170144 -0.1092846394 0.975661695 -0.2044077069 -0.192862913 0.9591161013
-0.090961501 -0.1999607682 0.993008852 -0.1965314597 0.2157057375 0.955757618
-0.09429682791 -0.1951185912 0.990827322 -0.06770649552 0.2476228178 0.9459436536
-0.09598284215 -0.1906694323 0.9885194302 0.09019596875 0.2988402247 0.9248393774
-0.09058425575 -0.1956760585 0.9879024625 -0.1199016944 0.2190553993 0.9455488324
-0.0863519311 -0.1757745743 0.9702306986 0.3632439673 0.1838482916 0.8846436739
-0.09447978437 -0.1876715422 0.9850941896 0.1539315432 0.2863454223 0.9153087139
-0.09283142537 -0.1823954284 0.9800049067 0.2745434344 0.2693533599 0.8997020721
-0.09047913551 -0.1916235685 0.9848851562 -0.01077190042 0.2228965759 0.9323704243
-0.08795005828 -0.1856562048 0.9786186218 0.1161998734 0.1940057278 0.9154011607
-0.08741183579 -0.1813435555 0.9750801921 0.2262793928 0.1918899119 0.9018142819
-0.03543905541 -0.1312197149 0.973526299 -0.2770748436 -0.110761188 0.9531636834
-0.04285525531 -0.1309429705 0.9691762328 -0.2270157039 -0.1875341088 0.95000875
-0.03107314371 -0.1410778016 0.9732884169 -0.3071518838 -0.09315255284 0.9468218088
-0.03048952483 -0.1380173117 0.9773437977 -0.2859508693 -0.1378782243 0.9474228621
-0.03247367218 -0.1239891946 0.9745907784 -0.2494408786 -0.1403077394 0.9574525356
-0.02970202826 -0.1281053424 0.9734755754 -0.2795819938 -0.1077686027 0.9529946446
-0.02403631248 -0.124777697 0.9750107527 -0.2655044198 -0.1290135682 0.9546137452
-0.02595559321 -0.131008774 0.9758096933 -0.2816298902 -0.1180995926 0.951731503
0.02607463486 -0.2548790872 1.079427838 0.1862872541 -0.1982668638 0.9617760181
0.006166781764 -0.2804899216 1.070959687 0.2130653411 -0.2384755611 0.9474689364
-0.003854178358 -0.2806843817 1.078611851 0.2196293175 -0.224262014 0.9494574666
-0.08474244922 -0.2428582609 1.003629088 -0.1301759034 0.308324188 0.9422646761
-0.09174382687 -0.234234944 0.9993287921 -0.1295978874 0.3075158298 0.9426170588
-0.08672121167 -0.2383238524 1.000671268 -0.1346624643 0.3145988584 0.9395295978
-0.08136179298 -0.2397782952 1.000558019 -0.1416432559 0.3230239749 0.9356893897
-0.1007725447 -0.2302410603 0.9972782731 -0.06618143618 0.3426165879 0.9301789403
-0.1060282439 -0.2297319323 0.9967203736 -0.01500234939 0.3749550581 0.9185062051
-0.08714614064 -0.2261058986 0.9972926974 -0.1514215767 0.327467978 0.9326402545
-0.0804201737 -0.1322731823 0.9702323675 0.1270625591 -0.2192920595 0.9584426284
-0.08171068877 -0.137089029 0.97006464 0.1752644181 -0.2080619484 0.9492037892
-0.07598220557 -0.1287789792 0.970199883 0.04054167494 -0.2270225286 0.9712053537
-0.06557904184 -0.12926808 0.9702735543 -0.07627106458 -0.2265447974 0.9703641534
-0.1212568209 -0.1631134152 0.9896575809 0.4072219133 0.1026063487 0.9002311826
-0.1092396155 -0.158339709 0.9820147753 0.5444472432 0.1115139946 0.8299904466
-0.1259498298 -0.1655058414 0.9933769107 0.3448298872 0.09589252621 0.9313333035
-0.1081354693 -0.1635593027 0.9829699397 0.5176841617 0.1580673009 0.8402355909
-0.1142838821 -0.1633835584 0.9863716364 0.4634094834 0.1290057302 0.8693871498
-0.1157398671 -0.1589659601 0.9830583334 0.5008587241 0.1226268932 0.8551351428
-0.1132257059 -0.1693529934 0.9877200127 0.4305355847 0.1866663843 0.8762962818
-0.1193965822 -0.168477118 0.9908373356 0.3814842105 0.1508022845 0.9051200747
-0.1094975919 -0.1679068208 0.9851366878 0.4745801687 0.1904128492 0.8557141423
-0.1096563116 -0.173400268 0.9871714115 0.433078438 0.2395330071 0.8653030396
-0.129157573 -0.1770199388 0.9876198173 0.2940066159 0.01014133729 0.9546516538
-0.1257538795 -0.183888346 0.9877146482 0.2317545861 0.002980866702 0.9718318582
-0.1372543126 -0.1847189367 0.9887290001 0.2418146133 0.0257309489 0.9691237211
-0.1316176355 -0.1868583113 0.9883360267 0.208196342 0.01244657673 0.9779163599
-0.1310693771 -0.1926255524 0.9886199236 0.2003301233 0.04699370638 0.9780183434
-0.09303979576 -0.2008966655 0.9872679114 -0.1456928402 0.2358243614 0.9403202534
-0.09422063082 -0.192048803 0.9805547595 0.0774481371 0.2218804955 0.9068877101
0.05133789033 -0.2306817323 1.067244887 0.2910988331 -0.08410219848 0.9527884722
0.03635913134 -0.2361843288 1.071513653 0.2736230791 -0.1112581491 0.9549229741
0.04560588673 -0.2298207879 1.070489764 0.2902167439 -0.08327569813 0.9529381394
0.03639052063 -0.2323015034 1.075355053 0.2984914482 -0.1064761505 0.9479513168
0.04178791493 -0.2280422598 1.074299335 0.3017985523 -0.08380512148 0.949300468
0.0308363121 -0.2382858992 1.073200345 0.2685401142 -0.1224092171 0.9551954269
0.04282671958 -0.2209732085 1.078948379 0.29428491 -0.05144255236 0.9538286924
0.04707428068 -0.2078681439 1.078719974 0.2772890627 0.008291422389 0.9599928856
0.04884761944 -0.1989233643 1.071522832 0.2687231898 0.05856337771 0.9601957202
0.04841367155 -0.2028075755 1.076667428 0.2709624469 0.03969039395 0.9609823823
0.0621855706 -0.2132258266 1.073717833 0.2888166904 0.01162711903 0.9572429061
0.05814731121 -0.2054405808 1.075156569 0.2744366527 0.02320630662 0.9612619877
0.05294866487 -0.2049666196 1.077750206 0.2705539465 0.0271541439 0.9622502923
0.06209936365 -0.20697622 1.073276162 0.27918908 0.01885619946 0.9599954486
0.04968370497 -0.1908967644 1.067512155 0.2537474036 0.1015209556 0.9619281292
0.05620599538 -0.1810792685 1.07085371 0.2513197064 0.09135683626 0.963506341
0.05779324844 -0.1860902309 1.070743322 0.2499301434 0.0855390802 0.964409709
0.05149315298 -0.1831630468 1.072349668 0.2532990873 0.0996439904 0.9622195959
0.06291414052 -0.1892152429 1.06973505 0.2527493834 0.07787939161 0.9643366337
0.04999766126 -0.1951097697 1.076325178 0.2593153119 0.06386554986 0.963077426
0.05464952067 -0.193182081 1.073953629 0.2550831139 0.0663793087 0.9642460942
-0.1109348387 -0.1537816525 0.9796699882 0.5256128311 0.06107053161 0.8446296453
-0.106005244 -0.1504228115 0.9772820473 0.5446309447 0.01648624055 0.8348247409
-0.1169668809 -0.1639873981 0.9814517498 0.4453887939 0.05740369856 0.8841193914
-0.1196351275 -0.1741992384 0.9851522446 0.3432175219 0.09827480465 0.9305832386
-0.1206893697 -0.1680446565 0.9848037958 0.4054190516 0.06666769832 0.9045339227
-0.101722531 -0.1507408619 0.9698258638 0.5100079775 0.007142380346 0.8562333584
-0.09280100465 -0.1539060026 0.965996623 0.4512670636 -0.03103158809 0.8908317685
-0.09481454641 -0.1494206786 0.9667667747 0.4417494237 -0.05915449187 0.8920627832
-0.1030031592 -0.1391082555 0.97310251 0.4273169339 -0.0821159929 0.8981486559
-0.1092017069 -0.14578861 0.973528564 0.5405037403 0.0196147617 0.8367403746
-0.1012311801 -0.1435407847 0.96951437 0.4614965618 -0.06636997312 0.8764235973
-0.1011797413 -0.158689484 0.9715656042 0.5508934259 0.06534969807 0.8314663768
-0.09711077809 -0.1636484265 0.9707717299 0.5451343656 0.07510310411 0.8345873356
-0.09372470528 -0.1628810465 0.9667100906 0.4881344438 0.056953758 0.8700169325
-0.09559865296 -0.1584982127 0.9673853517 0.4888727665 0.03156979382 0.8694964647
-0.1066996753 -0.1497030705 0.9719869494 0.5451940894 0.03501657024 0.8355817199
-0.03993278742 -0.1275835484 0.9736854434 -0.222530961 -0.1601092219 0.9585997462
-0.03693743423 -0.1364149302 0.9727992415 -0.3000086248 -0.1016108096 0.9475931525
-0.04199392721 -0.1374098659 0.9729403257 -0.269986093 -0.1649203598 0.9457662702
-0.04742647707 -0.1412486434 0.9713200927 -0.2438509762 -0.2297500968 0.940092206
-0.04639127478 -0.1331968457 0.9722040892 -0.2043292373 -0.2240756601 0.9512275457
-0.04351060465 -0.1218628511 0.974644959 -0.1729314923 -0.2048066258 0.9632279277
-0.03891322762 -0.1158706695 0.9777305126 -0.1930718571 -0.1785451025 0.9643918276
-0.08858907968 -0.2040600181 0.9970175624 -0.2112076283 0.2375864536 0.9467512965
-0.09283344448 -0.2049539834 0.9957050681 -0.1559078544 0.2478866428 0.9506363273
-0.1021125317 -0.2099963278 0.9937645197 -0.03277346119 0.2851130664 0.9536857009
-0.08901625872 -0.2102989852 0.9989625812 -0.1856735647 0.2698267698 0.937800169
-0.09638313949 -0.2087537795 0.9956339598 -0.1000502557 0.2719519138 0.9492192268
-0.1045535728 -0.161450386 0.9795421958 0.5173597932 0.1196552366 0.8443068266
-0.1027686596 -0.1680972576 0.9785662293 0.5063754916 0.2023041695 0.8291349411
-0.102601409 -0.1747546345 0.98357445 0.3972993195 0.2510981262 0.8654078245
-0.1054415032 -0.1693447679 0.9831376672 0.4609647393 0.2066738009 0.8523003459
-0.1006658748 -0.1797071695 0.9848670363 0.3328800201 0.2905940413 0.8814293146
-0.09960669279 -0.1658967733 0.9743198752 0.5383024812 0.1610401422 0.8252805471
-0.09709153324 -0.1697477251 0.9709609747 0.5397675037 0.2017075419 0.8165901899
-0.09687208384 -0.1830773056 0.98368752 0.2898527384 0.3091228008 0.8964598775
-0.09772363305 -0.1727291644 0.9773570895 0.4424619377 0.2256175727 0.8536031842
-0.09167035669 -0.1766897589 0.9750837684 0.3847844601 0.2376164198 0.8805404902
-0.09554351121 -0.1774452925 0.9787727594 0.3731397986 0.2574289739 0.8764311075
-0.09178580344 -0.1726287156 0.972420156 0.4447026253 0.2040831149 0.8641240597
-0.1137076318 -0.1744320244 0.9831380844 0.3619937003 0.1691749841 0.9143459797
-0.1086126119 -0.1731987894 0.979385972 0.4151776135 0.1817058176 0.884647429
-0.1029032916 -0.1721518189 0.9751083255 0.4708379507 0.1964559257 0.853273809
-0.1114422753 -0.1609799862 0.9790331721 0.4956481457 0.1029885635 0.8546254635
-0.1122399494 -0.1665720493 0.9808616638 0.4430483282 0.13292557 0.8776035905
-0.1070336476 -0.1656909138 0.9784298539 0.5047007203 0.1590987295 0.8418115973
-0.0961381495 -0.238425374 1.003428459 -0.09911494702 0.3183302283 0.9417185187
-0.1010111868 -0.2364957482 1.003490925 -0.06295055896 0.3499488533 0.9334527254
-0.08567626029 -0.2277300954 1.003905296 -0.160619244 0.3160333335 0.932379365
-0.08806225657 -0.2344106585 1.00472641 -0.1414485127 0.3062607348 0.9397877455
-0.09551395476 -0.2305320054 1.003169417 -0.1000716463 0.3457773924 0.9292251468
-0.09280353785 -0.2351711839 1.004273534 -0.1127084941 0.3222655952 0.937464118
-0.1016989574 -0.231058374 1.002193332 -0.06170948595 0.3622080982 0.9275373816
-0.09004680812 -0.2258283943 1.00198102 -0.14490439 0.3272494972 0.9293774962
-0.08492083848 -0.2219067961 1.001809597 -0.1804362535 0.3034271896 0.933406055
-0.0957647413 -0.2238558382 1.001331329 -0.09925521165 0.3389233649 0.9298607707
-0.1298836172 -0.1979499459 0.9889070988 0.1764873862 0.1554628611 0.9690933824
-0.1229124889 -0.1990851164 0.9929779768 0.1356675327 0.1718541533 0.9730584025
-0.1192032322 -0.2039116919 0.9928969145 0.1120283678 0.2291354686 0.9652126431
-0.1112449095 -0.2018841207 0.9929332137 0.02241842262 0.2219051719 0.9643553495
-0.1067813039 -0.2040648013 0.9926717281 -0.01044759247 0.2490358204 0.9614520669
-0.1015877947 -0.202266708 0.992703855 -0.07042880356 0.2393326014 0.9615023136
-0.1022065952 -0.1947712153 0.9855698347 0.03310027719 0.1957301199 0.9600820541
-0.09581306577 -0.1970906854 0.9839381576 -0.02024216391 0.2340140194 0.9256270528
-0.09536587447 -0.1852602512 0.9759944677 0.2400371879 0.2052407414 0.8873340487
-0.09490545094 -0.1814408749 0.9732744098 0.3239538074 0.1975432932 0.8729251623
-0.09692563117 -0.2037900686 0.9888594151 -0.1673276871 0.2459798753 0.952875495
-0.09914857149 -0.1881876439 0.9797669649 0.1769420058 0.1938663423 0.9205842018
-0.1043833345 -0.1984630376 0.9879552722 -0.0009133447311 0.2013381124 0.9763495922
-0.09252892435 -0.2244094014 0.9957188964 -0.1528216898 0.326610297 0.932689786
-0.09296756983 -0.2186041474 0.9938769341 -0.1886231154 0.3030931652 0.9335232973
-0.08975067735 -0.2141073197 0.9940101504 -0.1976862848 0.2975541651 0.9335346222
-0.08865536004 -0.2214871049 0.9959126711 -0.1676840335 0.3154472709 0.9334349036
-0.08504924178 -0.2177668214 0.9983482957 -0.2129556686 0.2729696631 0.9364569783
-0.07995727658 -0.2147603184 1.002573013 -0.2318204492 0.261965096 0.9367113113
-0.08321536332 -0.2123531699 0.9986912012 -0.2271190435 0.2683419287 0.9359464049
-0.09035147727 -0.2047034949 0.9892758727 -0.2186589986 0.2456454486 0.9434312582
-0.09339280427 -0.2119702846 0.9912480712 -0.2055235505 0.2791822851 0.9372203946
-0.09714161605 -0.2165063918 0.9910138249 -0.1595950574 0.3119830787 0.9363205433
-0.1002637744 -0.2217501104 0.993181169 -0.1059478596 0.3385980129 0.9292673469
-0.1053931713 -0.2217393368 0.9926428199 -0.05175645649 0.3563419282 0.9239811301
-0.1040198579 -0.2257816941 0.9949313402 -0.05157715455 0.3629164994 0.9216519594
-0.07718471438 -0.1362260729 0.9660712481 0.07334505022 -0.2189018577 0.9718486667
-0.08269919455 -0.1322629601 0.9659764171 0.1305734217 -0.2020811439 0.9697939157
-0.08722490072 -0.1447695941 0.9695388079 0.2987924814 -0.1951572299 0.9299185276
-0.07623676956 -0.1413534731 0.9665920138 0.08934724331 -0.2312603593 0.963034749
-0.07111466676 -0.1451033801 0.9641922116 0.02346879803 -0.2418310493 0.9680556059
-0.0681938529 -0.1417815536 0.9654853344 -0.0204376746 -0.2355467677 0.9692533016
-0.06921971589 -0.1371110976 0.9673652053 -0.0144856507 -0.2295386344 0.9700860977
-0.07302412391 -0.1338647306 0.9685871601 0.01601154357 -0.2285196334 0.9727645516
-0.0635560751 -0.116858393 0.9739248157 -0.1052291989 -0.3058635592 0.9461637735
-0.07101009786 -0.1279869229 0.9705935717 -0.01826591045 -0.2373786867 0.9698456526
-0.07685780525 -0.1211262345 0.9687688351 0.04351277649 -0.2645910084 0.9619986415
0.06099851057 -0.2253113836 1.072325826 0.3210621476 -0.04342956096 0.9456223845
0.04891997948 -0.230131045 1.077398777 0.3128524423 -0.08911263198 0.9444233775
0.05647186935 -0.2264052629 1.074193716 0.317340374 -0.0567826964 0.9457823634
0.05336253345 -0.2314570695 1.075677872 0.318677932 -0.08869764954 0.9422137737
0.04635192081 -0.2247027606 1.078175545 0.3052637279 -0.0646988675 0.9496882558
0.05213179812 -0.2239223868 1.075819373 0.3105740249 -0.05090835318 0.948956728
0.04813568294 -0.22208637 1.071993828 0.2831029892 -0.03944669664 0.9575704932
0.06168262661 -0.1950190067 1.072672844 0.2642273605 0.06552562863 0.961948216
0.05773181096 -0.1975317746 1.07483077 0.2646078169 0.05559837818 0.9624288082
-0.04834663495 -0.1240868121 0.9693827629 -0.1624940336 -0.255335629 0.9528838396
-0.05430304632 -0.1198931336 0.9720221758 -0.1107371002 -0.2949953973 0.9483844638
-0.04856352136 -0.1219037771 0.9737288952 -0.1495280713 -0.2402647138 0.9574107528
-0.0516467765 -0.1173566505 0.9751028419 -0.1111300737 -0.281421721 0.951064229
-0.05483656749 -0.1240420043 0.9691557288 -0.1276544333 -0.284845382 0.9495565891
-0.06010303274 -0.1197925583 0.9735888839 -0.08933706582 -0.2947990596 0.9511194229
-0.05673028529 -0.1157396957 0.9751029611 -0.0882152468 -0.3090340793 0.946883142
-0.06361312419 -0.124565579 0.9718164802 -0.09847264737 -0.2790136933 0.9547737837
-0.05241410434 -0.1316081882 0.9706960917 -0.1759827584 -0.2652557194 0.9476112127
-0.05730932951 -0.1283535063 0.9712007046 -0.1419329345 -0.2711490691 0.9508243799
-0.1099610552 -0.1519061029 0.975165844 0.5587746501 0.05358353257 0.8274769783
-0.1047723591 -0.1562343836 0.9781249166 0.5507340431 0.07635595649 0.8302220702
-0.09397744387 -0.149574101 0.9716793299 0.4294958413 -0.08462673426 0.8847351074
-0.09947759658 -0.1539103389 0.9736036658 0.5304836035 0.02134759165 0.8438386321
-0.09858606756 -0.1489272565 0.973400712 0.4746839702 -0.0439754054 0.8712236881
-0.1183921546 -0.2016590834 0.9886715412 0.08580695838 0.210234642 0.9724039435
-0.1188305542 -0.1967554241 0.987752676 0.08767362684 0.1974361986 0.9751434326
-0.1240834966 -0.1975051761 0.9884234667 0.1361686885 0.1855182052 0.9711143374
-0.111566402 -0.1964917034 0.9874966145 0.04693973809 0.1962191761 0.9791683555
-0.1044704542 -0.1974962652 0.9927580953 -0.05034828931 0.1973840743 0.9652497768
-0.1026680022 -0.1896019727 0.9892553091 0.0778889358 0.2566844523 0.9484435916
-0.1139684916 -0.1975692213 0.9928483963 0.04479452595 0.1777638048 0.969976604
-0.1094346195 -0.1954865307 0.9918994904 0.03739496693 0.20157215 0.9635859728
-0.1125481278 -0.1914629787 0.9901388884 0.1437205672 0.2236854434 0.9569643736
-0.1073364615 -0.1873823404 0.9883021116 0.1665246189 0.2629477382 0.9462134838
-0.0996824652 -0.1930592358 0.9907662272 -0.01662396826 0.2383074909 0.9539837241
-0.09971676767 -0.1860548109 0.98754251 0.241953373 0.3359985948 0.9084045887
-0.1052237898 -0.1827546805 0.9872915149 0.2686699331 0.2878246307 0.9116603136
-0.1108328924 -0.2266461998 0.9948613644 0.03177105263 0.3864202499 0.9164997935
-0.1014869288 -0.2134064436 0.9892011285 -0.09696180373 0.3112801909 0.9444046617
-0.1009986326 -0.2058672458 0.9889011383 -0.08385720849 0.2540500462 0.9589131474
-0.09803909808 -0.2101181895 0.9890000224 -0.1595367789 0.2876332104 0.9437215924
0.05159710348 -0.2102647275 1.078042507 0.2790359855 0.008968326263 0.9594839811
0.05542586371 -0.2138717175 1.076266408 0.2870627344 0.0003972333216 0.9572321177
0.05045928061 -0.2148125619 1.077909112 0.2868812084 -0.01269318722 0.956805408
0.04541703314 -0.2127108276 1.079936504 0.2811318636 -0.01281447988 0.9581933022
0.05826836079 -0.2196438164 1.074346781 0.3021752238 -0.02033814974 0.9524492025
0.0510260947 -0.2186842263 1.069835067 0.2721586525 -0.01680979691 0.9607343078
0.05094357207 -0.2137111574 1.06909883 0.2690056562 0.004809273407 0.9607952833
0.05216063559 -0.2087378055 1.066870689 0.267588228 0.02477750927 0.9597368836
0.04729390889 -0.2148051858 1.073471308 0.2648005486 0.004715776071 0.9639409781
0.04814964533 -0.2055744678 1.070946574 0.2602956593 0.04356133938 0.9631851315
0.05410475656 -0.2244220376 1.067259789 0.2797811925 -0.04554593191 0.9580942988
0.05339829251 -0.2025174946 1.066606998 0.2628798485 0.05254640058 0.9603061676
0.05441574007 -0.2188407779 1.066010833 0.2767343223 -0.02175092511 0.9578456283
0.05087172985 -0.1980240792 1.06677115 0.2590660453 0.07299869508 0.9609835148
-0.1227237061 -0.1914663464 0.9881782532 0.1662773192 0.09521565586 0.9771838784
-0.1153651029 -0.1879121959 0.988176465 0.1724200249 0.1569206566 0.9701519012
-0.1280480474 -0.1794677675 0.995477736 0.2543414533 0.08075729012 0.9581736326
-0.121571444 -0.184254542 0.991009891 0.2046266794 0.105306223 0.9696545601
-0.1256684661 -0.1895025969 0.9935693741 0.1967119575 0.12162745 0.9688198566
-0.1222591773 -0.1789781749 0.9916380048 0.2325841486 0.08434951305 0.9647321105
-0.1255074739 -0.1753646433 0.993917942 0.2632864714 0.06736988574 0.958032012
-0.1251185387 -0.1945010424 0.9930419922 0.1706497371 0.1413841993 0.9733613133
-0.1277788281 -0.1842017919 0.9951457977 0.2307048589 0.09923086315 0.9621732235
-0.1044333577 -0.1759304702 0.9770225286 0.3977832794 0.1764605641 0.8806718588
-0.1127671003 -0.1829725802 0.984533608 0.2242638022 0.128772676 0.9563667774
-0.1156270057 -0.1790024936 0.9909902215 0.2341541946 0.1749084145 0.9466915727
-0.1273724884 -0.1708161384 0.995711863 0.2958270609 0.05714852363 0.9494686127
-0.1101625264 -0.1815713048 0.9891487956 0.2298943996 0.2377094179 0.9355986714
-0.1137986407 -0.173901394 0.9898869395 0.3981997967 0.2086647004 0.8840606213
-0.118569769 -0.1753650457 0.992613256 0.2811864316 0.1554884613 0.9347686172
-0.1175264269 -0.1822463423 0.9863038659 0.2320277989 0.09965793043 0.9625533819
-0.1225872561 -0.1804476082 0.9867422581 0.271923244 0.04284550995 0.9568612576
-0.1072289422 -0.1801576018 0.9795886278 0.305637598 0.1448060274 0.9215979576
-0.1085721254 -0.1875609308 0.9811493754 0.2035931647 0.1825889945 0.9370627999
-0.0997428 -0.178513214 0.9727995992 0.3890585303 0.1793741733 0.8783537149
-0.1033759266 -0.1816350967 0.9761934876 0.3197343349 0.1760541797 0.9023833871
-0.09582025558 -0.1766322404 0.9703307748 0.4316163659 0.1835097969 0.8610903621
-0.1039260551 -0.190927729 0.9836620092 0.1197458431 0.180052042 0.9564750195
-0.1110569611 -0.1922339946 0.984623909 0.1132758632 0.1901213974 0.9615197182
-0.1158109158 -0.2256761789 0.9954460859 0.08564647287 0.3706159592 0.9222495556
-0.1081856266 -0.2131165117 0.9897076488 0.01416670438 0.2903005183 0.953533709
-0.124120824 -0.2150111049 0.9958121777 0.1366714388 0.3257068992 0.9352611303
-0.1135473326 -0.2068742812 0.9927404523 0.06817291677 0.2658332586 0.9602948427
-0.1114848033 -0.2115431875 0.9940362573 0.04972421378 0.3099138141 0.9476844072
-0.115064472 -0.2148357481 0.9953734279 0.07809043676 0.3371689618 0.9378268123
-0.1117474884 -0.2043709904 0.9888336062 0.04436097294 0.2218706012 0.9739320874
-0.1067426279 -0.208379373 0.988892138 0.01445775013 0.2593922913 0.9640373588
-0.1228049695 -0.2036025077 0.988925457 0.1102868989 0.1985174567 0.9716668129
-0.1175116897 -0.2109848857 0.9904587865 0.08208201826 0.2600229084 0.9606548548
-0.1290849 -0.2055020928 0.989705503 0.1496233493 0.2030844986 0.9657780528
-0.1285336912 -0.2116841525 0.9927617311 0.1297122389 0.254391104 0.9569200873
-0.1217399985 -0.2123042792 0.9918784499 0.09739042819 0.2664892972 0.9576929212
