# .PCD v0.7 - Point Cloud Data file format
VERSION 0.7
FIELDS x y z normal_x normal_y normal_z
SIZE 4 4 4 4 4 4
TYPE F F F F F F
COUNT 1 1 1 1 1 1
WIDTH 512
HEIGHT 1
VIEWPOINT 0 0 0 1 0 0 0
POINTS 512
DATA ascii
0.081985116 -0.1011557505 0.7056365013 0.4932042658 0.2011155039 0.7588032484
-0.1378985792 -0.2259913236 0.7054706216 -0.08949761093 0.09323241562 0.9891744256
-0.1626499146 -0.2008100152 0.7194868326 0.4397875667 -0.136473164 0.8869057894
0.0747295022 -0.09281624109 0.7338218689 0.2773169577 -0.7673046589 0.5119963884
0.07279506326 -0.08469834924 0.733772099 0.1405525655 -0.7935999632 0.5616717339
0.0728558898 -0.08698152751 0.7181669474 0.06886582822 -0.7655390501 0.6185585856
-0.1568091214 -0.2054703832 0.7124393582 0.3804870546 -0.1038575843 0.918348372
-0.1534367353 -0.2227877527 0.70922786 0.1819273382 0.01201205514 0.9709041715
-0.1447099 -0.2247695625 0.7114824057 -0.02801218256 0.09479930252 0.9266117215
0.06757908314 -0.07804446667 0.7359064221 0.06505480409 -0.7889450192 0.610216856
0.06362324208 -0.08231507242 0.7476745844 0.08648835868 -0.6371765137 0.714972496
0.0739774555 -0.08916775882 0.7444108725 0.2350823134 -0.7621594667 0.5156161785
0.07942259312 -0.1148515493 0.7550112605 0.6091133952 -0.6853979826 0.3469240665
0.07808405161 -0.1050488353 0.7475153208 0.4610107541 -0.7139827609 0.4136967957
0.07607815415 -0.09738337994 0.7443152666 0.3446235955 -0.741146028 0.4665910304
0.07535713166 -0.1077544615 0.7550144792 0.466982305 -0.6826906204 0.4740842283
-0.1395668834 -0.218496725 0.7039251924 -0.02868532203 0.04920874536 0.9957666993
-0.0659673214 -0.1414401382 0.6969637871 -0.6717306972 -0.4002986848 0.5937955379
-0.0719942078 -0.1335725635 0.6909487844 -0.3234339058 -0.8163990378 0.09432396293
-0.1027451307 -0.1384624094 0.7204348445 -0.2179310769 -0.06113483757 0.9739458561
-0.1055211127 -0.1486719698 0.7203559279 -0.2632659078 -0.02448856458 0.9628667235
-0.06326242536 -0.2132659554 0.7390690446 0.00193270098 0.357863009 0.9332712293
-0.05276802555 -0.2056765705 0.7341510653 0.03062030487 0.4086090624 0.9117080569
0.009455568157 -0.1754209846 0.7357011437 0.08367609233 -0.003556997515 0.8389281034
0.001848204294 -0.1771223098 0.7194100618 -0.1051925942 0.3866657615 0.8691166043
0.009275352582 -0.1728827804 0.7159588337 -0.1924543828 0.3448924124 0.8884797096
0.01591013186 -0.1730538607 0.742590189 0.1466187239 -0.2131454349 0.8308071494
0.00822158996 -0.1745414436 0.7243843675 -0.06869789213 0.2117491513 0.8657100797
0.01213202439 -0.1739628166 0.749837935 0.09899908304 -0.07460446656 0.9407444
0.002380855149 -0.1782031208 0.7306831479 0.03743398935 0.1979461312 0.8515560627
0.02706900798 -0.1678052843 0.7540876865 0.2707358897 -0.5426104069 0.7781433463
0.0325698778 -0.1642463356 0.7487838864 0.3052426279 -0.6164718866 0.6292203069
0.03025670163 -0.1665166914 0.7387455106 0.3857525885 -0.7186971903 0.3592953086
-0.07249733061 -0.2185692638 0.7379498482 -0.1268406063 0.3233881891 0.9335992336
-0.1426323205 -0.1832707077 0.7125611901 0.2025868595 -0.1284245104 0.9131711125
0.02042761631 -0.1455853134 0.761495769 0.04556745663 -0.2236527205 0.97226125
-0.08209714293 -0.1270927638 0.6945675611 -0.139549464 -0.9044789672 0.2063941956
-0.0747595951 -0.1271279603 0.6970006824 -0.3495454192 -0.8170235157 0.3548215926
-0.08665188402 -0.1219221205 0.7153947949 0.1246882752 -0.733989954 0.5577314496
-0.08390130848 -0.1251416802 0.7023963332 -0.03740628436 -0.8411836624 0.3372027576
0.04829395935 -0.1540315151 0.7257610559 0.3492227197 -0.517885685 0.1691939086
0.03936527669 -0.1567102522 0.7229733467 0.03196391836 -0.1124432757 0.4019118249
0.0147364391 -0.1527757049 0.7610891461 0.1112694219 -0.1689273864 0.9788303971
0.07391227782 -0.09119696915 0.7072070837 -0.1363455057 -0.6325263977 0.7511531711
0.05362893641 -0.07720096409 0.7337448001 0.06337494403 -0.7312190533 0.6776701808
0.05737760663 -0.07135899365 0.7389006019 0.04933200032 -0.7223137021 0.6876682639
0.06154002249 -0.08952537179 0.7534979582 0.105250001 -0.5219723582 0.7847348452
-0.1308685988 -0.2009600848 0.705060482 -0.1694182307 -0.0154025387 0.9739245772
-0.1298492849 -0.2263785303 0.707259357 -0.2822456956 0.1814225465 0.9352248907
-0.1029117182 -0.1683087051 0.7226256132 -0.3923285306 0.07904271036 0.9109576941
-0.143359676 -0.2043149769 0.7134474516 0.03060990013 -0.03538073227 0.8728867769
0.01907627657 -0.1705441475 0.7346410751 0.08923220634 -0.2405041903 0.7149288058
0.02265296876 -0.1682674289 0.7276423573 0.1819956601 -0.5319717526 0.3212405443
0.01726077683 -0.1697648615 0.7208278179 -0.03482593223 -0.07839365304 0.6273807883
0.01379954722 -0.1563149989 0.7127792835 -0.2057415694 0.2380229086 0.8825846314
0.01548946649 -0.1645509601 0.7138494849 -0.2654231191 0.2872892916 0.9018796682
0.007983790711 -0.1622583121 0.7108020782 -0.1731881946 0.1696400791 0.9522837996
0.02620338276 -0.1594139189 0.7174065709 -0.3796067536 0.448844254 0.7863480449
0.003348216414 -0.1439248472 0.7101676464 0.09381691366 -0.05818399042 0.958648324
0.02045013569 -0.153094992 0.7154949307 -0.245112583 0.3127318025 0.8220427632
-0.117890738 -0.1891911477 0.7092224956 -0.4585138261 -0.03520803154 0.8801007867
-0.09856311232 -0.196242556 0.7297690511 -0.3769972324 0.1081319973 0.9145953059
-0.1461862624 -0.1940265149 0.7129983902 0.2724219263 -0.1260801554 0.8844127059
-0.1335497648 -0.2014789581 0.7134050727 -0.1328462511 -0.01543235406 0.8429533243
-0.123433508 -0.2021136582 0.7152399421 -0.3750525713 0.02966276556 0.8175450563
-0.138818264 -0.1970189959 0.715952754 0.06765090674 -0.08345194161 0.8355190158
-0.1117342561 -0.1970817894 0.7197720408 -0.6047194004 0.04555574059 0.7752215862
-0.11569231 -0.1887361258 0.71903193 -0.5108735561 0.01205746271 0.7893007994
-0.1273556501 -0.1911142915 0.7159912586 -0.2047355473 -0.04004239663 0.8368113041
-0.1208303869 -0.1945781261 0.7175396085 -0.3707484305 -0.002608594252 0.811301291
-0.1351529658 -0.1882608235 0.7141276598 -0.001202060375 -0.08289577067 0.8692234755
-0.01421758067 -0.1815203577 0.7187126875 0.006225200836 0.5314990282 0.8446106315
-0.09924671054 -0.1266882122 0.7228099704 -0.06582082808 -0.1768267751 0.9480276704
-0.09112971276 -0.127165556 0.7061002851 -0.1236802191 -0.5854821205 0.5007187128
0.08862821758 -0.1238497272 0.709682107 0.1725225151 0.4757477939 0.7527065873
0.08384179324 -0.128659144 0.7142205238 -0.1192668155 0.5817058682 0.6403972507
0.08236159384 -0.1250534952 0.7420757413 0.4445059896 -0.2169470191 0.3739366233
0.01472922135 -0.1625516564 0.7612999678 0.07868696749 -0.189081803 0.9778462648
0.06371613592 -0.1096063182 0.7665591836 0.1908222884 -0.3085133731 0.8886452317
0.06863075495 -0.09115140885 0.7514557838 0.1372960806 -0.6119122505 0.7019444108
0.07224485278 -0.09878497571 0.7529786825 0.2993408144 -0.6515831351 0.6417075396
0.06938963383 -0.1148782223 0.7649524808 0.3814576864 -0.4288496375 0.7696947455
0.06628797948 -0.1034147143 0.7607197762 0.1957316548 -0.4372999072 0.8035390377
0.06470610201 -0.09634196758 0.757240057 0.1113221943 -0.4748719335 0.7969023585
0.06977877766 -0.1223725528 0.7644446492 0.4834862649 -0.4521974623 0.652951479
0.08888990432 -0.1164704338 0.706143856 0.4202642441 0.3872101605 0.8175774217
0.05911511928 -0.07824229449 0.7281145453 0.1022921503 -0.7418521047 0.6554632187
0.06336189806 -0.08497560769 0.7204887271 0.1485658288 -0.7789487839 0.6055645943
0.07834216952 -0.108475998 0.7377331853 0.4471009672 -0.4764238 0.5030540824
0.0796616599 -0.1180099249 0.7279934883 0.4078370929 0.1348723918 0.6950970292
0.07852187008 -0.1152935699 0.7193710208 0.3072206378 0.3084688187 0.8021423221
0.07657076418 -0.1003047824 0.7365236282 0.3870022595 -0.7087355852 0.4741019309
0.07697855681 -0.1063788682 0.7238596082 0.2986293733 -0.1222029552 0.6881213784
0.08020459861 -0.1177507415 0.7368947268 0.493624121 -0.1452656984 0.5673008561
0.08131697774 -0.1196034849 0.7475017309 0.6208129525 -0.4257977605 0.4122156501
0.08185639977 -0.1085963622 0.7156314254 0.3508050442 0.08340544999 0.7463255525
0.07709421962 -0.09333749861 0.7197586894 0.2558538914 -0.5003829002 0.6285479069
0.08685578406 -0.1085042506 0.7079604268 0.4772510827 0.2118454129 0.7543815374
0.08149248362 -0.09972088039 0.7144254446 0.3552578092 -0.1959450841 0.6815370321
0.0820434168 -0.1222749203 0.7208791971 0.4057272077 0.2745184898 0.7523091435
0.07158831507 -0.1400797963 0.7224681973 0.681809485 -0.7296258211 0.004200616851
0.07832924277 -0.1334108263 0.718687892 0.4853641689 -0.4646488428 -0.06989999861
0.07765626162 -0.1314388961 0.7370726466 0.5762722492 -0.4966389835 0.1997672915
0.08015750349 -0.13110511 0.7294693589 0.06631378084 0.09392382205 0.3551837206
0.07151672989 -0.1380180717 0.7366703153 0.6810511351 -0.6917440891 0.1589761972
0.07872565836 -0.12631616 0.7553691268 0.7271484137 -0.6090056896 0.309329927
0.07421157509 -0.1334916949 0.7444107533 0.6981079578 -0.6587350965 0.2226960212
0.07247781008 -0.13252832 0.7585694194 0.6826635599 -0.626933217 0.3733428419
0.07554955781 -0.1058951914 0.702647686 0.2906784713 0.219477281 0.9171532989
0.06742572784 -0.1061521024 0.7057539225 0.3104754984 -0.02926726639 0.8564229608
0.0752325207 -0.1192297041 0.711207509 0.5094863176 -0.1795583069 0.3971536756
-0.0624997057 -0.1238353774 0.7038475275 -0.4159813225 -0.5893509984 0.5983726978
-0.1419910938 -0.1706912816 0.7142794728 0.09959835559 -0.1543408036 0.9701656103
-0.1316020787 -0.1782091409 0.7156616449 -0.1469091326 -0.07810676098 0.8971548676
-0.1080310121 -0.1879071891 0.7230736017 -0.5848311782 0.06056124717 0.805626452
-0.08279660344 -0.2176484913 0.7356348038 -0.2220212072 0.251790911 0.9361168146
-0.1268412471 -0.1660441607 0.7155928016 -0.1395864487 -0.09860339761 0.9521856904
-0.1204310507 -0.1698395014 0.7188720703 -0.234808147 -0.03027045727 0.9214157462
-0.1154250354 -0.1781126112 0.7204085588 -0.4311546385 0.01473612059 0.8446809649
-0.1345401704 -0.1697311699 0.7166667581 -0.02326050028 -0.11346405 0.9508683681
-0.107488066 -0.179141894 0.7224597931 -0.5396397114 0.07718907297 0.8280668855
-0.07821720839 -0.1287593096 0.687929213 -0.2703188956 -0.9446014166 0.1431440562
-0.1375303715 -0.2220674157 0.7122189403 -0.1558660716 0.1156043261 0.8920159936
-0.130261302 -0.2190899551 0.7060866952 -0.243873626 0.1185899302 0.9516265392
-0.1313313246 -0.2095741928 0.7048943639 -0.1968500316 0.04789768904 0.966704607
-0.1248441637 -0.208011955 0.7105972767 -0.4426202476 0.0835935846 0.8500976562
-0.1408084482 -0.2131609023 0.7110400796 -0.05234282091 0.02069431916 0.9046148062
-0.124319151 -0.2311860323 0.7129725218 -0.4601642787 0.2556475401 0.8471428156
-0.1134194136 -0.2051243931 0.7142638564 -0.6536333561 0.05278461426 0.7548484206
-0.02972647734 -0.1796678305 0.7148772478 0.08091831207 0.5036312938 0.8593400717
-0.01947764866 -0.1770293564 0.7128766179 0.03694594651 0.4547081292 0.8878276348
-0.01179281343 -0.1748678237 0.7105002403 -0.0323921442 0.4234823883 0.9017510414
-0.0004073021119 -0.1742245406 0.7094251513 -0.1051708087 0.3996514678 0.9092541337
0.03770203516 -0.1405740678 0.7638404369 -0.007880210876 -0.2592173815 0.9652266502
-0.02288412862 -0.1829191148 0.7188817263 0.0458731465 0.5417258739 0.8379495144
-0.1098250225 -0.1340251714 0.719687283 -0.2326535136 -0.0731863901 0.9510363936
-0.1009866074 -0.1296981424 0.7154474258 -0.211562708 -0.2229336053 0.8065604568
0.02307180688 -0.1611495614 0.7572875023 0.08807504922 -0.2034628093 0.974272728
0.01952460408 -0.1695873737 0.7559614778 0.1319508553 -0.214649722 0.9588847756
0.02911168337 -0.1540710926 0.7595799565 0.04595736042 -0.25140661 0.9654000401
0.02985969558 -0.1648751646 0.7231876254 0.3602909148 -0.9184129834 -0.1056872085
0.02458990924 -0.1694137901 0.74486655 0.3092063069 -0.6412681341 0.5208461285
0.005094833206 -0.1763472259 0.7429286838 0.0537022166 0.1248616278 0.9181296229
0.007044587284 -0.1667221189 0.762413919 0.1076020673 -0.1662096381 0.9801769853
0.01176538877 -0.1720345467 0.7586863041 0.1114790291 -0.1613335162 0.9805666804
0.05050725862 -0.1519495249 0.7503456473 0.4332028925 -0.7649659514 0.4015307426
0.05059490353 -0.1513356119 0.7577722669 0.3947871029 -0.7351303697 0.5404071808
0.06828095764 -0.08846405149 0.7122321129 0.0647636652 -0.7576534748 0.6417133212
0.05547925085 -0.1508850753 0.7273937464 0.5859342813 -0.8095876575 0.004751906265
0.06511314958 -0.1446789801 0.7254831195 0.6449491382 -0.7623497248 0.02649731748
0.05612824485 -0.1481508315 0.7433593869 0.5459574461 -0.7954110503 0.19050695
0.06085353345 -0.1459983289 0.7338206768 0.6006972194 -0.7793329358 0.1007589623
0.03718455508 -0.1213299781 0.7172480226 0.3460887969 -0.7116863132 0.4715936482
0.03102852032 -0.1114204451 0.7130167484 0.2660222948 -0.6391239762 0.6651214361
0.02810748294 -0.1313488781 0.7160072327 0.08111394942 -0.2291074991 0.6810623407
0.03926199675 -0.1464748383 0.7231173515 0.2452591956 -0.4060944319 0.3380086422
0.03263979778 -0.1519663334 0.7196833491 -0.208021909 0.209797278 0.6333904862
0.02480513975 -0.1186089292 0.7134529352 0.2356643826 -0.4683389664 0.7302624583
0.06248368695 -0.1202827692 0.7182569504 0.4107296765 -0.6092262864 0.4431343377
0.06510374695 -0.09887401015 0.7058205009 0.1322786063 -0.3739190698 0.8582168818
0.02735930122 -0.1024999022 0.7131226063 0.2128811032 -0.6237962842 0.7494609356
0.03427146375 -0.09361354262 0.7204478383 0.1651040912 -0.701607883 0.6916732192
0.02003832161 -0.1084898859 0.7117671967 0.2374793738 -0.5263693333 0.8114591241
-0.01962770149 -0.1500517726 0.7114584446 0.05532837287 -0.1694512516 0.9809309244
-0.00104028522 -0.1514189392 0.7079656124 0.02898253687 -0.02728365362 0.9940131307
0.007484137081 -0.1148644611 0.7134675384 0.2458244562 -0.3926643729 0.885376513
-0.0007981098606 -0.1191315204 0.7145668268 0.2051569819 -0.3388178945 0.9166463614
-5.045898797e-05 -0.1275671571 0.710935235 0.214272216 -0.2536128759 0.9428184628
0.02059447765 -0.1258985251 0.7162131667 0.3338060379 -0.5019815564 0.6570685506
0.00730004767 -0.1221944541 0.7116143703 0.2430283427 -0.331987828 0.8973962069
-0.001457106904 -0.1382163316 0.7097569704 0.1758439988 -0.1575074792 0.9671261311
0.008258213289 -0.1354560852 0.7098484635 0.1152597591 -0.09680533409 0.9137323499
0.01226460375 -0.1451042444 0.7128874063 -0.03240402415 0.08220238239 0.8854245543
0.02077102847 -0.1382723451 0.7138726711 -0.07319828868 0.0505888015 0.819221735
0.02789638378 -0.1450296938 0.7167336345 -0.2424425334 0.2403010577 0.7639533281
0.0148068741 -0.1182226688 0.7099033594 0.2411247492 -0.4038596749 0.8694806695
-0.03162787855 -0.150393635 0.7094970345 -0.0781018883 -0.04313654825 0.9602770805
-0.1214875057 -0.1444086432 0.7152919769 -0.223040238 -0.1056454405 0.9686031938
-0.1078787372 -0.1354159862 0.7124944925 -0.2394070923 -0.2405889779 0.7891919017
-0.09377087653 -0.1318519861 0.6996018887 -0.2278224677 -0.6128025055 0.4215793312
-0.1034559757 -0.1400804371 0.7052215338 -0.2449911386 -0.3939511478 0.6443565488
-0.09283417463 -0.1413115412 0.6975773573 -0.1286792755 -0.6607145667 0.113795884
-0.09995674342 -0.1460347325 0.7016807199 -0.1875307262 -0.4585951567 0.3283774257
-0.1125313044 -0.1504710466 0.7119303346 -0.2749832869 -0.1495331824 0.8451827168
-0.08128026873 -0.1368462443 0.6864207387 -0.1797849089 -0.9555644393 -0.1266203225
-0.07594251633 -0.2115607262 0.733489275 -0.1012194529 0.2833818197 0.9473801851
-0.09650563449 -0.1887843311 0.7230793238 -0.3297744393 0.133370012 0.8767513037
-0.09000299126 -0.1930373609 0.7267938256 -0.1779568791 0.1819894463 0.9495471716
-0.1044531465 -0.2005503029 0.7200598717 -0.5261033177 0.08842869103 0.8073633313
-0.09773158282 -0.2146439254 0.7316568494 -0.4880707562 0.1420680732 0.8582904935
-0.08735182881 -0.2243299335 0.7383518219 -0.3304903507 0.1773315072 0.9210697412
-0.09663110971 -0.2262972593 0.7334488034 -0.4697296917 0.1390287578 0.8620207906
-0.08051222563 -0.1850437373 0.7290708423 0.01316466834 0.197150439 0.9792395234
-0.06520307064 -0.1284669191 0.6974796653 -0.5519260168 -0.64316082 0.5170963407
-0.07086955756 -0.1177226454 0.7191910148 0.01105532516 -0.6927522421 0.61699301
-0.06549995393 -0.1178090274 0.7125881314 -0.1730563343 -0.5795007944 0.6759214997
-0.06767641008 -0.1150992513 0.7278407216 0.1594692022 -0.6097862124 0.7616464496
-0.08205338567 -0.1504529417 0.7227190137 0.02187290415 0.04076435417 0.9763624668
-0.01291901805 -0.1142592281 0.7264861465 0.1218602583 -0.3704848289 0.9169141054
-0.1545265019 -0.1955769062 0.7136750221 0.4571959376 -0.1613300443 0.8740451336
-0.1553346068 -0.212955147 0.7101976871 0.2904875875 -0.05252855271 0.9548728466
-0.1150128767 -0.1974952221 0.7117235661 -0.6136183143 0.02101017535 0.7887301445
-0.1235772297 -0.1935167164 0.7074373364 -0.3610974252 -0.02449321561 0.9301906824
-0.1161812395 -0.1811375767 0.7116128802 -0.4744683206 -0.06659501791 0.872795403
-0.1241135746 -0.1835291535 0.7073932886 -0.2290059328 -0.1098727137 0.9641712308
-0.05234977975 -0.2005685568 0.7275665998 0.03175797686 0.40556705 0.9106863737
0.04713308439 -0.1551363468 0.7366243601 0.4902465343 -0.8263354897 0.1621828228
0.04237820208 -0.1566840708 0.7439436316 0.4221557081 -0.831735909 0.2906366587
0.04027481377 -0.1606152505 0.7304027677 0.4951426685 -0.8401973248 0.1124376804
-0.1399971992 -0.1986761391 0.7051638365 0.155869171 -0.1039565578 0.9740568995
-0.1496179253 -0.2022551298 0.7070922852 0.3291628659 -0.1166195497 0.935951829
-0.1407990009 -0.2063092291 0.7040692568 0.1186257601 -0.0575062409 0.9795202017
-0.1480401903 -0.2139237672 0.7058494687 0.2081207931 -0.04974332452 0.9755430222
-0.1384840161 -0.1881735921 0.7066200376 0.1207779497 -0.1370045394 0.9793083668
-0.1521865129 -0.1826485097 0.7134578824 0.4073321223 -0.1991552263 0.8902255893
-0.004751214758 -0.1793240458 0.7163190842 -0.07827223837 0.4782194495 0.8724914789
-0.01577720232 -0.177133128 0.7360214591 0.06379751116 0.3195551038 0.871540308
-0.02538404055 -0.1885616332 0.7254157662 0.01383440383 0.5682350397 0.8116436601
-0.0219161585 -0.1861012727 0.7335612178 0.01574292965 0.4466194212 0.8369089365
-0.00590131525 -0.1694480032 0.7540544271 0.08886626363 0.009736868553 0.9390942454
-0.01343828347 -0.1816378981 0.7426059246 0.04281498864 0.2574855089 0.8811131716
0.0006209615385 -0.1705515981 0.7591245174 0.09758144617 -0.0917673409 0.9627808928
-0.008672833443 -0.1760777235 0.7489531636 0.06619457155 0.1216424331 0.9128921628
-0.004301346373 -0.1788680404 0.741687119 0.0660347119 0.1911194175 0.9018186927
0.001425139024 -0.1761656106 0.7501036525 0.08668295294 0.01932232082 0.9392017722
-0.008506811224 -0.1811285317 0.7284154296 0.02021597698 0.4334952533 0.8507791162
-0.03690567613 -0.1000100598 0.729989171 0.147434026 -0.408739984 0.8991655111
-0.045150619 -0.115677692 0.7182257175 -0.06269066781 -0.4119203091 0.8218522668
-0.05609664321 -0.1153580397 0.7187572718 -0.1137291715 -0.4156185389 0.8071696162
-0.05698351189 -0.1213693172 0.7111788988 -0.3261281848 -0.4663223922 0.7107894421
0.06636437774 -0.133131817 0.762875855 0.4036327004 -0.4104126096 0.7481483221
0.06972401589 -0.1361149997 0.7510339022 0.649428308 -0.6483094692 0.318544358
0.06572961062 -0.1412250102 0.7407169342 0.5811374784 -0.6591006517 0.2723351121
0.06198824197 -0.143453002 0.7476196289 0.4455355406 -0.5757553577 0.4823604524
0.06099962071 -0.1430123895 0.7567603588 0.3576940894 -0.487885654 0.6831297278
0.05826506764 -0.138267085 0.7631784678 0.1921643317 -0.3093170524 0.9278014898
0.06139787659 -0.1197764501 0.7685926557 0.1755203009 -0.2187494189 0.9587545991
0.05997988954 -0.1285484731 0.7656971216 0.174501121 -0.2505595982 0.9507057667
0.03953092173 -0.1577588022 0.7558329701 0.2890613675 -0.6763763428 0.6414269209
0.02270874754 -0.09736777097 0.720103085 0.1797868907 -0.6478805542 0.7400667667
0.01001999341 -0.09633861482 0.7242831588 0.1776795536 -0.6091910005 0.7714073062
0.01672139205 -0.1027290225 0.7175750732 0.2256076932 -0.5628626943 0.7922783494
0.04574698582 -0.1024488658 0.7094843388 0.1721325517 -0.6060946584 0.7619705796
0.03607197106 -0.1007882282 0.7124512196 0.2115067989 -0.7027951479 0.6789626479
0.05186735094 -0.1352866292 0.7259883285 0.4907921851 -0.8010641336 0.1692433357
0.04550500214 -0.1280581951 0.720652163 0.405715555 -0.7790047526 0.3154670894
0.04422473535 -0.1368695199 0.7233743072 0.4684122503 -0.7889351845 0.2109113038
0.03989228606 -0.1141708046 0.7154116035 0.2971840203 -0.7342506647 0.5213245153
0.04705825076 -0.1089519635 0.7148762941 0.2698532045 -0.7361571789 0.5560759306
0.0498582013 -0.1185752526 0.7189437747 0.3488548398 -0.7473694086 0.4218733013
0.05685092509 -0.1400837004 0.7286729813 0.5558943152 -0.7858395576 0.08949933201
0.06165770814 -0.1332098395 0.7260463834 0.5585339069 -0.7228773236 0.1703116745
0.05847016722 -0.1077966094 0.7108076215 0.2014304847 -0.510794878 0.7519150376
0.05909187719 -0.09139692038 0.7147207856 0.1930688769 -0.7828192711 0.5893207788
0.06550695002 -0.1157724187 0.7132269144 0.3674025834 -0.5692150593 0.4615670443
0.07150349766 -0.1274208426 0.7183324099 0.5711106658 -0.6599499583 0.1206201315
-0.002059734892 -0.1055387408 0.7212615013 0.1667399108 -0.488332659 0.8550917506
0.008564186282 -0.1064815298 0.7182924747 0.2302205116 -0.5161398053 0.8247344494
-0.01100301463 -0.08792660385 0.7365192175 0.06824404001 -0.6051744819 0.7923868299
0.0493263118 -0.07013615966 0.7384916544 0.04814565927 -0.6891713142 0.72267735
0.05364747718 -0.0844996348 0.7265005112 0.123981595 -0.7532783747 0.6386237144
0.04425523058 -0.1459388584 0.7616531253 0.0254552234 -0.2890678644 0.9477446079
0.04121937975 -0.06947755814 0.7427694798 0.07649736106 -0.6496632099 0.7555173039
0.04784002155 -0.08221325278 0.7501959801 0.08534406126 -0.5202098489 0.8193069696
0.0532268025 -0.08969978988 0.7553564906 0.1003484428 -0.4531905949 0.8440046906
0.05557186529 -0.09712053835 0.7602539659 0.1191726029 -0.3756097555 0.8800128698
0.05639798194 -0.1040659398 0.7651098371 0.1376918852 -0.2933359146 0.921882689
-0.006137212738 -0.1448722929 0.7093894482 0.1203880161 -0.1043245792 0.9843603373
-0.01425316744 -0.1440357566 0.7112525702 0.1559761614 -0.1470674872 0.9727176428
-0.01176592987 -0.1510661542 0.7086917758 0.1019381657 -0.1068512499 0.9862884879
-0.1266447604 -0.1553453058 0.7136010528 -0.1584244967 -0.1568561196 0.9741062522
-0.1320248842 -0.1613358557 0.7113253474 -0.0838335678 -0.1768019944 0.9801008701
-0.1193905622 -0.1567948014 0.7155458927 -0.2191754729 -0.1002987176 0.9637784362
-0.1101091579 -0.1598854959 0.7188938856 -0.2972519994 -0.01916946471 0.9466609359
-0.1136108786 -0.1438800991 0.718768239 -0.2335711867 -0.07645784318 0.9681231976
-0.1355244517 -0.1726976633 0.7079797387 0.01797252893 -0.171557188 0.981136322
-0.1339190751 -0.1814125627 0.707012713 0.03817195818 -0.1489679515 0.9856761694
-0.09374066442 -0.1655384898 0.7172362208 -0.2232625335 0.0139901787 0.8086157441
-0.08741506189 -0.1614370793 0.7150568366 -0.1202536002 -0.04452836141 0.707886219
-0.09245675057 -0.1549274325 0.7005614042 -0.2294046879 -0.4915393591 0.1523489356
-0.08292222768 -0.1516832858 0.7021584511 -0.06470231712 -0.435138315 0.1862610281
-0.07574352622 -0.1428027451 0.6928412914 0.08407271653 -0.8380690813 -0.3784531653
-0.09587685019 -0.1511173695 0.7210845351 -0.2165373266 -0.03052052669 0.9746646285
-0.1016478688 -0.1585527509 0.7212713957 -0.2787384689 0.04479307681 0.9577674866
-0.06546026468 -0.2094300389 0.7328047156 -0.008265468292 0.3382488191 0.9390775561
-0.07478888333 -0.1938445717 0.7313953638 0.06637842953 0.2675484717 0.9596632123
-0.05315632001 -0.1843511015 0.722047925 0.1368059963 0.3159143031 0.9379006028
-0.1004053727 -0.2200094163 0.7265572548 -0.5560434461 0.1046956927 0.8221794963
-0.121505715 -0.1627526134 0.7106460333 -0.2068886757 -0.1043233573 0.9665356874
-0.123667866 -0.1719955057 0.7084254026 -0.2162980735 -0.1198829338 0.959256053
-0.1065923497 -0.1517706066 0.7066516876 -0.2513408363 -0.2930263877 0.5971295238
-0.1094374806 -0.16071859 0.7084005475 -0.2957607508 -0.2247216851 0.7055755854
-0.1099793538 -0.1687547266 0.7149553299 -0.413659215 -0.05416582152 0.8457291126
-0.08537718654 -0.1457069665 0.6905953288 -0.1234050468 -0.7851472497 -0.2519635558
-0.1014729291 -0.1636875272 0.7089706659 -0.3578769565 -0.2445561141 0.5131337643
-0.03421199694 -0.171359852 0.7129269838 0.1873837709 0.3109542429 0.9244146347
-0.02726417594 -0.1724398881 0.7093295455 0.0933701545 0.366564393 0.9216161966
-0.04796175286 -0.1589229405 0.7089654207 -0.05625550449 0.2224487066 0.9037242532
-0.05227679387 -0.1530202478 0.704592526 -0.3686414659 0.2148723453 0.8765875697
-0.03210033104 -0.1622840911 0.7079941034 0.02848772146 0.1646339595 0.9738467932
-0.01638798229 -0.1734668314 0.7196192145 0.01793294027 0.369712621 0.8773601055
-0.01750262827 -0.1637223065 0.7241993546 0.05645840988 0.06612632424 0.9398100972
-0.006337583996 -0.1646949947 0.7472835183 0.08714616299 0.004056139849 0.9477785826
-0.01270768419 -0.171183601 0.7290865779 0.03927340731 0.2656417787 0.8970567584
-0.0165722575 -0.1572734863 0.7307828069 0.08716527373 -0.1487230957 0.98328197
-0.009715663269 -0.166878432 0.7385309935 0.06718000025 0.1023974419 0.9291242957
-0.003760015359 -0.1598888338 0.7559475303 0.1143758148 -0.1603269428 0.9802532196
-0.08661539853 -0.1391857862 0.7233614922 -0.05219019949 -0.1216583773 0.983468473
-0.09233104438 -0.1336880028 0.7226967216 -0.09536915272 -0.09516732395 0.9841402769
-0.09398501366 -0.1414316744 0.7211166024 -0.173378244 -0.07583597302 0.9791687727
-0.07515484095 -0.1533372402 0.7237587571 0.2153190076 0.119794257 0.9599900246
-0.07795388997 -0.142107591 0.7248778343 0.1499507129 -0.1139475629 0.9522587061
-0.06203449145 -0.1623540968 0.7229223251 0.2486929297 0.2759803832 0.9249550104
-0.03700416908 -0.1417796463 0.7103812099 -0.1721277386 -0.05736819655 0.9455137253
-0.04403142631 -0.1456811279 0.7073299289 -0.3015863895 0.04935151339 0.9304808974
-0.04921873286 -0.1585055888 0.7205178738 0.2079614848 0.1384523809 0.9419177771
-0.02700932883 -0.1479299217 0.715262711 0.03069543466 -0.2106480896 0.974955976
-0.03584786877 -0.1462074816 0.7170553803 -0.04455731809 -0.1877404004 0.9713932872
-0.03621857613 -0.1562577039 0.7170835137 0.09499359876 -0.01924558915 0.9658145905
-0.04487377778 -0.1827100366 0.7272728682 0.1120247617 0.3878779411 0.9030632377
-0.04201007634 -0.2004996538 0.7318065763 0.02410956845 0.474863857 0.875077486
0.0292856954 -0.1408237368 0.7634519935 -0.007555217948 -0.2410973012 0.9699957967
-0.003280247794 -0.08437824994 0.7342228293 0.1055207402 -0.630197823 0.7654492259
0.04810060188 -0.1289918721 0.766790092 0.03332510218 -0.2288532555 0.9712379575
-0.02173579484 -0.1654035747 0.7070426345 0.05419064686 0.1681889445 0.9831974506
-0.02128599584 -0.09184203297 0.7319081426 0.0939143002 -0.526234448 0.8409751654
-0.01248790696 -0.09918405116 0.7244693041 0.1089510769 -0.4971241951 0.8594018221
0.04556442425 -0.1384161264 0.7646315694 0.02400192246 -0.2730273306 0.9453183413
0.0008126437315 -0.08987164497 0.7461947203 0.08335667104 -0.5917388201 0.7770552039
0.01812260039 -0.1155194864 0.7596362829 -0.007395486347 -0.2764339447 0.9363623857
0.004799635615 -0.1010980532 0.7511663437 0.06129949167 -0.4737949073 0.8357537389
0.008101114072 -0.109524332 0.7537320852 0.03843941912 -0.3850845397 0.8814963698
0.007602075581 -0.08992159367 0.7287356257 0.1611568928 -0.6399977803 0.7511618137
0.005544766784 -0.08274880797 0.7358819246 0.1245085672 -0.6644527912 0.7362031937
0.05116356164 -0.09714718908 0.7112095356 0.1908696294 -0.7159589529 0.6672908664
0.04590227827 -0.08358602971 0.7300302982 0.1142134145 -0.6958976984 0.7061531544
0.05344226956 -0.09000039846 0.7197007537 0.1890578419 -0.7645827532 0.6097127199
0.04626370966 -0.0894318372 0.7244513631 0.1610992253 -0.7094649673 0.6828625202
0.04493659362 -0.09521573782 0.7159030437 0.2134204358 -0.7257170081 0.6524617672
-0.01997468434 -0.1573389471 0.7088227272 0.1019139662 -0.05619062483 0.9897072315
-0.0183367487 -0.1467073858 0.7200059295 0.1102471873 -0.1972645521 0.9708812833
-0.01581800915 -0.1497786939 0.7305995226 0.08641304821 -0.2055283934 0.972712636
-0.01102877501 -0.154348135 0.741953671 0.09190320969 -0.1845273525 0.9771603942
-0.02010275237 -0.1532138735 0.7241671681 0.07376358658 -0.1760322601 0.9804101586
-0.003741810797 -0.1536918133 0.7488569617 0.1365864724 -0.1609843969 0.9769117236
0.002043465385 -0.1519836485 0.7588887811 0.1150275618 -0.1685490906 0.9786800146
0.006582326256 -0.1457242519 0.7605646849 0.101533547 -0.1767056584 0.9788922668
-0.001682451461 -0.1455644965 0.7429593205 0.1341399997 -0.1670730561 0.9757451415
-0.006887964439 -0.150068298 0.7376688123 0.1514757425 -0.1589265764 0.9748626947
0.00158781244 -0.1475153565 0.7523025274 0.1199256703 -0.1700320393 0.9774413109
-0.01287382282 -0.1378535181 0.7186618447 0.19919689 -0.1795835197 0.9626432061
-0.005119068548 -0.1397515982 0.7351853848 0.1635478884 -0.1824087054 0.9677384496
-0.008033782244 -0.1438679844 0.7291625738 0.163287878 -0.1646139175 0.9716046453
0.005352040287 -0.1383876055 0.755900383 0.10015136 -0.1674229205 0.9797394872
-0.02216337062 -0.1344926953 0.7151528597 0.100538373 -0.2222979516 0.9664272666
-0.006364773493 -0.1262355745 0.735258162 0.12699835 -0.2632354796 0.9508809447
-0.01144808996 -0.1228874475 0.725461185 0.1456989199 -0.287661463 0.9425960183
-0.01492328104 -0.1183637753 0.7201095819 0.1501454711 -0.3278977871 0.9302197695
-0.002092694631 -0.1304704249 0.7426357269 0.1165842041 -0.2277403623 0.9621119499
-0.007450222038 -0.1343133003 0.7299270034 0.1645195186 -0.1931254715 0.9648416638
0.001758687198 -0.135326609 0.7489008904 0.1111539155 -0.1868168265 0.9741120338
-0.01418281067 -0.1277835667 0.7171443701 0.1810945272 -0.2385618985 0.9531263709
-0.009284761734 -0.1328622699 0.7122824788 0.2153588533 -0.2054782659 0.9542378187
-0.08690926433 -0.1662148088 0.7229104638 -0.09587097168 0.1718772948 0.9783167243
-0.09470507503 -0.1686958522 0.7245354056 -0.2241465598 0.148815304 0.9622280002
-0.09425058961 -0.1830205172 0.7270916104 -0.2324767113 0.1814540476 0.9542282224
-0.09128446877 -0.1754292399 0.7227505445 -0.1737713367 0.1577731073 0.948978126
-0.1076396257 -0.1844610274 0.7164437771 -0.4688656926 0.03077088483 0.8494358659
-0.09990830719 -0.1817509234 0.7194244862 -0.3447063267 0.09150616825 0.8859378695
-0.07850756496 -0.1547914892 0.7098957896 0.04951134324 -0.2705428004 0.3636136353
-0.07592291385 -0.1601545513 0.7166869044 0.08658182621 0.0109942127 0.689675808
-0.07172287256 -0.1525412649 0.707650125 -0.09606338292 -0.2291727066 0.4811549783
-0.07375772297 -0.1675067544 0.7249668837 0.1392470598 0.1778823882 0.9697886109
-0.0604975298 -0.1642325968 0.7150078416 -0.1039041653 0.1968359649 0.9261961579
-0.08260587603 -0.1735154986 0.7247735262 -0.03422205523 0.1903704107 0.9788783193
-0.03973547742 -0.1868063509 0.7216906548 0.09557010233 0.4326146245 0.8913191557
-0.03337973356 -0.1916108876 0.727129519 0.02818133496 0.5075291991 0.8565001488
-0.03974052519 -0.170916602 0.7205532193 0.1486344934 0.2445737869 0.92988801
-0.03314326331 -0.1647476852 0.7178982496 0.1112188622 0.08248633146 0.9527711272
-0.03554256633 -0.180353865 0.7223849893 0.1000976935 0.3451282978 0.907136023
-0.04333134741 -0.1636757851 0.7192054987 0.1886127293 0.1712382883 0.9470274448
-0.02799101733 -0.1568031758 0.7150008678 0.0877848193 -0.09176195413 0.9793730974
-0.02385531552 -0.166305691 0.7173520327 0.05470005795 0.1223506406 0.9339265227
-0.09097089618 -0.21098575 0.7301624417 -0.3175824583 0.1867682934 0.9012284279
-0.08184958249 -0.1980562657 0.7293804288 -0.06093370169 0.2508489788 0.9609928131
-0.0933137238 -0.201889202 0.7262236476 -0.2873236537 0.1829428524 0.9012421966
-0.08107657731 -0.2048408836 0.7321824431 -0.06973487884 0.2892017066 0.9503868818
-0.09970229119 -0.209087044 0.7236154675 -0.4576857388 0.1649246216 0.823813796
-0.06723855436 -0.2020797133 0.727789104 0.01805635728 0.3314833343 0.9406769276
-0.1087821946 -0.2207633406 0.7233398557 -0.6135156155 0.1549621671 0.773278892
-0.1113554314 -0.2123390138 0.7166596651 -0.6455622911 0.108289659 0.7549848557
-0.1181153506 -0.2154908776 0.7133767605 -0.5447753668 0.1293551326 0.8247920275
-0.1039244458 -0.2277708948 0.7276782393 -0.5755565166 0.1306915879 0.806394577
-0.05578908324 -0.1599897742 0.7103940845 -0.2136598229 0.2201953679 0.8987839222
-0.0609761551 -0.1714612693 0.7233709097 0.1960441172 0.2152757049 0.954143405
-0.04769815877 -0.1722406298 0.718084693 0.2574021816 0.3077845871 0.9142223597
-0.05335559696 -0.1657300293 0.7220900655 0.2454997599 0.2824106812 0.9270476699
-0.06924795359 -0.1858362108 0.727281034 0.09935154021 0.2352150977 0.9667113423
-0.06533304602 -0.1782023758 0.7246835232 0.1449631453 0.1947048008 0.969294548
-0.06310074031 -0.1905812621 0.7250121236 0.09786717594 0.2955238223 0.9495159388
-0.05921453983 -0.1955570877 0.72993958 0.07313660532 0.3449470401 0.9325133562
-0.04968187958 -0.1921797842 0.7278474569 0.0800877586 0.3410360515 0.9335442185
-0.05851373076 -0.1469059587 0.7009974122 -0.5840758681 -0.08583411574 0.7478277087
-0.0669414252 -0.1481553316 0.7029148936 -0.5123564601 -0.1975478679 0.7084890008
-0.06824174523 -0.1580270231 0.7138057351 -0.1583560705 0.1379316896 0.8863741755
-0.05972627923 -0.1531724036 0.7066853642 -0.363825351 0.144156754 0.8559743166
-0.02996228822 -0.1204426736 0.7202356458 0.1400815845 -0.3011994064 0.9430395365
-0.03741826862 -0.1117397472 0.7255876064 0.1612726152 -0.3729832172 0.912904799
-0.06165342033 -0.1089191213 0.7280597687 0.1410004646 -0.4284208417 0.8917243481
-0.05296882242 -0.1071887165 0.729667902 0.1601776928 -0.3810380399 0.9094904661
-0.0514418669 -0.1174856499 0.7261766195 0.1451602876 -0.4120683074 0.8935217857
-0.04610957205 -0.1119363904 0.7276492715 0.1735966504 -0.3561712205 0.9181300998
0.02835531719 -0.1268423349 0.7262423635 0.3035854995 -0.5433197618 0.6130124331
0.0238104295 -0.1270293593 0.7338739038 0.2206481993 -0.4374896288 0.7410441041
0.02071652003 -0.136382401 0.7546104789 0.1200127602 -0.2902498543 0.8230277896
0.0322294943 -0.1416254193 0.7449087501 0.3027330041 -0.5117397308 0.4954960942
0.03718510643 -0.1423074305 0.7380799651 0.3889232576 -0.6199128628 0.3553972542
0.02637550794 -0.1214564219 0.720356524 0.2936369181 -0.5417820811 0.6718504429
0.02504244074 -0.1315331161 0.7394774556 0.2213221043 -0.4290555716 0.7037838697
0.03327175602 -0.1329871416 0.7286790609 0.3629106879 -0.6060680747 0.4709548056
0.01945040002 -0.1161492169 0.7215484381 0.2037000954 -0.4334619045 0.8597030044
0.01546869706 -0.1228998527 0.7337192893 0.1528417319 -0.3276755214 0.9109221697
0.03859000653 -0.1433589011 0.7304320931 0.4599351287 -0.6836630106 0.2621939182
0.04551134631 -0.1467530876 0.7301844358 0.5319628716 -0.7858566046 0.1034900025
0.02484694123 -0.1356650591 0.7222661376 0.3714113533 -0.52800107 0.5256435871
0.03178372979 -0.1392842829 0.723990798 0.4311820865 -0.6196548939 0.3783603609
0.01925869472 -0.1337810159 0.7302356958 0.2643514872 -0.4030834436 0.7001535892
0.01497680787 -0.1307199597 0.7216681838 0.2746834159 -0.387459904 0.7462853789
0.02750609256 -0.1380012631 0.7315351367 0.3401422203 -0.5161530375 0.5205608606
0.0134189697 -0.1316675842 0.7372520566 0.1607306004 -0.2797040641 0.8746874332
0.02563259564 -0.1387921274 0.747112453 0.2230168283 -0.4038339555 0.6560942531
0.009370797314 -0.1274671704 0.7172996998 0.2451038212 -0.3296258748 0.8475580215
0.013548797 -0.1210897043 0.7265405059 0.1856526136 -0.3439813852 0.9037464261
0.01470742188 -0.1312629133 0.7523209453 0.06648053229 -0.2173484862 0.9627643228
0.008282906376 -0.1274919659 0.7285037041 0.1603900045 -0.2529012859 0.9459612966
0.02025366947 -0.1308728009 0.76380831 -0.004984013736 -0.1900213063 0.9816028476
0.01103124581 -0.1356674731 0.7625120282 0.05776916072 -0.1685280502 0.9831597805
-0.0002146979969 -0.09314758331 0.7271643281 0.1385487616 -0.6007725 0.7858003378
-0.008295692503 -0.09059977531 0.7285161614 0.1142353192 -0.588732183 0.7974652648
0.04547039419 -0.1221000701 0.7672125101 0.02127757482 -0.2283489108 0.9727106094
0.05673344061 -0.1115018278 0.7693036795 0.145601809 -0.2197223306 0.9587959647
0.04360892624 -0.07782615721 0.7448761463 0.06839522719 -0.5873808861 0.7891750336
0.04758599401 -0.09892593324 0.7582479119 0.08485046774 -0.3740605116 0.8922106028
0.04556677863 -0.113619417 0.7653791904 0.06031190231 -0.2447246015 0.9603065848
0.03806018829 -0.07906855643 0.7359179258 0.1182905883 -0.6550178528 0.7457493544
0.03970685974 -0.1015224904 0.7589997649 0.0508367382 -0.3563987613 0.9032748938
0.03517819196 -0.08119229972 0.7469140887 0.08501940966 -0.56207335 0.7965347171
0.03508144617 -0.09646528214 0.7544506192 0.03294932842 -0.4176273346 0.8710648417
0.04107708484 -0.08724170923 0.7517064214 0.08163639158 -0.4896220565 0.836373806
0.0280482024 -0.1297946274 0.7651154399 -0.03497420996 -0.209318012 0.9771051407
0.03448061273 -0.1239914 0.7661326528 -0.0435426347 -0.2174277157 0.9750934243
0.0006166064413 -0.1652143002 0.7078772783 -0.09574725479 0.2115422189 0.9702929854
-0.009788450785 -0.1639908105 0.7071057558 0.01401518565 0.1360742897 0.9873478413
-0.02819390967 -0.09997053444 0.7278485298 0.1333681047 -0.4316151738 0.8918612003
0.03342408314 -0.1099320203 0.7609288692 -0.008686970919 -0.2942615151 0.9333501458
0.03122367151 -0.07549832016 0.7427905202 0.1183710024 -0.6341587901 0.755472362
0.03154454008 -0.09069968015 0.7507405281 0.06400817633 -0.4856539369 0.832639575
0.02928632498 -0.117317751 0.7630162835 -0.04625215381 -0.212849915 0.9716825485
0.02719146386 -0.1010006964 0.7547425628 0.02345359325 -0.3822061121 0.8822772503
0.02573396452 -0.1103767455 0.7588778734 -0.01444246434 -0.2920840383 0.9266370535
0.01948382333 -0.0885874331 0.7476585507 0.0945988968 -0.5505539775 0.7842453718
0.02041368745 -0.09794863313 0.7515614629 0.05472796783 -0.4546387494 0.8379576802
0.01636001095 -0.08090617508 0.7435138822 0.1358317584 -0.6477992535 0.7297488451
0.01215604506 -0.09519923478 0.7491616607 0.05120446533 -0.5025596023 0.8214495778
0.01890492812 -0.1061289757 0.7556664944 0.002114540897 -0.3611557186 0.8941711187
0.008219573647 -0.08616494387 0.7438285351 0.09878255427 -0.6189476252 0.7592841387
0.01704343781 -0.0890032202 0.7284821868 0.1450189203 -0.6721931696 0.7260068655
0.02384602465 -0.08643834293 0.7314282656 0.1295250654 -0.6817615032 0.7199175358
0.03445933014 -0.08484243602 0.7312842011 0.1227140501 -0.6806364059 0.7221187353
0.02993207797 -0.080804497 0.7357049584 0.1304686666 -0.6684366465 0.7321311831
-0.007086374331 -0.1165327951 0.7170818448 0.1819538921 -0.3640907109 0.9123837352
-0.01305550337 -0.1073427945 0.7227939367 0.1198763549 -0.4281725585 0.8948450685
-0.1197651178 -0.2243344486 0.713090241 -0.56306988 0.1848993152 0.8038762808
-0.1137194708 -0.2268781513 0.7195467353 -0.6023387313 0.1961666346 0.772913754
-0.06776027381 -0.1390331239 0.7244389057 0.2520126402 -0.2263539582 0.8856972456
-0.06660764664 -0.1531027704 0.7230407596 0.3062724173 0.1724902987 0.9161239862
-0.0247310549 -0.1149032414 0.7207433581 0.1493326426 -0.3516039848 0.9238093495
-0.02432646416 -0.1063165069 0.7243592143 0.1334966421 -0.4072520137 0.9030080438
-0.05513808131 -0.1275901943 0.7047660947 -0.46968472 -0.4993094802 0.6466355324
-0.03933142871 -0.1229452267 0.7181329131 0.06108818948 -0.3709013462 0.8885337114
-0.003144268412 -0.09673646837 0.7353051901 0.07881836593 -0.5579813719 0.8112020493
0.002101486316 -0.1227414533 0.7497439384 0.08650387824 -0.3135372698 0.9208580852
-0.007139374502 -0.1156512201 0.7369645238 0.09296850115 -0.3588803709 0.9168365002
-0.01014168933 -0.1046332419 0.7299692631 0.0944743529 -0.4669403434 0.8688393235
-0.001717110281 -0.1170984879 0.7435778975 0.08899017423 -0.3613304794 0.9046599269
3.927302896e-05 -0.1038737968 0.7402516007 0.06971725076 -0.4807074666 0.846806407
0.01217394322 -0.1207073629 0.7568513751 0.01682602987 -0.2666530013 0.9436547756
0.005103141535 -0.1136718988 0.7484189272 0.05354744941 -0.3710844815 0.8955612779
0.007003099192 -0.1281438768 0.7563108206 0.07045508921 -0.2509454191 0.9463167191
0.02275785431 -0.07869902253 0.7387953401 0.1413492709 -0.6724587083 0.7263516784
0.01690412685 -0.08306765556 0.7355484366 0.1486239582 -0.6796115041 0.7183090448
-0.08410510421 -0.1306528151 0.725328505 0.09586942941 -0.2644919753 0.9505383968
-0.07275564224 -0.1241373494 0.7062437534 -0.2448731959 -0.7854115963 0.4562064111
-0.08005511016 -0.1172909141 0.7265460491 0.2613874376 -0.7823026776 0.5591633916
-0.08000272512 -0.1232911721 0.7103174329 -0.07576452941 -0.7609367371 0.4989432096
-0.09042998403 -0.1196750477 0.7230294347 0.3037807643 -0.7069855332 0.6320058107
-0.06045495719 -0.1348323971 0.7003415227 -0.6378960013 -0.4450812936 0.6121838093
-0.06080358848 -0.1330229789 0.7237432003 0.2392168045 -0.4630819559 0.8373171687
-0.05699161068 -0.1504400671 0.7225783467 0.2893018126 -0.01424416341 0.9036836028
-0.04841472581 -0.1382322609 0.7188467383 0.01153199933 -0.3605993986 0.8887278438
-0.0555396378 -0.1410045177 0.7217873931 0.1862961054 -0.2673284411 0.8775982261
-0.04736585915 -0.1238495931 0.7216283679 0.1295642108 -0.3975457549 0.9006875157
-0.05275631323 -0.1301764399 0.7213978767 0.05819272995 -0.50240767 0.8510511518
-0.07213045657 -0.1222820878 0.7264358401 0.219205007 -0.6932350993 0.6793578863
-0.05723243579 -0.1231654584 0.7248988152 0.1066998467 -0.5489167571 0.8229212165
-0.07620965689 -0.1290512234 0.7260493636 0.2182511389 -0.4779871702 0.8192865252
-0.05361003429 -0.1394675076 0.7042910457 -0.5052837729 -0.3388720453 0.7095456719
-0.03674842417 -0.1339166611 0.7107477784 -0.1774596125 -0.3387103975 0.8399319649
-0.03918039799 -0.1383114159 0.7172775865 -0.06053022668 -0.3322072327 0.9345035553
-0.04432325065 -0.1315748543 0.7075183988 -0.3176132143 -0.4020284712 0.7541015744
-0.02635182813 -0.1261328906 0.7161769867 0.07833410054 -0.2615043819 0.946362257
-0.03020260483 -0.1344816685 0.7165507078 0.01907571591 -0.2692973912 0.9613869786
