# .PCD v0.7 - Point Cloud Data file format
VERSION 0.7
FIELDS x y z normal_x normal_y normal_z
SIZE 4 4 4 4 4 4
TYPE F F F F F F
COUNT 1 1 1 1 1 1
WIDTH 512
HEIGHT 1
VIEWPOINT 0 0 0 1 0 0 0
POINTS 512
DATA ascii
0.05565416068 -0.06264288723 0.7256036997 0.02034581453 -0.04773095995 0.9858109951
-0.1805727333 -0.09092860669 0.6685835123 -0.09523395449 0.1714117676 0.9803847075
0.08251464367 -0.06110840663 0.6759867072 0.04155285656 -0.1118558943 0.7092447281
0.07581474632 -0.06679382175 0.6645821929 0.408100158 0.3128809333 0.8546389937
-0.167179063 -0.06920133531 0.6699236631 -0.1960965246 0.07419317216 0.9773386717
-0.02706914954 -0.08823484182 0.6674605608 -0.0155890584 0.1825362295 0.9823294282
-0.1738267988 -0.09738138318 0.6706146002 -0.1293514669 0.2117361277 0.9686421156
-0.1668583006 -0.1036110595 0.6715433598 -0.1594348252 0.2546855807 0.9533637762
0.04083019122 -0.05128555 0.7227050066 -0.06478255242 -0.01390758902 0.9943272471
0.0484761335 -0.0592404604 0.7248575091 -0.03599925712 -0.01247523725 0.9988099933
0.0776008442 -0.02940579131 0.7062687278 -0.2451463342 -0.4855748415 0.7131198645
0.07100236416 -0.03426231816 0.7109517455 -0.07325869054 -0.2956813872 0.7854893804
0.08175586164 -0.02326782979 0.7020862699 -0.3880828321 -0.6386231184 0.6595485806
0.06392540783 -0.05165492743 0.7208130956 0.241658777 0.03349623084 0.8945467472
0.07585348934 -0.0184228383 0.7025135159 -0.3509861827 -0.5821521282 0.6999998093
0.007378083654 -0.1009581313 0.7022593617 0.02216032892 -0.5551677346 0.4307020307
0.009485105053 -0.1012508348 0.7213990688 0.04022581503 -0.2989423275 0.9053872228
0.008903170004 -0.1011420637 0.7120434642 0.03383274376 -0.4342666268 0.6714972854
-0.04740501195 -0.08620907366 0.6717358232 0.2770996988 0.4932393432 0.8193997145
-0.04005284235 -0.08827224374 0.670078814 0.1706757396 0.4431610405 0.8763634562
-0.1598605216 -0.05914041027 0.6708139777 -0.2393532097 0.06693626195 0.9685737491
-0.1328655779 -0.1129715741 0.6952348351 -0.4599589109 0.2988433242 0.8284230232
-0.1496406347 -0.1179848388 0.6836429238 -0.3888236582 0.3123192191 0.8567123413
-0.1417078376 -0.1152463183 0.6857569218 -0.4816505909 0.3139999807 0.8136604428
0.06282630563 -0.008474246599 0.6956237555 -0.2838915586 -0.5992495418 0.7427935004
0.0595946908 -0.04540459067 0.7174727321 -0.108363241 -0.3142545819 0.9043610096
0.06695182621 -0.02234966308 0.7015641928 -0.2907993495 -0.5340464711 0.7620812654
0.05762517825 -0.03306294978 0.7074375749 -0.187035352 -0.3892144263 0.8528344631
0.05932295322 -0.025500549 0.7019560337 -0.2438092977 -0.4575159252 0.8093717098
0.05003377795 -0.04529804736 0.717166245 -0.1000233442 -0.2071212381 0.9374161363
0.05533897504 -0.05076925084 0.7199718952 -0.05241928622 -0.2542533875 0.9496236444
0.04928494245 -0.03352664039 0.7092360854 -0.1917854398 -0.2633198798 0.8797491789
0.05576461554 -0.03906087577 0.7118763328 -0.1425202787 -0.3274472356 0.8888192177
0.07041305304 -0.01137084886 0.6988375187 -0.3510150909 -0.6093105674 0.7099229693
0.08243308216 -0.07091321796 0.6674733758 0.3867949843 0.2410814911 0.8166395426
0.08318507671 -0.04757543653 0.6788696051 -0.2507141829 -0.5075454116 0.6192517281
0.08230302483 -0.06244603544 0.6679190993 0.1625577658 0.0002798454661 0.7658061385
-0.07913178205 -0.05009521171 0.6462548971 -0.6674544811 -0.6852965951 0.118959859
0.06313423067 -0.05996990576 0.724181056 0.2502790689 -0.1827899665 0.7912350893
0.07855091244 -0.05726760998 0.7134696841 0.05430880561 -0.7834790349 0.4646965861
0.07872834802 -0.0618445836 0.7069689631 -0.03920961171 -0.8558148742 0.4212839305
0.08350527287 -0.04055130109 0.6882822514 -0.3799255192 -0.7198640704 0.5615193844
0.08366530389 -0.03842049092 0.6983522773 -0.3382723927 -0.7106080651 0.5727738738
0.08215645701 -0.04671902955 0.6923866868 -0.2895350158 -0.7587665915 0.5212038159
0.08140005916 -0.04946678877 0.7000535727 -0.2122267187 -0.7782241702 0.501884222
0.07392972708 -0.06879304349 0.6788622737 0.4178093374 0.1764421612 0.7817469835
0.07772324979 -0.0591284968 0.685325563 0.08360949904 -0.2860502303 0.6477741003
0.07597227395 -0.06717412919 0.6957663894 0.2142654657 -0.3755685389 0.58018291
0.08017366379 -0.05405780673 0.6938897371 -0.1399826705 -0.6838636398 0.5189157724
0.08036590368 -0.05150422826 0.6864888668 -0.1433316469 -0.5328649282 0.5866407156
0.07601323724 -0.07277945429 0.7180427313 0.1489482373 -0.8860395551 0.361350596
0.07252278179 -0.08050261438 0.684648335 0.2625969052 0.2521063387 0.7097696662
0.07579119503 -0.07593887299 0.7008503675 0.2258792967 -0.3562914133 0.5347516537
0.07677805424 -0.07381875068 0.7096482515 0.1934455633 -0.6559023857 0.4437487423
0.08066479862 -0.07652872056 0.6807333827 0.3498690724 0.1010248885 0.7266567349
0.07880115509 -0.07461442798 0.6888666153 0.3148664832 -0.1135083139 0.6516480446
0.06063993648 -0.083808586 0.7027019262 0.2638315856 -0.4115732014 0.475263834
0.05675017834 -0.08683367819 0.6926349401 0.3090866804 -0.6085577607 0.2777643204
0.06823382527 -0.07850283384 0.7107305527 0.1951826513 -0.4690082669 0.5122562647
0.06807842106 -0.07981022447 0.7015063167 0.1672909111 -0.1285414249 0.58325845
0.0665313229 -0.08187764138 0.6929949522 0.1543599665 0.2123695463 0.6662017107
0.06940986961 -0.07662978023 0.7194949389 0.2123025656 -0.8121048808 0.432025224
-0.07167585194 -0.04849521443 0.6505988836 -0.7336973548 -0.5078725219 0.4325331151
-0.07489582896 -0.03881549463 0.6517394185 -0.67371732 -0.6253901124 0.3874613345
-0.1647138 -0.07925921679 0.6679998636 -0.1866357327 0.09886295348 0.9767301679
-0.1637241393 -0.08829449862 0.669289887 -0.1878644675 0.1489891559 0.9693890214
-0.1591739506 -0.09466804564 0.6713805795 -0.2308726609 0.2011469305 0.949238658
-0.1595926285 -0.06627753377 0.6680000424 -0.2210305333 0.06653032452 0.9727105498
0.05179547891 -0.02161825821 0.6991714835 -0.1744053662 -0.4616375268 0.8217487931
0.05936069414 -0.01456446946 0.6991763711 -0.2614323497 -0.5292688608 0.7726243138
0.04324447364 -0.03835834935 0.7152299881 -0.1419973224 -0.1461300999 0.9280514717
0.05336629599 -0.02497571334 0.7069433928 -0.2263658941 -0.3553550243 0.8373621106
0.05370858684 -0.007726519834 0.6937735677 -0.1896970719 -0.5951514244 0.7806654572
0.04941952229 -0.07343968749 0.7242184877 0.01082827523 -0.2052532583 0.9491573572
0.08038357645 -0.04376508668 0.7084957361 -0.05076759309 -0.6454471946 0.5744503736
0.0714686811 -0.06230255589 0.7211685181 0.4483180642 -0.4958354235 0.5725114942
0.07148029655 -0.05403934419 0.7175760865 0.236622259 -0.336158216 0.6915171146
0.07915310562 -0.05320168287 0.6599127054 -0.5222565532 -0.2540976703 0.7917955518
0.08274023235 -0.06286841631 0.6598883271 0.4280773401 0.1642599702 0.816962719
0.08168205619 -0.04565428197 0.6709645987 -0.5168866515 -0.550311029 0.6480423808
0.08215719461 -0.0540288575 0.6675424576 -0.1031825915 -0.2354527414 0.7163057327
-0.181096673 -0.1031329855 0.6734710932 -0.1338964701 0.2200696915 0.9657877088
-0.02078168094 -0.0987431854 0.6768485308 -0.01682086475 0.4085046649 0.9108987451
0.02876701951 -0.0939142555 0.6882180572 0.2452282757 -0.9584571719 0.08143723011
-0.06362974644 -0.05206865817 0.659065485 -0.7639933228 -0.4210300744 0.4801769555
-0.1771235168 -0.08445311338 0.6694863439 -0.128702879 0.1364817172 0.9804005623
-0.1584343314 -0.07324597985 0.6708097458 -0.2467881739 0.07344251126 0.9654942751
0.0100186225 -0.008530126885 0.6920232773 -0.0675567165 -0.51189816 0.8563697934
0.03495049477 -0.03338221833 0.7108946443 -0.08649354428 -0.2008708566 0.9305768013
0.03121938184 -0.0270292107 0.7044200897 -0.07711540163 -0.3062315285 0.9040004015
0.03038148768 -0.01874134131 0.6982940435 -0.07600536197 -0.4257899225 0.8687238097
0.03516184166 -0.01269979961 0.6969327927 -0.09007938206 -0.489007473 0.8421976566
0.02917940356 -0.01117743552 0.6924512386 -0.07378482074 -0.5368465185 0.8365944624
0.03328345343 -0.03029584885 0.6758176684 -0.02621511929 -0.6201287508 0.7824087143
0.03071784042 -0.03555176407 0.6701046228 0.03582272306 -0.6237059236 0.7789428234
0.03115993552 -0.02348855697 0.6821129322 -0.05907088891 -0.5932190418 0.8021665215
0.03307979181 -0.05233887956 0.7221577168 -0.09616710246 0.01354956254 0.9951262474
0.03719048202 -0.06005717441 0.723474443 -0.08435679972 0.001255072071 0.9960227609
-0.01424297411 -0.09617275 0.6739979386 -0.1331516504 0.2653393745 0.9500304461
-0.007352746092 -0.09930413216 0.6755914092 -0.209229812 0.2902490795 0.9314961433
-0.03684341535 -0.09421459585 0.6756291986 0.1982818246 0.5320362449 0.8203474283
-0.01557645015 -0.1018473655 0.6822558641 0.08009473979 -0.008179384284 0.5210709572
0.0005033651832 -0.101137124 0.6823642254 0.03573362157 -0.7523114085 0.06875671446
-0.002095181262 -0.1011253148 0.7037628293 0.00514124427 -0.2700147033 0.5798399448
-0.00114917336 -0.1009219736 0.7139267325 -0.02436140366 -0.1188469157 0.7853156924
-0.008630819619 -0.1013210565 0.7077947855 0.009892891161 0.1170988977 0.8635576367
-0.0113381464 -0.1016776711 0.6925435662 0.05722879618 -0.04877062887 0.5929155946
-0.008584932424 -0.1016983315 0.6845122576 0.07220584899 -0.3339368999 0.3281244934
-0.02466261201 -0.1023563668 0.6835912466 0.1129566878 0.4093865454 0.7774149776
-0.002107124077 -0.1013360843 0.6908481717 0.03979488462 -0.5184311271 0.2839327455
-0.0008709328831 -0.1007815674 0.7213688493 -0.04358077049 0.01593902893 0.9526067376
0.009642185643 -0.1003782079 0.6863575578 0.07149190456 -0.9963123798 0.001970456913
0.01165048033 -0.08375753462 0.7217196226 -0.07395396382 0.01207057014 0.9960178733
0.004079585429 -0.09463524818 0.721763432 -0.04819483683 0.06147479638 0.9969431758
0.0646237731 -0.03418460116 0.670948863 -0.1991929561 -0.7280828953 0.6507974267
0.07799655199 -0.03258060664 0.6861352921 -0.3978222013 -0.6928978562 0.5999122858
0.0831501931 -0.0323709324 0.6918270588 -0.4095498323 -0.6830332875 0.6031994224
0.07228925824 -0.03841458261 0.6703045368 -0.2932968438 -0.7034332752 0.6467449069
0.07111352682 -0.03083262034 0.6825723648 -0.3375836015 -0.7097154856 0.6158750653
0.08082035184 -0.03971333057 0.6784858108 -0.4105198681 -0.6773380637 0.6053852439
-0.01968926005 -0.07854516804 0.66796875 0.003137959866 0.09003424644 0.9890760779
-0.01278506592 -0.06504973024 0.671143651 0.09032703191 -0.02268616855 0.9925370216
-0.1587744653 -0.1200370863 0.6799904704 -0.2914966643 0.3134440184 0.9030773044
-0.1806879044 -0.1110953093 0.6760649681 -0.1566474736 0.2514757812 0.9547225237
-0.1646856219 -0.1088326797 0.6781240702 -0.2812851369 0.271243006 0.9114426374
-0.1722611636 -0.1094671488 0.6743193865 -0.1742058098 0.266722858 0.9468235373
0.07726618648 -0.078306593 0.6718310118 0.3668302 0.4366512001 0.8181129694
0.0724363178 -0.07306931913 0.669395566 0.3303223848 0.4019000232 0.8449963927
0.06994216889 -0.08074000478 0.6761493683 0.2946667075 0.5154563785 0.8029295802
0.06775086373 -0.06226035953 0.6633837819 0.3008740246 0.2871631682 0.9052549601
0.0639103651 -0.07367446274 0.6740050316 0.2507278025 0.4673215151 0.8362332582
0.06122756749 -0.06692552567 0.6714654565 0.152288273 0.2232971936 0.846419394
0.02249640785 -0.06580101699 0.6777082682 0.2226910442 -0.6894274354 0.5278527737
0.01969400607 -0.05285900459 0.6716195345 0.1646977663 -0.5601836443 0.7315773964
-0.04332394898 -0.1029548123 0.6893898249 0.2211329937 0.6270871162 0.7445887923
0.01130368188 -0.0758927986 0.7213669419 -0.09125989676 -0.006080931053 0.9951559901
0.01796721295 -0.06168955937 0.7216682434 -0.1132260188 -0.01100703143 0.993409574
0.02455530316 -0.05624023825 0.7220080495 -0.1203408316 -0.0042458307 0.9926760793
0.02586358413 -0.04856585339 0.7188615799 -0.0987052694 -0.03938525543 0.9812321067
0.02029215917 -0.04546125606 0.7148513198 -0.1018940508 -0.1122794673 0.961666584
0.02220126241 -0.0381966047 0.7098680139 -0.0925327912 -0.2012146711 0.9365305305
0.03355339915 -0.04050422087 0.7149719 -0.08204612881 -0.10764727 0.9610346556
-0.1492804438 -0.07329933345 0.6720713377 -0.3042440414 0.09946922958 0.9459628463
-0.1528180242 -0.06167600676 0.66843611 -0.2424148321 0.07676120847 0.9666417241
-0.1450532824 -0.06692223251 0.6731834412 -0.3003843129 0.115067929 0.9464945793
-0.1498721093 -0.04789363593 0.6712614894 -0.2499693334 0.1358792484 0.9585989118
-0.1403714269 -0.04294546694 0.6726782918 -0.2571949661 0.1630471349 0.952250421
-0.06907371432 -0.05933394283 0.6519190669 -0.7242972851 -0.4449761212 0.3686645627
-0.0177024696 -0.05910950154 0.6728775501 0.08924290538 -0.05148654431 0.9944251776
-0.0712389648 -0.02706759423 0.6684244275 -0.3031307459 -0.3546250165 0.7128129601
-0.07280600071 -0.02156015672 0.6766833663 -0.1300259829 -0.2392577976 0.8844803572
-0.07151810825 -0.03288742155 0.6612077951 -0.4992464483 -0.4687818885 0.5571898818
-0.03552081436 -0.07291898131 0.6688376665 -0.2261506468 -0.06561807543 0.9325088859
-0.02594473399 -0.06768692285 0.6735871434 -0.04778011888 -0.07562976331 0.987729907
-0.03967670351 -0.08005664498 0.6671888232 -0.1319913119 0.05284861103 0.9491119981
-0.08221632987 -0.05455346778 0.6518834233 -0.4223417044 -0.7037709951 -0.03209696338
-0.0852298215 -0.07014724612 0.6788737774 0.01792925224 0.03308709711 0.7933194041
-0.0834414959 -0.06470136344 0.6685504317 -0.1474736631 -0.253675729 0.4739438891
-0.07575978339 -0.05947842076 0.6561286449 -0.5024367571 -0.4885739386 0.2530529797
-0.06809856743 -0.06466461718 0.6603853106 -0.6183789968 -0.2473357916 0.5763654709
-0.08217398822 -0.0597230345 0.6599091887 -0.3003216684 -0.4807378948 0.2222234458
-0.07717141509 -0.06411701441 0.6643019915 -0.3529540896 -0.2771279812 0.4860266149
-0.1546879709 -0.1040409878 0.6744263172 -0.3264718354 0.2596487403 0.9076933861
-0.1466690153 -0.09485460073 0.6757249236 -0.4429841638 0.2170086801 0.8673229814
-0.1458867937 -0.08584215492 0.6746996045 -0.3922852278 0.1462255418 0.9065722823
-0.1531061828 -0.08952909708 0.6724796891 -0.3091682196 0.1515710801 0.9335507751
0.02475352213 -0.07378893346 0.681463182 0.2559172809 -0.7756570578 0.3982675076
0.01418809593 -0.04568308592 0.6677579284 0.1407139897 -0.4232264757 0.8856524825
0.01400936116 -0.05887176841 0.6731618047 0.1967806667 -0.4905888438 0.7199651003
0.00743134087 -0.052587118 0.6692541242 0.1726679802 -0.3313425481 0.8806659579
0.04360448197 -0.02234269865 0.6991282105 -0.1065117717 -0.4338662624 0.8511858582
0.03923681378 -0.02684122138 0.7072668672 -0.09758853167 -0.2875040174 0.9016836286
0.04400917888 -0.01006537117 0.6962183714 -0.1107594967 -0.5213723779 0.8288608193
0.03781974688 -0.01984618232 0.7023131847 -0.09533486515 -0.3861385882 0.8721339107
0.03680299595 -0.01722224802 0.6867836118 -0.08003269881 -0.5622215867 0.8229503632
-0.01490381174 -0.09681277722 0.7065876126 0.01904939301 0.2280453444 0.940207541
-0.01913600788 -0.1017458811 0.6957383156 0.06686882675 0.3754273057 0.8911837935
-0.007709791884 -0.0977171883 0.7163556218 -0.02171925083 0.1218254045 0.9761839509
-0.01300672349 -0.09310477972 0.7128483653 -0.008913505822 0.1387316287 0.9698122144
-0.01484723948 -0.08548799157 0.7147368789 -0.04030335322 0.1086115018 0.9709308743
-0.02885749191 -0.09435556829 0.7048454285 0.08423346281 0.3537197113 0.8586342931
-0.0212425869 -0.0932539627 0.7109107375 0.03749653324 0.2297057807 0.9165080786
-0.0280621741 -0.09828246385 0.698708415 0.1037582904 0.4111754596 0.8475606441
-0.03929549456 -0.1008371115 0.6971938014 0.1763681918 0.5381025076 0.7746055126
0.06278076768 -0.08517698199 0.6837922335 0.1659500599 0.451282233 0.6951054931
0.05056428537 -0.08961272985 0.6891803145 0.3169522285 -0.669567585 0.2165272981
0.04124181345 -0.09020979702 0.6867417693 0.3023639023 -0.6647424698 0.2334931046
0.05507891253 -0.08094062656 0.6813355088 0.2207647413 0.2518535554 0.6639401317
0.04270983115 -0.08052513748 0.7238593102 0.01278754417 -0.2237598598 0.9659324288
0.03570141271 -0.08367732912 0.7226644754 -0.06257387251 -0.07051548362 0.9931667447
0.03466837853 -0.06914143264 0.7234220505 -0.0975234732 -0.0250125844 0.9947683811
0.05123905838 -0.08657804132 0.7048367262 0.2872806191 -0.827747941 0.342943728
0.04943133518 -0.08455695212 0.7141910195 0.1980075985 -0.6457079053 0.5861982703
0.05147617683 -0.08227916807 0.7216545343 0.1866114736 -0.6623581052 0.6645033956
0.05778367072 -0.0825631395 0.7174753547 0.2836665213 -0.8227593899 0.4540613592
0.03231951222 -0.09199792147 0.7083204985 0.3070702255 -0.7702352405 0.459474802
0.0417009145 -0.09108129144 0.6959221363 0.3099519312 -0.886867106 0.2007634044
0.04017591476 -0.08821571618 0.7101351619 0.2074853331 -0.6288092136 0.5608671308
0.03176378086 -0.08991272002 0.7177117467 0.2345097959 -0.5936341286 0.7005243897
0.02058937028 -0.09556984901 0.7172126174 0.2329996973 -0.6294498444 0.6936151981
0.02377892472 -0.0942652747 0.7096591592 0.2719713449 -0.7512018085 0.4992218018
0.02022356912 -0.09634338319 0.6939159632 0.1944530904 -0.9177316427 0.1737668216
0.01922353543 -0.09752696753 0.7036919594 0.1834059209 -0.7568469644 0.422416687
0.0134551404 -0.09165086597 0.7205397487 -0.05548039824 0.02800206095 0.9979835749
0.01312688459 -0.09949377179 0.6966974735 0.1084078923 -0.852928102 0.2618301511
0.0665691644 -0.02511798963 0.6860944033 -0.2955355346 -0.6760457754 0.6724547148
0.0598407723 -0.02109199762 0.6861656904 -0.2360466123 -0.6703279018 0.6919357181
0.05707073212 -0.01607290097 0.6905074716 -0.2073447555 -0.6183751822 0.752817452
0.07621613145 -0.02165362239 0.6951155663 -0.4032437801 -0.6278797388 0.6653398871
0.08328299969 -0.03176117688 0.7021015882 -0.3529470861 -0.5963635445 0.6517573595
0.07036666572 -0.0457123369 0.7154149413 0.06233594194 -0.1606003195 0.8187385201
0.0710991621 -0.04846480861 0.6595854163 -0.3470541537 -0.4131838977 0.8373278379
0.06780651957 -0.0411407575 0.6640900373 -0.2317843288 -0.6107990742 0.7326880693
-0.02955039404 -0.09735833108 0.6777002811 0.1082219481 0.4763013721 0.8705961108
-0.03312212974 -0.1026913002 0.6835609078 0.1577173173 0.5896757841 0.7907915711
-0.008722432889 -0.09126765281 0.6755470634 -0.1656373888 0.234196797 0.9562115073
-0.008091210388 -0.07190320641 0.6729383469 0.00788702257 0.06098360568 0.9785057306
-0.002545937197 -0.06490736455 0.6709023118 0.05321430787 -0.05637393147 0.9636710286
0.01518586837 -0.07415441424 0.6791325212 0.2053294927 -0.5449876189 0.5503014922
0.007549128961 -0.06736253202 0.674456358 0.1452804208 -0.3321808577 0.7545015812
-0.006353732198 -0.08347801119 0.6750892401 -0.09903776646 0.1316824555 0.9437368512
0.01469270326 -0.08665079623 0.6829844117 0.1401393265 -0.4965263009 0.4805944562
0.02422817051 -0.0822802335 0.6846962571 0.2760332227 -0.7967370152 0.3079803288
0.0004503764212 -0.07241281867 0.673758924 0.03559727967 -0.1038644984 0.8714920878
0.0009443641757 -0.07948450744 0.6761912107 0.008044028655 -0.0998282209 0.8157798648
0.004431868903 -0.05994480848 0.6710558534 0.1427878439 -0.2577832043 0.867624104
-0.01684966125 -0.085745655 0.6693555713 -0.04628419876 0.1395035535 0.9848176837
-0.01221694611 -0.07856371999 0.671472311 -0.02021708712 0.1028244719 0.9816967249
0.002160314703 -0.09090125561 0.6802048087 -0.0119036166 -0.2995513082 0.5522633791
0.01669126004 -0.09438219666 0.6867413521 0.1412087381 -0.9774441123 0.03200969845
0.03318547457 -0.08612072468 0.6875697374 0.324501425 -0.9290924668 0.1311444044
0.03665935993 -0.04139564186 0.6669408083 0.03847108036 -0.6594439745 0.7503804564
0.0467453897 -0.03830010816 0.6659896374 -0.01440365147 -0.6797001362 0.732116878
-0.05082414672 -0.1029837653 0.691618979 0.2356296033 0.6170203686 0.7492519617
0.01089660544 -0.06799741834 0.720815599 -0.1097350195 -0.01421248261 0.9938054085
-0.07187837362 -0.09974355251 0.6915661693 0.1802530736 0.4503995478 0.8726748824
-0.08245191723 -0.1016014889 0.6941673756 0.1764571071 0.4330337048 0.8836833239
-0.1474511325 -0.05771150813 0.6725836992 -0.2682836652 0.1273345351 0.9541732073
-0.1350810677 -0.06451334804 0.6756897569 -0.3305072188 0.1972691864 0.9226493835
-0.1346618086 -0.07956749946 0.6779196262 -0.4708912373 0.2377052754 0.8471137881
-0.1377607137 -0.07326664776 0.6775761843 -0.3812056184 0.1971166134 0.8955340385
-0.1441402137 -0.07776697725 0.6745186448 -0.358505398 0.1331926286 0.9226645827
-0.08349915594 -0.04736633226 0.6837540269 0.03678880259 0.08566588163 0.9814102054
-0.09101910144 -0.05184623227 0.6823172569 -0.04073959589 0.1438893825 0.9849591255
-0.120653145 -0.04862091318 0.6767556667 -0.2603862286 0.2200169116 0.9396325946
-0.1066619903 -0.04914978519 0.6648356915 -0.3514686823 -0.1897903979 0.5112831593
-0.08588795364 -0.0476754643 0.6478573084 -0.5258016586 -0.7351838946 0.005383552052
-0.1166119203 -0.04534248635 0.668674469 -0.3114835024 -0.0005379238282 0.754621923
-0.09808790684 -0.04802473634 0.656788826 -0.4228117466 -0.4442675412 0.274061203
-0.1280512363 -0.04850167036 0.6742047668 -0.2585359514 0.1973983347 0.9455320835
-0.05561474711 -0.06183674186 0.6638958454 -0.7046889067 -0.3089933991 0.603890419
-0.06091021374 -0.06434630603 0.6580316424 -0.7902682424 -0.3349834979 0.5108348131
-0.04861955717 -0.07344086468 0.6639515162 -0.4234648645 -0.1387714446 0.7652763128
-0.04765764996 -0.08094549924 0.6660067439 -0.008752280846 0.251087904 0.7992655039
-0.0560397692 -0.07340735942 0.66276443 -0.3924322128 -0.05753927305 0.6063457131
0.0007813819684 -0.03096952662 0.6994245648 -0.08863797039 -0.2574951947 0.9328351021
0.002065180335 -0.01504152082 0.6901347041 -0.06883934885 -0.437987715 0.8866146803
8.2593353e-05 -0.02456523664 0.6946277618 -0.07967223227 -0.3303614855 0.9161835313
0.007862903178 -0.01726456732 0.6966534853 -0.07654738426 -0.4113487005 0.8835583329
0.009408905171 -0.02418347448 0.7007570267 -0.08648011833 -0.3409604132 0.8995575905
0.008481131867 -0.03706840053 0.7085077167 -0.1026198119 -0.1942555755 0.9368287921
-0.00534410961 -0.05130432174 0.7022637129 -0.06651588529 -0.08093718439 0.9827362299
0.002664451487 -0.05861358717 0.7186509371 -0.1206922606 0.02022339031 0.9918512702
-0.002786497353 -0.06517548859 0.7177187204 -0.117972903 0.02917184494 0.9924980402
0.0003509070375 -0.05385783687 0.7115741372 -0.09721329808 -0.02683235146 0.987647891
-0.006270515732 -0.05712563172 0.7062748075 -0.07998624444 -0.04767941684 0.9856407046
-0.007129879668 -0.04340177029 0.6930520535 -0.03586496413 -0.1457961202 0.9769788384
-0.05690934882 -0.04667758569 0.6659203172 -0.4156634212 -0.3695980608 0.6679874659
-0.03517157957 -0.09211543202 0.6968699098 0.1047820598 0.3800476491 0.8357997537
-0.02012573369 -0.07884709537 0.7053860426 -0.04722285271 0.06409785897 0.9737334251
-0.03539543971 -0.07902822644 0.6819731593 0.008173560724 0.01049960777 0.9571452737
-0.0397076942 -0.0885578692 0.6858995557 0.09436100721 0.2623872757 0.8644171953
-0.02495709062 -0.08658400178 0.7065165043 0.02745967545 0.2634858191 0.8971508741
-0.03037893958 -0.08302097768 0.6941702962 0.0201330781 0.1422664821 0.924954474
-0.03030469827 -0.07629296929 0.6868047714 -0.03020254523 -0.04698675871 0.9875218272
-0.1467462182 -0.1044496968 0.6808515787 -0.4552932382 0.2703573406 0.8445920944
-0.005164279137 -0.05517945439 0.6702730656 0.135223791 -0.1269273907 0.9779208899
-0.01018876396 -0.0466885753 0.6726621985 0.1258628964 -0.191164121 0.9726086259
0.05737807602 -0.07694730908 0.7238226533 0.1697297543 -0.6367147565 0.7128508091
0.0652532503 -0.0691133365 0.7240285873 0.01650667377 -0.8454300761 0.5316991806
0.02897532843 -0.09314351529 0.6998058558 0.3009564281 -0.8606553674 0.2974254489
0.05570523068 -0.03570001572 0.6656833291 -0.06761144847 -0.709474802 0.7003510594
0.06134744361 -0.02940945327 0.6779401302 -0.2243102938 -0.7414272428 0.6251345873
0.04092520103 -0.08278615773 0.6848244071 0.2859414816 -0.5074442029 0.32997033
0.05013296008 -0.06488186866 0.674975276 0.1515679955 0.08801026642 0.773827672
0.03725821152 -0.07404991984 0.681399405 0.2417247593 -0.6838575602 0.3636106253
0.03733753785 -0.04878238589 0.6696853638 0.08588095009 -0.5826115608 0.7004606128
0.04800616205 -0.07943695039 0.6820752025 0.246785149 -0.08940603584 0.5331325531
0.0398176536 -0.0655528903 0.6770315766 0.182690382 -0.5048684478 0.5336697102
0.04416273907 -0.05792393908 0.672763586 0.1243310198 -0.227015391 0.7322496176
0.04651331902 -0.07176747918 0.6787763238 0.2034506798 -0.1454830766 0.6013689041
0.03691712394 -0.05889306217 0.6744384766 0.1492579877 -0.6453669667 0.5569581389
0.04575388506 -0.04732488096 0.6680043936 0.03823943064 -0.5226068497 0.7449138165
0.05606546253 -0.07088072598 0.6768193841 0.1702067852 0.332946986 0.7998653054
0.0317492485 -0.06766437739 0.6789188981 0.2195293009 -0.7924306989 0.4086556137
0.0292736087 -0.06118543446 0.6758796573 0.1888349056 -0.7262002826 0.5233388543
0.03024314903 -0.05449639261 0.6727359891 0.1443925351 -0.6922543645 0.6120843291
0.04089227691 -0.07344064862 0.7236065269 -0.05568967387 -0.04563677683 0.9968370795
0.06605380028 -0.0543211326 0.6611911058 -0.1436408609 -0.1739738584 0.9683200717
0.07426251471 -0.05898470432 0.6594225764 0.1201491877 0.1064863428 0.9618185163
-0.003477103775 -0.08755347133 0.7206150889 -0.06217187643 0.06211673468 0.9960730076
0.01071488485 -0.05663887784 0.7205539942 -0.1194751635 0.009261278436 0.9927016497
0.008324077353 -0.05007284135 0.7165961862 -0.1178316399 -0.04663348943 0.9752573967
0.01529236324 -0.02150460519 0.6975432038 -0.08351561427 -0.3993947506 0.8838664293
0.018795643 -0.03302450106 0.7055661678 -0.09120131284 -0.2728782296 0.9175655246
0.02172804624 -0.01641865633 0.6939866543 -0.07140349597 -0.4776394665 0.8601109982
0.02481061779 -0.04287465662 0.6675377488 0.09684751928 -0.5669846535 0.816416204
0.007364120334 -0.02720948495 0.6771662831 -0.008206100203 -0.4844670892 0.8733434081
0.009757704102 -0.03353041038 0.673260808 0.04578141123 -0.4669279456 0.8791322708
0.01664416306 -0.03494271636 0.6714350581 0.05431667715 -0.5267965198 0.840082109
-0.05817700177 -0.1028561965 0.6920804381 0.2147414982 0.5422623158 0.8082894087
-0.06555777788 -0.1036478654 0.6944032311 0.1566520929 0.473172009 0.866871357
-0.140040502 -0.1063565388 0.687086463 -0.5540483594 0.3011960983 0.7755042315
-0.07998503745 -0.09287041426 0.6938192248 0.1618540734 0.3731997013 0.9063062668
-0.1327478737 -0.05655088648 0.6749818921 -0.2812343538 0.2170174867 0.9336758852
-0.1252436191 -0.05647760257 0.6773191094 -0.2793171406 0.2436571419 0.9277663231
-0.1275964379 -0.09166096151 0.6920295954 -0.478535831 0.3100878894 0.8207181096
-0.1381939799 -0.09266596287 0.678404212 -0.5496451259 0.2606717348 0.7914502621
-0.08660292625 -0.03878904507 0.6832507849 -0.06898918748 0.07771863788 0.9937278628
-0.1093288809 -0.05426276103 0.6747177243 -0.3050525188 0.06103133783 0.7342024446
-0.09970162809 -0.06197465956 0.6814648509 -0.06165144593 0.2016537338 0.934094429
-0.08840434253 -0.05405749753 0.6568659544 -0.3979052603 -0.5342979431 0.1367793679
-0.09476557374 -0.05690260604 0.6675635576 -0.2711991668 -0.2087797821 0.4831554294
-0.1003229022 -0.05853448436 0.6752400994 -0.1936555654 0.02855804563 0.7314668298
-0.09295667708 -0.06086000428 0.6738408804 -0.1221394911 -0.03868409991 0.6877905726
-0.07145807147 -0.04519722611 0.6838721633 0.1582370251 -0.02123183012 0.9813312292
-0.0458650589 -0.09388809651 0.6868910789 0.1910027415 0.4304091632 0.8073590994
-0.009673825465 -0.06810809672 0.7124117613 -0.1006106362 0.0228357669 0.9932748079
-0.01601570658 -0.06224299967 0.7013371587 -0.08826991171 -0.01921536587 0.9932137132
-0.04787231237 -0.0629067868 0.6674820185 -0.4709973931 -0.2167731822 0.7962337136
-0.06668581814 -0.05213269591 0.6822668314 0.3074355125 -0.1078652516 0.9356372356
-0.07179050893 -0.06718122214 0.6854134202 0.297499299 0.1440157294 0.9383577108
-0.06586743146 -0.08969316632 0.6893148422 0.2641045749 0.3916862607 0.8678898811
-0.06998555362 -0.07627169043 0.6861437559 0.3182864785 0.2451847047 0.9124410748
-0.07471375167 -0.08650604635 0.6893236637 0.2398619801 0.3234952092 0.9072354436
-0.08622918278 -0.09461447597 0.689569056 0.1814274192 0.4059939682 0.8955146074
0.02697086334 -0.07504499704 0.7226008177 -0.1123026982 -0.03624949232 0.9929251671
0.02290017158 -0.08801744878 0.7211390138 -0.02336768806 -0.08152911812 0.9734318256
0.01920252852 -0.07693501562 0.7220855951 -0.0997556448 -0.02739951201 0.9945446849
0.05096716061 -0.02027587034 0.6867343783 -0.123951152 -0.5935760736 0.7950134277
0.04930302501 -0.01353318337 0.6902230978 -0.1435868293 -0.5873740315 0.7952720523
0.051178772 -0.03015190735 0.6761594415 -0.06066262349 -0.7077351213 0.7027310133
0.04581062123 -0.02577512711 0.681920588 -0.09131031483 -0.6351907849 0.764524281
0.04399369285 -0.03125538677 0.6748766303 -0.03555421531 -0.6803706884 0.7315019965
0.05337390304 -0.04363480955 0.6637501121 -0.05264424905 -0.6651343703 0.7439192533
0.06079911068 -0.04381236807 0.6615575552 -0.1424892992 -0.5752013922 0.7817432284
0.05911495909 -0.0507735014 0.6640360951 -0.1039575338 -0.5088645816 0.8480444551
0.05634430423 -0.05985383689 0.6705315709 0.0388154611 -0.1255621761 0.8138392568
0.04986643791 -0.05401873961 0.6702972651 0.06744163483 -0.2878260911 0.7610619664
0.02810721099 -0.06350683421 0.7230722904 -0.1160445958 -0.02264515683 0.9928654432
0.000915618788 -0.03369958326 0.6751499176 0.0491787456 -0.3788340688 0.9190767407
0.00470968103 -0.04041003436 0.6711031199 0.104972668 -0.3606708348 0.922329545
-0.005486792885 -0.03807562962 0.6745048165 0.07233974338 -0.2871155739 0.9531642199
-0.001696581719 -0.0444326289 0.6711161137 0.1178784445 -0.2596459985 0.9558985829
-0.009898669086 -0.03924249485 0.6865056753 -0.01676195674 -0.189530924 0.9728522897
-0.01247179694 -0.0343747884 0.681619823 -0.01249755267 -0.2286437601 0.9684002399
0.007249299437 -0.01893484034 0.6830762625 -0.05678999797 -0.4796993136 0.8751396537
0.02319115587 -0.01753162593 0.6851677299 -0.06478056312 -0.5388156176 0.8398180604
0.01608867571 -0.02011236921 0.6827053428 -0.04906248301 -0.5167148709 0.8542177081
0.02245110646 -0.007608558517 0.6923100352 -0.07439446449 -0.5490452051 0.8322584629
0.02483516 -0.02663237415 0.6790472269 -0.02637217939 -0.5835373998 0.810983777
0.02364045568 -0.03270723671 0.6737323403 0.02613252774 -0.5856859088 0.806319356
0.01744355634 -0.02853423916 0.6781678796 -0.009094431065 -0.5377840996 0.8416630626
-0.1338717341 -0.1061570197 0.6909301281 -0.5667274594 0.2834644318 0.7731362581
-0.1205682606 -0.1059873402 0.6971877813 -0.3268796802 0.3023556769 0.8879429102
-0.08224559575 -0.1083517224 0.7011590004 0.1320314854 0.4706574678 0.8709694743
-0.0701123327 -0.1072775275 0.699793756 0.1526748538 0.519105792 0.8406903148
-0.0818195194 -0.08831278235 0.6867341399 0.1740991324 0.3318758607 0.9252929688
-0.07535430789 -0.07891094685 0.6769073606 -0.1290232241 0.1053773463 0.8166157007
-0.07811531425 -0.07223921269 0.6759957075 -0.1595692039 0.04408293962 0.8336048126
-0.08243982494 -0.07706340402 0.6824637055 0.04125578329 0.1650309712 0.9180921316
-0.07228906453 -0.07168649137 0.6686765552 -0.390668422 -0.07050958276 0.7131959796
-0.1275283098 -0.06560954452 0.6795709133 -0.323946178 0.269684881 0.9050832987
-0.1185236126 -0.08944221586 0.6939041018 -0.2536348403 0.339910686 0.9000347853
-0.07805080712 -0.02498998307 0.6824107766 -0.03510348871 -0.06057713926 0.9930169582
-0.1329962313 -0.04149619117 0.6724452376 -0.2535053194 0.1907631457 0.9483255744
-0.1249112487 -0.03673386201 0.6725552082 -0.2511659265 0.2008097023 0.9468790889
-0.1046907529 -0.04572826624 0.6813169718 -0.1908850372 0.1703163683 0.9665864706
-0.0561450161 -0.022488961 0.6835114956 0.08660101891 -0.1443144232 0.9853297472
-0.06322679669 -0.01877223141 0.6831063032 0.02855504304 -0.09730289131 0.9940603375
-0.01832893305 -0.01799801551 0.6817814112 -0.02757466026 -0.3328120112 0.9409819841
-0.04101053625 -0.05067916587 0.6761755943 -0.04821341485 -0.1708711088 0.9784740806
-0.03802579269 -0.05494108424 0.6706454754 -0.2558537126 -0.1693952084 0.8195109963
-0.0496818684 -0.0554064773 0.6673540473 -0.5548245907 -0.2677504122 0.6574534178
-0.04888370633 -0.04951389506 0.6713593602 -0.2514261901 -0.2603271306 0.8112888932
-0.03968784958 -0.05924640596 0.6763839126 -0.1154107973 -0.1625388414 0.978464663
-0.03489989042 -0.07196252793 0.6777595878 -0.05451437831 -0.1067553833 0.9914918542
-0.02543158457 -0.07586786151 0.6940389276 -0.05111046508 -0.03548904508 0.9943426251
-0.01948452741 -0.07082880288 0.7031606436 -0.07926013321 0.003556845477 0.9935145378
-0.03241747618 -0.06361009926 0.680621922 -0.0961202383 -0.09637975693 0.9884724021
-0.02303164266 -0.06767270714 0.6968817711 -0.07464010268 -0.02123072557 0.9932125211
-0.02643905208 -0.0649523139 0.6908759475 -0.07264938205 -0.04573616013 0.9926362634
-0.01400703192 -0.07583351433 0.7128673196 -0.08742424101 0.04154198244 0.9938604832
-0.03929771483 -0.06588228047 0.6702755094 -0.282995075 -0.1599361897 0.9134891033
-0.03236622736 -0.06029930338 0.6721056104 -0.1109467298 -0.1106453091 0.9529371262
-0.02497170307 -0.05987747386 0.674474597 0.02109731175 -0.07991039008 0.9944892526
-0.05659471452 -0.08500769734 0.6747518182 0.280902952 0.4499549866 0.8430880308
-0.06229962036 -0.08379604667 0.6870658994 0.3291569948 0.3514426053 0.8635417819
-0.06469448656 -0.08102107793 0.6757420301 0.01562911458 0.2279959768 0.8079745173
-0.05970677361 -0.07743082941 0.6691943407 -0.1558521539 0.1104527116 0.7089087963
-0.05565423146 -0.09200945497 0.6858463287 0.3206702769 0.4825401008 0.8046954274
-0.0492762439 -0.07980588078 0.6822410822 0.180799216 0.1572764814 0.9149697423
-0.04316079617 -0.07155499607 0.678658843 -0.009367716499 -0.08263060451 0.9704077244
-0.04785357788 -0.06223053858 0.6765139103 -0.09640341252 -0.1701756716 0.9788146019
-0.05943693221 -0.06118277833 0.6801676154 0.09583114088 -0.06393280625 0.9737276435
-0.07037618756 -0.05912027135 0.6850768924 0.2735445499 0.0410505496 0.9542550445
-0.05407291651 -0.067032516 0.6789702773 0.05345582217 -0.03621191904 0.9612035751
-0.05933370814 -0.07180083543 0.6826873422 0.206284821 0.1082372069 0.9223034382
-0.1169200614 -0.07746838778 0.6853666902 -0.1912649572 0.296113342 0.925937295
-0.1240315139 -0.07561911643 0.682499826 -0.3147454858 0.282555908 0.8931894302
-0.003350001061 -0.02489958331 0.6858629584 -0.05437323079 -0.3700379729 0.9158548713
0.003225092776 -0.04599847272 0.7096495628 -0.10370785 -0.09866134822 0.9686864614
-0.01014592778 -0.02965280972 0.6896241307 -0.05591128394 -0.25267905 0.9530623555
-0.002305692993 -0.03098836169 0.6913218498 -0.06358810514 -0.2953003943 0.9321461916
-0.002831388498 -0.03896672279 0.7006642222 -0.08177988231 -0.1652062237 0.9625028372
-0.008075281046 -0.02410929464 0.6796265841 -0.02645102143 -0.3801464736 0.9237220287
-0.006304101087 -0.01700519957 0.6836844683 -0.05751097947 -0.4167339206 0.9061855078
0.0007139861118 -0.08108718693 0.7201362252 -0.07258222252 0.04614248872 0.9959766269
-0.00784615241 -0.07609140873 0.7178337574 -0.0914266631 0.05685478076 0.9941604137
0.004637347069 -0.07180322707 0.720241487 -0.09355492145 0.01639392599 0.9949892759
-0.1225127578 -0.1128419861 0.6987566352 -0.3748739958 0.2675447762 0.876873374
-0.1154662296 -0.1123775765 0.7025372982 -0.234582901 0.2811506093 0.9298259616
-0.1222649366 -0.09763742238 0.6958405972 -0.3652644157 0.3126537502 0.8681620955
-0.1145194247 -0.1000343338 0.698648572 -0.1919757724 0.3217593431 0.9265267253
-0.09803246707 -0.1114578843 0.7031361461 0.02958942577 0.4404532909 0.8955366611
-0.1061500683 -0.1115430817 0.703220427 -0.08457753807 0.39088732 0.9140706062
-0.1048930883 -0.1040551811 0.7003296018 -0.01337179262 0.415589869 0.909065783
-0.09364181757 -0.09104138613 0.6958314776 0.1565761119 0.3649767935 0.9167560935
-0.08963102847 -0.08478713036 0.6928393841 0.1606294513 0.3037418425 0.938319087
-0.09023562074 -0.1084532812 0.7021007538 0.105857864 0.447455138 0.8875513077
-0.07871129364 -0.06058162078 0.6857731342 0.2179711312 0.1000269949 0.9611335993
-0.085789904 -0.06708560884 0.6875974536 0.1711393893 0.1646723002 0.9611870646
-0.09793134034 -0.05161859095 0.6843896508 -0.1049607545 0.1751435548 0.9737372398
-0.1263715476 -0.08175068349 0.6887334585 -0.4215604067 0.3253473043 0.8427581787
-0.08693695068 -0.02694044635 0.6820070148 -0.1004401073 0.08057589829 0.9907796979
-0.05382031947 -0.05088475719 0.6781266928 0.02020085044 -0.2797271311 0.9300705194
-0.05378070474 -0.04046959803 0.679338932 -0.005069976673 -0.3249213994 0.9299801588
-0.04815854132 -0.03261984512 0.6804717779 0.09726461023 -0.1961332262 0.9726181626
-0.07139775157 -0.03540369496 0.683265686 0.06661549211 -0.04603638873 0.9959933162
-0.06388434023 -0.02787060291 0.6834123135 0.07395681739 -0.09764290601 0.9913156629
-0.05681558326 -0.03090591542 0.6815600991 0.1193201914 -0.1601928324 0.9790445566
-0.04987666756 -0.01815686561 0.6819232702 0.07089987397 -0.2034573704 0.9757887125
-0.02310854942 -0.02553673834 0.6795909405 0.001250586356 -0.2499033958 0.9669131637
-0.05027778447 -0.0912515372 0.6776316762 0.266299516 0.5293104053 0.8023518324
-0.1305036098 -0.08581517637 0.6810356975 -0.4320538342 0.2545543015 0.8428455591
-0.1341478676 -0.09747674316 0.6870989799 -0.5639054775 0.2811707556 0.776047945
-0.1044538096 -0.09112240374 0.6859499812 -0.05271416903 0.3498864174 0.8728768229
-0.1272719502 -0.09186691791 0.6840755939 -0.4381880164 0.2951880693 0.8110420704
-0.1184244379 -0.08674897999 0.6859074831 -0.2542803884 0.3081867397 0.873755753
-0.1132165045 -0.09251633286 0.6849766374 -0.2086478621 0.3307647109 0.8402428031
-0.1086047813 -0.08539107442 0.6869515181 -0.08099406213 0.3299619853 0.908688426
-0.09425569326 -0.09170114994 0.6881805062 0.1336778104 0.3789569139 0.906958878
-0.1395322084 -0.09983330965 0.6810982227 -0.57217592 0.2681142688 0.7749339938
-0.115781188 -0.09630081803 0.6917746663 -0.192639634 0.3392557502 0.8756159544
-0.1266021132 -0.1024037004 0.6911314726 -0.4252589047 0.3007658124 0.8344246745
-0.09778990597 -0.09914044291 0.6954692602 0.08918601274 0.4167894721 0.9027172923
-0.0803513974 -0.07324863225 0.6887437105 0.2213970125 0.1880356669 0.9485172629
-0.1080419868 -0.06276504695 0.6860024929 -0.1181669161 0.2842145264 0.9438530207
-0.1185143143 -0.06085348874 0.6815878749 -0.2702179551 0.2902928889 0.9166585207
-0.1116608232 -0.07356657833 0.6900254488 -0.1524266005 0.3320334256 0.9160298109
-0.1210751683 -0.06793257594 0.6821476817 -0.2896594405 0.2942350805 0.905446589
-0.1018644571 -0.06918345392 0.6892918348 0.008588607423 0.2953565419 0.9530386329
-0.09535600245 -0.07596664131 0.690125823 0.1092082337 0.2522473633 0.9608898759
-0.0896120742 -0.06110776961 0.6840957999 0.04791499674 0.1818489879 0.9802022576
-0.08974740654 -0.07636319846 0.6856965423 0.1263218969 0.2429466099 0.9596264958
-0.1022580341 -0.0378180854 0.6625499129 -0.3925524652 -0.2027290314 0.6146016121
-0.09559433907 -0.04157213122 0.6527508497 -0.4935458601 -0.491741091 0.3121801019
-0.1085737795 -0.04181819782 0.6619628668 -0.386698395 -0.1874786913 0.5922657847
-0.1170299277 -0.03720833734 0.6749576926 -0.2393037975 0.1816045493 0.9537305832
-0.09806968272 -0.03969245777 0.6820470691 -0.166319713 0.1372998506 0.9760139585
-0.1132858396 -0.04395350814 0.6784499288 -0.2345870584 0.1782419086 0.9554522634
-0.107478343 -0.03876508027 0.6796145439 -0.2153934836 0.164929688 0.9622066617
-0.06079059467 -0.04343627766 0.6793038249 -0.007314205635 -0.3930276036 0.9034465551
-0.01831371151 -0.05160525441 0.6742479801 0.09939510375 -0.09156984836 0.9885632396
-0.02724805661 -0.05774135515 0.6858811378 -0.05962218717 -0.06830155104 0.9936612248
-0.02695469745 -0.05275887623 0.6809277534 -0.01260035858 -0.1013385132 0.9910782576
-0.02012566477 -0.05942176655 0.6944682598 -0.06739475578 -0.04493794218 0.9928090572
-0.03369316086 -0.04993759096 0.6754973531 0.01054861769 -0.1092468947 0.9924386144
-0.1006449163 -0.08278235793 0.6927793622 0.1070390716 0.3214122355 0.9394276738
-0.1103736684 -0.09058514237 0.6946320534 -0.0500061512 0.3232813478 0.9361667037
-0.1025363877 -0.09097073227 0.6950965524 0.05734755844 0.3535380363 0.9269696474
-0.08148587495 -0.0238561742 0.6723861694 -0.2183603048 -0.2166587859 0.8268187046
-0.1008656546 -0.02903824672 0.6693748832 -0.3171531856 -0.01385835372 0.8004137278
-0.1093878001 -0.03138610721 0.6703778505 -0.3128056526 0.06137268245 0.838308394
-0.0629247129 -0.04018953815 0.6624794602 -0.5268745422 -0.426744163 0.578882277
-0.05626186356 -0.03880997002 0.6672984958 -0.3005506396 -0.3403444886 0.7204504609
-0.05230842531 -0.0281048473 0.671218276 -0.2094206512 -0.333999902 0.7851794362
-0.04870766401 -0.0356660448 0.6731296778 -0.02655348554 -0.2394582629 0.8939366937
-0.0565071106 -0.02349965274 0.676238358 -0.1296879649 -0.2694341838 0.8460922837
-0.04745234922 -0.02240712009 0.6757544875 -0.05997529998 -0.2866364121 0.8823280931
-0.05958744138 -0.03161310032 0.6664230227 -0.4165800512 -0.4030011594 0.6549932957
-0.06430933625 -0.02741912939 0.6723269224 -0.2909934521 -0.2907351255 0.7581362724
-0.04021075368 -0.0202309601 0.6790659428 0.06595340371 -0.2432341427 0.9674572945
-0.03244109452 -0.02536561713 0.6789627671 0.04275504127 -0.2252094299 0.9729065299
-0.02946743742 -0.0182929635 0.6809647679 0.02835122682 -0.2826787233 0.9586120844
-0.0182145033 -0.04082760215 0.6752117872 0.05740593374 -0.1994522363 0.9764525294
-0.01435094327 -0.0544176437 0.6965810061 -0.03437252715 -0.06614989042 0.9886093736
-0.01938625984 -0.04892840609 0.6862787008 0.008254419081 -0.1111949682 0.9869959354
-0.02178143151 -0.03998441249 0.6825338602 0.001503451495 -0.163803786 0.9817703366
-0.01586391591 -0.02863567881 0.6780004501 -0.0154624898 -0.2585949898 0.9653747678
-0.08824372292 -0.03290700912 0.6568072438 -0.4885315299 -0.3976598382 0.4980341494
-0.09422926605 -0.03006931394 0.6642492414 -0.3831367195 -0.180953145 0.675031364
-0.09509114176 -0.02172552794 0.6749581099 -0.2090633661 0.07810539007 0.9187945127
-0.08300306648 -0.03633336723 0.6506950259 -0.5746277571 -0.6066086292 0.3626207709
-0.08786439896 -0.0195379667 0.6785240173 -0.1123561189 0.05793860927 0.9820386171
-0.08520060778 -0.02863506228 0.6638600826 -0.3593032956 -0.3094572127 0.6666609049
-0.09455318749 -0.02790883742 0.6803585291 -0.1490518153 0.1271476746 0.9803648591
-0.1020407006 -0.02475691028 0.6769046187 -0.2047518194 0.1658636928 0.9642819762
-0.02788669243 -0.03236978501 0.6779546142 0.02057606727 -0.187144354 0.9809479117
-0.04114808515 -0.03745253384 0.6780127287 0.08752470464 -0.1531962305 0.9830376506
-0.04338247329 -0.02647866495 0.6810355186 0.07469440997 -0.2052427977 0.9757643938
-0.02673816681 -0.04109854624 0.675532341 0.04658353329 -0.1617305726 0.984942615
