# .PCD v0.7 - Point Cloud Data file format
VERSION 0.7
FIELDS x y z normal_x normal_y normal_z
SIZE 4 4 4 4 4 4
TYPE F F F F F F
COUNT 1 1 1 1 1 1
WIDTH 512
HEIGHT 1
VIEWPOINT 0 0 0 1 0 0 0
POINTS 512
DATA ascii
-0.054459032 -0.12478182 0.87500006 -0.4616805017 -0.5334738493 0.7087007165
-0.23070915 0.030646807 0.83900005 0.3052138984 -0.3259233236 0.8947728872
-0.1030573 -0.0037314517 0.85186362 -0.3482494652 -0.5747645497 0.7405187488
0.022888305 -0.042283092 0.92166668 -0.4888214171 -0.6079701781 0.6256403923
-0.18756633 -0.061885215 0.87150002 0.1393263489 0.6178652644 0.7738415003
0.041321684 -0.12471548 0.85700005 0.1976385862 0.1772543639 0.9641160965
-0.025358375 -0.045173977 0.84475005 -0.5312435627 -0.4134947956 0.7394608259
-0.0050368537 -0.11325089 0.93353844 0.06384611875 -0.4036077261 0.912701726
-0.11552119 -0.083148189 0.86646163 0.7756926417 0.1871164292 0.6027340889
-0.15757528 0.040345661 0.86833334 -0.4118514955 -0.8116131425 0.4143217206
-0.043627143 -0.066705562 0.92266673 -0.1554367244 0.3043732941 0.9397852421
-0.067364171 -0.035353117 0.80250001 0.1144332141 0.9908585548 0.07144460082
-0.16505316 -0.015131152 0.84233338 0.1191151813 0.3442365527 0.931296289
0.02061657 -0.066431172 0.87100005 -0.6556740403 -0.6748155355 0.3386968672
-0.23110656 -0.022742778 0.85500002 0.2646200359 0.5899924636 0.7628139853
0.041444417 -0.091177724 0.91500002 0.2017847896 0.4165060222 0.8864567876
-0.065083876 -0.074812934 0.85330963 -0.02535800077 0.4100735486 0.9116998911
-0.0054002665 -0.12112027 0.88000005 0.43838045 -0.4756465256 0.7626158595
-0.07203351 -0.10531134 0.91466665 -0.4969981313 -0.7603356242 0.4181896746
-0.18499899 0.024865145 0.83409518 -0.1807375252 -0.3661174178 0.9128482938
-0.12587285 -0.041512094 0.84860003 0.2031942904 0.3900542855 0.8980922699
-0.12106525 0.018627193 0.88525003 -0.5651388764 -0.7836098075 0.2580189109
-0.06474819 -0.026713056 0.84650016 -0.1761356741 -0.6680901647 0.7229327559
-0.15075423 -0.086703211 0.89100003 0.3418440223 0.6235193014 0.703111887
-0.017325418 -0.032250669 0.91216666 0.05615734681 0.2914057076 0.9549497962
-0.0054450086 -0.075757511 0.92622209 -0.01463919692 0.3336707354 0.9425759912
-0.13587458 0.013445113 0.8466298 -0.4296959937 -0.6520572901 0.624646008
-0.091207959 -0.063591212 0.82900006 0.7536236644 -0.05941889063 0.654614985
-0.08881335 -0.10841562 0.86000001 0.0003535259166 0.9239104986 0.3826085627
-0.20505476 -0.0050529051 0.83619249 -0.1278767288 0.4119468927 0.902190268
-0.20582379 0.045989934 0.86000001 -0.06129749864 -0.794265151 0.6044712067
-0.035394542 -0.11681025 0.91500008 -0.37514925 -0.8378062844 0.3966657221
0.024623886 -0.094768807 0.85118401 0.4181392491 0.004733896814 0.9083706141
-0.054093041 -0.053564176 0.82772732 -0.4211272299 0.5556086302 0.7169036865
-0.14472111 -0.064466752 0.86429638 0.2439277768 0.6456487179 0.7236276865
-0.01145365 -0.063376866 0.87100005 -0.4952864647 -0.2284598202 0.8381512165
-0.19497469 -0.035251494 0.85542029 0.02719843015 0.5159671307 0.8561764956
-0.098927885 -0.033466309 0.83900005 0.3085739613 -0.1341210306 0.9416972399
-0.16511723 -0.045034453 0.85611129 0.1599262208 0.4698628187 0.8681316376
-0.12795073 -0.013972314 0.83880013 -0.08681158721 0.01551383175 0.9961039424
0.01278706 -0.13012713 0.85800004 0.2916763425 0.0479715839 0.9553133845
0.026930543 -0.064148441 0.90337503 -0.7032228708 -0.4513684809 0.5493124127
-0.23740309 0.00073727668 0.84100002 0.4940243959 0.2523868084 0.8320100904
-0.096658863 -0.063633174 0.85610521 0.05168449879 -0.05626310036 0.9970773458
-0.035145216 -0.092174813 0.92800015 -0.2110261172 0.004747013096 0.9774689078
-0.085665718 -0.087477617 0.84172726 -0.3437488079 0.4154749513 0.8421503901
-0.069645032 -0.095666252 0.87300003 -0.6549757719 0.2222810686 0.7222173214
0.0044103186 -0.046413612 0.90415633 -0.3339105546 -0.8343744278 0.4385465384
-0.16663399 -0.070885167 0.88080007 0.1860399544 0.7006088495 0.6888660192
-0.080670863 -0.0098011335 0.86000001 -0.2874825001 -0.4938196242 0.8206680417
-0.20857917 0.021075943 0.82900006 0.01097543817 -0.2910554707 0.9566432238
-0.060347978 -0.11050734 0.89400005 -0.3771562576 -0.8976215124 0.228098169
-0.11346728 -0.10270558 0.85264999 0.5879712105 0.4775711298 0.6528519988
-0.032011017 -0.13270764 0.8780002 0.05390428007 -0.7030341625 0.7091102004
0.010870666 -0.095933639 0.93000013 0.1532505602 -0.0927176699 0.9838280678
-0.16629677 0.031394809 0.84685725 -0.3485284448 -0.7342433333 0.5825930834
-0.12546328 -0.10083245 0.87800002 0.6638245583 0.3633366823 0.6536998153
-0.041680239 -0.028283019 0.84900004 -0.2845832407 -0.6508524418 0.7038490772
-0.07693807 -0.036204446 0.823421 0.004078506492 -0.9279955029 0.372569114
0.01046214 -0.11991222 0.91800004 0.06847856194 -0.4837460816 0.8725253344
-0.15502015 0.0051413989 0.83806157 -0.08982614428 -0.02071247622 0.9957420826
-0.1385484 0.030788533 0.87800002 -0.5488377213 -0.7672026157 0.3319296539
-0.12187113 0.0098410212 0.8635 -0.5426850915 -0.7745307088 0.3249540627
-0.1242866 -0.063607007 0.85634494 0.1984242499 0.3955752552 0.8967429996
-0.21263643 -0.042987041 0.86449987 0.09810832888 0.5604210496 0.82237643
0.0092232339 -0.0821051 0.86240005 0.1769852489 -0.251448065 0.9515514374
-0.036835779 -0.11677726 0.89400005 -0.3309414685 -0.8870854974 0.3218027651
-0.10551698 -0.11446574 0.87128586 0.3191165924 0.9453020692 0.06759161502
-0.18508027 -0.0067708292 0.84256762 -0.08700741827 0.4017764032 0.9115949869
-0.048965994 -0.063621894 0.84625006 -0.03376154602 0.5498486757 0.8345816731
-0.144712 -0.032818262 0.8474139 0.1351602823 0.4054264426 0.9040802717
-0.014730213 -0.094940335 0.93358326 -0.1084702462 0.1031148136 0.9887373447
-0.054071493 -0.084290944 0.92449993 -0.2966425419 0.006530359387 0.9549662471
-0.18432489 0.038936608 0.85284615 -0.2193675935 -0.8086994886 0.5457865596
-0.078894742 -0.056566037 0.84900004 -0.04728899151 0.7865656018 0.6156933904
-0.13260624 -0.081870258 0.87687504 0.3842423558 0.585452497 0.7138649821
-0.01327067 -0.044606037 0.86070597 -0.6081339121 -0.1742333025 0.7744778395
-0.20462245 0.038010407 0.84187502 -0.08187101036 -0.6765378118 0.7318426967
0.013834968 -0.10826053 0.8608889 0.3273615539 0.09167983383 0.9404409528
-0.025452087 -0.061781153 0.91680014 -0.02130264044 0.3821648955 0.9238485694
-0.10852959 0.0053879935 0.87800002 -0.4961485267 -0.8192671537 0.2874681652
-0.10478196 -0.085542396 0.84566677 0.5208978653 0.192845434 0.8315504193
0.0399497 -0.1035431 0.93000007 0.3095116019 0.1508591324 0.9388525486
-0.22286357 -0.011873447 0.83900011 0.213801071 0.5008429289 0.8387165666
-0.017532106 -0.12337172 0.91740006 -0.2026305944 -0.8538467288 0.4794648588
-0.0358206 -0.035024587 0.90800005 -0.1513058543 0.5923154354 0.7913715839
-0.0052652601 -0.13614458 0.85800004 0.3959425092 -0.4043596387 0.8244530559
-0.17805569 -0.028100967 0.85100001 0.07401061803 0.4181365669 0.9053641558
-0.054314759 -0.10259888 0.92152953 -0.4077565372 -0.4593294859 0.7891457677
-0.07161139 -0.12112991 0.86900002 -0.65569067 -0.4857758582 0.578006506
-0.024109583 -0.11029845 0.93000019 -0.2374712974 -0.4795708954 0.8447598219
-0.070907429 -0.052285276 0.81700003 -0.1194264814 0.4564788342 0.881682694
-0.14618872 -0.015860898 0.84099972 0.07709891349 0.2375578582 0.968308866
-0.082541943 -0.074765347 0.85874993 -0.4585187137 -0.1674482077 0.8727666736
-0.077155992 -0.10240479 0.84700006 -0.5712682605 0.4080718756 0.7121305466
-0.086514212 -0.022898016 0.84651738 -0.2089474648 -0.5329757929 0.8199254274
-0.053670883 -0.038163457 0.83863646 -0.1571707129 -0.5558994412 0.8162555695
0.0035777204 -0.054758221 0.86755008 -0.5896965861 -0.6163244247 0.5219215751
-0.22490858 0.015437608 0.83260977 0.3414823711 -0.04756029695 0.9386841059
-0.21405382 -0.024202611 0.84736395 0.07335660607 0.5802091956 0.8111572862
-0.094940953 -0.049691219 0.84600002 0.5141633153 0.3570535779 0.7798389792
-0.11501515 -0.025067411 0.84099972 -0.006166655105 0.05449169502 0.9984951615
-0.01632425 -0.13363937 0.87154561 0.2964730561 -0.6613703966 0.6889796257
-0.17512143 0.0052184681 0.83624983 -0.08645179123 0.1385369152 0.986576736
0.037450362 -0.075023741 0.91294742 -0.8917191625 -0.3078386188 0.3317714334
0.030702619 -0.079511911 0.89800006 -0.8599966168 -0.4378601611 0.2620769441
-0.18497461 -0.046771195 0.86200017 0.09875649959 0.5248867273 0.8454235792
-0.14519018 0.023981931 0.85481244 -0.4521878064 -0.7603371143 0.4662764072
-0.086436622 -0.044050638 0.83356005 0.5716017485 0.1666551232 0.8034285903
-0.051267467 -0.021864066 0.86000001 -0.1877579093 -0.6775375605 0.7111187577
0.025022408 -0.081701361 0.86133349 0.3825697005 -0.1633780599 0.9093668461
-0.17214154 0.042344023 0.86250001 -0.3167264163 -0.8374953866 0.4452930391
-0.067100063 -0.018848334 0.86000001 -0.1945192367 -0.6066116691 0.7708336711
-0.16230905 -0.062122531 0.86839998 0.1969905049 0.6510280967 0.7330465317
-0.16283411 -0.031342879 0.84900004 0.1478814632 0.4027771354 0.903272748
-0.058522761 -0.086761452 0.86057144 -0.7517843246 0.5120634437 0.4154651761
-0.12798107 0.0014710466 0.83900005 -0.2412621826 -0.2684914768 0.9325796962
0.033460844 -0.05565371 0.91447377 -0.6643483043 -0.4992530346 0.5562263131
-0.035394631 -0.052254505 0.83600008 -0.45036304 -0.008014247753 0.8928095698
0.027895534 -0.13043046 0.85999995 0.1886409223 0.1593153179 0.9690372944
-0.14522363 -0.045117859 0.8555004 0.163172245 0.4199544787 0.8927558661
-0.024608176 -0.074384786 0.9243682 -0.06973816454 0.3397632241 0.9379219413
-0.11531815 0.0031017982 0.84755194 -0.3467024565 -0.5804803371 0.7367767692
-0.048878551 -0.10939485 0.88500005 -0.5133314133 -0.7222995162 0.4634374678
0.015801359 -0.057267379 0.89709097 -0.6705365777 -0.6688268185 0.321016103
0.019944167 -0.0502593 0.91000003 -0.5021294355 -0.5943115354 0.6282196045
-0.19490443 0.0049509327 0.83458495 -0.1759687215 0.2877857089 0.9413896203
-0.16514558 0.015415036 0.83724523 -0.1823006272 -0.1254285872 0.9752097726
0.0053450367 -0.11835438 0.87100005 0.3789317012 -0.002220568247 0.9254219532
-0.19577615 -0.023695249 0.84720004 -0.06509329379 0.4915478528 0.868414402
-0.093685038 -0.074802324 0.837345 0.6982596517 0.04152007028 0.7146394849
0.0089490134 -0.1098288 0.92800003 0.05008112267 -0.2272174358 0.9725554585
-0.10776935 -0.072773129 0.85099989 0.5895921588 -0.1298566312 0.7971940637
-0.094708934 -0.097178131 0.85382348 0.1502444744 0.5534651279 0.8192087412
-0.10485408 -0.015517053 0.84316307 -0.2492181659 -0.2882440388 0.9245570302
-0.14474945 -0.07379593 0.87482619 0.2933133245 0.6891651154 0.6625849009
0.029027309 -0.10792205 0.84900004 0.1992882639 0.1150742024 0.9731608629
-0.064992033 -0.058148067 0.84820002 0.1660372019 0.5903356671 0.7898958921
-0.21398687 0.0076290444 0.82883358 0.1084370241 0.19466649 0.9748570919
-0.13505432 -0.054774012 0.85585719 0.2036884874 0.4395834506 0.8748013377
-0.12997197 0.02052189 0.86700004 -0.5691879988 -0.7612903714 0.3105833232
-0.0059097069 -0.036891688 0.90600002 0.06993614882 0.04261027649 0.9966409802
-0.1338329 -0.072390132 0.86594141 0.3168281615 0.6440566778 0.6962836385
-0.067321867 -0.10821611 0.86842865 -0.702682972 0.03566459939 0.7106086612
-0.076036513 -0.11161252 0.85733324 -0.7549327612 -0.0551346615 0.6534804702
-0.13495782 -0.024970714 0.84260005 0.06416306645 0.3106841743 0.9483451247
-0.004863089 -0.12322578 0.92474991 -0.03102312237 -0.5804880261 0.8136775494
-0.074526846 -0.084535137 0.86269242 -0.8488183022 0.365447104 0.3820418119
-0.024787055 -0.12314963 0.88353324 0.08880565315 -0.8330436945 0.5460327268
-0.22239004 -0.032322701 0.85742855 0.1570852548 0.5990598202 0.7851442695
-0.11460952 -0.055478863 0.85282516 0.1796209812 0.3592515588 0.9157918096
0.024527906 -0.11582136 0.85839641 0.2415292263 0.1942002922 0.9507628083
-0.15561044 0.024429012 0.84421057 -0.3872710764 -0.6342434287 0.6691460013
-0.030587776 -0.035064038 0.85100001 -0.436834991 -0.6179199219 0.6537202597
-0.14780863 0.031814761 0.8682 -0.4907190204 -0.7776808739 0.3929469287
-0.17508379 -0.054444779 0.86537838 0.1521403939 0.59427315 0.7897421718
-0.091464914 -0.011787484 0.85100001 -0.3085896671 -0.3776012361 0.8730347753
-0.079238102 -0.079239272 0.83433342 -0.8038498163 0.1836417764 0.565774858
-0.15750457 0.031201946 0.85614288 -0.4285159707 -0.7689245343 0.4744777083
-0.21567224 0.033582173 0.83734292 0.139154911 -0.5353667736 0.8330776095
-0.052782126 -0.11116374 0.91225004 -0.2839241326 -0.9083589315 0.307036072
-0.063475303 -0.045378398 0.83500004 -0.5293565392 -0.6847000122 0.5009666085
-0.035918493 -0.10753031 0.92623818 -0.3053458035 -0.4271515012 0.8510614038
-0.041656133 -0.040918857 0.84100002 -0.2395501882 -0.4890739322 0.8387027979
-0.10513121 -0.10628801 0.86129409 0.5024020076 0.6846466064 0.5280636549
-0.2337167 0.018431917 0.84100002 0.4050014019 -0.08210448176 0.9106221795
-0.19345655 0.045934685 0.85773998 -0.1981941611 -0.8176306486 0.5405545235
-0.0045920778 -0.12748015 0.86692613 0.4232373238 -0.4726538956 0.7729608417
-0.19484067 0.032378994 0.83680004 -0.1397347897 -0.6203052998 0.7718131542
-0.1948597 -0.052897725 0.86712497 0.07337070256 0.5420517921 0.837135911
-0.20440876 -0.016058145 0.84175855 -0.1076363325 0.496361196 0.8614174128
-0.017209642 -0.083294667 0.92800015 -0.09946701676 0.2745042741 0.9564275742
-0.23288091 -0.014837584 0.84600008 0.2495554686 0.5122548938 0.8217767477
0.0027290634 -0.038950123 0.91420001 -0.03993336856 -0.2163339257 0.9755024314
-0.10631303 -0.045770377 0.84520698 0.2171283662 0.4566477835 0.8627445102
-0.043568347 -0.12432735 0.88013339 -0.3046244681 -0.6553459764 0.6911769509
-0.15376961 -0.053416785 0.85723078 0.2165264338 0.4889427125 0.8450155854
-0.013252668 -0.056620982 0.8611111 -0.5757826567 -0.1054150537 0.8107786179
-0.079216473 -0.063954592 0.82900006 -0.8038119674 0.5622509718 0.1943196654
-0.13451982 -0.092464015 0.88209522 0.3786999285 0.5888139009 0.7140619755
0.0033702198 -0.083660491 0.92778587 0.08257041126 0.1768388301 0.9807701707
-0.020802924 -0.05345099 0.85185713 -0.5707547069 0.1835694164 0.8003382683
-0.11879242 -0.091082744 0.87800002 0.697666049 0.3602828681 0.6192401052
-0.080727845 -0.096106328 0.87700003 -0.4690847695 0.1636312902 0.8678619266
-0.17509961 -0.063426778 0.87288237 0.1755834222 0.651915729 0.7376830578
-0.087735921 -0.034652002 0.84100002 0.07579628378 -0.4699076712 0.879455328
-0.16381156 -0.0021014949 0.83900005 -0.0009261335945 0.1559951752 0.9877573848
-0.022239279 -0.040507261 0.90600002 0.0638454631 0.3561083376 0.9322609901
-0.076208241 -0.052201405 0.82699996 0.2381803989 0.1563853174 0.9585477114
-0.11692466 0.012705194 0.87615395 -0.5711010098 -0.7810429335 0.2526175082
-0.10705853 -0.059560735 0.86000001 0.2548326254 0.2466945499 0.9349877834
-0.074723944 -0.022214109 0.84871429 -0.2639228106 -0.6327054501 0.728030622
-0.016041758 -0.067413986 0.92275 -0.01872275956 0.4199866354 0.9073371291
-0.046236571 -0.093015492 0.92800003 -0.3186950386 -0.08286362886 0.9442282915
-0.14479695 -0.0050234301 0.83895785 -0.0230580885 -0.001389490673 0.99973315
-0.097097412 -0.06818933 0.84550005 0.6046203375 -0.3821153641 0.6988720298
-0.12714837 0.011968107 0.85316664 -0.4324941337 -0.7364618182 0.5201661587
-0.17696691 0.030450666 0.83900005 -0.2294369489 -0.5867340565 0.7765963078
-0.068758719 -0.039393015 0.81700003 -0.1949288696 -0.904312551 0.3797651827
-0.20393546 -0.030515892 0.84900004 0.007515280508 0.547336638 0.8368787766
-0.19473852 0.015316959 0.83197969 -0.1981284171 -0.00368345133 0.9801691771
-0.17447256 -0.0058121416 0.84192306 0.03098940663 0.3548889756 0.9343947172
-0.15485072 -0.025122514 0.84573168 0.1341556609 0.3819498718 0.9143940806
0.012776415 -0.057761438 0.87185723 -0.6043019295 -0.6880722642 0.4017159939
-0.15534687 -0.038035542 0.85234994 0.1578857005 0.4193358719 0.8939963579
-0.22487715 0.0049231844 0.83214998 0.3116262257 0.1672265977 0.9353739023
-0.035069473 -0.074679717 0.92390001 -0.1182487234 0.313824296 0.942088902
0.0051374417 -0.12450565 0.86260021 0.368252486 -0.09048724174 0.925311923
-0.15518403 -0.068801694 0.87200016 0.2700114846 0.7053249478 0.6554468274
-0.11068881 -0.081419542 0.85600007 0.6376361251 -0.02835556678 0.7698156834
-0.15136158 -0.077770673 0.88180006 0.3067013621 0.6702398062 0.6758053303
-0.075209871 -0.064930975 0.85393357 0.04172398522 0.5761155486 0.8163025975
-0.22411638 -0.02165306 0.84715396 0.1781071126 0.5702639222 0.8019207716
0.034382112 -0.084988333 0.90600002 0.2356784046 0.4980234206 0.8345228434
-0.21524137 -0.0051303771 0.83471423 0.07826238126 0.4290082753 0.8999038339
-0.19724889 0.041319929 0.84814292 -0.1399183273 -0.7744275928 0.6169965863
-0.083959043 -0.055728819 0.8327778 0.788233459 -0.1497479379 0.596878171
-0.064460568 -0.11133828 0.91150004 -0.3259675801 -0.8974848986 0.2970959544
-0.065591805 -0.051486552 0.82718188 -0.1960209906 0.6658954024 0.7198326588
-0.14494756 0.0050556995 0.83875042 -0.1271783561 -0.1590852588 0.979039073
-0.17490464 0.015368878 0.83479583 -0.1575036198 -0.05070570484 0.9862157702
0.0054527884 -0.06458804 0.86680007 -0.5549824238 -0.6366361976 0.535433352
-0.2044625 0.0043901964 0.83158529 -0.1231640875 0.2481750548 0.9608536363
-0.015399727 -0.1167156 0.92459089 -0.1344145983 -0.5879836082 0.7976264954
-0.11535846 -0.034756869 0.84347618 0.1390166581 0.2906719148 0.9466700554
-0.18500513 -0.03508136 0.85622245 0.05166466534 0.4805653691 0.87543571
0.01541308 -0.086707667 0.85607696 0.4229245186 -0.1339284778 0.8962131739
-0.13497604 -0.03477414 0.84651238 0.1400675476 0.3834712505 0.9128695726
-0.18507557 0.0052251606 0.83673924 -0.1741932631 0.2082465291 0.9624396563
-0.024500348 -0.094746768 0.93166679 -0.1503549069 0.04633707926 0.9875456095
-0.17502324 -0.014834808 0.84594452 0.06505582482 0.38641873 0.9200262427
-0.015226564 -0.12218928 0.88117647 0.2671784461 -0.693767488 0.6688066721
-0.095196158 -0.085063063 0.84267426 0.3578418791 0.3725331724 0.8562524319
-0.044792436 -0.054042369 0.83354998 -0.2460148335 0.29586339 0.923006773
-0.0147345 -0.10479751 0.93391675 -0.1008616611 -0.160737589 0.9818301201
-0.045119192 -0.10415246 0.92518407 -0.3005697727 -0.4110560119 0.8606339097
-0.11475529 -0.015312958 0.84239113 -0.1830130965 -0.1634874642 0.9694215059
-0.073289335 -0.1018336 0.88000005 -0.7852759361 0.07041395456 0.6151289344
-0.14466307 0.015553775 0.84276181 -0.3376677334 -0.5658448935 0.7521968484
-0.0049115247 -0.09496709 0.93383342 0.0437794067 0.08087428659 0.9957623482
-0.061822772 -0.11557521 0.87183356 -0.6793149114 -0.3893270195 0.6220576167
-0.05507746 -0.070707552 0.84900004 0.3161215782 0.5332262516 0.7846890688
-0.10469898 -0.098512352 0.85221428 0.3493638039 0.4767797887 0.8066138625
-0.0057105389 -0.085860603 0.93069255 0.02964360639 0.1991125941 0.9795281887
-0.19498934 -0.014653795 0.84402221 -0.1309147626 0.4563297331 0.8801275492
-0.12462833 -0.025073335 0.84119022 0.0988695696 0.2067036629 0.973395288
-0.10541218 -0.024981473 0.84114617 -0.0736373812 -0.2388800383 0.9682530165
-0.18496588 -0.021839177 0.84882629 -0.01396019012 0.430690825 0.9023915529
-0.18481089 0.015338894 0.83324492 -0.2393842638 -0.002581754001 0.9709214568
-0.19576055 -0.0038025039 0.83831453 -0.1615179628 0.4105502069 0.897418797
-0.11456548 -0.065000564 0.85345846 0.334520787 0.1843092293 0.9241893291
-0.065993637 -0.091996841 0.86336368 -0.8193131685 0.2465710044 0.5176182389
0.031014711 -0.087812632 0.85250002 0.3899252117 -0.05476971716 0.9192162752
0.039649002 -0.097099602 0.92300004 0.2201317996 0.3283782005 0.9185367227
-0.2146956 -0.016836794 0.84141153 0.08032214642 0.5370452404 0.8397206664
-0.07054098 -0.034156688 0.84700006 -0.233588174 -0.5817660689 0.7790923119
-0.13477118 -0.0050479593 0.83826107 -0.1155186594 -0.05185391381 0.9919509292
-0.1547173 -0.0046337973 0.83900034 0.03142301366 0.1189403608 0.9924040437
-0.12466662 -0.074530542 0.86578125 0.3098684549 0.5909001231 0.7448614836
-0.15590869 0.014524822 0.83856779 -0.2167737484 -0.2749609351 0.9366993308
-0.20158423 -0.0413699 0.85800004 0.05664264038 0.5503804684 0.8329903483
-0.043503046 -0.13369517 0.8802501 -0.1589997411 -0.668119669 0.7268666625
-0.09524253 -0.024590855 0.84359568 -0.09580283612 -0.4459569156 0.8899124861
-0.20412102 -0.051600304 0.86700004 0.07258764654 0.5471765995 0.8338637948
-0.16406749 0.037809148 0.86123085 -0.3735712767 -0.8102838397 0.451535821
0.015126675 -0.074877605 0.86276191 0.08587157726 -0.3401007652 0.9364601374
-0.17418826 -0.043484863 0.85766655 0.1457303762 0.4806464016 0.864720583
-0.11342478 -0.094615251 0.84804362 0.5706406236 0.3031844795 0.7631831169
-0.13539645 -0.046255738 0.85212493 0.1621073037 0.3983443081 0.9027973413
-0.15546735 -0.015519782 0.84117746 0.1191007495 0.3035332263 0.9453478456
-0.025233839 -0.11878968 0.91507691 -0.3376885653 -0.8433972597 0.4179085493
-0.0057590869 -0.047186494 0.86540002 -0.5073105097 -0.1708201319 0.8446635604
0.035577204 -0.06447953 0.91308349 -0.744268477 -0.4285643399 0.5122470856
0.0065514352 -0.074046366 0.86590922 -0.3539221585 -0.5256396532 0.7735903263
-0.042791855 -0.1119594 0.921 -0.3071673512 -0.6584960222 0.6870452762
-0.22495864 0.024844065 0.83488226 0.2700833976 -0.3446899354 0.8990238309
-0.052459732 -0.13230653 0.88000005 -0.3135175109 -0.5820195675 0.7503066063
-0.16569041 -0.055136137 0.86379999 0.1727412492 0.581183672 0.7952269912
-0.18480331 -0.054643396 0.86630577 0.1221523359 0.6058222651 0.7861667871
-0.064791933 -0.12417426 0.87392861 -0.6394615769 -0.4817502499 0.5991707444
-0.14497152 -0.054836627 0.85681665 0.2019662857 0.465806365 0.8615300655
-0.17464276 0.038228996 0.85500002 -0.2974204421 -0.79957515 0.5217477083
-0.12530255 -0.05489441 0.85476595 0.1399000436 0.4176102579 0.8977915645
0.0040756231 -0.13251211 0.85883325 0.3439860642 -0.1697108597 0.9235106111
-0.03429281 -0.0613469 0.91745466 -0.06076197326 0.3630675673 0.9297795296
-0.18485159 0.035586718 0.8446843 -0.2199431807 -0.7293192148 0.6478568316
0.0049097952 -0.10480867 0.93402779 0.1648783982 -0.1775779277 0.9701964855
-0.13376324 -0.063293897 0.85763627 0.2433807105 0.4830789268 0.8410710692
0.0038995722 -0.12327383 0.92399997 0.01131830458 -0.4785613716 0.8779811859
0.01419931 -0.065350458 0.86513811 -0.5275240541 -0.6721293926 0.5195771456
-0.035127666 -0.12342083 0.88226289 -0.0820075646 -0.6655310392 0.7418512106
-0.013665958 -0.041440666 0.90745455 0.09366361797 0.3254896998 0.9408950806
-0.12724467 -0.087854274 0.88100004 0.4055322111 0.5798261762 0.706643641
-0.045414738 -0.084348679 0.92511094 -0.2364243418 0.1015531942 0.9663283229
-0.079407588 -0.03278295 0.83100003 0.0637210086 -0.6920102835 0.7190698385
-0.11483195 -0.0051844451 0.84512252 -0.3105515242 -0.3870405853 0.8681920171
-0.13419417 0.016802382 0.85449994 -0.4899409711 -0.7409518361 0.4592910409
-0.14460534 -0.025290955 0.84315783 0.1142332852 0.3545528054 0.9280318022
-0.1750547 -0.035384104 0.85450023 0.1230742559 0.4454341531 0.8868151903
-0.15003273 0.0294034 0.86000001 -0.4586120248 -0.7806713581 0.4245317876
-0.033471256 -0.04332719 0.84178573 -0.4282849133 -0.4474490881 0.7850868702
-0.054648478 -0.058583543 0.84233332 0.1568401605 0.5078095794 0.8470717669
-0.12311443 -0.005077343 0.84152937 -0.2579977214 -0.2304230779 0.9382656217
0.016208984 -0.0947669 0.85340005 0.5037044883 -0.02836529352 0.8634102345
-0.067133419 -0.065818071 0.85123992 0.007669234648 0.5787093043 0.8154978156
-0.10454197 -0.040728707 0.83860004 0.332644403 0.304834187 0.8924257755
-0.074622221 -0.074372374 0.85573351 -0.4795712531 0.2397468239 0.8441166282
-0.11453734 -0.044402108 0.84672987 0.1240884438 0.4471317232 0.8858189583
-0.14186344 -0.091518916 0.88620007 0.3450111151 0.5940301418 0.7267017961
-0.19492435 0.024941836 0.83276755 -0.148248896 -0.3949124515 0.9066787958
-0.0049180989 -0.10491945 0.93499988 0.02059977129 -0.1504887938 0.9883970618
-0.13304225 0.025751555 0.87420005 -0.5714403391 -0.7544000149 0.3230116963
-0.086484045 -0.070495397 0.82900006 0.7786043882 0.02825454064 0.6268786788
-0.061749116 -0.098879889 0.92075002 -0.410943985 -0.390651077 0.8237212896
-0.12408742 0.016337804 0.87396002 -0.5771341324 -0.7634478211 0.2899373174
-0.095298171 -0.055725697 0.85400009 0.1371546388 0.3738194108 0.9173045754
-0.19534177 -0.046461154 0.86193109 0.06097570434 0.5373519063 0.8411509395
0.03249418 -0.11794182 0.85799992 0.1976385862 0.1772543639 0.9641160965
-0.21517864 0.025138792 0.83173674 0.1623883843 -0.3484420478 0.9231566191
-0.074032493 -0.090770319 0.86800003 -0.6613241434 0.2841494977 0.6941969991
-0.0044203126 -0.063698515 0.86681837 -0.4369295239 -0.3622712493 0.8233177662
0.023520034 -0.05705582 0.90556252 -0.5484603643 -0.5560251474 0.6245216131
-0.10778985 -0.033029996 0.84099996 0.1814552546 0.1582327932 0.9705855846
-0.0053525069 -0.055293325 0.86252064 -0.5188831687 -0.2107920796 0.828448534
0.013066591 -0.047033668 0.90714294 -0.4096919 -0.6283210516 0.6613359451
-0.013796324 -0.11242895 0.93135005 -0.1242196038 -0.4404501915 0.889141798
-0.03489916 -0.084409937 0.92578542 -0.1331217438 0.2439141572 0.9606167078
-0.044695139 -0.034979835 0.84555006 -0.1900480986 -0.5674054027 0.8012071252
-0.13963546 -0.079461068 0.88000005 0.3413615823 0.6383223534 0.6899397373
-0.13371162 0.0073497077 0.84186953 -0.3267438114 -0.4269094169 0.843200326
-0.22487159 -0.0050246045 0.83539039 0.2430260628 0.3570353091 0.9019224644
-0.014726545 -0.074575581 0.92605698 -0.06202495471 0.3490246534 0.9350586534
-0.1395101 -0.039540295 0.85100001 0.1474787742 0.391299516 0.9083692431
-0.020525299 -0.045614328 0.85311109 -0.6297044158 -0.3480289578 0.6945129633
-0.05453749 -0.095342763 0.92472214 -0.3301638663 -0.2187307179 0.9182313085
-0.15463494 -0.06385576 0.86584008 0.2603224516 0.6366599202 0.7258762717
-0.12511052 -0.034801688 0.84446937 0.1840007901 0.3436700404 0.9208879471
-0.045304224 -0.07443016 0.92283356 -0.1855954975 0.2544198334 0.9491179585
-0.1669113 0.02302867 0.83833337 -0.2649028599 -0.3771803677 0.8874465823
-0.1245765 -0.083781414 0.87480009 0.4256028533 0.5767735839 0.697276473
-0.025117703 -0.033245575 0.91204166 0.0638454631 0.3561083376 0.9322609901
-0.10442274 -0.066942871 0.8549999 0.4096187055 0.03621465713 0.9115377069
-0.044958215 -0.045020238 0.83526665 -0.2372426987 -0.3852948546 0.8917756081
-0.21498497 -0.033605456 0.85541958 0.1007747278 0.590760231 0.8005290627
-0.065617621 -0.040918857 0.84100002 -0.3900391459 -0.4225483835 0.8181211948
-0.054867152 -0.044617038 0.83446956 -0.4204183817 -0.470900476 0.7755650282
-0.057231676 -0.028138118 0.84785718 -0.1940522492 -0.6905554533 0.6967617273
0.023458308 -0.065820321 0.89663154 -0.7713831067 -0.5519302487 0.3167667091
-0.084385835 -0.01396708 0.85332268 -0.301736176 -0.5145969391 0.8025866151
0.02040354 -0.068767488 0.86200005 -0.4624124467 -0.6692034006 0.5816713572
-0.15235141 0.037515987 0.87330008 -0.4585521519 -0.7911831141 0.4046717286
-0.11355749 -0.074222036 0.85591674 0.546282649 0.05360933766 0.8358835578
-0.20280598 0.016363453 0.83099997 -0.1208246276 -0.09603986889 0.9880170822
-0.11737303 -0.07720124 0.86191678 0.6823552847 0.1714227498 0.7106373906
-0.045203164 -0.11601043 0.88367563 -0.3517253995 -0.7177179456 0.600974381
0.032500476 -0.075296856 0.90415794 -0.8181815147 -0.3345085382 0.4676356316
-0.02432386 -0.12788208 0.87753862 0.1403752714 -0.721164763 0.6783923507
0.030587776 -0.10071585 0.85100001 0.2974300683 0.09356782585 0.9501475692
0.015355168 -0.041213673 0.92180002 -0.3154553175 -0.5021967888 0.8051623106
-0.12835495 -0.077929966 0.87150007 0.4077536464 0.6201525927 0.6701848507
-0.13609292 0.024153082 0.86434788 -0.5440992117 -0.763743639 0.3473495543
-0.15522455 -0.044994753 0.85538113 0.1778908074 0.4465566874 0.8768933415
0.015213259 -0.12326231 0.86011755 0.299031049 0.09394349903 0.9496078491
-0.015224068 -0.12669061 0.87435716 0.2908828557 -0.6720938087 0.6809383631
-0.084453687 -0.094456218 0.84440547 0.01010975428 0.546246767 0.8375632763
-0.1461139 0.021435248 0.84728581 -0.4082306921 -0.6991739273 0.5869442225
-0.14093731 -0.070849568 0.86900002 0.2658414245 0.6887882948 0.6744620204
-0.057660997 -0.10979286 0.90100002 -0.3576559424 -0.919680357 0.1620811969
-0.18504879 0.031601809 0.83829993 -0.190454334 -0.6560384035 0.7303017974
-0.075892843 -0.016138881 0.85295826 -0.262876302 -0.5941437483 0.7601902485
-0.086015143 -0.075733535 0.83433318 0.1013553366 0.3417717814 0.9343014359
-0.024583317 -0.084017694 0.92706233 -0.1189805791 0.2588303387 0.9585669041
-0.16101678 -0.071931668 0.87599999 0.2193757147 0.6973155141 0.6823675036
-0.16529942 0.0051397178 0.83802062 -0.05945444852 0.07185761631 0.9956413507
-0.074327953 -0.11609112 0.86422235 -0.7454419136 -0.3538189828 0.5649145842
-0.095329501 -0.092728436 0.84787506 0.2235667706 0.5147197843 0.8276964426
-0.081831686 -0.045360155 0.82787514 0.5874707699 -0.08925906569 0.8043076992
0.026654944 -0.053525481 0.91240013 -0.5670737028 -0.5598250628 0.6041715741
-0.095231488 -0.10489283 0.86120015 -0.02760111913 0.8979299068 0.4392721653
-0.10377024 -0.075655051 0.84546161 0.6398801804 -0.1083495766 0.7607980371
-0.035835311 -0.11744467 0.88655561 -0.2295459956 -0.8592407703 0.4571804106
-0.025612626 -0.052435797 0.84607702 -0.5757467151 -0.1316245794 0.806963861
-0.098246276 -0.0096757701 0.84900004 -0.269352138 -0.3645305037 0.89138484
0.016933048 -0.10432712 0.8554737 0.3823387921 0.0736419484 0.9210830331
0.015096946 -0.1155176 0.86125022 0.2718383372 0.1831779182 0.9447485209
-0.13162729 -0.095379233 0.87600005 0.6359522343 0.4483880699 0.6281026006
0.005755635 -0.11645145 0.92600006 0.007040861994 -0.4059781134 0.9138556719
-0.16501252 0.034647118 0.85466665 -0.3797634542 -0.7715830207 0.5103325844
-0.063768141 -0.08232192 0.85799986 -0.5548716187 0.3939620554 0.7327423692
0.015779588 -0.044413894 0.91341174 -0.410731256 -0.6448333263 0.6445850134
-0.14065766 -0.060926579 0.85800004 0.2120626122 0.5234900713 0.8252196908
-0.21424402 0.014920602 0.82881403 0.1383421272 -0.06480202079 0.9882621765
-0.025200821 -0.066935964 0.92190927 -0.05563602969 0.4009103179 0.9144263268
0.023553364 -0.046373632 0.91495472 -0.5269010067 -0.6012855172 0.600692153
-0.018052321 -0.039865538 0.85800004 -0.6272357106 -0.4369083047 0.6447375417
0.0033562204 -0.11271747 0.93172222 0.09236913919 -0.325881362 0.9408875108
-0.15554602 0.034740146 0.86423075 -0.4470735788 -0.7840912342 0.4304952919
-0.18488963 -0.014853074 0.847 -0.05965918675 0.4332354963 0.8993040323
-0.16500311 -0.024723709 0.84709549 0.1450346261 0.3783840835 0.9142157435
-0.18629998 0.045189694 0.85830772 -0.2334114015 -0.8264195919 0.5123961568
-0.0105989 -0.079084098 0.93000007 -0.0569245331 0.299033314 0.9525432587
-0.074663684 -0.045646563 0.82451236 0.1624793261 -0.2202042192 0.9618266821
-0.17031091 0.028753789 0.84100002 -0.2937729359 -0.6280412078 0.7205981612
0.031653978 -0.067919225 0.90720004 -0.7761140466 -0.3687523305 0.5115355849
-0.093058072 -0.068349704 0.83433336 0.7336851358 -0.1006712019 0.671990633
-0.23455286 0.0053471834 0.83635008 0.4313776195 0.09588623047 0.8970614076
-0.22929305 -0.0095845964 0.84100002 0.3010411263 0.4535213411 0.8388639092
0.011747157 -0.10295608 0.93060005 0.114532575 -0.155991599 0.9810957909
-0.20497319 -0.035833128 0.85513163 0.03922181949 0.5579874516 0.8289219737
0.03458954 -0.13102901 0.85774994 0.1886409223 0.1593153179 0.9690372944
-0.048286803 -0.1086453 0.91800004 -0.2917371392 -0.6710726023 0.6815797687
-0.12633723 0.014444223 0.86710006 -0.5806055665 -0.754853487 0.3051120043
-0.22490557 -0.026157474 0.85499996 0.2056016326 0.600210309 0.7729654312
-0.12514438 0.0049594822 0.84443599 -0.3642342091 -0.5575128794 0.7459978461
0.038294353 -0.084905371 0.9143846 0.2428988963 0.4949484169 0.8342818618
0.02454903 -0.086364761 0.85487896 0.5046682954 -0.1128059626 0.8559116721
-0.030228343 -0.050872091 0.84100002 -0.4670009017 -0.1814906001 0.8654313087
-0.037124202 -0.11611187 0.90100002 -0.3978259861 -0.8881955743 0.2298763841
-0.077967517 -0.097890355 0.8416667 -0.6605551839 0.4331026673 0.6132609248
-0.22020727 0.01090135 0.82900006 0.2950103581 -0.02677946538 0.9551187158
-0.046512462 -0.026475543 0.85376185 -0.1769951433 -0.6900946498 0.7017421722
-0.11774576 0.0071042879 0.85275006 -0.4640178084 -0.743545711 0.4814844131
-0.21111098 0.040598433 0.84200001 0.0106581524 -0.685552001 0.7279456258
-0.083130166 -0.11234805 0.85899997 -0.03061925806 0.915186584 0.4018655419
-0.16214851 -0.051040787 0.85799992 0.1713931113 0.5052530169 0.8457799554
-0.20217906 0.044931944 0.85416669 -0.111522086 -0.7814898491 0.6138700843
-0.16595902 -0.065433398 0.87330782 0.18008174 0.672718823 0.7176489234
-0.11585955 0.014410647 0.88340008 -0.5635561347 -0.7880941629 0.2476127446
0.0049069221 -0.094925292 0.9334169 0.1684274822 0.008256254718 0.9856794477
-0.1909871 0.039540295 0.85100001 -0.1811365187 -0.7965124249 0.576851368
-0.0058717886 -0.12335464 0.87347621 0.4260511994 -0.4710887074 0.7723702192
-0.19252294 -0.027753146 0.85174996 -0.02236772329 0.4825237691 0.8755972385
-0.23536517 -0.0057394016 0.84223068 0.3789713979 0.3611883521 0.8520115614
-0.078888603 -0.088473201 0.84100002 -0.7155804038 0.1554445028 0.6810151935
-0.18550628 -0.027218787 0.85308695 0.009146565571 0.448435545 0.8937683702
-0.22427388 0.032842055 0.8379631 0.1894715875 -0.4843574166 0.8541067839
-0.064584605 -0.022046531 0.85447824 -0.1985715628 -0.6689575315 0.716285646
-0.095351212 -0.015548165 0.84680015 -0.2456744164 -0.4022538364 0.8819500804
-0.20500644 0.033324882 0.83691669 -0.07221340388 -0.6189420223 0.7821099758
-0.20520881 -0.045691911 0.86375767 0.08685380965 0.5521476865 0.829210043
-0.052870892 -0.077582799 0.92425001 -0.2836804688 0.201461345 0.9375172853
-0.035713855 -0.036145896 0.84664714 -0.3666457236 -0.5607119799 0.7424102426
-0.14440697 0.02745505 0.86327285 -0.5017055273 -0.7671767473 0.399664104
-0.065249264 -0.10535132 0.91495645 -0.3640832603 -0.7915824652 0.4907551408
0.026861314 -0.073953092 0.89742857 -0.8319864869 -0.4472414255 0.3282889426
-0.047185704 -0.05971941 0.84100002 -0.0984724462 0.5148578286 0.8516011834
-0.15725876 -0.057487085 0.86137509 0.2325349301 0.5525850654 0.8003607392
-0.14499871 0.033548962 0.87411129 -0.5005362034 -0.7844569087 0.3661842346
-0.14582074 -0.038139753 0.85300004 0.138482213 0.4022788107 0.9049831033
-0.024761366 -0.11445449 0.92470968 -0.2638347745 -0.5013651252 0.8240292668
-0.11694229 -0.04905235 0.85099995 0.1502150744 0.4298922122 0.890296638
0.02958224 -0.061561286 0.912 -0.6643483043 -0.4992530346 0.5562263131
-0.061924953 -0.052927438 0.83266664 -0.3623606861 0.6574622989 0.6606345773
-0.10643347 -0.051356006 0.84900004 0.2782678306 0.3402072787 0.8982349634
-0.13562864 -0.076891765 0.87347072 0.3686276078 0.6188473105 0.6936438084
-0.054482698 -0.024678759 0.85479414 -0.1578900814 -0.6631565094 0.7316379547
-0.064314716 -0.034699582 0.84322226 -0.2388878614 -0.6806946993 0.6925224066
-0.0043872297 -0.043412086 0.90651864 0.06993614882 0.04261027649 0.9966409802
-0.13553548 -0.085830443 0.88200003 0.3786999285 0.5888139009 0.7140619755
0.018541986 -0.06241136 0.89366668 -0.749609828 -0.574482739 0.3287166953
-0.14459912 -0.085438743 0.88646859 0.3499625623 0.6065914035 0.7138438821
0.0083399927 -0.11755214 0.86510003 0.3970364332 0.02656905539 0.9174181819
0.015339738 -0.052884165 0.90493357 -0.4378117323 -0.6028068662 0.6670417786
-0.081174403 -0.067493141 0.85537493 -0.3391323388 -0.1658833623 0.9259978533
-0.10475422 -0.055314437 0.85543752 0.261731267 0.2838555276 0.9224547744
-0.077433921 -0.078691065 0.86033344 -0.6916062236 0.3599758148 0.6261774898
-0.20883954 -0.039958466 0.86000001 0.09906870872 0.5749769211 0.8121495247
-0.08845567 -0.098920733 0.85266668 -0.1066089422 0.57961303 0.8078881502
-0.068264209 -0.045533188 0.82638466 -0.2338408977 -0.6581395864 0.7156610489
-0.084676273 -0.036548059 0.83550006 0.2385341674 -0.5667219162 0.7886239886
-0.1115229 -0.088389672 0.84728575 0.6002860069 0.1768268943 0.779992938
-0.12920138 0.01113805 0.84700006 -0.4122184813 -0.6761316061 0.6106734276
-0.13449268 -0.014094947 0.83883357 -0.02168370783 0.122202538 0.9922682643
-0.14081985 0.0095845964 0.84100002 -0.2112119496 -0.3297123611 0.9201517701
-0.027248554 -0.11910744 0.88800001 -0.1240175739 -0.941328764 0.3138785958
-0.035884015 -0.066177674 0.92150015 -0.08878598362 0.3477921188 0.9333583117
-0.055739395 -0.033768427 0.84294593 -0.1265290827 -0.5889066458 0.798235178
-0.12826018 0.021300545 0.87400007 -0.5733826756 -0.7650052309 0.2932564616
-0.15461926 -0.03264543 0.84882629 0.1423920244 0.4073825479 0.9020886421
-0.21635607 -0.028684035 0.85142851 0.1184964478 0.5938014984 0.7958381772
-0.17518693 0.024925718 0.83614296 -0.2369100153 -0.4654102027 0.8527995348
-0.11760455 -0.087165698 0.87300003 0.7748185396 0.3459708095 0.5291129351
-0.034391008 -0.11265572 0.92261916 -0.3291381001 -0.6287940145 0.7044758201
-0.20480649 0.02552403 0.83176601 -0.05495817959 -0.3666950762 0.9287164807
-0.086135164 -0.0077653457 0.85723805 -0.3053104579 -0.4380466342 0.845517993
-0.10891049 0.0026006317 0.84800005 -0.3832588196 -0.6374249458 0.6684325337
-0.20492965 -0.024506934 0.84695476 -0.02397650294 0.5415881872 0.8403019309
-0.16539064 -0.035812844 0.85284215 0.1587629169 0.4336835146 0.8869683743
-0.085271418 -0.10522092 0.85570371 -0.1648165584 0.8374832869 0.5210155845
-0.012693443 -0.12244523 0.92150009 -0.08499988168 -0.6665173173 0.7406278849
-0.18461634 -0.0014710465 0.83900005 -0.112511307 0.3397645652 0.9337565303
-0.095298856 -0.006106155 0.85336113 -0.3040496111 -0.5543612242 0.7747499347
-0.07499148 -0.10670662 0.85342842 -0.6585415602 0.2768865526 0.6997548342
-0.052830923 -0.11417919 0.88364005 -0.4938212335 -0.616451323 0.6132929921
-0.14833054 0.012013547 0.83900005 -0.2048871517 -0.3105147481 0.9282251
-0.14703116 -0.068876572 0.87157154 0.266789794 0.6927517056 0.6700136662
0.0068561174 -0.051945131 0.90233344 -0.4805734158 -0.7746877074 0.4109843969
-0.10510715 -0.093621127 0.84824169 0.4017240703 0.4022805691 0.8226712942
-0.21818873 0.019305516 0.83100003 0.1980262399 -0.2049488425 0.9585309625
-0.072995648 -0.11149885 0.91500002 -0.4099197686 -0.8423092961 0.3499726057
-0.20542242 0.042071473 0.84657907 -0.05756529048 -0.7213699818 0.6901533604
-0.034457579 -0.10283036 0.93011135 -0.2742640078 -0.3367878199 0.9007514715
-0.085542426 -0.06443283 0.83152181 0.7989850044 -0.06380293518 0.5979566574
0.024721252 -0.10475744 0.85225588 0.1992882639 0.1150742024 0.9731608629
-0.098643139 -0.075044885 0.8411538 0.6412637234 -0.1090779901 0.7595280409
0.023102321 -0.07637012 0.86395842 -0.5983068347 -0.5608322024 0.5722728372
-0.1268712 -0.067584336 0.86040002 0.2779024839 0.4957907498 0.822776854
-0.12480442 -0.046263222 0.85245156 0.1619369537 0.4129290879 0.8962510824
0.031101152 -0.094802372 0.85280001 0.3847615421 0.0004145987914 0.9230158925
0.0188045 -0.11057046 0.85800004 0.2986597419 0.1758807898 0.9380129576
-0.025221918 -0.037569989 0.85274994 -0.5724171996 -0.5720806122 0.5874200463
-0.19399405 -0.04191694 0.85799986 0.05462724715 0.536170423 0.8423402905
