# .PCD v0.7 - Point Cloud Data file format
VERSION 0.7
FIELDS x y z normal_x normal_y normal_z
SIZE 4 4 4 4 4 4
TYPE F F F F F F
COUNT 1 1 1 1 1 1
WIDTH 512
HEIGHT 1
VIEWPOINT 0 0 0 1 0 0 0
POINTS 512
DATA ascii
-0.1948355 -0.045543194 0.92394865 -0.1056884155 0.436039865 -0.8936997056
0.071985506 -0.084477276 0.97174996 0.866052866 -0.1110770479 -0.4874569476
-0.068337917 -0.14074357 0.92800003 -0.1523872465 -0.1052672639 -0.9826987982
-0.036302034 -0.041405115 0.97049999 -0.4332773983 0.6335647106 0.6409886479
-0.15460458 -0.12456421 0.96264994 -0.0245068036 -0.638716042 -0.7690522075
-0.10478395 -0.056034688 0.9165554 0.01250551455 0.2666605115 -0.963709414
0.02977686 -0.13117914 0.91800004 0.78090626 -0.4105974734 0.4707389474
-0.0049566734 -0.11443802 0.98600018 0.05322301388 -0.6889241934 0.7228767276
-0.028308881 -0.065463766 0.89700001 0.1271615028 0.3236044943 -0.9376087189
0.023847086 -0.048516486 0.93800002 0.2504930496 0.861597836 -0.4414774776
-0.22309016 -0.10231019 0.94600004 -0.09742717445 -0.576205194 -0.8114773631
-0.1455061 -0.022470051 0.95358837 0.1398151815 0.8609606624 -0.489079237
-0.078715026 -0.098978296 0.88900006 -0.7347849607 -0.1957985014 -0.6494259238
-0.15294677 -0.080541119 0.92800003 -0.1338399798 -0.5016183257 -0.8546729684
0.054676335 -0.082408614 0.91266674 0.4910673201 0.4112883806 -0.7679158449
-0.10795274 -0.10960086 0.94000006 -0.231922999 -0.6443314552 -0.728730917
-0.033753417 -0.10571723 0.93000025 0.6665038466 -0.3742459714 -0.6447578073
0.055350281 -0.034798052 0.97133344 0.4398987293 0.5955796838 -0.6721413136
-0.051872365 -0.12670463 0.97000003 -0.3030886054 -0.9142858982 0.2687352002
-0.0048677544 -0.14116488 0.94800001 0.06660154462 -0.804594934 0.590077281
-0.063923903 -0.039649002 0.92300004 -0.1655047387 0.6131359935 -0.7724457383
-0.10428099 -0.034489475 0.9636957 0.1278050393 0.9440127611 -0.3041476607
0.030345816 -0.089303404 0.98900002 0.2440241575 -0.06496602297 0.9675906301
-0.0060200701 -0.069660813 0.98100007 -0.03795383126 0.5003216267 0.8650074005
-0.23328127 -0.064757362 0.93057162 -0.3350330293 0.1557208598 -0.9292491078
0.025735429 -0.11609697 0.95733339 0.3219684958 -0.9119766355 0.2542339563
0.00085036666 -0.031463567 0.97000003 -0.1844969839 0.836879909 -0.5153570175
-0.21638149 -0.032581314 0.95300007 -0.2796687186 0.7276176214 -0.6263849139
-0.18528198 -0.10510721 0.94550008 0.1327231079 -0.5321574807 -0.8361775875
-0.14523411 -0.045372508 0.92285722 -0.04031572118 0.5178163052 -0.8545413613
-0.0064382399 -0.047022142 0.91800016 0.3017629981 0.6479248405 -0.6993800998
-0.097758107 -0.13255902 0.96485722 -0.3374688625 -0.779630363 -0.5275331736
0.053870227 -0.06507881 0.94631028 0.7445622087 0.4560815096 -0.4874595106
-0.074599952 -0.072995648 0.91500002 -0.3345785737 0.3936752081 -0.8561991453
-0.032691136 -0.09563525 0.98845476 -0.2038476467 0.00962746609 0.9789552689
-0.06592533 -0.10960086 0.94000006 0.2086113393 -0.8332913518 -0.5119636655
-0.20538715 -0.082514271 0.92700016 0.041576989 -0.4220282733 -0.9056288004
-0.174988 -0.027321465 0.94450009 -0.03503736854 0.8192443848 -0.5723730922
0.0653807 -0.11108966 0.90675002 -0.05988121405 -0.2421779335 -0.9683821797
-0.11508841 -0.084293708 0.92449993 -0.1756420732 -0.4708738327 -0.8645390272
0.025971068 -0.073386766 0.91412491 0.0908883065 0.6171634793 -0.7815679908
-0.03911199 -0.13449976 0.92733341 0.5884564519 0.3768713474 -0.7153230309
-0.1449621 -0.10491239 0.94227612 -0.1295910329 -0.5930486321 -0.7946694493
-0.022826938 -0.12258283 0.96433336 -0.09591463953 -0.9660041928 0.2400756478
-0.12531738 -0.12567855 0.96214283 -0.08886518329 -0.756519556 -0.6479051709
-0.04451872 -0.08538381 0.91393763 0.1354338527 -0.6658450365 -0.7336947918
-0.087613195 -0.088840961 0.93400002 -0.2241235077 -0.4783086479 -0.8491110206
-0.11691183 -0.039061781 0.93483335 0.0283116512 0.889543891 -0.4559716284
0.071365267 -0.056541055 0.96625012 0.7962576151 0.2585467696 -0.5469253659
-0.17483872 -0.064757839 0.92330563 -0.03770262748 -0.2060650587 -0.9778116941
-0.036015797 -0.046398189 0.91465223 0.006124620326 0.7188003063 -0.6951896548
-0.08128278 -0.1126692 0.91800004 -0.6642076373 -0.3766110837 -0.6457494497
0.042140491 -0.11094129 0.98100007 0.3581151366 -0.5605694652 0.7466695309
-0.067515559 -0.075813845 0.88660008 -0.2529426515 0.4632906318 -0.8493419886
0.025668798 -0.032292489 0.96353841 0.06667757779 0.7831040621 -0.6183058619
-0.055707783 -0.11837587 0.91650009 0.4960121214 0.1424354613 -0.8565536141
0.038770583 -0.10775548 0.91500002 -0.2198268473 -0.3471327424 -0.9116880298
0.020601667 -0.13597099 0.94000006 0.5901314616 -0.6615502834 0.4627051353
0.0014450388 -0.091615468 0.98900002 -0.03485162556 0.09304460138 0.9950518012
-0.17492653 -0.084807388 0.93622565 0.01077721827 -0.4970779717 -0.8676389456
-0.086693563 -0.038862634 0.93000007 -0.09925632924 0.6241922975 -0.7749401331
-0.031650472 -0.12089058 0.98640001 -0.0638089776 -0.7062481642 0.705082953
0.0033738513 -0.1206622 0.9625001 0.2071074694 -0.8750776052 0.437430799
-0.13271637 -0.070781626 0.91750002 -0.07669954747 -0.2918140292 -0.9533948302
-0.055891074 -0.064277075 0.903 -0.2127279192 0.4545257092 -0.8649585247
0.044455931 -0.06551379 0.92406261 0.4034716785 0.7569707036 -0.5140096545
-0.21527709 -0.044141997 0.93259394 -0.3226744831 0.61742419 -0.7174040079
0.016126635 -0.10837792 0.98900002 0.1630246192 -0.3827317059 0.9093620777
-0.010929403 -0.046239782 0.95900005 -0.3742197752 0.8083612323 -0.4544355273
-0.2263518 -0.086414978 0.93150002 -0.2414581627 -0.3944128156 -0.8866434097
-0.17447053 -0.12227507 0.95472735 0.04344895855 -0.5801981091 -0.8133156896
0.045376088 -0.045152284 0.9556129 0.3936804533 0.623149097 -0.6757965088
-0.021590548 -0.1320155 0.94000006 -0.3513242602 -0.7751472592 0.5250885487
-0.089823268 -0.11948966 0.94000006 -0.6239243746 -0.4560141265 -0.6346412301
-0.19484244 -0.031371295 0.94174999 -0.1563077122 0.7920199633 -0.5901459455
0.014485018 -0.076456875 0.98483342 -0.007210090291 0.2146251202 0.9766699076
-0.043732464 -0.11481103 0.94516671 -0.3912324905 -0.829400301 -0.398788482
-0.16507253 -0.10379282 0.94555169 -0.05769542977 -0.5486680269 -0.8340471387
-0.12598345 -0.027254192 0.95595253 0.2065597922 0.8936300278 -0.3984449804
0.0066486401 -0.044878319 0.94800007 -0.09323552251 0.9069745541 -0.4107362628
-0.21502377 -0.064667843 0.92208356 -0.1903718263 0.07281497866 -0.9790079594
0.041330449 -0.084629014 0.89800006 0.32329458 0.2708990276 -0.9066941738
-0.0915346 -0.082750231 0.91110003 -0.6308446527 -0.2075538039 -0.7476338744
-0.16501659 -0.045366902 0.92422211 -0.05108180642 0.4320740402 -0.9003902674
0.028384537 -0.11829512 0.93580008 0.719595015 -0.5371903777 0.4400108457
-0.20439789 -0.10526592 0.94037533 0.03243632615 -0.5967098475 -0.8018012643
-0.085155308 -0.055667162 0.91733336 -0.0734052062 0.4751568735 -0.8768338561
-0.024290128 -0.075776123 0.98400003 -0.1110890508 0.3177494407 0.9416445494
-0.053833358 -0.10197682 0.926875 0.2934022248 -0.6164237261 -0.7307099104
-0.19472072 -0.064699471 0.92109746 0.04358831048 -0.1236815304 -0.991364181
0.014687235 -0.058145348 0.9180001 0.257633388 0.6838199496 -0.6826531887
-0.072558194 -0.08920566 0.90450001 0.09904252738 0.340038836 -0.9351813793
-0.13489503 -0.086604983 0.93126953 -0.1183484495 -0.534311235 -0.8369618654
-0.12572351 -0.10284102 0.93730766 -0.1466232985 -0.5745589733 -0.8052226901
-0.12732093 -0.048333012 0.91671437 0.02613760158 0.43226403 -0.9013682008
-0.048700586 -0.08090581 0.89600003 0.5783311725 -0.4189455509 -0.7000126243
-0.068399727 -0.10714839 0.90200007 0.5257042646 -0.5733903646 -0.628377676
-0.15410048 -0.030490467 0.94000006 0.0560422428 0.8141354918 -0.5779642463
-0.096578643 -0.10185223 0.92575014 -0.4911402464 -0.446793288 -0.7477680445
0.060668841 -0.081445843 0.94800007 0.9073989987 0.1804527789 -0.3795574307
-0.15493943 -0.064559639 0.92050004 -0.1680089235 -0.2023708075 -0.964789629
-0.084170789 -0.13310875 0.92800015 -0.6387056112 -0.4579268992 -0.6183511019
-0.06573236 -0.054295924 0.91280019 -0.2793392837 0.5467882752 -0.7892985344
-0.13503952 -0.036824189 0.93356532 0.120105885 0.8109869957 -0.5726034045
0.024483986 -0.116423 0.97650003 0.1496303976 -0.8712878227 0.4674058855
-0.05974045 -0.090774447 0.88500005 -0.2825254798 0.2242455631 0.9326806664
-0.10597092 -0.072755992 0.91575003 -0.2992983758 -0.1613215804 -0.9404231906
-0.018367043 -0.055847421 0.90629423 0.2116374224 0.5422987938 -0.8130938411
0.0056774393 -0.12782516 0.9478333 0.3154677153 -0.7257478833 0.6113674641
-0.054431234 -0.13406979 0.92152387 -0.2295785844 -0.02703953721 0.9729144573
-0.021675583 -0.10837792 0.98900002 -0.03609679267 -0.4003864825 0.9156351089
-0.10511918 -0.12216987 0.95509094 -0.2143503577 -0.7716735601 -0.5988103747
-0.060095496 -0.087340549 0.91400003 0.4642713666 -0.5131044388 -0.721925199
0.056803931 -0.097574517 0.91027266 0.2081716657 0.04248346761 -0.9771692157
0.042473689 -0.1233582 0.91415393 -0.3675590456 -0.2777233124 -0.8875641227
-0.19533464 -0.094409928 0.93442422 0.165360108 -0.510274291 -0.8439645767
-0.0046030534 -0.061988272 0.91578943 0.3660874367 0.5717568398 -0.7342166901
-0.1019125 -0.039406165 0.93000007 -0.06250524521 0.7981882691 -0.5991565585
-0.15391083 -0.093265243 0.93621051 -0.1422286332 -0.5504134893 -0.8226882815
-0.043939009 -0.12524314 0.95612502 -0.3299593925 -0.9407802224 0.07784167677
-0.10207687 -0.086562499 0.93150008 -0.1532634348 -0.5592717528 -0.8146934509
-0.016772119 -0.09441413 0.98882627 -0.07070818543 0.1370936632 0.9880312085
-0.035991989 -0.076923996 0.90225005 0.3344629705 -0.4311034679 -0.8380240798
0.029841732 -0.060490001 0.92000002 0.1900232434 0.737726748 -0.6478043199
-0.13448694 -0.11776656 0.9538334 -0.1018448696 -0.7071017027 -0.6997390985
-0.016284667 -0.11856361 0.97766674 0.1138707176 -0.8856629729 0.4501494765
0.04238683 -0.029670782 0.96700007 0.2815838158 0.698337853 -0.6580538154
0.025427319 -0.041668288 0.95236379 0.113266699 0.8024666905 -0.5858479738
-0.1941162 -0.11410357 0.95266688 0.07853072137 -0.5565094352 -0.8271216154
-0.034140196 -0.12728542 0.94547617 -0.4158883095 -0.8859962821 0.2050548196
0.053165451 -0.072795771 0.93300003 0.7120040059 0.6099245548 -0.3479113579
-0.21447963 -0.094065778 0.93418527 -0.09557556361 -0.55396837 -0.8270334601
-0.18498614 -0.076089017 0.93081844 0.09685739875 -0.43289873 -0.8962239623
0.061339125 -0.046247747 0.96508336 0.6040078998 0.5190248489 -0.6048038006
-0.044576939 -0.05594863 0.9053334 -0.09024751931 0.5680143237 -0.8180556893
0.064717039 -0.091952309 0.96228582 0.6640196443 -0.5783858895 -0.4738645852
0.044852614 -0.05443076 0.94489288 0.5252494216 0.6481309533 -0.5513976216
0.014787261 -0.094815791 0.99224007 0.06314984709 0.001286265324 0.9980032444
0.065480687 -0.074106917 0.96500003 0.859220922 0.07657194138 -0.50584203
0.011118472 -0.049083982 0.92800003 0.3120782971 0.787115097 -0.5320309401
-0.11473904 -0.095690712 0.93234497 -0.1875182241 -0.5085345507 -0.8403746486
-0.20504993 -0.055232409 0.92312521 -0.1580053568 0.2465314716 -0.9561676383
-0.14244606 -0.057944156 0.91800004 -0.08074995875 0.09390529245 -0.9923009872
-0.042167667 -0.039734915 0.92500007 -0.06691391766 0.7534644604 -0.6540747881
-0.17720917 -0.039831571 0.92725003 -0.04887598008 0.597057879 -0.8007078171
-0.16457792 -0.07360778 0.9258799 -0.1182192266 -0.4480847418 -0.8861401081
-0.22426799 -0.074333459 0.92500001 -0.2263884097 -0.1165847629 -0.9670348167
0.055750404 -0.054761335 0.95499998 0.6143682599 0.4448667765 -0.6516480446
-0.18528402 -0.055084009 0.92024994 -0.02195363492 0.08518151939 -0.9961235523
-0.023567079 -0.038656794 0.96700013 0.2214585245 0.44272995 0.8688764572
0.034853294 -0.055326477 0.93427777 0.3719231784 0.8089004159 -0.4553605914
-0.16566187 -0.021902572 0.95253861 -0.005172643345 0.8331825733 -0.5529738069
-0.05429979 -0.047995333 0.91600001 -0.1869112551 0.6531609297 -0.7337881327
-0.12440889 -0.1127972 0.94647062 -0.130862534 -0.6911231279 -0.7107909918
-0.074516743 -0.12474302 0.92391658 -0.3734604716 -0.4415141344 -0.8158385754
-0.044429515 -0.066850327 0.89652956 -0.039348986 0.3005032539 -0.9529687762
-0.16509555 -0.034823973 0.93407702 -0.008338442072 0.7433540821 -0.6688461304
0.053922381 -0.11336757 0.91280967 -0.2254933119 -0.2488478273 -0.9419275522
0.044438474 -0.095221251 0.90511119 0.1350744963 -0.04358509555 -0.9898763895
-0.054924104 -0.11357459 0.93403691 0.3506170511 -0.9362720847 0.02150169015
-0.2223814 -0.040508136 0.94300002 -0.3477284908 0.6165273786 -0.7063843608
-0.20394279 -0.037758771 0.93484616 -0.2475902289 0.7127208114 -0.6562987566
0.045483127 -0.07302317 0.91339999 0.3412998021 0.6577795744 -0.6714465618
-0.11453733 -0.033233125 0.95431828 0.1509124488 0.9268512726 -0.3437618017
-0.15546356 -0.11487381 0.95410019 -0.04532006755 -0.6260756254 -0.7784442306
-0.0042667366 -0.12035493 0.97366667 0.1069641113 -0.904725194 0.4123480916
-0.089675985 -0.12822828 0.95600003 -0.5447941422 -0.6083748937 -0.5771302581
-0.12512949 -0.034084156 0.94526666 0.211066097 0.8805224895 -0.4244187474
-0.014876629 -0.12589832 0.95499998 -0.1257185787 -0.8714677691 0.4740661979
-0.076766051 -0.077544965 0.89499998 -0.5691606998 0.4264471829 -0.7029927969
0.06203666 -0.065384217 0.95625001 0.7930663228 0.2001969665 -0.575297296
-0.074732624 -0.04529646 0.92514277 -0.1591205746 0.5269442201 -0.8348715305
0.0050141462 -0.10414879 0.99244142 0.06654410064 -0.2386453748 0.9688241482
-0.22594753 -0.05480421 0.93113816 -0.4031972289 0.364656806 -0.8393195868
0.0056114057 -0.03752235 0.95789468 -0.1529012769 0.8371408582 -0.5251822472
-0.13675414 -0.02851329 0.9473334 0.1812317371 0.85273844 -0.489890039
-0.11519757 -0.064649269 0.91674995 -0.008621197194 -0.05131885037 -0.9986451268
0.035290852 -0.07630752 0.90673357 0.1143296808 0.5588675737 -0.8213377595
0.018071314 -0.070936657 0.92300004 0.1694284678 0.6629522443 -0.7292382121
-0.1165196 -0.11847325 0.95391679 -0.1246550307 -0.7552943826 -0.6434217691
-0.17424537 -0.10921601 0.95100003 0.05417640507 -0.5482112169 -0.8345833421
-0.0242787 -0.047490194 0.91299999 0.1275292784 0.7216751575 -0.6803832054
0.035262458 -0.037778199 0.95766664 0.2154646069 0.7343724966 -0.6436396837
-0.11523056 -0.045525599 0.92508578 0.02649704553 0.6978745461 -0.7157297134
0.034540009 -0.046990693 0.94705009 0.3113177717 0.739556253 -0.59677279
-0.065475956 -0.071009301 0.90200007 -0.2547094822 0.6104269624 -0.7500013113
-0.087511219 -0.1038673 0.93293756 -0.3505591452 -0.30856058 -0.8842503428
0.034562461 -0.11575644 0.92614305 0.7819952965 -0.4103819132 0.4691162109
-0.084260687 -0.075273462 0.90582776 -0.4487827122 0.3775680065 -0.8099607825
-0.064095184 -0.083698325 0.89437503 -0.4240403473 0.2876228988 -0.8587566018
-0.11279851 -0.12734635 0.96200001 -0.1427220404 -0.7766261101 -0.6135815382
0.014343144 -0.031641968 0.96250004 -0.08973136544 0.8141138554 -0.5737307072
-0.15393247 -0.039054383 0.92636377 0.01448391471 0.6444598436 -0.7645009756
-0.10912396 -0.038854744 0.94300002 -0.0007466296665 0.9172886014 -0.3982224464
0.073698439 -0.068312787 0.97000009 0.8742565513 0.1090197414 -0.4730646908
-0.083736569 -0.066640981 0.91385716 -0.2310106456 0.3792497814 -0.8959931135
-0.17488605 -0.094870783 0.94100022 0.03774800524 -0.5388567448 -0.8415512443
0.021627117 -0.12184916 0.94371426 0.6087589264 -0.6418167353 0.4663516283
-0.069405697 -0.064619102 0.91000003 -0.2906747162 0.4585379064 -0.8397923708
-0.14514874 -0.074467055 0.92324996 -0.1157617792 -0.4128753841 -0.9034008384
-0.063188389 -0.098452464 0.93120003 -0.09091684967 -0.4527320266 -0.8869993687
0.030685086 -0.1152764 0.94600004 0.5425044894 -0.7873529792 0.292855233
0.013283732 -0.12186463 0.95272732 0.3976103663 -0.8151391149 0.4212531149
-0.18490919 -0.036009755 0.93368191 -0.08050808311 0.7380397916 -0.6699370742
-0.066093996 -0.1159504 0.91720009 0.6629579067 0.2585844994 -0.7025815845
-0.19535841 -0.07452929 0.92524403 0.1100854501 -0.3514248729 -0.9297213554
0.0042338422 -0.056299619 0.91799992 0.3359785378 0.6038175225 -0.7228574157
-0.096836761 -0.062972717 0.91563642 -0.1018056124 0.2972752452 -0.9493487477
-0.047513578 -0.12500609 0.91600007 -0.3461634219 0.0106610572 0.9381136298
-0.23336396 -0.076073758 0.93000025 -0.2220664769 -0.1609764993 -0.961651206
0.045743842 -0.062821306 0.93414295 0.6174664497 0.6804086566 -0.3946887553
0.034127947 -0.10527561 0.98460633 0.2206958085 -0.4767127931 0.8509044051
-0.045933306 -0.097084336 0.92213649 0.1625616103 -0.562684536 -0.8105306029
-0.12432223 -0.074793503 0.92212123 -0.08879959583 -0.3936993182 -0.9149401784
-0.13487224 -0.098750651 0.94000024 -0.1220171824 -0.5688537955 -0.813337028
-0.17492792 -0.054755274 0.92014611 -0.02271321416 0.05188505724 -0.9983947277
-0.16454794 -0.054848876 0.92008328 -0.09550793469 0.1078696847 -0.9895667434
-0.095121332 -0.045316 0.92489475 -0.06198884919 0.6097995043 -0.7901278138
-0.035244923 -0.12927969 0.93533343 -0.6081206799 -0.603954792 0.5151968598
-0.08712922 -0.11420909 0.93157899 -0.5673677325 -0.2834760547 -0.7731333375
-0.079339206 -0.094879881 0.93300003 -0.09098794311 -0.5941669345 -0.7991788983
-0.16504562 -0.084909193 0.93335301 -0.1087404937 -0.5136384368 -0.8510881662
-0.15481411 -0.10430962 0.94511122 -0.1083687767 -0.5766769648 -0.8097530007
-0.0052182842 -0.1043671 0.99208355 -0.02483680472 -0.1830421388 0.9827913046
-0.025340853 -0.12201175 0.97441679 -0.009136211127 -0.9117510915 0.4106416106
-0.13544255 -0.12464762 0.96200007 -0.06303247809 -0.7349972725 -0.6751340032
0.0049338797 -0.045227233 0.93800002 0.09588091075 0.9462549686 -0.3088825345
-0.1848035 -0.045075435 0.92272729 -0.04869301245 0.4213830531 -0.9055745602
0.027668653 -0.1262234 0.92653352 0.7373802066 -0.4842954576 0.470880419
-0.14520186 -0.086469583 0.93050021 -0.1096343771 -0.5366811156 -0.8366323709
0.0050424743 -0.11395931 0.98509669 0.07685188204 -0.7532504201 0.653228581
-0.14574671 -0.11699686 0.95550007 -0.05225368962 -0.6624852419 -0.7472501993
-0.13491748 -0.11302651 0.94500005 -0.1158645377 -0.6702783108 -0.7330091
-0.094685987 -0.05422831 0.92032146 -0.006842630915 0.4506805837 -0.8926590681
-0.18468158 -0.085382223 0.93438447 0.1282171905 -0.4826358855 -0.8663849831
-0.14486782 -0.035325829 0.93362498 0.06745064259 0.7717500925 -0.6323387027
-0.19506255 -0.10518438 0.94374216 0.0980636552 -0.5475081205 -0.8310344815
-0.03584953 -0.11922053 0.95100003 -0.3439826071 -0.9333853126 -0.1023121476
-0.04704237 -0.10822144 0.93050003 -0.06805302203 -0.1715335846 -0.9828250408
-0.16481633 -0.064637579 0.92158347 -0.1271225512 -0.2471701801 -0.9605970979
-0.038524456 -0.093102872 0.91550004 0.1421163082 -0.6883420348 -0.7113284469
0.015346313 -0.041531645 0.95130014 0.001569852582 0.8543515801 -0.5196931362
-0.0049916748 -0.12598383 0.955037 0.07735127956 -0.8405253291 0.536221981
-0.031731423 -0.086016908 0.9864617 -0.100422807 0.1630366892 0.9814959764
-0.18470614 -0.064650856 0.92332417 0.02082330734 -0.1591756195 -0.9870306253
-0.21402062 -0.035295065 0.94336861 -0.2834684849 0.6928700209 -0.6630058289
-0.055173308 -0.082098663 0.90333337 0.5926085711 -0.5098640919 -0.6235812902
-0.02460146 -0.1402408 0.93549997 -0.3784773946 -0.7367978692 0.5602533221
-0.16453268 -0.026583472 0.94395655 -0.001273630769 0.813610673 -0.5814086795
-0.074953817 -0.055301167 0.91603351 -0.2495527267 0.5332506299 -0.8083113432
-0.01557727 -0.08482004 0.98725003 -0.08105139434 0.2497891486 0.9649021029
-0.16520767 -0.11554054 0.95355266 -0.006298665423 -0.592779696 -0.805339992
0.0053604185 -0.11890738 0.97454554 0.1383182555 -0.9134531617 0.3827157915
-0.21440558 -0.10400067 0.94185722 -0.02968296409 -0.5967154503 -0.8019037247
-0.18462126 -0.027588876 0.94606668 -0.08238615841 0.8178455234 -0.5695096254
-0.21443912 -0.055309776 0.92578781 -0.2989002466 0.3962326348 -0.8681349754
-0.12580529 -0.063916534 0.91727579 -0.0686513409 -0.05035810173 -0.9963689446
-0.034844801 -0.05564915 0.90508586 0.01215490326 0.59793365 -0.8014534712
-0.20195244 -0.029087802 0.94800013 -0.1911271662 0.7817292809 -0.5936073661
0.023314994 -0.10257765 0.99200004 0.2350041121 -0.3221510053 0.9170560241
0.0048677549 -0.075271167 0.98442841 -0.03659971058 0.2561604083 0.9659411311
-0.15485439 -0.054844286 0.91999996 -0.1197675169 0.2149030715 -0.9692638516
-0.19429149 -0.085606828 0.93058085 0.181331262 -0.4565457404 -0.8710252643
-0.076362923 -0.09525685 0.89800006 -0.7453798652 -0.2103016078 -0.632599473
-0.06487944 -0.12502843 0.92333335 -0.1977453232 -0.07904546708 -0.9770612121
-0.20434281 -0.046008848 0.92580765 -0.2191426307 0.5069768429 -0.8336372375
-0.13562915 -0.044777326 0.92285299 -0.008754598908 0.5637751222 -0.8258818984
-0.0052585523 -0.036579415 0.96460891 -0.2771244645 0.7374321222 -0.6159511805
-0.20494351 -0.094973788 0.93386108 0.04705225676 -0.545805037 -0.8365901113
-0.21499486 -0.074523173 0.92262173 -0.1566442549 -0.1330693364 -0.9786496162
-0.15497519 -0.021899201 0.95238471 0.07343348116 0.8434756994 -0.5321243405
-0.067554176 -0.099757656 0.89600003 0.7371949553 -0.5683599114 -0.3653910458
-0.19542475 -0.054842833 0.92186499 -0.06781902909 0.1473667175 -0.9867540598
-0.024270955 -0.12433643 0.95464289 -0.2631316781 -0.8965033889 0.3564314842
-0.20527059 -0.064651109 0.92183334 -0.07204001397 -0.005011312198 -0.9973891377
-0.014087643 -0.14122789 0.94577777 -0.1785161346 -0.7763082385 0.6045473218
-0.0051994612 -0.084927216 0.98849994 -0.07046733052 0.2364138067 0.9690938592
0.034295205 -0.11523187 0.97800004 0.1837990582 -0.8224295378 0.5383563638
-0.17509644 -0.076696284 0.9315002 0.00946851261 -0.4604935944 -0.8876125216
-0.036780648 -0.098663777 0.92333341 0.08143872768 -0.6422020197 -0.7621970177
-0.21448863 -0.083605975 0.92532331 -0.1094964594 -0.4129879475 -0.9041302204
0.06691055 -0.064520031 0.96464705 0.8174570799 0.1725407988 -0.5495393872
-0.14527838 -0.12285454 0.96266675 -0.04233627766 -0.6773996949 -0.7343958616
-0.11415926 -0.11395358 0.9461875 -0.1513365805 -0.7110961676 -0.6866144538
-0.1835911 -0.12197501 0.95625001 0.08214811236 -0.5670816302 -0.8195548058
-0.084679268 -0.04578289 0.92421627 -0.0722348243 0.5157902241 -0.8536642194
-0.012175146 -0.11044598 0.99200004 0.07610231638 -0.4836630523 0.8719394803
0.034764957 -0.066994995 0.91569233 0.1978498697 0.7154163718 -0.6701006293
-0.0056328755 -0.12183415 0.96399999 0.1205219403 -0.8983380795 0.4224489331
-0.12410866 -0.082881622 0.92642868 -0.1089030579 -0.5227612853 -0.8454943895
-0.08090581 -0.085618772 0.89600003 -0.6958264112 0.08561854064 -0.7130883932
-0.0023676378 -0.043425445 0.9576363 -0.2166973352 0.8227159381 -0.525529027
0.062116656 -0.074246213 0.95425004 0.8464127779 0.1143376157 -0.5201079249
-0.18588522 -0.09393435 0.93714797 0.1516029239 -0.5025251508 -0.8511668444
0.056758266 -0.073682629 0.94547361 0.8730750084 0.2981582582 -0.385800004
-0.17529459 -0.02253603 0.95216686 -0.03763632476 0.8209220767 -0.5697986484
-0.032200843 -0.1035683 0.99275005 -0.1899426579 -0.1605629623 0.9685769677
-0.1258398 -0.037849844 0.93416661 0.1246263981 0.8496864438 -0.5123486519
-0.014924812 -0.069479778 0.98250008 -0.05120933801 0.4354526997 0.8987538815
-0.20090833 -0.11124812 0.94700003 0.04879027605 -0.5750591755 -0.8166556358
-0.22413133 -0.065319866 0.92536002 -0.1922460347 0.04426202923 -0.9803480506
-0.075115725 -0.13522099 0.93022245 -0.3910546601 0.2437631935 -0.8874997497
0.01156674 -0.11819454 0.9653334 0.1944009364 -0.9381453991 0.2865161002
0.053197443 -0.07452967 0.92416668 0.7182494402 0.597777009 -0.3560622931
-0.051123694 -0.11984734 0.95600003 -0.353382498 -0.9327967763 -0.07078842074
-0.16524462 -0.095847763 0.94143504 -0.08192797005 -0.5472593904 -0.8329435587
-0.012796702 -0.061195496 0.91250002 0.2895932794 0.4687533677 -0.8345094323
-0.05311548 -0.09094014 0.91800004 0.2847877443 -0.724863708 -0.6272706985
-0.10466539 -0.10451362 0.93362504 -0.1866059601 -0.4639871418 -0.8659642935
0.044673353 -0.11505702 0.91231436 -0.3202428222 -0.2438608408 -0.9154105186
-0.044634357 -0.046927128 0.91619062 -0.09730053693 0.6956861019 -0.7117256522
-0.19549316 -0.03596285 0.93339133 -0.17035155 0.7323056459 -0.6593245268
0.021741332 -0.0895743 0.99200004 0.1679931134 -0.02798593417 0.985390842
0.015824327 -0.11698213 0.97581249 0.1389932632 -0.9178795815 0.371722877
-0.094598085 -0.11264627 0.93573689 -0.5465062261 -0.2854608595 -0.7873011231
-0.10521599 -0.04527517 0.92456746 -0.02395486832 0.6304588318 -0.7758529782
-0.14443089 -0.11245734 0.94646668 -0.09611926973 -0.6510514021 -0.7529230714
-0.20542328 -0.074507333 0.92375004 -0.001733379671 -0.2509980202 -0.9679860473
-0.14455953 -0.031188643 0.94120008 0.1347321719 0.833840847 -0.5353099108
-0.032393709 -0.079407595 0.98100013 -0.1583274603 0.3015767634 0.9402041435
-0.076835841 -0.10863332 0.91188896 -0.5366618037 -0.662842989 -0.5221430063
-0.055008017 -0.075149111 0.89636844 0.264593333 0.4660117328 -0.8442887068
-0.11610729 -0.076560117 0.92064291 -0.08655560017 -0.3850488067 -0.9188283682
-0.054676045 -0.056646481 0.90658641 -0.2154308408 0.6309149861 -0.7453427315
-0.14481615 -0.093657129 0.93504173 -0.1194622666 -0.5271012783 -0.8413637877
0.058876932 -0.081459865 0.92000002 0.7695727944 0.4983607829 -0.3992420435
-0.11435597 -0.052643675 0.92052948 0.04240397364 0.447773695 -0.8931408525
-0.014375872 -0.12223334 0.96455562 -0.03466907516 -0.9325609207 0.3593441546
0.043526221 -0.077589341 0.90568197 0.3716093898 0.4590854049 -0.8069368601
-0.14594194 -0.065279573 0.92010719 -0.1371223927 -0.206509158 -0.9687886238
-0.091805629 -0.095892638 0.93224996 -0.4330150187 -0.4556324482 -0.7777513266
0.035164163 -0.08452037 0.90363634 0.2223959416 0.3420224786 -0.9129954576
-0.12613936 -0.11800484 0.9537335 -0.09670049697 -0.7308135033 -0.6756926775
0.017187489 -0.050736647 0.93350005 0.26179111 0.8078885078 -0.5279977322
-0.12469517 -0.044959098 0.92385185 0.05058633909 0.6053053141 -0.7943843603
0.069092728 -0.092123643 0.97300005 0.6563732624 -0.596924901 -0.4613619149
-0.17429136 -0.036048654 0.93400013 -0.03197216988 0.7408999801 -0.6708539128
-0.055194367 -0.043582875 0.92291325 -0.1765922457 0.6608194113 -0.7294744253
0.0033190602 -0.14113456 0.94700003 0.2190426588 -0.797375083 0.5623284578
-0.10605902 -0.096668281 0.93150002 -0.1351870447 -0.4672370851 -0.8737356067
0.048914492 -0.041324314 0.96200007 0.4454333782 0.6175422668 -0.6482519507
-0.11431062 -0.10298767 0.93604994 -0.1983426958 -0.5575403571 -0.8061072826
-0.014455697 -0.047398005 0.91638905 0.2145858258 0.7281484604 -0.6509629488
-0.10464828 -0.12743579 0.96266675 -0.1983877867 -0.780299902 -0.5931057334
-0.070015863 -0.049091581 0.91800004 -0.2350770533 0.5148806572 -0.8244007826
0.023587417 -0.12475739 0.93439996 0.7153865099 -0.5429983735 0.4397440851
0.004955932 -0.12361539 0.95476925 0.301494509 -0.8159508109 0.4932802022
-0.025259135 -0.11501642 0.98596328 0.07205551118 -0.6374676228 0.7671003938
-0.2229172 -0.046792675 0.93338084 -0.3793671131 0.5104862452 -0.7716763616
0.015618782 -0.083889887 0.98789662 0.02776543796 0.1373159885 0.9901380539
-0.01561499 -0.037905697 0.96566677 0.1204692051 0.483481884 0.8670250177
0.055279315 -0.1058853 0.91008562 -0.1258455366 -0.2517974973 -0.9595628977
0.052916922 -0.047875207 0.95810002 0.5380200744 0.5356637836 -0.6508446336
-0.082870014 -0.12520684 0.9271304 -0.5629618168 -0.3929261863 -0.7271059155
-0.048940353 -0.12403737 0.9625001 -0.2864855528 -0.9548252225 0.07896126807
-0.064992614 -0.084616214 0.88645703 -0.09990419447 0.1970559061 -0.9752887487
-0.07721138 -0.072892606 0.9029091 -0.5655741692 0.4654317796 -0.6808077097
0.048684806 -0.051465597 0.95200008 0.5383893847 0.5637928843 -0.6263181567
0.03774498 -0.11609434 0.91611123 -0.6068906188 -0.04175842926 -0.793687582
0.038918741 -0.10087102 0.90600002 -0.06545754522 -0.2414043844 -0.9682144523
-0.1078072 -0.037102286 0.95600009 0.06676461548 0.9317017794 -0.3570353389
-0.12484075 -0.095283426 0.93502933 -0.1186558381 -0.5144111514 -0.8492949605
-0.10507271 -0.064968564 0.91491896 -0.1061915681 0.06819345057 -0.9920045137
0.067178965 -0.051022001 0.97000003 0.711506784 0.3997939527 -0.5778606534
-0.045265954 -0.12934734 0.92216676 0.5193397403 0.1430538446 -0.8425092697
-0.01745268 -0.12840186 0.94800007 -0.2454355359 -0.725803256 0.6426281929
0.06347461 -0.08491306 0.95900005 0.8614394665 0.06646605581 -0.5034921169
-0.082750313 -0.11633227 0.92540008 -0.6146710515 -0.2500345111 -0.7481057644
-0.17489812 -0.045346793 0.92215002 -0.05502334237 0.3867694736 -0.9205334187
-0.0051667639 -0.09653151 0.99199992 -0.04662972689 0.02705649659 0.9985457659
-0.0030472933 -0.12881739 0.94800013 0.07612264156 -0.7861611843 0.6133155227
-0.045372758 -0.080397345 0.90800005 0.1323007047 -0.5822905898 -0.8021435142
-0.16234551 -0.12523797 0.96200007 -0.02220323868 -0.6185453534 -0.7854353189
0.0051238663 -0.084782958 0.98825705 -0.02973450348 0.2283237129 0.9731311202
-0.22426173 -0.092598341 0.93575019 -0.1642308533 -0.4466457665 -0.879508853
0.032933868 -0.096637808 0.98865014 0.2409323156 -0.2455684394 0.9389610291
-0.18533733 -0.11516834 0.95291442 0.1108200327 -0.5360587835 -0.8368750811
0.02253384 -0.058748938 0.91800004 0.2090146691 0.7088170052 -0.6737145782
-0.062743783 -0.075450666 0.89568174 -0.07198806852 0.5610522628 -0.824644208
0.048147265 -0.062176559 0.94150001 0.6887667775 0.5564411283 -0.4647296369
0.024725432 -0.046128809 0.94533324 0.1622636467 0.8481712937 -0.5042577982
-0.092983648 -0.12037948 0.94700003 -0.5534408092 -0.6224765182 -0.5533770919
-0.057576586 -0.12703088 0.92128569 0.02589113452 0.1308276951 -0.9910669923
0.035481036 -0.032946009 0.96366668 0.2051602602 0.7377173901 -0.6431813836
-0.10741972 -0.040178802 0.93533343 -0.08632409573 0.855794549 -0.5100625753
-0.13482597 -0.024952736 0.95388466 0.2173968107 0.876355052 -0.4298143983
-0.065209448 -0.13431653 0.92515141 -0.1523872465 -0.1052672639 -0.9826987982
-0.058549643 -0.11628983 0.92333335 0.4059755206 0.4102558196 -0.8166235685
-0.015559079 -0.11386175 0.98600006 0.04890022427 -0.6241320968 0.7797870636
-0.10652191 -0.084620722 0.92553568 -0.1843291521 -0.4946736991 -0.8493059874
0.06272053 -0.099245973 0.90566677 0.2081716657 0.04248346761 -0.9771692157
0.0084773665 -0.029670782 0.96700007 -0.1322620213 0.8265258074 -0.5471397042
-0.16285135 -0.10866021 0.95100003 -0.009617236443 -0.5964543223 -0.8025894165
-0.094370976 -0.0383191 0.93000019 -0.07878952473 0.6539768577 -0.7524004579
0.015387348 -0.12590334 0.94532138 0.5110113621 -0.6980252266 0.5016255379
0.051768333 -0.057857659 0.9473334 0.6315717697 0.4935293794 -0.5979513526
-0.10643785 -0.078013159 0.92119998 -0.1809132546 -0.4265066385 -0.8862068057
-0.13645917 -0.05334647 0.91870964 -0.04457971454 0.2434012443 -0.9689006805
-0.092565611 -0.075892463 0.91415012 -0.4508273005 -0.001254858216 -0.8926103115
-0.11629898 -0.10825152 0.94168746 -0.2026421875 -0.6537389755 -0.729082644
-0.025377788 -0.12772162 0.94495451 -0.457952857 -0.7403096557 0.4921593368
-0.10519458 -0.11519881 0.9442693 -0.2709186673 -0.7220247388 -0.6366186738
-0.20551181 -0.032966699 0.94260013 -0.2172545791 0.7369267344 -0.6401088834
-0.17483437 -0.10388206 0.94570565 0.06253762543 -0.532999754 -0.8438011408
-0.025204133 -0.094877243 0.98885202 -0.117010437 0.02623209916 0.9927842021
-0.2116798 -0.048514877 0.92750001 -0.2879399955 0.4362563193 -0.8525086641
-0.056350674 -0.10602361 0.93266672 -0.178846851 0.2527996004 0.9508449435
-0.15518263 -0.034340817 0.93366688 0.02587448061 0.7506760359 -0.660163641
0.015336031 -0.036297567 0.95664275 -0.05680325255 0.8356838226 -0.5462654233
-0.22328828 -0.08215642 0.92618185 -0.1924889684 -0.2878953218 -0.9381173849
0.029005833 -0.081455924 0.90649998 0.04219100252 0.4778297842 -0.8774386644
-0.1159898 -0.036866389 0.94508332 0.1285158247 0.9088312984 -0.396874547
-0.041102219 -0.12937613 0.94400001 -0.4413366616 -0.8546574712 0.2734640241
0.0048659863 -0.047801614 0.92422229 0.317348063 0.7536714077 -0.5755602717
-0.0053340932 -0.075306438 0.98575854 -0.07956658304 0.2772347629 0.9575020075
0.061670698 -0.057636272 0.95840007 0.7286406755 0.3399712741 -0.5945606232
-0.052490853 -0.068216503 0.89700007 0.02950108238 0.511397481 -0.8588377833
-0.036385052 -0.1112584 0.93414289 0.8565687537 0.1268793344 -0.5001915693
-0.075355984 -0.064927183 0.91438115 -0.306612134 0.4789469242 -0.8225562572
-0.23277538 -0.057104528 0.93274993 -0.4223267734 0.3277771175 -0.8451048732
-0.14546618 -0.039278466 0.92700005 -0.002387076616 0.6691489816 -0.7431244254
-0.16189578 -0.039863788 0.92800003 -0.002249929588 0.6113280058 -0.7913741469
-0.073376998 -0.0399497 0.93000007 -0.1177629158 0.5675464272 -0.81487602
-0.062850863 -0.058474105 0.90750003 -0.3260994852 0.5806193948 -0.746016264
0.060376033 -0.039967231 0.97000003 0.5184980035 0.5519346595 -0.653091073
-0.15504861 -0.074558318 0.92436123 -0.1484630257 -0.4317025542 -0.8897143602
0.033601582 -0.058110196 0.92580014 0.2444910854 0.7765848637 -0.5806375742
-0.0049296222 -0.054708261 0.91582882 0.3352144063 0.5942732096 -0.7310749888
-0.13554543 -0.075071968 0.92264521 -0.1266212165 -0.4080371857 -0.9041419625
0.050326802 -0.029854883 0.97300005 0.383736521 0.6231245399 -0.6815145612
0.049198534 -0.070168398 0.92000002 0.4691233635 0.7231977582 -0.5068612099
-0.18174878 -0.10921601 0.95100003 0.1021237522 -0.545933485 -0.8315812945
-0.081997551 -0.061565381 0.92000002 -0.154785201 0.506327033 -0.8483362794
-0.23279406 -0.083244964 0.93023098 -0.2550060153 -0.3514658809 -0.9008016586
0.035805549 -0.12546363 0.91583347 0.806196928 -0.3453968167 0.4803618789
-0.013590903 -0.05406709 0.91210353 0.2456358522 0.629983604 -0.736738503
0.013854995 -0.13434525 0.94182175 0.5136585832 -0.6916844249 0.507668674
-0.21931569 -0.052179202 0.93000007 -0.3267854452 0.413656652 -0.8497643471
-0.045900688 -0.061918918 0.90166664 -0.1095252335 0.4435636401 -0.8895254731
-0.0091708098 -0.13089247 0.95100003 -0.007425831631 -0.8378282785 0.5458833575
-0.045105688 -0.074839562 0.89502728 0.2587482035 0.2188775241 -0.9408198595
0.037737943 -0.093950689 0.90308332 0.004827441648 -0.03316353261 -0.9994382858
0.0017393066 -0.11044598 0.99200004 0.00492072897 -0.4993990064 0.866358161
-0.014262314 -0.10366267 0.99199998 -0.04552070051 -0.1321001947 0.9901905656
-0.045088429 -0.11938769 0.95233339 -0.3514209986 -0.9029610157 -0.2473148406
-0.055064168 -0.095820449 0.92363328 0.3981471956 -0.6503767371 -0.6469071507
-0.21638063 -0.088541582 0.93000013 -0.1136341393 -0.4728924632 -0.8737619519
-0.1348988 -0.064089321 0.91720563 -0.08496291935 -0.1216695607 -0.9889276028
-0.045088176 -0.10390119 0.9252916 0.387643069 -0.5036708713 -0.7720417976
0.014383638 -0.053857271 0.92357153 0.3012030125 0.6989784837 -0.6486184001
0.045644619 -0.035497013 0.96417886 0.3701184988 0.6620108485 -0.6517314911
-0.18506335 -0.039408684 0.92687511 -0.07259667665 0.5901145935 -0.8040488362
0.04474666 -0.10651271 0.91153568 -0.1330602467 -0.3393378258 -0.9312061071
-0.024815474 -0.062387444 0.90224999 0.1750178933 0.3501609862 -0.9201934934
-0.074138507 -0.10357208 0.90378582 -0.5882031322 -0.5956149697 -0.5470465422
-0.085048556 -0.082210667 0.90542859 -0.4804280996 0.348028928 -0.8050246239
-0.22358933 -0.097357228 0.94112498 -0.1137015447 -0.5467481613 -0.8295410872
0.041276973 -0.048479665 0.94800013 0.4369987249 0.6733330488 -0.5963679552
-0.025296072 -0.055694055 0.90580016 0.1229646206 0.5565450191 -0.8216673732
-0.068457149 -0.11064585 0.90800005 0.5731858015 -0.442324549 -0.6897876263
-0.036649272 -0.11636829 0.94474995 -0.4314398468 -0.8508901 -0.2997427881
-0.1550342 -0.045270085 0.92354059 -0.044813063 0.4824593961 -0.8747712374
-0.063833803 -0.10462774 0.93568188 0.007333301939 0.3748674989 -0.9270493984
-0.094231598 -0.10533927 0.93244833 -0.4144937694 -0.3830130994 -0.8255276084
0.0051471181 -0.13461387 0.94571024 0.2749105096 -0.7551542521 0.5951187015
-0.076585606 -0.090147629 0.91000003 0.4981259108 0.4275173247 -0.7543868423
0.018913206 -0.12828088 0.93800002 0.5867503285 -0.6698341966 0.4550233185
0.014997096 -0.045597788 0.94577271 0.09792829305 0.8814833164 -0.4619493484
-0.058450874 -0.070299022 0.90100002 0.1802529097 0.4410536587 -0.8791931272
-0.035610825 -0.072571345 0.89699996 -0.2555042207 0.1390461326 0.9567568898
0.060589064 -0.11238849 0.91180003 -0.1992641985 -0.2132089287 -0.9564704299
-0.19365567 -0.099712066 0.94000006 0.1530946344 -0.5342276096 -0.8313620687
-0.13518383 -0.10550953 0.9402504 -0.1165148318 -0.6076569557 -0.7856063247
-0.037834853 -0.084477678 0.91337508 0.1205359474 -0.6532091498 -0.7475218177
-0.068183623 -0.096246168 0.90175009 0.6599274874 -0.6397383809 -0.3939931095
-0.025084503 -0.084771827 0.98669994 -0.06580547243 0.1966270208 0.9782675505
0.070362143 -0.089012347 0.96700007 0.7394328713 -0.492760092 -0.4587227106
0.041632898 -0.068636686 0.91680002 0.2880280316 0.717533648 -0.6341807842
-0.07516782 -0.1145417 0.9158622 -0.4690646827 -0.5520880222 -0.6893309355
-0.1070395 -0.091000997 0.92800003 -0.1418378949 -0.5315579176 -0.8350617886
-0.16521455 -0.12230755 0.95666671 -0.005559471902 -0.5969352126 -0.802270174
-0.13511549 -0.093469128 0.93584609 -0.121732384 -0.5293146372 -0.8396471143
-0.12178653 -0.068555333 0.92000002 -0.07021589577 -0.2056122571 -0.9761113524
-0.070921458 -0.081053093 0.88900006 -0.4033710957 0.4057877362 -0.8201390505
-0.12544174 -0.054746706 0.91642857 -0.05070095882 0.1886937022 -0.9807263017
-0.086559877 -0.1208577 0.93150008 -0.5761979222 -0.5576437116 -0.5975194573
-0.01509748 -0.13466635 0.94510287 -0.2454355359 -0.725803256 0.6426281929
0.024962312 -0.064905785 0.91723228 0.1820102036 0.6814619303 -0.7088595629
-0.17409454 -0.07167048 0.92725015 -0.01547990646 -0.4120066464 -0.911049366
0.073040254 -0.074668534 0.97186357 0.8728363514 0.0843366608 -0.4806703627
0.0078268796 -0.089574292 0.99200004 -0.01107123494 0.08309509605 0.9964801073
-0.18499696 -0.03169588 0.94085735 -0.08270399272 0.8032817245 -0.5898292661
0.035524286 -0.051533703 0.94230771 0.3550225794 0.7788624763 -0.5170418024
0.0046424856 -0.042841282 0.95405579 -0.1781079024 0.8380789161 -0.5156561732
-0.076973677 -0.051404517 0.921 -0.1783001274 0.4851952493 -0.8560342789
-0.094915941 -0.12438134 0.95475006 -0.48372823 -0.6516358852 -0.5842753053
0.035506368 -0.042394999 0.95293766 0.2746175826 0.7257817984 -0.6307345033
-0.064466372 -0.065228678 0.90564519 -0.2794928551 0.6063556075 -0.7444573045
-0.03086568 -0.12260534 0.97800004 -0.005139474757 -0.9097051024 0.415223062
-0.16550589 -0.078676447 0.93000019 -0.1214028597 -0.4759457111 -0.8710551262
-0.034754574 -0.060820501 0.90100002 0.02346906811 0.4693948925 -0.8826764226
-0.19397275 -0.039398909 0.92800003 -0.1283979416 0.6284580231 -0.7671730518
0.053022485 -0.086635381 0.9079234 0.3568522632 0.2403369546 -0.9027151465
0.0086702332 -0.10837792 0.98900002 0.07126021385 -0.4497634768 0.8903003931
-0.029762832 -0.041667968 0.97000003 -0.1701091975 0.6372218132 0.7516722679
-0.15495853 -0.026651835 0.94524986 0.0566839911 0.8251969218 -0.5619937181
0.024965713 -0.11288908 0.98200011 0.175895229 -0.723688066 0.6673353314
0.024986601 -0.037020031 0.95695645 0.05962531641 0.785615623 -0.6158350706
-0.13667583 -0.039863788 0.92800003 0.03648305312 0.7258559465 -0.6868785024
0.04029686 -0.10545774 0.97800004 0.3327269852 -0.5152584314 0.7898110151
-0.13872373 -0.068555333 0.92000002 -0.1323770285 -0.2415166646 -0.961325109
-0.15536688 -0.085445084 0.93153137 -0.1395006627 -0.5222338438 -0.8413152695
