# .PCD v0.7 - Point Cloud Data file format
VERSION 0.7
FIELDS x y z normal_x normal_y normal_z
SIZE 4 4 4 4 4 4
TYPE F F F F F F
COUNT 1 1 1 1 1 1
WIDTH 512
HEIGHT 1
VIEWPOINT 0 0 0 1 0 0 0
POINTS 512
DATA ascii
0.036151275 0.022535594 0.82650012 0.2751848996 -0.8388630748 0.4696615338
-0.16131018 -0.14091657 0.89466667 0.1828188598 0.2340124547 0.9548902512
-0.018879017 -0.11146379 0.88500005 0.1013912037 0.7975324988 0.594694674
-0.070657581 -0.038476899 0.79800004 -0.4114260375 0.3282120526 0.8502972722
-0.10759044 -0.042081095 0.90575004 0.4400668144 -0.8265497088 0.3509370089
0.052185211 -0.042575192 0.89228576 0.3266837299 -0.07999151945 0.941742599
0.10842788 0.012217226 0.87100005 -0.6921285987 -0.3858327568 0.6099926829
-0.004958427 -0.051701754 0.838 -0.03858283535 0.4581733644 0.8880250454
0.077358447 -0.041292876 0.81814295 0.02523128316 0.7204463482 0.6930515766
-0.085268296 -0.14411031 0.90178573 -0.09933142364 0.4255422652 0.8994704485
-0.074584968 -0.077385448 0.86019045 0.1662092209 0.4228181839 0.8908419013
-0.010234207 -0.021255659 0.89800006 0.03796503693 0.3420275152 0.9389227033
0.063936174 0.053974114 0.874143 -0.009874619544 -0.7833423018 0.621512115
-0.14534655 -0.084966756 0.88414288 0.4007287621 -0.1956214011 0.8950691223
-0.054461163 -0.018651083 0.85100001 0.6840037704 -0.2893357277 0.669644475
0.044458456 -0.073260456 0.84518731 0.4614149928 -0.704731822 0.5389333963
0.092754066 0.0016193007 0.79155552 0.2419577539 0.127638936 0.9618548751
-0.011628106 0.00072675664 0.82900006 0.2504144013 -0.4395127594 0.8626245856
0.012985904 0.02506876 0.87136382 0.9413589835 -0.256138593 0.2196276188
-0.042624947 -0.072768517 0.81561542 -0.3313246071 0.4356862605 0.8368999362
-0.1053049 -0.10637781 0.88173074 0.05421817303 0.495873183 0.8667007685
-0.015594818 -0.094893299 0.84365106 0.0896160081 0.6168678999 0.7819481492
0.077596396 0.014932848 0.83766669 -0.5573745966 -0.7260463238 0.4027285576
0.050658181 0.00077935663 0.88900006 0.09306186438 0.1804661751 0.9791687727
0.019333713 -0.063034378 0.90633339 0.08371941 -0.4266380072 0.9005393386
-0.065014221 -0.11492051 0.88486481 -0.01611925662 0.623791039 0.78142488
-0.089338467 -0.041996717 0.87100005 0.5644841194 -0.6570075154 0.4996986985
0.0091686184 -0.077929966 0.87150002 -0.03827387467 -0.6267282367 0.7782973647
0.056717157 -0.0031347577 0.801 0.116712369 -0.214826867 0.969653368
-0.12243088 -0.14928669 0.90100002 -0.1599099189 0.4171253741 0.8946704865
-0.029509477 -0.030948963 0.82100004 0.3501557708 -0.3105646968 0.8837083578
-0.13960917 -0.061428033 0.91000003 0.5429624915 -0.6998121738 0.4641708732
-0.17184418 -0.10779318 0.89100003 0.3144594431 -0.01605786756 0.9491350651
-0.11101844 -0.074589424 0.86900008 0.4110752642 -0.03157958016 0.9110542536
-0.04461395 -0.09421251 0.86618763 0.111771293 0.6077650785 0.7862116694
-0.055322662 -0.055844083 0.84209675 0.775629282 0.2505215406 0.5793429017
0.025142409 -0.025142994 0.89622223 0.05930926278 0.2859978676 0.9563930631
0.045070667 0.037034038 0.85429627 0.2729068696 -0.7730067968 0.572697401
-0.026387667 -0.068607934 0.86000001 0.157082364 0.2596549988 0.952840209
-0.13499789 -0.12491189 0.88499993 -0.1044327468 0.2800022066 0.9543021321
0.015854413 -0.084186032 0.83758837 0.1485817134 -0.6102234721 0.7781714201
0.085424602 0.035432674 0.86121428 -0.4561276734 -0.5791037679 0.675711751
0.056971367 -0.046622574 0.84407133 0.2969320416 0.4707388878 0.8308045864
0.070761904 -0.018662479 0.88700002 0.1603098661 0.01062230486 0.9870095849
0.01640331 0.00078111002 0.89100003 -0.01979800127 0.3736231029 0.9273692966
-0.046843681 -0.12721097 0.90128571 -0.1304825991 0.6348861456 0.7615076303
0.015112543 0.0054701078 0.82797748 0.3237408102 -0.5689448118 0.7559720278
0.090294033 -0.019196371 0.81100005 -0.005870817695 0.4306913316 0.902480185
-0.045130681 -0.043909453 0.80386972 -0.4954513311 0.2796425819 0.8223916292
-0.1216112 -0.058859397 0.88733339 0.4833225906 -0.7081538439 0.5147013068
0.061029151 0.020821709 0.81900007 -0.127595365 -0.8761888742 0.4647714496
-0.030228343 -0.050872091 0.84100002 -0.02218206972 0.6087522507 0.7930502295
0.039255381 0.050031368 0.87800002 0.3582439423 -0.7940869331 0.491006285
-0.012354863 -0.07340242 0.82900006 -0.5082419515 0.05897551775 0.8591926694
-0.084455386 -0.095793031 0.87281251 0.08784596622 0.5491738319 0.8310783505
0.0052372636 -0.043887231 0.903871 0.1531616002 0.266728282 0.9515237808
-0.064314276 -0.066735215 0.80829418 -0.4146576226 0.2326849401 0.8797253966
-0.032509293 -0.0082818698 0.83546156 0.5648761392 -0.4340503216 0.7017943263
-0.12777242 -0.10083245 0.87800002 0.1224329174 0.2410713881 0.9627537131
-0.10514944 -0.13497287 0.89511132 -0.1337132901 0.397547096 0.9077869058
-0.0082251793 -0.027463773 0.82800007 -0.3368112743 0.2314300835 0.9126874208
0.092224672 0.013492119 0.85525006 -0.6878105998 -0.4018681347 0.6044986248
0.026326301 -0.071457103 0.85800004 0.3513052762 -0.8461011648 0.4008707702
0.067466795 -0.024381647 0.80766666 0.02623919956 0.4397456646 0.8977389336
-0.066031799 -0.03350563 0.86275005 0.6135125756 -0.339040637 0.7131996751
-0.0056115426 -0.071649954 0.85283333 0.1887039989 -0.5010684133 0.8445834517
-0.04776343 -0.072585374 0.85800004 0.06336496025 0.5466239452 0.8349773288
-0.088698849 -0.038774442 0.89540005 0.4915291667 -0.811011076 0.3172697425
0.06388025 0.032201629 0.84630001 -0.1895068437 -0.7110130787 0.6771613955
0.041448724 0.0066611525 0.81136364 0.2729307115 -0.6590266228 0.7008514404
-0.030048627 -0.082084924 0.83600003 0.2071778178 0.8599863648 0.4663698077
0.02740163 0.026367303 0.85553843 0.4276348352 -0.822615087 0.3747437596
-0.10535884 -0.055089638 0.87280774 0.5722802877 -0.6006202698 0.5583462715
0.041398831 -0.060145471 0.89100003 0.470879823 -0.5916156173 0.6544181705
-0.084918424 -0.1252197 0.89386868 -0.03623277321 0.4788632393 0.8771414757
-0.082154773 -0.056079194 0.85799992 0.469851166 -0.1737817973 0.8654708266
-0.044159889 -0.1080204 0.8811667 -0.07304862142 0.7021969557 0.7082254291
0.013358646 -0.060853381 0.84650004 0.05052172393 0.7092174888 0.7031771541
-0.029150043 -0.058300085 0.81100005 -0.2594234049 0.068510212 0.9633306265
0.074950024 0.00417015 0.80507499 -0.1043097451 -0.5655590296 0.8180846572
-0.04339255 -0.034501463 0.83493102 0.6997805238 -0.1553252041 0.6972669959
-0.15480295 -0.11495665 0.88381588 0.2618610263 0.09323714674 0.9605913162
-0.064989127 -0.1341522 0.89730781 -0.1204493344 0.5361940861 0.8354566693
-0.064207256 -0.092295744 0.86705267 0.05372616276 0.5363720059 0.8422698975
0.072112627 -0.051667012 0.83300012 0.3388196528 0.5719949007 0.7470094562
0.030805191 -0.048182476 0.90100002 0.3434204161 0.04932496697 0.9378856421
0.045007396 -0.02525074 0.89348751 0.1769617498 0.0975458324 0.9793719053
-0.029266641 -0.090801626 0.85600007 0.7306117415 0.4247643352 0.5345855951
-0.027777743 -0.09740898 0.87363642 0.1966085881 0.7651126385 0.6131457686
0.1013225 0.031234756 0.86900002 -0.6583311558 -0.4220493436 0.6232771873
-0.16090867 -0.091389872 0.89100003 0.390042901 -0.2300342619 0.891600132
-0.14303088 -0.067832522 0.89349997 0.5594410896 -0.6275296211 0.5415092111
-0.05097729 -0.05097729 0.81900007 -0.8405832052 0.5201526284 0.1511988193
-0.14435992 -0.14550635 0.89307714 0.01261732541 0.3765445352 0.9263125658
0.025458399 0.039344799 0.88000005 0.6052508354 -0.6981342435 0.3824656904
-0.00233807 -0.008572923 0.88900006 0.02829608694 0.3554748595 0.9342574477
-0.035248742 -0.11646351 0.89347368 -0.1186277717 0.7059038877 0.6983030438
-0.095199145 -0.074798435 0.86180949 0.3183162212 0.1592351794 0.934515357
0.039679687 -0.059145194 0.85400003 0.3387558758 -0.361936897 0.8684734702
-0.066790506 -0.046608068 0.85099995 0.5262562633 -0.1854639649 0.8298538923
0.036126338 -0.008201655 0.89099991 0.05941592157 0.2296510041 0.9714577794
0.054298103 0.024318734 0.83425003 -0.03360912949 -0.915615201 0.4006484747
-0.13227783 -0.076647475 0.87725013 0.4699708223 -0.2744025588 0.8389461637
-0.018565169 -0.017539471 0.81900012 0.2075703889 -0.2934095263 0.9331802726
-0.12297222 -0.048790008 0.90500003 0.4700107872 -0.7915952802 0.3904699981
-0.1157101 -0.12361901 0.88892591 -0.1338726729 0.3734742105 0.9179298282
-0.16645147 -0.12550341 0.89139992 0.2756815851 0.183821395 0.9435090423
0.062195819 -0.06219722 0.84260005 0.6510943174 -0.3637177646 0.6661723256
0.054816864 0.013042453 0.80461293 -0.01855301484 -0.7100937366 0.7038626671
0.05511431 0.046519052 0.86203474 0.1088542491 -0.794265151 0.5977404118
0.075070195 0.014264944 0.82180005 -0.442232281 -0.8178648949 0.3681407571
0.0013299034 -0.087607935 0.84260005 -0.05261562392 0.2097264826 0.9763433933
-0.098501392 -0.089338467 0.87100005 0.1656126827 0.408529669 0.8975945115
0.0047170506 -0.025160041 0.89677787 0.07704564929 0.3477425575 0.9344190955
-0.027631657 -0.067276426 0.82354546 -0.8247827291 -0.02757585235 0.564776957
-0.061175555 -0.069382027 0.85100001 0.216142416 0.4896110892 0.8447268605
0.064415984 -0.034514055 0.88779044 0.2725011408 -0.0473366119 0.9609903097
-0.07283777 -0.054967877 0.80381835 -0.3839667439 0.3158403933 0.8676487803
-0.1236934 -0.13628954 0.89135283 -0.2029528767 0.3540825546 0.9129269719
-0.0061064991 -0.10264049 0.85241175 0.2972487509 0.5272154212 0.7960446477
0.031992197 -0.081550598 0.84375 0.3052746952 -0.8401805162 0.4482232034
-0.053228352 -0.034182187 0.84616679 0.6931999922 -0.2781621516 0.6649056673
0.01490098 -0.014972098 0.8926878 0.007962730713 0.3054381907 0.9521785975
0.054603677 -0.013541323 0.889 0.1361980885 0.1055951416 0.9850379229
-0.033479743 -0.045659911 0.8173638 0.5949500799 -0.3510206342 0.7230621576
-0.077282675 -0.10815086 0.8802858 0.05251475796 0.6016619802 0.7970226407
0.036068883 0.041598149 0.86492866 0.4459315836 -0.7424505353 0.4999122322
0.0092159584 -0.047922984 0.84100002 -0.08139062673 0.4724103808 0.8776126504
0.083910644 -0.006815054 0.80139136 0.1892749071 0.230423227 0.9545052052
-0.094885178 -0.11511086 0.88716662 -0.006083369255 0.510371089 0.8599327803
-0.014679345 -0.061500587 0.84775001 0.224899441 0.5796441436 0.7832195759
-0.0021907901 0.01095395 0.83300006 0.2778612673 -0.5410193801 0.7937828302
0.07493297 0.045156799 0.86252373 -0.2869045138 -0.6929231286 0.661470592
0.023243064 0.018870834 0.83144444 0.3378202319 -0.8068367839 0.4846564531
-0.11510164 -0.095152169 0.87527782 0.1227231771 0.3674963713 0.9218922853
0.080142237 -0.030496603 0.80900002 -0.01918094605 0.5793782473 0.814833045
-0.15242136 -0.078171782 0.89466667 0.5395728946 -0.4816671014 0.6905489564
-0.056665979 -0.038476899 0.79800004 -0.340338707 0.3795041144 0.8603175282
0.079080597 0.028349647 0.85100001 -0.5061250925 -0.5586868525 0.6570436358
0.003957592 -0.0026374916 0.82736361 0.1412075758 -0.3005761802 0.9432467222
-0.14534745 -0.10514478 0.88188887 0.2360910624 0.03899713233 0.9709481001
0.062910914 -0.038773648 0.83450007 0.252505213 0.6789559126 0.689391017
-0.064732321 -0.10428695 0.87655896 0.04985813797 0.6007802486 0.7978578806
-0.12180246 -0.068208024 0.87750006 0.4893234372 -0.4774333537 0.7298082113
0.015218882 -0.034024648 0.89794475 0.1473972052 0.3092915118 0.9394747615
0.034602128 -0.03460525 0.89711124 0.2592237294 0.09523322433 0.9611106515
-0.10918357 -0.051057067 0.89600003 0.4388323426 -0.7967091799 0.4155485928
-0.095146 -0.055237319 0.86434883 0.4987584651 -0.4139124751 0.7615224719
-0.040421639 -0.018372303 0.83833337 0.6714343429 -0.3245710731 0.6662053466
-0.031250536 -0.01962243 0.82900006 0.5703792572 -0.3643115163 0.7361688614
0.044816211 0.028119488 0.84238464 0.1368409842 -0.8973280787 0.4196150601
-0.12509382 -0.11499621 0.88630939 -0.0898611024 0.3181974888 0.9437559843
-0.054295182 -0.12080028 0.88900012 -0.1189225242 0.6569824219 0.7444673181
-0.022018945 -0.0084680161 0.82800007 0.3942667842 -0.4019699395 0.8264223337
0.033108193 0.0079171779 0.82100004 0.3573617637 -0.7195570469 0.5954244137
-0.054877408 -0.084558092 0.86292309 0.1037429795 0.5193206668 0.8482590914
-0.14458683 -0.13501933 0.88581085 0.05009998754 0.2703739405 0.9614509344
-0.074931003 -0.065940313 0.85434484 0.3312199116 0.2525943816 0.9091146588
0.0043921587 -0.07723292 0.83586669 -0.0327853635 -0.2908077538 0.9562196136
-0.016220672 -0.083559483 0.83791667 -0.128641665 0.2976362109 0.9459725022
-0.014880436 -0.036744639 0.83356005 -0.087861754 0.5984330773 0.7963404655
0.08654435 0.0084447544 0.84520006 -0.6609885693 -0.5344631672 0.5267288089
-0.043904345 -0.061178181 0.82100004 -0.1164357811 -0.3249365985 0.9385408759
-0.085257336 -0.08509063 0.8663429 0.1241090968 0.478140384 0.8694703579
-0.002039064 -0.034094755 0.90435714 0.1316667348 0.3624461889 0.9226573706
-0.078533113 -0.040594053 0.86550003 0.5588618517 -0.4394923449 0.7032211423
-0.0085091023 -0.011681583 0.82260001 0.03095419891 -0.2159766704 0.975907743
-0.13166831 -0.058780499 0.89400005 0.4943144321 -0.7193091512 0.4881061614
-0.074818239 -0.12080028 0.88900006 0.0008857200737 0.5649573803 0.8251196146
-0.10341336 -0.14462107 0.90200001 -0.1467358023 0.3881248534 0.909850359
-0.095095493 -0.10201864 0.87743765 0.05559024587 0.5489505529 0.8340041637
0.0053968816 -0.067244381 0.85386205 -0.3224901557 0.6424358487 0.6951807737
0.027795862 -0.063766971 0.898 0.2904811502 -0.4484244585 0.8453024626
0.075378731 -0.014796221 0.80357176 0.04253975302 0.3064546585 0.9509342313
0.035120007 0.0028305461 0.88707983 0.04030193016 0.2087581903 0.9771364927
-0.018843951 -0.031249369 0.81633335 -0.1833665073 0.1144792438 0.9763560891
0.092075706 0.04210484 0.86800003 -0.5000545979 -0.5636235476 0.6574753523
0.098446749 0.0093616312 0.866 -0.7168024182 -0.3298434615 0.6143269539
-0.074687235 -0.13910607 0.90100002 -0.117099382 0.5017364025 0.857057929
0.049541309 0.020821709 0.81900007 0.1055655256 -0.8612582088 0.4970816672
0.02061657 -0.077121243 0.87100005 0.07657218724 -0.9784403443 0.1918101609
-0.015367966 -0.072831124 0.85866666 0.3240462542 -0.1652904898 0.931489706
-0.1249778 -0.08501339 0.87460428 0.3522244096 0.01817381009 0.9357391
0.026155956 0.033912834 0.8640002 0.4657747149 -0.7273096442 0.5040581226
-0.10461207 -0.065027855 0.86731577 0.4713816643 -0.1576714814 0.8677206039
0.03559858 -0.066098802 0.84600002 0.1130307093 -0.4906023145 0.8640216589
-0.055270277 -0.097182989 0.87205899 0.05185203627 0.598507762 0.7994372249
0.067386217 -0.033551324 0.81417644 0.1056465879 0.6376348734 0.7630600333
-0.1339072 -0.06688834 0.88668424 0.5335358381 -0.6195965409 0.5757079124
-0.094599128 -0.035802115 0.90425009 0.4662872851 -0.8265199661 0.3153425455
0.051694401 -0.051073723 0.8854 0.3846332133 -0.1118582711 0.9162669182
-0.074964575 -0.092016459 0.86840004 0.06404487789 0.5454775691 0.8356748819
0.016987901 -0.067065433 0.86116672 0.0603056848 0.8616145253 0.5039679408
0.06632138 -0.037416741 0.82438463 0.1684572548 0.6917658448 0.7021980882
0.048855465 -0.057783436 0.84866667 0.5774627328 -0.4285145104 0.6949187517
-0.13744287 -0.09675815 0.88000005 0.2541841865 0.06549482048 0.9649356604
-0.089222752 -0.041120049 0.88500005 0.5185979605 -0.7777155042 0.3552671671
-0.047386844 -0.024029987 0.84403712 0.7041273117 -0.2877457142 0.6491587758
-0.060926583 -0.025574118 0.85799998 0.6387386322 -0.300090611 0.7084903121
0.094847195 0.024985876 0.8635143 -0.6638712883 -0.3955696225 0.6346648932
-0.049691219 -0.063785389 0.84600008 0.4286830723 0.5339119434 0.7288132906
0.063433848 0.041620627 0.85799998 -0.1111889854 -0.7309569716 0.6733044386
-0.13523622 -0.11453959 0.88384628 -0.04930885509 0.243922025 0.9685404897
-0.019906471 -0.049397536 0.84100002 -0.1521381736 0.6018406749 0.7839909196
0.024925582 -0.0046749702 0.88855547 0.003210919909 0.2409821451 0.9705242515
-0.084931076 -0.13511558 0.8968001 -0.06952352822 0.43645522 0.8970358372
-0.11492109 -0.085092239 0.87244999 0.2376832068 0.1661566943 0.9570259452
-0.09438213 -0.14126703 0.89800006 -0.08822633326 0.4188371003 0.9037652016
-0.1151104 -0.14375941 0.89638722 -0.171944201 0.374679029 0.9110712409
-0.027861929 -0.088505633 0.84366673 0.7516551018 0.5618986487 0.3453759849
0.0046388926 -0.014989762 0.89273202 0.03723531589 0.3329317868 0.9422154427
-0.10504475 -0.11516303 0.88757145 -0.06293665618 0.4641408622 0.8835226297
0.054935507 0.038944162 0.85299999 0.05687943846 -0.7788178921 0.6246658564
-0.054195531 -0.10858393 0.88000005 -0.03529790416 0.6588766575 0.7514224052
-0.095010787 -0.1254856 0.89347535 -0.05129098147 0.4423467517 0.8953762054
-0.097683676 -0.042382669 0.89258331 0.4800923467 -0.813880384 0.3272766769
-0.049045116 -0.059293348 0.83500004 0.8458072543 0.1627750397 0.5080496073
-0.15523323 -0.10490575 0.88444996 0.3165920675 -0.05351935327 0.9470507503
-0.1431703 -0.075467572 0.88668191 0.5204691887 -0.4738055766 0.7103661895
-0.15519057 -0.12492884 0.88510531 0.2576435804 0.200031653 0.94530797
0.046886358 0.005320855 0.80302769 0.06363251805 -0.6227328777 0.7798427343
0.035900131 0.033086944 0.85536003 0.4159455597 -0.7631944418 0.4944932461
-0.13230428 -0.056471612 0.9037143 0.491622448 -0.7446491718 0.4514476657
-0.041909635 -0.042394143 0.82900006 0.6769731045 -0.487216115 0.5516591668
-0.034548596 -0.10718069 0.88360006 -0.06505738944 0.7284744978 0.6819768548
0.024849419 -0.015070778 0.89275014 0.03990044072 0.2626850605 0.9640562534
-0.095090717 -0.064900666 0.86083347 0.3739374578 -0.1264068931 0.9187992811
0.054697566 -0.025006043 0.89133358 0.2041230351 0.04939524084 0.9776982665
0.065290295 0.0047828322 0.80297869 -0.1216405481 -0.5923271179 0.7964622378
0.015032749 -0.044310477 0.90252388 0.2093090415 0.1820979863 0.9607445002
-0.14504755 -0.11531333 0.88226664 0.1340805888 0.1683659106 0.9765630364
-0.14473505 -0.12535618 0.88353491 0.08723962307 0.2346720994 0.9681519866
-0.10783591 -0.051791053 0.88175005 0.5166910887 -0.7375023961 0.4348799288
-0.12536263 -0.12477942 0.88700002 -0.19234927 0.2953832448 0.9358153939
0.03496835 -0.024946561 0.89564115 0.1241221949 0.2218320221 0.9671526551
-0.13278869 -0.13981868 0.89100003 -0.1148161739 0.3750836253 0.919852972
-0.11501563 -0.10564427 0.88230288 0.03759296983 0.4326626956 0.9007717371
0.045093779 0.045051228 0.86403334 0.2916249037 -0.7821641564 0.5506125093
-0.063330241 -0.055126641 0.84790343 0.4701984525 0.1685735732 0.8663119078
-0.08522933 -0.11482223 0.88694417 0.02065027691 0.5457329154 0.8377047181
-0.0052069491 -0.07633812 0.83618909 -0.1744683832 -0.2458267957 0.9534830451
0.044767864 -0.034558371 0.89590472 0.3005684912 -0.01739420369 0.9536015987
-0.085342027 -0.06508787 0.85899985 0.4139217436 -0.01772600226 0.9101398587
0.0069534811 -0.073679127 0.86318183 -0.06631791592 -0.9690422416 0.2378215492
-0.045120742 -0.085245557 0.86282504 0.118556492 0.4982702434 0.8588778377
-0.10484216 -0.12562935 0.89309126 -0.1105199754 0.3983390331 0.9105555415
0.021330176 -0.076494426 0.83900005 -0.1410596222 -0.6175598502 0.773771286
-0.03515365 -0.064646862 0.81833339 0.009923701175 0.5114703178 0.8592436314
0.025804197 -0.040674414 0.89800006 0.2641041577 0.1158313379 0.9575135112
0.044783644 -0.016090866 0.89100021 0.1032197922 0.1870074123 0.9769206047
0.024909183 0.0068415338 0.82564515 0.3503262103 -0.725251615 0.5926901698
0.018336797 0.032853521 0.87150007 0.8999527097 -0.3593876958 0.2468311191
0.036680259 0.027475258 0.847 0.2484451532 -0.8612015843 0.4434036911
-0.0066773747 -0.094184302 0.84640735 0.09997159243 0.2231031954 0.9696549177
0.018373882 -0.053744923 0.90600008 0.2898361683 0.1635367125 0.9430009127
-0.005385363 -0.062022913 0.84725022 0.1130734161 0.4142264128 0.9031228423
-0.071985319 -0.054472912 0.85119992 0.5004659295 -0.05152972415 0.8642213345
-0.086023793 -0.075464062 0.86056423 0.243680492 0.2728017867 0.9306981564
0.062164962 -0.0082580242 0.88860005 0.1361980885 0.1055951416 0.9850379229
-0.036562935 -0.085791022 0.85856521 0.4043411613 0.4728410244 0.7828981876
0.035474647 -0.055351149 0.89613527 0.3543619812 0.02104104869 0.9348715544
-0.03729406 -0.047902599 0.80650008 -0.6570591331 0.05311191455 0.7519657016
-0.035568848 -0.094652534 0.86483341 0.1973023266 0.6471577883 0.7363820672
0.073682569 -0.044733796 0.8257857 -0.07184164971 0.7563835382 0.6501712799
0.014805485 0.015784292 0.83289737 0.3415479958 -0.8068308234 0.4820466638
-0.16341119 -0.11489772 0.88675994 0.2876149416 0.06685435027 0.9554099441
-0.1049625 -0.095005751 0.87392861 0.1274856031 0.4341551065 0.8917716742
-0.15340841 -0.13466617 0.88792294 0.1447301358 0.235472247 0.9610442519
-0.065551288 -0.077929594 0.86080021 0.06184794009 0.5283021927 0.8468008041
0.052988365 -0.071064346 0.84733343 0.5387249589 -0.6172218323 0.5734218359
-0.049397536 -0.040550217 0.84100002 0.6793189049 -0.1417725533 0.7200183272
-0.11245582 -0.058303766 0.87740004 0.5875030756 -0.5557235479 0.5882273912
0.014930592 -0.025149351 0.89642853 0.0737831071 0.3426969051 0.9365441203
0.062446721 0.023875577 0.838 -0.3393283486 -0.8361896873 0.4308632016
-0.0034026939 -0.07267268 0.84420002 0.01046002656 -0.3252310157 0.9455767274
0.055014145 0.033261783 0.84545171 -0.007009252906 -0.8225830197 0.5686018467
-0.0045164186 -0.016859416 0.89273101 0.0332845673 0.3563571274 0.9337567687
-0.065120026 -0.12554109 0.89497638 -0.1121237278 0.5786987543 0.8077970147
-0.11507224 -0.13464864 0.8929528 -0.1727099568 0.3529094458 0.9195793867
0.075217001 -0.004920783 0.80187768 0.141690582 0.1721986979 0.9748186469
0.07258603 0.054158933 0.87625003 -0.1873805076 -0.7717370391 0.607709229
0.06170769 -0.01952775 0.89100003 0.175304547 0.07947663218 0.9813010693
-0.15350063 -0.087364569 0.88819999 0.4036067724 -0.2424816489 0.8822154999
0.065362826 -0.0049222144 0.80167341 0.03069738857 0.0516942367 0.9981910586
-0.13395022 -0.085252419 0.87610012 0.3812037408 -0.09600763768 0.9194923639
0.0058686668 0.014365936 0.83375651 0.3612639606 -0.8123701215 0.4577588141
-0.13527709 -0.10516682 0.8812682 0.09262298793 0.182125479 0.9789031148
-0.035265941 -0.10168658 0.87456262 -0.01979412325 0.754152 0.656401515
-0.022496145 -0.093660787 0.83860016 0.215702638 0.7174084783 0.6624178886
-0.045755893 -0.11443304 0.88668966 -0.1184576601 0.6927015185 0.7114297748
-0.074957542 -0.096890651 0.8754763 0.06316098571 0.5645189881 0.8230000138
0.044470597 -0.044471778 0.89547819 0.3426196277 -0.05409160629 0.9379157424
-0.035217617 -0.035656832 0.82528579 0.5401688814 -0.5144247413 0.6660216451
-0.11517826 -0.11518107 0.88772184 -0.05707434937 0.395958513 0.9164929986
-0.02680989 -0.11545732 0.89287496 -0.120843336 0.7130659223 0.6906040311
-0.16444105 -0.10459151 0.88825703 0.3056277037 -0.06760139018 0.9497482777
0.074490301 0.024935387 0.84469235 -0.4857188463 -0.6707112193 0.560556531
-0.05758911 -0.071097672 0.81100005 -0.3685333729 0.470044136 0.8020234704
0.084965251 -0.01416853 0.80679482 0.1176817194 0.3174340129 0.9409498572
-0.014677446 -0.10241073 0.84738106 0.2964623272 0.7611483932 0.5768562555
-0.0054779965 -0.0044409428 0.82561904 0.1103349477 -0.2828594148 0.9527941942
-0.04535925 -0.10273467 0.87474084 -0.0005103627336 0.6919410229 0.7219538689
-0.05558344 -0.1253708 0.8959232 -0.1131618172 0.6308877468 0.7675774097
0.074960135 0.034604337 0.85475862 -0.3481385708 -0.636629045 0.6881155372
0.022516349 0.026412418 0.86319059 0.4585691094 -0.7998110652 0.3873198032
0.02984787 0.040562488 0.87300003 0.458301574 -0.7379273772 0.4954017401
0.084203891 0.043179132 0.86407697 -0.3977725804 -0.627897203 0.6689708829
0.0054937773 -0.055349208 0.84177756 0.0468207188 0.3825694919 0.922739625
-0.0065699345 -0.036753759 0.83288902 -0.2478071898 0.4793384969 0.8419181705
0.055710211 -0.055040441 0.84481817 0.600764513 -0.2677838206 0.7532421947
0.067065708 -0.01441519 0.80372739 -0.01812683046 0.2601096034 0.9654089212
0.081354663 0.0028053334 0.80000007 0.04297455773 -0.1161981598 0.9922959208
0.044360764 0.015706185 0.81505716 0.2426674962 -0.780131042 0.5766350627
0.063264474 0.011606539 0.80720007 -0.04809754342 -0.6742299795 0.7369535565
-0.15504928 -0.09513928 0.88583773 0.3466760814 -0.1589966863 0.9244110584
-0.015300974 -0.044620868 0.83604145 -0.1458082944 0.6218116283 0.7694739699
-0.075017475 -0.084864482 0.86426193 0.08603198081 0.5242979527 0.8471777439
0.055745296 0.054365776 0.87340009 0.153344065 -0.8099090457 0.5661562681
-0.073801301 -0.044763412 0.80228579 -0.3428423107 0.3529111743 0.8705819249
-0.024579953 -0.01575158 0.82525814 0.4331018627 -0.3852608204 0.8148600459
-0.10455263 -0.084196709 0.86900002 0.2683496773 0.2467884868 0.9311733842
0.0051966496 -0.06163276 0.84700012 -0.04500141367 0.4155247211 0.908468008
0.045401685 -0.064715505 0.84606403 0.451518923 -0.5438781977 0.7073380947
-0.14528497 -0.095052615 0.88149995 0.3441230059 -0.09436665475 0.9341703653
0.054237112 -0.034753922 0.89308381 0.2575391531 -0.03100410476 0.9657703042
-0.11484543 -0.06520617 0.8738485 0.5243867636 -0.3814414144 0.7612627745
0.074148908 0.051524986 0.86750007 -0.1948139071 -0.7403903604 0.6433269978
0.074442498 0.0086830333 0.8118 -0.3871643841 -0.7151386142 0.5819626451
-0.024987947 -0.10649515 0.88304007 -0.06671443582 0.7591568232 0.6474797726
-0.022731284 -0.060917515 0.84855562 -0.8547776937 0.2164214849 0.471716851
-0.095736623 -0.046788812 0.87236381 0.5612145662 -0.6873387098 0.4610896707
0.06180938 -0.041637283 0.88500005 0.2851933539 -0.05852217227 0.9566817284
0.055701379 0.0048507364 0.80056798 -0.03899514675 -0.5991103053 0.7997163534
0.054927651 0.018088158 0.81370604 0.02947263978 -0.7929832935 0.6085301042
-0.12461511 -0.14408576 0.89531451 -0.1766135544 0.3922382295 0.902749598
-0.085126825 -0.10725269 0.88147372 0.05447043106 0.5807167292 0.8122813702
0.095935851 0.015872797 0.86214828 -0.6993463635 -0.3559496403 0.6198503971
-0.036909372 -0.024078386 0.83236855 0.6796287894 -0.3372784257 0.6514199376
-0.014886162 -0.0058024856 0.82573181 0.1864290684 -0.3241598308 0.9274505973
-0.12462349 -0.055296477 0.89504349 0.4811224937 -0.7527517676 0.4493171275
0.034035582 0.015714297 0.82208544 0.3270649612 -0.79275769 0.5143576264
-0.053436413 -0.068763457 0.85258335 0.2561520934 0.5165064931 0.8170723319
0.082539834 0.022610907 0.84681821 -0.5704271197 -0.5608097315 0.6000877619
0.04652508 0.02561382 0.83471435 0.1074894518 -0.9101564288 0.4000765681
-0.12575701 -0.064323105 0.88343745 0.4933483303 -0.6135197878 0.6166043282
0.029027309 -0.069218971 0.84900004 0.1856962889 -0.7795337439 0.5982006788
-0.035966162 -0.057245184 0.81580001 0.5863954425 0.08332946151 0.8057273626
0.085535057 0.025661053 0.85458326 -0.5416628122 -0.5040139556 0.672734201
-0.11493516 -0.044861663 0.9057501 0.4502350092 -0.8078197837 0.3804151118
-0.033282924 -0.072621725 0.82447362 0.6718276143 0.6620786786 0.3321136534
-0.025044018 -0.076833934 0.83312899 -0.759418726 -0.04403259978 0.6491104364
0.046069231 0.051791791 0.87463647 0.2766715884 -0.8080229163 0.5201459527
0.090698183 -0.0105463 0.80200005 0.2239133567 0.2341342866 0.9460676312
-0.02889844 -0.054978397 0.80400002 -0.3400419056 0.2273043841 0.9125263095
0.041963842 -0.052455436 0.89309996 0.406765908 -0.05556957051 0.9118407369
-0.12464074 -0.074956194 0.87504756 0.4355969727 -0.1929064989 0.8792282939
0.00572814 -0.0075507299 0.89099985 0.01780394092 0.3250679672 0.9455230236
0.074870691 -0.024722382 0.80570376 -0.02227440663 0.4371715188 0.8991022706
0.0077600027 -0.032277111 0.89800012 0.1129720956 0.377887696 0.9189332128
-0.015082881 -0.067070499 0.85365385 -0.2385930866 -0.01711236313 0.9709688425
-0.025264578 -0.034964219 0.81472743 0.3041055501 -0.499709636 0.811054945
0.085081182 0.015638588 0.84330761 -0.6541472077 -0.5887204409 0.4748680294
-0.065254509 -0.09734112 0.87360013 0.05802806094 0.5703292489 0.8193639517
-0.028226852 -0.023702437 0.82273334 0.4143157899 -0.3300777972 0.8481692672
-0.11622531 -0.052116547 0.89346153 0.4736737907 -0.7637643814 0.4385169148
-0.030873571 -0.038771458 0.81900007 0.5647836328 -0.589461267 0.5775420666
-0.0035365315 0.0020832522 0.82886684 0.2068189532 -0.4021413922 0.8919126987
-0.056966681 -0.048717745 0.84385723 0.7573262453 -0.05250395834 0.6509226561
0.054951303 -0.064230472 0.84490484 0.5968466401 -0.3805020154 0.7063938379
0.069095358 0.018713325 0.82100004 -0.3239326477 -0.8765202165 0.3560617864
0.041745111 0.01943307 0.82100004 0.2517859936 -0.8275526762 0.5017573237
-0.074660324 -0.11454489 0.88489169 0.03240604699 0.5681732297 0.8222706318
-0.015563155 -0.055130508 0.84305876 0.184386611 0.4813356996 0.8569232821
-0.028107213 -0.013182705 0.83192313 0.4672514796 -0.3564492166 0.8090859056
-0.11510357 -0.055901937 0.8851428 0.4841550291 -0.7119717002 0.508615911
0.10311387 0.024167072 0.8673479 -0.6638712883 -0.3955696225 0.6346648932
-0.014507079 -0.032167528 0.8276667 -0.2852749228 0.3909749985 0.8750752807
0.012853513 -0.054368235 0.84260005 -0.06573779136 0.4308980107 0.900003016
0.097279675 0.037720688 0.87100011 -0.598543644 -0.4924076498 0.6318862438
0.024777118 -0.054945096 0.90241945 0.2880450189 0.1088777706 0.9514071941
-0.0052172621 -0.044766758 0.83537489 -0.006488534156 0.5681632757 0.8228902817
0.08646439 -0.024966901 0.81364304 -0.04416209832 0.5223479867 0.8515880704
-0.061357021 -0.033557922 0.85700005 0.6287857294 -0.2847967148 0.7235463858
0.034761705 -0.074695602 0.84361225 0.2706522346 -0.6666885018 0.6944593787
-0.052470859 -0.043144874 0.80343765 -0.3208555877 0.4452819824 0.8359280229
-0.054963186 -0.11472513 0.88490242 -0.09180012345 0.6629389524 0.7430239916
0.041466333 0.039958466 0.86000001 0.3628673851 -0.7587789893 0.5409082174
0.015242682 -0.072772972 0.86545461 -0.1271775961 -0.9918007255 0.01253538486
-0.044056039 -0.053296875 0.8184402 0.6225343347 -0.1286417693 0.7719470859
0.082378611 0.0095618032 0.83900005 -0.6288920641 -0.6536474228 0.4209986627
-0.087424763 -0.034464665 0.90469235 0.4689577222 -0.8354979157 0.2863945961
-0.075271137 -0.12568679 0.8943826 -0.07191941142 0.523694098 0.8488651514
0.0455097 -0.0043691206 0.889 0.09362413734 0.2012140602 0.9750627875
0.0055080969 0.0044121775 0.82831722 0.2709748447 -0.4441072345 0.8540148735
-0.10497457 -0.045138065 0.89550012 0.4516196847 -0.8155810833 0.3617556095
-0.023388028 -0.065736011 0.85396004 0.3889736533 -0.1009575054 0.9157003164
-0.11901452 -0.062207915 0.88040006 0.5002838969 -0.6154834628 0.6090123653
-0.12471694 -0.10561408 0.88245946 0.02789524943 0.3341220915 0.9421169162
0.015487581 -0.077644512 0.83460009 -0.1260073185 -0.5131860375 0.8489771485
-0.064891078 -0.084849462 0.86267579 0.04871017858 0.5210878253 0.8521119952
-0.042554528 -0.118285 0.89185715 -0.1287021637 0.6892138124 0.7130358219
-0.091875896 -0.091266431 0.86900008 0.1312979013 0.4996474087 0.8562203646
-0.054501489 -0.13032965 0.90100002 -0.119206503 0.6133657098 0.7807511687
-0.024643492 -0.054715205 0.84333336 -0.3902541101 0.4758099914 0.7882300019
-0.15041584 -0.14106356 0.88900006 0.1038490385 0.3071404397 0.9459810257
0.054509599 -0.0051760981 0.88829386 0.1101330146 0.1783738732 0.9777798653
0.071698181 0.03083412 0.84750003 -0.3205316663 -0.6417296529 0.696737051
0.02384829 -0.066851832 0.86294746 0.1403319836 0.7988627553 0.5849147439
-0.045155641 -0.041409932 0.8352223 0.7736933827 -0.324472934 0.5441653132
-0.054644268 -0.078069501 0.86013329 0.1007802337 0.5139093399 0.8519040346
-0.036524344 -0.042470559 0.82287496 0.7421934009 -0.5494771004 0.383697629
0.067126408 -0.054080043 0.83737028 0.2938072681 0.5917596817 0.7506648898
-0.033248652 -0.02656357 0.82673919 0.5731761456 -0.3455601931 0.7430055737
0.034477387 -0.063709654 0.89581841 0.3999886513 -0.6196731925 0.67528826
-0.12044874 -0.048809294 0.89800006 0.4746557772 -0.7658028007 0.4338754714
-0.03483516 -0.015375226 0.83530778 0.6075396538 -0.3853593469 0.6945456862
-0.023784272 -0.025762809 0.81770587 0.241935432 -0.2561756074 0.9358639121
-0.16358265 -0.096611544 0.88716674 0.3633488715 -0.1456365287 0.9201997519
-0.16235071 -0.13426545 0.89272225 0.2468205839 0.2313975692 0.941028595
0.055564009 0.027376723 0.84169996 -0.05855505168 -0.8935363293 0.4451563358
0.065238357 0.051166542 0.86787504 -0.03848570958 -0.785679996 0.6174348593
0.025870392 0.014425682 0.82674998 0.3414133787 -0.7964817286 0.4990528524
0.060926579 -0.028119959 0.89100003 0.2084496766 -0.009872343391 0.9779832959
0.034879826 0.045137815 0.87450016 0.4390810728 -0.7564181685 0.484808594
-0.10212027 -0.038789868 0.90300006 0.4488855898 -0.8292550445 0.3329231739
-0.027918812 -0.06228064 0.81655556 -0.5176301599 0.07977763563 0.8518770337
0.074808948 -0.037024796 0.81330788 -0.08221924305 0.6922032833 0.7170038819
-0.064421847 -0.063734375 0.8486414 0.2559341192 0.4897562563 0.8334485888
-0.024845673 -0.0053737164 0.83350021 0.4543879032 -0.4524004161 0.7673757076
-0.11532199 -0.14889175 0.90100002 -0.1731209606 0.3973931074 0.9011702538
-0.17193122 -0.11464649 0.89181811 0.3107820153 0.08569209278 0.9466105103
0.047363043 0.011995428 0.80471438 0.08484127373 -0.712084949 0.6969483495
-0.13919167 -0.084131166 0.88044453 0.435077101 -0.2080056518 0.8760374188
-0.00079426001 -0.041301519 0.90600002 0.16566284 0.3220562637 0.9321135283
0.028836196 -0.010910993 0.88900006 0.03252077848 0.2450914085 0.9689543843
0.065499537 0.015949311 0.81583875 -0.1558851153 -0.8061885238 0.5707538128
0.029797023 0.021802701 0.82900006 0.3093542457 -0.8297600746 0.4645408392
-0.15487853 -0.14316905 0.89411759 0.1142896786 0.3066285849 0.9449427128
0.035195522 -0.014865116 0.89220428 0.06071575731 0.2350785285 0.9700781703
0.055246383 -0.045167141 0.88675857 0.3549544215 -0.09855178744 0.9296746254
-0.10777194 -0.14221171 0.89733338 -0.1648073792 0.3710671663 0.9138641357
0.049919154 -0.00070308667 0.80200005 0.0743271783 -0.4537586272 0.8880195022
0.022550009 -0.084726043 0.83877778 0.01167217828 -0.7921684384 0.6101908684
-0.13510391 -0.13519588 0.88655543 -0.09503273666 0.3612761497 0.9276035428
0.06545461 -0.045001078 0.8352285 0.3654286861 0.6069223881 0.7057670355
-0.09532892 -0.095429711 0.87306446 0.1038281396 0.5089887977 0.854488194
-0.03558578 -0.11221282 0.88800001 -0.09782310575 0.7128694057 0.6944407225
-0.085423358 -0.044796977 0.86625814 0.5495496988 -0.4865097702 0.6791931987
-0.075351879 -0.034775622 0.86433345 0.6094909906 -0.4040956199 0.6820758581
-0.13664867 -0.060820501 0.90100002 0.5192713141 -0.7144907713 0.4688925445
-0.013734685 -0.025312902 0.82482851 -0.2353411168 0.02261916362 0.9716495872
-0.12482464 -0.094857559 0.87722874 0.1988929808 0.2289488614 0.9529029131
-0.004337681 -0.024075409 0.89651865 0.07704564929 0.3477425575 0.9344190955
-0.045175791 -0.12297175 0.89584208 -0.1208984405 0.690903008 0.7127668262
-0.0053546075 -0.087524198 0.84250015 -0.1885700375 0.2485490292 0.9500867128
0.011911927 -0.0050772149 0.89099991 0.01785399392 0.3094571829 0.9507457614
-0.038611028 -0.032054439 0.83100003 0.7369881272 -0.1579330564 0.6571952701
-0.052542333 -0.025028929 0.84811115 0.7022146583 -0.2929882407 0.6488855481
-0.094969034 -0.085066773 0.86733335 0.1910448819 0.3912621439 0.9002309442
0.086041801 -0.0031666369 0.79626679 0.1792104244 0.154321447 0.9716318846
-0.10842788 -0.061086133 0.87100005 0.5493049622 -0.3396269083 0.7634903789
0.013136485 -0.065420151 0.85608333 0.1292125285 0.8293865919 0.5435274243
-0.042181056 -0.066447183 0.8174001 -0.3023444414 0.498722285 0.8123201132
0.0053497767 -0.083688967 0.83655548 0.06277737767 -0.02645229548 0.9976769686
0.055500388 0.022343103 0.8221429 -0.002884538146 -0.8823483586 0.4705880284
-0.0049988409 -0.082530633 0.83829993 -0.1026656106 -0.05729863048 0.9930642843
0.090695545 0.01263978 0.84800005 -0.6725410819 -0.4389430285 0.5958334804
-0.083188213 -0.11950983 0.89100003 0.0003361214185 0.5117667317 0.8591244221
0.023532111 0.036009338 0.8738572 0.4667649865 -0.7384077907 0.4867076576
-0.15518048 -0.083971553 0.8935501 0.4596123993 -0.3992277384 0.793330729
0.086343825 0.0037966785 0.79593766 0.06523040682 -0.04611454532 0.9968041182
-0.057095233 -0.024671316 0.85281813 0.6590593457 -0.2891230881 0.6942971945
0.026452102 0.0015560833 0.88750005 -0.006999265868 0.3650549352 0.9309596419
-0.055107266 -0.10370588 0.87580651 0.007942862809 0.6397476792 0.7685439587
-0.13607363 -0.074166626 0.88189983 0.5061166286 -0.3958401382 0.7662613988
-0.11046438 -0.081515096 0.86900002 0.3516798019 0.1179283112 0.9286625981
0.065582253 0.026573865 0.84300017 -0.3361847997 -0.7838892937 0.5220127702
0.082049377 0.031969111 0.85688889 -0.4712730944 -0.5448930264 0.6935367584
-0.084791735 -0.10214311 0.87750018 0.06959674507 0.580915451 0.8109830618
-0.01551963 -0.076898202 0.83342421 -0.3755530119 -0.08479490876 0.9229137301
-0.048392002 -0.039508443 0.80000001 -0.2857777178 0.5545845032 0.7815158963
-0.041929647 -0.02565223 0.83609998 0.6868989468 -0.3059366643 0.6592212319
-0.1070836 -0.12111203 0.88900006 -0.08535382897 0.4185873568 0.9041566849
-0.048420265 -0.034214981 0.84162503 0.7032386661 -0.2679831386 0.6585137844
0.0036749868 -0.047495168 0.83777773 -0.02694643289 0.4486447275 0.8933038712
0.075477093 0.039288305 0.86000007 -0.3185753226 -0.6798936725 0.6604955792
-0.11366101 -0.10108902 0.87800008 0.08168595284 0.4650236368 0.8815216422
-0.061717331 -0.1087768 0.88000005 0.02476598322 0.6293638945 0.7767159939
-0.11084529 -0.068183191 0.86900002 0.4521923363 -0.1908497661 0.8712625504
-0.024645435 -0.11218923 0.8876667 -0.1069890335 0.7496144772 0.6531702876
0.018168917 0.011991483 0.82900006 0.3420558572 -0.7841780782 0.517747581
-0.13872549 -0.14106356 0.88900006 -0.07261330634 0.3663558364 0.9276371598
-0.043743737 -0.01730885 0.84366679 0.6793586612 -0.3183652759 0.6611469984
-0.095079802 -0.13515745 0.8963334 -0.1020816416 0.415753752 0.903730154
0.071254589 -0.039585885 0.82100004 0.02523128316 0.7204463482 0.6930515766
-0.0052842097 -0.056297578 0.84238446 -0.05543018132 0.4020641446 0.913932085
-0.12729201 -0.070203468 0.88000005 0.4753614366 -0.467004925 0.7456124425
-0.037745759 -0.12110186 0.89700001 -0.1298993379 0.6909816861 0.7111051083
-0.064418428 -0.037740421 0.79725009 -0.4078497887 0.3175936937 0.8560331464
0.089536309 0.026912497 0.86066675 -0.6337412 -0.4145899415 0.6530599594
0.0040065181 -0.035369173 0.90203464 0.1490539908 0.3755700886 0.914729476
0.014610002 -0.088705517 0.84180003 0.3573852777 -0.7154858708 0.6002963781
0.034935027 -0.044623673 0.89784634 0.3397955298 0.01817506924 0.9403237104
-0.10421918 -0.10144822 0.87800014 0.07617323846 0.5085933805 0.8576306701
-0.024591483 -0.084791526 0.83737504 0.2973328829 0.6997383237 0.6495840549
-0.058232941 -0.033595622 0.85159999 0.6603825688 -0.2823005319 0.6958457232
-0.1049796 -0.075310647 0.86771441 0.3671439886 0.06907267123 0.927595973
0.025963444 -0.075448506 0.84300005 0.08481470495 -0.7255608439 0.6829113364
0.062652729 -0.056051254 0.84184211 0.2969320416 0.4707388878 0.8308045864
-0.048326537 -0.077776693 0.86133337 0.1213436946 0.4855847955 0.8657269478
-0.095197484 -0.1457449 0.9021818 -0.106485799 0.4069303274 0.9072312117
0.06879466 -0.030496603 0.80900002 0.06859975308 0.5830543041 0.8095318079
