# .PCD v0.7 - Point Cloud Data file format
VERSION 0.7
FIELDS x y z normal_x normal_y normal_z
SIZE 4 4 4 4 4 4
TYPE F F F F F F
COUNT 1 1 1 1 1 1
WIDTH 512
HEIGHT 1
VIEWPOINT 0 0 0 1 0 0 0
POINTS 512
DATA ascii
0.028252337 -0.040469564 0.87100005 -0.1341704875 -0.8875933886 0.4406543374
-0.23136373 -0.062613286 0.87100005 0.4231759906 0.03500780836 0.9053709507
-0.092447788 -0.1315846 0.88425004 0.4221438766 0.5720561743 0.7032398582
-0.072502181 -0.046633314 0.79642123 -0.3745051324 0.8230512738 0.4270041287
-0.12839982 -0.019454693 0.8876667 -0.1039004102 -0.9126360416 0.3953481317
0.005296011 -0.1315255 0.86261553 0.1776903868 -0.8949101567 0.4093432426
0.072370082 -0.094356321 0.82163161 0.142159462 0.03483681381 0.9892305732
-0.040373128 -0.07203833 0.90300006 -0.03369908407 0.190358147 0.9811361432
-0.1651659 -0.10520802 0.88061088 0.02994476445 0.4332324564 0.9007846117
0.075461544 -0.092283525 0.89533335 -0.322367847 0.735231936 0.5962491035
-0.054978337 -0.10611351 0.83622581 -0.4371027052 -0.04798737541 0.8981305361
-0.10631117 -0.069009006 0.85100001 0.1549728364 0.36870417 0.9165373445
-0.017940983 -0.051131088 0.82814282 -0.1694331318 -0.4140275121 0.8943565488
-0.19094238 -0.019483916 0.88900006 0.1558344662 -0.8477630019 0.5069649816
0.015268963 -0.094764166 0.91039985 0.1225277185 -0.1487114578 0.9812603593
-0.16470066 -0.053822171 0.85712504 0.1068826243 0.133364588 0.9852867723
-0.067050636 -0.035623573 0.85099989 0.2446669936 -0.5435804129 0.8029062152
0.077329889 -0.041398831 0.89100003 -0.6250486374 -0.4019722939 0.6691281796
-0.012238107 -0.033565339 0.898 0.2929311991 0.2533164024 0.9219664335
-0.022941491 -0.12102997 0.90233344 -0.2333747447 -0.8397483826 0.4902641177
0.037192184 -0.065627813 0.82564521 -0.01409481931 -0.4704929888 0.8822911382
0.037357394 -0.12191164 0.83557141 0.7471516132 -0.2583887279 0.6123722196
-0.12470496 -0.10213237 0.86881822 0.1858304143 0.5646679997 0.8041250706
-0.2048218 -0.095089018 0.87451345 0.03026560694 0.4353787005 0.8997384906
-0.073506445 -0.073258065 0.82466668 0.7326002717 0.02240675315 0.6802901626
-0.1048357 -0.032834679 0.86200011 0.1015650183 -0.7737506628 0.6252955198
-0.03401817 -0.1155091 0.86771435 -0.6836525798 -0.5652880073 0.4615935981
-0.085310072 -0.10279676 0.8550666 0.5733709335 0.2052624673 0.7931664586
0.06313403 -0.064200744 0.86870003 -0.6909841299 -0.2828852236 0.6652194262
0.0012434056 -0.034566674 0.85100001 -0.2414695323 -0.8721878529 0.4254183769
-0.035389278 -0.078888603 0.84100002 0.09520220011 0.6591358185 0.7459735274
-0.20503597 -0.044622481 0.86213958 0.2458933294 -0.3813475966 0.8911287785
-0.0047596432 -0.065043204 0.90475011 -0.008635202423 0.300119698 0.9538624883
0.044840433 -0.024116613 0.89388889 -0.1719646305 -0.8095958233 0.5612332821
0.042983666 -0.1062783 0.89800006 0.1589976847 -0.2945310771 0.9423221946
-0.12347732 -0.12313076 0.89333344 0.1078544632 0.6817469001 0.7235941887
-0.13435692 -0.045111105 0.85242099 0.1360171139 -0.3040876687 0.9428839087
-0.16448784 -0.024167318 0.87328583 0.08105135709 -0.8202183247 0.5662795901
0.026326301 -0.066214636 0.91000003 0.0001305598562 0.2214423269 0.9751734734
-0.014570579 -0.094421893 0.91378403 -0.01674508676 -0.03599908203 0.9992115498
-0.18455003 -0.075241119 0.86564291 -0.09470970929 0.3646003306 0.9263350964
-0.14581856 -0.07602454 0.86151731 0.2123911977 0.4492008686 0.867818296
-0.04228894 -0.13280945 0.84633332 -0.2963095903 -0.9529987574 -0.06319844723
-0.04486737 -0.044071853 0.83479488 0.2251456678 -0.6334085464 0.7403398156
0.041632023 -0.049808692 0.84800005 -0.2829150259 -0.8403418064 0.4623686671
-0.08428067 -0.055696685 0.84310246 0.2946421206 -0.4704882801 0.831761241
0.013055173 -0.026369693 0.89350003 0.4988244474 -0.5487151146 0.6708844304
-0.076916277 -0.0776667 0.85679996 0.2207173854 0.5539416671 0.8027655482
0.046812873 -0.094076812 0.82880974 0.1281196028 0.1717109233 0.9767807722
0.0047195344 -0.11478722 0.89683336 0.1171002239 -0.902276814 0.414950639
-0.043148074 -0.064522177 0.81877798 -0.5276272297 -0.00653888844 0.8494508266
-0.056218002 -0.10196774 0.86157149 -0.680367887 -0.1106198803 0.7244741321
0.016047837 -0.053679861 0.8432582 -0.228106916 -0.7713280916 0.5941550136
-0.018760666 -0.1320751 0.85600007 -0.2576741576 -0.7583915591 0.5987038016
0.060611855 -0.069375016 0.83300006 -0.4553347528 -0.5531175137 0.6976612806
0.026783923 -0.1088052 0.85360003 0.7550990582 -0.1646355689 0.6346026659
0.080809377 -0.065270759 0.88633341 -0.8393368125 -0.08660531044 0.5366685987
-0.068028107 -0.12251014 0.8490001 0.4743636549 0.478748709 0.7387684584
-0.10365473 -0.11032557 0.87800008 0.1962136626 0.7048279047 0.681702137
-0.010006273 -0.11776614 0.87800002 -0.1159221306 -0.9672716856 0.2257156819
-0.027191946 -0.098421112 0.85142857 0.5940968394 0.6184455752 0.51436764
-0.14485903 -0.11488698 0.88513142 0.09987615049 0.5795522928 0.8087916374
0.055786271 -0.043303207 0.87395251 -0.4935875535 -0.580724895 0.6474024057
-0.12783729 -0.02967692 0.86800003 -0.06551802903 -0.8517098427 0.5199016929
-0.18516865 -0.034837592 0.86294127 0.1922701895 -0.6160033345 0.7639188766
-0.10811404 -0.089114919 0.86000001 0.1242935434 0.3974708617 0.9091578722
-0.14503574 -0.095101774 0.87320495 0.1951314211 0.4853892624 0.8522446752
0.014507957 -0.11377292 0.87100005 0.2904781103 -0.9341143966 0.2074915022
-0.2216906 -0.081896007 0.86900002 0.2744182348 0.3065582812 0.9114366174
-0.165351 -0.085037984 0.87270725 0.05475241318 0.4221442938 0.9048736691
-0.024180686 -0.035900481 0.84182364 -0.08280578256 -0.7612730861 0.6431224942
0.042174138 -0.087225899 0.90769231 0.1815900207 -0.1261479408 0.9752495885
-0.073577516 -0.095884606 0.83545458 0.6768414974 0.403834641 0.615469873
-0.062991329 -0.054928225 0.8354615 0.2925497293 -0.6364724636 0.7136647701
-0.063450344 -0.064741105 0.80827278 -0.2292861044 0.6707588434 0.7053442597
-0.18531233 -0.055377573 0.85899991 0.0146970544 0.1032893062 0.9945427775
-0.1141865 -0.047448482 0.84900022 0.08755576611 -0.3052455187 0.9482400417
-0.054401502 -0.084102027 0.84693354 -0.4860544205 0.7354170084 0.4721364975
-0.18506627 -0.10189246 0.87740016 -0.0731234327 0.4124345481 0.9080477357
-0.20436835 -0.064971663 0.86053663 0.1945309043 0.1872750521 0.9628529549
-0.10898632 -0.02568984 0.88800001 -0.06834031641 -0.9152833223 0.3969710767
-0.2026816 -0.029557036 0.87575006 0.2247246355 -0.7815822363 0.5819175839
-0.12586795 -0.077501148 0.86037493 0.2019713968 0.4459062219 0.8719949722
0.023657488 -0.11138504 0.90227276 0.1288128942 -0.4465737045 0.8854259849
-0.22270976 -0.043401934 0.87136382 0.3880358934 -0.3325697482 0.859549582
-0.037651375 -0.11540411 0.83666664 -0.4753054678 -0.05643613264 0.8780089021
0.071776204 -0.081702702 0.87100011 -0.81509161 -0.04317619652 0.5777209401
-0.078288592 -0.12852459 0.86457145 0.6363274455 0.4786432385 0.6049694419
-0.14491285 -0.023512574 0.87328577 -0.0364308469 -0.8337696791 0.5509092212
-0.15455833 -0.038037084 0.8574999 0.09216305614 -0.4158736467 0.9047403336
-0.085764892 -0.11410386 0.87350005 0.5828473568 0.5378607512 0.6090934277
-0.022203775 -0.059470877 0.90450001 0.0009936888237 0.2635205388 0.9646532536
-0.1256265 -0.06154919 0.84860009 0.1765850782 0.1729202271 0.9689769149
-0.094449088 -0.04267367 0.85099995 0.1315980554 -0.4933713675 0.85980618
0.051278859 -0.11179604 0.83166671 0.558848381 -0.1000609025 0.8232109547
-0.031511784 -0.085361034 0.90999997 -0.094914563 0.1016166806 0.9902854562
0.06078982 -0.028836196 0.88900006 -0.3702157736 -0.6880182028 0.6241564155
0.0012871658 -0.04633797 0.83900011 -0.2495917231 -0.6214232445 0.7426554561
0.0048229047 -0.081895724 0.90800005 0.02526511438 0.1881022602 0.9818244576
-0.17451939 -0.018077394 0.88633341 0.113444455 -0.8619323373 0.4941690266
-0.015157565 -0.078181133 0.91000003 -0.02100611106 0.2422775924 0.9699795246
-0.061029151 -0.082568847 0.81900007 -0.450992316 0.4449802339 0.7736914754
0.063532911 -0.086171076 0.83300006 0.1046951488 -0.004876368679 0.9944924116
-0.087378368 -0.031352356 0.86028582 0.1395705193 -0.6602196693 0.7379905581
-0.08311414 -0.071345761 0.83900005 0.8583906293 0.2272964269 0.4598933458
0.020657774 -0.12711316 0.86000001 0.5084845424 -0.6284484863 0.5886390805
0.068660535 -0.050916798 0.88000005 -0.6349470615 -0.372063756 0.6770604253
0.028482024 -0.041973926 0.85500002 -0.2674126625 -0.8710778952 0.4119633138
-0.0045092232 -0.10773217 0.90760005 0.06479204446 -0.4859597087 0.8715762496
-0.15555523 -0.017352549 0.88430429 0.003738827538 -0.8859170079 0.4638287127
-0.015606818 -0.11836617 0.86300009 -0.3303486407 -0.5429057479 0.772090137
-0.030677635 -0.12121187 0.85350001 -0.5891067982 -0.4940366745 0.6394379735
0.037358381 -0.10603732 0.83562505 0.6887130737 -0.06573051959 0.7220483422
-0.091438085 -0.079347096 0.86200005 0.07757331431 0.3439175785 0.935790062
0.026374575 -0.084324345 0.90800041 0.1129900515 -0.02834113874 0.9931918383
0.03476071 -0.031051707 0.88113338 -0.07449646294 -0.8182719946 0.5699834824
0.027440894 -0.061489929 0.83700007 -0.1593344808 -0.7548609376 0.6362369657
-0.10479094 -0.1216087 0.88806665 0.291025281 0.6629577279 0.6897763014
0.051398963 -0.055410594 0.85800004 -0.5596002936 -0.7351751328 0.3825768828
-0.023478448 -0.10730913 0.9078334 0.04542159289 -0.3060119152 0.9509435296
-0.05259715 -0.12247801 0.84800005 -0.0242794808 -0.2211033702 0.9749481082
0.015766082 -0.036406469 0.87737513 0.01664895564 -0.9346693754 0.3551281691
0.08181981 -0.077791892 0.89371431 -0.8527265787 -0.04648883268 0.5202847123
0.014812452 -0.039246034 0.84466666 -0.2759768367 -0.83205688 0.4811632931
-0.15453112 -0.064228103 0.85749996 0.2216992229 0.3034919202 0.9266833663
-0.11492296 -0.028536329 0.8746112 -0.04890823737 -0.8932459354 0.4469000995
0.0283642 -0.12222294 0.847 0.7405467033 -0.3100365996 0.5962112546
0.043749694 -0.05716572 0.83563995 -0.3071468174 -0.8025580645 0.5114307404
0.044734973 -0.044681787 0.86490911 -0.3894069195 -0.7857636809 0.4805597365
0.045917172 -0.074705139 0.81900012 0.0006537368754 -0.2253043056 0.9742882252
-0.075573049 -0.059738696 0.82100004 0.3775729537 -0.8712875247 0.3135231137
-0.2145007 -0.055133235 0.86152387 0.3610111773 -0.1496967971 0.9204682708
-0.19508639 -0.084440567 0.86772734 -0.05152092874 0.4107995331 0.9102688432
-0.17495468 -0.065000303 0.86412507 0.04760453105 0.3689464629 0.9282307625
-0.045929812 -0.09757112 0.85299993 0.157355845 0.7058690786 0.6906431317
-0.185445 -0.026647352 0.87411124 0.1714668423 -0.8105590343 0.5599938631
-0.14475131 -0.054750968 0.85551041 0.2274982929 0.07358455658 0.9709942341
-0.056155119 -0.041585151 0.84206659 0.2948613465 -0.6012317538 0.7426823974
-0.079329275 -0.041529741 0.85100001 0.2111222595 -0.5030516982 0.8380730152
-0.17513399 -0.045098782 0.85738093 0.06065597385 -0.1120361015 0.991851151
-0.041392166 -0.068890736 0.83420008 0.05207282677 0.5151262283 0.8555310369
-0.094915204 -0.10450378 0.86435491 0.3115215003 0.6354953051 0.7064701319
-0.035526201 -0.054700822 0.82392621 0.05131728202 -0.2605362535 0.964099288
-0.043724477 -0.10637692 0.86327785 -0.03647818044 0.523511529 0.8512373567
-0.11525656 -0.11503702 0.88376462 0.121702306 0.7008644938 0.702835381
0.025863528 -0.023906589 0.89412504 0.06709160656 -0.8689411879 0.4903467894
0.00076357665 -0.11606365 0.87100005 0.05443461239 -0.9530952573 0.2977353334
0.060952004 -0.10320558 0.83100003 0.3364542425 0.02296241373 0.9414198399
0.0031489865 -0.057469007 0.89800006 0.02241242491 0.352986902 0.935359776
-0.029471779 -0.10504279 0.86200005 0.6078692675 0.5520797372 0.5707038641
0.044285592 -0.036552679 0.87485194 -0.1957343817 -0.7772920728 0.5979172587
0.015099333 -0.074705534 0.906524 -0.01716369577 0.2268561274 0.9737770557
-0.036797833 -0.036162879 0.84185714 0.1166602895 -0.6849831343 0.7191582322
-0.062389862 -0.091812797 0.85742855 -0.02138614096 -0.3766517043 0.9261080623
-0.13519458 -0.084738739 0.86457902 0.2173882127 0.4479717612 0.8672160506
-0.17467928 -0.028731938 0.86776924 0.1106485873 -0.7844390273 0.610255897
-0.15495785 -0.02810262 0.86644441 0.01929211803 -0.785949707 0.6179894209
-0.053630017 -0.056306008 0.82753843 0.06846812367 -0.6701414585 0.739068687
-0.0051700203 -0.12512669 0.86395735 -0.02260604687 -0.8375274539 0.545927465
-0.11473324 -0.036921799 0.85539401 0.04296523333 -0.6670401096 0.7437818646
-0.1540195 -0.083360143 0.86815786 0.1967739463 0.4576385617 0.8670911193
-0.052074 -0.070155248 0.82500005 -0.5890518427 0.627183497 0.5095672011
-0.16488743 -0.073969826 0.86751634 0.1021916792 0.4229130149 0.9003896117
-0.17521212 -0.094978802 0.87545013 -0.03821846843 0.3969990015 0.9170230031
-0.094617791 -0.094478503 0.85743743 0.1695312858 0.275752902 0.9461603761
-0.17448658 -0.11253733 0.88336855 -0.01683132909 0.4186931551 0.9079717994
-0.072078951 -0.085119069 0.82633322 0.72334373 0.2934521735 0.6250277162
-0.13501708 -0.10439756 0.87460607 0.1545886844 0.5689185262 0.8077338934
-0.0038967833 -0.11768286 0.88900006 0.1484139413 -0.9396058917 0.3084056973
-0.16501105 -0.033289973 0.86232013 0.06839732826 -0.6117206216 0.7881114483
-0.21376936 -0.03554482 0.87280786 0.314261198 -0.5798268914 0.7516918778
0.074431635 -0.083430439 0.88620007 -0.8439912796 0.165053606 0.5103293061
0.051114049 -0.057040315 0.84500003 -0.4060238302 -0.8114640713 0.4203221798
-0.14508387 -0.031622801 0.86072725 0.006383019499 -0.6579173803 0.7530630827
0.0068861572 -0.03361794 0.88640004 0.6669695377 -0.5872337222 0.4585937262
0.0047687856 -0.10257632 0.91272002 0.07898499817 -0.3192953169 0.9443579316
-0.18448053 -0.087859586 0.87147081 -0.1107709929 0.4223468304 0.8996404409
-0.025400152 -0.074622788 0.90550011 -0.02554247342 0.2353417873 0.9715769887
-0.013210905 -0.11665111 0.89747369 0.007835496217 -0.9241799116 0.3818770945
-0.10110246 -0.13088457 0.89400005 0.3259069622 0.6073027849 0.7245467305
-0.074805237 -0.10523465 0.84221059 0.6399556398 0.4307235181 0.636344254
0.055072993 -0.0847473 0.82519519 0.09654022008 0.05057825893 0.9940431714
-0.085332192 -0.13169891 0.87511116 0.6318068504 0.5041538477 0.5887690783
-0.067550398 -0.055341288 0.80221063 -0.627409637 0.4292814732 0.6496726274
0.072117031 -0.065614589 0.87584621 -0.7993510365 -0.1199455038 0.5887707472
-0.057673272 -0.099023007 0.8275001 -0.3955720365 0.08523734659 0.9144710898
0.027106348 -0.095814854 0.90800017 0.1955773681 -0.1925716996 0.9615953565
-0.099573553 -0.077862024 0.85400003 0.05275234208 0.4884029925 0.8710222244
-0.15381248 -0.1013236 0.87725008 0.1037979871 0.4644542038 0.8794931769
0.0245761 -0.045233287 0.84461927 -0.2706888914 -0.8479624391 0.4557271302
0.033492323 -0.075452179 0.90678281 0.08861263841 0.04622659832 0.9949929118
-0.13449819 -0.12120793 0.89200002 0.07565095276 0.6532101035 0.7533879876
-0.19406141 -0.10583696 0.88281256 -0.04634988308 0.4389082491 0.8973356485
-0.094728209 -0.053904478 0.84633332 0.2284218073 -0.2800402641 0.9324167371
-0.11476953 -0.075036325 0.85482937 0.1770357341 0.3628129959 0.9148907661
-0.13486075 -0.065281212 0.85342515 0.1951302439 0.2728970945 0.9420463443
-0.10593712 -0.0545615 0.8473227 0.1034638137 -0.09494011104 0.9900917411
-0.11534112 -0.10594115 0.87295252 0.1727037281 0.6586809754 0.7323337793
-0.046230607 -0.077995613 0.84115374 0.05359158292 0.6629715562 0.7467239499
-0.056950897 -0.072616935 0.8120001 -0.3452951908 0.5813704133 0.7367358208
-0.090900689 -0.065034643 0.84299999 0.4397556186 0.3501102328 0.8270657659
-0.042151533 -0.11266079 0.87420005 -0.3111996353 -0.3944834769 0.8646025658
-0.13304207 -0.094418027 0.86854547 0.209807083 0.4856730998 0.8485885859
-0.22322424 -0.054724954 0.86761904 0.3997271955 -0.1032058597 0.9108055234
0.021572137 -0.11401212 0.86128581 0.5041603446 -0.7445858121 0.4375092685
0.034801058 -0.10536423 0.90473211 0.1449808031 -0.2946141362 0.9445544481
0.052286278 -0.067397758 0.8267144 -0.1660000533 -0.4264318049 0.8891568184
-0.21507709 -0.074851692 0.86460006 0.2812812328 0.2487557828 0.926823318
-0.096030131 -0.11689318 0.88135719 0.4029575884 0.6266770959 0.667008996
-0.14503549 -0.018613139 0.88471442 -0.06961624324 -0.9052066803 0.4192308187
-0.064763881 -0.10154017 0.83671433 -0.5081502795 -0.2479998171 0.8247904778
-0.10490604 -0.041858062 0.85146147 0.056521561 -0.4811365306 0.8748216629
0.01593115 -0.10620164 0.90710378 0.1270264089 -0.4037990868 0.9059859514
-0.11489712 -0.063392222 0.84900045 0.08682742715 0.2036364973 0.9751887918
-0.12514547 -0.03728224 0.85479307 0.02457001805 -0.6230460405 0.7817991376
-0.19471867 -0.074644171 0.86351115 -0.06623055786 0.3570148349 0.9317477942
-0.19519481 -0.045242988 0.85899985 0.1754133105 -0.3293500543 0.927770853
-0.029027309 -0.088570513 0.84900004 0.1689613461 0.4365585148 0.883667767
0.039729368 -0.11434305 0.82900006 0.6731063128 -0.1027574912 0.7323719859
-0.026025165 -0.04145899 0.8333751 -0.07485172898 -0.6146681905 0.7852262259
-0.014620599 -0.044253558 0.83499992 -0.1882987171 -0.534199357 0.8241205215
-0.1345702 -0.025699433 0.8745265 -0.1201698557 -0.8883519769 0.4431591332
-0.16489625 -0.094611205 0.87609094 0.03923252597 0.3840205967 0.9224906564
-0.081000201 -0.097347699 0.84766674 0.5071464181 -0.3976281583 0.7646530867
-0.19538945 -0.055314429 0.86020023 0.08432297409 -0.02647702955 0.996086657
-0.10461574 -0.10316541 0.86700016 0.2082975507 0.6323693395 0.7461374998
-0.20494622 -0.074872725 0.86265308 0.1090917215 0.3446690142 0.9323638082
-0.13491675 -0.031814232 0.86114299 0.002936962061 -0.7322883606 0.6809883714
0.024702273 -0.030875763 0.88050002 0.04142243415 -0.8653567433 0.4994415641
-0.0244375 -0.09427429 0.91173685 -0.1346064955 -0.05008000508 0.9896327853
-0.0047736936 -0.074767374 0.90727806 0.01357613411 0.3115794957 0.9501231313
-0.0047888877 -0.084603697 0.90900004 0.02261917666 0.160796389 0.9867283702
-0.11492756 -0.095495336 0.86354071 0.209505558 0.5113732219 0.833429575
-0.12520316 -0.11495096 0.88453841 0.07974248379 0.6769210696 0.7317233086
-0.065590359 -0.044460688 0.8433429 0.3182733357 -0.5510917306 0.7713624239
-0.18505916 -0.064963162 0.86161894 -0.05297842622 0.3229760826 0.9449231625
-0.19494335 -0.094794787 0.87361538 -0.07195130736 0.4272789657 0.9012522697
-0.1850363 -0.045130804 0.85799986 0.141642794 -0.2530949116 0.9570163488
-0.16515632 -0.065336153 0.86260623 0.1513800621 0.3694015145 0.916856885
-0.073951691 -0.11463956 0.84525001 0.5519010425 0.5057164431 0.6630656719
-0.14453523 -0.044932134 0.85423815 0.1627927125 -0.235778302 0.9580746889
-0.21440619 -0.045594417 0.86515623 0.3651906848 -0.3917562664 0.844489634
-0.0047993106 -0.094397016 0.91250008 0.002369544003 -0.02993664518 0.9995489717
-0.214563 -0.06497404 0.8617779 0.3369466662 0.09250833839 0.9369680882
-0.19484366 -0.036096137 0.86400008 0.2069858462 -0.6277985573 0.7503504753
-0.15512346 -0.054647475 0.85533333 0.1582407951 0.08953042328 0.9833331704
-0.032079864 -0.13055758 0.85100001 -0.4724824429 -0.7245463133 0.5017897487
0.055513941 -0.03410219 0.88270718 -0.3494912982 -0.7128485441 0.6080318689
-0.20482287 -0.084290691 0.86785692 0.0722174421 0.3965662718 0.9151610732
0.034351304 -0.11161799 0.89733344 0.1486818939 -0.5020507574 0.8519617319
-0.096224293 -0.029041823 0.86422223 0.07904323936 -0.7960340381 0.6000683308
-0.14492156 -0.065226756 0.85727674 0.2159454674 0.333426863 0.9177113175
-0.031506874 -0.067605197 0.90300006 -0.007901563309 0.2898024619 0.9570538402
0.014880652 -0.065258212 0.90502489 -0.0161400754 0.2396909446 0.9707150459
-0.19487867 -0.064960949 0.86161107 -0.03485740721 0.2606373429 0.9648073316
-0.14464872 -0.084047563 0.86655563 0.208388105 0.4607462585 0.8627208471
-0.13514413 -0.054569915 0.85272223 0.2072392404 0.005942150019 0.9782722592
-0.16505218 -0.017441522 0.88618189 0.06471500546 -0.8843770027 0.4622653723
0.0047520199 -0.064957745 0.90355557 -0.01212813705 0.283379674 0.9589310884
0.014147008 -0.11439399 0.89654547 0.1293254197 -0.8612002134 0.4915374815
-0.17530371 -0.074838072 0.8674866 -0.0001746849593 0.39966169 0.916662693
0.076645888 -0.07366132 0.8858462 -0.8471659422 -0.04943771288 0.5290234089
0.034690328 -0.050923944 0.84185714 -0.3199885786 -0.8246949911 0.4663534164
0.035662495 -0.042705856 0.86400008 -0.3008944392 -0.8603461981 0.4114206433
-0.13518962 -0.11476648 0.88529718 0.09021211416 0.645445466 0.7584602237
0.019045584 -0.03885299 0.86900002 -0.1960986853 -0.9301880598 0.3103151619
-0.15414767 -0.11419591 0.88532257 0.04494575411 0.5020675063 0.8636597395
-0.2269958 -0.074834019 0.87181836 0.3268917501 0.1978342235 0.9241230488
0.080675095 -0.056070086 0.88718182 -0.7742652893 -0.21078071 0.5967283845
0.061759889 -0.055084672 0.86807698 -0.6958881617 -0.4108725488 0.5890020728
-0.15482114 -0.074819364 0.86318189 0.2250016183 0.4364649951 0.8711329103
-0.20460223 -0.055017848 0.86022246 0.2677338421 -0.1088807583 0.9573210478
-0.12585944 -0.046071552 0.8490001 0.1122099906 -0.2533254921 0.9608512521
0.045902152 -0.084937885 0.82443589 0.03605878353 0.05907022208 0.9976023436
-0.079512127 -0.064522445 0.83400005 0.6696623564 -0.4059508443 0.6218972802
-0.086369686 -0.12474769 0.88344455 0.5234563351 0.5771294236 0.6268293858
-0.01508115 -0.065093398 0.90545225 -0.01754953526 0.3091951311 0.9508366585
-0.025946876 -0.053506609 0.82448387 -0.1030815467 -0.3326365352 0.9374044538
-0.17443272 -0.085718617 0.87279469 -0.03913676366 0.4114771783 0.9105793834
-0.20391048 -0.036970064 0.86694121 0.2561107874 -0.5660169721 0.7836019397
-0.22336179 -0.065051973 0.86740911 0.3772121072 0.05937093869 0.9242218733
-0.044899285 -0.054960433 0.82545859 0.1985448599 -0.4374676645 0.8770416379
-0.025920618 -0.11711745 0.86396444 -0.4717652798 -0.609580636 0.637062788
-0.034915227 -0.043020036 0.83364505 0.106790565 -0.5438395143 0.8323667049
-0.066190772 -0.091828197 0.82766676 -0.1888863146 0.5966106653 0.7799856663
-0.13466984 -0.073542431 0.85704017 0.2070650607 0.4359455407 0.8758285046
-0.055187579 -0.11515059 0.84342414 0.1901026219 0.5415049791 0.8189220428
-0.08637578 -0.10729567 0.86429995 0.6794092655 0.411365062 0.6076033711
-0.044538215 -0.12467586 0.84338099 -0.3945805132 -0.7501375675 0.5306598544
0.034761295 -0.02326013 0.89446658 -0.009153009392 -0.8525977135 0.5224876404
-0.065058134 -0.11484792 0.84514284 0.4215272665 0.6160148382 0.6654626131
-0.004934113 -0.036788266 0.84500003 -0.2118774652 -0.6478199959 0.7317357659
-0.16508339 -0.045022618 0.85594487 0.08623050153 -0.1031412557 0.9909219146
-0.0287196 -0.11408063 0.91000003 -0.2077006102 -0.5842218995 0.7845668793
0.031939778 -0.11511856 0.84321052 0.7678099275 -0.2051009089 0.6069608927
-0.01463349 -0.1031633 0.91270965 -0.03506680205 -0.2515118122 0.9672187567
-0.034518749 -0.12043208 0.87500006 -0.6199544668 -0.7220038176 0.3071919978
0.0061322832 -0.052312717 0.84323549 -0.23636958 -0.7276415229 0.6439466476
0.0051057069 -0.028489912 0.89650005 0.5612509251 0.04219835624 0.8265692592
-0.14434592 -0.10335518 0.87596565 0.1534042209 0.5331814885 0.8319763541
-0.21541789 -0.087383032 0.87152654 0.1572087407 0.4039977193 0.9011499286
-0.054544766 -0.094229028 0.85454839 -0.4613832235 0.284216404 0.8404442668
-0.12096559 -0.052969072 0.85099995 0.08219122142 -0.1305478811 0.9880293012
-0.015554695 -0.036553524 0.84203696 -0.153938055 -0.7027277946 0.6946054101
0.042424969 -0.048430134 0.85650003 -0.3695643842 -0.840721488 0.3957391977
0.014326603 -0.08620619 0.91013032 0.04305290803 0.08003713936 0.9958617091
0.065084547 -0.094931617 0.82616377 0.1538783014 0.0836302191 0.9845442772
0.015853703 -0.027723143 0.88549995 0.2444514185 -0.8347758651 0.4933485091
-0.19551332 -0.024586542 0.88385189 0.1904028952 -0.8182891607 0.5423556566
-0.18480577 -0.022373773 0.88376474 0.1482460201 -0.8422940969 0.5182313919
-0.12529083 -0.085160829 0.86416233 0.2147656977 0.4591388702 0.8620134592
0.0047576702 -0.11101097 0.90450007 0.07852154225 -0.5602609515 0.8245859742
-0.035627633 -0.098907784 0.85255551 0.1014628783 0.5315945148 0.8408998251
0.05350183 -0.047149811 0.86670595 -0.5567693114 -0.6448417306 0.5236287713
-0.046786342 -0.10800478 0.83500004 -0.5782234073 -0.1396535635 0.8038374186
-0.11624286 -0.086711027 0.86008334 0.1961524338 0.4345165491 0.8790447116
-0.045100305 -0.036964208 0.84335721 0.1969811767 -0.6981167197 0.6883541346
0.068209052 -0.10123659 0.81900007 0.1531822383 0.1010776982 0.9830150008
-0.10649308 -0.028343644 0.87392324 -0.02134351805 -0.8956375718 0.4442722201
0.03423734 -0.10941063 0.84900004 0.7722020745 -0.2173603773 0.5970414281
-0.074643061 -0.12405375 0.85400003 0.5572677851 0.511420548 0.6541419029
-0.097992338 -0.10868242 0.87100005 0.2851032913 0.65346241 0.7012153268
-0.034948535 -0.12465444 0.84573185 -0.5663966537 -0.2972141802 0.7686732411
-0.097765699 -0.085991144 0.8550477 0.09248935431 0.258646518 0.9615340233
-0.11418723 -0.021930341 0.89340001 -0.09731116891 -0.9194921255 0.3808736801
0.067958325 -0.074246593 0.87100023 -0.809473455 -0.09843231738 0.5788469315
0.044830617 -0.027279442 0.88617659 -0.1805806905 -0.7843315601 0.5934767127
-0.0052922419 -0.050942812 0.83677787 -0.222885415 -0.6243568063 0.7486659288
0.04297654 -0.095503338 0.90783364 0.1881763041 -0.162069276 0.968670845
0.054000329 -0.025824847 0.89266664 -0.2819726467 -0.7593402267 0.5864246488
-0.082739793 -0.083384529 0.85799986 0.1313992143 0.29900527 0.9451614022
-0.15535772 -0.023659607 0.87338102 0.0163281206 -0.8261672854 0.5631882548
-0.13963546 -0.1087768 0.88000005 0.1176096573 0.6007275581 0.7907555699
-0.1650136 -0.11283404 0.8837201 0.02562931366 0.4378043711 0.8987048864
0.072147474 -0.036075272 0.89450002 -0.5173152089 -0.5486926436 0.6567506194
0.065957204 -0.044024751 0.88349998 -0.5411680937 -0.4834769666 0.6880313158
0.054994781 -0.07480146 0.82451212 -0.1168844178 -0.2423290908 0.9631275535
-0.094270475 -0.12421916 0.88731229 0.4504453242 0.5784937739 0.6800323129
0.064904727 -0.035773687 0.88768554 -0.4458574057 -0.6302316189 0.6356250644
0.0048040356 -0.094506204 0.9135558 0.0642786175 -0.04063301906 0.9971044064
-0.06024804 -0.060973041 0.82800007 0.034304142 -0.8025676608 0.5955740213
-0.11300672 -0.12080028 0.88900006 0.1793454289 0.6727455854 0.717808187
0.025454156 -0.074775331 0.90738922 0.009335312992 0.1589838713 0.9872370362
-0.054600749 -0.046190895 0.83564711 0.2808523178 -0.5410127044 0.7927340269
-0.17590983 -0.05305377 0.85799986 0.07084174454 0.144708395 0.9869351387
0.044963505 -0.065410078 0.82373476 -0.1260693967 -0.4467535913 0.8857300282
-0.084481224 -0.03571881 0.854325 0.1662650704 -0.6054710746 0.7783063054
0.053361572 -0.10436667 0.82900035 0.3552378714 0.0470588319 0.9335906506
0.035024583 -0.095521592 0.90800053 0.1159528121 -0.1937691569 0.9741706252
0.034896187 -0.035819944 0.8748216 -0.09032131732 -0.8384484649 0.5374441743
-0.18213853 -0.11095601 0.88260001 -0.04673552141 0.4345332384 0.8994424343
-0.02435801 -0.081989385 0.90800005 -0.05531011149 0.1744400263 0.9831131697
-0.17517811 -0.025131643 0.87472236 0.1361456215 -0.8184841871 0.558164835
-0.016161438 -0.11325648 0.90390009 0.05631079152 -0.5032271743 0.8623175025
-0.1747098 -0.105129 0.88086462 -0.0474736467 0.4115110934 0.9101675153
0.062293369 -0.047323566 0.87541676 -0.5625602007 -0.4742772579 0.6771906018
0.054401875 -0.095025256 0.82740808 0.1562005579 0.0955959335 0.9830883741
0.045947172 -0.10661789 0.82900035 0.5057872534 -0.04819439724 0.8613109589
-0.005267452 -0.058198541 0.90116668 0.001095008221 0.2909939587 0.9567242861
-0.11522884 -0.032064963 0.86133319 0.04206959903 -0.7777296305 0.6271895766
0.023474915 -0.053243116 0.84147048 -0.2177631855 -0.7837166786 0.5816935897
-0.073581845 -0.043400258 0.84633356 0.2638218403 -0.5021373034 0.8235630989
-0.18493794 -0.095152996 0.87366664 -0.09848781675 0.4195787013 0.9023601413
-0.13508216 -0.021917436 0.88112503 -0.1137935668 -0.8901601434 0.4412096739
-0.025312243 -0.046390954 0.82761109 -0.03221286088 -0.5437213182 0.8386474252
-0.11405501 -0.055821747 0.84900022 0.07001382113 0.005576006137 0.9975304604
-0.075285047 -0.03543742 0.853122 0.219316408 -0.5592215657 0.7994820476
-0.014395743 -0.058265548 0.90219998 0.0004178007075 0.2701745927 0.9628112316
-0.043104235 -0.048188612 0.82866669 0.1762175858 -0.5135270357 0.8397840858
-0.11561997 -0.02460471 0.88452631 -0.06095446274 -0.9183085561 0.3911443651
0.014577715 -0.13099353 0.86228573 0.3628662229 -0.7359327674 0.5716039538
0.025581826 -0.10512841 0.90600032 0.1404369622 -0.3642285168 0.9206601381
0.080153339 -0.047470625 0.8876667 -0.7300394177 -0.2800426781 0.6233927608
0.051853251 -0.058903761 0.83780003 -0.3251930773 -0.7829291821 0.5303502083
0.03501093 -0.085143164 0.90766704 0.1423432678 -0.1096793339 0.9837219119
-0.044964064 -0.084878504 0.8437233 0.03676912189 0.5631184578 0.8255577683
-0.0050317156 -0.032533098 0.89639986 0.4572100341 0.09829577059 0.8839100003
-0.024537262 -0.12526377 0.85463434 -0.4846632779 -0.5630760193 0.6693630219
-0.0048236698 -0.1149419 0.89585733 0.1525546014 -0.8887470365 0.4322681427
0.05503612 -0.064507827 0.83374065 -0.4462526143 -0.70212394 0.5548698306
-0.062015526 -0.04795254 0.83785719 0.3042370081 -0.6252196431 0.7187073231
-0.12523817 -0.094930202 0.86720014 0.2206879258 0.4847513735 0.846352756
-0.067115471 -0.052995872 0.84128571 0.3497613966 -0.593338728 0.7249938846
0.051985454 -0.038136628 0.87757152 -0.3540049791 -0.6932771206 0.6277318597
-0.21282761 -0.093773618 0.87410533 0.09825208783 0.4163492024 0.903880477
-0.15518303 -0.044978086 0.85514295 0.1086544991 -0.139164269 0.9842903614
0.070557058 -0.057728499 0.87800002 -0.6890257597 -0.2674652934 0.6735768914
-0.17495336 -0.037779011 0.85792291 0.08943172544 -0.4361528754 0.8954175711
-0.12107205 -0.021089969 0.89100003 -0.09676072747 -0.9174576998 0.385886997
0.0047688726 -0.074708261 0.90655571 -0.02429545298 0.2811246812 0.9593636394
0.035006344 -0.027225967 0.88738096 -0.004021848086 -0.8425750732 0.5385639071
-0.0055165133 -0.13216959 0.86200017 -0.02260604687 -0.8375274539 0.545927465
-0.03476597 -0.094176233 0.84706068 -0.5485767722 0.1278153062 0.8262727857
-0.19227023 -0.028244935 0.87611115 0.1717915386 -0.8047751784 0.5681765676
-0.20398915 -0.02658207 0.88225007 0.23588714 -0.7975820303 0.5551758409
-0.065045573 -0.10663114 0.84186953 0.5611693263 0.6496237516 0.5129113197
-0.054337952 -0.063390099 0.82372737 -0.007359495852 -0.7236180305 0.690161407
0.059402931 -0.041659199 0.88000005 -0.4864526987 -0.5673325062 0.6644528508
-0.19496498 -0.10159874 0.87607151 -0.05262878165 0.445022136 0.8939717412
-0.10477258 -0.084350817 0.85566688 0.09178283811 0.3372353315 0.936935544
-0.049397536 -0.11870154 0.84100002 0.09421470761 0.5058888793 0.8574380875
-0.035587281 -0.047932379 0.82842875 0.08347934484 -0.5419227481 0.8362720609
-0.035318837 -0.085461669 0.84388375 0.07680871338 0.575244844 0.8143671155
-0.10528045 -0.11537015 0.88280642 0.2193989009 0.681593895 0.6980643868
-0.10595246 -0.095669053 0.86187112 0.2249441892 0.4603067935 0.8587885499
0.034467611 -0.055734083 0.8365714 -0.290584743 -0.7919557691 0.5369977355
-0.033665378 -0.11831055 0.84271431 -0.6304320693 -0.197931543 0.7505854368
-0.12466544 -0.06690833 0.85316139 0.164008975 0.3028938472 0.9388058186
0.07701423 -0.085633032 0.89338899 -0.4539651573 0.597720921 0.6607914567
-0.053013962 -0.07619828 0.84219998 -0.1583603024 0.6261481047 0.7634530663
-0.034614567 -0.067725554 0.83594114 -0.2163104117 0.4359457493 0.8735909462
-0.063378163 -0.074426174 0.81425941 -0.3883958757 0.4850965738 0.7834730148
-0.15500595 -0.094962366 0.87448645 0.1677365601 0.4254098535 0.8893204927
0.045451991 -0.031555068 0.88062507 -0.1948573887 -0.7783456445 0.5968322158
-0.075321965 -0.066214286 0.82370007 0.7148177028 -0.2640735805 0.64753443
0.035823997 -0.046141487 0.85587502 -0.3018445671 -0.8643401861 0.4022510648
-0.086088352 -0.0959424 0.85386211 0.4862182736 -0.04581660777 0.8726354837
-0.05135601 -0.090059087 0.84900004 -0.2439745069 0.6071614623 0.7561953664
-0.014171288 -0.085075229 0.91065615 -0.04627948627 0.1458117664 0.9882292747
-0.08017204 -0.059577391 0.83900005 0.5059363246 -0.445610553 0.7385524511
-0.072982676 -0.058704235 0.81459999 0.6887256503 0.6946363449 0.2076951861
0.037650026 -0.071985558 0.82280004 0.03270518035 -0.3023051023 0.9526500106
-0.033586413 -0.061398227 0.82400006 -0.2605208755 0.2006849349 0.9443804622
-0.16489877 -0.028067572 0.86757135 0.06810683012 -0.7766657472 0.6262202859
-0.12530193 -0.027229784 0.87395471 -0.09580721706 -0.8919189572 0.4419293106
-0.16482736 -0.038199082 0.85745448 0.08108273894 -0.3827975094 0.9202671647
0.023878645 -0.12378646 0.8548696 0.6350153089 -0.4838260412 0.6022191644
-0.05797733 -0.087836593 0.85149997 0.3199504912 -0.1047470048 0.9416261315
-0.046482615 -0.10305469 0.85714281 -0.2686546147 0.291095227 0.9181984067
-0.11314785 -0.11006901 0.87800008 0.145181492 0.7100487351 0.6890233159
-0.063131593 -0.062154789 0.83411121 0.2191069871 -0.7078653574 0.6715048552
-0.094191022 -0.11307297 0.87600011 0.4491701424 0.6047128439 0.6576994061
-0.16599216 -0.021359691 0.88066667 0.0938083455 -0.8499143124 0.5185032487
-0.065894887 -0.065886587 0.81453335 -0.3387971818 0.6589987278 0.6715185046
-0.13488653 -0.036591992 0.8562814 0.0358261168 -0.5833659172 0.8114189506
-0.16071579 -0.061428029 0.85800004 0.1669239998 0.2917916477 0.9418035746
-0.044696122 -0.1144324 0.83578044 -0.3256312609 0.04061306268 0.9446241856
-0.12485344 -0.032321602 0.86249995 -0.0371439904 -0.7980668545 0.6014230251
-0.044823885 -0.09282171 0.84827286 0.1280615926 0.5640192628 0.8157711029
-0.028557768 -0.11316206 0.87100011 -0.4837954938 -0.5524501801 0.6787788868
-0.1828272 -0.029256245 0.86842865 0.1574199498 -0.788408637 0.5946686268
-0.058191381 -0.12011298 0.85100001 0.2608569264 -0.1524668187 0.9532614946
-0.024238763 -0.1146728 0.90496778 -0.2077006102 -0.5842218995 0.7845668793
0.038091168 -0.03885299 0.86900002 -0.1820389032 -0.8208414912 0.5413696766
-0.14622049 -0.088682517 0.87122238 0.2292011231 0.4582042396 0.8587873578
-0.024898531 -0.065659568 0.90456671 -0.001152942074 0.2755072117 0.9612982869
0.0222761 -0.039354444 0.84700006 -0.2741543353 -0.8531089425 0.4438970387
-0.1354176 -0.018188437 0.88673341 -0.1045872569 -0.9067944288 0.408393681
-0.0058075665 -0.11736586 0.87160015 -0.1354734153 -0.9446846247 0.2986935973
0.047869798 -0.040994104 0.87133342 -0.3561463058 -0.7039180398 0.6145398021
0.0052937786 -0.12485063 0.86314267 0.1776903868 -0.8949101567 0.4093432426
-0.20232037 -0.10128919 0.87455559 -0.01209782995 0.4544740021 0.8906778693
-0.10124344 -0.092969455 0.85799992 0.2854297161 0.3455348611 0.8939437866
-0.16087009 -0.10083245 0.87800002 0.04947939515 0.4118424654 0.9099107385
-0.1712656 -0.099519201 0.88000005 -0.03964573517 0.4019642174 0.91479671
-0.050751109 -0.11253507 0.83900005 -0.1726357192 0.09278666973 0.9806057215
0.060447916 -0.074605644 0.82825005 -0.2222429067 -0.3040617108 0.9263663292
0.045318164 -0.11593104 0.83212006 0.6459556818 -0.09479598701 0.7574661374
0.032871857 -0.062270921 0.83335304 -0.208254382 -0.7403320074 0.639170289
-0.0049441727 -0.10276783 0.9118889 0.02697197534 -0.3327801526 0.9426186085
-0.093251906 -0.085609734 0.86270016 0.1103037298 0.140102461 0.9839738011
-0.014462467 -0.1244247 0.8607778 -0.2876399159 -0.6891962886 0.6650351882
0.015722113 -0.11649361 0.86516684 0.318685621 -0.9083319306 0.2708736658
-0.0052223033 -0.033571951 0.85100001 -0.2275434434 -0.8508272171 0.4736211896
-0.078459613 -0.097890355 0.8416667 0.7291141748 -0.2810703814 0.6240128279
-0.015613978 -0.1079145 0.90762502 0.006852571853 -0.3486586809 0.9372246861
-0.14495729 -0.027409332 0.86572003 -0.005915763322 -0.7972245812 0.6036538482
-0.094513357 -0.037297368 0.85467863 0.1555130035 -0.6323655248 0.7589002252
-0.059227895 -0.1093627 0.84100002 -0.5466451049 0.1280199587 0.8275204301
-0.13025075 -0.056566037 0.84900004 0.2100107968 0.1347886324 0.9683632851
-0.068145663 -0.075910226 0.82223076 0.6313069463 0.001364017371 0.7755318284
0.045311976 -0.053531408 0.84422231 -0.3330120444 -0.8265492916 0.4537832141
-0.15536359 -0.032907724 0.86133343 0.03934307396 -0.6344401836 0.7719700933
-0.014245009 -0.13238481 0.86058813 -0.1650780439 -0.8306925893 0.5316945314
0.0046720197 -0.037775304 0.84660006 -0.2421658635 -0.8362010121 0.4920604825
-0.1918059 -0.039865538 0.85800004 0.1604811102 -0.3693165481 0.9153420925
-0.19683972 -0.021089969 0.89100003 0.2100034505 -0.8296216726 0.5173262358
-0.13599387 -0.02866134 0.86663646 -0.05423747748 -0.8230689764 0.5653457046
0.065206595 -0.10129032 0.82528579 0.2043430507 0.04930470884 0.9776569009
-0.055832271 -0.052249089 0.83200014 0.1500966102 -0.6196828485 0.7703662515
-0.14488114 -0.036677111 0.85677791 0.04993089661 -0.5690798759 0.8207648993
-0.065965496 -0.084578015 0.82456255 0.5903844833 0.2637536526 0.7628107071
-0.081515096 -0.13179544 0.86900002 0.6509568095 0.4816578627 0.5867375731
-0.10554122 -0.10740735 0.87166679 0.1862325817 0.7057301998 0.6835659146
0.074853197 -0.054714084 0.88497353 -0.7485569715 -0.2463580072 0.6156055331
-0.17489699 -0.032546375 0.86152375 0.1073277295 -0.6277220845 0.7710030675
-0.022539627 -0.10247251 0.91180003 -0.07028011978 -0.1905942857 0.979149878
0.013075428 -0.1021178 0.91093749 0.07130602002 -0.3311651349 0.9408746362
-0.17883007 -0.10134559 0.87800002 -0.05485954508 0.4121552706 0.9094605446
-0.091765955 -0.10003994 0.85800004 0.4946505725 0.3169585466 0.8092330098
0.024845218 -0.027168192 0.88555557 0.04865285009 -0.8541399837 0.5177623034
-0.12451851 -0.022968864 0.88422734 -0.1121102124 -0.9075896144 0.4046139419
0.066410609 -0.054765925 0.87436366 -0.6348261833 -0.3666376472 0.6801268458
0.025334571 -0.035915721 0.874125 -0.04549361393 -0.8901219964 0.4534458518
0.014939981 -0.124741 0.86080009 0.3859912455 -0.713068068 0.5852731466
-0.028550403 -0.10142595 0.85700005 0.7852177024 0.5379251838 0.3067077398
0.025239266 -0.11475085 0.85465389 0.7176421285 -0.2477880716 0.6508385539
-0.06028749 -0.082616188 0.84900004 -0.1246488839 -0.9646762013 -0.2320827991
-0.1458495 -0.10842197 0.8802501 0.1454097331 0.5522758961 0.8208820224
-0.083074316 -0.076848723 0.85699993 0.1513703316 0.490087539 0.8584294915
0.015236503 -0.045288753 0.84330434 -0.2721358538 -0.8089742064 0.5210593343
-0.063640408 -0.096214496 0.86162508 -0.1684903949 -0.4015840888 0.9001895189
-0.062175244 -0.071158737 0.80900002 -0.3387971818 0.6589987278 0.6715185046
0.013553068 -0.032167178 0.88131815 0.1541907787 -0.9234327078 0.3514217138
0.070791706 -0.088851914 0.824 0.08625112474 0.06417801231 0.9942041636
0.015254293 -0.11101855 0.90326667 0.07741755992 -0.5297710299 0.8446000218
0.005571947 -0.11714678 0.86725014 0.2054813802 -0.9412768483 0.2679091692
-0.10495196 -0.074997649 0.85308337 0.1239039153 0.4180886447 0.8999165297
-0.032688271 -0.073312305 0.90500003 -0.02554247342 0.2353417873 0.9715769887
0.042163283 -0.10356697 0.90347058 0.1802590191 -0.2439757735 0.9528811574
0.048251733 -0.050513532 0.86000001 -0.4954227209 -0.7651516795 0.4112167656
-0.14197397 -0.072773412 0.85799992 0.2087940425 0.4397849739 0.8734954
