# .PCD v0.7 - Point Cloud Data file format
VERSION 0.7
FIELDS x y z normal_x normal_y normal_z
SIZE 4 4 4 4 4 4
TYPE F F F F F F
COUNT 1 1 1 1 1 1
WIDTH 512
HEIGHT 1
VIEWPOINT 0 0 0 1 0 0 0
POINTS 512
DATA ascii
0.008282198571 -0.1083356887 0.8578720093 0.1302844435 -0.114347674 0.9244651794
0.0106797656 -0.1012328342 0.8643903136 -0.07352577895 -0.2294934243 0.8320761323
-0.229449451 0.01608408242 0.8406722546 0.06226905063 0.1397295892 0.930265069
-0.2179639935 0.03374721482 0.8396145701 -0.03442361578 -0.2047505826 0.9318683743
-0.2238688767 0.02383263037 0.8408070803 0.006802635733 -0.01307710726 0.9271699786
-0.2316506356 0.02143802866 0.8336627483 0.1727797985 0.05178293958 0.9732069969
0.005636211019 -0.0752921924 0.8656398058 -0.5694785714 -0.5450671315 0.6143772602
-0.2251847684 -0.006483091041 0.8382447958 0.03642617911 0.5176280737 0.8535108566
-0.1950832158 0.04585874081 0.8433997035 -0.1751545817 -0.4722002149 0.8620863557
-0.1854327023 0.05002943054 0.8493652344 -0.2227475941 -0.5242834687 0.8198555112
-0.1763875932 0.04874173924 0.8472162485 -0.2557710707 -0.5052639246 0.8231890798
-0.2137102485 0.04006603733 0.8384881616 -0.06708262116 -0.3306688964 0.9371783137
0.004207532387 -0.09637401253 0.8539280295 0.1006636769 -0.04865860566 0.9846868515
-0.2210451066 0.01656400971 0.8289030194 0.1150743365 0.105779618 0.9834810495
-0.2268888801 0.003785482841 0.8334108591 0.122258395 0.3364127278 0.932480514
-0.2321855426 0.01003524382 0.835062027 0.1361990869 0.24181889 0.9558034539
0.007591637783 -0.06669636816 0.878670752 -0.6151437759 -0.5241042972 0.5878379941
0.006460151169 -0.07163935155 0.9003891945 -0.4496779442 -0.3551668227 0.722665906
-0.0006930821692 -0.07959800214 0.9090322852 -0.2979086936 -0.2129599005 0.8509398699
0.00545492908 -0.08060672134 0.8989359736 -0.4050320685 -0.3233016729 0.7571521401
0.01317491475 -0.07346812636 0.8891149759 -0.5645164251 -0.4745798409 0.6217572093
0.01477778796 -0.06465193629 0.8895687461 -0.619418025 -0.5170909166 0.5782651901
-0.006675085519 -0.08867382258 0.9159129858 -0.1631207317 -0.08977135271 0.9646770954
0.0101077063 -0.08690284193 0.8584786057 -0.5882146358 -0.303558141 0.7429648638
0.01406867709 -0.09345660359 0.8657722473 -0.3803159893 -0.2583159506 0.7965808511
0.01494946796 -0.08455871791 0.8722002506 -0.6110048294 -0.4553990364 0.6338519454
0.01055471599 -0.1023887917 0.8537050486 -0.05797360465 -0.02497682907 0.9948396087
0.01203995105 -0.09435287863 0.8549818993 -0.28637591 -0.119224295 0.9294956326
-0.02455239743 -0.09718602151 0.9145040512 -0.1634521931 -0.1316221356 0.9687775373
-0.02021609806 -0.1051651612 0.9136698842 -0.194571346 -0.2113753259 0.9404568076
-0.1710385382 0.05161911994 0.8533496261 -0.2549343109 -0.5044980049 0.82463938
-0.1631278843 0.051922746 0.8595502377 -0.2402739674 -0.5371290445 0.8085131645
-0.01502982061 -0.090020895 0.861728251 -0.1125700325 -0.1901093572 0.8401082754
-0.01130970009 -0.0836873576 0.8588863015 -0.2280562073 -0.3245325089 0.8055480123
-0.003109725658 -0.0906772092 0.854986012 0.1329565048 -0.1080796048 0.9400932193
-0.07485301793 -0.09758937359 0.8636850715 0.02232208103 0.1829088181 0.3570213318
-0.08958417922 -0.09276922792 0.8644444346 0.2141826451 0.4344495237 0.6689116955
-0.01656410098 -0.1120260432 0.9098126888 -0.2793734968 -0.6631398201 0.623203516
-0.01041689329 -0.1146422401 0.8968141675 -0.2564950585 -0.3971555233 0.4042138755
-0.005997691769 -0.1048655957 0.9126447439 0.1682321429 -0.1496812105 0.9245766997
-0.01306873746 -0.03408099711 0.8913889527 -0.5954738855 -0.5022886395 0.5964162946
-0.02033579536 -0.04053881019 0.8948678374 -0.5030730963 -0.3525912762 0.6919226646
-0.006632287055 -0.07318218797 0.9073238969 -0.3102729023 -0.1724757403 0.8534299135
-0.008246875368 -0.08088853955 0.9128831029 -0.2163940817 -0.1070100814 0.9271435142
0.007970297709 -0.06316640973 0.8956764936 -0.5408239365 -0.4227475524 0.650210619
-0.1750407964 -0.004518772941 0.860195756 -0.280659914 0.4211380482 0.8582730293
-0.1894793212 0.03647506237 0.8365256786 -0.2199857682 -0.3507838547 0.9086266756
-0.09063338488 -0.06157945096 0.8455968499 -0.01681611314 0.1162992343 0.9905493259
0.01282849815 -0.07277671993 0.8790407181 -0.619368732 -0.5400821567 0.5695053935
0.01103258319 -0.07626389712 0.8724182844 -0.6036544442 -0.5026338696 0.6111604571
-0.1889729947 -0.0008402010426 0.8439478278 -0.423538059 0.5340181589 0.7301845551
-0.1026453972 -0.08442144841 0.8669921756 0.3852549195 0.5919858813 0.7076027393
-0.09665908664 -0.08904763311 0.8685135245 0.2952986062 0.5300626755 0.7185294628
-0.003731477773 -0.1042685583 0.858897388 0.2668794394 0.001205815235 0.9611658454
-0.002906011185 -0.1151642501 0.8681919575 0.1004239097 0.1247586608 0.7243025303
-0.005735565443 -0.1156172529 0.8793020248 -0.09170024097 0.02823000401 0.5496270657
-0.01052810904 -0.1195088625 0.8717918396 -0.1553350091 0.6516804099 0.4310524464
-0.004909893963 -0.1120162755 0.9052906632 -0.3262732029 -0.8173090816 0.4037715495
-0.0004010722914 -0.1160528883 0.8599245548 0.3113268912 -0.01351340115 0.9472491145
-0.01511714794 -0.1103100479 0.8661459684 0.2900863886 0.1218536794 0.9484885335
-0.02976529859 -0.1049022824 0.9112660289 -0.2281523645 -0.1816864461 0.9484773874
-0.03794148192 -0.113959983 0.8701548576 -0.2442617267 -0.9602892995 0.1301525533
-0.001590812579 -0.1044841409 0.9046625495 0.03702133894 -0.7958170772 0.4733461738
0.008385892957 -0.09076941758 0.8935338259 -0.2912509441 -0.3531446755 0.7392904758
0.00399626838 -0.09151186049 0.9006925225 -0.2726174891 -0.2735909224 0.8121604919
-0.001479254686 -0.09610594064 0.9086530805 -0.09442422539 -0.1646688879 0.9047268629
0.006764296908 -0.09725233167 0.8863372207 -0.1788050234 -0.5627624989 0.5964765549
0.005146075506 -0.1033979952 0.8747295141 0.01489998028 -0.3296603858 0.747641623
0.00241114269 -0.1025688425 0.8913816214 -0.02506620064 -0.6334983706 0.5628510118
0.003593449015 -0.1081661284 0.8672414422 0.1637951732 -0.1762117296 0.8483840227
0.0003669449652 -0.1109810993 0.8746201992 0.2408798784 -0.2986676395 0.7792779207
0.01036385167 -0.09366150945 0.8795617819 -0.2795535624 -0.454169333 0.6558930278
0.01524127275 -0.08562612534 0.8806316257 -0.5198861361 -0.5042349696 0.611974299
0.001196491648 -0.106630154 0.8844528198 0.1022619754 -0.4928524792 0.6546612382
-0.002646088367 -0.1111305952 0.8924000263 0.001023877761 -0.6076331139 0.5683739781
-0.2142537832 -0.02054283582 0.8531551957 -0.215968743 0.5603666902 0.7956297994
-0.2205382735 -0.01250761561 0.8433920741 -0.0318412818 0.5784854293 0.8140236735
-0.2263903767 -0.005840118974 0.8467516303 -0.02296449989 0.4641736448 0.8666364551
-0.08882795274 0.01731121726 0.8564913869 0.09259317815 -0.06174343452 0.5748696923
-0.0952750966 0.01316495612 0.838879168 0.6863198876 0.282420218 0.1195717007
-0.08769778162 0.02324120328 0.8678129315 -0.2997520566 -0.2671056986 0.8647295237
-0.08779013902 0.01238082536 0.8504676819 0.307152003 0.03888813034 0.422179997
-0.08111014217 0.01271147281 0.8624405861 -0.08832801878 -0.2071760893 0.7338431478
-0.09377481043 0.01755102538 0.8467679024 0.3666902781 0.1519121081 0.3566191792
-0.09428912401 0.02545117773 0.8598539233 -0.08559170365 -0.02563890442 0.7332699895
-0.0941580683 0.02823260427 0.8687318563 -0.3108014464 -0.1700541824 0.9311571717
-0.015290251 -0.04758675024 0.8981072307 -0.4793846607 -0.3212226927 0.7154172659
-0.02701963857 -0.05994231626 0.9052524567 -0.3106722534 -0.05675139651 0.8885399103
-0.02386602759 -0.05191926286 0.901561141 -0.3980735838 -0.1816978306 0.7999131083
-0.03266629949 -0.07296127826 0.9103493094 -0.2285723686 0.03884008154 0.9725004435
-0.03316984326 -0.0655650273 0.9088094234 -0.2308325022 0.07229224592 0.9700766802
-0.2338701487 0.004830345511 0.8412914872 0.09174197167 0.3567818403 0.9234583974
-0.2200436592 0.009057031944 0.8339048624 0.02183096856 0.2868669331 0.9239627719
-0.2161528915 -0.003989697434 0.8356812596 -0.01570184343 0.5198581219 0.8534125686
-0.02227032185 -0.03446142003 0.8767513037 -0.5857303143 -0.5197246671 0.6210068464
-0.02244710363 -0.02627576329 0.8825777173 -0.5915062428 -0.5128568411 0.6191088557
-0.02175258845 -0.03222374618 0.8885439038 -0.5561916232 -0.4445429444 0.6416637897
-0.04656588659 -0.05802665651 0.9048221707 -0.2534251809 -0.01396799181 0.9452112913
-0.03616219759 -0.04913205653 0.89842242 -0.3610093594 -0.1528284252 0.8437841535
-0.03701549396 -0.05864536017 0.9051237702 -0.2780640125 -0.002568897093 0.9252555966
-0.03277942911 -0.03838665038 0.8908193111 -0.4622603059 -0.3221389651 0.7454015017
-0.04353623465 -0.05173987895 0.9003591537 -0.3159481883 -0.112848036 0.8848890662
-0.1651285291 -0.009147766978 0.8618257642 -0.01088245213 0.2328606099 0.9703170657
-0.1652033478 -0.02361990139 0.8609648347 0.09070752561 0.2208243608 0.9521505833
-0.1571347266 -0.02614632994 0.8592807651 0.1756351143 0.1633461565 0.9628651738
-0.1688496619 -0.01603625529 0.8528862 -0.09418458492 0.3220638931 0.8490115404
-0.1620208472 -0.01936320402 0.8550335765 0.02700907923 0.2481820881 0.899610877
-0.1730742007 -0.008220582269 0.8519391418 -0.2050650418 0.3866343498 0.8296412826
-0.1519982964 0.02040245198 0.8560274839 -0.2000305951 0.1884290874 0.9088725448
-0.1643583924 0.005949621089 0.8569875956 -0.1791364551 0.4142330587 0.8919380903
-0.1564495862 0.01296601165 0.8543988466 -0.2102110386 0.3612026274 0.9079378247
-0.1584352851 -0.003562562168 0.8598854542 -0.02594835311 0.2545228899 0.9526803493
-0.1774175763 -0.00157373806 0.8496651053 -0.3197295666 0.4527048767 0.7955011129
-0.2077103257 0.0002711437701 0.8351024985 -0.1807306409 0.4688239098 0.8570787311
-0.2228303701 0.03231483698 0.8317415714 0.008597793058 -0.2081893682 0.9779907465
-0.1537266672 0.02879200131 0.8474270105 -0.290664494 0.04209794104 0.9326112866
-0.07969173044 -0.09626167268 0.8724711537 -0.1993304789 -0.3157523572 0.3951845467
-0.07858897001 -0.09396824986 0.8810045719 -0.2673051655 -0.3371125162 0.48414132
-0.07775960863 -0.08953692019 0.8933898807 -0.430501014 -0.4567393363 0.5822233558
-0.08766522259 -0.08714781702 0.8820723295 -0.1424607337 -0.01433785912 0.6674422026
-0.08901654184 -0.09098996222 0.8726899028 0.1275208294 0.3098104298 0.6882165074
-0.07187841088 -0.09483131021 0.8896726966 -0.5192624331 -0.7190762758 0.4001354873
-0.07180825621 -0.1001614407 0.8739026785 -0.480245173 -0.8372033238 0.1662007719
-0.07019806653 -0.09865738451 0.8822791576 -0.4941169918 -0.8056675792 0.2521369159
-0.08659040183 -0.08868248761 0.8585218191 0.1874796897 0.5407887697 0.8125940561
-0.0269467216 -0.1156533435 0.872782588 -0.1728214025 -0.9793816805 -0.02343883738
-0.02260598354 -0.1127312928 0.9009248614 -0.2460583746 -0.624966085 0.5689143538
-0.02549473755 -0.1144173071 0.884562552 -0.2031167746 -0.8199693561 0.234379366
-0.02476876788 -0.1112006977 0.9083715677 -0.2564178109 -0.4337470233 0.8035572171
-0.0307409931 -0.1089477316 0.9012461901 -0.2077408582 -0.3885771036 0.7341362238
-0.03339444473 -0.111486055 0.8835316896 -0.2030704319 -0.699303031 0.3656103909
-0.03228574619 -0.1096290648 0.8923168182 -0.1852741838 -0.5048227906 0.5458166003
-0.01320933457 -0.117151469 0.883625865 -0.2075808048 0.02629448473 0.3607766032
-0.01746887527 -0.1142915934 0.8908103108 -0.2256840467 -0.8017004728 0.2349284887
-0.01989779435 -0.1169625744 0.8759194016 -0.1840370297 -0.3505902886 0.1729018837
-0.04287239164 -0.1106886119 0.876789391 -0.3046231866 -0.8205939531 0.2529504597
-0.0396695137 -0.1086060852 0.8888933063 -0.2573871315 -0.5574106574 0.534875989
-0.01665579341 -0.1196248457 0.8653853536 0.06784853339 -0.1022300422 0.6023702621
-0.02230199985 -0.1091372594 0.8682652712 0.243483752 0.2614080608 0.917221725
-0.02040837891 -0.08179470152 0.914604485 -0.1794487536 -0.008400198072 0.983325541
-0.2261055857 0.001344714197 0.8411118388 -0.006088825874 0.4327585995 0.885761857
-0.2032300979 -0.00451802602 0.8409430385 -0.2797904015 0.5564757586 0.7785826921
-0.2059484273 -0.01047523506 0.8445366621 -0.2545796335 0.582020402 0.7676486373
-0.1972585768 -0.0109395124 0.8471517563 -0.3536622524 0.5719668269 0.7398151159
0.001495066681 -0.06539264321 0.8733793497 -0.5873168111 -0.5191792846 0.6204820275
-0.02486627176 -0.07585366815 0.9123798013 -0.2188495994 0.0330141671 0.9750899673
-0.04355629534 -0.06511492282 0.9085086584 -0.2331862003 0.04945439845 0.9706856608
-0.03837424517 -0.1045283824 0.9058941603 -0.223496303 -0.1616053879 0.9351881146
-0.03924371302 -0.10661906 0.896964848 -0.2433176786 -0.3688155115 0.7248234749
-0.03889044747 -0.09770526737 0.911210537 -0.2554262877 -0.06671606749 0.9634831548
-0.03229727969 -0.08718765527 0.9133849144 -0.2315384299 -0.01331260335 0.9706059694
-0.07721350342 -0.0655098632 0.9011590481 -0.3111907244 -0.07747658342 0.9446931481
-0.1115225405 -0.07405845821 0.8707728386 0.273778528 0.4475264251 0.7595018148
-0.01107195951 -0.04238600284 0.8819120526 -0.6130945683 -0.5363279581 0.580053091
-0.03620156273 -0.03427530453 0.885260582 -0.4557967484 -0.3471085727 0.7642244101
-0.0440068692 -0.04546599835 0.8942791224 -0.3486314118 -0.1870675534 0.8610577583
-0.02916227467 -0.02437729575 0.8767006993 -0.5482711792 -0.4685703814 0.6922757626
-0.1392900646 0.007465051021 0.8579006195 -0.09997162968 0.180073604 0.9716663361
-0.126036942 0.006522566546 0.8602894545 -0.1775327027 0.04321787879 0.9776960015
-0.1454546005 0.01151881367 0.8527362943 -0.2011617571 0.239387542 0.9348496795
-0.1284271479 -0.0007375561399 0.8615372181 -0.1027627811 0.01179300901 0.9841470122
-0.106690757 0.001865061815 0.8211142421 0.6794397235 0.4783705771 0.5082797408
-0.1007307321 0.007054388057 0.8297175169 0.7605627775 0.4890203476 0.1643809974
-0.1328026205 0.005110030528 0.8538265824 -0.04253394529 0.137972489 0.9451886415
-0.1097794771 0.004818112589 0.8287773728 0.6646828651 0.3955539465 0.53196913
-0.1203732565 -0.000428933854 0.8370230198 0.3917657137 0.2335578948 0.7292513251
-0.1425323486 0.001282081008 0.853599906 -0.07856477797 0.1467671841 0.9648787379
-0.1521289945 0.005917548202 0.8525002599 -0.1200148761 0.2390966117 0.9289705753
-0.1398869753 -0.03446835279 0.8567341566 0.1970222443 0.04932780936 0.9761581421
-0.1180355847 -0.04776652157 0.8522260189 0.30088377 0.1026473641 0.9476208687
-0.1604575664 -0.03148856387 0.8680181503 0.177145198 0.2929786742 0.9255310297
-0.1494128406 -0.02581643313 0.8637862206 0.1803482473 0.1292586774 0.9652125239
-0.1600509137 -0.0160113927 0.863104701 0.0863918364 0.1408444643 0.982113719
-0.1693536639 -0.01573004201 0.8631777167 -0.03972363472 0.2124670595 0.9713086486
-0.1453274041 -0.06415086985 0.8697205782 0.3663160801 0.4018397033 0.8373209238
-0.132955268 -0.07275860012 0.8725523353 0.3711758554 0.4596367478 0.8009818196
-0.1251326054 -0.07646999508 0.8693757057 0.3665511906 0.5121186376 0.7760797739
-0.1509471685 -0.05888800323 0.8712239265 0.3760712445 0.3455660641 0.8596654534
-0.1606971622 -0.03328358755 0.8605340719 0.198500365 0.2330757529 0.9370136857
-0.1570392996 -0.04136809707 0.8693164587 0.2655541897 0.3245048225 0.8969938755
-0.1100240573 -0.03291903064 0.8474505544 0.193633914 0.01096940693 0.945361197
-0.105927594 -0.02318981104 0.8439948559 -0.008373781107 0.3033077717 0.905364275
-0.1558914036 0.01850171946 0.8490300179 -0.2917590141 0.3663822114 0.8825389743
-0.1458834559 0.01986683905 0.851134181 -0.2308292836 0.173082754 0.9482007623
-0.1433537453 0.04653457925 0.8601587415 -0.2288612872 -0.3623638451 0.8902704716
-0.1475720257 0.03449342027 0.8591628671 -0.2002678365 -0.1357478499 0.8961198926
-0.1541971266 0.05053619668 0.8613232374 -0.2448211163 -0.49830845 0.8294066787
-0.1639078259 -0.001091742655 0.8541935086 -0.1118103415 0.323582679 0.908400774
-0.1705164015 0.002633741591 0.8499783874 -0.2581453323 0.4087694883 0.8407192826
-0.1802124828 0.04113997146 0.851664722 -0.2714686692 -0.3079470396 0.8213139176
-0.1663895398 0.01293529104 0.8527443409 -0.3086895943 0.3865270615 0.8419982791
-0.1629440933 0.02097212337 0.8543178439 -0.2950800359 0.2127354741 0.8410309553
-0.1602153629 0.03977886587 0.8587671518 -0.2650081515 -0.2422148138 0.8235067129
-0.1645608991 0.02094592713 0.8448932171 -0.3481055498 0.2399346828 0.8812215328
-0.2137972265 0.03050151654 0.8315297961 -0.05824835226 -0.2154721171 0.9740971327
-0.2066067308 0.03145198524 0.8355265856 -0.1583598554 -0.1850096285 0.9400852323
-0.201844126 0.02444387414 0.8332486153 -0.2213795632 -0.05869002268 0.942715466
-0.1988096982 0.03219144046 0.832231462 -0.186805144 -0.2592633367 0.9444155097
-0.006038646679 -0.06031108648 0.870514214 -0.562594533 -0.5115972757 0.6489534974
-0.1753962785 0.03259111941 0.8371582031 -0.2948535085 -0.2272492498 0.919457972
-0.1844503284 0.03030681424 0.8360504508 -0.2770610452 -0.1892046332 0.9283624291
-0.1796433628 -0.01039649267 0.8610194921 -0.2692938745 0.3861583471 0.8733887672
-0.2109080553 -0.01719046757 0.8473044634 -0.1577421129 0.5744457245 0.7945882082
-0.2096961737 -0.02780104056 0.8561558723 -0.2700532675 0.5190225244 0.8103817105
-0.203582257 -0.0331725888 0.862216711 -0.21593225 0.4889048636 0.8446159363
-0.2013130486 0.04174870253 0.8404304385 -0.1497842222 -0.3986569345 0.8801692724
-0.1945132315 0.03057310916 0.8393149376 -0.249317199 -0.09742321074 0.8762542009
-0.2001965195 0.006517384201 0.834471941 -0.2922310531 0.3871646821 0.8706761599
-0.1960494071 0.001209916314 0.8407185078 -0.3796156645 0.4965763986 0.7760734558
-0.1164043471 -0.08077839017 0.8709205389 0.3759649694 0.5491281748 0.7454135418
-0.09517894685 -0.08225970715 0.887599647 -0.1908138692 -0.100246124 0.6755982041
-0.1074079573 -0.08149752021 0.8781581521 0.1797128618 0.3391463459 0.7318515778
-0.09956610203 -0.08447545767 0.8789733052 0.09210717678 0.2429663688 0.6831106544
-0.09970971197 -0.07543761283 0.8861654401 -0.0833452791 0.1789694577 0.7781124115
-0.09018433839 -0.07705098391 0.8920238614 -0.3760787845 -0.1130485088 0.7501353621
-0.105599761 0.02359445952 0.8405566216 0.3548347652 0.3482806981 0.3783856034
-0.1063568369 0.01869506389 0.8313063383 0.65413481 0.3307016492 0.4145463407
-0.0992642343 0.01575885899 0.827929616 0.7788314819 0.5723888874 0.0530939959
-0.1486908942 0.04603708163 0.8539273739 -0.2282572687 -0.4285641611 0.8732691407
-0.1624173969 0.03426843137 0.843349278 -0.2999040484 -0.2294955403 0.9237274528
-0.1684301943 0.02880499139 0.8398140073 -0.3503222466 -0.04072098434 0.9325606823
-0.0537635982 -0.07685095817 0.8620579839 -0.3093288541 -0.6392444968 0.4771736562
-0.04818243906 -0.05737351626 0.8554866314 -0.2377990484 -0.3801744282 0.8385568261
-0.05663100258 -0.0855230391 0.8648530245 -0.3367367387 -0.7495906353 0.3186882138
-0.0599350445 -0.09627707303 0.8683086634 -0.4010436833 -0.873005271 0.1258527339
-0.06086277217 -0.07353143394 0.8574728966 -0.1459273845 -0.2002936602 0.7162780166
-0.05749768391 -0.06415877491 0.85497123 -0.1540808082 -0.2583833635 0.809817493
-0.06918022782 -0.09028110653 0.8607847691 -0.07454258949 0.08437588811 0.629612267
-0.07695930451 -0.08176958561 0.8995566368 -0.4031556547 -0.2677461207 0.8129662871
-0.0927747041 -0.07497515529 0.8501989841 0.1507735103 0.388105303 0.9021303058
-0.04599193856 -0.1022141203 0.9041683674 -0.3047472239 -0.2110657692 0.8689587116
-0.03642969206 -0.08270034194 0.8650531173 -0.3969052136 -0.6915234923 0.4461834133
-0.05026820302 -0.09522622824 0.8688896298 -0.3772729933 -0.8694627285 0.1892952323
-0.04277942702 -0.09014417231 0.8673888445 -0.3801296949 -0.7893550992 0.3097232878
-0.03387209773 -0.09367520362 0.8672440648 -0.3673885465 -0.7831407189 0.345359832
-0.01482472941 -0.07554394007 0.8588432074 -0.4470580518 -0.5257062912 0.7040079832
-0.02804202028 -0.08506236225 0.8640927672 -0.3978887796 -0.6757739782 0.489465028
-0.02249226347 -0.08038597554 0.8617598414 -0.4198911488 -0.6064227223 0.5871664286
-0.02377638407 -0.0718799606 0.8604844213 -0.4339399636 -0.5330407619 0.6720137596
-0.02375089191 -0.09565453231 0.8655586839 -0.1274226159 -0.3035503626 0.6942054033
-0.02892650664 -0.1027687937 0.8684287071 -0.02401885018 -0.2591715753 0.6583787799
-0.03880816326 -0.1047230959 0.8709638715 -0.1818024516 -0.6439806223 0.3507502675
-0.01738101989 -0.09500277042 0.9163612723 -0.144522056 -0.08310737461 0.9860053658
-0.007291249 -0.09627741575 0.9169437289 -0.141779542 -0.07897810638 0.9867411852
-0.1020050272 0.02848077007 0.8578183055 -0.04665450379 0.1140550151 0.7281035185
-0.1101711988 0.03051953204 0.8553504348 -0.09117422998 0.1094571501 0.7481845021
-0.1037884802 0.02549435012 0.8488429189 0.1721999347 0.2554688156 0.5397542119
-0.1089782044 0.03274545074 0.8649084568 -0.3237522542 -0.003566163126 0.9456428885
-0.005321552977 -0.06999966502 0.8623203635 -0.5075748563 -0.5230206847 0.6843723655
5.936606613e-05 -0.07678183913 0.8584622145 -0.5428038239 -0.5365433097 0.6453267932
-0.01561870705 -0.06033239141 0.8621461987 -0.515463233 -0.4736688733 0.7135919929
-0.04197982699 -0.08727736026 0.9115480781 -0.2515030205 -0.006103323773 0.9675402641
-0.04815687239 -0.08271283656 0.9091812968 -0.2607213557 -0.008369348012 0.964821279
-0.105443418 -0.07778628916 0.8625400662 0.416149199 0.555958271 0.7193074822
-0.06692112982 0.005859218072 0.8697580099 -0.3032672107 -0.3709708154 0.8771973848
-0.01191413123 -0.05146273598 0.8718332052 -0.5860463977 -0.4959966242 0.6399270892
-0.01913694106 -0.05790310726 0.9024379849 -0.3617937565 -0.164851889 0.8335048556
-0.005409222096 -0.03931928799 0.8927301168 -0.6020743251 -0.5215206146 0.5887045264
-0.006367786787 -0.05024698377 0.8781920075 -0.6086602807 -0.540448904 0.5808507204
-0.0281040296 -0.03423076123 0.8706928492 -0.5176358819 -0.489297092 0.7013349533
-0.01854922995 -0.04654797167 0.8674935102 -0.5455301404 -0.4998682439 0.672170043
-0.06414686143 -0.05710241944 0.8970964551 -0.256574899 -0.07015770674 0.9561185837
-0.04952005669 -0.03401198983 0.87560606 -0.3680841327 -0.2939013243 0.8625155687
-0.05394815654 -0.04736321792 0.8901630044 -0.2955309749 -0.1466148198 0.9196769595
-0.05144865811 -0.0537225306 0.9004000425 -0.255682081 -0.05425727367 0.9478908777
-0.0444954522 -0.02655141987 0.8706898093 -0.4120316803 -0.3611679375 0.8271279931
-0.04347203672 -0.03179599717 0.8807948232 -0.4021263421 -0.2975522876 0.8334593773
-0.03858549893 -0.02722638287 0.8769398332 -0.4582713246 -0.3810654879 0.7810643315
-0.04597549886 -0.03782579303 0.8862324953 -0.3594151735 -0.2270293385 0.8677364588
-0.04150305688 -0.03114678524 0.8647349477 -0.396004051 -0.4174430966 0.815582335
-0.05277821422 -0.007738577202 0.8703474998 -0.3270226121 -0.3859443963 0.8624079823
-0.03971588239 -0.01605118066 0.873021245 -0.4515658617 -0.4337638617 0.7758538723
-0.11991667 0.02259216085 0.8608742356 -0.306963414 0.01027777139 0.9499154687
-0.1290135235 0.01404963247 0.859099865 -0.2501087189 0.1038052216 0.9591300488
-0.1219743788 0.01947221346 0.8370182514 0.2931487262 0.2208687067 0.6806408763
-0.1318745762 0.01923312433 0.8459740877 -0.01551944762 0.1208652183 0.8765138388
-0.1365199983 0.01430509333 0.853402257 -0.1571420282 0.07802078128 0.9780957103
-0.1254188567 0.01083754282 0.8431741595 0.1809565723 0.2120819092 0.7919685245
-0.1157359034 0.006736498326 0.8347839713 0.4758390784 0.331253469 0.6336176991
-0.1434406787 0.02959766425 0.8485497236 -0.24235636 0.00205619121 0.9661581516
-0.149601385 -0.002305577509 0.8587153554 0.0299209021 0.1795522273 0.9800363779
-0.1198349148 -0.0341119878 0.8590959907 0.2683312297 0.01279243082 0.9411405921
-0.1148750037 -0.03907239437 0.8499403 0.2606088221 -0.03716778383 0.9631497264
-0.1004589796 -0.04983135685 0.8443773985 0.0792644769 0.01692620479 0.9942035675
-0.1032410339 -0.07236623764 0.8558588028 0.4048965573 0.5009516478 0.7619199157
-0.1141985655 -0.07392802089 0.8614994287 0.3894879222 0.5216252208 0.7576926351
-0.122371152 -0.07127453387 0.8625147939 0.3603237271 0.4932839572 0.7907000184
-0.111048311 -0.06806141883 0.8561953902 0.3626099527 0.4188641012 0.8293781877
-0.1262855083 -0.05199490488 0.8576365709 0.3425782919 0.2643963993 0.9006345272
-0.1723885089 -0.05249172077 0.8782185316 0.1891466677 0.4252353013 0.8846818209
-0.1665554941 -0.04490830749 0.8732600212 0.1992876083 0.4223374128 0.8841412663
-0.1821482778 -0.0264496766 0.8672142029 -0.1334263533 0.3453449607 0.9243810177
-0.137553826 -0.06614898145 0.8658634424 0.3494314849 0.4480322897 0.8224663138
-0.1781020164 -0.04572507367 0.8703109622 0.03191905469 0.4371819496 0.8870757222
-0.1795954108 -0.04980107769 0.8775833845 0.09400423616 0.4584617317 0.8829244375
-0.1634407341 -0.05342274904 0.8737604022 0.2617636323 0.4390127063 0.8586396575
-0.1541357189 -0.04860924929 0.8682146668 0.3392736316 0.3449031413 0.8744305968
-0.1733877063 -0.03640276566 0.8652364016 0.09894280881 0.4045724273 0.9060761333
-0.1667596996 -0.04033624008 0.8662284613 0.1840891689 0.380869478 0.8972388506
-0.1515047848 -0.01785240136 0.8577622771 0.1494033635 0.1416678578 0.9735739827
-0.1479810774 -0.01080435608 0.8575456142 0.07688982785 0.112719208 0.9855745435
-0.1027879938 0.02148107253 0.8670304418 -0.2775638402 -0.1117145047 0.9525926709
-0.1698944867 0.024312675 0.8519387841 -0.2937151194 0.1255966425 0.8404183984
-0.1740337759 0.03611776605 0.8515031338 -0.2778574824 -0.1662222892 0.832896173
-0.1680734009 0.04154874757 0.8520979881 -0.2677667141 -0.3215058148 0.8336371183
-0.1646485329 0.03229320049 0.8527161479 -0.279640317 -0.09973312914 0.838829875
-0.1898601949 0.01774623618 0.8353329301 -0.3397614956 0.2002976984 0.9092725515
-0.2016243637 0.01601890475 0.8306674361 -0.2366857827 0.1743540168 0.9496000409
-0.2126211673 0.01980386488 0.827911377 -0.03853699192 -0.01274770405 0.9864444137
-0.2069326937 0.009216822684 0.8308417201 -0.1818732172 0.2874260247 0.9270564318
-0.2038135827 -0.01651284844 0.8519752026 -0.2789157927 0.5483952761 0.7838705182
-0.19104743 -0.006373719312 0.8494038582 -0.3827422857 0.5539036393 0.7388579845
-0.1531163007 -0.03753397241 0.8615394831 0.2957069576 0.2124307156 0.9255872965
-0.1794231385 0.02390922047 0.8441740274 -0.3651473522 0.1408450902 0.8314435482
-0.1869849116 0.04042527825 0.8452761769 -0.2573697269 -0.3011699021 0.8460589051
-0.1818215996 0.03299944475 0.8458257914 -0.3191554844 -0.09252469242 0.8325462341
-0.1754437536 0.01443116739 0.8500318527 -0.3548413217 0.3179637492 0.816215694
-0.1776135713 0.02400433831 0.8529068828 -0.2995221019 0.06392060965 0.8148366213
-0.1797326505 0.006522088777 0.8488031626 -0.3519821167 0.4480310977 0.8165234327
-0.1833691895 0.009911849163 0.8401083946 -0.3995971084 0.412530154 0.8142544627
-0.1802685112 0.01730088145 0.8390691876 -0.3822421432 0.2877400219 0.8738403916
-0.07047915459 -0.08858142793 0.9012978077 -0.3678669035 -0.2993399501 0.8489670753
-0.1413862556 0.03856480867 0.8494791389 -0.2364166826 -0.2080753595 0.9347605705
-0.1549488306 0.03944785893 0.8468590975 -0.2635850012 -0.3553556502 0.892805934
-0.0469802767 -0.09498138726 0.9084445834 -0.2973870337 -0.09041076899 0.9466961622
-0.052932024 -0.08946100622 0.9063677788 -0.3137190342 -0.09429258108 0.9404062033
-0.06241375953 -0.09730088711 0.8998440504 -0.4603306055 -0.6872076988 0.5174455643
-0.06002353877 -0.0607861802 0.9034104943 -0.2324729711 -0.01969469711 0.9717462063
-0.07021545619 -0.07934752107 0.9024368525 -0.2651441097 -0.07497131079 0.9611929059
-0.05577751249 -0.07082890719 0.9057911634 -0.2663118839 -0.002036702819 0.9630406499
-0.0699307099 -0.07040515542 0.9034118056 -0.2513844967 -0.06548351049 0.965602994
-0.06299190223 -0.07537713647 0.9046640396 -0.2620438039 -0.06232262775 0.9625855684
-0.05847704783 -0.0834491998 0.9053468704 -0.2893665135 -0.05367157608 0.955344975
-0.04882653058 -0.1068021283 0.8838064671 -0.3617907763 -0.8439544439 0.3068071008
-0.05168999732 -0.1061083674 0.8742053509 -0.3667471111 -0.9139944315 0.1465594918
-0.05235674232 -0.1033862457 0.8911635876 -0.3879341483 -0.7883019447 0.4102452993
-0.05536973476 -0.100620769 0.8988832831 -0.4162853956 -0.731921196 0.5153504014
-0.06067240611 -0.1000305489 0.8863124251 -0.4493175149 -0.8302951455 0.2768607736
-0.06090700999 -0.1039135531 0.8700602651 -0.4318833351 -0.8938313127 0.1069022045
-0.06074348837 -0.1015880778 0.8785703778 -0.4388324022 -0.8646028042 0.1913755536
-0.02293560095 -0.06330614537 0.8585976362 -0.4608771205 -0.4556716681 0.7611227632
-0.0208133515 -0.05481048301 0.8610801101 -0.4759968221 -0.4516329765 0.753667891
-0.03834618628 -0.07939388603 0.9112519622 -0.2435014397 0.02739646658 0.9692400694
-0.04426348954 -0.07491591573 0.9091336131 -0.2436971962 0.03000464849 0.9687539339
-0.02608978748 -0.04619447142 0.8620749116 -0.4588801861 -0.4586054087 0.7599276304
-0.1002166495 -0.029724475 0.844884336 -0.1184725314 0.1927412301 0.940269053
-0.09042020887 -0.0818522349 0.8554486632 0.2611025572 0.4642628431 0.8388605714
-0.08433478326 -0.04834729433 0.8634954095 -0.1943531483 -0.1488430649 0.9677091837
-0.08946299553 -0.04540628195 0.8553515077 -0.1767041981 -0.1641437113 0.9698709846
-0.08714006096 -0.05486094579 0.8741627932 -0.295781374 -0.1528941095 0.9218842387
-0.0772261098 -0.06152749434 0.893109262 -0.3272383511 -0.1079153717 0.9212844968
-0.09196396917 -0.04943719134 0.8618850112 -0.2389833331 -0.1651317477 0.9415161014
-0.07998984307 -0.05663388968 0.8835686445 -0.260700196 -0.1070213169 0.9483786821
-0.09840550274 -0.06389258057 0.8728938699 -0.08151878417 0.0927381739 0.8346756697
-0.1005730107 -0.07017728686 0.8784407377 -0.0310527999 0.1915759593 0.7890685201
-0.08318061382 -0.07086780667 0.9004172683 -0.5563406944 -0.1895052046 0.8039772511
-0.08683599532 -0.0651012361 0.8884872794 -0.4327068329 -0.1547197402 0.8394473195
-0.1035137847 -0.06277891248 0.8652545214 0.0749065429 0.1973234564 0.8365519047
-0.09813660383 -0.05128300563 0.8568198681 -0.05993090197 -0.01486837119 0.9215717316
-0.09272615612 -0.06539924443 0.8817363977 -0.2560634911 -0.0213751439 0.8307459354
-0.09675736725 -0.0577576533 0.8669123054 -0.1166999564 0.006653368939 0.8786674738
-0.09891794622 0.008232872002 0.8655506968 -0.3118301034 -0.31219998 0.8727228642
-0.003987149801 -0.04610237479 0.8858059049 -0.6095634699 -0.5418239236 0.5786683559
0.001162072527 -0.04494235292 0.8927314281 -0.6099921465 -0.5344983339 0.5796599388
-0.01127041597 -0.0614997074 0.9032654166 -0.3755869865 -0.2213496417 0.8053744435
-0.004265902098 -0.05285522342 0.8974615932 -0.5030485988 -0.3824528158 0.685608387
-0.02118617296 -0.06644854695 0.9066249132 -0.2742337883 -0.05279371515 0.915790379
-0.01602401771 -0.07251741737 0.9106365442 -0.2331924587 -0.06996168941 0.9284419417
0.002884071786 -0.05588056147 0.89607656 -0.5405971408 -0.437925756 0.6460849643
-0.003109936835 -0.05985387042 0.900824964 -0.4465370774 -0.3355407417 0.72903198
-0.05217944831 -0.03975996375 0.8573865891 -0.2249181122 -0.3192573786 0.9143306613
-0.05282690749 -0.04924674705 0.85321486 -0.1611410677 -0.2603522539 0.9496408105
-0.06152432039 -0.04452016577 0.8826788068 -0.298378855 -0.1955116987 0.9173274636
-0.06476274878 -0.04976070672 0.8875697851 -0.2801178396 -0.1493121386 0.9346857071
-0.05441598594 -0.02972532995 0.8678956628 -0.3292929828 -0.3180419803 0.8803197145
-0.1264843792 0.02710703388 0.8585243821 -0.2813793421 0.05110095441 0.9520549178
-0.1332292408 0.02587658726 0.8553160429 -0.2713435888 0.08877379447 0.9563803673
-0.1423119307 0.02787250839 0.8574935198 -0.192709133 0.02216492221 0.9334449172
-0.1017116234 -0.0129869543 0.841596365 -0.213395834 0.5040125251 0.7688575983
-0.1330677718 -0.02777492255 0.8573799133 0.1042080298 -0.01593386941 0.9935129285
-0.1170799881 -0.02439853363 0.850736618 0.08172085136 0.1286409348 0.9338776469
-0.12367782 -0.02723563649 0.8556486368 0.1720972359 -0.07835395634 0.966421783
-0.07927637547 -0.0406319648 0.8532150388 -0.1055079699 -0.174405098 0.9774692655
-0.09679757804 -0.06836932153 0.8490359187 0.1661225855 0.3101220429 0.9317478538
-0.09803716838 -0.0595808886 0.8463733792 0.08962664753 0.11519631 0.9852763414
-0.112335518 -0.0603848286 0.8533737659 0.3438484669 0.3317079246 0.8735737205
-0.1195891127 -0.06405299902 0.858610332 0.3732706904 0.457521975 0.8061686158
-0.1289757192 -0.06451848894 0.8655717373 0.3522692323 0.4161134362 0.8316948414
-0.1337822676 -0.0562508367 0.8627071381 0.3494065404 0.3352153301 0.8735462427
-0.1192935705 -0.05633605272 0.8568537831 0.3605156541 0.2951919734 0.8796007633
-0.1066404283 -0.05452376604 0.8548286557 0.1726211607 0.1590025127 0.8977243304
-0.1712760627 -0.02679244988 0.8671181202 0.01705696806 0.3381127417 0.9247302413
-0.1769328266 -0.01995114796 0.8645374775 -0.1190633476 0.30624035 0.9398933053
-0.1861480027 -0.03670763969 0.8688180447 -0.1413572431 0.4311821163 0.8896299601
-0.1978962123 -0.03834203631 0.8628698587 -0.173736617 0.4764412344 0.8593912125
-0.1891164035 -0.03406067193 0.8609007597 -0.08003623784 0.450568229 0.871933043
-0.1810442954 -0.03440278769 0.8630025387 0.008009338751 0.4267022014 0.8935337067
-0.1357004195 -0.01073534042 0.8562706709 0.01543371752 0.01685108431 0.9988555908
-0.1417761445 -0.0168259386 0.8575572371 0.08282405883 0.02883530036 0.993982017
-0.1446417421 -0.02748411521 0.8579275608 0.1805318445 0.03741205111 0.9818918109
-0.2015288174 -0.02394571714 0.8536360264 -0.3074838817 0.5212500095 0.7937739491
-0.1962873787 -0.01748696528 0.8553780317 -0.3451767266 0.5039953589 0.791264236
-0.1869792491 -0.01100053545 0.8564287424 -0.3654067218 0.4972427785 0.7860830426
-0.1261751503 0.0434493944 0.8598228097 -0.3069578707 -0.1508738101 0.9321968555
-0.1181754768 0.03746014461 0.861065805 -0.3318307698 -0.05623864755 0.9387093186
-0.1356664747 0.04510673881 0.85990417 -0.2327420861 -0.2381596565 0.9359849095
-0.133374691 0.03514844179 0.8569766283 -0.2645292878 -0.05763665587 0.9473835826
-0.174452886 0.0403768979 0.841716826 -0.2906000018 -0.3947396278 0.8668858409
-0.04266246408 -0.04094006866 0.8595764637 -0.325316608 -0.4154604077 0.8488513827
-0.08892000467 0.00739880139 0.8665859103 -0.32122159 -0.3529675901 0.8733839989
-0.09458264709 0.02006452717 0.8699216247 -0.2822261453 -0.2049178481 0.9358167052
0.003256148426 -0.05602407455 0.8840722442 -0.6140613556 -0.5447743535 0.5709559321
0.01159717795 -0.05670833215 0.8908298612 -0.6335443258 -0.5253787041 0.5679669976
-0.05175400898 -0.01685743965 0.8676176667 -0.3471732438 -0.3838472664 0.8527183533
-0.1204682142 0.01311089098 0.860615015 -0.301740557 0.02293762565 0.9528368711
-0.1105874851 0.01479673479 0.8646925092 -0.2626942098 -0.07778863609 0.9566607475
-0.1091016084 0.02390694059 0.8631771803 -0.3178987503 -0.01682053134 0.9457952976
-0.1181133613 0.02581170201 0.8395036459 0.265322119 0.1656227559 0.6501410007
-0.1222936884 0.03639473021 0.8511930704 -0.1259649545 -0.01557974331 0.8328213096
-0.1124463156 0.02179647982 0.8346048594 0.4835434854 0.2495865375 0.529527247
-0.1205335632 0.03112828359 0.8454124331 0.06327887625 0.07339873165 0.7459384799
-0.126896143 0.02508168668 0.8410225511 0.1314286888 0.1378976852 0.7524358034
-0.1337147206 0.03140226752 0.8462283015 -0.1201929897 0.02706344984 0.8922755122
-0.1181787476 -0.02178348601 0.8600975871 0.2098035663 -0.1352168322 0.9675242305
-0.1207385212 -0.005186724011 0.8609586954 0.1345772147 -0.05978668481 0.9881464839
-0.1219005287 -0.01476783212 0.8600856662 0.1492452919 -0.1301322281 0.976516068
-0.1320738643 -0.017084511 0.8600055575 0.0984871015 -0.05311271921 0.989041388
-0.126146242 -0.01816916093 0.8546330333 0.05419827253 0.02536939271 0.9692217112
-0.1230484918 -0.006351682823 0.8430677652 0.1791713536 0.2900821865 0.8368341327
-0.1124387458 -0.003550954163 0.831390202 0.3398874998 0.536781311 0.6886547208
-0.1300826222 -0.005667615682 0.8501068354 0.05972184613 0.1460526288 0.9327631593
-0.1097582504 -0.010681713 0.8384410143 0.1059974059 0.4702866077 0.7965307236
-0.1132769585 -0.01510591432 0.8467212915 -0.06760966033 0.3314816654 0.909550488
-0.07156842202 -0.04124543816 0.8543714881 -0.1080432236 -0.2046356648 0.9728087783
-0.06200396642 -0.03779302537 0.8568829298 -0.1732236743 -0.2674729824 0.94583565
-0.08033165336 -0.04891286418 0.8507556915 -0.08258624375 -0.1360569 0.9799498916
-0.08610023558 -0.05287382752 0.847674489 -0.04702090099 -0.05268844962 0.9908396602
-0.09491465986 -0.03555425629 0.8487131 -0.150136441 -0.009205385111 0.9790143967
-0.09686857462 -0.04236612841 0.8462600708 -0.1133099124 -0.02474554442 0.98822999
-0.08503133804 -0.04548047483 0.8724969625 -0.2065105736 -0.1161829531 0.9696249366
-0.08938263357 -0.03893564269 0.8615164161 -0.192394942 -0.1452279091 0.9694550037
-0.1130953431 -0.02911417745 0.8569622636 0.1485455334 -0.1370248795 0.9671845436
-0.09945008159 -0.03931804374 0.8551852107 -0.0666000247 -0.07468020171 0.9572785497
-0.1084037498 -0.03820589185 0.8542632461 0.09537580609 -0.0816212371 0.9577806592
-0.1866878569 -0.04550563917 0.8723177314 -0.02171331644 0.4644856155 0.8798418641
-0.1906848252 -0.02134782448 0.861841917 -0.2770050466 0.4224583805 0.8625589609
-0.1821782142 -0.01797682606 0.8575405478 -0.1887174249 0.4319761693 0.8429747224
-0.1436568648 -0.04327431321 0.8622862101 0.3317607045 0.2349463999 0.9041543603
-0.1328744739 -0.03611567989 0.8604232073 0.2541474402 0.09547486156 0.9421575069
-0.1252146661 -0.03874897957 0.8548505902 0.2578499317 0.01506672986 0.9636126757
-0.1358878613 -0.04668640345 0.8602865338 0.3359178603 0.2242691815 0.9090222716
-0.1413658261 -0.05226258561 0.863743484 0.3670319915 0.2974465787 0.8790297508
-0.02970520593 -0.03979848698 0.8647966385 -0.4613958299 -0.4706728756 0.7508039474
-0.03422002494 -0.04513743892 0.8598518968 -0.382930845 -0.4402470887 0.8119156361
-0.03577910736 -0.05556308478 0.8567662835 -0.3414152861 -0.3889540732 0.850174427
-0.03206128627 -0.06882532686 0.8604698777 -0.4238400161 -0.5328922272 0.6526456475
-0.04391419515 -0.07247047126 0.8613302112 -0.3607644141 -0.5928353667 0.5633404851
-0.0409411937 -0.06443303078 0.8586770296 -0.3365114629 -0.4868555069 0.7128466368
-0.04636524618 -0.08172185719 0.8644157648 -0.3955274522 -0.7137238979 0.3932410479
-0.02834640071 -0.05465745181 0.8579003811 -0.4359741807 -0.4382427931 0.7846131325
-0.07920794189 0.0004616261867 0.8619347811 -0.08655789495 -0.2368157357 0.7278140187
-0.08955102414 0.005082913209 0.847766459 0.4796643257 0.1449866742 0.2379335165
-0.08445129544 0.001855771057 0.8542289734 0.2105532438 -0.03706587106 0.4726781845
-0.07552737743 0.001263098093 0.869590342 -0.2751786411 -0.3752606511 0.8849441409
-0.08126863092 0.01496230252 0.8710218072 -0.3162112832 -0.3302981257 0.8890351057
-0.09455668926 0.00493852701 0.8389463425 0.7941008806 0.3573356271 -0.0263247136
-0.07479402423 -0.01453100331 0.854608655 -0.1483134478 -0.1801337302 0.7812259793
-0.06937203556 -0.007557798643 0.8665046692 -0.2629219294 -0.3707379103 0.8905211687
-0.05944427848 -0.002375726588 0.8710874319 -0.3043337166 -0.3787597418 0.873770535
-0.06226410717 -0.01663477905 0.8629186153 -0.2649586797 -0.3525426686 0.8966819048
-0.05474630371 -0.03227059916 0.8601109982 -0.2660216093 -0.3355637193 0.9030640125
-0.06413478404 -0.03893090412 0.8757801652 -0.2642006278 -0.2189055383 0.9286493659
-0.09865771234 -0.02637259103 0.8558334708 -0.110564813 -0.09338074923 0.9777390957
-0.1100154817 -0.02074591815 0.8586583138 0.01959255151 -0.06638421863 0.9473218322
-0.08508368582 -0.06753496826 0.8468803167 0.002429160988 0.2138286084 0.9595875144
-0.0794230178 -0.05931713432 0.848641932 -0.08408603072 -0.001336322282 0.9853035212
-0.06840981543 -0.04826035351 0.852473557 -0.1060369909 -0.1820640415 0.9764528871
-0.06809418648 -0.05783469602 0.8510425687 -0.08698230982 -0.1118140444 0.9571612477
-0.07621797919 -0.06942493469 0.8509365916 0.00287143141 0.1794924736 0.9236537218
-0.08260335773 -0.07481382787 0.8497022986 0.06064664572 0.3423585594 0.9132819772
-0.07596775889 -0.08662577718 0.8563705087 0.06073828787 0.4824225605 0.8493543267
-0.06830003858 -0.06874679774 0.8539682627 -0.04352816567 0.09367375821 0.9120790362
-0.07084655762 -0.08011749387 0.85605371 0.01483570784 0.3297510147 0.869399786
-0.1101875901 -0.04621241987 0.8475999832 0.2402310073 0.03813910112 0.9668241143
-0.1048406139 -0.04560023174 0.8548974395 0.07830499113 0.03257306293 0.9381784797
-0.08246579021 -0.007470700424 0.8611125946 -0.3660283089 -0.3514585495 0.8607883453
-0.07067289948 -0.01614449732 0.8607900143 -0.2501491904 -0.3338133693 0.9068621397
-0.07064155489 -0.04437334836 0.8804394007 -0.233463794 -0.145324856 0.9553034306
-0.06715081632 -0.03361793607 0.8698155284 -0.2379385382 -0.2321112603 0.936260879
-0.08096338063 -0.03285212815 0.8546981215 -0.1401796937 -0.1332489252 0.9719253778
-0.09374762326 -0.02292127907 0.8499652147 -0.2068208456 0.1199913621 0.9452095628
-0.1013356745 -0.01439512521 0.8567532301 -0.1272395104 -0.02619235218 0.9110808372
-0.09353744239 -0.006366782356 0.8588525653 -0.3735019565 -0.2449425161 0.8670602441
-0.08993814886 -0.0001128312651 0.8624243736 -0.4014281332 -0.3943251967 0.8246520162
-0.1003655568 2.274611325e-05 0.8626615405 -0.2367955595 -0.3211598098 0.8622093201
-0.1107013896 -0.002894269302 0.8622874618 0.01339665242 -0.19550322 0.9334264398
-0.1030132398 -0.006250181701 0.8341949582 0.0103149917 0.6022508144 0.6421279311
-0.08463915437 -0.01180407405 0.8521826863 -0.4133779109 0.03614728898 0.7702233791
-0.08913006634 -0.006181257777 0.8482023478 -0.5331164598 0.1987093985 0.6621084809
-0.09846068919 -0.004222080577 0.8438838124 -0.5642952919 0.5846918821 0.5770010948
-0.06400741637 -0.03015896864 0.8578791618 -0.215597257 -0.2928520739 0.9312877059
-0.05783517659 -0.02474411577 0.8612270951 -0.2882116139 -0.3346069157 0.8964154124
-0.07190211117 -0.03279997781 0.8564860225 -0.142484799 -0.2271451354 0.9608969688
-0.1079930812 -0.009733910672 0.8592043519 0.1036509573 -0.2042762637 0.92009902
-0.0887067169 -0.03214801475 0.8560701013 -0.20303303 -0.1618155092 0.9653272629
-0.0802147612 -0.02188968472 0.8553351164 -0.2584986091 -0.07910560817 0.910033524
-0.07819450647 -0.04547161981 0.8760609031 -0.2300013453 -0.1147611812 0.9645137787
-0.07893392444 -0.0346390754 0.8688206673 -0.2316068709 -0.1412143111 0.9605954289
-0.07856559008 -0.02774849534 0.8611065149 -0.2157246768 -0.1785077602 0.9586415887
-0.07225517184 -0.05357060954 0.8900924325 -0.240394637 -0.08373586833 0.9651763439
-0.07444685698 -0.03875660151 0.873477757 -0.219768554 -0.1464617848 0.9612811208
-0.08842314035 -0.01739213429 0.8570898771 -0.3559929132 -0.1129291579 0.9114894271
