# .PCD v0.7 - Point Cloud Data file format
VERSION 0.7
FIELDS x y z normal_x normal_y normal_z
SIZE 4 4 4 4 4 4
TYPE F F F F F F
COUNT 1 1 1 1 1 1
WIDTH 512
HEIGHT 1
VIEWPOINT 0 0 0 1 0 0 0
POINTS 512
DATA ascii
-0.01135868765 0.01991571859 0.7535270452 0.03371330723 -0.2796666026 0.6862367392
-0.01343510207 0.02864406258 0.7482527494 0.01330040116 -0.5458766818 0.5390159488
-0.0209192168 0.01985453255 0.7551427484 -0.02032463811 -0.2416030616 0.7600069046
-0.01560986601 0.01071923599 0.7610324025 -0.01298433449 -0.2325667888 0.8822793365
-0.2122718245 -0.1485666782 0.7141402364 -0.09399075806 0.2445900142 0.9611281157
-0.001282921759 0.008557596244 0.7511427999 0.5164163113 -0.3702381849 0.6038125157
-0.1332863569 -0.1253436804 0.74619627 -0.3073925972 0.3844331205 0.8634217381
-0.003632559674 0.001591176377 0.7618153691 0.3181613684 0.06517981738 0.848344028
-0.1971830577 -0.06020103022 0.7170621753 -0.1935544461 -0.1252399832 0.9722675681
-0.003062008414 0.01856858097 0.7452247143 0.369574219 -0.4756314456 0.5689371824
-0.005426992197 0.02979588322 0.7299426794 0.06821940094 -0.8179664016 0.5128110647
-0.004745854996 0.02260389179 0.7356384993 0.2181125581 -0.6522826552 0.5424519181
-0.006883868948 0.02549334802 0.7441760302 0.04557754844 -0.4950987697 0.6276882887
-0.0097233532 0.03275065124 0.7405239344 0.01538815722 -0.7312578559 0.507828474
-0.01508142799 0.03877233341 0.740965426 -0.01183351409 -0.8852630854 0.3799760342
-0.006373701151 0.0111853946 0.7571228147 0.07823822647 0.05342305824 0.8289524317
-0.2155970186 -0.1220514327 0.7058992982 0.07240118831 -0.005472925492 0.9967001081
-0.2214370817 -0.115207687 0.7082887888 0.1071265489 -0.05281669647 0.9926321507
-0.04210328683 0.04161609337 0.7417069077 0.1583276391 -0.8000507951 0.5756732225
-0.03399897367 0.02563595027 0.7540278435 0.0511190258 -0.4143019915 0.7890498042
-0.03432783112 0.03182095662 0.7496211529 0.07552579045 -0.5617713332 0.7054616809
-0.04688671976 0.03148483112 0.7466344237 0.155290097 -0.6178215742 0.6813927293
-0.03886770457 0.01896665432 0.7573685646 0.06090150401 -0.2873424292 0.8629455566
-0.05219645426 0.03796919063 0.7412614822 0.2065053731 -0.7770448923 0.5921394229
-0.04487591982 0.02379769832 0.7521264553 0.1091184914 -0.4385018647 0.7778419852
-0.03781750798 0.009768572636 0.7618944049 -0.02919036895 -0.0991608724 0.9629431963
-0.02853564359 0.01911328547 0.7582032681 0.008347738534 -0.2210736424 0.8684527874
-0.03043853492 0.01318911277 0.7628361583 -0.01041483041 -0.1014985219 0.953676939
-0.02464557812 0.03060968593 0.7492385507 0.03931960091 -0.4708623886 0.6911178827
-0.0229256358 0.04168345407 0.7416776419 0.0563415736 -0.8602468371 0.4942401052
-0.1999385506 -0.1467098296 0.7096684575 -0.2171375901 0.2867252827 0.9256610274
-0.2164184004 -0.08412674814 0.7141423821 2.119605961e-05 -0.1809094548 0.9822521806
-0.2226561457 -0.1260311753 0.7098863721 0.1183252335 0.03610737994 0.9907390475
-0.2085531205 -0.1422313601 0.7079418302 -0.08140063286 0.2153821141 0.9718866348
-0.2198486626 -0.1336709708 0.7096178532 0.07975849509 0.1023036242 0.9907951951
-0.2113683969 -0.1337348372 0.705463171 0.02440506406 0.1212837324 0.9906813502
-0.01359896176 0.03384704515 0.7316493392 0.04204428568 -0.8628042936 0.5036226511
-0.1511027813 -0.1296692938 0.7384030223 -0.4078134 0.1926241815 0.8922091722
-0.1452357173 -0.1334959567 0.741874516 -0.4007820487 0.2272106856 0.8860162497
-0.2096386254 -0.07231260836 0.7146868706 -0.08983111382 -0.1604350358 0.9829435945
-0.2002125531 -0.07692657411 0.7188828588 -0.239173457 -0.104957059 0.944988668
-0.2031592131 -0.0864784196 0.7160237432 -0.1721953303 -0.1263843179 0.952195406
-0.1963012218 -0.08318861574 0.7195083499 -0.2853828371 -0.0799324736 0.9270343781
-0.2105896473 -0.0799889341 0.7165393233 -0.09581307322 -0.1643889993 0.9719525576
-0.05290384591 0.01432522386 0.7533996105 0.02821895666 -0.2950810194 0.8472605944
-0.04702929035 0.01030118391 0.75701648 -0.02564362995 -0.1914289892 0.9061034918
-0.05588660762 0.02988419682 0.745459795 0.1862165779 -0.6278852224 0.6690870523
-0.03327134997 0.04120927304 0.7401635647 0.1110392809 -0.824205637 0.5547444224
-0.02840910107 0.03641802818 0.7342896461 0.0910859555 -0.8337805867 0.543451488
-0.0433656089 0.031628225 0.7291994691 0.2087342739 -0.7773031592 0.5905880928
-0.2003593594 -0.1374086887 0.7063005567 -0.1743631065 0.1874585152 0.9578191638
-0.1929061562 -0.1361786723 0.7095537782 -0.3849211633 0.1780917346 0.8970380425
-0.1780827045 -0.1479827166 0.724401474 -0.5507571697 0.2071033716 0.8066290021
-0.1731784046 -0.1459424943 0.7294455767 -0.5619052649 0.161069721 0.8107127547
-0.2193378955 -0.1010465473 0.7107623219 0.06450769305 -0.134041816 0.9883281589
-0.2041413039 -0.09273020923 0.7076395154 -0.096534051 -0.1633007079 0.9806495309
-0.1535080224 -0.1226054803 0.7337086201 -0.3835327625 0.2015592754 0.8931544423
-0.1711330414 -0.1314079016 0.7252729535 -0.5799670815 0.06389773637 0.8105784059
-0.1493712813 -0.11520309 0.7315941453 -0.2716762722 0.2518340349 0.903768599
-0.1256905198 -0.1194552556 0.746681869 -0.253762871 0.473172158 0.8429005742
-0.1736596674 -0.08835558593 0.7288058996 -0.3257464468 0.09794807434 0.936232686
-0.1820240617 -0.08464510739 0.7233523726 -0.4426803589 0.01845497638 0.8937267065
-0.1721693575 -0.1076734886 0.7287005186 -0.4675659835 -0.05480792001 0.8806532025
-0.2073094696 -0.114011392 0.7060525417 -0.03723748401 -0.09376317263 0.9935128093
-0.03782313317 0.001048791921 0.7628442645 -0.07688286155 -0.04612296447 0.9954058528
-0.009098964743 -0.004420857411 0.7619926333 0.1871283799 -0.2986099124 0.915019691
-0.04523390904 0.0364282541 0.7354699969 0.1907848865 -0.7866758704 0.5850225091
-0.05183022469 0.03159051016 0.7349587679 0.2334446311 -0.7634494901 0.6014714241
-0.06115823984 0.03439776227 0.7412295341 0.263576448 -0.7517017126 0.6007033587
-0.05856798589 0.004534862004 0.756806612 -0.04463399947 -0.1717941612 0.9159187675
-0.05930933356 0.02231595665 0.7484017611 0.1277196109 -0.5007693172 0.7367312908
-0.0542168133 0.02450578474 0.7257317901 0.2854121029 -0.7140294313 0.6386614442
0.003970050719 0.01533238124 0.7013374567 -0.3810243607 -0.4491129518 0.6268058419
0.0006613301812 0.02124211937 0.7067049742 -0.4003583193 -0.668463707 0.5510492921
0.009759138338 -0.002158010146 0.7021642327 0.3305906951 0.4046758115 0.8473991156
-4.602324771e-05 -0.002874060068 0.7284582257 0.3530477881 -0.04056534916 0.7388547063
-0.0002624675108 -0.0003673021274 0.7414773703 0.4070264101 -0.3408541679 0.6663762927
-0.00182064285 0.006097985897 0.7354162931 0.3083306849 -0.4059317708 0.6423678994
-0.00412843097 0.01602340676 0.7294532657 0.1768721193 -0.5656460524 0.5917750001
7.582054968e-05 -0.0006855871761 0.7521452308 0.4741227329 -0.5232296586 0.6249379516
-0.00237185345 0.009490010329 0.7427925467 0.3199078441 -0.6289951801 0.5863842964
-2.508399302e-05 -0.004479030613 0.7154591084 0.2904973328 0.2351578325 0.8044272661
-0.002009237418 0.005788344424 0.7252719998 0.2504295707 -0.2160717249 0.6864053607
-0.1902997345 -0.1507250369 0.7165989876 -0.3781321943 0.3555650115 0.8500743508
-0.2019639164 -0.1239915118 0.7102168798 -0.2432467639 0.002709295368 0.9397617579
-0.1810496002 -0.06651477516 0.7228116393 -0.1728917211 0.05894893408 0.9736822248
-0.1959803849 -0.047285676 0.7225034833 -0.1052533686 -0.1647213846 0.9799318314
-0.2031292468 -0.06658463925 0.7155566812 -0.1818008125 -0.1256767213 0.9749724865
-0.1376994103 -0.1293746978 0.7415166497 -0.3579332829 0.3065992296 0.8789862394
-0.1400320232 -0.1133598313 0.7391642332 -0.2150725424 0.3211177588 0.9093278646
-0.04666524753 -0.0542665273 0.7185569406 0.01350814942 -0.2146987915 0.6267583966
-0.2009269446 -0.1509893388 0.7165848613 -0.2587383389 0.31156829 0.9009535313
-0.1771424711 -0.1388620883 0.7230014205 -0.5883917809 0.126131162 0.7984681129
-0.1573369056 -0.1092897505 0.7330614924 -0.2053727955 0.13564381 0.9641407728
-0.2034797966 -0.1060450822 0.7069159746 -0.1004639938 -0.1320652366 0.9838398695
-0.2112436146 -0.1056861877 0.7067072988 0.006448984146 -0.1176152751 0.9918675423
-0.1861854494 -0.1284432113 0.7109180689 -0.5041715503 0.06056229398 0.8586832285
-0.1584473401 -0.1142390221 0.726298511 -0.290630877 0.1194758564 0.8909854293
-0.1535762548 -0.1069693714 0.7266756892 -0.1231814325 0.1609846354 0.9403845072
-0.170514524 -0.1203699261 0.7264455557 -0.5160419345 0.001166258124 0.8531219363
-0.1345781237 -0.1086604223 0.7319529057 -0.1796868891 0.4380839765 0.8700872064
-0.1865214258 -0.0895743221 0.7154599428 -0.4853789508 -0.0619026795 0.8689377308
-0.1853924841 -0.1125713736 0.7142255306 -0.5380815268 -0.1017199457 0.8356481791
-0.1899499297 -0.1175646856 0.7113800645 -0.46031183 -0.05909617245 0.8797702193
-0.1945823133 -0.1099448949 0.7133398652 -0.3047436774 -0.1154229641 0.9256986976
-0.1932344139 -0.09949601442 0.7121178508 -0.3654681444 -0.1327280551 0.917234242
-0.03073397279 -0.0029672042 0.7637776732 -0.03879869357 -0.06494523585 0.9963781238
-0.02863466553 -0.01165408641 0.7633057833 -0.01241391338 -0.1002059728 0.9941826463
-0.01635774039 -0.006931119598 0.7631723881 0.0110585019 -0.1031720117 0.9944149256
-0.05448559672 -0.001133242156 0.7601798773 -0.1143592522 -0.02777479962 0.9929981828
-0.005082772579 0.02620264143 0.7154070139 -0.09699954093 -0.7884119749 0.5755286217
0.002547125798 0.007235504687 0.7112980485 0.2262505442 0.02715316787 0.7479538321
-0.002468085615 0.01202313788 0.7178816199 0.1612418741 -0.2445411533 0.6727273464
0.005808651913 -0.01001273375 0.706852138 0.2928209007 0.4281598926 0.8549349308
0.002719430486 -0.01623119228 0.7115556598 0.159269467 0.4493272901 0.8689283729
0.001376826782 -0.007438702974 0.7369101048 0.3856122792 -0.119670175 0.7271593213
0.001912976149 -0.01116356533 0.7195644379 0.2705092728 0.2527416348 0.8179644346
-0.1857510805 -0.1429150254 0.7173573375 -0.5144914389 0.217994839 0.8273282051
-0.1932726949 -0.1252086461 0.7114508152 -0.4178149104 0.01905975305 0.8913417459
-0.204704985 -0.1386352628 0.713937521 -0.2232395262 0.1602316052 0.9182106853
-0.1740470976 -0.04098470509 0.7003473639 -0.2361776978 -0.6011981368 0.4300512075
-0.1801335812 -0.04897472262 0.7093328238 -0.2094118297 -0.345618397 0.7052729726
-0.1894940585 -0.04808273539 0.7167730927 -0.1534504294 -0.2061154544 0.8983185887
-0.1844441742 -0.04243014753 0.7110437751 -0.1669937968 -0.3702690005 0.7332033515
-0.1873072088 -0.07085722685 0.7165033221 -0.2905824184 -0.04537628964 0.9537818432
-0.1946344376 -0.0673732385 0.7149851322 -0.2403522879 -0.1025328115 0.965161562
-0.1825757027 -0.06225544959 0.7143340707 -0.2602087855 -0.1034203246 0.8736081123
-0.1833985746 -0.05415912718 0.714417696 -0.1985154152 -0.1938812882 0.8628349304
-0.1773854345 -0.05881530419 0.709104538 -0.2840718925 -0.246114552 0.7319633961
-0.1727942824 -0.05429626629 0.7037981749 -0.29933846 -0.3993231952 0.5791056156
-0.1648326069 -0.03932384029 0.6911870241 -0.2984411418 -0.7971245646 0.1760583967
-0.1581657827 -0.04346734285 0.6885963082 -0.361674428 -0.8213886619 0.1610868275
-0.1436389685 -0.1204016432 0.7362706661 -0.3173879087 0.312754035 0.8930847049
-0.07239740342 -0.08091304451 0.7285245657 -0.222938329 0.6234952807 0.739577055
-0.0653706342 -0.06550174206 0.7431508899 -0.1428711265 -0.1504611671 0.7941775322
-0.07023903728 -0.0734552592 0.7376269698 -0.1661556512 0.1928884983 0.7676286101
-0.06600881368 -0.07477872819 0.7284920216 -0.2432279289 0.4775937796 0.7565980554
-0.05994991213 -0.07209348679 0.7226392031 -0.2960085869 0.5716195703 0.7642546892
-0.05946530774 -0.06441472471 0.7378015518 -0.1101834849 -0.0248880107 0.7481087446
-0.06349605322 -0.05964796618 0.7521560192 -0.007550938986 -0.5369705558 0.7780964971
-0.0563913025 -0.05946479365 0.7446696162 0.05543196574 -0.3286824822 0.7030317783
-0.0672307834 -0.03830477595 0.757081151 -0.09252743423 -0.200973928 0.9633244872
-0.05981749296 -0.0592623055 0.7112670541 -0.2504513264 0.1323267817 0.9569198489
-0.05311706662 -0.06630326807 0.7222818136 -0.310487777 0.5103597045 0.6929762363
-0.04893018305 -0.05751696974 0.7398238778 0.08706278354 -0.198637411 0.6289604902
-0.05276172236 -0.0632294789 0.7320004702 -0.0899862051 0.1389267147 0.6805196404
-0.05273683742 -0.05785063282 0.7153112888 -0.2860926986 0.146653533 0.9414014816
-0.159900263 -0.1378960311 0.7352970839 -0.495203644 0.1065839678 0.861395061
-0.1679442823 -0.1374569386 0.7310888171 -0.5355420113 0.1071665064 0.8355187774
-0.164338246 -0.1203845441 0.7310584188 -0.4424664676 0.03986946866 0.8922939301
-0.2213289589 -0.0934170261 0.7137300968 0.06231956929 -0.1667639017 0.9836890697
-0.2137345821 -0.09277172387 0.7102227807 0.007018648554 -0.1796504259 0.9824673533
-0.207810387 -0.09921443462 0.7116960883 -0.1273498237 -0.1539636999 0.9666913152
-0.161132589 -0.0573688671 0.7234643102 -0.006311543286 0.03124420159 0.9949812889
-0.1369600594 -0.09770061076 0.7266988754 0.04876329377 0.3520339131 0.9318692088
-0.145569548 -0.106183514 0.7296981812 -0.07067062706 0.2663094103 0.9514448047
-0.103307493 -0.08644666523 0.7251906991 -0.09179524332 0.5801414251 0.8083367944
-0.1156475767 -0.1102123335 0.7413192987 -0.1786637008 0.5603810549 0.8074765801
-0.1714628339 -0.07663733512 0.7258454561 -0.1707009822 0.2078336924 0.959694922
-0.1711742282 -0.06873854995 0.7247496247 -0.117798537 0.1395265907 0.9779282808
-0.1967975646 -0.09131003171 0.714509964 -0.2323697507 -0.1227082834 0.9453830123
-0.1876707375 -0.09838357568 0.7171399593 -0.4239490032 -0.07789604366 0.8929104209
-0.1786677688 -0.110584572 0.7211192846 -0.5607466102 -0.08619778603 0.8228613734
-0.1708434224 -0.1136764959 0.722029984 -0.430434823 -0.01240407769 0.8557057977
-0.1747091711 -0.1243379638 0.7208242416 -0.5901176333 0.001754011726 0.8070344329
-0.1795361191 -0.1183577478 0.7191333771 -0.5806640983 -0.07125537843 0.8078929186
-0.182074368 -0.1275289059 0.7179809809 -0.5683941841 0.0380946584 0.8135120869
-0.01970117353 -0.01509534568 0.7622100115 0.05221003667 -0.1465602964 0.9834561348
-0.03223594651 -0.03409289941 0.7557013035 0.1281405538 -0.3348160684 0.900596559
-0.02254375815 -0.0280666519 0.7590829134 0.3379472196 -0.5201652646 0.7457747459
-0.04548314959 -0.05825222284 0.7275442481 -0.04079432786 0.008163787425 0.5411969423
-0.03120250069 -0.05123663694 0.7209199667 0.5289419293 -0.6414080858 0.2507224083
-0.03773756698 -0.05601781607 0.7193452716 0.1384152174 -0.1057465747 0.3911838233
-0.1048478186 0.007345783059 0.7282541394 0.2379293293 -0.4935403466 0.8350260258
-0.06064672023 0.02514513768 0.7301289439 0.2754691243 -0.7258028984 0.6290505528
-0.07285314053 -0.001367043238 0.751322031 -0.005416532978 -0.2019439489 0.9298942089
-0.07156972587 -0.01363273989 0.7568045855 -0.06208204851 -0.08659589291 0.9789606333
-0.0783810392 -0.007331820205 0.7497112751 0.01937229186 -0.215838477 0.9282755852
-0.06454627216 -0.001783662359 0.7565976381 -0.06557777524 -0.1227325723 0.9545826316
-0.0800319016 0.00628424529 0.7428713441 0.09519134462 -0.363494873 0.8626724482
-0.0809700489 0.01174845826 0.7364234924 0.1926541924 -0.5261614919 0.7751784921
-0.09701884538 0.01193207316 0.7307967544 0.2298019677 -0.5466789603 0.8014555573
-0.08469800651 -0.002373757539 0.7439300418 0.08417104185 -0.3137590587 0.8915291429
-0.09415358305 0.006498524919 0.7352222204 0.1787674725 -0.4568556249 0.8388022184
-0.0674616918 0.01116394624 0.7180219293 0.2818242908 -0.5874509811 0.7583041787
-0.07644621283 0.0101826638 0.7209429145 0.2587247789 -0.5830730796 0.769818306
-0.08100384474 0.01375481673 0.7258278728 0.2619060576 -0.6139199734 0.7423497438
-0.06583996117 0.01807728224 0.7237770557 0.2713735998 -0.6640254259 0.6958210468
-0.06119786203 -0.0006989173708 0.7092115879 0.2789419889 -0.4319658577 0.8566853404
-0.03193319216 0.03123508766 0.7262350321 0.123475045 -0.8278407454 0.5463497043
-0.02221333794 0.0327561833 0.7289307117 0.06118515134 -0.8497380614 0.5235548019
-0.03464937955 0.02505559474 0.7180321813 0.2183308303 -0.7510177493 0.621265769
0.007410526741 0.007036496419 0.700155139 0.1772969514 0.1608472914 0.7805268168
-0.01069132984 0.003717388259 0.7026057243 0.2460087091 0.223982051 0.9311771989
-0.003594412468 -0.0009921403835 0.7039906979 0.2856949866 0.3617166877 0.8784610033
-0.007814680226 -0.01422090083 0.7164838314 0.06832236797 0.4193226993 0.8894850016
-0.04096664488 -0.00741889514 0.7619177699 -0.08712054789 -0.05538424477 0.9945263267
-0.02213879488 0.007939135656 0.7043630481 0.2295432091 -0.07342313975 0.9182196856
-0.01615291089 -0.01025309786 0.7165195346 0.07569284737 0.1796942651 0.8608876467
-0.02315171435 0.0003168765979 0.7106125355 0.1819575578 -0.08610706031 0.8609765172
-0.01298891474 -0.004439910874 0.7109680176 0.1005224288 0.270016104 0.9271097779
0.0001195480145 -0.02240662463 0.7145789862 0.03265956417 0.480009675 0.8757442832
0.0001545280393 -0.01544539817 0.7304238677 0.2071030289 0.09946671873 0.7822198868
-0.002449874301 -0.009490093216 0.7487534285 0.3205151558 -0.3377224505 0.7293005586
-0.07084365934 -0.04719112441 0.7570804358 -0.2325184792 -0.3769595921 0.8920255303
-0.0582428202 -0.0544144772 0.75457865 0.1396925598 -0.6679925919 0.7069429159
-0.1634118706 -0.0308765173 0.6909447908 -0.2534136176 -0.8719218969 0.1737990975
-0.1759890914 -0.03923636302 0.7085273862 -0.1794148535 -0.460018158 0.6374756694
-0.1833097488 -0.04274186119 0.7198817134 -0.1246988699 -0.212240845 0.9185182452
-0.1715539992 -0.03362067789 0.7045239806 -0.182674244 -0.5895289183 0.4958473444
-0.1743527651 -0.03220136836 0.7142404914 -0.07287067175 -0.4275363684 0.702560544
-0.1783373803 -0.03308243304 0.7219508886 -0.01990025491 -0.2753654718 0.8808602095
-0.1658549309 -0.09971069545 0.7234147191 -0.1892518699 0.04624837637 0.9354074597
-0.1802660972 -0.1039227843 0.7170405984 -0.4441427886 -0.08657118678 0.8597283363
-0.1667096764 -0.09771641344 0.7311971188 -0.2242935747 0.05009012669 0.9702339768
-0.1657697409 -0.105032891 0.7323585749 -0.2625246048 0.005135049112 0.9625258446
-0.1558822393 -0.09997841716 0.7313950062 -0.05977668613 0.1337755322 0.9841006994
-0.161309123 -0.08664797246 0.7302412391 -0.04258828983 0.2420386374 0.9647206664
-0.1499411762 -0.09434606135 0.7306210399 0.05041047558 0.209457621 0.9722898006
-0.08126807213 -0.08752056956 0.7308869362 -0.1750623733 0.6443842053 0.7439184785
-0.07881171256 -0.06918597966 0.7466447353 -0.1669422239 -0.04248940572 0.808015883
-0.08575753123 -0.08148429543 0.7364147305 -0.1542639136 0.3751597404 0.7782061696
-0.06994260848 -0.06457577646 0.7512472868 -0.08105731755 -0.4018770456 0.8101087213
-0.07245053351 -0.05567193776 0.7568901777 -0.1777840406 -0.4788507521 0.8394446969
-0.07796061039 -0.07643727213 0.7427961826 -0.1282358468 0.07851550728 0.7892216444
-0.1076926365 -0.07971168309 0.7208037376 0.02692826651 0.5453104973 0.8334117532
-0.0643767491 -0.06579822302 0.7126781344 -0.2482198179 0.4292433262 0.866445303
-0.07016146928 -0.07152548432 0.7177981734 -0.2123293579 0.5587487221 0.798677206
-0.08305361867 -0.06597994268 0.7079495192 -0.07939139754 0.3637352586 0.9168006182
-0.0754449442 -0.06217961386 0.7054525018 -0.1764486879 0.2132339776 0.9555230141
-0.09047476947 -0.05882900953 0.7052672505 -0.02392150462 0.01756056398 0.9945790172
-0.08273439854 -0.0810681656 0.7239066958 -0.1751831919 0.6584979892 0.7308756709
-0.1400338709 -0.09218876064 0.7327981591 0.03599688783 0.3280605972 0.9298322797
-0.1345960945 -0.101196833 0.7352948785 -0.06556161493 0.3980551362 0.8996418715
-0.1443201005 -0.0856083706 0.7305817604 0.1111624986 0.2739067972 0.9546638131
-0.1301602721 -0.1138352752 0.7367141247 -0.2185624838 0.442196101 0.8587574363
-0.1320191473 -0.1201861054 0.7398945093 -0.2844298482 0.392678231 0.8675194383
-0.08902875334 -0.09069299698 0.7300798893 -0.1479657292 0.6295108199 0.7625371218
-0.1229032651 -0.1019337624 0.7302520871 -0.09988580644 0.5490779877 0.8294423223
-0.03386552259 -0.0469083935 0.7373000979 0.485558033 -0.6929651499 0.4363711774
-0.04015283659 -0.05029317737 0.7428346872 0.4528367221 -0.7047669888 0.485147059
-0.03639809415 -0.05258015171 0.7263274193 0.5119410753 -0.8032047749 0.2452410758
-0.02828273177 -0.04581428692 0.7295607328 0.5679267049 -0.7104075551 0.3155649006
-0.02100745961 -0.04226212949 0.7243908048 0.639776051 -0.7112951279 0.2347935736
-0.0284726005 -0.04139383137 0.7394444346 0.4846586287 -0.6571175456 0.4835262299
-0.02964101732 -0.03788589314 0.7484920621 0.4018069506 -0.5948688388 0.6478021741
-0.1427892596 -0.008966815658 0.7270705104 0.1798947155 -0.3020465076 0.9256360531
-0.124766618 -0.00137925439 0.7269639969 0.2216136903 -0.4092127979 0.8831945658
-0.134293437 -0.005003037862 0.7275118828 0.2065656483 -0.3479722142 0.9111582637
-0.1691464633 -0.02523837984 0.7279543877 0.1914484352 -0.3557590544 0.8838504553
-0.1664462984 -0.02630047873 0.7135212421 0.05557446182 -0.5622172952 0.621563971
-0.1652621776 -0.02769691497 0.7053415179 -0.05082830787 -0.6709022522 0.4620214403
-0.1613679975 -0.02702465095 0.6974761486 -0.1263150871 -0.8439841866 0.2633944452
-0.1497744173 -0.02020235173 0.7096524239 -0.1123068109 -0.5960220695 0.6129221916
-0.1539767087 -0.02556672692 0.7030752301 -0.2209207863 -0.721521318 0.4894951284
-0.1535642445 -0.02835704759 0.6947700381 -0.3674260676 -0.827460885 0.3529643118
-0.1506130546 -0.01800199226 0.7171666622 0.02100693993 -0.5044476986 0.7348771691
-0.1587378979 -0.02158365585 0.7172681093 0.09934127331 -0.6464138627 0.6398153305
-0.1573192179 -0.02383349277 0.7101821303 -0.04638583958 -0.7063952088 0.547724843
-0.04734603688 -0.04630689323 0.7547823191 0.221326232 -0.5146093369 0.7501627803
-0.05484033003 -0.04652820528 0.7545049787 0.041936405 -0.2519088984 0.932959795
-0.04994950071 -0.03693478182 0.7573589683 -0.01044709608 -0.1780923605 0.9835333824
-0.0620428212 -0.04355981573 0.7561917305 -0.1538098305 -0.2968085408 0.932312727
-0.08504185081 0.006546788383 0.7204588652 0.2633244395 -0.5340172648 0.8032337427
-0.09041378647 0.009993740357 0.7252990603 0.2496891618 -0.5443797708 0.8006362915
-0.06869574636 0.02432432212 0.7330808043 0.2848395407 -0.7176353335 0.6351759434
-0.07714928687 0.02010848932 0.7323080897 0.2696171105 -0.684804976 0.6737459302
-0.06901510805 0.00798200164 0.746892035 0.07624921203 -0.3663284481 0.8290961385
-0.06284441799 0.01490745973 0.7481526136 0.1018181592 -0.432816267 0.7770985961
-0.06940851361 0.01511316001 0.7421137691 0.157335788 -0.5175464749 0.7436456084
-0.06713173538 0.02213975973 0.7402487993 0.2125935405 -0.6222528219 0.6810365915
-0.06408587843 -0.008538600989 0.7077650428 0.2585248351 -0.3119106591 0.9093282223
-0.05568517745 -0.0207452476 0.7124975324 0.3628124595 -0.406548053 0.7154263854
-0.04584917426 -0.02111543156 0.7153055668 0.4382555187 -0.5736047029 0.5648188591
-0.03778962791 -0.03377069533 0.7201781869 0.5480425358 -0.6708641052 0.3654284179
-0.02065405808 0.02909708582 0.7211688757 0.08370365947 -0.8378872275 0.5381093621
-0.006741217338 0.02909878641 0.7224300504 0.004448410589 -0.8350943923 0.5402233601
-0.01177878492 0.02348201536 0.7071262002 -0.006297140382 -0.7720071673 0.6247900128
-0.05644469336 0.01611221023 0.7178757787 0.3008467555 -0.6174497008 0.7247484326
-0.05714149401 0.006290534977 0.7100642323 0.2898930013 -0.507578671 0.8106302023
-0.01220693719 0.01707252488 0.700576365 0.153220892 -0.2410559058 0.8230758309
-0.004823497962 0.01782555878 0.7003808618 -0.2178246826 -0.5039129257 0.8114268184
-0.04502261057 0.001933437423 0.7612684369 -0.1061626002 -0.03049903736 0.9938566089
-0.01663025469 0.001020146185 0.7646900415 -0.004843086004 -0.09314862639 0.995567441
-0.02274481207 0.00750947278 0.7644711733 -0.01661326922 -0.01048167609 0.9929580092
-0.01152945496 -0.01874535717 0.7495983243 0.4003243148 -0.4321508706 0.6576257944
-0.01735888794 -0.02571806125 0.7465981841 0.549234271 -0.6025402546 0.4937354922
-0.1534084082 -0.04899616167 0.6941409111 -0.2760845423 -0.6108227968 0.327896744
-0.1693982035 -0.06129205227 0.7114406824 -0.1907521188 -0.1307890713 0.7940763831
-0.1588657945 -0.05879347026 0.7077999115 -0.141070649 -0.1994325817 0.6878258586
-0.1614200771 -0.04900203273 0.6943025589 -0.3397927582 -0.6457446814 0.3305827081
-0.1543644071 -0.06551554054 0.717017889 0.02002203465 0.1180885807 0.9293752909
-0.1648641229 -0.05380122736 0.7010006905 -0.284542948 -0.4459864795 0.5120181441
-0.1785145104 -0.07211652398 0.7174766064 -0.2479730546 0.008692497388 0.9493923187
-0.1329648495 -0.05078270659 0.7231035829 0.370883882 0.02371278405 0.9251765013
-0.1113679707 -0.0961074084 0.7306047678 -0.09918344021 0.5595949888 0.8226213455
-0.1024509892 -0.09309595078 0.7301037908 -0.1317077428 0.5861617327 0.7984330058
-0.1091025397 -0.1037015542 0.7362672091 -0.1426484883 0.5888057351 0.7953059673
-0.1354931742 -0.04006272927 0.6967716813 -0.5428856611 -0.6872451901 0.4775117338
-0.1433983594 -0.04624881968 0.6874879003 -0.580444932 -0.6535753608 0.4771153033
-0.1529363096 -0.03370874748 0.6881696582 -0.470512867 -0.8015179038 0.3599842191
-0.1491992474 -0.04094625264 0.6869336963 -0.5313168764 -0.747867465 0.3842488825
-0.1889134347 -0.05581959337 0.7211149931 -0.13552697 -0.09704401344 0.9811941385
-0.1670106351 -0.03624708578 0.7248434424 0.1170979142 -0.237957269 0.9397789836
-0.1836947501 -0.03948718682 0.7265167832 -0.07742196321 -0.143844679 0.9839550257
-0.1747455746 -0.04239221662 0.7254192829 -0.03139525279 -0.1396157295 0.9888249636
-0.1760974079 -0.05177509785 0.7232316136 -0.08765175939 -0.1476431787 0.984777689
-0.1738407761 -0.06038746983 0.7233507037 -0.1128858924 -0.01959500834 0.9878046513
-0.1104451343 -0.01158231217 0.7188586593 0.2163535208 -0.3562231064 0.9076890945
-0.09556224197 0.004782186355 0.7234702706 0.235382393 -0.5009089112 0.8326894045
-0.1671565175 -0.08635196835 0.7217690945 -0.189336583 0.1018215939 0.9342302084
-0.1746813059 -0.0888531208 0.7187623382 -0.321708709 0.03890614584 0.8944640756
-0.1737389863 -0.09585009515 0.7217615247 -0.3273353875 0.006138603203 0.9146535397
-0.1494295597 -0.06918780506 0.7265735865 0.08766134083 0.1610863507 0.9768272042
-0.1604419947 -0.0669767037 0.725377202 -0.02527734265 0.1730198413 0.9772160053
-0.1640160978 -0.07463231683 0.7259169817 -0.06769841909 0.2511008084 0.9638186693
-0.07672741264 -0.06989860535 0.711817503 -0.1877485365 0.5376951694 0.8201770782
-0.07995731384 -0.07478898019 0.7176217437 -0.1618182212 0.6325013638 0.7548002601
-0.09008325636 -0.07567925006 0.7158152461 -0.06215585023 0.5870677233 0.7966903448
-0.1093153358 -0.06874456257 0.7103248239 0.1210130826 0.4254676998 0.8967873454
-0.1273925006 -0.04762117937 0.699213326 -0.6898172498 -0.4881621599 0.5247202516
-0.0969035849 -0.08182296902 0.7233619094 -0.08538742363 0.632062614 0.7670392394
-0.08422973007 -0.07248882949 0.7390531898 -0.1497162431 0.1718006134 0.7894139886
-0.09052170813 -0.08017484844 0.729431808 -0.1325842887 0.4993174374 0.7630646825
-0.08438386768 -0.06428427994 0.7378262281 -0.1302863508 0.0137737589 0.8157350421
-0.08437051624 -0.05631212145 0.7347882986 -0.09430338442 -0.2148079574 0.8970151544
-0.09308479726 -0.06599161774 0.7218897939 -0.07298474759 0.2376911789 0.8494118452
-0.07667727023 -0.05883813649 0.7504298687 -0.1632342935 -0.2972174287 0.8260537386
-0.0886849165 -0.0651563108 0.7299593091 -0.1020879447 0.1252643615 0.8320958614
-0.08081902564 -0.05974147096 0.7428787351 -0.1363681406 -0.1880345494 0.8411595225
-0.04150633886 -0.02704445645 0.7612122893 -0.04023069143 -0.1781512946 0.9826994538
-0.03988172486 -0.04359717295 0.7534195781 0.2637968361 -0.5270528793 0.7663025856
-0.1553676575 -0.01800032705 0.7271385789 0.2154488415 -0.4187016785 0.8803371787
-0.160017997 -0.02449889295 0.7261389494 0.2751882374 -0.414084971 0.8650907278
-0.1438119411 -0.02613822185 0.7248613238 0.2667136788 -0.2782125175 0.8999704123
-0.09190694988 -0.01598873362 0.7128514051 0.2437050194 -0.2003694773 0.9479783773
-0.07236360759 -0.02198084258 0.7580361366 -0.05967841297 -0.07024767995 0.995236218
-0.05198565871 -0.04804546759 0.7171618938 0.1526961923 -0.3492183089 0.6043055654
-0.06008195132 -0.04691521078 0.7136366367 -0.0848255083 0.004836354405 0.904530406
-0.06557786465 -0.0382793881 0.7123608589 0.008699658327 0.008840746246 0.9191999435
-0.07284621894 -0.04071175307 0.7087950706 -0.01684592851 0.07930202037 0.9843044281
-0.06838940829 -0.04761405289 0.7083976269 -0.128037706 0.1074271277 0.9735565782
-0.07027436793 -0.02632678673 0.7107451558 0.1542544812 -0.05686565116 0.9090799093
-0.04315211251 -0.04661199823 0.7210670114 0.4757490456 -0.7970376015 0.2363981158
-0.06198212877 -0.03167876229 0.713671267 0.2554828525 -0.2883443534 0.7090125084
-0.05499146879 -0.03523059562 0.7158786058 0.3441385329 -0.4893425405 0.5466689467
-0.06343915313 -0.02227951773 0.7108712792 0.266916424 -0.2992420793 0.7998535037
-0.0497396104 -0.02852553315 0.715713203 0.4251244664 -0.5260480046 0.5564982295
-0.03672146425 -0.04200536385 0.7220540643 0.5569888949 -0.7678504586 0.2460348308
-0.04682778195 -0.03940601647 0.718591392 0.4443368018 -0.6930508614 0.3695132434
-0.0180802606 0.02512358315 0.7115135193 0.1042233333 -0.8029843569 0.584803462
-0.02634827793 0.02232142538 0.7097113729 0.2120704651 -0.7288572788 0.6472657919
-0.02069211937 0.01705348119 0.7042655349 0.2191649377 -0.5122506618 0.7897409797
-0.05294980854 -0.009436298162 0.7108475566 0.336581558 -0.4826228023 0.7484897375
-0.04252334312 -0.002622929169 0.7112473249 0.3317927718 -0.5455624461 0.7263206244
-0.03941880912 -0.009794662707 0.7137469649 0.3906236887 -0.5940818787 0.622882545
-0.05159675702 -0.0009797855746 0.7089400291 0.2863663733 -0.4662814736 0.8253135681
-0.03628855944 -0.01860547625 0.716676116 0.4602877498 -0.6481159925 0.5019611716
-0.03784509748 0.004612468183 0.7103455067 0.3022789359 -0.5602790713 0.7603514194
-0.02766985632 -0.03715358675 0.7227448225 0.6514915824 -0.7125387788 0.2443122566
-0.03136944771 -0.02693229541 0.71963346 0.5490630865 -0.6875166297 0.3763984144
-0.01878567971 -0.03724758327 0.7301193476 0.6231443882 -0.6804047823 0.3000787497
-0.02214254253 -0.03346055001 0.7467773557 0.4670856297 -0.6033398509 0.5776911378
-0.02069630474 -0.03619493544 0.7381965518 0.5413709879 -0.6472504735 0.4375505149
-0.01648868248 -0.02747686394 0.7336220145 0.6720805168 -0.6384786963 0.2962895036
-0.0303073395 -0.01921960339 0.7619530559 -0.01241733506 -0.1398625672 0.9885473251
-0.03196322918 -0.02667037025 0.7609730363 0.01006058883 -0.2026579827 0.9758327603
-0.1247627288 -0.08657391369 0.7259654999 0.07800465077 0.3901650906 0.9002607465
-0.11834912 -0.09043707699 0.7275841832 0.006803086028 0.4678625464 0.8643499613
-0.1201745644 -0.009939898737 0.7225013375 0.2101116925 -0.3515599668 0.9113678932
-0.1008974537 -0.008257624693 0.7182760835 0.2258904129 -0.3840827942 0.8938525915
-0.1430260986 -0.0912912488 0.7251550555 0.08295942843 0.261108458 0.9599109292
-0.1489422917 -0.07279551029 0.7194898129 0.08205346763 0.2007065713 0.9759687185
-0.09916238487 -0.07068640739 0.7118725777 0.0319170393 0.408714205 0.8978203535
-0.1135422364 -0.08571556956 0.7215721607 -0.0228825435 0.50886935 0.8597632647
-0.1019740626 -0.07587692142 0.7165159583 0.006165181287 0.5044149756 0.8542547822
-0.09717948735 -0.06461688131 0.7056238055 0.05106426403 0.2198909074 0.9726999998
-0.1017956361 -0.03725895286 0.7202604413 0.02884674817 -0.1984558553 0.9752647877
-0.0940278694 -0.03634767979 0.7305079699 -0.03786485642 -0.1928732991 0.9709394574
-0.1250700653 -0.05591153726 0.720661819 0.3906908929 0.05900386348 0.8974991441
-0.07902681828 -0.04944662377 0.7493702769 -0.1712495685 -0.3808911145 0.8918147087
-0.09501996636 -0.0458285436 0.7292358875 -0.06925278902 -0.2362657785 0.9546305537
-0.08630999923 -0.05018597096 0.7398555279 -0.1005926803 -0.3581800163 0.9054654837
-0.09283623099 -0.05201422051 0.7210085988 -0.02714106441 -0.177564919 0.9670866132
-0.08787543327 -0.05346959084 0.7270591855 -0.05542473122 -0.2258290201 0.9463337064
-0.08350550383 -0.04388337582 0.7442975044 -0.1748709828 -0.2610547543 0.9370476007
-0.08923729509 -0.04382262379 0.7368865609 -0.1233840957 -0.2320655882 0.9516682029
-0.1158380359 -0.04759237915 0.7184498906 0.1944913566 -0.07708369941 0.9464591146
-0.1085422784 -0.04620516673 0.7166404724 0.07006660849 -0.1419507712 0.9726331234
-0.1203107461 -0.03911831975 0.7182324529 0.1879628003 -0.1640517265 0.9420203567
-0.1370438933 -0.05990178883 0.7249871492 0.2736909688 0.05747822672 0.9540922642
-0.1402620971 -0.06847029179 0.7269822955 0.2073072791 0.1306781173 0.9573557973
-0.1445264071 -0.07512504607 0.728777945 0.1209906563 0.1922252029 0.9672195315
-0.1494414359 -0.08299227804 0.7231521606 0.05510145798 0.2322160602 0.9708763361
-0.1505243778 -0.06025860086 0.7066481709 -0.1996177584 -0.1417199969 0.7646226883
-0.1494154781 -0.05373736471 0.6994458437 -0.3366421759 -0.3523949087 0.6419844031
-0.1571256071 -0.07565431297 0.7213810682 0.01127979252 0.212588802 0.9649208188
-0.1848069429 -0.07816888392 0.7164587975 -0.3656340837 -0.03936314955 0.9214632511
-0.1759911925 -0.07974396646 0.7166063786 -0.2866878211 0.03020435385 0.9208022952
-0.1151363179 -0.06195958331 0.7067027688 0.09891130775 0.3709365726 0.8562649488
-0.1207169667 -0.05719659477 0.7017858028 -0.3046020567 -0.1725711226 0.5718994737
-0.1065081954 -0.06312496215 0.7055177689 -0.008389527909 0.1891951859 0.9202584028
-0.06268458813 -0.0207728222 0.7587503195 -0.08338753879 -0.07331816107 0.9931152463
-0.06045866013 -0.02952280268 0.7585318685 -0.04084405303 -0.1253805608 0.9907234311
-0.1239576042 -0.03250442445 0.7184956074 0.1978308856 -0.2712294161 0.9179121256
-0.1289556175 -0.03838463873 0.721096158 0.3362262845 -0.09824372828 0.9149002433
-0.1154968813 -0.03022712283 0.7157274485 0.1014109105 -0.2786871791 0.9529363513
-0.1272985339 -0.01917029358 0.7162389755 0.09171687812 -0.3744359612 0.843211472
-0.1263164729 -0.03246664256 0.7070547342 -0.2935176492 -0.5380669236 0.6551382542
-0.1212588996 -0.02394062653 0.7178066969 0.1670298725 -0.337608844 0.9235238433
-0.1454620212 -0.03039764613 0.697966814 -0.4470040202 -0.7468979359 0.4274175763
-0.1289947033 -0.02509077638 0.7105430365 -0.09438078105 -0.474427551 0.7324873805
-0.1343207806 -0.0278992001 0.7058019638 -0.2412432581 -0.575701952 0.6182159185
-0.1303464919 -0.02444607764 0.722025454 0.2443677634 -0.2477602214 0.9242076278
-0.1412614733 -0.01772800833 0.7255645394 0.2013438642 -0.3387510777 0.90884763
-0.1349531263 -0.0306122601 0.7237656713 0.3182210624 -0.1458792537 0.915165484
-0.1381049454 -0.01946326531 0.7161716223 -0.001013369416 -0.4348092675 0.7734948993
-0.1419992596 -0.02280266583 0.7098084688 -0.1544454396 -0.5489189625 0.6473902464
-0.1611369997 -0.04904223233 0.7235566974 0.02721987292 -0.05470502749 0.9909891486
-0.1606324017 -0.03995634615 0.7239587903 0.09543013573 -0.1859972626 0.957321763
-0.1524040401 -0.03915745392 0.7253118157 0.1719366908 -0.1843302995 0.9384003878
-0.1541063935 -0.05417253822 0.7246297002 0.0513298735 0.03827287629 0.9939465523
-0.1433865726 -0.04730293527 0.724070251 0.2357503176 -0.07160563022 0.9359258413
-0.1370800585 -0.03959483281 0.7225916386 0.3813582659 -0.1113975346 0.8943676353
-0.1456186771 -0.03481835127 0.7224157453 0.3618957102 -0.3070966005 0.8513913155
-0.151528433 -0.02986301109 0.7233854532 0.3187011182 -0.3974502087 0.8501945138
-0.07057723403 0.002516212873 0.7132056952 0.2833963037 -0.4547712803 0.8413454294
-0.1185865402 -0.04505684599 0.7051187754 -0.4620153606 -0.4356743693 0.6751984954
-0.1016546711 -0.03850282356 0.7104972601 -0.02086810954 -0.1522676647 0.9108129144
-0.1119436696 -0.04209262133 0.7070991993 -0.2811172009 -0.3330557346 0.758607924
-0.1001557112 -0.05446447805 0.7060778141 -0.1005548835 -0.09328778833 0.9411599636
-0.1101819351 -0.05077850819 0.7062724233 -0.3306494951 -0.2406216562 0.8381015062
-0.1045050472 -0.02994140238 0.7127951384 0.1057867259 -0.1912057102 0.9225409031
-0.1175446212 -0.03339640424 0.7076528668 -0.1977240741 -0.4257152975 0.7280291319
-0.1256195754 -0.03930425271 0.70235461 -0.4632796347 -0.5913398862 0.5665755272
-0.06981971115 -0.05588833615 0.7063015699 -0.1921406984 0.09918340296 0.9711180329
-0.03276522458 -0.004191180691 0.7134975791 0.4013573825 -0.5936883092 0.6252956986
-0.0229939241 -0.01948077977 0.7194552422 0.5999482274 -0.6320418715 0.3648681343
-0.02207845263 -0.02843173593 0.7216960192 0.6635299921 -0.6604088545 0.2737684846
-0.02925950475 -0.01463425159 0.7167444825 0.5022633076 -0.6237838268 0.4878796339
-0.01273538452 -0.02131891064 0.7214512229 0.3875481188 -0.1593150347 0.5188091397
-0.1006129757 -0.05090150237 0.7137463093 0.02169743553 -0.1149098948 0.9920473695
-0.1168924421 -0.05646968633 0.7167607546 0.2526423335 0.1556800902 0.9115236998
-0.09707853943 -0.05947206169 0.7146166563 -0.01394237019 0.09717261046 0.9322122335
-0.1090296879 -0.06985934824 0.7186648846 0.09680490196 0.4188334644 0.8476672769
-0.1064824611 -0.06172743067 0.715775013 0.07284981012 0.148828879 0.9260169268
-0.1210174859 -0.0635889098 0.7192512751 0.3091631234 0.3963704705 0.8441919684
-0.1236127093 -0.06181302667 0.7072773576 -0.09395968914 0.05893276259 0.6707086563
-0.1231371909 -0.0684973821 0.7137184739 0.185311988 0.3547269106 0.8559871912
-0.1227603629 -0.08186820149 0.7189087868 0.1390669942 0.3684350848 0.9174241424
-0.1304319948 -0.06608842313 0.7084553838 -0.05660576746 -0.01044751704 0.8055790067
-0.1298547089 -0.07279676944 0.7176454663 0.1532573849 0.2001609355 0.9161524773
-0.1298647076 -0.06120807678 0.7025610805 -0.2324939519 -0.1908917874 0.6896029115
-0.1344859153 -0.05330324918 0.6924648285 -0.4973717034 -0.4688638449 0.5885404348
-0.137082845 -0.05817809701 0.6992564797 -0.3423325121 -0.3125664592 0.7009903193
-0.1435277313 -0.0684671402 0.7143787146 -0.01196903549 0.06375099719 0.903896749
-0.1381547749 -0.06411462277 0.7076191902 -0.1552465558 -0.1156784594 0.8060211539
-0.1392442137 -0.0728501901 0.7198579311 0.1193995029 0.1703103781 0.9583537579
-0.1414231509 -0.08159390092 0.721917212 0.1015088335 0.2622571588 0.9558528066
-0.1325698048 -0.08979995549 0.7234095931 0.1156855971 0.3387438655 0.9316264391
-0.1155986637 -0.07692272216 0.7203150392 0.1349081397 0.4344692528 0.8799522519
-0.1302589774 -0.07939364016 0.7232135534 0.1848501861 0.2947916985 0.934488833
-0.04522496462 -0.0206186641 0.76110816 -0.06571310014 -0.1220577881 0.9891526103
-0.04987855628 -0.01025572326 0.7610192299 -0.09401221573 -0.05082696676 0.9940311909
-0.05819164589 -0.01032389142 0.7605394721 -0.1036351845 -0.04552858323 0.9933236241
-0.05409052595 -0.02045379952 0.7604814768 -0.07562373579 -0.09460058063 0.99176085
-0.1349875927 -0.01247892063 0.7265983224 0.1952331066 -0.3067159355 0.9309355021
-0.127737999 -0.01441975497 0.7230520248 0.2110320777 -0.2914092541 0.9328078032
-0.08010311425 -0.01168098394 0.7108737826 0.2680567801 -0.2426566184 0.9306468368
-0.08767917752 -0.0004840304609 0.7174515128 0.2578661442 -0.457962364 0.84772259
-0.09227707982 -0.006468889769 0.7158896327 0.2638962865 -0.3757932484 0.8859964609
-0.07715849578 -0.0008986316971 0.7140464783 0.2747860849 -0.4156735837 0.8622698784
-0.1004062817 -0.02763387747 0.7218994498 0.1152014732 -0.1813544631 0.9654330015
-0.08377747238 -0.03251992911 0.7439974546 -0.09608688205 -0.177833721 0.9627447724
-0.07778735459 -0.03387494758 0.7519531846 -0.1675260812 -0.1752902418 0.9613934755
-0.09536379576 -0.02653705515 0.7132886648 0.2318476886 -0.09749231488 0.9672381878
-0.08923774958 -0.02949334867 0.7367088199 -0.003933277447 -0.170667544 0.9656193852
-0.09451118857 -0.02853276953 0.72972399 0.04995592311 -0.177454561 0.9637168646
-0.1011434421 -0.02125197463 0.7148682475 0.21235089 -0.1932471544 0.9571067691
-0.0885727182 -0.02404900454 0.711124897 0.2647102475 -0.0865136385 0.9591915607
-0.0897699073 -0.04197766259 0.709110558 0.08460538834 0.00285136397 0.9944890738
-0.09183955938 -0.04982872307 0.7072992325 0.04999769852 0.000177091264 0.9974601269
-0.04152049497 0.01626882516 0.7107793689 0.2960321903 -0.6113417149 0.7328197956
-0.0473933816 0.02038083412 0.7173200846 0.2814552188 -0.659799099 0.695853889
-0.05008304119 0.01332054194 0.7123375535 0.2986632288 -0.5731353164 0.7621055245
-0.03349357098 0.009964212775 0.7067659497 0.2897014618 -0.5921308398 0.7488026023
-0.04622900486 0.005408304743 0.707873404 0.2921890318 -0.5082119107 0.8074620366
-0.01593370736 -0.03622597456 0.7218732834 0.7023497224 -0.6858948469 0.182314992
-0.009666839615 -0.03035400994 0.7194055915 0.2847186327 -0.03760202229 0.5760130882
-0.01193566341 -0.02052356675 0.7402198911 0.5392856002 -0.5051108003 0.4694557488
-0.007362059318 -0.01506513357 0.7545508146 0.2697442472 -0.3281669021 0.8174074292
-0.006573825143 -0.02084804513 0.7296519279 0.6852552891 -0.6192926764 0.2798579633
-0.002865452785 -0.006336548366 0.7572588325 0.4240394831 -0.5739527345 0.6804955006
-0.004608287942 -0.01545350626 0.7387217879 0.5033710599 -0.4759296477 0.5010247231
-0.003575630253 -0.02211442403 0.7220568657 0.1207425073 0.2208738029 0.7642386556
-0.113879256 -0.01799214073 0.7173452377 0.203437835 -0.2922385633 0.9333232045
-0.0771971941 -0.0251330249 0.7528970838 -0.007936003618 -0.1141054109 0.9886488914
-0.08528807759 -0.02474149503 0.742321074 0.04960207269 -0.1368645281 0.9805991054
-0.09935319424 -0.02096298523 0.7257776856 0.1533330828 -0.2103468329 0.955837965
-0.0993065536 -0.01085069776 0.7318754792 0.1657702476 -0.3124922216 0.9155891538
-0.1022567526 -0.003204857931 0.7325142026 0.1967034489 -0.390532136 0.8790417314
-0.08361801505 -0.01683224738 0.7492806315 0.04803134874 -0.2101697624 0.9487345815
-0.09126663208 -0.01605723426 0.7395106554 0.1025454178 -0.2407485992 0.9425289035
-0.08589196205 -0.009386967868 0.7474653125 0.04942058772 -0.2200270891 0.9337577224
-0.0965365842 -0.003260613885 0.7391425371 0.14911744 -0.3526834548 0.8875021935
-0.1076485887 -0.004252440296 0.7214465141 0.2288521677 -0.4089688063 0.8833720684
-0.1136097088 0.001811794587 0.7265281677 0.2370920777 -0.4241909087 0.873860538
-0.077022098 -0.03282753378 0.709061265 0.1059346721 0.04434656724 0.993183136
-0.08191126585 -0.04653343931 0.7064444423 -0.006623834837 0.02309099957 0.9912219048
-0.08646164834 -0.03244400769 0.7096512914 0.1591989845 0.01011937205 0.9839493632
-0.07230760157 -0.01784284972 0.707824409 0.2204843163 -0.1475128829 0.9574815631
-0.08067347109 -0.02267077193 0.7080000639 0.2317908257 -0.07553462684 0.9687601328
