# .PCD v0.7 - Point Cloud Data file format
VERSION 0.7
FIELDS x y z normal_x normal_y normal_z
SIZE 4 4 4 4 4 4
TYPE F F F F F F
COUNT 1 1 1 1 1 1
WIDTH 512
HEIGHT 1
VIEWPOINT 0 0 0 1 0 0 0
POINTS 512
DATA ascii
-0.009774435312 -0.0644864291 0.9186974168 -0.1276327819 -0.2948770523 0.9020784497
-0.2524116039 -0.03376066685 0.8438980579 0.09176986665 0.1060298458 0.9886707664
0.01634973288 -0.03074062057 0.9024264812 -0.5628991127 -0.4959623814 0.2732851803
-0.0005673326668 -0.0526503101 0.9162523746 0.1665274948 0.2197931111 0.9178673625
0.005292179994 -0.04810312763 0.9123808742 0.02440284751 0.009597240947 0.7636839747
0.01038601343 -0.03788718581 0.9076777697 -0.2458529472 -0.2979733646 0.5541950464
0.008401861414 -0.01627543196 0.8994879127 -0.5254989862 -0.7596901655 0.3471766412
-0.00601829309 -0.03418338299 0.9131403565 -0.1251502335 -0.1608831435 0.7970476747
-0.003305939026 -0.01335162111 0.9010961652 -0.3480777144 -0.6667957902 0.5141884685
-0.006255379412 -0.04254802689 0.9177497029 -0.05050130934 0.03030942753 0.8955405951
0.004335437901 -0.03220858052 0.9093111157 -0.3224243224 -0.3504318297 0.591478765
0.002369952388 -0.02497078292 0.9059004784 -0.3491489291 -0.4854279757 0.5446841121
0.01035115216 -0.02553263307 0.9040814638 -0.483649224 -0.5847330093 0.409715414
-0.005154376384 -0.02037319727 0.9054044485 -0.256639719 -0.4831714928 0.6260688901
0.002941103652 -0.03944068775 0.9117949605 -0.1675846428 -0.1200145558 0.6992208362
0.0165925473 -0.02381119877 0.8987688422 -0.5769402385 -0.7297132015 0.3425156474
-0.007628227118 -0.04911030084 0.9205841422 0.01623138599 0.1544014663 0.9866469502
-0.2501541674 -0.04296512902 0.84400177 -0.02018951066 0.2058191299 0.9769716859
-0.2439084947 -0.04015577957 0.8399200439 -0.0008225260535 0.2004144192 0.9770087004
-0.173388809 0.02230513096 0.8653975725 -0.185584113 -0.1246723235 0.9746524096
-0.1949021518 0.01797394454 0.8604107499 -0.2380753011 -0.2214680016 0.9445874095
0.01460760925 -0.02932165004 0.8885917068 -0.5066893697 -0.7085646391 0.4906738698
0.01374319941 -0.04710288346 0.8590475321 -0.355009973 -0.3893736899 0.8439077139
-0.2001281232 -0.06670217961 0.8748173714 -0.3391943574 0.305000037 0.888525486
-0.2395892441 -0.04103545845 0.846765101 -0.1412260085 0.2514686584 0.9110686779
-0.2446539998 -0.04928844422 0.8445281386 -0.1468808949 0.2870667577 0.9416271448
-0.2343511581 -0.04884789512 0.8489223123 -0.2543648779 0.3451162875 0.8736661077
-0.2489016205 -0.02162204124 0.8438242078 0.08485656232 -0.04393696785 0.9871892333
-0.244509533 -0.02794108912 0.8396839499 0.08283544332 0.03725884482 0.9909384847
-0.240780741 -0.008945601061 0.8430078626 -0.009197704494 -0.2411919981 0.9695956111
-0.08857918531 -0.07871302962 0.8816232085 -0.0139996931 0.20616588 0.791514039
-0.08626743406 -0.07205842435 0.9005197883 -0.2222619206 -0.4094393253 0.7316460013
-0.08095797151 -0.06908451766 0.9054304361 -0.3187096119 -0.5497469306 0.7435968518
-0.1049432084 -0.08011555672 0.877830267 0.1219353452 0.4611030221 0.7919774055
-0.09350286424 -0.07464239746 0.8936370611 -0.1096148267 -0.1545671821 0.7447838187
-0.01724266261 -0.003357829759 0.8984639049 -0.3116235435 -0.8240511417 0.4727004766
-0.07754769176 -0.07456050813 0.8970000744 -0.1721719354 -0.4760210514 0.6448843479
-0.08607628196 -0.08206664771 0.8743741512 0.02813861519 0.4469937086 0.799479425
-0.03888961673 -0.05532457307 0.9140708447 -0.2366047055 -0.06207542494 0.9692222476
-0.1005981266 -0.07916825265 0.8711616397 0.1422654986 0.5395631194 0.8276984096
-0.09228476137 -0.07831084728 0.8672942519 0.1031385958 0.5053741932 0.8552932143
-0.1540696472 -0.001197114005 0.8583816886 -0.212575987 -0.0178186819 0.7871822715
-0.1505866945 0.004609893542 0.8486427665 -0.4121534526 -0.2221863419 0.4398322701
-0.1479245275 0.006477008574 0.841201961 -0.5594229698 -0.3489401042 0.1897164434
0.02072923444 -0.03461705521 0.8906396031 -0.6344745159 -0.6282129884 0.3607482612
0.0165510159 -0.04077726975 0.8991473317 -0.3960473835 -0.5130187273 0.3819631934
0.01214230154 -0.04740059748 0.9049321413 -0.1300249696 -0.3544903696 0.5117384791
-0.005267844535 -0.07546239346 0.9015144706 0.05517775193 -0.4359126985 0.7910811305
-0.0007150774472 -0.06874471903 0.9128111005 0.3189788759 -0.4608369768 0.7397427559
-0.003603516612 -0.07685771585 0.8939090967 0.1103743911 -0.2940718532 0.8298396468
0.0007184290444 -0.07563508302 0.8867513537 0.3546244204 -0.03322646394 0.8716123104
-0.02041348256 -0.08049054444 0.8832102418 0.09136778861 -0.7899832129 0.1867547035
-0.01688954793 -0.08213181049 0.8741155267 0.1993391365 -0.9593749642 -0.09773055464
-0.02598803118 -0.07930154353 0.8895652294 -0.02354275435 -0.6802151203 0.4396720827
-0.02873768471 -0.07747014612 0.8987110257 -0.09874131531 -0.4670466185 0.658288002
-0.0277050864 -0.08073306829 0.8813052177 0.01717120968 -0.8447160125 0.2592009902
-0.1084373444 0.01507298183 0.8746224046 -0.2554719448 -0.5238515139 0.8024582863
-0.09685224295 0.009824102744 0.8758938313 -0.1777196676 -0.394474417 0.8998541832
-0.1403044611 0.0238351915 0.8728048801 -0.1548754722 -0.1944390535 0.9655399919
-0.1062916517 -0.01681555063 0.8638518453 -0.3865577579 -0.2557116449 0.8777771592
-0.1161962971 -0.01951536164 0.8664788008 -0.06368108839 -0.2153676152 0.9135262966
-0.1250648052 -0.01920967735 0.8686027527 0.1784690171 -0.2117222548 0.921112299
-0.112577334 -0.02879769728 0.8624427319 -0.09975192696 -0.1050936878 0.9675348401
-0.1532561779 -0.06859944016 0.8773120642 0.2014755309 0.3449228406 0.904714644
-0.1515703052 -0.0577465333 0.8736703992 0.1992874742 0.1942440718 0.9422678351
-0.02340234816 -1.993384831e-05 0.9037231803 -0.3012421429 -0.8394078016 0.4523260891
-0.05899509043 -0.05902950838 0.8632907271 -0.0782039389 -0.2777632475 0.5352296233
-0.06352524459 -0.0701161474 0.8642808795 -0.06284594536 0.4330763221 0.8260053396
-0.06674347073 -0.05401710421 0.8598589897 -0.06122316793 0.06597475708 0.9267881513
-0.07351744175 -0.06749963015 0.8616133928 -0.08956873417 0.3272213042 0.9116349816
-0.206206724 -0.06534454226 0.8699742556 -0.4181246758 0.3285316229 0.842792809
-0.1928376406 -0.07353866845 0.8787102103 -0.2268706262 0.3458379209 0.9097933769
-0.1815512031 -0.07390826195 0.8818600774 -0.07411760092 0.3721248806 0.9161189795
-0.2317779362 -0.001751445699 0.8454526067 -0.1034824699 -0.3124988675 0.9432265759
-0.2348957062 -0.05689768493 0.8463024497 -0.2862549126 0.3968634009 0.8692683578
-0.01898313314 -0.05314701423 0.9184859395 -0.1777841598 -0.08393268287 0.9803979397
-0.07036242634 -0.08202021569 0.8666985631 -0.1117719263 -0.2112328112 0.3794737756
-0.07806516439 -0.07704120874 0.8627326488 -0.05565648526 0.3924148381 0.9156663418
-0.02026106603 -0.07335461676 0.9141052365 -0.1365675628 -0.2787036002 0.9362285137
-0.03078778647 -0.06629066914 0.9140242934 -0.2165445983 -0.1152061448 0.9682966471
-0.03418748081 -0.07333482802 0.9116081595 -0.2167405784 -0.1532246321 0.9635631442
-0.02664593048 -0.0558347851 0.9166781902 -0.1953952163 -0.08280473948 0.9768878818
-0.02328652889 -0.06442192942 0.9159423113 -0.1872469187 -0.119178012 0.9750298858
-0.04082560539 -0.06806728989 0.9114338756 -0.2333322167 -0.1010114253 0.9668567777
-0.04529210925 -0.06216117367 0.9122309089 -0.2243527025 -0.06879896671 0.971935451
-0.04871192575 -0.06962824613 0.9086987376 -0.2027917206 -0.2870590985 0.8746695518
-0.05325302482 -0.05793058872 0.9110378027 -0.1753069162 -0.0831489712 0.9808434844
-0.07407919317 -0.08126013726 0.8764976263 -0.08821046352 -0.2839473486 0.376198113
-0.06501622498 -0.08061300963 0.8773437142 -0.1836454421 -0.8983950019 0.002930680756
-0.06814769655 -0.07794864476 0.888913095 -0.1844983101 -0.6283184886 0.3920007944
-0.06931953877 -0.07563866675 0.8978601694 -0.2025626898 -0.5605010986 0.604113102
-0.07889981568 -0.07702171803 0.8901532888 -0.1055284292 -0.2276623547 0.6726224422
-0.1678741872 0.008138935082 0.8508060575 -0.3999751508 -0.1823911518 0.6480063796
-0.1610455066 0.007862927392 0.8463831544 -0.476167351 -0.2590080798 0.457569927
-0.170731619 0.01350220479 0.8592309356 -0.2290157229 -0.1245387569 0.9269106984
-0.1607570052 0.006786451675 0.8636321425 -0.1625409871 -0.02182071283 0.9854166508
-0.1497278363 0.01849215105 0.8684679866 -0.1727152169 -0.1143455803 0.9778376222
-0.1540270746 0.01033517718 0.8651220202 -0.1742662042 -0.07064960152 0.9813273549
-0.1635059118 0.02311361395 0.8659051657 -0.1888575256 -0.1306165457 0.9732579589
-0.1606453657 0.01467881817 0.8586067557 -0.2541914582 -0.1310879588 0.8528916836
-0.1462308615 0.01373226009 0.8483641148 -0.4686901271 -0.2829580605 0.5002949834
-0.1556152403 0.01256220788 0.8523388505 -0.359189719 -0.224728182 0.5959935784
-0.1200379878 -0.002774491441 0.8718680739 0.0006962240441 -0.3902784586 0.8640629053
-0.1261917651 -0.0387471132 0.8579460979 0.3202222288 0.08262411505 0.9433652759
-0.08162599057 -0.04668999091 0.8977331519 -0.2933172584 -0.1220443323 0.9217934012
-0.08858700842 -0.03713266924 0.8816860914 -0.2190995812 -0.1855975538 0.9305595756
-0.08055818081 -0.05215662718 0.9033551216 -0.4010430574 -0.09745881706 0.8910136223
-0.1586903334 -0.05222480372 0.8762410283 0.1267427951 0.1409845352 0.9603565335
-0.162684232 -0.0632513985 0.8806592822 0.1083315834 0.2958940864 0.9291802645
-0.1680849493 -0.07018491626 0.8827549219 0.08046935499 0.3926458359 0.9156320691
-0.1195499301 -0.07858708501 0.8738020062 0.1814354062 0.5427459478 0.8179906011
-0.1003589705 -0.05453911051 0.8719614148 -0.075884372 0.1217779815 0.8946464658
-0.08744067699 -0.05440827832 0.892709434 -0.3571163416 -0.03795009851 0.8792434335
-0.09270272404 -0.04709836841 0.8728726506 -0.2175177336 -0.110546194 0.9368478656
-0.09320304543 -0.05768375844 0.8884290457 -0.2426112294 0.09344427288 0.8636870384
-0.09330689907 -0.0533461757 0.8815535903 -0.2255939692 0.01361546665 0.8940562606
-0.1020415053 -0.05045632645 0.8629196882 -0.02531120367 0.06593348086 0.9252333045
-0.1074165925 -0.0579867363 0.8658466339 0.06627767533 0.2721605897 0.8795257807
-0.1048771963 -0.06193998083 0.876077652 -0.002538373461 0.3151508272 0.8487598896
-0.1011608392 -0.06491299719 0.8824138045 -0.06842444837 0.2949516773 0.8384552002
-0.1107533425 -0.06426981091 0.869834125 0.1195278466 0.4279980361 0.8410547376
-0.111417152 -0.07489326596 0.8703192472 0.1766569912 0.5467396379 0.8177039027
-0.09676895291 -0.07972949743 0.877892375 0.08163006604 0.3846913278 0.8031274676
-0.04660174996 -0.04993692413 0.9120422006 -0.1943810433 -0.06738265604 0.9784264565
-0.04744580016 -0.04270311072 0.9108940959 -0.1935603023 -0.04878132045 0.9796384573
-0.09977205098 -0.02362128161 0.8641217947 -0.1670911312 -0.2231240273 0.9520252943
-0.09440916777 -0.00367984036 0.8692641854 -0.132696107 -0.3959043026 0.908059299
-0.08962377906 -0.02168195508 0.8751831651 -0.08197547495 -0.2895524204 0.9474464059
-0.07595020533 -0.04145045206 0.9002795815 -0.1086438894 -0.1392774582 0.9771108031
-0.08275423199 -0.03648076579 0.8896457553 -0.1043478921 -0.1699295789 0.9744796753
-0.09234657884 -0.02697718702 0.8698214293 -0.07619018108 -0.2414563149 0.9651690722
-0.08702348918 -0.02784050442 0.8821163774 -0.09709022194 -0.2374019474 0.9588669538
-0.09079945087 -0.01201599557 0.8679339886 -0.07949592918 -0.3655661345 0.9255170226
-0.05184753984 -0.03493392467 0.9090425372 -0.1988772601 -0.08742907643 0.9419108033
-0.04872592539 -0.01949896105 0.9084765911 -0.2437326461 -0.3796528876 0.7465521693
-0.05202340335 -0.002296054969 0.8939667344 -0.2776022553 -0.6860089898 0.5917976499
-0.04771132767 -0.003165229689 0.9031257629 -0.2856599987 -0.6815161705 0.5617647171
-0.05498909578 -0.01093452703 0.8925908208 -0.2507760525 -0.529533267 0.7040254474
-0.04979071766 -0.01258061081 0.9039513469 -0.259111315 -0.5137814879 0.6737508774
-0.04587870464 0.004224796314 0.8990273476 -0.3074247837 -0.8237816691 0.471886754
-0.08165796101 -0.0676625967 0.8586472273 -0.07422008365 0.2947800457 0.9517490864
-0.07061903924 -0.02860203758 0.8579963446 0.07588398457 -0.2757016718 0.958053112
-0.02650359087 -0.07961286604 0.8728294373 0.0970909968 -0.5310203433 0.4388843775
-0.03452732041 -0.07953807712 0.8747929931 0.03534219414 -0.9241828322 0.231970787
-0.007206597365 -0.08141387254 0.8703189492 0.2248781025 -0.1525637656 0.633415699
0.0004800810129 -0.06404739618 0.8607465625 0.1870160997 0.08920235932 0.9614440799
-0.005666233134 -0.05528700724 0.8609048128 0.01450864412 -0.1048602238 0.9642436504
-0.007752411533 -0.06331279874 0.8632131815 0.1099872291 0.04917056486 0.9583914876
-0.01381467469 -0.05791962519 0.8648976684 -0.02041196823 -0.1209533885 0.8933114409
-0.01210896298 -0.04751960561 0.8628917933 -0.152670756 -0.3535099328 0.8501697779
0.01510866545 -0.06223107874 0.8703068495 -0.1316294819 -0.2022465467 0.8792575598
0.008918412961 -0.06460713595 0.8914191723 0.2471042424 -0.2318307906 0.8161318898
0.009734946303 -0.06798431277 0.8774943352 0.1070678681 -0.1209328249 0.8743823171
0.006179178134 -0.07415097952 0.8751273751 0.2074162066 0.001285308274 0.9030777812
0.004758661147 -0.07034473121 0.8931070566 0.4005367756 -0.1316596568 0.8297279477
0.01358248107 -0.05985847488 0.8844419122 0.03395400196 -0.2953089476 0.8236748576
0.01024660934 -0.07001018524 0.8690414429 0.02152259648 -0.05406073481 0.9096614122
0.003616576549 -0.06755714864 0.906116426 0.5366749167 -0.2286808789 0.7768672109
0.0008879541419 -0.07995295525 0.8736579418 0.2763123214 0.1109290347 0.9317660332
0.01758900844 -0.0539733246 0.860656023 -0.3041991293 -0.2465093732 0.8967933059
0.01294564456 -0.06258860976 0.857381165 0.1936889887 0.01931316964 0.9805662036
0.008504479192 -0.05325665697 0.8576010466 0.01385961473 -0.1703499258 0.9695464969
-0.225408867 -0.05659910664 0.8493341208 -0.368622303 0.4107627571 0.8289454579
-0.1829479486 -0.001580890617 0.8574810624 -0.4016940296 0.1179166213 0.8961945176
-0.1694633216 -0.002049375558 0.8629572988 -0.1721332371 0.1407224089 0.9653337002
-0.1940642297 -0.05948600918 0.8737437129 -0.2839963138 0.2870919704 0.9116564393
-0.2019639909 -0.05723996833 0.8631590009 -0.4189397395 0.3664353788 0.8101249337
-0.2369850427 -0.04888283834 0.8418887854 -0.2232006192 0.346404016 0.9073168635
-0.2222273946 0.009488352574 0.8505865932 -0.133076787 -0.3935400844 0.9090960026
-0.2185122818 -0.008256217465 0.8473924398 -0.2543725371 -0.1737461388 0.9359636903
-0.07898849994 -0.08306469768 0.8699761033 -0.01943728887 0.02577089705 0.4518604577
-0.06223421916 -0.07760649174 0.867290616 -0.1180526763 -0.1525925547 0.304538399
-0.03992708027 -0.07519422472 0.9066995978 -0.1788354814 -0.4885336161 0.75930053
-0.03535845503 -0.07993655652 0.8857547045 -0.04540093988 -0.749581635 0.3996624053
-0.03678338975 -0.07696850598 0.8996199369 -0.1365877688 -0.5028561354 0.6724798083
-0.04276802763 -0.07850696892 0.8905805945 -0.07901441306 -0.8791159391 0.4078905582
-0.0642439574 -0.066184856 0.9057081938 -0.1633103043 -0.1572907567 0.9406134486
-0.05669265613 -0.06780190766 0.9065971375 -0.1660808921 -0.2245977074 0.9103993773
-0.1491755992 -0.04155215621 0.8710678816 0.1909831613 -0.004308973905 0.9809603095
-0.1158255637 0.006175281946 0.8719705939 -0.1856108159 -0.4646369219 0.8576472402
-0.1289970726 0.01863505878 0.8727458119 -0.180759564 -0.4873636067 0.8315088153
-0.1850140989 0.0149636576 0.8584648967 -0.2737751603 -0.1631836295 0.9476087689
-0.08207247406 -0.001121017965 0.8720299006 -0.1300945431 -0.4537845552 0.8801468611
-0.07281845063 0.005349253304 0.8796793818 -0.1817585528 -0.5667749643 0.7995393872
-0.08173777908 0.007653056644 0.8784390092 -0.1730748564 -0.4848706424 0.8478308916
-0.1128871441 0.01305433363 0.8663801551 -0.3854434788 -0.5488418937 0.6499437094
-0.1048808247 0.005679686554 0.8662718534 -0.3847800791 -0.3980178237 0.7207606435
-0.1160587668 0.0194443427 0.870079875 -0.3005851209 -0.6682216525 0.6700037718
-0.1296120286 0.01265059691 0.8271934986 -0.8813351989 -0.4571771324 0.001743141445
-0.1464832276 0.01934809424 0.855044663 -0.4338787794 -0.2083581388 0.6437119246
-0.1513196975 0.02162463963 0.86194098 -0.2899416685 -0.1571452618 0.8286887407
-0.1402572691 0.01391045004 0.8410554528 -0.6081547141 -0.3711893857 0.2679360509
-0.1100040972 -0.04161809012 0.8497408032 -0.1694740653 0.02234675735 0.8963881731
-0.1108554751 -0.02858088166 0.8522496819 -0.5222066045 -0.05127583817 0.716758132
-0.1053757668 -0.03507353365 0.8541607857 -0.2675140202 -0.09058444947 0.8568443656
-0.1033085808 -0.02304653823 0.8547177911 -0.4176201522 -0.1044553816 0.7338212132
-0.09748224914 -0.03019995615 0.8584517241 -0.2070661038 -0.1983011067 0.8787030578
-0.08961749077 -0.02756779455 0.8607513905 -0.0366237238 -0.2555339932 0.9352089167
-0.09824008495 -0.01283476036 0.8667514324 -0.1703495979 -0.3531524241 0.9075899124
-0.1066951975 -0.009326350875 0.8660532236 -0.3418555558 -0.3659085035 0.8469369411
-0.114873901 -0.01088240184 0.8678551912 -0.1154737175 -0.336173743 0.8643978834
-0.1618153304 -0.03141546622 0.8715686798 0.08608347178 0.08058983833 0.9922904968
-0.09664405882 -0.061477568 0.8548898697 -0.004981713835 0.2743569911 0.9573016763
-0.1015916988 -0.03838196769 0.8674560189 -0.1690524817 -0.2166086584 0.9500331879
-0.09329397976 -0.04362580553 0.8815437555 -0.2844122946 -0.1716784686 0.9171242118
-0.09433019161 -0.03563096374 0.873781383 -0.1904661655 -0.2089053839 0.9376485944
-0.1064004526 -0.04087161645 0.8618839979 -0.06003084779 -0.1078097001 0.9429969192
-0.1126093641 -0.04972223192 0.861195147 0.1377671957 0.144908905 0.9174786806
-0.1177213565 -0.04233713821 0.8611181974 0.1484490782 -0.04169139639 0.9488292336
-0.1708362848 -0.06777901947 0.8746294379 0.07288423181 0.35097754 0.9280452728
-0.1819215566 -0.04414377362 0.8728412986 -0.05599428341 0.1155304462 0.9905295968
-0.1740857661 -0.0482173413 0.8733969331 0.002015473088 0.1430664212 0.9811100364
-0.1658015102 -0.03949966282 0.8735282421 0.05752252415 0.09551792592 0.9874262214
-0.1702331156 -0.05560595542 0.8769293427 0.04529955238 0.236895889 0.9566166401
-0.1787272245 -0.05601934344 0.8768063188 -0.004119229503 0.2502564788 0.9554653168
-0.1778881997 -0.06364250183 0.877902627 0.0096024964 0.3442828953 0.9341226816
-0.1583255231 -0.07451538742 0.8813310862 0.1673676521 0.4385226369 0.8824192882
-0.08941087127 -0.06077026203 0.8972679973 -0.3292928636 0.07719299942 0.8470905423
-0.1066563278 -0.06904865056 0.8775117993 0.04416954517 0.4060167968 0.8279260993
-0.09745782614 -0.06526847184 0.8893119693 -0.1663669795 0.2276143879 0.8358160257
-0.08383706212 -0.06059036404 0.9031874537 -0.4075640142 -0.1309408396 0.8436117172
-0.1047746539 -0.07433733344 0.8833891153 0.01711963117 0.2819600701 0.8100287318
-0.1455644965 -0.0731940195 0.8753262758 0.2110618651 0.4703658521 0.8552320004
-0.1182525232 -0.06536193937 0.8651847243 0.2031903118 0.4952998757 0.8444324732
-0.08281546831 -0.008234866895 0.8692462444 -0.07262619585 -0.4198493958 0.9012260437
-0.07578723133 -0.01906828023 0.8831151128 -0.1067728847 -0.3341766596 0.9131366014
-0.07403059304 -0.03051739559 0.8948655725 -0.1196262389 -0.2095864713 0.9487285614
-0.07864865661 -0.02664096095 0.8850423694 -0.07365677506 -0.2514257133 0.9485216737
-0.07440386713 -0.01126647182 0.8788565397 -0.1247060522 -0.4192974865 0.8812869191
0.008618102409 -0.02415279113 0.8887857795 -0.4861771166 -0.7192072868 0.4963278472
-0.05162863061 -0.07611387223 0.8985835314 -0.1432664692 -0.8092172146 0.5407469273
-0.04573804885 -0.08131025732 0.8800265789 -0.04396050796 -0.9429183006 0.2999211252
-0.04937038943 -0.07914721221 0.8873482943 -0.08804026991 -0.8872647285 0.3963431418
-0.05344885215 -0.08118788153 0.8766564131 -0.0968483761 -0.9588500261 0.2127592415
-0.0441663377 -0.01194833033 0.9089797139 -0.27355358 -0.5140220523 0.6507567763
-0.0379344672 -0.001427345909 0.9091146588 -0.2955572605 -0.735385716 0.5105396509
-0.04286051542 -0.02626394108 0.9100154042 -0.24173522 -0.2521772981 0.8241260052
-0.03674511611 -0.03071166947 0.9109540582 -0.2370388657 -0.1606583446 0.8757207394
-0.03329317272 -0.02010466717 0.9107619524 -0.2578476071 -0.3755151033 0.7390332818
-0.03150158376 -0.005823857151 0.9102178216 -0.2815140486 -0.6738699675 0.5554603934
-0.04226711392 -0.02767998166 0.859639585 -0.1258893311 -0.5509355068 0.8230987787
-0.03598105535 -0.05023372546 0.8659192324 -0.08100038767 -0.7153941989 0.5861768126
-0.03801899776 -0.04190190881 0.8627800941 -0.1018100008 -0.6303799152 0.7024813294
-0.05450479314 -0.04549411684 0.8607615232 -0.07160453498 -0.544734776 0.5908267498
-0.05405019596 -0.03426903486 0.8577484488 -0.02873501182 -0.3757487237 0.8970516324
-0.03443238884 -0.0679731071 0.871456027 -0.003541956656 -0.8181906939 0.3878287673
-0.03035877272 -0.0602328293 0.8677565455 0.005805948749 -0.4565625191 0.6568083167
-0.02470759489 -0.07227689773 0.8699190021 0.1110608801 -0.17040959 0.7279214859
-0.027715737 -0.04159028083 0.8622354269 -0.1165308729 -0.4061281979 0.8384709358
-0.01888821833 -0.03922245651 0.8618047237 -0.2134665251 -0.5092331171 0.8146014214
-0.02377370931 -0.05474015325 0.8648660779 -0.0003647430858 -0.1509369016 0.8808037043
-0.03078886494 -0.03431402519 0.8607757688 -0.1737006605 -0.5419892669 0.8165661097
-0.02064932697 -0.06476057321 0.8668712378 0.08719536662 0.0428010039 0.912856698
-0.02145498618 -0.02591810375 0.8654219508 -0.2645618021 -0.6410393119 0.7192342877
-0.01364345569 -0.02518098988 0.8688579202 -0.3240813017 -0.6811121106 0.65538311
-0.006669191178 -0.07971686125 0.8821007013 0.1611817479 -0.03812048584 0.8575891852
-0.01194314472 -0.077629067 0.8941777945 0.09623192251 -0.7992044091 0.3125711679
-0.0125047164 -0.07427682728 0.9117910862 -0.03757338598 -0.5828776956 0.7575915456
-0.02230700292 -0.0762720257 0.9061866403 -0.08541952074 -0.3585531712 0.7633144855
-0.01948742941 -0.07818174362 0.8955186009 0.02136098221 -0.5727158785 0.4589932263
-0.08051993698 -0.02674854919 0.8602549434 0.06589015573 -0.2763572335 0.9583073258
-0.01249587815 -0.07577627897 0.8677541614 0.2014608979 0.2299175858 0.9510881901
0.003353981068 -0.08123348653 0.8660615087 0.2338805646 0.1658210009 0.9579010606
0.001397460932 -0.07288402319 0.8634046912 0.243539691 0.1571735591 0.956618011
-0.1792616844 0.01096905395 0.8651810884 -0.2169659138 0.0008403875981 0.9586193562
-0.1833750606 0.01916913316 0.8651790023 -0.226876393 -0.1208927333 0.9599091411
-0.1683983058 -0.02049370669 0.864123106 -0.08781707287 0.1813029349 0.9360802174
-0.1808030158 -0.05590572953 0.8687041998 -0.05936357379 0.2647684216 0.9327540994
-0.1837516576 -0.0625776574 0.8726867437 -0.1101679504 0.3451004028 0.9218347073
-0.1900566965 -0.05851418525 0.8677769899 -0.2193724066 0.3409353495 0.8779025674
-0.2202828079 -0.06206193194 0.8590452075 -0.5019986629 0.4046053886 0.76362288
-0.2023837566 -0.05010691658 0.8661509752 -0.4952810705 0.3248996735 0.8011339903
-0.2132747471 -0.05796984583 0.8640309572 -0.4720606506 0.3728173971 0.794361949
-0.1880612969 -0.04906782508 0.8730356097 -0.150689885 0.1874264777 0.9601411223
-0.1901320368 -0.04161234573 0.8712676167 -0.3094344735 0.2221405655 0.918454349
-0.05824873224 -0.04206022248 0.9096502662 -0.1692625135 -0.05260590091 0.9836556911
-0.0303363055 -0.04820007086 0.9151428938 -0.2307229638 -0.03441331163 0.9720773101
-0.03837039322 -0.04589742422 0.9130715132 -0.2229602188 -0.02691447735 0.9739979506
-0.1404382139 -0.0496577695 0.8638983369 0.276288867 0.1123150811 0.950951755
-0.1316944659 -0.05632035434 0.8634356856 0.2688032389 0.2759798765 0.921085
-0.1338031441 -0.06348115951 0.8663566113 0.2088773847 0.3665909469 0.9034767151
-0.1286546439 -0.04670498148 0.8582962155 0.2968454659 0.1519915462 0.9413322806
-0.1249213964 -0.05398252234 0.8610866666 0.2871470451 0.2723365128 0.916870296
-0.1268175095 -0.0719820112 0.8711348176 0.1767961234 0.4841226637 0.855932951
-0.1347436905 -0.07327535003 0.8720704317 0.1790319979 0.4519702494 0.8733173609
-0.1450783312 -0.06237250194 0.8680794835 0.2179198861 0.2759279013 0.9352083802
-0.1203816161 -0.04873519018 0.856605649 0.2597663105 0.1802330166 0.9454318285
-0.04868452623 0.002252028324 0.8851904869 -0.2935630381 -0.7825111151 0.5465784073
-0.07387688756 -0.0008553778171 0.8739643693 -0.1441382766 -0.5171324015 0.8431923389
-0.07087869942 -0.022198705 0.8958795071 -0.1594380736 -0.2997615933 0.8990886211
-0.07198185474 -0.01273999456 0.886195302 -0.151902765 -0.4028345346 0.8703208566
-0.06976857036 -0.003881078912 0.885289669 -0.1783965826 -0.4960094094 0.82136482
-0.06633131206 -0.03559430316 0.9050854445 -0.1620917618 -0.1337572187 0.9569721818
-0.06171141937 -0.02200193517 0.8968806863 -0.1833898425 -0.2615024149 0.9043373466
-0.06781367958 -0.02795601636 0.9002874494 -0.1644817889 -0.2239631712 0.9237211347
-0.05522516742 -0.0275338646 0.9011474848 -0.2115030438 -0.2409964055 0.8714087009
-0.06445398927 0.003741448745 0.8816123605 -0.2219233215 -0.6571781635 0.7033248544
-0.05909607187 -0.003559376579 0.8867902756 -0.2418509573 -0.6055440903 0.691855371
-0.06431689858 -0.01025494933 0.8895848989 -0.1893897504 -0.4141922593 0.8417481184
-0.05646633729 0.002790592145 0.8836922646 -0.2753999829 -0.7540320158 0.5864464641
-0.1196643189 0.007530974224 0.8545172811 -0.7058497667 -0.4226552546 0.438921988
-0.1224638 0.009559525177 0.8473998308 -0.7497056127 -0.4425697625 0.3379554451
-0.1235840395 0.01716224104 0.8558294177 -0.505109787 -0.5719363689 0.4781812429
-0.1341203898 0.01576207206 0.8465818763 -0.6172945499 -0.3476899266 0.3684307933
-0.1311097145 0.01358184218 0.8385733366 -0.7768119574 -0.3979967535 0.1619889885
-0.1343677491 0.02068105899 0.8663256764 -0.257786274 -0.384752363 0.7798304558
-0.1321721077 0.01776514016 0.8551461697 -0.4710211456 -0.4099163413 0.5189369321
-0.1399005204 0.01916801929 0.8588172197 -0.3680326641 -0.2443292737 0.699878633
-0.1208639815 -0.02477374487 0.8400279284 -0.5379440784 0.1047052369 0.6539469361
-0.1237285659 -0.0174906943 0.8365581036 -0.7420239449 0.1054077074 0.5400217772
-0.1184382886 -0.02808506973 0.8462304473 -0.5466828942 0.07178321481 0.6737491488
-0.1157835051 -0.03582780063 0.8483110666 -0.2944177091 0.08237360418 0.8059908748
-0.1143863946 -0.002774358727 0.8525739908 -0.75039047 -0.2203659862 0.4953140914
-0.09357367456 -0.02016270161 0.8585317731 -0.181351617 -0.2314994186 0.8227986693
-0.118243143 -0.01141231228 0.8485458493 -0.823718369 0.08682220429 0.4734651744
-0.1112771556 -0.01819448359 0.851147294 -0.6135178804 0.1220864728 0.6035596132
-0.1088757813 -0.008276199922 0.8555176258 -0.5682719946 -0.2192477435 0.6135780811
-0.1023245081 -0.01220419165 0.8591790795 -0.3660496473 -0.2563393116 0.738920927
-0.1115754843 -0.002821057336 0.8677156568 -0.3154298365 -0.4862057269 0.8143577576
-0.1038723513 -0.001906422083 0.8691244125 -0.3128318787 -0.4499680698 0.831131041
-0.1085728928 0.0002752751461 0.858967185 -0.5415925384 -0.3242349625 0.6129030585
-0.1281272322 -0.02305655368 0.8497108221 -0.5138819814 0.1821030527 0.6911719441
-0.1413711011 -0.02744217589 0.8570593596 -0.07558047026 0.02439730801 0.8510636091
-0.1504287422 -0.02715434134 0.8629606366 0.09826800972 0.06491993368 0.969598949
-0.130351156 -0.01670053042 0.8406620622 -0.648445487 0.08414112777 0.574698329
-0.1367907375 -0.01811399497 0.8462023139 -0.4721317291 0.09704315662 0.678250134
-0.1411207169 -0.02163363993 0.8520626426 -0.2698772252 0.08045998216 0.7784885764
-0.1334689707 -0.02577815391 0.8665800095 0.3331067264 -0.007726361975 0.9347359538
-0.1223688126 -0.03092633188 0.8625358939 0.1399119049 -0.02997297235 0.9593996406
-0.174996078 -0.02582488582 0.8710002303 -0.09483937919 0.1943748146 0.972250104
-0.1680325419 -0.02865292691 0.8675653934 0.01057528984 0.1160729304 0.9899038076
-0.1490190774 -0.03804269433 0.8646570444 0.1915332824 0.07070283592 0.9750148654
-0.1510109901 -0.0505557768 0.8656200171 0.1895704269 0.09677490592 0.9745342731
-0.07012559474 -0.03788621724 0.8581216335 0.0436196886 -0.1947336644 0.9768802524
-0.07894685119 -0.0378715992 0.8580565453 0.05934661254 -0.1716137826 0.9820393324
-0.0777817741 -0.05125404522 0.8588918447 -0.03025045432 0.01293771248 0.9859163165
-0.06049567461 -0.03839558363 0.857796669 -0.02362397127 -0.2351253629 0.9506909251
-0.07688310742 -0.05908471346 0.8594981432 -0.07666292042 0.1441322267 0.966927588
-0.0679037869 -0.0448214896 0.8583374619 -0.03149920702 -0.113298133 0.9639393091
-0.1101425886 -0.06161712855 0.8594228029 0.1972259581 0.4200919867 0.8746182323
-0.1249999702 -0.0614984408 0.8648172021 0.2263952494 0.4126285911 0.8761743307
-0.117119357 -0.0577112399 0.8611850142 0.2767347097 0.3588016033 0.8911758661
-0.08530213684 -0.05964273214 0.8571369052 -0.05768758431 0.1762769669 0.9722505808
-0.09522355348 -0.06890777498 0.8596366048 0.07635518909 0.4369364679 0.8925741911
-0.09984536469 -0.07295207679 0.8648299575 0.1231871918 0.5032642484 0.8545671105
-0.1031640843 -0.06519198418 0.8591834903 0.1349076778 0.4833865166 0.8636058569
-0.1079977751 -0.05269892886 0.8523414135 0.05515044928 0.1501364857 0.9807990789
-0.08717545122 -0.04034687206 0.8570526242 0.002611548174 -0.1286001354 0.9854412079
-0.103210099 -0.04495221376 0.8518936038 0.01341333706 -0.0248914361 0.9914710522
-0.09849043936 -0.0403682217 0.8559903502 -0.03156397119 -0.1281150132 0.9795501232
-0.08929349482 -0.04939597845 0.855147481 -0.09072804451 0.01412139833 0.9895418286
-0.09930060804 -0.05418007076 0.852209866 -0.0697440207 0.1245841533 0.9864551425
-0.07217006385 -0.0223385822 0.861753881 0.03104794398 -0.371974647 0.9250304699
-0.07257030904 -0.04338432476 0.9070568681 -0.1331792325 -0.08746097982 0.9844239354
-0.0801955238 -0.01572647132 0.8657728434 -0.0169264432 -0.3908595741 0.9194643497
0.01778028347 -0.04483784735 0.8878626227 -0.2900256217 -0.5610008836 0.5963526368
0.01171364915 -0.05445691571 0.8983507752 0.107957527 -0.4321025014 0.6791719198
0.009007021785 -0.05721172318 0.9045346975 0.2686606944 -0.4049501419 0.6831032634
0.005285073537 -0.06268317252 0.911390245 0.5081114769 -0.3343625665 0.724675715
0.02057448402 -0.04900248721 0.8746164441 -0.3790492117 -0.4505895972 0.7428810596
0.01813842356 -0.03604093939 0.882348001 -0.5156088471 -0.6948603988 0.4998193383
-0.02074806951 -0.008608726785 0.9049236774 -0.2806643546 -0.6654445529 0.5643690825
0.004907179624 -0.01793562993 0.8917201161 -0.4712167084 -0.7283885479 0.4967783988
-0.03811600432 0.004214401823 0.9025003314 -0.3149126172 -0.8393965364 0.4429036081
-0.03122554161 0.001932142652 0.8986124992 -0.3066812456 -0.8378106356 0.45131585
-0.01094112545 -0.03782333061 0.8614150882 -0.212917611 -0.5413455963 0.7824646235
-0.004363134038 -0.04180099815 0.8605747223 -0.1749323159 -0.4402490854 0.8302884102
0.0005730500561 -0.03540289775 0.865332365 -0.3792426884 -0.6775201559 0.6291365027
0.003959274385 -0.04507425055 0.8583436608 -0.2534096837 -0.427365005 0.8573490381
-0.0051116799 -0.02730287239 0.8713541627 -0.3664989471 -0.6937347651 0.6197171807
0.01223276276 -0.07422498614 0.8608729839 0.3030413985 0.02290864661 0.9520253539
0.0159031935 -0.06718246639 0.8630276918 0.06648359448 -0.1119251177 0.9196745753
-0.1822848022 0.003637859132 0.8643926382 -0.2536424994 0.07558010519 0.9366736412
-0.1810143441 0.007932953537 0.8574290872 -0.290055871 -0.06766010076 0.9528381228
-0.2071172893 0.004855226725 0.8499141335 -0.2304471582 -0.2493344694 0.937197268
-0.196006 -0.046650704 0.8705243468 -0.4018014669 0.2715270221 0.8740082383
-0.1973975599 -0.04851284251 0.8600006104 -0.3661996424 0.328445971 0.8127343059
-0.1815548092 -0.04847218469 0.865223527 -0.08679201454 0.2079757899 0.9219403267
-0.2016272396 -0.04091229662 0.8623250127 -0.5724565983 0.3324945867 0.7480148673
-0.2345332652 -0.01071063243 0.8389837146 -0.04710822925 -0.2222325206 0.9689151645
-0.0576713793 -0.07736677676 0.891428709 -0.1691983193 -0.8579648137 0.4145177305
-0.06133802235 -0.07482776791 0.9015313983 -0.2254535407 -0.7927527428 0.5506702065
-0.05200311914 -0.07555963844 0.8701505065 -0.1121941283 -0.9453529119 -0.0716567263
-0.0524017103 -0.05460774153 0.8633860946 -0.1269911081 -0.7330399752 0.3132310808
-0.04586488008 -0.03862348571 0.859860599 -0.08088433743 -0.572389245 0.7455053926
-0.04171924666 -0.07277233154 0.8717212081 -0.0274358429 -0.9191076159 0.1890405715
-0.04962230474 -0.06413912773 0.8670843244 -0.09846175462 -0.830127418 0.190793246
-0.04424303025 -0.0465333499 0.8627659678 -0.06295326352 -0.6528272629 0.63002038
-0.06280712038 -0.05048441142 0.9099999666 -0.1509039998 -0.07653590292 0.9854844809
-0.06656089425 -0.05815441906 0.9065104723 -0.1630723774 -0.1162671447 0.9717763066
-0.07595089823 -0.06326088309 0.9060792327 -0.315613538 -0.3095764816 0.8746401668
-0.03108979575 -0.02473349683 0.8636116385 -0.2088542879 -0.6044723392 0.7668553591
-0.030410707 -0.01633129828 0.8712646961 -0.2579827011 -0.6842550039 0.6801894903
-0.0603409633 -0.0239373222 0.861045897 -0.03042390011 -0.4640520811 0.8831765056
-0.05471370742 -0.01839595102 0.8650157452 -0.1018745378 -0.5385788083 0.8355811834
-0.04778858274 -0.02207135223 0.8626949191 -0.118099682 -0.5492376685 0.8272256255
-0.1282712668 -0.008682265878 0.8327412009 -0.7917197347 -0.2280918658 0.0431605801
-0.1355708241 -0.008226182312 0.8369056582 -0.5276046991 -0.4730745256 -0.189898178
-0.1398232281 -0.01118092611 0.8427413702 -0.3948209882 -0.3399336934 0.07267037779
-0.1483293325 -0.02024974488 0.8557522297 -0.1171301976 0.005680192262 0.7278243303
-0.156585604 -0.005829198286 0.8641653061 -0.0887902528 0.1219668239 0.9876511693
-0.1571482867 -0.0138953682 0.8625524044 -0.004966530018 0.1615253538 0.9808403254
-0.1752077788 -0.00768723432 0.8589177728 -0.2935296595 0.160732165 0.9109341502
-0.1679434478 -0.01119954046 0.8602127433 -0.1831546277 0.165810436 0.9319469333
-0.1294533908 0.000151668879 0.8304018378 -0.7964119315 -0.4977277815 -0.1857931763
-0.1408725083 0.001725353533 0.8406762481 -0.5414275527 -0.3457614779 0.1124191582
-0.1343651116 0.005597239826 0.8298234344 -0.7535077333 -0.5513432622 -0.280489862
-0.1251282543 -0.00358170527 0.8377671242 -0.911513865 -0.3270710111 0.1052168906
-0.1244190857 0.004158733878 0.8386697769 -0.9005035758 -0.3192740381 0.2145399302
-0.1202058867 0.0002346108959 0.8474735022 -0.8954914212 -0.2391071767 0.3585910797
-0.1458766609 -0.02140241116 0.8698471785 0.2254613191 -0.0144009497 0.9522554278
-0.1316737682 -0.02960605919 0.8564577699 -0.1299808323 0.1127573103 0.8365122676
-0.123927094 -0.02903289348 0.8525806665 -0.1673768759 0.1705862284 0.8045991063
-0.1394292116 -0.03616546839 0.8663955331 0.2687515616 -0.03904470801 0.9600050449
-0.1362290382 -0.01898959838 0.8711778522 0.3067839742 -0.1925450861 0.9208365679
-0.1522262543 -0.03112901747 0.8720093966 0.1662901789 0.007687286474 0.9752919078
-0.1411238164 -0.0289975442 0.8704571724 0.2646066248 -0.08578324318 0.9491883516
-0.1635136753 -0.05960889906 0.8714017272 0.1508153528 0.3181908727 0.9339661002
-0.005933680572 -0.01242922992 0.8898643255 -0.3958488703 -0.7608668208 0.5117823482
-0.01337684225 -0.01590636373 0.90421772 -0.3096287549 -0.5484181643 0.6276726127
-0.0227480866 -0.02422852628 0.9106639624 -0.2365467995 -0.3164104819 0.7804763317
-0.02028368972 -0.01614694484 0.9070510864 -0.2653905749 -0.5035846829 0.6643230915
-0.01301511656 -0.02343993634 0.9075373411 -0.2861733437 -0.4159552157 0.7169380784
-0.01990051568 -0.04084672406 0.9174949527 -0.1934895515 -0.04459675401 0.9654676914
-0.02071082033 -0.03324076906 0.9132803082 -0.2281676084 -0.1482861191 0.883772552
-0.02011614665 -0.01400205959 0.8800019622 -0.3351330459 -0.7687154412 0.5433803797
-0.001955616986 -0.01832353324 0.8850723505 -0.4237969518 -0.7348582745 0.5284875631
-0.006889126264 -0.02223703638 0.8772204518 -0.3829330206 -0.7176061869 0.5794336796
-0.01512169745 -0.01961115934 0.8745971918 -0.3421130478 -0.7235335112 0.598967433
-0.1897752583 -0.02400762402 0.8597134352 -0.4096436203 0.2703338265 0.819755733
-0.191907227 -0.0168285165 0.8570481539 -0.5608693361 0.2783222795 0.7731621861
-0.1809214503 -0.01860518381 0.8612738252 -0.3164439201 0.2355971336 0.8576040268
-0.1768453717 -0.03376090154 0.8678001165 -0.104187645 0.08761914074 0.9738367796
-0.1827109307 -0.02556066215 0.8640117049 -0.242353186 0.224616304 0.8946313262
-0.2174919546 -0.02906965837 0.8437702656 -0.4204565287 0.1489213854 0.8808335662
-0.2327987552 -0.03842041641 0.838221252 -0.1347319782 0.225719735 0.9587674141
-0.2286207527 -0.04665373266 0.8421856165 -0.2778872252 0.3327628672 0.8968555331
-0.2002215385 0.008682969026 0.8533385992 -0.2397850603 -0.2242524326 0.9435963631
-0.1881394684 0.006155766081 0.8549506664 -0.3095675111 -0.1096978188 0.94247967
-0.1932581961 -0.009518348612 0.852299273 -0.4783397317 0.1316851079 0.8673849702
-0.1946863234 0.0002805050171 0.8511124849 -0.3160031438 -0.09601153433 0.9411255121
-0.2238230854 0.0007497177576 0.8450553417 -0.1466573626 -0.328891784 0.929507494
-0.1933600605 -0.03155994415 0.8570121527 -0.4077544808 0.2360333055 0.8238416314
-0.1756418496 -0.0412478596 0.8671228886 -0.01643078029 0.0812554732 0.977258265
-0.04166530445 0.0003262890677 0.888530314 -0.3119612336 -0.8011143804 0.5092020631
-0.03270556405 -0.002554851817 0.8901554942 -0.3140079677 -0.8098269105 0.4934176803
-0.05799683183 -1.088705994e-05 0.8746720552 -0.2133785635 -0.6574614048 0.7129397392
-0.05896411836 -0.006478173193 0.8710600734 -0.1637057662 -0.5962871313 0.773714602
-0.06640035659 -0.01118380763 0.8679900169 -0.1036238074 -0.5020934343 0.8577498198
-0.1442160904 -0.008056589402 0.8484196067 -0.3187144697 -0.2040516138 0.3246934414
-0.1510660946 -0.009084644727 0.8577544689 -0.1447786093 0.003730845172 0.7369448543
-0.1420987099 -0.01471145079 0.8669432998 0.2579888403 0.06485348195 0.946559906
-0.1491207927 -0.006279322784 0.866135478 0.01183150243 0.0306845624 0.9948052168
-0.1516785026 -0.01482489053 0.8682044148 0.06545790285 0.04240537807 0.9934247136
-0.1546966881 -0.02295241319 0.8698880076 0.09401222318 0.06049626693 0.9920859933
-0.1356684268 -0.0009555798606 0.8692361712 0.01686693355 -0.1736141592 0.9632408619
-0.1248130724 0.004165877588 0.8721650243 -0.01425339002 -0.3579456508 0.920399487
-0.1411799788 -0.006822654046 0.8679051995 0.0982433632 -0.08201006055 0.9767636061
-0.1306889057 -0.007362690289 0.8709979653 0.1783638448 -0.2634930909 0.9215314984
-0.1449890882 0.003737736959 0.8683709502 -0.02706107683 -0.05263690278 0.992048502
-0.1443351805 0.01168963127 0.8701648116 -0.0782764852 -0.08329021931 0.9866115451
-0.1298054159 0.01061016601 0.8713012934 -0.09607556462 -0.3678277433 0.9157699347
-0.1564137936 -0.04396856576 0.8669783473 0.1360575408 0.06523695588 0.9879693389
-0.1578152329 -0.03112608194 0.8647733331 0.08976160735 0.0889460966 0.9914406538
-0.1684469581 -0.04644934461 0.8680184484 0.08259547502 0.07376716286 0.9922721386
-0.1751659364 -0.01462166477 0.8684530258 -0.1071005687 0.2609686852 0.9587247968
-0.1806833744 -0.00908497069 0.8641036749 -0.3613310158 0.2607754469 0.8860164285
-0.1901408285 0.004574918654 0.863822937 -0.3150509894 0.005616594572 0.9065397382
-0.196866706 0.009967395104 0.8608256578 -0.252163142 -0.1423693746 0.9234008789
0.01711153984 -0.0434403345 0.8664944172 -0.4850230813 -0.5229822993 0.6829759479
-0.01075290423 -0.006729359739 0.895296216 -0.3483811617 -0.807728231 0.4743154645
-0.01497086883 -0.01171227545 0.8876133561 -0.3380405605 -0.7902062535 0.5095598102
-0.02548799478 -0.003921416122 0.8918498158 -0.3036672771 -0.8212163448 0.4820124805
-0.2185080051 -0.01516159717 0.8429296017 -0.2855046988 -0.1085872054 0.9490486979
-0.2254219204 -0.01506160852 0.8392561078 -0.2062111944 -0.1819720119 0.9604945779
-0.210564509 -0.002314909128 0.8475582004 -0.2460182458 -0.2494041622 0.935793221
-0.221137926 -0.05411445722 0.8562399745 -0.4797336161 0.4101497233 0.7740734816
-0.2084359974 -0.04760238528 0.8605522513 -0.5398059487 0.3645139933 0.7577873468
-0.2074650973 -0.03957798332 0.857842803 -0.5701656938 0.3509371877 0.7415884137
-0.1845002621 -0.03993279859 0.8635215759 -0.2027240694 0.1677075624 0.8911482096
-0.1930384487 -0.04107683897 0.8601818085 -0.3263742328 0.2420684546 0.8405536413
-0.225333035 -0.03897129372 0.8414126635 -0.3290258348 0.2684578896 0.8980249763
-0.2132121027 -0.04630156606 0.8533350229 -0.5308181643 0.3734182417 0.7606337667
-0.2273155749 -0.0361427851 0.8487102985 -0.3321895003 0.258289367 0.8379184008
-0.2361592948 -0.02923138067 0.84531039 -0.09071178734 0.1071357355 0.9199118614
-0.2268974781 -0.04342712834 0.8501672149 -0.3664634526 0.3385469317 0.8191918731
-0.2022940516 -0.00853453204 0.8481758237 -0.3481439948 -0.04823955521 0.9206421971
-0.2129482776 -0.02214162424 0.8466421962 -0.4151013494 0.08088189363 0.891073823
-0.2019794583 -0.03263568878 0.8559998274 -0.5944408178 0.3282086849 0.7337875366
-0.2024993002 -0.02401301824 0.8504426479 -0.5408581495 0.2509128153 0.7979549766
-0.04741951451 -0.007005954627 0.8728167415 -0.2255647182 -0.6645708084 0.7106295228
-0.02930733003 -0.007578322664 0.8841884136 -0.321606338 -0.7922480702 0.5184170008
-0.02744245715 -0.01287377346 0.8776451945 -0.301004976 -0.7492581606 0.5869467854
-0.2065301389 -0.01406792086 0.8547369838 -0.4467161894 0.08659270406 0.8005583882
-0.1994152665 -0.01788050681 0.8566505313 -0.5251155496 0.2241502106 0.7735602856
-0.2173155546 -0.002062669257 0.8539168835 -0.2592067719 -0.1908691227 0.8730807304
-0.2035244405 0.001920840004 0.8579904437 -0.3149752319 -0.08840595186 0.8698629737
-0.2087837458 0.01145274844 0.8569104671 -0.1969613582 -0.2857693136 0.9204919338
-0.1884545684 -0.01131847966 0.8627614379 -0.398416698 0.2170249969 0.8602535725
-0.1958801746 -0.005163359921 0.8595277667 -0.3977473974 0.08499655128 0.8445609212
-0.1887431145 -0.03350629658 0.8705865145 -0.3591420949 0.2528494895 0.8969448209
0.01185497083 -0.03746746108 0.8701652288 -0.431212008 -0.6738517284 0.5983827114
-0.2262487262 -0.03061003983 0.8389683962 -0.2989579737 0.123990871 0.9419153929
-0.2332417816 -0.02692611143 0.8374428749 -0.1120344847 0.02030583099 0.9847727418
-0.2130589336 -0.03398124129 0.8482031822 -0.5190622211 0.2938162982 0.8016566634
-0.2190711051 -0.03856917843 0.8473299146 -0.4933276176 0.312541604 0.80647856
-0.2403358668 -0.01961566694 0.8428900838 -0.003024756676 -0.04406110942 0.9646072984
-0.2319218814 -0.0210927967 0.8444282413 -0.1526328772 0.0008534448571 0.9231129885
-0.2234257758 -0.02178189158 0.8460422754 -0.2895586193 0.02108210139 0.8849664927
-0.0436123088 -0.003760107094 0.8800397515 -0.2922525108 -0.7507477403 0.5913050771
-0.04203433171 -0.01246207766 0.8713389635 -0.2215906382 -0.651683867 0.7229956985
0.007224205416 -0.02895169146 0.8804731965 -0.4752478302 -0.7194401026 0.5059744716
