# .PCD v0.7 - Point Cloud Data file format
VERSION 0.7
FIELDS x y z normal_x normal_y normal_z
SIZE 4 4 4 4 4 4
TYPE F F F F F F
COUNT 1 1 1 1 1 1
WIDTH 512
HEIGHT 1
VIEWPOINT 0 0 0 1 0 0 0
POINTS 512
DATA ascii
-0.14516498 -0.046076167 0.78557146 -0.1911523491 -0.599907279 0.7768989801
0.053457372 -0.2630128 0.77371436 0.2951905727 0.1881124675 0.9367370009
-0.098114774 -0.19765151 0.81100005 0.6473411322 0.1580703408 0.7456294298
-0.028547334 -0.12599321 0.73449999 -0.01263817865 0.6377878785 0.7701084018
0.023567041 -0.16818929 0.84600008 0.2190522701 0.07181482762 0.9730666876
-0.065409489 -0.092665978 0.81570601 -0.6554388404 -0.6973127723 0.2900945544
-0.16341671 -0.13393718 0.80224007 0.2519454658 0.366125524 0.895810008
-0.023044761 -0.241805 0.83179998 -0.4638274312 -0.8447859287 0.2668347955
0.070152327 -0.22818084 0.84233338 0.4016265273 0.1857427955 0.8967696428
-0.028856361 -0.18831852 0.78000003 0.2298616469 0.3340968788 0.9140803218
0.033935763 -0.20377101 0.79000032 -0.6019706726 -0.4945432842 0.6269435883
-0.07491757 -0.14512298 0.7814784 0.2289394438 0.1874967664 0.9552128911
-0.11446657 -0.095277973 0.78185749 0.09551558644 0.07176543772 0.9928376079
-0.18535043 -0.085471779 0.79266667 0.5086151958 0.2052894682 0.8361619711
-0.020084433 -0.13643563 0.79000002 -0.2971528172 -0.654878974 0.6948623657
0.025743317 -0.25890422 0.83900011 -0.1211938411 -0.4348326921 0.892318666
-0.0019021474 -0.26284218 0.78900003 0.2403747737 -0.8232520819 0.514272213
-0.10446694 -0.054386117 0.81508011 -0.5492106676 -0.7625031471 0.3419890702
-0.050916623 -0.23223408 0.78700006 -0.8198575974 -0.3906132579 0.4186343849
-0.016661635 -0.19819884 0.85100001 -0.05339360237 0.1161934063 0.9917904139
-0.1221329 -0.15299985 0.79690915 0.3610143661 0.4225647449 0.8313288689
0.010676631 -0.16809325 0.77733344 -0.6166800857 -0.4147585034 0.6690896749
0.023565423 -0.21597585 0.85303229 0.1124262884 0.1212021932 0.9862405062
-0.075288236 -0.19508009 0.77426004 0.3451187015 0.2390296906 0.9076110721
-0.042058583 -0.16533084 0.74628574 -0.0629549697 0.7655630708 0.6402732134
0.057920929 -0.1909494 0.85250002 -0.5861502886 -0.6150428057 0.5273994803
-0.074572831 -0.104482 0.78207535 -0.2249404937 -0.3239029348 0.9189606309
0.053438969 -0.20770423 0.81900012 -0.85501194 -0.462639451 0.2343486249
-0.052569509 -0.22779316 0.8445555 -0.2325684875 -0.4224703014 0.87603122
-0.15543573 -0.10460915 0.78761524 0.1157239676 0.3592990637 0.9260194898
-0.17724465 -0.051730167 0.79100001 0.3582588732 -0.2650142014 0.8952195644
0.036460634 -0.23509793 0.77668971 0.349524498 -0.08128857613 0.9333942533
-0.045707706 -0.1155149 0.79200017 -0.3864098787 -0.4569303393 0.8011879325
-0.086854734 -0.077401198 0.79366666 -0.6007546782 -0.6427476406 0.4753623009
-0.1018073 -0.12950997 0.79000002 0.2360851169 0.1646035016 0.9576896429
0.02916144 -0.26870185 0.79200006 0.100450322 -0.7426917553 0.6620563865
-0.051448412 -0.20258503 0.79520005 -0.5956043601 0.2326902151 0.7688372135
-0.045303877 -0.14384156 0.77397746 0.2864670753 -0.5486339331 0.7854536176
-0.15492533 -0.073550723 0.77785712 0.02704473026 0.1525105834 0.9879317284
-0.11539572 -0.065232195 0.78391063 -0.3656201065 -0.4044986367 0.8382737041
-0.025097208 -0.24568148 0.79757911 -0.3023796678 -0.4013100564 0.8645905256
-0.015478729 -0.15755893 0.76772434 -0.4768845439 -0.3607296646 0.8015330434
-0.0052407854 -0.22537176 0.85408169 -0.1567784101 -0.0197780095 0.9874357581
-0.12181897 -0.18213014 0.81900007 0.4849320948 0.4348000884 0.758808136
-0.096134447 -0.16603512 0.79243755 0.4158932567 0.3100789487 0.8549174666
-0.13536942 -0.12447093 0.79337507 0.2256365716 0.2450125068 0.9428982139
-0.055830508 -0.14158341 0.73879993 0.06421712041 0.5628973842 0.8240283728
-0.053223748 -0.21121092 0.76850003 -0.2958290875 0.2662546039 0.9173841476
-0.067117915 -0.17121059 0.78490919 0.0009565208456 -0.1749666184 0.9845739007
-0.079171762 -0.069815099 0.82100004 -0.678683579 -0.6661775708 0.309186101
-0.0048658983 -0.24792667 0.81372732 -0.1225334704 -0.9648922086 0.2323113233
0.0012393144 -0.24943943 0.84766674 -0.3444636762 -0.6864917278 0.6403701305
0.031841118 -0.17872719 0.79533339 -0.6046975255 -0.3162650466 0.7309701443
0.03815604 -0.19078019 0.83700001 0.2325059474 -0.120930545 0.9650475383
-0.058789674 -0.17575386 0.76138461 0.7900949717 -0.3678966761 0.4903080165
-0.12485433 -0.046224542 0.80361533 -0.4983737767 -0.7767720819 0.3850307465
0.052962836 -0.21608524 0.78105879 -0.1660726368 -0.575019002 0.801107347
0.03423734 -0.23891708 0.84900004 0.1788572967 -0.2604450583 0.948777318
-0.18024267 -0.107304 0.80000001 0.3903040588 0.369893223 0.8431143165
-0.13520038 -0.084687375 0.78409803 -0.02258211374 0.231772393 0.972507894
-0.14361364 -0.15296632 0.806077 0.3082626462 0.4498713315 0.8382063508
0.017151108 -0.24875242 0.79333335 0.3867079318 -0.7587221265 0.5242115259
0.0066211345 -0.19760825 0.85099989 -0.006529024336 0.1859347224 0.9825404286
-0.065033443 -0.12543567 0.77745843 -0.1241997182 -0.2394583225 0.9629299641
-0.027577126 -0.15134633 0.7384001 -0.1074626297 0.5569723845 0.8235493302
-0.086254075 -0.18481295 0.79495239 0.8271300197 -0.07786136866 0.5565909743
-0.025243992 -0.2260447 0.84819061 -0.4054363072 -0.2368898094 0.8828955889
-0.03704166 -0.22858913 0.80192316 -0.5901783109 -0.2971120775 0.7506090999
-0.095180444 -0.10476681 0.78108144 -0.02526568994 -0.08069310337 0.9964187145
0.014347233 -0.26236519 0.77633333 0.2299241871 0.2205536664 0.9478875995
0.014994166 -0.23540698 0.85516697 0.07971170545 -0.1158995107 0.99005723
-0.071063474 -0.21043068 0.78700006 -0.4028278887 -0.8575047851 0.3200237453
-0.036345333 -0.14514735 0.7553823 0.9097541571 -0.2942790985 0.2928262353
-0.11507124 -0.11507124 0.78597963 0.1852502525 0.2002596706 0.962069869
-0.045560062 -0.17766476 0.78247058 0.02698657475 0.27430439 0.9612641931
0.062480442 -0.20626327 0.83636838 -0.8569393158 -0.3910121918 0.3358042538
-0.13457026 -0.065081179 0.78004271 -0.2263256609 -0.1618420631 0.9605122805
0.034361538 -0.25448987 0.77632594 0.2361143529 0.255327791 0.9375807643
-0.0032763954 -0.15312205 0.78222239 -0.4983685017 -0.6288138628 0.5968433022
-0.058504641 -0.098742463 0.79133338 -0.495704025 -0.6399908662 0.5871023536
-0.13132051 -0.16624559 0.81300008 0.3882536888 0.5054781437 0.7705523372
-0.13283707 -0.1033165 0.78865206 0.1294066161 0.2266830057 0.9653334618
0.047134984 -0.19727291 0.8024286 -0.7852985263 -0.5450339913 0.2936735153
-0.1743498 -0.074625179 0.78160471 0.414227277 0.07953570038 0.9066916704
-0.091776691 -0.20136003 0.78125006 0.7967851162 0.2166380137 0.5640934706
-0.16290489 -0.056640644 0.77749997 0.194998607 -0.3090087473 0.9308539629
-0.086151689 -0.12471627 0.78108132 0.2633491457 0.06543817371 0.9624785781
0.016185166 -0.18331046 0.78533334 -0.6217824221 -0.2534376383 0.741050601
0.057505969 -0.22337846 0.82683343 0.2584108412 0.5490536094 0.7948358059
-0.14140677 -0.037193898 0.80049998 -0.2868567109 -0.7902579904 0.5414845943
-0.094999 -0.065637983 0.80512494 -0.5883193612 -0.71279037 0.3818510473
-0.042133477 -0.24928454 0.801 -0.6373848319 -0.5305966735 0.5587555766
-0.080142237 -0.082979128 0.80900002 -0.6977636814 -0.6480149031 0.3052908182
-0.16136803 -0.040861432 0.79000002 0.1083243415 -0.649230063 0.7528387308
-0.015529524 -0.26239887 0.80000007 -0.158571437 -0.8248481154 0.5426607728
0.0071146651 -0.16295783 0.84652948 0.148320362 0.1366193742 0.9794570804
-0.11750548 -0.13632022 0.79000002 0.2412937731 0.1996275634 0.9496979117
-0.045686606 -0.12869467 0.73400003 0.05041445792 0.5858955979 0.8088168502
-0.11248773 -0.18960021 0.80699998 0.4865965843 0.4112868309 0.7707573771
-0.0035184531 -0.17156105 0.76877785 -0.4242898822 0.1033209339 0.8996126056
-0.094861902 -0.14463463 0.7875334 0.275411576 0.1605107039 0.9478316307
-0.14555143 -0.13579553 0.80013615 0.2200891376 0.3346148729 0.9162934422
-0.055738103 -0.19489218 0.76757145 -0.6340383887 0.07981389016 0.7691716552
-0.1051869 -0.17540939 0.80260962 0.4501845241 0.3607527912 0.8168178201
-0.072808921 -0.17932567 0.76900005 0.7090449333 -0.1556234509 0.6877765656
-0.011812206 -0.24118116 0.85280001 -0.4056048691 -0.4870084226 0.7735033631
0.00069958001 -0.24975006 0.79800004 0.1927788258 -0.8685881495 0.4564985633
-0.17084743 -0.10029505 0.78900003 0.3287376165 0.3791302145 0.8649808168
-0.10927591 -0.058948237 0.79733342 -0.5242776275 -0.7176011801 0.458455652
-0.037849646 -0.2268492 0.83833337 -0.2325684875 -0.4224703014 0.87603122
-0.16902134 -0.11922666 0.80000001 0.2899723351 0.3798409998 0.878428638
-0.034736942 -0.20255363 0.78381491 -0.8677592874 0.4965671897 0.02036812529
0.037707537 -0.21930237 0.77640009 0.3335964978 -0.3593435884 0.8715420365
0.042852342 -0.1780684 0.84516674 0.1309928447 -0.08564116806 0.9876773357
-0.018059624 -0.17706679 0.77733332 -0.1916599572 0.5613203049 0.8051000237
-0.094901711 -0.08489272 0.78254092 -0.337690562 -0.4048664868 0.8497341871
-0.062359929 -0.22225283 0.78166676 -0.8290041089 -0.4255003333 0.3629071414
-0.055672575 -0.18630262 0.79049999 -0.3618089557 0.1461819708 0.920719862
-0.12865433 -0.049109988 0.78900003 -0.3535327017 -0.6431155205 0.6792768836
0.05082475 -0.2310832 0.77300006 0.1490931362 -0.1656775326 0.9748446941
0.022254974 -0.25153169 0.85189998 0.109607704 -0.3557363749 0.9281367064
-0.035838369 -0.13625701 0.78320009 -0.2729311883 -0.6071006656 0.7462823391
-0.070240289 -0.081101313 0.82600003 -0.6880505681 -0.673437953 0.2703104317
-0.029889949 -0.15874885 0.75766665 -0.278108567 -0.9118144512 0.3020761609
0.021469567 -0.16898626 0.79000002 -0.616456151 -0.2665000856 0.7409180403
-0.058920328 -0.15894625 0.78149998 0.6166654825 -0.166068837 0.7695094347
-0.072179481 -0.092546403 0.79305887 -0.5818185806 -0.6745030284 0.4544587731
-0.078059055 -0.18219104 0.78275007 0.7055894136 -0.3566560745 0.6123235226
-0.021329299 -0.24102108 0.81100005 -0.4656501412 -0.837421298 0.2861739397
0.063631095 -0.24121046 0.84400004 0.3290747404 0.1582641602 0.9309470057
-0.13180001 -0.14205234 0.79733336 0.310187012 0.3549545407 0.8819247484
0.0051314365 -0.21536991 0.85348839 -0.005816527177 0.1462869644 0.9892250896
-0.08492697 -0.15495035 0.78611541 0.2933134437 0.1919677407 0.9365444779
0.0083107995 -0.15652007 0.79000002 -0.5811474323 -0.5565466285 0.593736887
-0.10489316 -0.074864946 0.785151 -0.3630597293 -0.4496035874 0.8161153197
-0.016011439 -0.17012155 0.76100004 -0.2620183825 0.5852361917 0.7673622966
-0.14688805 -0.058221981 0.77799994 -0.07498855889 -0.3112006485 0.9473810792
-0.014174821 -0.21486051 0.85099989 -0.1519196928 0.03643875569 0.9877209067
-0.11608929 -0.046372313 0.81491667 -0.5161522031 -0.7781155109 0.3579429686
-0.15480606 -0.12479814 0.79579604 0.1908925176 0.3621868491 0.9123490453
0.05435051 -0.19481054 0.83499992 -0.6240561008 -0.5816728473 0.5217381716
-0.0069936486 -0.24866372 0.83627284 -0.4901687205 -0.805468142 0.3331001401
-0.11481345 -0.16514285 0.80253488 0.4110969305 0.4671208262 0.7828137875
-0.084929012 -0.095043235 0.78299987 -0.3530140817 -0.3601109385 0.8635399342
-0.14526187 -0.11468354 0.79281616 0.1001688242 0.3104332387 0.9453027844
-0.021756304 -0.14665824 0.77369237 -0.3286865056 -0.7236235738 0.6069054008
-0.10538257 -0.15566179 0.79247379 0.2903499901 0.2945592403 0.9104568958
-0.054293804 -0.13376486 0.78019041 -0.1535500884 -0.2669923902 0.9513871074
-0.028817436 -0.12654614 0.79400003 -0.300919503 -0.5707145929 0.7640237808
-0.14464991 -0.094502926 0.78619981 0.004755455069 0.3045567274 0.9524823427
-0.18221515 -0.064879946 0.78730774 0.4620512128 -0.0352304168 0.8861532211
0.02861703 -0.18124118 0.83700001 0.269890666 0.08621349186 0.9590235949
-0.1652196 -0.084477939 0.78238004 0.2444167286 0.2586806417 0.9345291853
-0.046330392 -0.15303513 0.76421434 0.4728409648 -0.674185276 0.5673584938
-0.062872596 -0.203692 0.77463162 0.1271406114 0.3188971877 0.9392229915
-0.12525739 -0.074608572 0.78075516 -0.2081252486 -0.1079706848 0.9721245766
-0.0071831141 -0.18949588 0.84766674 -0.01533629652 0.1373017728 0.9904105067
-0.15404482 -0.14401919 0.80616122 0.2676272392 0.4186801314 0.8678033352
-0.02273635 -0.13576849 0.74100006 -0.2173962444 0.6668800712 0.7127481103
-0.0051544942 -0.20536937 0.85113961 -0.04609814659 0.1501277387 0.9875913262
-0.047892708 -0.21272396 0.80260015 -0.5324166417 -0.01342898328 0.8463758826
-0.031487819 -0.17574067 0.77799994 0.2839008272 0.4398232996 0.8520303965
0.050557368 -0.20707743 0.79000002 -0.6851297617 -0.5688412786 0.454990983
0.047990363 -0.2534377 0.78042859 0.367072463 0.164296627 0.9155678153
0.031715825 -0.22649102 0.85124993 0.1650160849 0.007051419932 0.9862656593
0.027129294 -0.24636871 0.78280789 0.2809992135 0.04563679546 0.9586223364
-0.04423533 -0.19445227 0.78585023 -0.4164975286 0.640865624 0.6448419094
0.025821924 -0.19412486 0.79040045 -0.5674824715 -0.3423811495 0.748824954
0.020095831 -0.20467974 0.84900004 0.1967929602 0.2781159878 0.9401723146
-0.026608879 -0.20565927 0.85100001 -0.3475115299 0.08879591525 0.9334618449
-0.12298249 -0.12402002 0.78899986 0.2382548153 0.1967936605 0.9510556459
-0.055958819 -0.11625604 0.78531259 -0.3391757905 -0.4027370214 0.8501545191
-0.10664587 -0.14283282 0.79023528 0.2208229005 0.2010795772 0.9543606639
-0.095468014 -0.18563288 0.80286837 0.6348691583 0.1915599257 0.7484958172
0.011269988 -0.25217623 0.80350006 0.2179273218 -0.8718220592 0.4386729896
-0.18589412 -0.096681982 0.80072743 0.4388267696 0.3446325958 0.8298550844
-0.014260719 -0.14428924 0.78297842 -0.3721314669 -0.6997252703 0.6098382473
-0.066557303 -0.094021514 0.80337507 -0.5983939767 -0.7298147678 0.3305979967
0.036423866 -0.26419556 0.78404546 0.3269269168 0.2872703969 0.9003302455
-0.045303669 -0.12539861 0.78590912 -0.3420891166 -0.4903084338 0.8016062975
-0.065197326 -0.14419112 0.77545011 0.2155559957 0.009523489513 0.9764450192
-0.1144774 -0.053306591 0.80576485 -0.5186659098 -0.7693833113 0.3728740215
-0.097577482 -0.068638518 0.79444444 -0.5681107044 -0.6684592962 0.4800129533
-0.015222002 -0.24702375 0.80355555 -0.3043524623 -0.783067584 0.5423787832
-0.053708147 -0.15387289 0.77291304 0.4764630795 -0.5188826919 0.709749043
0.015386897 -0.25646681 0.84467572 -0.1214438602 -0.6121281385 0.7813773155
0.013635901 -0.2526224 0.78148419 0.3687448204 -0.7280919552 0.5778489709
-0.043931331 -0.22432092 0.79450017 -0.7489859462 -0.1565080285 0.6438363791
0.043890137 -0.24505782 0.77468759 0.1583989561 0.02451272495 0.9870708585
-0.076134272 -0.13435689 0.78018767 0.1994639337 0.06304287165 0.9778751135
-0.12165006 -0.1712548 0.8083334 0.4687225521 0.4506372213 0.759753406
-0.015187198 -0.24332356 0.82460004 -0.4286073148 -0.8935953379 0.1333536357
0.061745863 -0.19604823 0.84392321 -0.7316537499 -0.5126135349 0.4493441582
0.025005931 -0.26203972 0.77612501 0.1767624021 0.2247125953 0.95825845
0.041275218 -0.18958618 0.79800004 -0.7740828991 -0.5299873352 0.3462788761
-0.13470858 -0.054663856 0.78213334 -0.2322048545 -0.4564442933 0.8589176536
-0.065393195 -0.19078633 0.76900005 0.3505005538 0.2990448475 0.8875367641
0.051851325 -0.18667388 0.84500003 -0.5506178737 -0.6524708271 0.5206743479
-0.12448928 -0.09487991 0.78503913 0.1105729714 0.1791184247 0.9775940776
-0.088269815 -0.19322258 0.80200005 0.742859602 0.07079143822 0.6656937599
-0.054571334 -0.16665863 0.75830317 0.6996809244 -0.4948913455 0.5152952075
0.045934699 -0.19496025 0.82877803 -0.6455133557 -0.6729589105 0.3611631393
-0.087747134 -0.072888255 0.80721432 -0.6619532108 -0.6694376469 0.337151587
-0.074721277 -0.11479472 0.78064793 -0.05847800523 -0.2343583554 0.970389843
-0.14483707 -0.074597612 0.78012955 -0.06105267629 0.1483056396 0.9870552421
-0.019127639 -0.2389013 0.84580004 -0.4843715727 -0.5928139687 0.6433939338
-0.11466112 -0.084941439 0.78128785 -0.08637081832 -0.08586231619 0.9925561547
-0.1550808 -0.085005887 0.78106892 0.050852146 0.2938770652 0.9544895887
-0.0022547136 -0.16195913 0.77191669 -0.5118576288 -0.4597431719 0.7256982923
0.03648518 -0.2145818 0.78532517 0.03638691083 -0.5102209449 0.8592733145
-0.12494157 -0.084475182 0.78315139 -0.05381090939 0.1047303751 0.9930437803
-0.033028074 -0.15682532 0.74495655 0.05727409571 0.6864779592 0.7248914838
0.0052425032 -0.22545692 0.8544082 -0.004353912547 0.03052688949 0.9995244741
-0.1748268 -0.08460211 0.78548795 0.3870234787 0.2807305753 0.8782956004
-0.05730116 -0.18561119 0.76295829 -0.2481250316 0.4451141953 0.8604111075
-0.065744288 -0.10566512 0.78675508 -0.354031682 -0.4277600348 0.8316747546
-0.10519587 -0.1148198 0.78426546 0.1919592321 0.1827254146 0.9642422199
-0.084731378 -0.11482397 0.78014261 0.1070358455 -0.0875005573 0.9903973937
-0.075135529 -0.16544405 0.78635734 0.4542014897 -0.03767574206 0.8901019692
-0.084865354 -0.10471127 0.78067833 -0.1315714121 -0.2424203157 0.9612082839
-0.088032283 -0.17569856 0.7914117 0.582646966 0.04873802513 0.8112626672
-0.026325457 -0.23698026 0.80342317 -0.5574985147 -0.6226389408 0.549104929
-0.10498178 -0.10498303 0.7826736 0.1302057654 0.1128560901 0.9850431085
-0.10476177 -0.084901989 0.78103542 -0.2011642903 -0.2469361275 0.9479216933
-0.145215 -0.084298626 0.78196347 -0.05224796385 0.2663995028 0.9624455571
-0.084706157 -0.14509964 0.78579181 0.3171932399 0.148491174 0.9366636872
-0.075158887 -0.15501235 0.78495765 0.3288032413 0.1066081896 0.9383619428
-0.11492611 -0.10529325 0.78500003 0.1681990325 0.1608592719 0.9725396633
0.014998679 -0.24522486 0.85542887 0.06530465186 -0.3486116827 0.9349893928
-0.1548968 -0.095116727 0.7852791 0.06770034134 0.3340996802 0.9401032329
-0.13671501 -0.043174956 0.79433346 -0.3522854447 -0.6993977427 0.6218824387
-0.074936166 -0.1249035 0.77799994 0.06059844047 -0.1188387871 0.9910626411
-0.032480501 -0.1364181 0.74100012 -0.01263817865 0.6377878785 0.7701084018
-0.094895855 -0.13465615 0.78540486 0.2560048699 0.1585062891 0.953591764
-0.035078943 -0.12277629 0.74100006 0.2079351395 0.7533909082 0.6238309741
0.024720186 -0.23523594 0.85454786 0.1189722866 -0.1447050422 0.982296288
-0.11775036 -0.19098534 0.81900007 0.4772540629 0.4299859405 0.7663815618
-0.014961319 -0.22520022 0.85342872 -0.2799146473 -0.09205613285 0.9556010962
0.014973466 -0.22535068 0.85399997 0.07568667829 0.06747432053 0.9948461056
-0.10476422 -0.09517809 0.78106105 -0.05421044677 -0.09458734095 0.9940394759
-0.18160801 -0.07493706 0.78806663 0.5121824145 0.05306927487 0.8572355509
-0.034654845 -0.24415343 0.79693037 -0.4786655307 -0.3052216172 0.8232369423
-0.11516048 -0.074720092 0.7819463 -0.2724223137 -0.2638953626 0.9252812266
-0.023618801 -0.21564561 0.84900033 -0.3606574535 -0.02465111203 0.9323725104
-0.13560042 -0.11473752 0.79217029 0.1648698598 0.2461018264 0.9551187158
0.0052419668 -0.23513664 0.85419053 -0.1466640681 -0.245815888 0.9581566453
-0.08560276 -0.086143084 0.78669584 -0.4684791565 -0.5185850859 0.7152599692
-0.042762049 -0.21897116 0.84100002 -0.1336553246 -0.3592980802 0.923602283
-0.13491923 -0.074653111 0.78122449 -0.1476068199 0.02058299631 0.9888319373
-0.081749164 -0.18820654 0.77225006 0.5500363111 0.0006260457449 0.8351405263
-0.095218778 -0.11439934 0.78138775 0.1733601987 0.08243253827 0.9814026356
-0.064869113 -0.11480547 0.78196305 -0.2891091406 -0.3820330203 0.8777623177
-0.14518981 -0.12483256 0.79565948 0.1896068752 0.3089235127 0.9319954515
-0.095167473 -0.095167667 0.78097939 -0.1339873075 -0.168743819 0.9765105844
0.035501048 -0.1945456 0.79221839 -0.6473557353 -0.438821733 0.6231902242
-0.15476604 -0.11476795 0.79195756 0.1517425328 0.3639748693 0.9189649224
-0.044793453 -0.1340176 0.78085393 -0.2557404339 -0.482748121 0.8375864625
-0.12505408 -0.064893052 0.78017998 -0.2635985613 -0.2112357616 0.9412201047
-0.15480076 -0.052435335 0.78016663 0.0560718216 -0.4186750352 0.9064034224
-0.094889522 -0.12456885 0.78575009 0.2379247695 0.1440245956 0.9605460763
0.031943478 -0.25370207 0.84395647 0.1642601043 -0.3126048148 0.9355729818
-0.005067314 -0.21527003 0.85356826 -0.07075384259 0.1227409765 0.989913404
-0.084424719 -0.16480683 0.78464735 0.388995409 0.1211470813 0.9132392406
-0.16426413 -0.072105952 0.77799994 0.2467206568 0.09732740372 0.9641868472
-0.061264474 -0.21242884 0.77771431 -0.284704715 0.09230533242 0.9541608691
-0.0065250299 -0.25012615 0.82700002 -0.4257456362 -0.9031193256 0.0558219403
0.0057305829 -0.25595254 0.78526217 0.3508269191 -0.7938714623 0.4966774881
-0.093920715 -0.15442178 0.78864443 0.3154934943 0.1954282224 0.9285858274
-0.021117145 -0.25535685 0.79759997 -0.1904378235 -0.5771342516 0.794134438
-0.043321203 -0.23584864 0.79095656 -0.7491724491 -0.3818533719 0.5412287712
-0.0646125 -0.13491961 0.7751922 0.03608518839 -0.09265756607 0.9950439334
-0.086448774 -0.067270197 0.81582367 -0.6615368724 -0.6765280962 0.3235408664
-0.12452561 -0.042599164 0.8154 -0.4887447357 -0.7884979248 0.3733626008
-0.054455284 -0.12464332 0.78131372 -0.295384109 -0.4521789849 0.8415951133
-0.096222065 -0.076895528 0.78739995 -0.4246252477 -0.5223882794 0.7394618988
-0.13449687 -0.094494537 0.78675503 0.05161808804 0.2523455024 0.9662594199
0.064364709 -0.21523541 0.83604783 -0.9269919395 -0.2946437001 0.2321012467
0.056779947 -0.22438252 0.78033334 0.09725465626 -0.3550001085 0.9297937751
-0.10624602 -0.057773434 0.80586964 -0.5390539765 -0.7429581881 0.396779418
-0.04616585 -0.16404562 0.75433338 0.04350947961 0.3682990074 0.9286887646
-0.10398576 -0.16387017 0.7964617 0.3981202245 0.377292335 0.8361523747
-0.022245198 -0.14065568 0.78074998 -0.2948482633 -0.6732597947 0.6780750155
-0.14445868 -0.10580118 0.79129732 0.06573484093 0.2962583601 0.95284307
-0.0052423002 -0.23518932 0.85438102 -0.2768486142 -0.2907264829 0.9158782363
-0.12387192 -0.11471418 0.78785723 0.2251991481 0.1954780519 0.9545018077
-0.11758946 -0.057212144 0.78731567 -0.4333074391 -0.6232169271 0.6510340571
-0.0052426187 -0.24861802 0.80478269 -0.08419991285 -0.9120726585 0.4012901783
-0.068532191 -0.17329736 0.77400005 0.6635937691 -0.5072053671 0.5498963594
-0.10404911 -0.19282594 0.80643743 0.5665777922 0.3364787698 0.7521778941
-0.16518116 -0.094308734 0.78564143 0.2118072361 0.3536852002 0.9110677838
-0.1552957 -0.064708911 0.77696449 0.05035355687 -0.08635599911 0.9949910641
-0.13505596 -0.15533023 0.80595344 0.3392744064 0.4629490674 0.8188840151
-0.08497519 -0.13505037 0.78062254 0.3074089289 0.1145260558 0.9446605444
-0.1779485 -0.0958483 0.7918666 0.3798788488 0.3619479835 0.8512847424
-0.096176758 -0.057032809 0.81666684 -0.5765714049 -0.7392864227 0.3478807211
0.028006196 -0.18541358 0.79100013 -0.5893349648 -0.317328155 0.7429583669
-0.11502107 -0.14552826 0.79085016 0.2590960562 0.2621695995 0.9295893312
0.0086418036 -0.2516683 0.85185719 -0.1148836538 -0.5579878092 0.8218584657
0.015078926 -0.17508166 0.78243923 -0.6338506341 -0.3094252348 0.7088648677
0.065419845 -0.22473328 0.83577788 0.4347467124 0.2018832117 0.8776323199
0.044822726 -0.2247043 0.77313316 0.2987251878 -0.2756419182 0.9136655927
-0.14513522 -0.1449559 0.80294865 0.2578961849 0.4200181663 0.8701001406
-0.090556741 -0.1940525 0.7766667 0.7904294729 -0.03860336915 0.6113354564
-0.17275593 -0.11196788 0.79700005 0.3015871346 0.3720220029 0.8778637648
-0.17482224 -0.065041468 0.78280443 0.4072085619 -0.08205617964 0.9096416831
0.057413779 -0.21529211 0.82374996 -0.914411962 -0.3440532088 0.2132560015
-0.023813773 -0.15666935 0.76562178 -0.4383589029 -0.610678494 0.6594794989
0.045011353 -0.26273626 0.77551526 0.2472927868 0.2286270559 0.9415816069
-0.036120381 -0.23575717 0.79580492 -0.5740025043 -0.3923358917 0.7187445164
-0.12487567 -0.10510251 0.78596139 0.1719411314 0.1850673109 0.9675672054
-0.12428982 -0.1449452 0.79433352 0.3202285767 0.3050578833 0.8968797922
0.015031895 -0.21543607 0.85383785 0.04831735045 0.1368135214 0.9894177318
0.035141356 -0.17452064 0.84390008 0.2052886486 0.05749274045 0.977011323
-0.075372338 -0.17424099 0.78107333 0.5793994069 -0.3692850471 0.7265844345
-0.044973876 -0.23076759 0.84100002 -0.2325684875 -0.4224703014 0.87603122
-0.083891734 -0.20120378 0.77800006 0.648039341 0.4358102083 0.6245914698
-0.16468333 -0.1146891 0.79424399 0.2501825988 0.3715519905 0.8940681219
0.035514627 -0.24541524 0.77613354 0.2715342939 0.05640923604 0.9607742429
-0.037493456 -0.15704553 0.7610001 0.03741870821 -0.7983148694 0.6010766625
-0.015866423 -0.24417408 0.83558339 -0.5490612984 -0.7928577662 0.2644016743
0.044674173 -0.21350928 0.78354019 -0.2338664532 -0.5916930437 0.7714958191
0.014911739 -0.16603321 0.84552968 0.1303088665 0.1466391981 0.9805694818
-0.074088968 -0.084316753 0.81462502 -0.6997699738 -0.6471967697 0.3024206758
-0.030965619 -0.23076759 0.84100002 -0.2674257755 -0.5843774676 0.7661504149
-0.04910912 -0.21649158 0.77342862 -0.5541955829 0.1921550632 0.8099035025
-0.13397789 -0.13427162 0.7955758 0.2758842409 0.2936310172 0.9152424335
-0.037605874 -0.12742788 0.78814298 -0.328925699 -0.5192804933 0.7887684107
-0.0045520356 -0.25506946 0.79447275 0.1375371814 -0.8331370354 0.5356922746
-0.15527315 -0.13502033 0.80161536 0.2206782401 0.3491031528 0.9107294083
-0.055245779 -0.22030108 0.77800006 -0.8581284881 -0.2933118045 0.4214067459
-0.034310099 -0.25179824 0.80055565 -0.3784314692 -0.28860569 0.8794864416
-0.01444133 -0.24440818 0.81395239 -0.3459797204 -0.9090362191 0.232273981
0.014242008 -0.1654917 0.78426856 -0.623649478 -0.408670336 0.6663706899
-0.075963229 -0.076046772 0.81675762 -0.696434319 -0.6545159221 0.2942587137
-0.16697007 -0.1072311 0.79083341 0.2815924883 0.3852913082 0.8787811399
0.0078689605 -0.16113791 0.78049999 -0.6002267003 -0.4565631449 0.6567175984
-0.049545694 -0.10955878 0.79600006 -0.3978679478 -0.4947269559 0.7726230025
-0.15503357 -0.046180371 0.78535581 0.01031922456 -0.6108288765 0.7916953564
-0.12526844 -0.055746168 0.78514808 -0.3504236937 -0.5466710925 0.7604958415
-0.10728113 -0.067880206 0.78849995 -0.4261250496 -0.5471463799 0.7204501033
-0.076636449 -0.085073486 0.80200005 -0.6633241177 -0.6770604849 0.3187321723
-0.10985247 -0.049541309 0.81900007 -0.5357840061 -0.7695177197 0.3475312889
-0.066717133 -0.20641105 0.78147614 -0.1613949686 0.08403214812 0.9833058119
-0.11404643 -0.17372172 0.80716676 0.4973686337 0.4156016409 0.7615115047
-0.014441266 -0.20596123 0.85099989 -0.0834184438 0.1141512021 0.989955008
-0.030944347 -0.144306 0.73640007 -0.07548737526 0.5381259918 0.839477241
-0.12514402 -0.13539426 0.7923556 0.2795720696 0.2402739674 0.9295740128
-0.077039637 -0.086135775 0.79291672 -0.5858873725 -0.6768274307 0.4456911683
0.044122584 -0.18592143 0.83465016 -0.5308021903 -0.7291258574 0.4320006371
-0.047468167 -0.22119507 0.801 -0.7077653408 -0.179460153 0.6832731962
-0.14310068 -0.066763751 0.77999997 -0.1365412623 -0.07491918653 0.9877973199
-0.067522623 -0.15141436 0.77800006 0.3805974126 -0.06546931714 0.9224203825
0.046924751 -0.236274 0.76833332 0.2091466635 -0.05191166326 0.9765053988
-0.13269214 -0.042786483 0.80120832 -0.4292138219 -0.7987123132 0.4217038155
0.0041052233 -0.24865355 0.80511785 0.1812945455 -0.912774384 0.3660261929
-0.083276391 -0.074718378 0.81353849 -0.6900191903 -0.6461439133 0.3261465132
-0.024799664 -0.16481851 0.75817972 -0.08066732436 0.8396660686 0.5370788574
0.0054299799 -0.17268196 0.77353579 -0.474081099 0.01367009617 0.8803750873
-0.043497611 -0.24302827 0.79431587 -0.5971038938 -0.3513767719 0.7211111784
-0.069860689 -0.098911673 0.78900003 -0.386254847 -0.5008334517 0.7745792866
-0.11517885 -0.12469311 0.78800005 0.1876343787 0.1843057126 0.9647926092
-0.052267894 -0.19522418 0.79247046 -0.4328400493 0.603870213 0.6693207622
-0.062775254 -0.16895361 0.76174998 0.7197325826 -0.4448934793 0.5329679251
-0.12403414 -0.16416289 0.80587995 0.3954476714 0.5032669902 0.7683381438
-0.16234542 -0.12307875 0.79727274 0.2375339568 0.3807982206 0.8936276436
-0.053812318 -0.13503611 0.73493552 0.2373737395 0.5945459008 0.7682244778
0.068566732 -0.21086112 0.84100002 -0.8652366996 -0.3508417606 0.3581557572
0.035759173 -0.18347998 0.83473331 0.2399933189 0.02509558946 0.9704501033
-0.013158766 -0.14105274 0.79000002 -0.400372386 -0.6994971633 0.5919507742
-0.055518419 -0.10581086 0.79268426 -0.4186676741 -0.6065036058 0.6759221554
-0.061573036 -0.14615558 0.7414 0.07570411265 0.6884803176 0.7212931514
-0.046823703 -0.22613059 0.78448385 -0.8037186265 -0.2057319432 0.5583106279
0.064415798 -0.23222271 0.83754545 0.2897029817 0.2347550392 0.9278805256
0.026017109 -0.17515653 0.7916553 -0.6059616208 -0.2704881728 0.7480953336
0.057476237 -0.20179331 0.83249998 -0.7812471986 -0.495829463 0.3792175651
-0.10881659 -0.13246152 0.78860009 0.2107057869 0.1734225154 0.9620435238
0.0053196135 -0.20522679 0.85100025 -0.02002892271 0.1582820863 0.987190783
0.051747661 -0.18790057 0.83724999 -0.5722897053 -0.6551713347 0.4931886196
-0.094407246 -0.17461526 0.79558837 0.4932339489 0.3606986403 0.7915912867
-0.11484518 -0.154387 0.79494739 0.3321605325 0.3729931414 0.8663402796
0.0052406127 -0.24508117 0.85373074 -0.15126881 -0.4599110782 0.8749854565
0.034441475 -0.18589221 0.79519993 -0.6549949646 -0.3796332479 0.6533454061
-0.1149451 -0.18487912 0.81543249 0.4877746701 0.4127713144 0.7692176104
-0.010257 -0.1511198 0.78000003 -0.4662424922 -0.6317808032 0.6192502975
-0.082917556 -0.17442657 0.78596306 0.7031021714 -0.1832111031 0.6870815158
-0.0055158245 -0.24719098 0.84507406 -0.4475804567 -0.6808838844 0.5797144771
0.044836238 -0.2024051 0.79168016 -0.6453547478 -0.5538675189 0.526068449
0.033054277 -0.26241747 0.77750009 0.2543891668 0.2435781062 0.9359251261
-0.035072848 -0.19512513 0.78242236 0.07603682578 0.4226060808 0.9031181931
0.049178369 -0.20597897 0.81300002 -0.8286135197 -0.4964579344 0.2587067187
-0.03871477 -0.11800167 0.79333335 -0.3448348939 -0.4647119045 0.815556109
-0.051985987 -0.17786883 0.78640002 -0.2941724658 -0.2074046433 0.9329769015
0.045738138 -0.2178981 0.77621424 0.1765413731 -0.4798046649 0.8594304323
0.0071487781 -0.26446447 0.77650005 0.2243739814 -0.798858583 0.5581051111
-0.15406868 -0.039340198 0.79075003 -0.0189248547 -0.6719825864 0.7403250933
0.0045481292 -0.16485977 0.77451932 -0.5527434945 -0.3533161283 0.7547465563
-0.17084743 -0.048418298 0.78900003 0.2493572235 -0.4131496847 0.8758586049
-0.18091653 -0.057312082 0.78766674 0.4342105091 -0.1659463048 0.8853942752
0.024577351 -0.22505486 0.85287517 0.1348657757 0.06416962296 0.9887838364
-0.14492188 -0.038779814 0.79411763 -0.2040431499 -0.7209663391 0.6622491479
0.055487633 -0.2047587 0.82553333 -0.8330131173 -0.4503779709 0.3213235438
-0.0046353117 -0.24317686 0.85291433 -0.3494293392 -0.4851819873 0.8015594482
-0.12974666 -0.14868265 0.80000001 0.3491057158 0.4069824219 0.8440915346
-0.1688986 -0.061542001 0.78000003 0.3416731954 -0.1603730321 0.9260345101
-0.076176129 -0.095561303 0.78700006 -0.4290913045 -0.5169910192 0.7406759858
-0.093267187 -0.062144272 0.81214285 -0.6023961306 -0.7123263478 0.3601528108
-0.091286421 -0.070923209 0.801 -0.5993853807 -0.6863903403 0.4118318856
0.0089235902 -0.17915823 0.78300005 -0.4073779285 0.01299134828 0.9131672382
-0.13547251 -0.047061034 0.787 -0.2627383471 -0.6258104444 0.7343907952
-0.052532598 -0.14659865 0.7722941 0.3873251677 -0.4001757503 0.8305652142
0.049984902 -0.18278062 0.85100001 0.08667161316 -0.06646433473 0.9940173626
-0.055658121 -0.20429409 0.76761001 -0.3894239664 0.2017038465 0.8987016082
-0.11943005 -0.047842328 0.80850005 -0.5101605654 -0.7794497013 0.3635854423
-0.02014317 -0.23052739 0.85100001 -0.440122366 -0.2718272805 0.8558050394
-0.17478077 -0.10536551 0.79460007 0.3400961459 0.3779201508 0.8611103296
-0.0055440124 -0.15632321 0.77519357 -0.4865070581 -0.5862252116 0.6478046775
-0.041258212 -0.20187548 0.78700006 -0.7931959629 0.5175499916 0.3209084272
-0.10531484 -0.18571889 0.80729264 0.4930947721 0.3939347267 0.7756758332
-0.098599143 -0.17789978 0.80049998 0.4798802435 0.3669526279 0.7969069481
-0.013960166 -0.15313548 0.7732287 -0.447424382 -0.6141314507 0.6501184106
-0.16019768 -0.14043762 0.80500007 0.240454644 0.3864419758 0.8904179931
-0.038337763 -0.14238331 0.7750001 -0.1789954454 -0.7191230655 0.67143327
-0.1119328 -0.16020381 0.79800004 0.3876834214 0.4292327762 0.8157578111
-0.044467065 -0.18472777 0.78320414 -0.2257764637 0.6102754474 0.7593345046
0.024811354 -0.24509121 0.85376924 0.164095208 -0.2992475331 0.9399594069
-0.06445881 -0.18403791 0.76677781 0.5449804664 0.1499928236 0.8249232769
-0.12229369 -0.051173225 0.79149997 -0.4534893334 -0.7100980282 0.5386169553
0.033830859 -0.24599123 0.8481667 0.1778778434 -0.2872736156 0.9411872029
0.017599521 -0.17181088 0.84233338 0.1604240388 0.1304212362 0.9783937931
-0.17551281 -0.11598616 0.80217856 0.3372572958 0.3915613592 0.8561175466
0.029027309 -0.21807697 0.84900004 0.2426295727 0.1347228736 0.9607188106
0.052369274 -0.19871332 0.82863641 -0.7912436724 -0.5098153353 0.3376711905
-0.025840156 -0.18259059 0.77715385 0.2081137151 0.4377074242 0.8747004867
0.025096772 -0.25498649 0.77592885 0.1994222254 0.04318900034 0.9789614081
-0.11464923 -0.055352375 0.79341674 -0.4975638092 -0.6749492288 0.5448612571
-0.1244293 -0.17455986 0.81386971 0.4919053316 0.4380978644 0.7523957491
-0.066466719 -0.15665168 0.78255558 0.4921682179 -0.01575441472 0.8703575134
-0.0087640369 -0.15910098 0.76900005 -0.4677903354 -0.4244597852 0.7752458453
-0.026314229 -0.2369487 0.83561552 -0.4828035533 -0.7940732837 0.3692537546
0.033975799 -0.22369991 0.78033334 0.4430375099 -0.3204462528 0.8372765183
-0.13839644 -0.13734443 0.80000013 0.2497600913 0.3111288846 0.9169616699
0.0054144687 -0.25472462 0.84589994 -0.2850344479 -0.7586752772 0.5858047009
-0.065576367 -0.097164743 0.79418755 -0.5535080433 -0.6997923255 0.4515744746
0.025007218 -0.25467673 0.84446347 0.03149909526 -0.3699690998 0.9285099506
0.065335795 -0.20424362 0.84236848 -0.8280029297 -0.4072155654 0.3854693174
0.0047075832 -0.26266384 0.78380013 0.2670999765 -0.815358758 0.513661027
-0.17937477 -0.089341097 0.79000002 0.4005372524 0.3080205917 0.8629561067
-0.035232846 -0.18571131 0.78053337 -0.08567724377 0.5370211601 0.8392065763
-0.13603817 -0.14576021 0.80132419 0.3186555505 0.4172766805 0.8510809541
0.042990174 -0.19596733 0.79614824 -0.753487587 -0.5595120192 0.3452574611
-0.066398218 -0.16469216 0.78684992 0.2541109025 0.1399988234 0.9569889903
-0.034304112 -0.23317522 0.83555561 -0.3088188171 -0.7557693124 0.5774458647
-0.014916553 -0.23515761 0.85313153 -0.410558641 -0.4088224769 0.8150495291
-0.13416477 -0.16142228 0.80877781 0.3742430806 0.4961311817 0.7834513187
0.0042077326 -0.15698123 0.78463906 -0.5577429533 -0.5786880255 0.5950151086
-0.10231816 -0.062253211 0.80273348 -0.5429654717 -0.7215353847 0.4296221733
-0.064637259 -0.17530464 0.76468182 0.7611278892 -0.3483458757 0.5471192598
-0.075206198 -0.20171785 0.77535295 0.331862092 0.3697653413 0.8678370714
-0.11122795 -0.061279003 0.79133338 -0.4799901247 -0.6382308602 0.6018893719
-0.17433636 -0.055809222 0.78651357 0.3665942848 -0.248381272 0.8966132998
-0.13072941 -0.11136209 0.78900003 0.1677158177 0.2303408831 0.9585481286
-0.040054023 -0.15955947 0.74900001 0.0009086615173 0.7511657476 0.660112977
-0.033463147 -0.22547664 0.84422231 -0.2325684875 -0.4224703014 0.87603122
-0.10073952 -0.17209668 0.79800004 0.4571250677 0.3691013753 0.8091976643
-0.023273474 -0.23397732 0.84408581 -0.4546079934 -0.5185770988 0.7241611481
-0.0174895 -0.24975006 0.79800004 -0.1644191146 -0.5636215806 0.8095042109
-0.067522623 -0.11935816 0.77800006 -0.1881609261 -0.3071539104 0.932872951
0.003740804 -0.25201496 0.79261553 0.2853018343 -0.8239082694 0.4896713197
-0.0058316803 -0.16557711 0.76735151 -0.4049400389 -0.1580987126 0.9005711675
-0.032452095 -0.23324074 0.80127996 -0.6404892206 -0.4998064041 0.5830669999
-0.1070657 -0.16767697 0.8008334 0.4259926081 0.4059895873 0.8085188866
-0.11722699 -0.17690708 0.81192309 0.4825489819 0.4210553765 0.7680226564
-0.16625674 -0.053408306 0.78209692 0.2140896767 -0.3696500063 0.9041706324
0.015100189 -0.25220117 0.85264999 -0.0558513552 -0.5048962235 0.8613712788
-0.0061298059 -0.14776233 0.78460866 -0.477327764 -0.6501972675 0.5911021233
-0.12598743 -0.1559407 0.80124992 0.3671883345 0.4570697844 0.8100987077
-0.10509254 -0.12490436 0.78681147 0.2188320309 0.1660937369 0.96152246
-0.021892067 -0.24296615 0.80252951 -0.4276117086 -0.7175331116 0.5498131514
-0.052663945 -0.11238537 0.79105878 -0.3834430277 -0.4863660038 0.7851238847
-0.17346434 -0.094092391 0.78755999 0.3361347616 0.3510933816 0.8739261031
-0.041562866 -0.14801569 0.75788891 -0.07213145494 -0.9693946242 0.2346723378
-0.0050382032 -0.24831145 0.82100004 -0.2939644456 -0.9506981373 0.09878218919
0.02753873 -0.24933715 0.84900004 0.1754511297 -0.3123927712 0.9336100221
0.00068116997 -0.15939289 0.77700007 -0.5100781918 -0.4416484237 0.738083303
-0.0279832 -0.23995593 0.79800004 -0.433378309 -0.2351757884 0.8699859381
-0.092187054 -0.16270933 0.78866673 0.4028556943 0.2247519195 0.8872394562
0.041028 -0.26052779 0.78000003 0.2361143529 0.255327791 0.9375807643
-0.091273971 -0.18156925 0.79720008 0.6278856993 0.1628858 0.7610701323
-0.071448334 -0.090739384 0.81500006 -0.6598665714 -0.6959872246 0.28315714
-0.070645303 -0.14151739 0.77733344 0.1709746271 0.08669686317 0.9814536572
-0.15920267 -0.12974666 0.80000001 0.2134439051 0.3690538406 0.9045667052
0.014637704 -0.20145451 0.84900004 0.1557427794 0.2847658098 0.9458608031
0.016159941 -0.25630584 0.77646542 0.2978008687 -0.402233839 0.8657497168
-0.014312807 -0.16433689 0.76283079 -0.3729099631 0.09260839969 0.9232344627
-0.11327465 -0.051688667 0.81172729 -0.5209879875 -0.7676595449 0.3731894493
-0.065018281 -0.2148298 0.78215635 -0.6601729989 -0.428876847 0.616632998
0.01985913 -0.26111078 0.83900005 -0.1861085743 -0.6813692451 0.7078838348
-0.093633801 -0.073081598 0.79241383 -0.5628392696 -0.6482511163 0.5128181577
0.043953788 -0.23418331 0.77342546 0.1813303828 -0.05760066584 0.9817339182
-0.073148891 -0.2062916 0.78280008 0.393227905 0.4573503435 0.7976229787
-0.10254305 -0.15130718 0.78900003 0.3006906509 0.2402018458 0.9229779243
0.024723792 -0.17312561 0.84236014 0.2411425263 0.09364710748 0.9659609199
-0.014680737 -0.25526845 0.79746681 -0.08826425672 -0.7422712445 0.6642611027
-0.14173491 -0.13138112 0.79800004 0.2170066535 0.3187642992 0.9226577878
0.022497613 -0.18414573 0.78841919 -0.6064530015 -0.2967979014 0.7376487851
-0.0052477969 -0.19535889 0.84835172 -0.0299827978 0.1309799701 0.9909315109
-0.025498176 -0.17606674 0.77645731 0.1065367237 0.4645137787 0.8791341782
-0.081890136 -0.18255828 0.7876001 0.7714138627 -0.3554225862 0.5278214216
0.033254936 -0.17716686 0.83723092 0.2052886486 0.05749274045 0.977011323
-0.10439114 -0.13567893 0.79145473 0.2063470781 0.1661183834 0.9642746449
0.031727169 -0.24282053 0.78023082 0.3858370781 0.02531160414 0.9222196341
-0.042431422 -0.15449113 0.75840908 0.308211267 -0.8483506441 0.43047297
