# .PCD v0.7 - Point Cloud Data file format
VERSION 0.7
FIELDS x y z normal_x normal_y normal_z
SIZE 4 4 4 4 4 4
TYPE F F F F F F
COUNT 1 1 1 1 1 1
WIDTH 512
HEIGHT 1
VIEWPOINT 0 0 0 1 0 0 0
POINTS 512
DATA ascii
0.015605698 -0.14497294 0.79411769 -0.417742312 0.1487745196 0.896302104
-0.16213132 -0.0076535922 0.80583352 0.5415402055 -0.01422623079 0.8405544758
-0.11229322 -0.1333725 0.83500004 0.5462074876 0.3570247889 0.7577537298
-0.051427487 -0.033548482 0.83346152 -0.7910545468 -0.5216575265 0.3195405602
0.063148603 -0.21294947 0.86137521 0.4258734882 0.1023168266 0.898978889
-0.03688575 -0.22059125 0.82500005 -0.4424359202 -0.6229511499 0.645121932
0.03635975 -0.2430909 0.79000002 0.2093576342 -0.009601599537 0.9777920246
-0.05187675 -0.10029504 0.78900003 0.3207884729 -0.1575428098 0.9339566231
-0.011866559 -0.15931489 0.86400002 -0.120992966 0.1666409522 0.9785660505
-0.11555485 -0.064610392 0.80759543 0.2240346521 0.2626214623 0.9385299683
-0.099082619 0.01076985 0.81900007 -0.5259658098 -0.695536077 0.4894788563
-0.064126857 -0.16516602 0.79330003 0.2595422864 0.4422850609 0.8584997058
0.046424706 -0.15280026 0.85170579 -0.59233284 -0.6116217375 0.5244622827
0.0053902399 -0.21540177 0.86747926 -0.1936226189 -0.4626710117 0.8651276231
0.044113759 -0.18806724 0.7971251 -0.2016171217 -0.5246179104 0.8271194696
-0.16082858 -0.054812998 0.82266665 0.5667654276 0.3670979738 0.7375743985
-0.05135601 -0.18309534 0.84900004 -0.8281685114 -0.4896579981 0.2727121711
-0.0065546958 -0.10499819 0.80212003 -0.3972449601 -0.5846481323 0.707377553
-0.064792998 -0.055038814 0.7947349 -0.2289300859 -0.2163473964 0.9490968585
-0.02994255 -0.12708949 0.75900006 -0.06142295897 0.4720050693 0.8794534802
-0.093939826 -0.10453764 0.80775869 0.4385227859 0.2335380912 0.8678466082
-0.12499581 -0.024486547 0.79307127 -0.02729764953 0.3084695041 0.9508424401
0.0060761771 -0.2185194 0.80633348 0.3254770041 -0.64322716 0.693053782
-0.14069185 -0.09090858 0.82300001 0.3404736221 0.4221169651 0.8401755691
-0.08347211 -0.021744723 0.80013347 -0.4201199412 -0.4745168984 0.7735198736
-0.027543306 -0.15310459 0.79422218 -0.1436852813 0.6723225117 0.726179719
0.021037195 -0.17813726 0.86320001 0.2752706707 0.2794415951 0.9198578596
0.054994285 -0.1848662 0.83637506 -0.8921752572 -0.2912743688 0.3452283144
-0.13282026 0.011093341 0.79799998 0.01263230201 -0.5519436002 0.8337857127
-0.042810854 -0.18791789 0.81399995 -0.4084537625 0.2909477949 0.8651675582
-0.077393495 -0.13461535 0.80318189 0.7694805264 -0.3488638997 0.5349707603
-0.031055041 -0.20678112 0.86400002 -0.4922069609 -0.4827803671 0.7243310213
-0.027522139 -0.077684209 0.80500019 -0.3899448812 -0.3246252835 0.8617200255
-0.0056475969 -0.13389696 0.77556264 -0.2345456034 0.008334853686 0.9720693827
-0.057021908 -0.13587984 0.78103465 0.54526788 0.2016931176 0.8136355281
-0.076846965 -0.0073395786 0.82585716 -0.6428315639 -0.6473844051 0.4094642699
-0.091191083 -0.1623155 0.80325001 0.8335211873 0.4862205088 0.2623586357
-0.090245821 -0.074855059 0.79800004 0.3015647829 0.1445903033 0.9424183369
0.029742671 -0.21511559 0.78900003 0.2607043982 -0.05641750991 0.9637687802
-0.11689438 -0.10551075 0.82346165 0.4666928649 0.4676425755 0.7506718636
-0.15438445 -0.03429199 0.8038857 0.5284646749 0.3123154342 0.7894201279
0.031588577 -0.20669591 0.86619997 0.1180949062 -0.1728547364 0.9778419137
-0.10553299 -0.0052124718 0.79634053 -0.3686014414 -0.4413550496 0.8181312084
0.024884183 -0.17418928 0.81100005 -0.6930735707 -0.3185106814 0.6466838121
0.023938658 -0.13823718 0.85572726 0.2310609668 0.07098256052 0.9703465104
-0.10115926 -0.041834883 0.79800004 0.09902776778 0.09323066473 0.9907075763
-0.0053263591 -0.18497638 0.86830616 -0.1600629836 0.06782762706 0.9847736955
-0.017418928 -0.2314229 0.81100005 0.2976028621 -0.5667458773 0.7682653666
-0.051700663 -0.146034 0.80471438 -0.4197085202 -0.1904295087 0.887457788
-0.086753763 -0.14655514 0.82349998 0.7355676889 -0.1792735904 0.6533002257
0.023073157 -0.22662167 0.85423815 -0.05364231393 -0.4109998047 0.9100558758
-0.016034313 -0.20792073 0.82118189 0.03868383542 -0.5458387733 0.8369967341
-0.02933502 -0.1767623 0.85800004 -0.3578547537 -0.06879519671 0.9312396049
-0.032655835 -0.10952723 0.77600002 -0.2576030195 -0.6717493534 0.694545567
-0.14149004 -0.06134782 0.80900002 0.3558219075 0.365057528 0.8603044748
0.0138338 -0.23448291 0.78900003 0.2178424746 -0.2612496614 0.9403687119
-0.073986679 -0.092588104 0.79696554 0.3636040688 0.1238408014 0.9232851863
-0.048623729 -0.051468808 0.81166673 -0.7196196318 -0.5906137228 0.3651342392
0.0063855303 -0.12374981 0.7925002 -0.5130951405 -0.4296398461 0.743063271
-0.065627724 -0.024689816 0.81585723 -0.7085790634 -0.5588594675 0.4308037162
-0.055039652 -0.075117968 0.79436338 -0.1576634049 -0.201563552 0.9667028189
-0.12447979 -0.044717893 0.80282235 0.04871938378 0.3205453753 0.9459794164
-0.064956523 -0.11622322 0.80447358 0.4507580698 -0.0007380219758 0.8926458359
0.01132215 -0.15851098 0.86100006 0.1421768814 0.2500487268 0.9577376246
-0.14460377 -0.014601052 0.7930001 0.3816618025 0.05000558868 0.9229483604
-0.061092272 -0.18538432 0.801 0.3624334633 0.5521866679 0.7508208156
0.061978582 -0.16783482 0.85363638 -0.7696918845 -0.4491927922 0.4536520541
-0.093507655 -0.12441403 0.81648147 0.6144789457 0.3095740974 0.7256579995
0.033994544 -0.1553991 0.80517781 -0.4382406473 -0.03835188597 0.8980391026
0.047752909 -0.17390612 0.81300002 -0.7844503522 -0.4602202177 0.4157343209
-0.11579066 -0.085299306 0.81305557 0.3780242205 0.3155486584 0.870360136
-0.043152165 -0.052663118 0.83433342 -0.7752662897 -0.5578430891 0.2962655723
-0.01382818 -0.21345042 0.8548637 -0.4909823835 -0.5707227588 0.6581882834
-0.013433224 -0.11665703 0.78679299 -0.4089584351 -0.4792136848 0.7765997648
-0.050430249 -0.12304981 0.76700002 0.6058987975 -0.3404352963 0.7190204859
-0.03112605 -0.13418785 0.78900003 0.169724077 0.5672932267 0.8058363199
-0.027485318 -0.095499687 0.79607701 -0.342418313 -0.5137124062 0.7866697311
0.066113971 -0.19521405 0.85317385 -0.9859448671 -0.09880688787 0.1347215027
-0.084379964 -0.055092193 0.79546964 0.12525931 0.04515854269 0.9910957813
-0.075398728 -0.14818498 0.79015386 0.4857637584 -0.04014629126 0.8731676936
-0.1235517 -0.0040136566 0.79084224 -0.09691707045 -0.2697753012 0.9580335617
-0.074652553 -0.16707951 0.81100005 0.7282333374 0.4569862485 0.5107247829
-0.034710977 -0.19601892 0.84900004 -0.4649077058 -0.4130847752 0.7830848098
0.015231596 -0.19497724 0.86877763 0.09462169558 0.04554425552 0.9944709539
-0.002795836 -0.23191999 0.79683334 0.3225827813 -0.643417418 0.6942293644
-0.035333846 -0.2047988 0.81253493 -0.2062275857 0.09698697925 0.9736856222
-0.063678436 -0.016475635 0.83500004 -0.7384044528 -0.5881440639 0.3299172521
-0.1511461 -0.071254589 0.82100004 0.4283762276 0.3558031321 0.8306009769
-0.044555288 -0.16257828 0.80560005 -0.1815643162 0.05857229978 0.9816331863
-0.10537198 -0.024425505 0.79600018 -0.08266791701 0.0590149723 0.9948282242
0.04868393 -0.20408888 0.79050004 0.2911092341 -0.2717077732 0.9172950983
-0.059280202 -0.038814418 0.80500007 -0.6394123435 -0.5340272784 0.5531425476
-0.11720667 0.012674279 0.80570602 -0.2727940083 -0.711114943 0.6479961276
-0.043530464 -0.065136284 0.80187804 -0.4850389957 -0.4518795609 0.7486935854
-0.0499174 -0.1511198 0.78000003 -0.648710072 0.3792155683 0.6598263383
-0.075009309 -0.035515599 0.7963267 -0.3772964776 -0.3240557015 0.8675455451
-0.051773302 -0.20071021 0.80900002 -0.3316164017 0.3331536651 0.8826319575
-0.13501906 -0.074973933 0.81541663 0.287758708 0.3754342198 0.8810471296
0.055463634 -0.20070188 0.83250004 -0.9584806561 -0.1277966648 0.2549172342
-0.1662607 -0.039585885 0.82100004 0.6360244155 0.3251731098 0.6998109818
0.049280062 -0.16990589 0.83900005 -0.8310675025 -0.4381284118 0.3425935507
-0.024682004 -0.12356913 0.77662504 -0.6180714369 -0.1619805396 0.7692528963
-0.09132535 -0.0018506432 0.81260002 -0.5607504249 -0.6525888443 0.5095946789
-0.1311318 -0.10563395 0.83100003 0.4026862383 0.477117449 0.7811547518
-0.015628476 -0.14391166 0.78875983 0.1471836865 0.4033298194 0.9031400681
-0.07448104 -0.074509598 0.79587257 0.2246260345 0.08085621148 0.9710846543
-0.15145907 0.00104937 0.79800004 0.4212289751 -0.2719013393 0.8652374148
-0.10620122 -0.11668871 0.82254541 0.5368183255 0.4105360806 0.7370795012
-0.10244305 -0.14155957 0.82639998 0.6946952343 0.1221750677 0.7088524103
-0.087603085 0.0036280076 0.82664704 -0.5874632001 -0.6951522231 0.4143071175
-0.0055258158 -0.2048351 0.86887223 -0.3837755024 -0.3166406751 0.8674416542
0.031165499 -0.20015177 0.79000002 0.4549325705 -0.3197180331 0.8311538696
-0.090245821 -0.14831096 0.79800004 0.8244157434 -0.20492208 0.527584672
-0.10456765 -0.094058231 0.80706066 0.4018292427 0.2608861327 0.8777651787
0.021065423 -0.21698289 0.801 0.4232253432 -0.2608826458 0.867652297
-0.1172796 -0.11679353 0.83322221 0.49687922 0.4173620939 0.7608678937
-0.10480732 -0.055568643 0.80234712 0.2647173107 0.1832744479 0.9467498064
-0.067025505 -0.13295335 0.79285711 0.6202075481 -0.3431819379 0.7053855062
0.005243449 -0.17481367 0.86707342 0.03977661952 0.1812552959 0.9826313257
-0.10539585 -0.075078793 0.80683649 0.3134891987 0.2032124698 0.9275932312
-0.15106457 -0.050354857 0.80900002 0.5308051109 0.3556568623 0.7692555785
-0.0052638296 -0.21535672 0.81473708 0.2480903864 -0.5062312484 0.8259425163
0.053744428 -0.15689954 0.86342859 -0.598295927 -0.5929181576 0.5389713645
-0.077524804 -0.16086657 0.79666668 0.5285999775 0.3951263726 0.7513036728
-0.084641106 -0.11495068 0.80420458 0.4417559803 0.1726160347 0.8803722858
0.030157333 -0.19006133 0.80000001 0.2411949188 -0.4083662033 0.8803761005
-0.081012465 -0.011640088 0.81300002 -0.5851992369 -0.6386270523 0.4996972382
-0.13625073 -0.037255265 0.80030012 0.1522626579 0.3599762619 0.920452714
-0.024047581 -0.1945903 0.86243254 -0.4423732162 -0.3495416343 0.825909555
0.019101691 -0.16201063 0.80699998 -0.4849629402 -0.0161238946 0.8743860722
-0.015015435 -0.1750474 0.86632276 -0.2296362519 0.105153732 0.9675793648
-0.045122512 -0.084924601 0.79323626 -0.1974438429 -0.2921381295 0.9357730746
-0.055395313 -0.17601325 0.79200017 -0.1326665431 0.356685698 0.9247566462
-0.0025037599 -0.22121923 0.85733336 -0.3831725419 -0.6185233593 0.686008513
-0.0164246 -0.09419395 0.80442858 -0.3801448345 -0.5313373208 0.7570802569
0.0097783403 -0.22791053 0.85800004 -0.1991746575 -0.5591851473 0.8047617078
-0.024862759 -0.21491782 0.81330442 0.132482633 -0.1804720461 0.9746169448
0.034086194 -0.14768055 0.8485294 0.2833356559 -0.08401591331 0.9553335905
-0.095380306 -0.015043565 0.79603994 -0.3122293651 -0.2663102746 0.9119164944
-0.11491865 -0.01457264 0.79298043 -0.2423362881 0.01245646179 0.9701123238
-0.041830026 -0.13527468 0.79714286 0.06622036546 0.8245718479 0.5618684888
0.02325183 -0.13630715 0.80100006 -0.6291145086 -0.1825203001 0.7555800676
-0.063471541 -0.10578243 0.79612505 0.3330332041 0.081082955 0.939422369
0.004846008 -0.13478145 0.7838825 -0.3748562634 0.01553048287 0.9269528389
-0.11459656 -0.035998851 0.8008917 0.07022345066 0.2601287961 0.9630169868
-0.085341357 -0.095553145 0.80323261 0.3245657086 0.1540848911 0.9332282543
0.02061657 -0.21227431 0.87100005 0.09405028075 -0.260787338 0.9608041048
-0.10524586 -0.10530943 0.81442255 0.4724513888 0.3648752868 0.8022815585
-0.049292117 -0.17886171 0.80325007 -0.3207148612 0.3509916961 0.8797424436
-0.09538874 -0.084879823 0.80465925 0.3418011069 0.1724250168 0.9238190651
-0.086026184 -0.13482237 0.81396782 0.7180003524 -0.04419802874 0.6946380734
0.063456155 -0.18407983 0.84700012 -0.933731854 -0.1722832918 0.3137886226
-0.042729858 -0.1132744 0.7830953 0.2502528727 -0.5560844541 0.7925550938
-0.075173877 -0.10467923 0.80138773 0.3109888732 0.1331388354 0.9410419464
-0.13631156 -0.0031307521 0.79024011 0.1753677726 -0.2625804842 0.9488401413
-0.033657428 -0.19313055 0.82125008 -0.4677407146 0.03506112099 0.8831700683
-0.12584898 -0.096397333 0.82307404 0.3782481253 0.44696486 0.8106483817
-0.064532399 -0.085194938 0.79262239 0.2478492707 0.03178572655 0.9682770371
-0.00300872 -0.15269254 0.85800004 0.01654035971 0.2617864013 0.9649841189
-0.024282791 -0.20342837 0.8536666 -0.4929102659 -0.4474205971 0.746226728
-0.027439415 -0.16232811 0.80257142 0.3219617903 0.1429132372 0.9359040856
-0.037445065 -0.18651079 0.85636002 -0.3913592696 -0.2882045209 0.873942852
-0.063647158 -0.15415253 0.78829032 0.4323074818 0.2812228501 0.8567519784
-0.055837691 -0.16462655 0.78451526 -0.1228921413 0.479524076 0.8688809872
-0.1049477 0.0040916135 0.80387998 -0.4553997219 -0.6314966083 0.6275532842
0.034509897 -0.17498465 0.8040188 -0.6590747833 -0.4171139598 0.625808537
-0.067900226 -0.027634604 0.80454546 -0.6181842685 -0.5407476425 0.570473671
-0.027877273 -0.10349093 0.78726083 -0.3318399489 -0.6706445217 0.6634140015
-0.16160952 -0.024885667 0.80392325 0.556102097 0.2369087189 0.7966333628
-0.0046404549 -0.1246507 0.782902 -0.2807767391 -0.2944896221 0.9134770036
-0.11586653 0.0032128664 0.79619998 -0.2860325575 -0.5316152573 0.7972268462
-0.023073208 -0.16710405 0.86300009 -0.2792789936 0.1437328607 0.9493914247
0.025146673 -0.23249255 0.79124999 0.2620850205 -0.09629752487 0.9602282047
0.03478938 -0.22553828 0.79050028 0.2897372842 -0.001057750895 0.9571056366
0.041610982 -0.21113595 0.7845 0.181530267 -0.1109377295 0.9771077633
-0.042326342 -0.21283008 0.81833339 -0.1944247335 -0.006539901253 0.9808956385
-0.074416779 -0.11563484 0.79770607 0.4303095341 0.01212121546 0.9025999904
-0.035586316 -0.14479248 0.79516679 -0.1436852813 0.6723225117 0.726179719
-0.14287299 0.011834649 0.80360001 0.2154602408 -0.5217907429 0.8254158497
-0.0039067767 -0.11367937 0.7925145 -0.3754498065 -0.5277759433 0.7618989348
-0.048330195 -0.13210247 0.77375013 0.6468968987 -0.1830951571 0.7402706146
-0.051453944 -0.042761922 0.82671434 -0.7981669903 -0.5164547563 0.3101675808
0.030911267 -0.22090246 0.86000001 0.09889557213 -0.3076405525 0.9463492632
-0.078918412 -0.14290631 0.81100005 0.814135313 -0.2927102149 0.5015021563
-0.095055223 -0.0050182189 0.80265909 -0.4702229798 -0.5393881202 0.6985347271
0.05153748 -0.17856559 0.82800007 -0.8824843764 -0.315862745 0.3484997749
0.042246565 -0.23385668 0.79000002 0.1995112598 -0.05890484154 0.9781234264
-0.095123768 -0.065679327 0.80135548 0.2875864208 0.1668217033 0.9431142807
-0.0053567486 -0.22367708 0.80347997 0.3023140132 -0.6272457838 0.7177526951
-0.15087609 -0.021920172 0.79800004 0.4523677528 0.1612583548 0.8771312237
0.015553479 -0.13419119 0.79292709 -0.678786695 -0.2857733369 0.6764482856
0.0054624346 -0.20473596 0.86899978 -0.1744842827 -0.2274741083 0.9580243826
0.0051655606 -0.22550401 0.79360795 0.3678224981 -0.5347788334 0.7607352734
-0.044110231 -0.17816485 0.85699993 -0.5548346043 -0.1193491593 0.8233555555
0.031162869 -0.19609806 0.86700004 0.1725525707 -0.02383381128 0.9847119451
-0.14498089 -0.04474495 0.80243438 0.3301682174 0.3762917221 0.8656751513
-0.039596226 -0.077373549 0.79800004 -0.3158534169 -0.2768067122 0.9075321555
-0.067834891 -0.17119808 0.801 0.3056424558 0.4354421198 0.8467425108
-0.027568536 -0.10825694 0.76700002 -0.2821087539 -0.6790739894 0.6776970029
-0.058069959 -0.027762938 0.82800007 -0.7826182842 -0.5432326198 0.3039851487
-0.14421429 -0.082305595 0.81842864 0.3418328464 0.3655185103 0.865763545
-0.085240483 -0.084900931 0.8026523 0.311624676 0.1585753858 0.9368798733
-0.05508912 -0.064853042 0.79546958 -0.2625869513 -0.2757698298 0.9246616364
-0.066153988 -0.016635921 0.82500005 -0.7185962796 -0.5921922326 0.3645925522
-0.015121866 -0.19494081 0.86749995 -0.3633059561 -0.2199577689 0.9053327441
-0.0844393 -0.14372635 0.78820008 0.6131336689 -0.2652054727 0.7441324592
-0.038739901 -0.15612908 0.80022228 -0.4588834047 0.3571525812 0.8135527372
0.0053263213 -0.18495123 0.86818367 0.04166295752 0.1481742114 0.988083303
-0.015442922 -0.12780528 0.77650011 -0.4767471254 0.319403559 0.8189588189
0.046096887 -0.15038164 0.86200005 0.2627759874 -0.0506625101 0.9635258913
-0.12503195 -0.054395385 0.80577552 0.1235533282 0.3149787188 0.9410223365
-0.13508989 -0.024356378 0.79371417 0.1543693542 0.2864796221 0.9455683827
-0.12528422 -0.075660571 0.81279498 0.2753686011 0.3623090088 0.8904517293
0.054170188 -0.16683348 0.8473202 -0.7062811255 -0.523005724 0.4771079719
-0.12520401 -0.085111015 0.81666666 0.3012515306 0.3651260734 0.8808691502
-0.064616039 -0.064805187 0.79223543 -0.06224625185 -0.1272201091 0.9899194241
-0.057674587 -0.036960267 0.81474996 -0.7680251598 -0.5188890696 0.3753550947
-0.077563696 -0.12469923 0.80153853 0.5995268226 -0.07303183526 0.7970156074
-0.0043069129 -0.21368867 0.8643145 -0.4255309701 -0.4696568251 0.7735282183
-0.040724017 -0.11742227 0.77425009 0.4208071232 -0.5804561377 0.6971312761
-0.11509286 -0.054785427 0.80561221 0.1731616557 0.2554521263 0.9511883259
-0.12473876 -0.014756498 0.79109812 -0.10025464 0.1043334529 0.9894763827
-0.044310197 -0.19241162 0.85234994 -0.6392342448 -0.5613191128 0.5256428719
0.0052155587 -0.19485094 0.8689999 -0.02598528937 0.06478141248 0.9975610971
-0.074514553 -0.064760521 0.79432654 0.1547238827 0.01529699657 0.9878393412
-0.054765124 -0.085199401 0.79116023 -0.0427993387 -0.09334394336 0.9947136045
-0.074617028 -0.045328427 0.79546964 -0.1196817905 -0.1143136173 0.9862092137
0.015112301 -0.18487276 0.86729282 0.09041843563 0.1716230363 0.9810045958
-0.095832668 -0.11510938 0.81438905 0.5508700609 0.3381644189 0.7630118132
-0.0053327624 -0.19502676 0.86899984 -0.2646598518 -0.1467645019 0.9531082511
-0.0053240382 -0.1749808 0.86780965 -0.07666925341 0.1746430993 0.9816423059
-0.10481229 -0.0652593 0.80378276 0.3020316958 0.1813654602 0.9358864427
0.043528017 -0.1652503 0.81154543 -0.8210820556 -0.3287397623 0.4666416347
-0.084346175 -0.045312814 0.79514307 0.02752592973 -0.02452406287 0.999320209
-0.074582115 -0.055062369 0.79506123 -0.0262025632 -0.07211364061 0.9970521927
-0.084590904 -0.034964506 0.79477966 -0.0752068162 -0.1118884236 0.9908707738
-0.11471696 -0.09469907 0.8152498 0.415808171 0.3497129083 0.8395262957
-0.046815086 -0.043719314 0.83523536 -0.7846773863 -0.5456517935 0.2941862941
-0.1150625 -0.024409946 0.79546964 -0.0812966004 0.2337543964 0.968890965
-0.083731033 -0.064711258 0.79731596 0.2303914428 0.09417108446 0.9685306549
-0.13484922 -0.054997161 0.80593014 0.206544444 0.3590728641 0.9101681709
-0.060283981 -0.19078107 0.80900002 0.3500949144 0.6155719161 0.706048727
-0.12521128 -0.064272605 0.80789334 0.2153519243 0.3075203896 0.9268520474
-0.064545386 -0.075138167 0.79264164 0.1257047057 -0.02538125776 0.9917429686
-0.014958701 -0.18503529 0.86766666 -0.306297034 -0.03367589042 0.9513401389
-0.025601294 -0.18515091 0.86366671 -0.3671058118 -0.1672950089 0.9150112867
-0.064700574 -0.094853967 0.79570228 0.2926597297 0.1114173159 0.9497033358
0.024956189 -0.1554545 0.80186361 -0.4437085688 0.06500769407 0.8938102126
-0.10516552 -0.014625374 0.79444891 -0.2280757576 -0.05302422121 0.9721984863
-0.095067479 -0.034682158 0.79600042 0.02285636589 0.008305875584 0.9997042418
-0.014499252 -0.20399271 0.86435741 -0.4294326603 -0.4319217801 0.793114841
0.059350774 -0.19206056 0.84100002 -0.9475895762 -0.1231194511 0.2948144376
0.014715695 -0.22487989 0.79288131 0.3409360349 -0.3699698448 0.8642250299
0.034781057 -0.16489618 0.80483341 -0.6675710678 -0.1991218925 0.7174254656
-0.15635858 -0.015029488 0.80164516 0.5094279051 0.07005152106 0.8576572537
-0.095120415 -0.094822973 0.80731547 0.3742612898 0.2293446213 0.8985151649
-0.073319137 -0.13902968 0.78900003 0.6538968682 -0.3445569873 0.6735720634
-0.085261501 -0.10498755 0.8037349 0.3610896468 0.1587283462 0.91892308
-0.065464631 -0.14499433 0.78704095 0.4524890482 0.02872213162 0.8913072944
-0.015506538 -0.21548486 0.81423414 0.2413178384 -0.4458932877 0.8619424701
0.026456807 -0.14514773 0.80113322 -0.5073241591 0.03744253889 0.8609414697
-0.094892643 -0.024422364 0.79592884 -0.1001263633 -0.09221689403 0.9906920791
0.015234421 -0.2048969 0.86885709 0.09393960983 -0.17566365 0.9799579978
-0.036199488 -0.086013801 0.7959072 -0.3255614042 -0.3480627537 0.8791257739
-0.12516893 -0.032938667 0.79703456 0.02923048846 0.3488243222 0.936732173
-0.14574948 -0.035157975 0.80044973 0.3392433524 0.3567053378 0.8704454303
-0.14475329 -0.0048681716 0.79380959 0.3920801282 -0.2056928724 0.8966401815
-0.024353726 -0.22420767 0.8135947 0.1812104881 -0.4345859587 0.882211864
0.044120964 -0.19662479 0.78751594 0.322347492 -0.3895932138 0.8627336025
-0.04652207 -0.057365559 0.79800004 -0.5000017881 -0.464382261 0.7309906483
-0.13575119 -0.015642218 0.7909447 0.1757424325 0.132337451 0.9755005836
-0.12502307 0.0045430609 0.79371995 -0.1283867955 -0.5191575885 0.8449805975
-0.052322768 -0.052819576 0.8034119 -0.5982298851 -0.5096850395 0.6183382273
-0.083814077 -0.15429509 0.79552943 0.5053437352 0.2264308035 0.8326804638
-0.011257102 -0.10828026 0.79280007 -0.3812918365 -0.5827015042 0.7176876068
-0.044281486 -0.053837858 0.82540005 -0.7633268237 -0.5661534071 0.3111310303
-0.093298227 -0.054625023 0.79691905 0.2470477521 0.1077645496 0.9629923105
-0.1054114 -0.085062072 0.80671996 0.3589205444 0.2380874157 0.9024912119
-0.11403298 -0.073556595 0.80900002 0.3026676774 0.2562071383 0.9180142879
-0.020095831 -0.21063407 0.84900004 -0.5946186781 -0.7743070722 0.2165115327
-0.044364743 -0.2047447 0.8124119 -0.2943204641 0.1992438734 0.9347071052
0.0052937511 -0.16492993 0.86297619 0.1088481918 0.2566322386 0.9603603482
-0.11333243 0.014141613 0.81370586 -0.3607162833 -0.760412991 0.5400516391
-0.024308264 -0.20468828 0.82264709 -0.544052422 -0.7089040875 0.4488451481
-0.13388461 -0.083409972 0.81827283 0.2857024074 0.4002566636 0.8707288504
0.015097129 -0.22331347 0.86352932 -0.08145524561 -0.4231113195 0.9024088979
-0.031091861 -0.12098789 0.77100003 -0.3295234442 -0.4998325706 0.8009879589
-0.095976681 -0.13566524 0.82483333 0.6527228355 0.2472241819 0.7161236405
-0.15949576 -0.035785824 0.81100005 0.5501271486 0.3279530108 0.7679889202
-0.11401071 -0.11363569 0.82559258 0.4891341925 0.4414370358 0.7522506714
-0.11465017 -0.044577949 0.80309832 0.1257073432 0.2590014637 0.9576616883
-0.056104925 -0.14497505 0.78151172 0.1196745858 0.3107723296 0.942920208
-0.05899791 -0.049203794 0.79800004 -0.4442724884 -0.4242482185 0.7890725136
-0.15366125 -0.054565363 0.81633347 0.5428320169 0.3703368008 0.7537798285
0.012943983 -0.22067215 0.80128574 0.3857543766 -0.5477620959 0.7423949242
-0.11119377 -0.12136836 0.82900006 0.5225968361 0.3583366275 0.7736196518
-0.026821217 -0.14511362 0.79097319 -0.01162969042 0.5669612288 0.8236624002
-0.0053359065 -0.16492121 0.86341459 -0.0690625906 0.1712587476 0.9828025103
-0.061482385 -0.1284904 0.78800005 0.5365066528 -0.3318139315 0.7759253383
-0.12457522 -0.11121919 0.83100003 0.4530922174 0.4525967836 0.7680257559
0.06467016 -0.20301636 0.85649991 0.1049675047 0.4607939124 0.8812779188
0.0440601 -0.17552139 0.80540001 -0.6806161404 -0.4720929861 0.5602587461
-0.099082619 -0.14431599 0.81900007 0.6595104933 -0.2718358934 0.7008217573
-0.078474313 -0.017058399 0.80525011 -0.5711209774 -0.5860420465 0.5747830272
0.034916662 -0.19322565 0.79331607 0.3186832666 -0.411124289 0.854059577
-0.044597123 -0.093342938 0.79193103 -0.1111262366 -0.3757050633 0.9200525284
0.029006271 -0.18535715 0.80700004 -0.5189515352 -0.4943434894 0.6973620653
-0.10440161 -0.12475668 0.82523268 0.5673376322 0.3471148908 0.7467524409
-0.087869607 -0.0077729649 0.80616671 -0.5708488226 -0.6004363298 0.5600070357
-0.11484737 -0.0048696501 0.79400003 -0.2814591825 -0.3238909245 0.9032582045
-0.028361041 -0.19853483 0.81757152 -0.1769040525 0.09620197862 0.9795152545
0.051352721 -0.19705252 0.79425001 -0.5610076785 -0.2644050717 0.7844490409
-0.10386757 -0.033908587 0.79750019 0.02617009357 0.1256673634 0.9917271733
-0.024888456 -0.085443951 0.80321753 -0.3916477859 -0.405036658 0.8261702657
-0.122032 0.0091173332 0.80000001 -0.2155884355 -0.6002550125 0.7702048421
-0.031352233 -0.2218589 0.81900007 0.01206123177 -0.2088663131 0.9778698087
0.0031287472 -0.2162606 0.81369567 0.3224853873 -0.6144724488 0.7200185657
0.056350283 -0.17430031 0.84458625 -0.7737997174 -0.4020822942 0.4894525707
-0.030911267 -0.19074513 0.86000001 -0.4241199195 -0.3188971281 0.8476006985
-0.0234333 -0.20277941 0.86200005 -0.4605419934 -0.4515707791 0.7641890645
-0.07456433 -0.084471978 0.79579163 0.2993042767 0.1465262622 0.9428398609
-0.046564776 -0.1946958 0.80696547 -0.3951631784 0.3192044795 0.8613678813
-0.055151355 -0.034941696 0.82538712 -0.7952266932 -0.5167199373 0.3171986938
-0.16249849 -0.046842054 0.82200003 0.5664489269 0.3685635924 0.7370865345
-0.075201854 -0.024704248 0.80238277 -0.4904567301 -0.4726099968 0.7321830392
-0.034600161 -0.21479876 0.81653345 -0.09046611935 -0.08091887832 0.9926066995
0.052496452 -0.1576536 0.85411114 -0.6281561255 -0.5919202566 0.5050250888
0.025440287 -0.21530363 0.86521548 0.09405028075 -0.260787338 0.9608041048
-0.15537924 -0.005361448 0.80196869 0.4790148437 -0.1110799611 0.8707502484
-0.083700448 -0.0031483206 0.82451993 -0.6092857718 -0.663962841 0.4335022867
-0.054976676 -0.15523998 0.78473914 -0.3105473816 0.3959755898 0.8641548753
-0.1243395 -0.10385083 0.82600003 0.4319402874 0.4847283065 0.7605695724
0.031591561 -0.1391533 0.85800004 0.2269037366 0.010375957 0.9738619328
-0.13489877 -0.044848654 0.80250901 0.148679018 0.3660317957 0.9186486006
-0.15331359 -0.043322004 0.80589485 0.5149297714 0.3741172552 0.7712869644
0.00139653 -0.10969642 0.79700005 -0.4460841417 -0.5739514232 0.6867231727
0.0028415567 -0.12681547 0.78603995 -0.3812146485 -0.2855149806 0.8792932034
0.05309134 -0.17606744 0.83566666 -0.8716114163 -0.3357961178 0.3571197391
-0.064109415 -0.13637279 0.78629041 0.5764424205 -0.1634392738 0.8006258607
0.023219684 -0.18575746 0.86366677 0.1636469066 0.1516074985 0.974799931
-0.052415181 -0.044640902 0.81300008 -0.7395765781 -0.5740165114 0.3514706194
-0.14435685 -0.05419847 0.80717641 0.3821260929 0.3766874075 0.8438520432
-0.013268409 -0.22555527 0.8077333 0.2575519979 -0.5991549492 0.7580767274
-0.034949195 -0.094857216 0.79363644 -0.2812904418 -0.4538793266 0.8454993963
-0.026363866 -0.11545215 0.77400005 -0.4185657501 -0.6543177962 0.6298182011
-0.088106461 -0.12666811 0.81122226 0.6224808693 0.2816003263 0.7302183509
0.046644147 -0.16422646 0.84374291 -0.6625788212 -0.5585095882 0.4990554452
0.013606394 -0.16591494 0.86219996 0.164003998 0.2428337038 0.9561038017
-0.089967914 -0.13891046 0.82100004 0.7379506826 -0.04218028858 0.6735351682
-0.11380226 -0.12551194 0.83507395 0.5215770602 0.3634541929 0.7719186544
0.034465384 -0.23424773 0.7902503 0.2093576342 -0.009601599537 0.9777920246
-0.094320357 -0.045413163 0.79693902 0.1229572892 0.05989231169 0.9906030297
-0.074451938 -0.014668202 0.81590921 -0.6343275905 -0.6148919463 0.4685471356
-0.059315268 -0.11235009 0.79600006 0.4839029014 -0.1021031216 0.8691449165
-0.056152079 -0.094045684 0.79073358 0.2292651832 0.04404426739 0.9723669887
-0.097828105 0.0013136223 0.80614293 -0.5330292583 -0.6564882398 0.5337631106
-0.035165839 -0.12409513 0.76385701 -0.1495881677 -0.2480704486 0.9571229815
-0.066078559 -0.046311468 0.79688245 -0.4151833355 -0.3458019495 0.8414533734
-0.00069256668 -0.12119917 0.79000002 -0.4009522498 -0.50060004 0.7672267556
-0.15665188 -0.046295423 0.81246668 0.5294986367 0.377962321 0.759457469
-0.13524383 -0.068251401 0.81161535 0.2693724334 0.3514241576 0.8966267705
-0.084470771 -0.14190647 0.81650007 0.7744932771 -0.30075261 0.5565141439
-0.065526113 -0.034806818 0.80302227 -0.551631391 -0.4679681063 0.6904409528
-0.071540825 -0.021711087 0.81200004 -0.654414475 -0.5848779082 0.4792280793
-0.14509481 -0.06536977 0.81438899 0.3798644543 0.3813644648 0.842771709
-0.13449052 0.0045495653 0.79447621 0.1089465097 -0.4283268452 0.8970322013
0.035282604 -0.20488574 0.78569233 0.3636487722 -0.2846364975 0.8869845867
-0.056686841 -0.02665242 0.83539999 -0.7821935415 -0.5451126099 0.3017043173
-0.035262942 -0.10471831 0.78592598 -0.1845609993 -0.6713187695 0.7178219557
-0.062564589 -0.17461385 0.79408687 0.2039837688 0.3588495255 0.910833478
-0.036209401 -0.17878608 0.8605001 -0.3846026063 -0.05181163922 0.9216270447
0.058052868 -0.16209567 0.86000001 -0.6769352555 -0.5290304422 0.5117474198
-0.10773838 0.0019808281 0.79716676 -0.3888643384 -0.5811271667 0.714895606
-0.11875765 -0.097885087 0.82100004 0.4242732525 0.425432831 0.7993742228
-0.094081178 -0.1439705 0.82476497 0.640465796 -0.2821736038 0.7142699957
-0.090425976 -0.11524878 0.80900002 0.5296636224 0.261385262 0.8069288731
-0.039322883 -0.058986515 0.801 -0.610142529 -0.5047940016 0.6106628776
-0.085068509 -0.014675681 0.80259097 -0.4804087877 -0.4766775072 0.7361969352
-0.079250664 -0.078549333 0.80000001 0.2919418514 0.1408803314 0.9460035563
0.01175873 -0.14110476 0.78900003 -0.4157222807 0.1484594941 0.8972930312
-0.024021404 -0.17496012 0.86294597 -0.3390160203 0.01217034925 0.9407019019
-0.042144321 -0.10582561 0.78324997 0.2909302413 -0.599629581 0.7455226183
-0.056046784 -0.055935703 0.7967568 -0.350767225 -0.3275107145 0.8773249388
-0.085514702 -0.0060189427 0.81485713 -0.590045929 -0.6394168139 0.4929421246
-0.081151277 -0.0909454 0.79800004 0.3368565738 0.1611247212 0.9276672006
-0.033080142 -0.16080345 0.79799998 -0.1153839082 0.1969294399 0.9736043215
-0.10141893 -0.10047331 0.80900002 0.4274178147 0.2925135493 0.8554237485
-0.14789045 -0.058159526 0.81233341 0.4404094815 0.3606711328 0.8221653104
-0.10599761 0.011919211 0.81664723 -0.4578854144 -0.7278684378 0.5104395151
-0.032552194 -0.082749531 0.80144453 -0.3229825795 -0.3256672025 0.8886073828
0.062633887 -0.17683825 0.84800005 -0.842648685 -0.3371884525 0.4198180139
0.02463641 -0.22516282 0.7915256 0.2359931022 -0.03494833037 0.9711260796
-0.065281585 -0.1233954 0.80599982 0.5058751702 -0.0005544701125 0.8626065254
-0.14424919 0.0018172715 0.79693335 0.3569874167 -0.3017248511 0.8840373755
0.036691926 -0.18753639 0.7975654 0.1003543735 -0.4555748105 0.8845227957
-0.053734567 -0.1941067 0.80575001 -0.2872726321 0.3680739105 0.8843054175
-0.13447575 -0.09456408 0.82408571 0.3141625524 0.4207889736 0.8510220647
0.017704604 -0.15472952 0.80190921 -0.4595838785 0.07977387309 0.8845443726
-0.15086643 -0.014667009 0.79671437 0.4488652647 0.02049621753 0.8933643699
-0.14938399 -0.028754666 0.80000001 0.4154866338 0.2437351048 0.8763355613
-0.074901924 -0.15477164 0.79319054 0.4716047645 0.3527821302 0.8081668615
-0.036396794 -0.066158123 0.80282152 -0.536075592 -0.464856863 0.7046496272
-0.04489902 -0.18464604 0.85190248 -0.6863031983 -0.4169392586 0.5959442258
-0.056868616 -0.10416842 0.79253852 0.3422088325 0.06443728507 0.9374118447
-0.0077375472 -0.23204514 0.8021 0.30463925 -0.6352161169 0.7097150087
-0.083825462 -0.12434606 0.80589288 0.5793554187 0.206240043 0.7885507941
-0.056491792 -0.045430057 0.80428201 -0.6229372621 -0.5663830042 0.5395919085
-0.069431998 -0.098186672 0.80000001 0.3529731035 0.1629667729 0.9213315248
-0.097548977 -0.12708792 0.82180005 0.6115752459 0.3169190288 0.724940002
-0.011583981 -0.21867721 0.80900002 0.2480903864 -0.5062312484 0.8259425163
-0.02286192 -0.092408597 0.80176485 -0.3756840229 -0.4595153332 0.8048025966
-0.14389431 -0.075131416 0.81812513 0.3744686246 0.3560403585 0.8561591506
-0.11227456 -0.10366685 0.81833345 0.470191747 0.4149433672 0.7789362669
-0.031218685 -0.20205063 0.85466671 -0.4791932106 -0.4414954185 0.7585879564
0.029780367 -0.24032064 0.79000002 0.216475457 -0.07684522867 0.9732590318
0.0061779004 -0.22330828 0.86206907 -0.1676134467 -0.4746596515 0.8640624881
-0.047808304 -0.18580243 0.80337042 -0.3528216481 0.3121418357 0.8820908666
-0.097152576 0.0044018687 0.81657153 -0.542853713 -0.6770109534 0.4969567358
-0.06886524 -0.038801704 0.79750007 -0.4185885191 -0.352475673 0.8369854093
-0.079052538 -0.02868278 0.79800004 -0.4393503368 -0.404683888 0.8019989133
0.014718469 -0.21551417 0.86887091 -0.01397665683 -0.384555757 0.9229959249
0.021686979 -0.1504097 0.79800004 -0.5114505887 0.04350765422 0.8582105637
0.044193704 -0.15634888 0.84603238 -0.5865505934 -0.6237853169 0.5165755749
0.0034031169 -0.11605735 0.79470587 -0.4796467125 -0.4917598665 0.7267126441
-0.11443251 0.0075322781 0.80176198 -0.3474958837 -0.595552206 0.7242680192
-0.068659365 -0.018420519 0.81866676 -0.6748973131 -0.5982021689 0.4320506454
0.015297008 -0.17411825 0.86385727 0.16273202 0.25340873 0.9535734653
0.03642901 -0.21871254 0.79000002 0.268483907 -0.01707696915 0.9631327987
0.0050395578 -0.23212971 0.79127276 0.3394834399 -0.4935282469 0.800737679
-0.056129549 -0.18244067 0.79700017 0.3593987525 0.5531161427 0.7515950203
-0.058921203 -0.12880163 0.78150004 0.6836710572 -0.1697957516 0.7097628117
0.012588494 -0.12656711 0.79400009 -0.6539126039 -0.4147226512 0.6327744126
-0.16465071 -0.034968928 0.81603026 0.5996053815 0.3204821348 0.7333243489
0.025154654 -0.20513582 0.86833328 0.1673774868 -0.1593130231 0.9729358554
-0.014716496 -0.16562063 0.86462504 -0.1668398082 0.153827101 0.9739105105
-0.091543727 -0.13246915 0.81900007 0.6573488712 0.2256566584 0.7190073133
-0.10321651 -0.13486342 0.82796013 0.5910425782 0.3304685354 0.7358391285
-0.070657581 -0.10983406 0.79800004 0.3776696026 0.05214837566 0.9244707823
-0.042174734 -0.19588093 0.81217641 -0.3190075755 0.2853684127 0.9037693739
0.037665445 -0.15242772 0.84500015 0.1088593453 -0.3291717768 0.9379742146
-0.024445016 -0.13526535 0.78760004 0.2303363234 0.4246654212 0.8755595088
-0.14476213 -0.024526937 0.79613644 0.351167351 0.2267808765 0.908433795
-0.11191545 -0.081276998 0.80900002 0.3430169225 0.2839438021 0.8953855634
-0.09123864 -0.061175115 0.79750007 0.2631400228 0.1430355161 0.9540954828
-0.04497404 -0.15538023 0.80300009 -0.3762802184 0.1510394961 0.9141117334
-0.079218231 -0.0088552097 0.81900007 -0.6120994687 -0.6421102285 0.4615503252
-0.045797352 -0.075294077 0.79595464 -0.3109019697 -0.2297654003 0.9222515225
-0.091444798 -0.011459495 0.80033332 -0.469368875 -0.4559904635 0.7561517954
0.043585543 -0.20465203 0.78534997 0.2121238708 -0.1825626343 0.9600387216
-0.034030255 -0.11516356 0.76900017 -0.07970414311 -0.6598447561 0.7471627593
-0.092300624 -0.15578689 0.80166674 0.9003065825 0.2195456773 0.3758294284
-0.081329241 -0.13419951 0.80871433 0.7821736932 -0.1895898432 0.5935149193
-0.014449292 -0.12284738 0.7810266 -0.3395114243 -0.07796192169 0.9373654127
-0.1231904 -0.092408232 0.81827277 0.3676201999 0.4130872786 0.8331952095
-0.098640777 -0.0083949603 0.79800004 -0.3830580115 -0.4161092639 0.8246936798
-0.016645037 -0.20732026 0.85539997 -0.4932289422 -0.499287039 0.7123466134
-0.034680791 -0.075151339 0.80208164 -0.3991676867 -0.3376301825 0.8524500132
-0.15095741 -0.064798601 0.81900012 0.473028928 0.3681528568 0.8004418015
-0.04560183 -0.14535873 0.80188632 -0.2927030325 0.5016772151 0.8140300512
0.028816665 -0.20615743 0.78799999 0.4452184737 -0.2968834937 0.8447725773
-0.093955733 0.0056168642 0.82555175 -0.5615553856 -0.6972437501 0.445540905
0.025040364 -0.21631889 0.79368436 0.3509004414 -0.0787114501 0.933098793
0.062187884 -0.19324735 0.84700012 -0.9451580048 -0.1282824278 0.3003663719
-0.0057579465 -0.21304402 0.82100004 0.1728301346 -0.7010114193 0.6918906569
-0.046874687 -0.047676735 0.82544446 -0.7612796426 -0.5766566992 0.2965136766
0.058767568 -0.18478753 0.84187502 -0.9110761285 -0.2272042036 0.3439745903
0.024835689 -0.16473205 0.80495137 -0.4706714749 -0.1015567034 0.8764442801
0.0047375867 -0.15765008 0.8615455 0.1203935072 0.2493611723 0.9608976841
-0.004963336 -0.21884494 0.80840003 0.2815898955 -0.6142905354 0.7371256351
-0.018568093 -0.087905116 0.80433339 -0.3924353719 -0.4691625237 0.79112643
0.031639505 -0.14722234 0.80469239 -0.4464152157 0.0836115405 0.8909111023
-0.12868677 -0.068964735 0.81100005 0.2584763169 0.349709183 0.9004962444
-0.16267674 -0.014052591 0.80728579 0.6042585969 0.07326040417 0.7934131622
-0.10303541 -0.11307532 0.81806678 0.53051126 0.3987132907 0.7480545044
-0.027813563 -0.19720602 0.8574999 -0.4616475105 -0.4061811566 0.788605392
-0.072863773 -0.030769246 0.80028576 -0.467972964 -0.4510804117 0.7599524856
0.024805848 -0.22281154 0.86135721 0.03780256957 -0.384700954 0.9222668409
-0.12269563 -0.07102365 0.80900002 0.2389885485 0.3052131832 0.9218076468
-0.048737403 -0.06571389 0.7980001 -0.3698522151 -0.331163615 0.8680668473
0.04479133 -0.18341966 0.80163324 -0.4819731116 -0.5219362378 0.7037644982
-0.035880204 -0.13726328 0.79540753 -0.1468293667 0.7501209974 0.6447942257
-0.011309 -0.2103474 0.86000001 -0.4210554659 -0.4189889729 0.8044628501
-0.026061255 -0.20694147 0.81680012 -0.02262805961 -0.07823961228 0.9966777563
-0.10509004 -0.045933791 0.80115545 0.1726689041 0.1753352284 0.9692487121
0.055719696 -0.19507682 0.83573681 -0.9475895762 -0.1231194511 0.2948144376
-0.053191859 -0.12784253 0.77412498 0.6690933704 -0.1963572204 0.7167690992
-0.14512798 0.0060677999 0.80174071 0.3239994347 -0.4010571241 0.8568416238
0.0022907299 -0.20998359 0.87100005 -0.2446819544 -0.3266131878 0.9129373431
-0.062906422 -0.042861104 0.80152643 -0.5181644559 -0.4448019862 0.7305181623
0.036745403 -0.19749123 0.78818172 0.3642481565 -0.3396944106 0.8671395183
-0.066441 -0.12740512 0.79600012 0.5635533333 -0.2165444642 0.7971926928
-0.044031035 -0.1231094 0.76704001 0.575889945 -0.4672849774 0.6708170772
-0.042595234 -0.071260728 0.80028576 -0.3404257298 -0.2936200202 0.893251121
0.034517702 -0.14458188 0.85409993 0.2411565334 -0.01076935139 0.9704264998
-0.15557154 -0.024790697 0.80119491 0.5339200497 0.2240773439 0.8153028488
0.031990733 -0.21496624 0.86200017 0.126356706 -0.2650150657 0.9559293985
-0.0012309278 -0.1336318 0.78010011 -0.2656961977 -0.09925998002 0.9589332342
-0.0051016603 -0.10899799 0.79661554 -0.3828529418 -0.5684111714 0.7282392383
-0.138513 0.0085608261 0.80040008 0.08850679547 -0.4892923236 0.8676171899
0.03412281 -0.18387091 0.8020255 -0.3864893615 -0.4975916147 0.7765491605
0.055552047 -0.16303994 0.85288227 -0.7062811255 -0.523005724 0.4771079719
-0.088380277 -0.018422274 0.79800004 -0.4181217849 -0.4284084141 0.8010246158
-0.06826742 -0.1042652 0.80105269 0.3230986893 0.1466742605 0.9349299073
-0.076213628 -0.097266249 0.80050009 0.3596626818 0.1528692394 0.9204747677
-0.061854176 -0.024424193 0.82430011 -0.7509719133 -0.5602121949 0.349576205
-0.10830545 -0.097166806 0.81100005 0.45509094 0.3215869069 0.8303457499
-0.032550633 -0.10042217 0.79000002 -0.2669508755 -0.6453748345 0.7157014608
0.029742669 -0.22134081 0.78900003 0.2829995751 0.01800579578 0.9589509964
-0.0064151543 -0.11743964 0.78823799 -0.3414029479 -0.5098730922 0.7896033525
-0.013666854 -0.13329332 0.77416682 -0.3400874436 0.5935975909 0.7293712497
-0.034351952 -0.15429761 0.79621047 -0.1436852813 0.6723225117 0.726179719
0.045502082 -0.1923684 0.79179311 0.1819746643 -0.4132122993 0.8922672272
