# .PCD v0.7 - Point Cloud Data file format
VERSION 0.7
FIELDS x y z normal_x normal_y normal_z
SIZE 4 4 4 4 4 4
TYPE F F F F F F
COUNT 1 1 1 1 1 1
WIDTH 512
HEIGHT 1
VIEWPOINT 0 0 0 1 0 0 0
POINTS 512
DATA ascii
-0.04524016 -0.15541647 0.79541665 -0.03800034523 0.3112627566 0.9495638013
-0.20079254 -0.036158796 0.80177784 0.5199261308 -0.1872232705 0.8334411979
0.065020174 -0.18384883 0.85250002 0.477580905 0.1957288235 0.8565084338
-0.088069059 -0.048050623 0.83300006 -0.6664701104 -0.7019898295 0.2510535419
-0.1512738 -0.13107191 0.82300001 0.2881268561 0.5314671397 0.7965711355
0.01245042 -0.22064911 0.78900003 0.4231031239 -0.1992006302 0.8839133978
-0.00150436 -0.12335752 0.85800004 0.2279788405 0.1657796949 0.959449172
-0.012821966 -0.20207006 0.8603636 -0.3235383928 -0.4321984053 0.8417407274
-0.043818437 -0.10303812 0.74861526 0.2409719527 0.9535344839 0.1808440089
-0.095352724 -0.10510095 0.79391843 0.2995936275 0.1995308101 0.9329689741
0.024795137 -0.1554458 0.80325544 -0.6345087886 -0.5090613365 0.5815970898
-0.14337566 -0.017507641 0.82438475 -0.383433044 -0.8171346784 0.4304299951
-0.1039262 -0.17078781 0.82900006 0.631188035 0.2362955809 0.7387598157
-0.15534981 -0.075215697 0.80183709 0.04821838811 0.316421777 0.9473923445
-0.041684624 -0.2115479 0.81140006 -0.530857563 -0.4399197698 0.7243347168
-0.024424108 -0.10317297 0.80060005 -0.2828700542 -0.7042722702 0.6511414051
0.043108333 -0.13828744 0.85266668 -0.4990312755 -0.7291733027 0.4682671428
-0.11854362 -0.048435334 0.79742855 -0.3396766186 -0.5066189766 0.7924373746
-0.05631794 -0.19376349 0.84900004 -0.5754528642 -0.7895937562 0.2130626589
-0.09310136 -0.15832908 0.78820002 0.6091620922 -0.1127083823 0.7849957943
0.021018256 -0.17600591 0.86240005 0.08312447369 0.03462277353 0.9959375262
-0.059515443 -0.079275511 0.80500007 -0.3023651838 -0.4775724411 0.824924171
0.051495928 -0.18223445 0.78740013 0.002087442204 -0.2695470452 0.9629849792
-0.19101164 -0.091229439 0.81300002 0.2653762996 0.4540712535 0.850526154
-0.071274757 -0.13179106 0.76700002 0.7129390836 -0.2200073302 0.6658187509
-0.023186399 -0.15615298 0.86140752 -0.1859226078 0.09077074379 0.9783626199
-0.15491642 -0.035428628 0.79188466 -0.1925731301 -0.4367960393 0.878706336
-0.017590316 -0.1316162 0.7752223 -0.1930589229 0.02060691826 0.9809707403
0.023311025 -0.21391387 0.85410357 -0.04380187765 -0.2921082675 0.9553816915
-0.11261664 -0.13378897 0.80860007 0.3827761114 0.4255029559 0.8200181127
-0.13470992 -0.10510688 0.80395842 0.276986599 0.2927204072 0.9152011871
-0.074046373 -0.13295355 0.80312514 -0.02095635608 -0.05567837879 0.9982287884
-0.064649276 -0.1843242 0.7929166 -0.4940106571 0.108631365 0.8626428246
0.046911314 -0.22043301 0.78700006 0.1586549133 0.03278264403 0.9867897034
-0.0053484477 -0.20617884 0.81472975 0.2880407274 -0.5389407277 0.7915651798
0.045785673 -0.16322954 0.82900012 -0.8231734633 -0.4759835005 0.309556365
0.0078539765 -0.12596442 0.80109096 -0.5953472257 -0.4555306137 0.6618561149
-0.055608775 -0.10651286 0.78737485 -0.004610290285 -0.6434526443 0.7654720545
-0.088345647 -0.059485339 0.80300003 -0.4794318378 -0.6915138364 0.5403273702
-0.18490818 -0.064979956 0.79514903 0.2680413127 0.3515030444 0.89699471
-0.11387766 -0.033395566 0.82460016 -0.5221701264 -0.7792124152 0.346650213
-0.059091717 -0.17727253 0.82200003 -0.8744717836 -0.3197240531 0.364795357
-0.1304033 -0.15153009 0.83100003 0.4439331591 0.5046427846 0.740445137
-0.16549593 -0.10635168 0.81207699 0.1935641319 0.4182554185 0.8874656558
-0.088872083 -0.18840882 0.81100005 0.5556969047 0.7243185639 0.4081220031
-0.17442223 -0.017868424 0.80400014 -0.01679981686 -0.6841152906 0.7291803956
-0.072816812 -0.071345761 0.83900005 -0.647619009 -0.7355149984 0.1990159005
-0.20831616 -0.063276924 0.81100005 0.4794301987 0.2979958057 0.8254363537
0.063330397 -0.15681812 0.86000001 -0.738284409 -0.4056772292 0.5388525724
-0.11488138 -0.0850005 0.79474068 0.1994214058 0.1695811599 0.9651286602
0.028212702 -0.19581901 0.79105264 0.2744885385 0.001516280579 0.9615891576
-0.034676742 -0.18373494 0.86163646 -0.2665640414 -0.27127406 0.9248535037
0.0022565399 -0.14968382 0.85800004 0.1521882117 0.2502161562 0.956154108
-0.0053204903 -0.17481613 0.86700022 -0.05623890832 0.1335496008 0.9894451499
-0.045656979 -0.12432528 0.76323068 -0.01055249199 0.8300271034 0.5576232076
-0.026772447 -0.19665337 0.82352167 -0.4540687501 -0.8637133241 0.2186799347
-0.065116584 -0.15510595 0.78185725 -0.4603468776 0.04395851865 0.8866500854
-0.18087693 -0.038388792 0.78900003 0.2598534524 -0.2586531341 0.9303627014
-0.10739455 -0.16626047 0.80623543 0.8978006244 0.1569788456 0.411474973
-0.034402996 -0.11516623 0.78343481 -0.2269633263 -0.5870411396 0.7770909667
0.022180155 -0.1283367 0.85277772 0.3075996935 0.1226703972 0.9435753226
0.0068721902 -0.1962392 0.87100005 -0.03911261261 -0.2376831174 0.9705549479
-0.13459799 -0.064762935 0.79432648 0.09933208674 0.0734366104 0.9923407435
-0.084885813 -0.084960721 0.79214537 -0.1697462052 -0.2564477921 0.9515359998
-0.1343814 -0.032852352 0.80116653 -0.3721996248 -0.6978799105 0.6119077206
0.031597197 -0.19468652 0.86700004 0.3098676503 -0.1761458814 0.9343204498
-0.047479492 -0.18798058 0.80558836 -0.7317973375 -0.1781244129 0.6578330398
-0.035800241 -0.1371626 0.78533322 0.05485190079 0.4867906272 0.8717948198
-0.16464864 -0.054619372 0.79092318 -0.09130322933 0.2307527512 0.9687191844
-0.094504677 -0.12615234 0.80000013 0.2654898465 0.1769420058 0.9477376342
-0.055410009 -0.13587165 0.79388887 0.3369699121 0.5973700881 0.7277364135
0.029037828 -0.17422961 0.79500008 0.06708179414 -0.5049536824 0.8605358005
-0.045637656 -0.094569743 0.80157894 -0.2063269466 -0.5810168982 0.7873046398
-0.11529867 -0.11474624 0.80204868 0.2308991998 0.2847543359 0.9303765297
-0.095960811 -0.14578108 0.80364001 0.6933282614 0.0035824324 0.7206130028
-0.11128845 -0.15077791 0.81900007 0.5783376098 0.3046341836 0.7567850351
-0.079118289 -0.11659989 0.79166675 0.2537815571 0.274586767 0.9274680614
-0.1373667 -0.085787021 0.80007684 0.268268764 0.2110691369 0.9399370551
-0.10517111 -0.064772487 0.79448974 -0.2132898122 -0.3470439017 0.9132732153
0.042701278 -0.16325051 0.80331826 -0.6336765289 -0.6269206405 0.4532378912
-0.17477739 -0.085155204 0.80445653 0.1227217317 0.4332231283 0.8928925395
-0.084927209 -0.17395513 0.79567575 0.185975492 0.5331135392 0.8253502846
-0.062946431 -0.15340823 0.80225009 -0.3895245492 -0.1107328236 0.9143351912
-0.13620205 -0.12567092 0.81312913 0.3179368675 0.4882319272 0.8127396703
0.0228235 -0.13698201 0.80323553 -0.6313964725 -0.3811638355 0.6753166914
-0.098602645 -0.048404712 0.81800002 -0.6040164232 -0.7126961946 0.3566907942
0.056319315 -0.16404878 0.84473926 -0.7927675843 -0.3383422196 0.5069951415
-0.075720221 -0.13855289 0.78337502 0.7300012708 -0.5144833922 0.4498944283
-0.0039371727 -0.22133209 0.80478579 0.3384413719 -0.5891645551 0.7337183356
0.0046743872 -0.21034738 0.86000001 -0.1592943817 -0.458488822 0.8743073344
-0.16656534 -0.12077749 0.82249999 0.2332029045 0.4776237905 0.8470489383
-0.036062121 -0.1953067 0.84816676 -0.3751847148 -0.8499286175 0.3699429929
-0.063184001 -0.12175234 0.78214294 0.8843860626 -0.146327287 0.4432263076
0.034863807 -0.14607494 0.83900005 -0.5612664223 -0.7179746032 0.4116946161
-0.18065557 -0.10868124 0.82100004 0.2184854299 0.4396958947 0.8711668253
0.011221333 -0.20689332 0.80000001 0.5051871538 -0.2859482467 0.8142601252
-0.016780596 -0.11795184 0.78599989 -0.3609875441 -0.5901477933 0.7220897079
-0.024435606 -0.21349752 0.8122105 -0.1251991987 -0.562087357 0.8175469041
-0.051036611 -0.10811666 0.76600003 0.6629226208 0.7076094747 0.2445861399
-0.16036426 -0.01568006 0.81300002 -0.2268295884 -0.8095191717 0.5415043831
-0.047000729 -0.17979644 0.85100001 -0.6967191696 -0.1626456678 0.6986621022
0.027631195 -0.21402344 0.78899986 0.1853185445 -0.0022775908 0.9826758504
-0.0043699732 -0.13221294 0.78500009 -0.5209849477 -0.2956880033 0.8007142544
0.04426511 -0.20433915 0.78833318 0.1065130606 0.02687709592 0.9939479828
-0.074339457 -0.073285148 0.80190617 -0.3885426521 -0.5294161439 0.7541572452
-0.079645164 -0.10042217 0.79000002 0.01342572924 -0.07891937345 0.9967905879
0.0078615081 -0.14166276 0.79700005 -0.5837426782 -0.3005425632 0.7542669773
-0.12660459 -0.027735539 0.81650007 -0.4273294508 -0.7962818742 0.4281643927
-0.064567953 -0.094929926 0.79392445 -0.2158340216 -0.4416685402 0.8708298206
-0.14859413 -0.10877943 0.81100005 0.2571242452 0.3954034746 0.8817840815
-0.19894898 -0.056027766 0.80028576 0.4520728588 0.1403281838 0.8808735013
-0.12313528 -0.14036705 0.81900007 0.3704188764 0.5361660719 0.758495748
-0.083072454 -0.06180374 0.82722229 -0.6522359252 -0.721907258 0.2311670482
-0.1189286 -0.10003994 0.79800004 0.2241172343 0.2344697118 0.9459362626
-0.15527143 -0.094850764 0.80839521 0.1418283135 0.3345651031 0.9316388369
-0.10134295 -0.040100191 0.83166671 -0.6195986867 -0.7094731331 0.3357757628
-0.097929217 -0.16169764 0.8173334 0.7369666696 0.1799383461 0.6515384316
-0.022652827 -0.20211302 0.84845454 -0.4761769474 -0.822884798 0.31002599
0.0053380239 -0.16491638 0.86370009 0.005179222208 0.1523393691 0.9883146882
-0.13495047 -0.045108691 0.7929818 -0.2010293752 -0.2923842371 0.9349324107
0.036283042 -0.15153314 0.81150007 -0.7448682785 -0.5448490977 0.3851113319
-0.086092442 -0.14437121 0.79292321 0.585640192 -0.2051974982 0.7841680646
-0.038930427 -0.11679363 0.75266671 0.1000486687 0.8996244669 0.4250483513
-0.057950616 -0.17541519 0.78350002 -0.3875131011 0.2440134436 0.8889831305
-0.1066495 -0.046634883 0.80567741 -0.4655622542 -0.6928485632 0.5506474972
-0.034133308 -0.16568707 0.86096305 -0.2855357528 -0.0406666398 0.9575048685
0.05135601 -0.14960229 0.84900004 -0.6598039269 -0.5492497683 0.5128192306
-0.055100694 -0.16885695 0.81100005 -0.4849906266 0.1914690733 0.8533016443
0.035156339 -0.18468045 0.78524011 0.2361813337 -0.1962750107 0.9516798258
-0.095035434 -0.074915908 0.79128587 -0.1452787071 -0.2821195722 0.94831568
-0.11811301 -0.037641242 0.80677783 -0.4686642289 -0.7024034262 0.535708189
-0.052160084 -0.20340973 0.80620015 -0.6681234837 -0.4935331941 0.5568087697
-0.14528698 -0.054865301 0.79341644 -0.06950074434 0.07657439262 0.9946386218
-0.0057568941 -0.11712046 0.79493332 -0.5443480015 -0.5954056382 0.5909122825
-0.1549682 -0.022866378 0.80220002 -0.2605790198 -0.7357392311 0.6251291037
-0.10004082 -0.17041436 0.78700006 0.5467912555 0.1709942818 0.8196220398
-0.12452831 -0.07443887 0.79355091 0.1499222815 0.08615040034 0.9849372506
-0.11517256 -0.16230614 0.82589644 0.5450902581 0.3977893889 0.7379974723
0.053596232 -0.17371251 0.8339231 -0.842866838 -0.2314014733 0.4858280122
-0.023566656 -0.1920546 0.86070591 -0.342558533 -0.3516619205 0.8711988926
-0.074187845 -0.16329172 0.78841656 0.2443274558 0.2410554886 0.9392530918
-0.10484672 -0.095087297 0.79486376 0.2105180323 0.1885413229 0.9592363238
-0.19264679 -0.074119605 0.80200011 0.3411141932 0.3957201242 0.8526703119
-0.034656875 -0.12553647 0.77455771 -0.6795401573 -0.01343279984 0.7335153222
-0.12482085 -0.12396914 0.80584204 0.3028461337 0.4037284851 0.8633003831
-0.13595681 -0.13724589 0.82236844 0.3385026753 0.5473338962 0.7654028535
-0.066363901 -0.14366628 0.77463645 -0.3140460253 0.5685468316 0.76034832
0.0089525199 -0.13055758 0.85100001 0.3039222658 0.1449684203 0.9416025877
-0.067323871 -0.12518758 0.79458833 0.3700306416 0.2228838503 0.9018869996
-0.1653129 -0.026606176 0.79464996 -0.1245811507 -0.6058011651 0.7858018279
-0.074706271 -0.18281871 0.80138898 0.2224711329 0.7637653351 0.6059448123
-0.035505548 -0.10376689 0.79351121 -0.2236803174 -0.6742652655 0.7037993073
-0.15623729 -0.063012689 0.7964828 -0.0280737821 0.3206940293 0.9467667341
-0.18309335 -0.027882673 0.79653335 0.2505668998 -0.4152229726 0.8745319247
-0.02502664 -0.17484637 0.86291641 -0.2998372912 -0.08539832383 0.9501603842
-0.014734755 -0.1847754 0.86611778 -0.3010508716 -0.249585405 0.9203670621
-0.16825359 -0.038042948 0.78900003 -0.04308110476 -0.2869509757 0.9569760561
-0.17638095 -0.050493371 0.78900003 0.07914997637 0.0999994427 0.9918343425
-0.1798771 -0.09669283 0.81100005 0.1763281822 0.4396503568 0.8806905746
-0.039296582 -0.18933809 0.81500006 -0.5684052706 -0.3191232085 0.7583375573
0.056649636 -0.18439697 0.84318185 -0.677079618 0.2646541893 0.686674118
-0.046881832 -0.1664491 0.80112505 -0.7548941374 0.2765906155 0.5946700573
-0.0053203176 -0.19523673 0.86745638 -0.2680733502 -0.3602477312 0.8935089707
0.015150972 -0.20520964 0.86409515 -0.003622351913 -0.2915099263 0.9565609694
-0.014603951 -0.22098815 0.81250006 0.08327295631 -0.7026929259 0.7066032887
-0.19466315 -0.045623392 0.79522228 0.4450086057 -0.05720376596 0.8936974406
-0.17546652 -0.072531976 0.79669225 0.07141029835 0.4333953857 0.8983702064
-0.094318844 -0.093433484 0.7889998 0.1644927412 0.0203710068 0.9861679077
-0.015247139 -0.16491605 0.86348587 -0.1111365706 0.07422479987 0.9910294414
-0.056525651 -0.12401626 0.77246678 0.5089497566 -0.6569080949 0.5562750101
0.0053251409 -0.18485521 0.86773473 -0.03106906638 -0.050599996 0.9982356429
-0.14461645 -0.022276049 0.8135882 -0.3589373827 -0.7986904979 0.4829672873
0.032846555 -0.13674293 0.84722233 -0.2485665381 -0.7150241137 0.6534180641
0.045467492 -0.1734913 0.79217643 0.07414554805 -0.4831917286 0.8723692894
-0.014766255 -0.14815189 0.86181831 -0.02104582451 0.2272283733 0.973614037
-0.05749147 -0.19289459 0.79612517 -0.7079409361 -0.2341373265 0.6663327217
-0.01631576 -0.20168263 0.82339996 -0.3441143334 -0.9241755009 0.1657859832
-0.10418567 -0.11727575 0.80103993 0.2417108268 0.2583630085 0.9353204966
-0.19305913 -0.02773382 0.80169237 0.3683525324 -0.3995093107 0.8394693136
-0.14677444 -0.067494303 0.80030012 0.1031233072 0.2530368865 0.9619448781
-0.085161433 -0.13268052 0.80338454 0.2170838118 -0.01320726518 0.9760636091
0.060251985 -0.19340275 0.84850001 -0.2922764122 0.5435509682 0.7868461609
-0.036531284 -0.14681461 0.7904762 0.3053156137 0.4148983061 0.8571124673
-0.14492635 -0.095439099 0.80484778 0.2452607453 0.279659301 0.9282444715
-0.058810461 -0.16381802 0.78382349 -0.4540552199 0.08210537583 0.8871823549
0.015722141 -0.2216073 0.85400003 -0.1309664696 -0.4034671485 0.905572772
-0.12457521 -0.16100071 0.83100003 0.5559328198 0.4756742716 0.6816689968
-0.024523119 -0.12261774 0.78014284 -0.1345321238 -0.3472658098 0.9280665517
0.044309303 -0.15514822 0.83586663 -0.7141269445 -0.5638595819 0.4148314297
-0.083288595 -0.061929487 0.81200004 -0.5821681023 -0.7450122237 0.3256334066
-0.03693689 -0.16317688 0.80000001 -0.03018318117 0.4294030964 0.9026083946
-0.079980932 -0.059435371 0.83700001 -0.6740084887 -0.711360693 0.1991947293
-0.12510662 -0.054792598 0.79225445 -0.09660377353 -0.1740460098 0.9799876213
-0.046130344 -0.19223054 0.85099989 -0.495434165 -0.7104415894 0.4998176992
-0.074004702 -0.17387989 0.79600012 0.1397784203 0.3445908129 0.928288281
0.06323418 -0.16511628 0.853742 -0.8344704509 -0.2473298162 0.4924296737
-0.12825049 -0.095989153 0.80000013 0.2435251325 0.2392265797 0.9399288297
-0.1550452 -0.1153017 0.81580865 0.2408993989 0.4358108044 0.867200315
-0.15531485 -0.085218616 0.80444676 0.0813427642 0.3156646192 0.9453778267
-0.093821354 -0.11485422 0.79697448 0.239949882 0.267108798 0.9333150387
-0.022355657 -0.11074206 0.79075003 -0.3119203448 -0.6830826402 0.6603815556
-0.14533243 -0.026298905 0.80299991 -0.3530741036 -0.7538738847 0.5540874004
0.0024607303 -0.21366966 0.80241674 0.4702616632 -0.4198890328 0.7762390971
-0.10491464 -0.085278928 0.79188019 0.1498716921 0.0582203269 0.9869897962
-0.091930963 -0.053117327 0.82499987 -0.6727297306 -0.6906933188 0.2652875781
-0.074862443 -0.085118279 0.79416668 -0.2549262345 -0.2988243997 0.9196285009
-0.10877697 -0.038551416 0.8174001 -0.5461970568 -0.7351638675 0.4015007019
0.041747157 -0.15863545 0.81633335 -0.7230156064 -0.6031675339 0.3368046284
0.043023773 -0.19467452 0.7853871 0.09190523624 -0.01668544114 0.9956279397
-0.11513013 -0.064477444 0.79240751 -0.07137399912 -0.1472057551 0.9865273237
-0.0051062242 -0.16497548 0.86392319 -0.05180278048 0.1212911159 0.9912642837
-0.18516292 -0.054825164 0.79159105 0.2763551176 0.184359327 0.9432070255
-0.18471119 -0.084737442 0.80613154 0.2104214877 0.4401145279 0.8729386926
-0.045975398 -0.13802089 0.79114282 0.326693207 0.5062077045 0.7981386781
-0.085326768 -0.075151145 0.79403454 -0.2629704773 -0.3592856526 0.8954107165
-0.13443851 -0.1146662 0.80687493 0.3088530302 0.369654417 0.8763363361
-0.095226981 -0.065154552 0.79543996 -0.236140728 -0.4621847868 0.8547647595
0.0053230557 -0.17493956 0.86714655 0.00347397523 0.09991422296 0.9949899912
-0.14503688 -0.045109108 0.79159182 -0.1887184232 -0.08003664762 0.9787642956
-0.015241672 -0.17465837 0.8653549 -0.1915124506 0.006548449863 0.9814683199
0.039875183 -0.15514895 0.82700002 -0.7431752086 -0.6030480266 0.2898683846
-0.0052891625 -0.15487283 0.86175507 0.02062661573 0.2325185537 0.9723731875
-0.091260999 -0.17816356 0.80200005 0.5459899306 0.6271490455 0.5554989576
-0.0058558709 -0.20803714 0.85669994 -0.2759272754 -0.5305675268 0.8014750481
-0.1344777 -0.074504435 0.79582983 0.185199976 0.1951788366 0.9631231427
-0.11500847 -0.12486557 0.80522919 0.2867213488 0.3567037284 0.889130652
0.015013503 -0.18500191 0.86605573 0.05393048003 -0.03350585327 0.9979823828
0.024343913 -0.18525201 0.8627187 0.06486786157 -0.1262964159 0.9898693562
-0.12467322 -0.084587649 0.79533333 0.1798170805 0.1945407391 0.964271605
-0.13549052 -0.05489308 0.79257125 -0.04093757272 -0.006700204685 0.9991392493
-0.14534706 -0.035157125 0.79400015 -0.2523274124 -0.5054106712 0.825161159
-0.097724132 -0.13535452 0.80080003 0.4864875376 0.1397617757 0.8624364138
-0.12487233 -0.064634942 0.79200006 0.03468076885 -0.03217179328 0.9988805056
-0.16500428 -0.094899043 0.80780935 0.1467195302 0.3967730999 0.9061150551
-0.11479651 -0.0745202 0.79323989 0.09375756979 -0.001906608581 0.9955932498
-0.10870667 -0.10239466 0.80000001 0.2233693153 0.253000468 0.9413272142
-0.1047353 -0.074872158 0.79174536 -0.07687024027 -0.2079434097 0.9751156569
-0.16588789 -0.071619518 0.7980001 -0.02669738978 0.3811180592 0.924140811
0.024589343 -0.2050962 0.79122752 0.2317785174 0.0294776652 0.9723218679
0.031911451 -0.14550352 0.80530024 -0.7137966156 -0.5197552443 0.4694132805
-0.1550539 -0.045074653 0.79098135 -0.1995485425 -0.0290973559 0.9794558287
0.015683761 -0.14517318 0.80148762 -0.5619885921 -0.3103452623 0.7667167783
0.0048733903 -0.22023356 0.79500008 0.4615671933 -0.4176021516 0.7826647758
-0.028031534 -0.14245513 0.78753334 4.429514229e-05 0.466537565 0.8845013976
-0.13463058 -0.021479428 0.82350004 -0.3972824514 -0.8134780526 0.4247588515
-0.16487202 -0.08520741 0.80322468 0.01835587993 0.3627218008 0.9317166805
-0.20274933 -0.046829559 0.80025011 0.4903479517 -0.009121555835 0.8714790344
-0.12872271 -0.039876059 0.79800004 -0.369094193 -0.5634330511 0.7391296625
-0.044923253 -0.10276743 0.79466671 -0.1572558582 -0.6461637616 0.7468219399
-0.01627058 -0.10849171 0.79773343 -0.3752047718 -0.6811887622 0.628651917
0.031102965 -0.20405702 0.86533338 0.2416235358 -0.2733539343 0.9310723543
-0.0053222431 -0.18479449 0.86744922 -0.1637913883 -0.1108890399 0.9802428484
0.035127446 -0.16722162 0.79700011 -0.01280568354 -0.492923677 0.8699783087
0.036969867 -0.21479459 0.79000002 0.1864528656 0.02956684865 0.982018888
0.034928471 -0.20486706 0.7882728 0.2282839119 0.06592556089 0.9713600278
-0.036795981 -0.097325251 0.801 -0.2119393051 -0.630140841 0.74699682
-0.17286727 -0.11219161 0.81744444 0.2093021721 0.4542657137 0.8659302592
0.025156997 -0.16465059 0.80247623 -0.5343171954 -0.498052299 0.6829707623
-0.12451649 -0.11466794 0.80244911 0.2592026591 0.308635354 0.915182054
0.011829155 -0.15882279 0.86133337 0.2118950486 0.2508608401 0.9445471764
-0.21011859 -0.055182658 0.80700004 0.488289386 0.2091119289 0.8472577333
-0.084244631 -0.12211882 0.7969476 0.1641189903 0.2547287941 0.9529838562
-0.04778184 -0.13073643 0.75700003 -0.1724048406 0.7071738243 0.6856980324
-0.084960856 -0.16602942 0.79103458 0.1780027598 0.2688112259 0.9466021061
-0.14420746 -0.12379098 0.81721437 0.309528023 0.4689674675 0.8272012472
0.063181467 -0.17418069 0.85233331 -0.8344704509 -0.2473298162 0.4924296737
-0.057299767 -0.11305672 0.78120834 0.2045060247 -0.7856567502 0.5838841796
-0.12631394 -0.025967939 0.82544446 -0.4534291327 -0.8025678992 0.3876684308
-0.055684734 -0.095941991 0.79562801 -0.2075859308 -0.5215515494 0.8275820613
-0.090095036 -0.15155405 0.79666668 0.589918673 -0.2146966606 0.7783966064
-0.10599375 -0.14574592 0.81368971 0.5873935819 0.2900695503 0.7555319071
-0.10701573 -0.1580009 0.82227272 0.5770201683 0.3337315917 0.7454333901
-0.035217702 -0.20530649 0.81142586 -0.4021392763 -0.4452132583 0.8000432253
-0.034003321 -0.1748255 0.86305892 -0.2803579867 -0.1215508729 0.9521684647
0.057760935 -0.17553657 0.84405893 -0.8278588057 -0.206607759 0.5215007663
0.015312606 -0.19547828 0.86812192 -0.01026638597 -0.2578719854 0.9661245346
-0.16479993 -0.016810851 0.80531257 -0.1781015396 -0.7620851398 0.6224998832
-0.014950163 -0.20587927 0.8156513 0.07060141861 -0.5561042428 0.8281083703
-0.050354857 -0.17612378 0.80900002 -0.5970078707 0.2003317028 0.776819706
-0.077763841 -0.13816968 0.79200006 0.4670533538 -0.4687694013 0.7497442365
-0.13489304 -0.025048818 0.815 -0.3976623416 -0.8027108908 0.4444321394
-0.064425483 -0.10595275 0.78766662 -0.03242647275 -0.2946232855 0.9550631642
-0.054588284 -0.14428267 0.79632437 0.1372422576 0.1105631292 0.9843477011
-0.084738836 -0.15563565 0.78857452 0.4290538728 -0.177017346 0.8857638836
-0.025191331 -0.20556012 0.81588888 -0.1510157138 -0.5091949105 0.8472985625
0.044023618 -0.14584023 0.84600008 -0.582556963 -0.6448358297 0.4947870076
0.016757779 -0.13283235 0.84755558 0.3468233347 0.111863561 0.9312357903
-0.06476631 -0.13491195 0.7719751 0.7555229664 -0.2626941204 0.6001473665
-0.17506102 -0.032236699 0.7912631 0.1127590165 -0.4055428803 0.9070944786
-0.024848156 -0.16474742 0.8613953 -0.204343617 0.01954137534 0.9787041545
-0.19605479 -0.066082969 0.80137491 0.419005245 0.3470265865 0.8390513659
-0.17476891 -0.06454061 0.79325479 0.02356719412 0.3667992949 0.9300015569
-0.15293467 -0.020912882 0.81140006 -0.2990492284 -0.7949159145 0.5278998017
-0.075224087 -0.15514633 0.78563827 0.2622078061 0.1380539685 0.9550854564
-0.1874588 -0.044698458 0.7905001 0.3385727108 -0.09276922047 0.9363558888
-0.067987055 -0.17670424 0.79044449 0.01479249634 0.4686101079 0.8832812309
0.033787001 -0.15557881 0.80430436 -0.6585966945 -0.5472109318 0.5165370703
-0.06648431 -0.086892039 0.79638481 -0.2598006725 -0.3965831399 0.8804688454
-0.15501766 -0.055043884 0.79351979 -0.11027354 0.2281701863 0.9673562646
-0.094500132 -0.15286238 0.80827278 0.7823191285 -0.1474780142 0.6051669121
-0.16432084 -0.11390713 0.81590915 0.2191842049 0.4612938166 0.8597478271
-0.053328332 -0.15318769 0.79693341 -0.1794588119 0.2097632289 0.9611420035
-0.12495964 -0.10512785 0.80121404 0.2404531389 0.2542147338 0.9367802143
-0.087057129 -0.06709037 0.79670596 -0.2808913291 -0.434771955 0.855612874
0.050751109 -0.15960856 0.83900005 -0.7453501225 -0.4800591171 0.4625974298
-0.11524633 -0.055412531 0.79404366 -0.2270922363 -0.3483997881 0.9094210863
-0.19228293 -0.037599243 0.79612505 0.3897889853 -0.217827782 0.8947712779
-0.10181811 -0.16559504 0.79366666 0.7678016424 -0.05529660732 0.6382969022
-0.15529236 -0.12353756 0.81750005 0.279101491 0.4729621708 0.8357087374
0.01482521 -0.1349979 0.80165899 -0.5583423376 -0.2805556357 0.7807319164
-0.16418937 -0.045273479 0.79025042 -0.1121224612 -0.06477218121 0.9915811419
-0.14540435 -0.084951252 0.80223423 0.2045229077 0.2654022574 0.9421952963
-0.093083672 -0.084243357 0.79091668 -0.02801149897 -0.1780505776 0.983622551
-0.10504349 -0.13466273 0.80527645 0.3940184414 0.3434222639 0.8525318503
-0.11364061 -0.14319538 0.81566685 0.513918817 0.3738487363 0.7720910311
0.057226345 -0.15386616 0.85299999 -0.6943830848 -0.4925970435 0.5245763063
0.026938841 -0.1412494 0.84357148 0.0387465246 -0.5260994434 0.8495399356
-0.039476302 -0.1101181 0.79000002 -0.1649953425 -0.6667407751 0.726796627
0.029087799 -0.18768555 0.79000002 0.2179588974 -0.132811442 0.9668790102
-0.11183812 -0.051707551 0.80066675 -0.3686586618 -0.5654989481 0.737768054
-0.10681548 -0.037352137 0.82537502 -0.5713281631 -0.7224141955 0.3894892931
-0.085375823 -0.094710954 0.7900874 0.009791654535 -0.08783773333 0.996086657
-0.040137306 -0.13129662 0.77600002 -0.1487493664 0.6711124778 0.7262793183
-0.17305051 -0.10047329 0.80900002 0.1929475814 0.4426782429 0.875675261
-0.018760666 -0.19886072 0.85600013 -0.3430511653 -0.4673483074 0.8148014545
-0.15542033 -0.027550071 0.79568756 -0.2097438276 -0.6409774423 0.7383463979
-0.012030746 -0.1313601 0.78100008 -0.4030650258 -0.09372280538 0.910359621
-0.025246892 -0.11546099 0.78361398 -0.2038970441 -0.570969224 0.7952485085
-0.058210492 -0.18154626 0.78860009 -0.35516873 0.3324434459 0.8736913204
-0.087778442 -0.10471959 0.79150003 0.2044559717 0.1596538872 0.9657682776
-0.10378959 -0.053309154 0.80242425 -0.4489768147 -0.6711149812 0.589936018
0.044490851 -0.18427585 0.78427684 0.1681399941 -0.213586539 0.9623459578
-0.14559436 -0.1158191 0.8130573 0.3147324324 0.4120782018 0.8550643325
-0.1172286 -0.14707586 0.82269233 0.5162702799 0.4090088606 0.7524471879
0.047843978 -0.15273818 0.84264708 -0.6446058154 -0.5632143021 0.5169845223
-0.14554322 -0.075258955 0.80102116 0.1690500379 0.2558966577 0.9518082738
-0.054157063 -0.16416694 0.80473083 -0.811034441 0.2910763919 0.5074423552
-0.14000805 -0.13139217 0.81900007 0.3080649674 0.5452358127 0.7796242237
-0.092573695 -0.1731097 0.79400003 0.4178605676 0.5108382106 0.7512901425
0.0011659666 -0.11916178 0.79800004 -0.5608202219 -0.552305162 0.616797924
-0.03567186 -0.19622929 0.81577784 -0.4255457222 -0.4598961174 0.7793628573
-0.015074802 -0.19520365 0.8633334 -0.3354301751 -0.4139569402 0.8462424278
0.029742669 -0.17914771 0.78900003 0.2536107898 -0.3053623736 0.9178428054
-0.10406998 -0.0439987 0.81450003 -0.5566163659 -0.7278450727 0.4005243778
-0.095360771 -0.056192033 0.80277503 -0.4612464309 -0.6941141486 0.5526818633
-0.096238136 -0.046747185 0.82595658 -0.6348199844 -0.7185810804 0.2839803398
-0.13713282 -0.028223407 0.80672735 -0.3678728342 -0.7679983377 0.5242595673
-0.16481316 -0.06490279 0.79431367 -0.06753866374 0.3495364487 0.9344853163
0.035361659 -0.19482277 0.78644681 0.09408355504 -0.02239790373 0.9953123331
-0.085768938 -0.13724416 0.79585713 0.41231516 -0.2353881001 0.8801071644
-0.056203578 -0.085747525 0.80244738 -0.2393752486 -0.4404114187 0.8652960658
0.0055080499 -0.13468654 0.79473704 -0.4966116548 -0.203349784 0.8438161612
0.044430107 -0.16833304 0.79778963 -0.05417208001 -0.5101495981 0.8583779931
-0.02501332 -0.13311784 0.77403456 -0.412686646 0.5680915713 0.7120124102
0.013730621 -0.16579179 0.86386961 0.1600997448 0.2681259215 0.9499876499
-0.12541428 -0.035759177 0.80352283 -0.4151979089 -0.6639057398 0.6219645143
-0.1855325 -0.076799296 0.80123317 0.2332492322 0.4143620431 0.8797152042
-0.071588248 -0.13680524 0.77480006 0.7984939218 -0.3369632065 0.4988619685
-0.094667651 -0.043342989 0.83333343 -0.6376642585 -0.7210667729 0.2710110247
-0.12358537 -0.15413474 0.82790923 0.565707624 0.4588070512 0.6851795316
-0.0014184467 -0.20922089 0.80900002 0.3915276527 -0.4825177789 0.7835066319
-0.1558415 -0.10661396 0.81146681 0.2222881615 0.4185255468 0.8805817962
-0.053189125 -0.19534647 0.80185193 -0.7821611762 -0.4365417361 0.4445842803
0.024291031 -0.2202653 0.79160005 0.2587437332 -0.05596096814 0.9643236399
-0.047721397 -0.11465207 0.76427776 0.3858259618 0.8804978132 0.2754304707
0.0044238097 -0.15599126 0.86148566 0.1434730142 0.2511920929 0.9572449923
-0.044892177 -0.20388769 0.80806249 -0.6242215037 -0.4198800623 0.6588233709
-0.1049372 -0.12465648 0.80219156 0.2874897718 0.254622221 0.9233185649
-0.17526537 -0.10547359 0.8151083 0.2184854299 0.4396958947 0.8711668253
-0.03444973 -0.21305305 0.81254554 -0.3687522411 -0.5616599917 0.7406482697
-0.12563589 -0.046116792 0.79530025 -0.2763941586 -0.4380551577 0.8554027677
-0.1811693 -0.018959671 0.801 0.09715908766 -0.6388912201 0.7631370425
-0.12504552 -0.13433634 0.81504995 0.3537001014 0.5330550671 0.768601656
-0.11552382 -0.035789844 0.81586969 -0.5177745819 -0.7431625724 0.423814714
-0.045298707 -0.14534748 0.79229778 0.05129656568 0.4913830757 0.8694316149
-0.11479868 -0.044796433 0.80266684 -0.4397280514 -0.6038681269 0.6648176908
-0.066057481 -0.076459691 0.80302775 -0.2841983736 -0.4204102159 0.8616765738
-0.1018564 -0.14295496 0.80825007 0.5677043796 0.2244903743 0.7920327187
-0.09189494 -0.14264604 0.7971251 0.60150069 -0.1613536924 0.7824077606
-0.014045744 -0.12443028 0.78248006 -0.3676701486 -0.3936231732 0.8425434232
0.024671262 -0.14519212 0.80398256 -0.6589519978 -0.464936167 0.5912838578
-0.19382529 -0.054945398 0.79511786 0.4405202866 0.1767015308 0.8801808953
-0.11990433 -0.02943759 0.81900007 -0.477799356 -0.783106029 0.3980611265
-0.20349585 -0.063415758 0.80545449 0.4832633138 0.2873066068 0.8269894123
-0.046332985 -0.1952284 0.8053658 -0.7249375582 -0.3265824318 0.6064729691
-0.11552771 -0.1550023 0.82530773 0.5610379577 0.375793606 0.7375741601
-0.081120886 -0.071302228 0.80000001 -0.3022982478 -0.3983799219 0.8659729958
-0.067846917 -0.14789344 0.78041673 -0.3016049564 0.5784246922 0.7579309344
-0.043129697 -0.10805783 0.75387502 0.1984305084 0.9626652598 0.1841220856
-0.12726483 -0.12868677 0.81100005 0.3343223035 0.4843694866 0.8084644675
0.052330513 -0.16606839 0.83599997 -0.802423954 -0.364807874 0.4722616374
-0.025045894 -0.1851614 0.86254174 -0.3230848908 -0.3053451478 0.8957569599
-0.074877933 -0.094988264 0.79089314 -0.1191190109 -0.1838899106 0.975702405
-0.13605991 -0.037923884 0.79622227 -0.2758280039 -0.4722754061 0.8371827006
-0.11162334 -0.16281365 0.81100005 0.8099219799 0.1268497556 0.5726565719
-0.11962555 -0.029725136 0.82700002 -0.4933167994 -0.7959586382 0.3508394957
0.017714335 -0.15416202 0.80393344 -0.6175431013 -0.430072397 0.6585425138
0.024505287 -0.20502521 0.86256826 0.001723483671 -0.2774380147 0.9607419968
-0.076591358 -0.065453999 0.83492851 -0.6558277607 -0.7272482514 0.2024844289
0.0032035972 -0.12598911 0.79558831 -0.5895915031 -0.4641208947 0.6610398293
-0.014065426 -0.114172 0.79389477 -0.4001370668 -0.6572537422 0.6386766434
-0.11494238 -0.10484335 0.80262774 0.2179597765 0.2545764744 0.9421700239
-0.09466207 -0.16532792 0.78770822 0.4972264767 0.1075740829 0.8609260321
-0.13519113 -0.094639458 0.80122209 0.261307925 0.2539616227 0.9312473536
-0.084154256 -0.054800913 0.83345455 -0.6694785357 -0.7041993737 0.236435473
0.020356201 -0.21110132 0.86000001 -0.04380187765 -0.2921082675 0.9553816915
-0.036772139 -0.18777594 0.85609996 -0.3154931664 -0.4255621731 0.8481514454
-0.12248085 -0.041980173 0.80080009 -0.4008321464 -0.5922756791 0.6989585757
-0.054674726 -0.17494603 0.81471437 -0.4858538806 0.06491516531 0.8716260791
-0.1818147 -0.10294943 0.81390911 0.2176894695 0.4534901679 0.8642672896
-0.13010873 -0.030571997 0.81100005 -0.4150457382 -0.7722833157 0.4809527099
-0.10443424 -0.15342094 0.81750011 0.5964419842 0.3242565095 0.734244287
-0.1060324 -0.057558652 0.79720026 -0.2859305739 -0.5210514665 0.8042071462
0.024459917 -0.13490821 0.8455652 0.235717684 -0.2606686652 0.9362099171
-0.067094214 -0.12974666 0.80000001 0.07690633833 0.168212682 0.9827461243
-0.067178965 -0.11981403 0.79000002 0.499178797 0.2246346921 0.8368750215
-0.032738239 -0.11935817 0.77800006 -0.4557222426 -0.5294901729 0.7155119777
-0.063269883 -0.14641023 0.80151987 -0.3024474084 -0.3214783967 0.8973166943
-0.12482557 -0.14520803 0.82381058 0.4655143917 0.4947669208 0.7338269949
0.036298871 -0.17736539 0.78723997 0.1898010522 -0.3590679467 0.9138084054
-0.050493859 -0.18508869 0.85400003 -0.5798855424 -0.4872610867 0.6529237032
-0.13247617 -0.14272308 0.82500005 0.3619708717 0.5338290334 0.7642012835
-0.18321808 -0.072031029 0.79666674 0.2184149176 0.4147903323 0.8833141327
-0.11552031 -0.094195664 0.79622233 0.2266654223 0.2066469193 0.9517982006
0.0061986786 -0.12684996 0.85621053 0.2735542953 0.1493650973 0.950188458
0.041134953 -0.15957525 0.80900002 -0.7324863672 -0.586604774 0.3454830647
-0.0079573439 -0.21186556 0.81172734 0.2880407274 -0.5389407277 0.7915651798
0.050146211 -0.16860755 0.82900006 -0.8390473127 -0.4343557358 0.3276198208
0.02474758 -0.19531156 0.86627275 0.03377312049 -0.2254527211 0.9736685753
-0.004950196 -0.20337971 0.86172229 -0.2607441843 -0.4733162522 0.8414179683
-0.13956533 -0.078549333 0.80000001 0.1910089552 0.2307868004 0.9540718198
-0.055797044 -0.11745858 0.77447063 0.3900258541 -0.7543658018 0.5280265808
0.014773752 -0.12742151 0.85285711 0.3103341162 0.136427328 0.940787077
0.050685212 -0.21512128 0.78483337 0.1100747809 0.0200447645 0.9937211871
0.038522925 -0.15152176 0.83700001 -0.6414522529 -0.6395892501 0.4236325622
0.053076185 -0.15618654 0.84543484 -0.7051395178 -0.4908544123 0.5117032528
-0.056440096 -0.18141204 0.81722236 -0.6414967179 -0.1790008843 0.7459495068
-0.19191286 -0.062620297 0.79720002 0.3791981936 0.3001908958 0.8752680421
0.036404599 -0.13549045 0.85289472 -0.4296984375 -0.7644910216 0.4805338085
-0.015115695 -0.15494338 0.86214286 -0.05176165327 0.1891470402 0.9805835485
0.043477599 -0.17765029 0.78717381 0.1271301508 -0.3279868364 0.9360889792
-0.064111173 -0.08324711 0.80161536 -0.2701778412 -0.4052627683 0.8733648062
-0.015043087 -0.20469207 0.8545 -0.3750430644 -0.6867119074 0.6227113605
-0.13864045 -0.11802213 0.81100005 0.3153805435 0.4234472215 0.8492511511
-0.14752132 -0.017465172 0.81737512 -0.3430091441 -0.8162910938 0.4647726417
-0.08210811 -0.14625616 0.78777772 0.5534597635 -0.228262201 0.8009860516
-0.038576078 -0.1546555 0.79462498 0.1456079632 0.4489333034 0.8816218972
0.014635462 -0.2145476 0.7908892 0.4131886661 -0.1514483243 0.8979635239
-0.10515608 -0.16401461 0.82470375 0.6257362366 0.207559213 0.7519130707
0.00069169002 -0.13418785 0.78900003 -0.5240795016 -0.1274477839 0.842079401
-0.025027353 -0.19640392 0.85563165 -0.3063819706 -0.4058745205 0.8610435128
-0.10443532 -0.10540912 0.79575014 0.2464883626 0.2493385375 0.9365221858
-0.073389858 -0.12419093 0.79733342 0.2016494721 0.2482046634 0.9474871755
-0.18523827 -0.034845311 0.79270017 0.3098686039 -0.3242888153 0.893766284
0.0055516963 -0.20499974 0.86395919 -0.09133885801 -0.3937787712 0.9146559238
-0.13223748 -0.12278622 0.8085556 0.3271380961 0.4459587336 0.8331274986
-0.084112361 -0.064655662 0.80334377 -0.507437408 -0.7179272175 0.476537317
-0.028705133 -0.10963286 0.78900003 -0.2085133046 -0.6876004338 0.6955054402
-0.04881876 -0.08877337 0.80239999 -0.2429387271 -0.5105175972 0.8248348832
-0.098640777 -0.059464298 0.79800004 -0.296962291 -0.5260816813 0.7969011664
-0.14901054 -0.02868278 0.79800004 -0.2667560279 -0.6799544692 0.6830103397
-0.0032285724 -0.12261608 0.79217398 -0.5235271454 -0.5060322881 0.685456574
-0.075375915 -0.10462569 0.78711748 0.102938652 -0.06861556321 0.9923182726
-0.10205136 -0.042700328 0.82560003 -0.6115146279 -0.7115961313 0.345949173
-0.18308094 -0.09047664 0.80900002 0.1719118655 0.4473462403 0.8776831031
-0.051150665 -0.12427208 0.76692307 -0.2269272655 0.8930945992 0.3884405792
-0.061227564 -0.13735555 0.79666668 -0.3406578004 -0.3728961051 0.8630763292
-0.14061558 -0.072056741 0.79800004 0.1476807743 0.2279960364 0.9623970985
0.047647104 -0.14303184 0.85256249 -0.5735895038 -0.6592305899 0.4862202704
0.015226185 -0.17462468 0.86513537 0.04540944472 0.1011611223 0.9938331842
-0.13378131 -0.13285404 0.81758839 0.3305757344 0.5485574603 0.7679872513
-0.065251626 -0.16487183 0.78405666 -0.1822694391 0.1960368007 0.9635078907
-0.17482172 -0.026888853 0.79497457 0.05927884206 -0.5338003039 0.8435302377
-0.19089898 -0.083940394 0.80800003 0.2967990041 0.4249078035 0.8551980257
-0.025073282 -0.10669234 0.79518908 -0.2866739333 -0.709806025 0.6434232593
-0.075878285 -0.077423431 0.79715806 -0.2902851701 -0.4001096189 0.8692795038
-0.085102662 -0.1150714 0.79360992 0.1789345294 0.291202575 0.9397784472
0.058937423 -0.16114536 0.85100001 -0.7780163884 -0.3743150532 0.5045579672
-0.16161087 -0.12219243 0.8175 0.2343228012 0.4511448443 0.8611394763
-0.2046825 -0.055233654 0.80351353 0.4707353413 0.1555034667 0.8684623837
-0.041615292 -0.19461374 0.81209093 -0.5779324174 -0.4226457477 0.6981151104
-0.074970573 -0.14493828 0.78282368 0.7195029259 -0.09740322828 0.6876250505
-0.0058517498 -0.14850909 0.86100006 0.04662245512 0.2462975532 0.9680722356
-0.14208108 -0.11229369 0.80900002 0.292950362 0.3841539025 0.8755602837
-0.025388826 -0.1260407 0.77478582 -0.5376386642 0.1102838442 0.8359318972
-0.054809097 -0.10166126 0.79141176 -0.1230262443 -0.5192394853 0.8457274437
-0.14468916 -0.1050401 0.8076511 0.2655052245 0.3207822144 0.9091786146
-0.06309016 -0.11510052 0.78276688 0.5920656919 -0.4127603769 0.6921611428
-0.033940922 -0.13227755 0.77517653 -0.3285852075 0.7246739268 0.6057057977
-0.059464298 -0.088846661 0.79800004 -0.2391110063 -0.4315280318 0.8698329926
0.034424677 -0.16271912 0.80138457 -0.5177069306 -0.5660948753 0.6414952278
-0.17437811 -0.077350065 0.80063993 0.08476890624 0.4197944403 0.9036519527
-0.0042285924 -0.21514766 0.80606657 0.3386927545 -0.5499343872 0.7634522915
0.0049323207 -0.20833164 0.80466688 0.5032020211 -0.3670327067 0.7823520303
-0.085204832 -0.12685008 0.80095655 0.2270928472 0.1044583917 0.968254745
0.015306433 -0.20816587 0.79542857 0.5052880645 -0.2701636851 0.8195703626
-0.064097658 -0.17440973 0.78613341 -0.1006773636 0.2255077064 0.9690254331
-0.15396427 -0.067229122 0.80047989 0.01574446075 0.2970099151 0.9547445774
-0.090965554 -0.18370463 0.8075 0.5389822125 0.7029905915 0.4640069604
-0.047924444 -0.10169333 0.80000001 -0.1485841274 -0.5265532136 0.837057054
-0.14237067 -0.030858666 0.80000001 -0.3169040978 -0.7077897787 0.631352067
0.02030886 -0.22038874 0.85800004 -0.1089915112 -0.4118908942 0.9046915174
-0.056687217 -0.1857491 0.79288888 -0.6853206158 0.07303952426 0.7245694399
-0.033783749 -0.19225845 0.8530454 -0.3792737722 -0.6044098735 0.7005998492
-0.16435288 -0.021703539 0.80155569 -0.1494189948 -0.6635266542 0.7330800295
-0.0647026 -0.10270274 0.79291672 -0.1634674966 -0.321146071 0.9328148365
-0.029413627 -0.19872017 0.81833339 -0.4013220072 -0.8709515929 0.2835207283
-0.0059488746 -0.12640889 0.78639394 -0.5025231242 -0.3418999016 0.7940875292
0.014849349 -0.21581662 0.85589498 -0.1089915112 -0.4118908942 0.9046915174
-0.08092773 -0.11136209 0.78900003 0.2579853833 0.2372236997 0.9365727305
-0.014789807 -0.21485747 0.81226921 0.05934635177 -0.6526338458 0.7553457022
0.027819553 -0.17089154 0.80000001 -0.09263441712 -0.4578115046 0.8842101097
