# .PCD v0.7 - Point Cloud Data file format
VERSION 0.7
FIELDS x y z normal_x normal_y normal_z
SIZE 4 4 4 4 4 4
TYPE F F F F F F
COUNT 1 1 1 1 1 1
WIDTH 512
HEIGHT 1
VIEWPOINT 0 0 0 1 0 0 0
POINTS 512
DATA ascii
-0.1285874695 -0.285808295 0.7100690007 -0.5081582069 0.1484076679 0.8477506042
-0.1268833578 -0.291915983 0.7141751051 -0.5445406437 0.1576123089 0.8221982718
-0.1203451082 -0.2881660461 0.7190164328 -0.6230251789 0.09192377329 0.7755852938
0.05870848522 -0.1266222894 0.7112941742 0.1147390455 -0.03976751864 0.9834975004
-0.1394854635 -0.2721480131 0.7033362389 -0.3012872934 0.05114189535 0.9390799999
-0.1436018944 -0.2558854818 0.7031383514 -0.08699180186 -0.1322597265 0.9773317575
-0.1674581766 -0.2675400674 0.7087499499 0.1868694872 -0.08166932315 0.9735895991
-0.1493359655 -0.2641856968 0.7069218755 -0.1562476009 -0.05342835188 0.928347826
0.0534177497 -0.1375050396 0.7139742374 0.1624768376 0.1076811254 0.964846611
0.06267553568 -0.1351805031 0.7135939002 0.2629342675 0.1592838913 0.9499966502
0.02800251171 -0.09889531881 0.7663386464 0.1233120039 -0.8654460311 0.4854608476
0.02829029411 -0.1066571176 0.769220829 0.1245049685 -0.7753066421 0.5597972274
0.03039319068 -0.1178117171 0.7726758718 0.1233392581 -0.6417005658 0.6698981524
0.03641450405 -0.1312725246 0.7760618925 0.1155706644 -0.4749667048 0.8075355291
-0.1588268429 -0.2826503515 0.7048774958 -0.005749927834 0.03453273699 0.9991592765
-0.1369753778 -0.2841441333 0.7132109404 -0.3898717761 0.06060518697 0.8695281744
0.02093333937 -0.1334591508 0.7738711834 0.05564288795 -0.4980455637 0.8008430004
0.06277886033 -0.1438413262 0.7171310186 0.3146778345 0.2094262689 0.9255772829
0.06118249521 -0.156378448 0.7219645977 0.2582732439 0.2893201709 0.9216948748
0.05154086277 -0.120265007 0.7175604701 -0.1485021263 -0.6207003593 0.7113473415
0.04592955485 -0.1252961755 0.7136307359 0.01217541192 -0.363478452 0.9221077561
0.05929449201 -0.1313416809 0.7199739814 0.1900925487 -0.08877847344 0.8357340097
-0.1623910218 -0.2740066051 0.7051160932 0.09438014776 -0.01408923324 0.995210588
-0.1525639147 -0.2715603411 0.7016795874 0.01522791851 0.003828837303 0.9948192835
-0.1535545886 -0.2564602196 0.7026340365 0.1080107838 -0.1476358175 0.9810176492
-0.1397555172 -0.2805574238 0.7038798928 -0.2838854194 0.1173564941 0.9400832653
-0.169470787 -0.2601776421 0.7107944489 0.2373771966 -0.1468354315 0.9595528245
-0.1300342381 -0.2686355412 0.7072999477 -0.5565622449 0.03165771067 0.823512435
-0.1655322462 -0.2473826259 0.7114810944 0.2717308402 -0.2274741232 0.9345756769
-0.1504737139 -0.2451970577 0.7052079439 0.126401186 -0.2330119312 0.957799077
-0.1530445069 -0.2378732413 0.7072240114 0.1641269624 -0.2617191374 0.949998498
0.05215583742 -0.1482432038 0.7709875703 0.4943131208 -0.6223035455 0.5771340132
0.04346524179 -0.1163212731 0.7590871453 0.1095832437 -0.7685585022 0.5320590734
0.04683279619 -0.1390857995 0.7700536847 0.2893738151 -0.5899169445 0.6243322492
0.04472093657 -0.1254123598 0.7635528445 0.1786678135 -0.694370985 0.5724992156
0.04192202166 -0.1309689134 0.7697302103 0.1122613847 -0.5351527929 0.7408610582
0.04983016104 -0.1345726103 0.7643363476 0.3653640449 -0.7423555851 0.4584232569
0.02558454499 -0.1409528553 0.7754119635 0.08176137507 -0.3884792626 0.8861892819
0.02534795925 -0.1243687421 0.7738550305 0.1155053079 -0.5759011507 0.7260924578
0.02205993049 -0.1177170798 0.7717034817 0.1142932698 -0.6600866318 0.6577649713
0.03290318325 -0.1391431987 0.7784027457 0.1156417057 -0.3890973926 0.878267169
0.03816784546 -0.1179333553 0.7660550475 0.1012525707 -0.6766841412 0.6346564293
0.03733509779 -0.1247261614 0.7711625099 0.1092252284 -0.5715105534 0.7273477912
0.04679971188 -0.1196008697 0.7510578036 0.1799968481 -0.8576529026 0.4275369346
0.04524963349 -0.1101507097 0.7452948093 0.04501337558 -0.8895434737 0.4492557645
0.0584696196 -0.1533293128 0.737533927 0.3567153215 -0.04483259842 0.7488014102
0.0564847216 -0.1503089517 0.7547934651 0.4713199735 -0.4373030663 0.5482920408
0.05465154722 -0.1476834714 0.7438980937 0.4180578887 -0.1677622348 0.6823502779
0.05588347092 -0.1441409737 0.7253051996 0.3115723729 0.1554508954 0.8595548868
0.05453624576 -0.1452499777 0.7627152801 0.4962470829 -0.6811478734 0.4354568422
0.05485315621 -0.1378804743 0.7322402596 0.2509270012 -0.1863616854 0.7242594361
0.05362811685 -0.1289586127 0.7359790206 0.1368414164 -0.5308117867 0.6027024984
0.05237788334 -0.1181417257 0.7345760465 -0.02819620259 -0.8106000423 0.5241602063
0.05411690101 -0.1348812878 0.7416920066 0.2494651228 -0.4924302101 0.5883659124
0.05447214842 -0.1404389292 0.7496649027 0.3669055402 -0.5170618892 0.5446235538
0.04994855076 -0.1273332089 0.7527942657 0.2483041883 -0.8195749521 0.4334976673
0.05133637786 -0.1231828332 0.7444385886 0.1168230549 -0.827590704 0.4718753099
0.05364554748 -0.1249902248 0.7282062173 0.06181276962 -0.4567843676 0.6766875982
-0.02846330218 -0.1249181256 0.7638282776 0.2958116233 -0.7750996947 0.4988061786
-0.008674975485 -0.1489355564 0.7700812221 0.02239035256 -0.4022687674 0.8386636972
0.03736378998 -0.1290054321 0.714821279 0.1023945138 -0.428914994 0.8416908383
0.03804289922 -0.1026118845 0.7573595643 0.09179662168 -0.8865469694 0.4519712627
0.04285607487 -0.1056285799 0.7523372173 0.07355060428 -0.9006149173 0.4282689691
0.01784201711 -0.1210757494 0.7279650569 0.2639169395 -0.7631403208 0.5881275535
0.009518456645 -0.1011654362 0.7635102272 0.1887334734 -0.8536088467 0.4841565192
0.01896491647 -0.1002168208 0.7675446868 0.1449470967 -0.8610118032 0.4869034588
0.006544397213 -0.1097268835 0.7657991052 0.1723528057 -0.765847981 0.5596484542
0.01413174998 -0.1176129058 0.7696327567 0.1110500395 -0.6797725558 0.6416309476
-0.08871700615 -0.2230971605 0.7304467559 0.02925707586 0.1445621401 0.9877458811
-0.0844815895 -0.277470082 0.7442903519 -0.4062764347 0.2230742872 0.8776344657
-0.1476463526 -0.2912466824 0.7082586884 -0.2476563752 0.09127247334 0.9560182095
-0.1365984976 -0.2918066978 0.7083200812 -0.3808782697 0.1692598313 0.9072473049
-0.1636520624 -0.2567506433 0.7074443102 0.2337775975 -0.1748318076 0.9553796053
-0.1580111384 -0.2505283058 0.7055116892 0.2006784379 -0.203821972 0.9551236629
-0.1569433212 -0.2653107643 0.70240587 0.110464491 -0.05560110137 0.9916167259
-0.1114152372 -0.2872381806 0.7269670963 -0.6081402302 0.04711905494 0.787979424
-0.100157693 -0.2798288465 0.7312264442 -0.5504392385 0.08520171791 0.8186104298
-0.07696142793 -0.2584013343 0.7424172163 -0.2616813481 0.4102959037 0.8678048253
-0.1663660258 -0.2365833819 0.7167734504 0.3100959361 -0.2816227376 0.9071617126
0.05468240753 -0.1599506438 0.7374257445 0.6812875271 -0.4053954184 0.2353394032
0.05482086539 -0.1568928361 0.7501555681 0.5861388445 -0.4255593419 0.4533597231
0.02617762797 -0.1213815361 0.7232285142 0.2361411452 -0.7712911963 0.5899886489
0.03641606495 -0.1214879751 0.7187582254 0.1249143481 -0.7486345768 0.6437523365
0.02197949961 -0.1169487983 0.7328715324 0.2167133391 -0.8127669096 0.5395874977
-0.02556907386 -0.1446983963 0.7577348351 0.1406334341 -0.5659202337 0.7058061361
-0.03018471599 -0.1317419857 0.7568805814 0.253456831 -0.7353079915 0.5483801961
-0.03067554906 -0.1396637261 0.7540054917 0.1867885888 -0.6480948329 0.6438686848
-0.03418080509 -0.1233950481 0.7573173046 0.3149887919 -0.8231834769 0.4706674218
-0.0166612193 -0.1235690936 0.7636648417 0.2546840608 -0.7035368681 0.5708545446
-0.01265580021 -0.1326947361 0.7659502029 0.1663276255 -0.5868595839 0.6753638387
0.01386868954 -0.1378628016 0.7726374865 0.05823555589 -0.4693245888 0.8196440935
0.005617992021 -0.1171924919 0.7667790055 0.1721738428 -0.6974332929 0.6083671451
0.009924934246 -0.1269697398 0.7696650624 0.1137932017 -0.5879453421 0.7114154696
0.005431289785 -0.1057094857 0.7570070028 0.2127586305 -0.846054256 0.4885021746
-0.1115655601 -0.1798368394 0.7157148719 0.0229848735 -0.3191690743 0.9195480943
-0.1048080474 -0.1758020818 0.7149499059 0.07674153894 -0.3583822548 0.9031903744
-0.07927207649 -0.1788386703 0.7039660811 -0.2000778466 -0.6307694316 0.7160968184
-0.05937470123 -0.2197767049 0.7187572718 0.1567864716 0.1733171344 0.9571924806
-0.1173747703 -0.2794033587 0.719479382 -0.665707171 0.03608366102 0.7438651919
-0.1217624173 -0.2654668093 0.714094758 -0.6898109913 -0.02551114745 0.7222706676
-0.1262402833 -0.279471308 0.7165339589 -0.5660365224 0.0608323589 0.7870405316
-0.1452943534 -0.2829733491 0.708786428 -0.2087442726 0.0405638963 0.9296965003
0.04220749438 -0.1685866565 0.7712942362 0.1840273142 -0.3731487393 0.8993833661
0.05126198381 -0.1580529809 0.7680913806 0.5313284993 -0.5806889534 0.5711544752
0.01957094297 -0.1333221644 0.7202598453 0.263848722 -0.6393956542 0.7084634304
0.0413631089 -0.1528780162 0.7270522118 -0.03128466383 0.2563098669 0.8317511082
0.03353541344 -0.1404277831 0.7213823795 0.09150315076 -0.2362172753 0.7904644608
0.04659305513 -0.1167984083 0.7271365523 -0.01298862137 -0.8248590231 0.5625541806
0.02971695922 -0.1106529385 0.7413852215 0.1180186346 -0.874192059 0.4709328711
0.03819759563 -0.1131385863 0.7361963391 0.09878736734 -0.8705127239 0.4807055593
0.03662056476 -0.1169843152 0.7259944081 0.1529296786 -0.8224720955 0.5422099829
0.01137482654 -0.1077137813 0.751827836 0.1935972869 -0.846096158 0.4958616793
0.01094916556 -0.1156799793 0.7404683828 0.233664304 -0.8038509488 0.5448789597
-0.002452737885 -0.1188206375 0.7421925664 0.2742600143 -0.7873342633 0.5519204736
-0.0076119476 -0.1158049107 0.7494730353 0.308268249 -0.7978736162 0.5174342394
-0.0140054049 -0.1146068498 0.755063951 0.3362229168 -0.8062439561 0.4865599871
-0.0245506838 -0.1535424292 0.755559206 0.06687289476 -0.4532254636 0.8261108994
-0.03729441017 -0.1405389607 0.7469055057 0.1841619909 -0.670196414 0.6540752053
0.01517339516 -0.1944189072 0.7264137864 0.09494803101 -0.4376168251 0.4528597891
-0.1122162566 -0.1698148996 0.7247651815 0.02557007968 -0.3366927803 0.9341310263
-0.1240772977 -0.1781033427 0.724370122 -0.07833520323 -0.2635498345 0.9594585896
-0.080445081 -0.1504223794 0.736831069 0.1508627534 -0.4625167847 0.8733186126
-0.09084809572 -0.2028052211 0.7163939476 0.04053126276 -0.01506215055 0.9601229429
-0.08579941094 -0.1888537109 0.7094286084 0.1676172167 -0.2039362043 0.9240193963
-0.07830879092 -0.1873855144 0.705534935 0.04022102058 -0.1225607246 0.9354872108
-0.08193286508 -0.1967722923 0.7104358673 -0.04443483055 0.006566381082 0.9598707557
-0.1423124671 -0.2483464032 0.7045762539 -0.1107235327 -0.1894694418 0.9548283219
-0.1288581043 -0.2522765398 0.7077143788 -0.5390062332 -0.1213653758 0.8320006132
-0.1443350315 -0.231337741 0.7192229629 -0.1041243821 -0.1992405802 0.8505246639
-0.1573474407 -0.234153077 0.7172606587 0.1552199274 -0.2478175312 0.8906970024
-0.09098043293 -0.2080541849 0.727576375 0.01892396994 0.1123811826 0.9882736206
-0.08133230358 -0.2108561993 0.7284908295 0.1496498436 0.1819775105 0.9676908851
-0.07035759836 -0.188814491 0.7051962018 -0.2676536143 -0.118102707 0.901396811
-0.1234152466 -0.1866250485 0.7188759446 -0.08208110929 -0.2360444665 0.9608806372
-0.05655571446 -0.2257673144 0.7236468196 0.008666199632 0.3991190791 0.9136762023
-0.03982583433 -0.2083880156 0.7107867002 0.05744851753 0.1809024215 0.9420973063
-0.03230108693 -0.2038454264 0.708440721 -0.04689985141 0.04354153201 0.9842464328
-0.07405745983 -0.2699427605 0.7503094673 -0.3106817901 0.4009412527 0.8603782058
-0.02168473601 -0.1975778937 0.7092519403 -0.151961267 -0.107040599 0.9752475023
-0.06996127963 -0.2305635959 0.7248266339 0.08739185333 0.2772361636 0.9522109032
0.02846267261 -0.1010545194 0.7590771914 0.1165099591 -0.8720346689 0.4748211503
0.01844629459 -0.1041717455 0.7555487156 0.1475680023 -0.8625320196 0.4835816324
0.02768763341 -0.1060542315 0.7504636049 0.1109426618 -0.8759584427 0.4691068828
-0.09627255797 -0.2807841897 0.7383210659 -0.5113452077 0.06766512245 0.856411159
-0.09541261196 -0.2692624331 0.7337536216 -0.4294742048 0.1216822788 0.8856048584
-0.149271965 -0.2308725715 0.7085868716 0.1109438911 -0.2840369046 0.950396955
0.0416306369 -0.1453155875 0.722845614 0.09256662428 0.06181021035 0.9248133302
0.04397616535 -0.139490515 0.717779398 0.08051872998 0.01027434692 0.9612301588
0.05037867278 -0.1461677998 0.7195996642 0.1408010423 0.1927816868 0.9443259239
0.05307594687 -0.154714942 0.724513948 0.2031562626 0.3358674049 0.9161579013
-0.004818683956 -0.120506078 0.7652313113 0.2455053627 -0.6869369745 0.6015274525
0.007599411067 -0.147604838 0.7729178667 0.0104061123 -0.3737224638 0.8901845813
0.00287345727 -0.1351895481 0.7696359158 0.1172507927 -0.5159659386 0.760977149
-0.01223292295 -0.1113053337 0.7618259192 0.3282022774 -0.7974495888 0.4934270084
-0.003579735989 -0.1114118695 0.7633731365 0.2723868191 -0.7839385867 0.5072077513
-0.0003311563341 -0.1499801129 0.7712744474 -0.00777285872 -0.3534354568 0.8911879659
-0.00343811675 -0.1424492598 0.7692213058 0.057055071 -0.4398707151 0.8122002482
-0.006173108239 -0.1291061193 0.7663367391 0.1743714958 -0.593400836 0.6773632169
-0.0003192430304 -0.1129113436 0.7507334948 0.2668865323 -0.8132087588 0.5157991052
0.03190091997 -0.1475066245 0.7789806724 0.08758631349 -0.3134452105 0.9444214702
0.01813345961 -0.1526699215 0.7751877308 -0.02519473806 -0.3285827339 0.9437954426
0.04253463075 -0.1596289277 0.7727534175 0.1464964598 -0.3331844211 0.9314044714
0.03995402157 -0.1501373351 0.7771930695 0.1283637285 -0.3197447062 0.9385626912
0.02045233734 -0.1098320708 0.7462027669 0.1416389495 -0.8637779355 0.4831320047
-0.02697609738 -0.1192458794 0.7572745085 0.3337645233 -0.8191844225 0.4662773311
-0.02092985064 -0.1177861542 0.7524151802 0.3341643214 -0.8109869957 0.4799852967
-0.07827658951 -0.1719983071 0.7118564844 0.01645265892 -0.5367423296 0.8091524839
-0.08707742393 -0.174957931 0.7046749592 0.2264447361 -0.4904600084 0.8363975883
-0.07932496816 -0.1657760292 0.7171399593 0.2163562477 -0.4470261931 0.8650044203
-0.05257028341 -0.1372125894 0.7389891744 0.2260470688 -0.6846106052 0.6877923012
-0.1066147909 -0.1753812432 0.7276741266 -0.01048045978 -0.2785899043 0.951449573
-0.1054960564 -0.1904019117 0.7250252366 -0.08169904351 -0.1185535192 0.9843331575
-0.09709235281 -0.1948277503 0.7262613773 -0.02342608571 -0.01981103048 0.9812123179
-0.1009923518 -0.1806300581 0.7259465456 0.0503497608 -0.3144491017 0.9153119922
-0.09309950471 -0.1770810932 0.7264731526 0.1886537075 -0.4022901058 0.8684693575
-0.1112909913 -0.1836705655 0.7253888249 -0.08329743147 -0.20643875 0.9744057655
-0.1159228683 -0.17692101 0.7280481458 -0.06097911671 -0.2524183989 0.9634136558
-0.09803263098 -0.1738165617 0.7094324827 0.203895852 -0.4355741441 0.8632540703
-0.09782063216 -0.1691287309 0.7222326398 0.1669969112 -0.5245799422 0.8286324739
-0.1079882383 -0.1649917513 0.7304107547 0.04278647527 -0.3482117653 0.9356927872
-0.09688949585 -0.1627539694 0.7300180197 0.1154162064 -0.4883229733 0.8587379456
0.007608762477 -0.1769182682 0.7250724435 0.366048038 -0.7340686917 0.2674778402
-0.0124888476 -0.1602988839 0.7183288932 0.1840463877 -0.3160204291 0.8729072213
-0.0007937514456 -0.1742324978 0.7223746777 0.2914535105 -0.5482280254 0.4833029211
-0.005538746715 -0.1653007269 0.7206396461 0.246723786 -0.4625230432 0.6700615287
0.01040982828 -0.1371884942 0.7215434909 0.2954573333 -0.6175337434 0.717887342
-0.01670737565 -0.168558687 0.7175444365 0.1050092652 -0.1575731337 0.9246584177
-0.05269699171 -0.208008498 0.7104418874 0.2114145309 -0.002082731575 0.9701097012
-0.07965683192 -0.236390546 0.7272681594 0.03279750422 0.2871274352 0.9568783045
-0.08594159037 -0.2302678227 0.7261661887 0.02024523914 0.2209956646 0.9717233181
-0.09433539212 -0.1922826171 0.7136348486 0.08371543884 -0.1210032552 0.9144791365
-0.09367730469 -0.1864812374 0.7090762258 0.1527645886 -0.256092459 0.8835554123
-0.102886036 -0.1955850422 0.716979146 -0.03276126832 -0.1011231691 0.9378772974
-0.1034482867 -0.1999794096 0.7249501348 -0.1162839904 0.01331464201 0.988242209
-0.1357177347 -0.2414140403 0.7076269984 -0.3195081055 -0.1655081511 0.9264450669
-0.1444665492 -0.2398124039 0.705789268 -0.01082994323 -0.226484254 0.971708715
-0.09818120301 -0.2237528563 0.7246086001 -0.06988234073 0.1312469393 0.9696630239
-0.1104537845 -0.2282586992 0.7202533484 -0.3077500463 0.01271556411 0.8892080188
-0.1048031971 -0.2224479765 0.720225215 -0.2260194421 0.050234925 0.9253203273
-0.09619359672 -0.2326444834 0.727344811 -0.08386590332 0.19214423 0.9714868665
-0.06969597936 -0.1603258699 0.7286957502 0.1615535915 -0.3923701942 0.9043715596
-0.02413157187 -0.2106283158 0.7441667318 -0.03162003681 -0.1024392098 0.6404471397
-0.01872354746 -0.1955491453 0.7571516633 -0.2567459047 -0.3920313418 0.6334422231
-0.02271533757 -0.199808985 0.7515158057 -0.2912772894 -0.1582350433 0.6931865215
-0.03081016615 -0.1987355351 0.7364670038 -0.247240603 -0.08537086844 0.8353153467
-0.03524219245 -0.2110733688 0.7266311049 -0.09765496105 0.18908903 0.8460620642
-0.02468433417 -0.1922998875 0.7514607906 -0.4680822492 -0.1455194503 0.7819114923
-0.03490782157 -0.1983969957 0.7258256078 -0.09335509688 -0.1847378612 0.8878974915
-0.02889151871 -0.2034834027 0.7420542836 -0.3253841102 0.09913081676 0.7940315604
-0.03446173668 -0.2183730304 0.7296111584 -0.1365649551 0.425535053 0.8097773194
-0.01355719101 -0.1822177321 0.7658115029 -0.02077480592 -0.2437797636 0.9695319533
-0.04524494335 -0.1831507087 0.7209963202 0.05999466032 -0.2056522965 0.9721798897
-0.03989446908 -0.1808107346 0.7295788527 -0.07439543307 -0.1812177747 0.9299224019
-0.03684688732 -0.1540367156 0.7447603345 -0.0485207364 -0.5385137796 0.7154815197
-0.04330940917 -0.1416912377 0.7379564643 0.1729904115 -0.6459998488 0.7080396414
-0.04050428048 -0.1499913633 0.7390222549 0.05947256088 -0.5367692709 0.7597819567
-0.02462392114 -0.1709552407 0.7564852238 -0.312156409 -0.3562185466 0.7718666196
-0.03216068819 -0.1609698832 0.7497310042 -0.1692017317 -0.4758653343 0.7230129838
-0.01876570284 -0.1742176563 0.7612915039 -0.3225514889 -0.2857426107 0.8294031024
-0.01276924741 -0.1691861898 0.765385747 -0.1457918286 -0.2555108368 0.9246962667
-0.01658582129 -0.1628914475 0.7618433833 -0.04568011686 -0.3222981989 0.905341208
-0.03209211677 -0.1485050619 0.7485543489 0.1105840057 -0.5376344323 0.7780532837
-0.04677456245 -0.1985564232 0.7070391774 0.003371517174 -0.05803161487 0.9876537919
-0.05427511409 -0.1844737232 0.7122985721 -0.1141818985 -0.183343932 0.9553346634
-0.05019470677 -0.1916382909 0.7083598971 -0.1479450464 -0.1959605068 0.9578200579
-0.04403792322 -0.1867822409 0.7132946253 -0.0456594862 -0.2127905041 0.9628472924
-0.03529702127 -0.1961582154 0.7090683579 -0.01846675761 -0.1887509674 0.9783809781
-0.06784310192 -0.2382039428 0.727440536 -0.02906934731 0.4020344317 0.9141120911
-0.07658602297 -0.2291084379 0.7293921709 0.03028824739 0.2271795869 0.959178865
-0.06560185552 -0.2248017192 0.7297339439 0.04242709279 0.3330870271 0.9171699286
-0.06974630803 -0.2077926695 0.7294343114 0.1872778088 0.1658310294 0.9651257992
-0.05615843832 -0.2365413159 0.7307752371 -0.1125392094 0.4719128311 0.8709631562
-0.06456840783 -0.2155747563 0.7302707434 0.09619510174 0.2706850171 0.9314897656
-0.05174683779 -0.2163307071 0.7168875337 0.08331587166 0.2442746013 0.9336302876
-0.08731070906 -0.2643298209 0.7364786863 -0.3653097153 0.292193234 0.8777548671
-0.08036705852 -0.2700305283 0.7389270067 -0.3189403117 0.3303561211 0.8874640465
-0.08079937845 -0.2660852075 0.7457710505 -0.3406998217 0.3666886985 0.8515454531
-0.08984331787 -0.271533668 0.7411918044 -0.392041564 0.1707036793 0.8901427388
-0.09178324044 -0.2389332205 0.7327312231 -0.05795198306 0.2512727678 0.9577974677
-0.09476985782 -0.253473103 0.7343740463 -0.2197717577 0.1942454576 0.9532361031
-0.08933717757 -0.2481476218 0.7346536517 -0.1542833447 0.2797245979 0.9335666895
-0.08285586536 -0.242076382 0.7336401939 -0.05183570459 0.3394284248 0.92399472
-0.07956756651 -0.2491529584 0.7364952564 -0.145299226 0.4152796566 0.887245357
-0.08407276124 -0.2578514516 0.7353503108 -0.2395384908 0.3511571586 0.9015548825
-0.0127833318 -0.1773783118 0.7184694409 0.1032237262 -0.236733079 0.8031241894
-0.007657701615 -0.1825383306 0.7196301222 0.1523240507 -0.3762613833 0.6543257236
-0.0217836611 -0.1744603068 0.7160025835 0.04345682263 -0.07168546319 0.9956387281
-0.007198816631 -0.1782523543 0.7669460773 -0.01033913624 -0.2494397163 0.9681903124
-0.07360832393 -0.2149814516 0.7286072969 0.1448155046 0.15101026 0.9755888581
-0.07175782323 -0.2226465344 0.7243369222 0.1527387947 0.1689790487 0.9684768319
-0.08114757389 -0.217052117 0.7240359187 0.08377487212 0.1332814693 0.9822816253
-0.09243752807 -0.2145350873 0.7216476202 -0.04221811518 0.1295093745 0.9880471826
-0.08001539856 -0.2055815607 0.7159056664 -0.05667878315 0.1250510812 0.9785395861
-0.1340328902 -0.2484030873 0.718005538 -0.417571187 -0.166535452 0.7588497996
-0.1600024849 -0.2424163967 0.7100569606 0.2567799985 -0.2501433492 0.9318560362
-0.1477766633 -0.2492659688 0.7141334414 -0.1066021919 -0.1882338971 0.8464345932
-0.1557739228 -0.2524449825 0.7131758332 0.02496153302 -0.1830152422 0.8873679638
-0.1457934529 -0.2568710446 0.7121436 -0.2128059119 -0.1230330914 0.861694634
-0.1379494667 -0.2564599216 0.71367836 -0.3792697787 -0.1119615734 0.8163505197
-0.1339572072 -0.2616401017 0.7088352442 -0.4675296843 -0.04685463756 0.8523338437
-0.1288385242 -0.2557472885 0.7157064676 -0.5724668503 -0.1016964391 0.7611055374
-0.1209616214 -0.2707609832 0.7201143503 -0.675739646 0.00694885524 0.730324924
0.01199732069 -0.193659097 0.761707902 0.3294582367 -0.5057012439 0.7650611401
-0.01698329113 -0.1234550178 0.7439181209 0.3169695139 -0.7940040231 0.5180519223
-0.01058484614 -0.1613813341 0.7671695948 -0.02305926383 -0.2939995825 0.9303051829
-0.0158602111 -0.1520943195 0.7662751079 0.06179518625 -0.422146678 0.8148300648
-0.02356285788 -0.1399920136 0.7648301721 0.1773901135 -0.5958647132 0.6572362781
-0.01576197334 -0.1420547962 0.767806828 0.1110283509 -0.5185918212 0.7325770259
0.03502986953 -0.17755422 0.729165554 0.3483478725 -0.2564958036 0.3201428056
0.04039695486 -0.1681646556 0.7301465273 0.1549266726 0.0941106081 0.5691382885
0.04544546455 -0.169142887 0.752987802 0.5718071461 -0.5686842799 0.3714770079
0.04455430806 -0.1714617461 0.7414523363 0.6890920997 -0.6460294127 0.1352798194
0.005277622957 -0.1729426831 0.7688512206 -0.004967886955 -0.2882685065 0.9574030638
0.009617511183 -0.1609083116 0.7726317048 -0.04506950825 -0.2996785939 0.9528563023
0.003782825777 -0.1245683059 0.7311577201 0.268799603 -0.7359038591 0.6186373234
0.01211674046 -0.1293399036 0.7234107852 0.2963162363 -0.6759855151 0.672080338
0.001601106371 -0.1319249719 0.7245153785 0.2805425525 -0.6401792765 0.7123368382
-0.03564761207 -0.1275264025 0.7449971437 0.279566288 -0.8185789585 0.5015445352
-0.01121778879 -0.1249169707 0.7379457951 0.2811644375 -0.7592897415 0.585975647
-0.005562411156 -0.1270898432 0.7324817777 0.267487973 -0.7165139914 0.6418728232
-0.01177163608 -0.1321066916 0.728900969 0.2562602758 -0.6487103105 0.7157896161
-0.07822033763 -0.1758816987 0.7232440114 0.1737392694 -0.4133595526 0.8778450489
-0.07692614198 -0.1886371821 0.7258931398 0.2236580402 -0.1618054062 0.9113970995
-0.08962803334 -0.166679129 0.7199504972 0.1604409963 -0.5072463751 0.8363414407
-0.09249249101 -0.1701792181 0.7138343453 0.2133164108 -0.4981252253 0.8321492672
-0.0802782923 -0.1637236327 0.7251042724 0.1456170231 -0.5249115229 0.8305597305
-0.03613692522 -0.1420949847 0.728933692 0.2378441691 -0.5849289894 0.7725013494
-0.03592187539 -0.1365483552 0.7348902225 0.242303133 -0.7031965852 0.6650128365
-0.02799213491 -0.2220178694 0.7359572053 0.01426620409 0.2135774642 0.6997252107
-0.05902951211 -0.150129199 0.7306162119 0.2005882412 -0.4996879399 0.8421679139
-0.03043520078 -0.1839219779 0.7132073641 0.05186056346 -0.103085503 0.990133822
-0.03876066953 -0.1769166291 0.7175423503 0.09689014405 -0.07515264302 0.9869574904
-0.05656428263 -0.1989523768 0.7066260576 0.03318820521 0.004694151226 0.9868334532
-0.05591655895 -0.2178748697 0.7283765078 0.03586814553 0.3472638726 0.9060131907
-0.05054525658 -0.2303854078 0.7268903852 -0.09790363908 0.4685305953 0.8763212562
-0.04069849476 -0.2267841995 0.7270083427 -0.09821632504 0.5369569063 0.8371101022
-0.1045593768 -0.1833098829 0.7078046799 0.1182973087 -0.3579184711 0.8869407773
-0.09469716251 -0.1786842197 0.703109026 0.2343155593 -0.4390976131 0.8471089005
-0.1080950722 -0.1884514987 0.7120575905 0.005845822394 -0.2736928463 0.9187280536
-0.1486631781 -0.2047743201 0.7208657265 0.09983338416 -0.2538804412 0.9619274139
-0.118344076 -0.1874803752 0.7271796465 -0.1180899441 -0.1700991988 0.9727965593
-0.1122661829 -0.1970311254 0.7245907187 -0.1532664448 -0.09160030633 0.979883492
-0.1285838634 -0.2361404747 0.7132669687 -0.5329141021 -0.1464620978 0.8255364895
-0.1096429601 -0.2402189672 0.7311317325 -0.346406728 0.07207217067 0.9298163652
-0.122005336 -0.2384165376 0.7173740268 -0.556682229 -0.09014644474 0.7983245254
-0.1266532689 -0.2442616373 0.7100635171 -0.5842250586 -0.1406868845 0.79876405
-0.1006701663 -0.25108096 0.7228664756 -0.3354481161 0.102263771 0.8380058408
-0.1176021546 -0.2588301003 0.7176417112 -0.6858519316 -0.0739524439 0.7059969902
-0.1004601121 -0.2377662659 0.7314471602 -0.1266845018 0.1595046967 0.9722887278
-0.0997037217 -0.2463559359 0.7329224944 -0.1989582032 0.1321747452 0.9638206959
-0.1071796864 -0.2593316734 0.7214718461 -0.4989269376 0.04437728971 0.7868727446
-0.08915320039 -0.2455078512 0.7268208861 -0.09913244098 0.2170673311 0.9301217794
-0.1006626785 -0.2581905127 0.7259007692 -0.3926865757 0.09293507785 0.8491927385
-0.07075080276 -0.1527717113 0.7319574356 0.1752655804 -0.4723122716 0.8627246618
-0.0671377033 -0.1464369297 0.7361581326 0.1923085749 -0.5482230186 0.8130287528
-0.0611016266 -0.1406425238 0.7384822965 0.2190069258 -0.6020899415 0.7659862638
-0.04401655868 -0.1312608868 0.7435417771 0.2582120895 -0.7865357399 0.5518685579
-0.04102266207 -0.129029572 0.7526479959 0.2901462018 -0.7699391246 0.5511229634
-0.06701765209 -0.2454710752 0.7352060676 -0.1407902241 0.4590479732 0.8644203544
-0.04790424928 -0.2219614685 0.7223812938 -0.02888961136 0.5024347901 0.8616611362
-0.03890918195 -0.2149823308 0.71655792 -0.02220538072 0.4876046479 0.8703250289
-0.02380355448 -0.2060865313 0.7122520804 -0.2056249082 0.170385018 0.9561255574
-0.07287895679 -0.2541096509 0.7350373268 -0.20221816 0.4383003116 0.8646900058
-0.07439299673 -0.2429843098 0.7295254469 -0.04313278571 0.3986410499 0.9153106213
-0.0007805038476 -0.1852838248 0.7656376362 0.006193982903 -0.2331057042 0.9724139571
-0.02862885408 -0.192712307 0.7099511623 -0.03553336486 -0.1728971899 0.9785179496
-0.01999278553 -0.1826803386 0.71476686 -0.003690177109 -0.1359379888 0.9900169969
-0.1065483019 -0.2660830915 0.7264920473 -0.5597836971 0.01880478486 0.8051504493
-0.1102411002 -0.2735013366 0.7252309918 -0.6457517743 -0.02177481353 0.7626413703
0.0330889672 -0.1535304189 0.7281324863 0.1396355033 -0.03248212114 0.7082414627
0.02758229896 -0.17012465 0.7333031893 0.5761962533 -0.6293135881 0.2863733768
0.02438846603 -0.1511444747 0.727353394 0.3347517848 -0.4481483996 0.5740790963
0.01640429348 -0.1633479744 0.7260110378 0.4049394429 -0.7750264406 0.3083746433
0.01922796294 -0.1787417829 0.729344368 0.4902960956 -0.8165246844 0.1162878349
0.01212959178 -0.1561132818 0.7238773704 0.3479100168 -0.7158280611 0.449929446
0.003106472548 -0.1564828306 0.7221157551 0.2950962484 -0.5990088582 0.5993866324
0.01078017429 -0.1448746771 0.7224341631 0.3145363033 -0.6526556015 0.6153845191
0.002620869316 -0.1437088251 0.7206845284 0.2633949816 -0.5409498215 0.7695405483
0.003483745269 -0.1663223058 0.7232188582 0.3195340633 -0.6437724233 0.4682666957
0.01455489453 -0.1720015109 0.7260209322 0.398168534 -0.8119232655 0.2071802914
-0.006400004495 -0.1499445885 0.7195361257 0.2238268852 -0.4478983581 0.8446290493
0.01933510229 -0.1863316149 0.7297298312 0.5048428774 -0.8501058221 0.01485639066
-0.006798984483 -0.2032480687 0.7619434595 0.1692374349 -0.5734349489 0.700732708
-0.003100161906 -0.1715400219 0.7686920166 -0.0153162498 -0.2607178092 0.9650108218
-0.003297480522 -0.161426127 0.7703992128 -0.05828981102 -0.2714374363 0.9605183601
0.04057301208 -0.1788874269 0.7457649708 0.5471321344 -0.6042234898 0.3075739145
0.04036216438 -0.1804851294 0.7367239594 0.6789579988 -0.6837034225 0.09330143034
0.03904333338 -0.1770812124 0.7628194094 0.3500487506 -0.5074719787 0.6563614607
0.03783331439 -0.1790750921 0.7551960349 0.4888299108 -0.6029669046 0.4460171163
0.04887718707 -0.1674245298 0.7353712916 0.7827375531 -0.5956812501 0.00915400777
0.05111056939 -0.1619600654 0.7565183043 0.7385355234 -0.5780993104 0.2738543153
0.05141228065 -0.1633013785 0.7446533442 0.7791671753 -0.5628815889 0.1192647517
0.05266911164 -0.1640663147 0.7293686867 0.8403496742 -0.5292722583 -0.08327268064
0.03149560839 -0.1769685298 0.7673197389 0.2326320708 -0.4684156775 0.7771652341
0.02442359366 -0.1595795304 0.7741527557 0.007006960455 -0.3361204565 0.9415899515
0.01709865779 -0.1625518948 0.772887826 -0.03128810972 -0.3220479786 0.9458040595
0.03308242187 -0.1564554721 0.775105834 0.1219630465 -0.3324978948 0.9339101315
0.02647255734 -0.1678458601 0.7716572285 0.03161079809 -0.3491280079 0.9352009892
-0.01025060192 -0.1427262574 0.7210909724 0.2336982936 -0.4950278699 0.8366400003
-0.08618830889 -0.1709483415 0.7269133925 0.1075296327 -0.4923454523 0.8623139262
-0.08500942588 -0.156174168 0.7335819602 0.1206915826 -0.4320747852 0.8936749101
-0.02462019958 -0.1474763751 0.7227583528 0.2340953797 -0.4322865605 0.869240284
-0.01596734114 -0.1503064185 0.7186729312 0.2171469331 -0.410499692 0.884036839
-0.02444284409 -0.128723219 0.73831743 0.2674130797 -0.7637273669 0.5852046609
-0.02887972072 -0.1363493502 0.7314637899 0.2389470935 -0.6650053263 0.7044802308
-0.01963321865 -0.1343577057 0.7296965122 0.2517889142 -0.6346830726 0.7286776304
-0.02537540533 -0.2143002898 0.7180948257 -0.1806263477 0.4927572608 0.8489959836
-0.03211826459 -0.2183409184 0.7201099396 -0.0909023881 0.5874810219 0.8018895984
0.0007841248298 -0.1981090903 0.7628853917 0.2872745693 -0.5343376398 0.7178676724
-0.03453361243 -0.1514035016 0.7234823704 0.2203714103 -0.4014424086 0.8845380545
-0.0394400768 -0.1580689996 0.7354543805 0.02994564921 -0.4264717996 0.8217884302
-0.03598456085 -0.1616012901 0.7414741516 -0.09210451692 -0.4159429371 0.7949819565
-0.04230367765 -0.1571344584 0.7230603695 0.2196513563 -0.360414505 0.9027711153
-0.0528135933 -0.1451628804 0.7327701449 0.2117868662 -0.5642234087 0.7958772182
-0.04908328131 -0.1506489366 0.7281601429 0.2187868357 -0.4797351956 0.8442932367
-0.02994706854 -0.1732650101 0.7166876793 0.1042484269 -0.06792680174 0.9910042286
-0.04278765991 -0.2398846895 0.7351661325 -0.1666604578 0.549235642 0.8184185028
-0.03664027527 -0.2343124002 0.733394444 -0.1441308409 0.5679038167 0.8096553087
-0.03440331668 -0.2400963902 0.7387728691 -0.1697457135 0.5822619796 0.7950235605
-0.04469532147 -0.2342627645 0.7302795649 -0.1453289539 0.5259175897 0.8372337818
-0.1290446371 -0.2113771588 0.7159807086 -0.1924704015 -0.1470511109 0.9651716948
-0.1366826743 -0.2134763151 0.7130913734 -0.07155137509 -0.2423022389 0.9655919671
-0.1349592954 -0.2216549516 0.7117235661 -0.2337020189 -0.2429203838 0.9352900982
-0.1420753747 -0.227614671 0.7081770301 -0.02412076294 -0.2824999392 0.9550668001
-0.1443569213 -0.219950363 0.7114762664 0.014055904 -0.2834948301 0.9582343698
-0.153901428 -0.2143480182 0.7200760245 0.1535252035 -0.2680853009 0.9355006814
-0.1284511089 -0.1977835894 0.7170034051 -0.1067851782 -0.16232647 0.9789974689
-0.1328154504 -0.189931646 0.7193281651 -0.02386800572 -0.2293645889 0.9728270173
-0.1355364919 -0.2033875734 0.7155066133 -0.02298543043 -0.1531258523 0.9875385165
-0.1221032292 -0.2097137421 0.7185551524 -0.1886498481 -0.0452038087 0.971763134
-0.1097699925 -0.2061080188 0.7230437398 -0.1818969846 0.02144652605 0.9790993929
-0.1228955612 -0.230869934 0.7170910835 -0.5400232673 -0.07956330478 0.8195996881
-0.1012047008 -0.2090496123 0.7267525196 -0.1146153808 0.09704653919 0.9862173796
-0.09767667949 -0.2166090161 0.7288280129 -0.06365383416 0.126170218 0.9860395193
-0.06817235798 -0.1861630082 0.7247825265 0.06988348812 -0.2060484886 0.9215009212
-0.06851021945 -0.1989736557 0.7284796834 0.1663421988 0.058506798 0.9534965754
-0.06781671196 -0.171028614 0.7229254842 0.01575720683 -0.426383853 0.8995937705
-0.07110815495 -0.1638739109 0.7210348845 0.03202520683 -0.4979144335 0.8242200613
-0.06159834564 -0.1585505307 0.7262531519 0.1659018099 -0.4046876431 0.8957175612
-0.05095716193 -0.2447144687 0.7358627319 -0.1708434522 0.5298250914 0.8301881552
-0.0672763139 -0.2624195516 0.7447808385 -0.2802107036 0.4764111936 0.8312799931
-0.07385851443 -0.2667232752 0.7422804236 -0.2965829968 0.4049451053 0.860976994
-0.06052131578 -0.2556277514 0.7417855859 -0.2346299142 0.5240191817 0.8183576465
-0.01404316351 -0.199611932 0.7615569234 -0.2911451459 -0.4938099384 0.733767271
-0.01410357188 -0.1910674274 0.7640619278 -0.1714349538 -0.2574338317 0.9441889524
-0.00508029433 -0.1928534657 0.762891829 -0.01017826144 -0.2534397244 0.9618366957
-0.09984481335 -0.2624096274 0.7360268831 -0.3811537325 0.05067539215 0.9196459055
-0.1030460596 -0.2550752759 0.7336370945 -0.3397248685 0.04153743759 0.9360505342
-0.1107107401 -0.253118664 0.7309455276 -0.5240684748 -0.0322999768 0.8468320966
-0.1119171977 -0.2621209621 0.7298012376 -0.6032797098 -0.05719623342 0.7952218652
0.01510242652 -0.172280997 0.768936038 -0.03440787643 -0.3178072274 0.9474839568
0.008655247279 -0.18058002 0.7669057846 -0.006051366217 -0.268746078 0.9619487524
0.01978384331 -0.1783479303 0.7664320469 0.008875905536 -0.313205421 0.9489884973
-0.02561739273 -0.2316098511 0.7428591251 -0.0323679857 0.2685086429 0.7175842524
-0.01017226279 -0.21702528 0.7541900277 0.2467932701 -0.4105356932 0.5507673025
-0.01534342207 -0.2223307639 0.7524908781 0.1690405309 -0.2401822209 0.5923269987
-0.02067678049 -0.227405414 0.7487688661 0.07407367229 -0.01088971645 0.6486295462
-0.0110968193 -0.2076683939 0.7564245462 0.3591093421 -0.8392628431 0.3882923424
-0.0330504626 -0.1800924093 0.7406879663 -0.2507812381 -0.1860978603 0.869541049
-0.04147148505 -0.172402963 0.7268964052 0.03406799212 -0.1777048707 0.9397439957
-0.03721987829 -0.1742060483 0.7338811159 -0.08624454588 -0.1998972744 0.8994371295
-0.04033826292 -0.1642107815 0.7300963402 0.06080344692 -0.3091476262 0.8856805563
-0.02569677681 -0.1807272583 0.7530617118 -0.439193815 -0.2567640841 0.7890877128
-0.03373099118 -0.1701710522 0.7408847213 -0.1608172506 -0.3150060773 0.8310449123
-0.04984748736 -0.1635155976 0.7223439813 0.1713078469 -0.2704871595 0.9444479346
-0.03667189181 -0.1691737622 0.718870461 0.1634454578 -0.1350798011 0.9738062024
-0.0251373481 -0.1566702574 0.717946291 0.2158055902 -0.3218294382 0.9209397435
-0.02901005186 -0.1635012478 0.7175906301 0.1783965826 -0.1997487992 0.9611309767
-0.06061471626 -0.2118119299 0.7182507515 0.2887482345 0.2314703166 0.9247995615
-0.064336285 -0.1998248994 0.7103517056 0.03110231645 0.1224964112 0.9667492509
-0.07236671448 -0.202989012 0.7145422697 -0.01344124693 0.1302821189 0.9704089761
-0.07239833474 -0.211176157 0.7208200097 0.1317490935 0.1489981711 0.965716064
-0.03023497202 -0.189659059 0.7408787012 -0.2989871502 -0.2869763672 0.8459317684
-0.03772442043 -0.1935807467 0.7203432918 -0.006479950622 -0.3561011851 0.9317366481
-0.04125539958 -0.1911957413 0.7280789614 -0.04729236662 -0.2596585453 0.9215530753
-0.03378221765 -0.1911856383 0.7325135469 -0.1744122803 -0.309632808 0.8826146722
-0.03108324111 -0.1863573939 0.7479358912 -0.4348717034 -0.2416749299 0.8228008747
-0.0402712971 -0.1856647581 0.7359597087 -0.2744194865 -0.2363264561 0.8869650364
-0.05585404113 -0.1904468685 0.7226989269 -0.0117228739 -0.1569890976 0.9649364948
-0.04830631241 -0.1920898855 0.7209144235 0.07616300881 -0.2365997732 0.9630560279
-0.06007844582 -0.1969084442 0.7255510688 0.106291607 -0.03312628344 0.9642834067
-0.04646318033 -0.2007440478 0.7227831483 0.06144273281 -0.02514502034 0.9273477197
-0.05970031023 -0.2089461833 0.7287271023 0.1282943934 0.2527406514 0.9235882759
-0.0429386571 -0.2154614925 0.7258986831 -0.01009046752 0.3607402444 0.8592043519
-0.05182600394 -0.2082474977 0.7263533473 0.07523596287 0.2011845112 0.908722043
-0.04066059366 -0.2065669447 0.723054409 -0.001890563406 0.09294779599 0.8898260593
-0.1095929667 -0.2155855745 0.7225083113 -0.2037100941 0.1213648692 0.9589583278
-0.1184146404 -0.2176983356 0.7197182178 -0.2940066755 0.006078242324 0.9325908422
-0.1475246251 -0.2136951238 0.7156050801 0.05726389214 -0.2781237662 0.9561582804
-0.1326472014 -0.2213690728 0.7200494409 -0.3111828864 -0.08864345402 0.8787122965
-0.1587240845 -0.2243919671 0.7169782519 0.2576651871 -0.3112670779 0.9125601053
-0.1338651329 -0.2297194153 0.7198421955 -0.3167093694 -0.1443825662 0.8356272578
-0.1424145103 -0.2227712125 0.7187480927 -0.09163692594 -0.2057511061 0.8862797022
-0.1212562025 -0.1949607879 0.7250651717 -0.1783066392 -0.1224798784 0.9684125781
-0.1189756766 -0.2034344077 0.7226616144 -0.2216695249 -0.06048125774 0.9707615376
-0.1271969229 -0.1866819859 0.7264239192 -0.1138053611 -0.2002090067 0.9660177827
-0.1426960826 -0.1981236935 0.7202415466 0.005005644169 -0.2224067003 0.9718118906
-0.1161314324 -0.244167462 0.7264589071 -0.5961238146 -0.008490456268 0.7976667881
-0.114256151 -0.2320542634 0.7281364799 -0.425535053 0.0854350552 0.9002448916
-0.07962522656 -0.1984375119 0.7260391712 0.2678623199 0.1788814515 0.943883121
-0.08562713116 -0.1847914308 0.7243050933 0.2738272548 -0.2044856995 0.9129886627
-0.08926392347 -0.1932921261 0.7252112627 0.14075993 -0.001905410201 0.9550788999
-0.06876064092 -0.17496261 0.7103952169 -0.167720437 -0.5011430383 0.7833890915
-0.06097682565 -0.1727021635 0.7157351375 -0.04154692218 -0.3156355023 0.9039109945
-0.05157535151 -0.171370253 0.7173979282 0.05061945319 -0.2129122317 0.9502680302
-0.06306090206 -0.1817075759 0.710953176 -0.1860326231 -0.2162550837 0.9396833777
-0.05718316883 -0.1764178872 0.7217692733 0.002105925465 -0.2627638876 0.9575424194
-0.05958241969 -0.1679564565 0.7230353355 0.1122245565 -0.2992323339 0.9436894059
-0.06031088904 -0.1836581081 0.7205735445 -0.1064443886 -0.2725730836 0.9546046257
0.02218210325 -0.1860356629 0.7626356483 0.3447877765 -0.6202297211 0.6379606128
0.03198227659 -0.1850117445 0.740885973 0.6638159752 -0.7182876468 0.1352908611
0.02954632416 -0.1847078055 0.7588983178 0.5591085553 -0.7210861444 0.3791756928
0.0306707304 -0.1878899634 0.7302107215 0.660865128 -0.7476642132 -0.009658757597
0.02287127823 -0.1910560131 0.7528441548 0.5544652343 -0.7653765082 0.2774171829
0.02584321611 -0.1893064678 0.7441604733 0.6004515886 -0.7574140429 0.1718072891
-0.01896480657 -0.2183347195 0.7231158614 -0.2338699549 0.5593318343 0.7930653691
-0.03307023272 -0.2272207737 0.7266013622 -0.13813214 0.5730371475 0.8069294095
-0.02529778518 -0.2292861342 0.7309246063 -0.1564280242 0.5937233567 0.7883797884
0.009632794186 -0.2024786919 0.7358692884 0.4190532863 -0.8726045489 0.0337138027
0.008185380138 -0.2033521384 0.7455335259 0.4473032951 -0.8215069771 0.1931679249
0.002093356801 -0.2064440697 0.7613744736 0.4019434154 -0.7558361292 0.509947896
0.0115110036 -0.2009688467 0.7578820586 0.5458208323 -0.7194765806 0.4033191204
0.01828795671 -0.1960888654 0.740198195 0.5585191846 -0.7857850194 0.1333155036
-0.02137180232 -0.225839898 0.7390422225 -0.02193511277 0.278020978 0.7148037553
-0.01506095659 -0.2200128287 0.7393680811 0.001793103409 0.1415070891 0.66655159
-0.01981234923 -0.2238508165 0.7289996147 -0.1769959629 0.5545573235 0.7581956387
-0.01507647615 -0.1921129376 0.7143841982 -0.1597492993 -0.04033800215 0.9693822265
-0.008595532738 -0.1965521276 0.7171618342 -0.2839207351 0.04897301272 0.9450605512
0.004405717365 -0.1948848963 0.7228290439 -0.03583054245 -0.3275618851 0.5539754629
-0.0003746370785 -0.1862262338 0.721904695 0.2150373757 -0.5226826072 0.4591525495
0.00870136451 -0.1886442304 0.7251061201 0.2982781529 -0.6866576672 0.218900457
-0.1057545021 -0.2235120982 0.728425324 -0.1943102181 0.1400784105 0.9672712684
-0.1000131592 -0.2436708808 0.725658536 -0.2727280259 0.112515077 0.8784534335
-0.1089579165 -0.2441180646 0.7228187323 -0.4627521634 0.03286667168 0.8017621636
-0.1215549484 -0.2507949471 0.720495224 -0.7047454715 -0.1117984504 0.6993898153
-0.1357174218 -0.2397578657 0.7190827727 -0.3365189433 -0.1411461383 0.8012701869
-0.1483091265 -0.2416609526 0.7177225947 -0.08516167849 -0.2161894441 0.8290401101
-0.01121560298 -0.2080053538 0.7172459364 -0.3248470426 0.3256956935 0.8825683594
-0.01634534076 -0.2037740499 0.7116686106 -0.2721180618 0.1414797753 0.9418430924
-0.1173180342 -0.2246342003 0.7243442535 -0.430247128 0.07064306736 0.8967524767
-0.1351496279 -0.2140608728 0.721717298 -0.2107384056 -0.1070370898 0.9233366847
-0.1404912472 -0.2068658173 0.7222880125 -0.03551897034 -0.1615543813 0.9653440118
0.01110294182 -0.2005335689 0.7275452614 0.3319642246 -0.8120963573 -0.003780601779
-0.006389034446 -0.2120578736 0.7240855694 -0.2931661606 0.3755457699 0.8527795076
0.000106659405 -0.2022537887 0.7209985852 -0.3446587026 0.1579744816 0.9239861965
0.0001407119853 -0.2084892392 0.7259786725 -0.02888962254 -0.09974554181 0.4994779527
-0.009656237438 -0.2165752053 0.7299922705 0.006995563861 0.08209624141 0.5085127354
-0.00848333165 -0.2153251171 0.7410091162 0.1180600673 -0.1613043994 0.5257472396
0.002634159522 -0.2074190974 0.736615479 0.3008699715 -0.6324397922 0.1894298792
-0.001529664733 -0.209783107 0.7547369599 0.3641163409 -0.7339656353 0.3910457492
-0.0005869797315 -0.2094698846 0.744508028 0.3008219302 -0.6076185107 0.3172691166
-0.004258506 -0.2124779224 0.7350004911 0.1528436244 -0.2671369016 0.3780172765
