# .PCD v0.7 - Point Cloud Data file format
VERSION 0.7
FIELDS x y z normal_x normal_y normal_z
SIZE 4 4 4 4 4 4
TYPE F F F F F F
COUNT 1 1 1 1 1 1
WIDTH 512
HEIGHT 1
VIEWPOINT 0 0 0 1 0 0 0
POINTS 512
DATA ascii
-0.25355294 0.044639576 0.82840019 0.05487087741 -0.01833215728 0.9983251691
-0.0086307833 -0.036871374 0.8950001 -0.9931623936 -0.007493388839 -0.1165000498
-0.1163604 0.052195523 0.87400007 -0.3852574527 -0.3030936718 0.8716139793
-0.11080161 -0.060599584 0.86766672 0.03365286067 0.5056182742 0.8621007204
-0.20451985 -0.022697359 0.88000005 0.2187992632 0.4551580548 0.863109529
-0.19323379 0.082024537 0.86366671 -0.2651333511 -0.5568048954 0.7871928811
-0.067040451 0.00076182332 0.86900002 -0.3859941959 -0.4876136184 0.7830973268
-0.14265351 -0.0052001989 0.84750021 0.2632648945 0.05868878961 0.962936759
-0.060358498 -0.070015863 0.91800004 -0.1052902266 -0.3360691369 0.9359334707
-0.20795515 0.02902047 0.85760003 -0.4194434881 0.4980294108 0.7589689493
-0.095235199 -0.025946213 0.90718788 -0.2243349552 0.02171391249 0.974270165
-0.034940574 -0.074703753 0.86631584 0.3749290407 -0.0192888137 0.9268528223
-0.14180829 0.042815082 0.82424998 -0.9390850067 -0.2136865109 -0.2691791654
-0.029614676 -0.00080039666 0.91300005 0.4071258605 0.5468723774 0.7315593958
-0.24187014 -0.0011252017 0.8555001 -0.3438397348 0.5260849595 0.7778231502
-0.15212533 -0.042810261 0.8720001 0.3090063632 0.5259208679 0.7924154997
-0.16254021 0.035265274 0.86090904 -0.1205140054 0.03362025693 0.9921421409
-0.043649912 -0.033409361 0.8630771 -0.4299014211 -0.5083138347 0.7461915612
-0.10405156 -0.021562491 0.85799986 -0.1568931192 -0.09182295203 0.98333776
-0.074117132 -0.072908849 0.88026083 -0.2438673377 -0.9639459848 0.1064745113
-0.22801222 0.072816812 0.83900005 -0.2168320864 -0.409309119 0.8862560987
-0.1478231 0.070698351 0.86250007 -0.2565376759 -0.09062032402 0.9622766376
-0.058022182 -0.029144784 0.91500002 -0.2012334615 0.08990273625 0.9754089117
-0.10556879 0.014971002 0.86276323 -0.2560793459 -0.2674878538 0.9289098978
-0.17508604 -0.005110804 0.86162782 0.2881154716 0.1407955587 0.9471884966
-0.029430868 -0.066019423 0.90733337 0.5572271347 -0.7047222853 0.4391632974
-0.087761775 -0.056322325 0.90733337 -0.2630815208 -0.1100879088 0.9584720731
-0.18606986 0.056531858 0.84758353 -0.3231719434 0.2262530178 0.918895781
-0.053004146 0.013057951 0.89349991 -0.557349205 -0.5920001268 0.5821492672
-0.13072291 0.031968176 0.85600007 -0.5671799779 -0.3644707799 0.7385579944
-0.033022653 -0.013492403 0.88342845 -0.6061657667 -0.5764891505 0.5479264259
-0.01550531 -0.052717667 0.86044455 -0.3644256294 -0.1677478105 0.9159992337
-0.078467801 0.028187463 0.86900002 -0.3620616198 -0.3902067542 0.8465518951
-0.26146147 0.016247703 0.84249997 -0.06684863567 0.5479206443 0.8338550329
-0.22503911 0.044680938 0.83454734 -0.3895923197 0.2101733685 0.8966855407
-0.1289226 -0.039958466 0.86000001 0.1991355419 0.5602197647 0.8040515184
-0.11271346 -0.044516306 0.90246671 -0.6107143164 -0.4357241988 0.6611901522
-0.039584566 -0.046852574 0.92150003 -0.03514943644 -0.1469744742 0.9885155559
-0.21507736 0.0053754873 0.86488098 -0.1954625398 0.4005466402 0.8951853514
-0.13870743 0.019188304 0.83539999 -0.816739738 0.3516671658 0.4574564695
-0.23304349 0.022575922 0.84318185 -0.4117757976 0.5739100575 0.7078615427
-0.17745014 -0.027520977 0.87200016 0.3340007365 0.3905209899 0.8578676581
-0.14771155 0.014338979 0.86075008 0.2307489067 -0.2747592032 0.93341434
-0.022071041 -0.032655276 0.87372738 -0.6088617444 -0.5568790436 0.5649540424
-0.12213719 -0.0041466332 0.86000001 -0.3468267024 -0.1636198014 0.9235473871
-0.063935302 -0.02030886 0.85800004 -0.2541702986 -0.4167914391 0.872744143
-0.18524949 0.024949638 0.86266679 0.08053261787 0.1629878581 0.9833358526
-0.20518951 0.073723868 0.84578967 -0.3088907301 -0.4860109687 0.8175449967
-0.089748748 -0.059065416 0.87500006 -0.4871481955 -0.8618447781 0.1411035955
-0.083869606 -0.01296475 0.85899991 -0.09971296042 -0.2930361629 0.9508875608
-0.15726839 -0.016647782 0.86053342 0.3838708699 0.2650050521 0.8845425248
-0.20505385 0.04551325 0.84456521 -0.4623306692 0.407791853 0.7873729467
-0.22264044 -0.013139189 0.87473333 -0.1821368933 0.4684791863 0.8644960523
-0.17541903 0.072365545 0.85649997 -0.2330448627 -0.3851232231 0.8929558992
-0.26111078 0.061048437 0.83900005 0.05447605625 -0.1876116544 0.9807314873
-0.098953746 0.040655416 0.87500006 -0.2670156658 -0.3187859058 0.9094383717
-0.017139712 -0.017231297 0.89594114 -0.6773789525 -0.5762254 0.4572986662
-0.19480328 0.0052867797 0.86221433 0.07485480607 0.2396392077 0.9679719806
-0.13314962 -0.023209665 0.84850007 0.1136708707 0.2139442414 0.9702096581
-0.24055645 0.060320802 0.82900006 -0.02739119157 -0.2787996829 0.9599585533
-0.13486099 0.055026963 0.86620015 -0.3071172535 -0.1255417317 0.9433547854
-0.16480267 0.054632589 0.85631144 -0.1741482019 0.08578077704 0.9809761047
-0.055229995 -0.069037504 0.87500006 0.358378619 0.3398738503 0.8695116639
-0.036627091 0.0026014391 0.89510524 -0.595718205 -0.6077680588 0.5251074433
-0.11313207 -0.03795879 0.84900004 -0.2664744556 0.2922423482 0.9184692502
-0.19376087 0.042722892 0.86000007 -0.2381127924 0.4576560259 0.8566523194
-0.077383369 -0.0191464 0.91000003 -0.2150304765 0.08946663886 0.9725006819
-0.085182749 0.005311795 0.86486489 -0.2342500091 -0.3492126465 0.9072912931
-0.11497949 0.034616195 0.86687887 -0.3566941023 -0.3292973936 0.8742611408
-0.07536374 -0.044898774 0.91455585 -0.2594449222 -0.0648374334 0.963578999
-0.1654796 0.01692405 0.85800004 0.1053065658 0.01411688607 0.9943395853
-0.12871659 0.037511688 0.83900005 -0.9248688221 0.1636915356 0.3432531357
-0.045568325 -0.015956862 0.86692595 -0.4539579451 -0.5451890826 0.7047631145
-0.12592454 0.014758942 0.85681099 -0.2945830226 -0.074642919 0.9527062774
-0.018848334 -0.070115797 0.86000001 0.4028954506 -0.2078061551 0.8913426995
-0.070363022 0.0193305 0.88200003 -0.4920850098 -0.4918226004 0.7183055878
-0.032143161 -0.045682404 0.85799986 -0.142813012 -0.1864384562 0.9720314741
-0.20394109 -0.0078571877 0.87128592 0.1246049404 0.4333109558 0.8925890326
-0.1051318 -0.0049424521 0.86000025 -0.0674097687 -0.1249880344 0.9898656011
-0.13148685 -0.051218372 0.87200004 0.2216494977 0.5720319748 0.7897157073
-0.073948592 -0.065201208 0.90700006 -0.362378031 -0.8030954599 0.4729903042
-0.044950958 -0.065014347 0.91561937 -0.06755468249 -0.2445926666 0.9672697783
-0.22588007 0.015414485 0.85583866 -0.4869744778 0.528886497 0.6950790882
-0.24709727 0.029797023 0.82900006 -0.1135302782 0.3627596796 0.9249412417
-0.11233719 -0.032023255 0.8667143 -0.3166023791 0.2382250726 0.9181566834
-0.14813621 0.048541028 0.86066675 -0.200195998 0.03402644768 0.9791648388
-0.22082883 0.079826638 0.85100001 -0.2490840405 -0.5534026623 0.7947972417
-0.090945393 -0.040686101 0.91000003 -0.2190950215 -0.02207585983 0.9754537344
-0.11040214 -0.029387619 0.90600002 -0.4679970443 0.1291506737 0.8742418885
-0.056495558 -0.044262893 0.91800004 -0.2324940115 -0.06244761497 0.9705909491
-0.21894808 0.02792388 0.84566671 -0.5303417444 0.5250883102 0.6655974388
-0.26451251 0.035110857 0.83305407 0.09843710065 0.1974149644 0.9753652811
-0.11591726 -0.048063248 0.86000007 0.03919896111 0.4624427855 0.8857821822
-0.14831148 0.033849679 0.86580002 -0.05983185023 -0.04969317839 0.9969707727
-0.17295012 0.0064904019 0.87100005 0.1915595382 0.05428516865 0.979978621
-0.18860307 0.071302988 0.8490001 -0.2983780205 -0.4707507193 0.8302796483
-0.21578009 0.064074151 0.8384288 -0.3401611745 -0.2557662427 0.9049165845
-0.16214851 0.0016118141 0.85799992 0.3258985579 -0.05546762422 0.9437761903
-0.16305287 -0.033406649 0.86822224 0.3073248863 0.4132118821 0.8572090268
-0.1412594 -0.032042868 0.85799998 0.3857695162 0.497723937 0.7768222094
-0.053821418 -0.0037717225 0.87324148 -0.4581476152 -0.5313295722 0.7125936151
-0.17511794 0.042597502 0.860421 -0.07153905928 0.2284335941 0.9709275365
-0.1875979 -0.017124983 0.8720001 0.3323478103 0.3881637752 0.8595777154
-0.093720414 0.027521899 0.8720001 -0.268232882 -0.3515273631 0.8969278932
-0.24468891 0.014618231 0.84435123 -0.2369741648 0.5978876352 0.7657503486
-0.042968381 -0.0037832316 0.88273692 -0.533562541 -0.5878811479 0.6080351472
-0.23529172 0.034335043 0.83468443 -0.3586035073 0.3587104976 0.8618180156
-0.12575763 0.044673491 0.86716682 -0.3400310576 -0.2628653049 0.9029289484
-0.11983069 -0.02605015 0.84900004 -0.3444073796 0.04023135826 0.9379578829
-0.20545444 0.014983892 0.86497313 -0.166454047 0.2785631716 0.9458835125
-0.065009959 -0.054578509 0.91557157 -0.2293759733 -0.09581569582 0.9686103463
-0.24170722 0.071607016 0.83633333 -0.05459275469 -0.4628961384 0.8847298026
-0.018395582 -0.026684174 0.88666672 -0.6677208543 -0.5579718947 0.4927638769
-0.25216264 0.0059683467 0.85100001 -0.2746108472 0.5902407765 0.7590815425
-0.026951581 -0.0062704678 0.89437503 -0.6290493608 -0.5951344371 0.5001118779
-0.033033315 -0.022578085 0.87400007 -0.5302388668 -0.5650447011 0.6321164966
-0.20410748 0.080803238 0.85659999 -0.27988711 -0.5645763278 0.7764771581
-0.11553776 -0.015702233 0.85776466 -0.2871259749 -0.08869596571 0.9537776113
-0.2323048 -0.0051130857 0.86316681 -0.3291769326 0.4880304337 0.8083742261
-0.011925472 -0.041672178 0.88360006 -0.6482029557 -0.5262495279 0.550358355
-0.14646997 -0.015850592 0.85373902 0.3243409395 0.1817156225 0.9283223748
-0.10362678 -0.053050224 0.90318745 -0.5797053576 -0.5887384415 0.5633193851
-0.23571141 0.047844816 0.82900017 -0.2355832011 0.03905966133 0.9710689187
-0.17419392 0.026500814 0.85719997 0.02982307971 0.1008142158 0.9944581985
-0.14085622 0.033570632 0.83250004 -0.9684128165 0.1213383973 0.2178385854
-0.05378576 0.0059608268 0.88334614 -0.5266317129 -0.578613162 0.6227887869
-0.2630859 0.054022249 0.82900006 0.08831527829 -0.1023470908 0.9908205867
-0.16507821 0.075288758 0.86242867 -0.2235031128 -0.3077724576 0.9248364568
-0.13648422 0.0053494475 0.84835517 -0.1766448021 0.1244038343 0.9763812423
-0.11519215 0.0057925344 0.86009121 -0.2303883135 -0.1188609004 0.9658122659
-0.15702863 0.063758314 0.85799986 -0.2314349711 0.004552215338 0.9728397131
-0.074911691 -0.0054800427 0.86204356 -0.2247073948 -0.4136234522 0.8822823763
-0.13564856 0.050558589 0.83100003 -0.9514124393 -0.3072251976 0.02066578902
-0.026276212 -0.036263723 0.86313349 -0.5380369425 -0.514922142 0.6673615575
-0.13287379 -0.0046294774 0.85413647 -0.2617884576 -0.1780210882 0.948564887
-0.094960168 0.015366854 0.86762494 -0.2200275362 -0.3137968183 0.9236446619
-0.15551144 0.025145167 0.86297667 -0.02348067984 -0.03698842227 0.9990397692
-0.094309039 -0.0077725281 0.85799992 -0.05320942029 -0.174603641 0.9832000732
-0.20888861 0.055164244 0.83900005 -0.4479037225 0.1026496664 0.8881696463
-0.18467626 0.035033256 0.85776466 -0.04324647412 0.2424738854 0.9691935778
-0.099798858 -0.060184043 0.86900002 -0.07505328953 0.4730980098 0.8778070807
-0.078434654 0.01322324 0.86863637 -0.3290259242 -0.3691754937 0.8691670895
-0.12309675 0.025085414 0.86000001 -0.6413105726 -0.1310129315 0.756013453
-0.05390723 -0.023407642 0.86126691 -0.387810111 -0.4959210157 0.7769592404
-0.054803245 -0.055042014 0.91900003 -0.09787032008 -0.1908926964 0.9767196774
-0.10524563 0.024967063 0.86675626 -0.2795096636 -0.3337381184 0.9002739787
-0.13288482 0.024913158 0.84236848 -0.8667187691 0.2809325457 0.4121595025
-0.046428636 -0.07456024 0.872742 0.1083572134 0.7176514864 0.6879208088
-0.14605632 0.0058663818 0.85465515 0.2651908696 -0.1023496538 0.9587483406
-0.082797222 -0.071297988 0.87450004 -0.2875715792 -0.9548717737 0.07431324571
-0.17449427 0.015145818 0.86528587 0.1182725504 0.07342616469 0.9902626872
-0.17869724 0.063670628 0.84900004 -0.2779356241 -0.1006014198 0.9553173184
-0.014550562 -0.04212103 0.87360013 -0.6953247786 -0.436550945 0.5709174275
-0.2247743 0.054916438 0.83318514 -0.3329268396 -0.05241332576 0.9414948821
-0.1745944 -0.015000762 0.86450016 0.3275507689 0.2250559777 0.9176384211
-0.25538284 0.025059113 0.83274335 -0.0602825433 0.4377886057 0.8970547318
-0.1925052 -0.024204228 0.87753862 0.2889821529 0.4030745625 0.8683433533
-0.075376786 -0.054970223 0.91277504 -0.293615222 -0.1121079549 0.9493270516
-0.18384239 0.078188255 0.86253339 -0.2451434284 -0.4904805124 0.8362616897
-0.17485568 0.054793939 0.85490221 -0.1745103151 0.2033664584 0.9634252787
-0.03602311 -0.071235299 0.91299999 -0.08409824967 -0.7811325788 0.6186754704
-0.12312618 -0.051729079 0.86633331 0.1619934142 0.5452424884 0.8224772215
-0.15492795 -0.005291719 0.85654551 0.3445017636 -0.01270776615 0.9386996627
-0.18453783 0.015178886 0.86552638 0.08202128857 0.1708965451 0.9818691015
-0.19475618 0.015143169 0.86357498 -0.03292231262 0.2447656542 0.9690231681
-0.084709138 -0.025750659 0.90900016 -0.2278853953 0.03579238057 0.9730299115
-0.10490341 0.0052846186 0.86089802 -0.13106893 -0.193229273 0.9723597169
-0.12405773 -0.035604514 0.85259998 -0.09913383424 0.3499849439 0.9314950705
-0.19429111 -0.0027913903 0.86780959 0.171345368 0.3372516036 0.9256900549
-0.045972399 -0.039520133 0.92000002 -0.01184922922 -0.07269185036 0.9972840548
-0.19504097 0.064520955 0.8459388 -0.3344879746 -0.2371695787 0.9120681882
-0.18472689 -0.0053015794 0.86357135 0.2488065362 0.2190723419 0.9434524775
-0.14341198 -0.042046875 0.86750013 0.3479700089 0.5734777451 0.7416468859
-0.22465259 0.0048888004 0.86271119 -0.371155262 0.4314106405 0.8222703934
-0.14098886 0.014639107 0.84379995 -0.9508426785 0.3035681248 0.06119340286
-0.21539088 0.014937306 0.86285007 -0.3351659477 0.3997462094 0.853151083
-0.19500464 0.024971684 0.86332554 -0.0586084947 0.2262995988 0.9722929001
-0.07527294 -0.035236061 0.91344464 -0.2461607903 0.07152864337 0.9665859938
-0.12510063 0.0052082893 0.85839999 -0.3475210071 -0.07304669917 0.934822619
-0.063898444 -0.073113531 0.87637514 -0.1918886006 -0.9790523052 0.06808304787
-0.18512809 0.0054521207 0.86225516 0.1906815916 0.1713026613 0.9665898681
-0.20411159 0.064965382 0.84187794 -0.2782533765 -0.3081861436 0.9097232223
-0.21477564 0.074068591 0.84479988 -0.2884058952 -0.4631647468 0.8380336761
-0.2049844 0.0053740041 0.86551106 -0.05979071558 0.3511311412 0.9344153404
-0.19460922 0.076916873 0.85395658 -0.2906736434 -0.5468031168 0.7851848006
-0.23490593 0.0053699012 0.85527688 -0.3787746131 0.5439679027 0.7487514019
-0.094563864 0.0052074725 0.86324996 -0.1824204177 -0.3038997054 0.9350763559
-0.22644719 0.035759021 0.8378126 -0.4588295221 0.3798345923 0.8032441735
-0.024452919 -0.054605268 0.85795575 0.1100378036 -0.09030308574 0.9898166656
-0.26640722 0.045390006 0.82713342 0.1143674105 0.01742268354 0.9932857156
-0.035950907 -0.026426477 0.86590916 -0.4738045037 -0.5494629741 0.688185811
-0.11553428 0.015103593 0.86138088 -0.3195798993 -0.196343109 0.9269940853
-0.12488228 0.034586336 0.86282063 -0.4567309916 -0.343380034 0.8206624985
-0.044315908 0.0066745351 0.89169222 -0.554092586 -0.6165047884 0.5593775511
-0.19523141 0.054930635 0.846762 -0.3896930516 0.234041661 0.8907097578
-0.12784377 0.061109625 0.86699998 -0.3398327827 -0.1880846173 0.9214867353
-0.21385933 0.044109043 0.84187168 -0.5143079758 0.3506575823 0.7826407552
-0.12433998 -0.014349811 0.85517865 -0.330796808 -0.1323631704 0.9343733191
-0.064950198 -0.035283882 0.91469073 -0.234453395 0.07289569825 0.9693904519
-0.13463804 -0.014618903 0.84538883 0.02328848466 0.08471031487 0.9961334467
-0.20224202 0.041345354 0.85233331 -0.4003233612 0.5259033442 0.7504444718
-0.165134 0.045557722 0.85799986 -0.1474174559 0.1643665284 0.9753213525
-0.22519393 0.064720072 0.83556533 -0.3004624844 -0.3201157451 0.8984699249
-0.18540512 0.04543066 0.85738903 -0.12555179 0.3225644827 0.9381838441
-0.045854717 -0.053663861 0.92024004 -0.04395584017 -0.1892860681 0.9809376597
-0.21550192 -0.00819337 0.87214291 -0.1445576102 0.4636363983 0.8741535544
-0.081505895 -0.063129202 0.91150004 -0.3661108315 -0.340813905 0.8659150004
-0.16525258 -0.025053252 0.86580956 0.3067829013 0.3793477714 0.8729143739
-0.15510936 -0.02506062 0.86269563 0.3520868123 0.4150460362 0.8389109969
-0.21597882 0.02534144 0.85612839 -0.5047686696 0.5197578073 0.6892462969
-0.17503677 0.077195674 0.86400014 -0.2228882909 -0.4901285768 0.8426712155
-0.13481341 -0.043664169 0.86556679 0.2949588001 0.5912746787 0.7505954504
-0.15660389 0.048590828 0.85799998 -0.2286229283 0.1026608795 0.9680869579
-0.066697024 0.012868999 0.87720013 -0.5242193341 -0.4848827124 0.7000591755
-0.072152935 0.0075701769 0.87136382 -0.4039338529 -0.420083195 0.8126299977
-0.073000424 -0.01380026 0.86000001 -0.2198557556 -0.3943323791 0.8922809958
-0.017956177 -0.01320143 0.90366668 -0.6693415642 -0.5738195777 0.4719247222
-0.23497219 0.06500756 0.83384001 -0.1753771752 -0.3403088152 0.9238142371
-0.06507121 -0.044991404 0.91642851 -0.2459248304 -0.04325197637 0.9683234096
-0.027154922 -0.067433544 0.86040008 0.3006720245 -0.126568675 0.9452918768
-0.084582381 -0.0044274353 0.86046177 -0.1388910562 -0.3404453695 0.9299495816
-0.084424548 -0.035049647 0.91105884 -0.2344676107 0.01518003456 0.9720054269
-0.037412912 -0.054573655 0.91825002 -0.04395584017 -0.1892860681 0.9809376597
-0.2554512 0.05525133 0.83284611 0.05953007564 -0.1604319811 0.9852501154
-0.26351476 0.026273405 0.8352223 0.06907071173 0.4134282768 0.9079131484
-0.25341251 0.036084734 0.82811773 -0.009573957883 0.1880021244 0.9821219444
-0.034597032 -0.035271712 0.86160004 -0.4771729708 -0.5451318026 0.6893020272
-0.24510512 0.045333881 0.82791907 -0.01988556422 -0.03822163492 0.9990714192
-0.016341591 -0.045513831 0.86484003 -0.6051396728 -0.3505852818 0.7147698402
-0.19508433 -0.01525014 0.87543237 0.2536139786 0.4159680903 0.873298645
-0.10560298 -0.013320947 0.85899997 -0.0900323838 -0.04353010654 0.9949870706
-0.044721335 -0.025101501 0.8621701 -0.4250353277 -0.5181779861 0.7421836257
-0.075639986 0.02316742 0.87511998 -0.4390197396 -0.4329678118 0.7872741222
-0.055228978 -0.015268837 0.8624751 -0.3679238558 -0.4811238647 0.7957084179
-0.041138463 -0.069325924 0.86900002 0.3569850922 0.115981847 0.9268817902
-0.06742619 -0.066500433 0.88 -0.1943776906 -0.9784834981 0.0691909194
-0.08747749 0.032453615 0.87444454 -0.3141084909 -0.3757363558 0.8718703985
-0.14342846 -0.024089219 0.85686672 0.3761872351 0.3510144353 0.8574800491
-0.15496215 -0.034861229 0.86708581 0.3217799067 0.4697176814 0.8220845461
-0.2381728 0.0096757701 0.84900004 -0.3311441839 0.5792927742 0.7448244095
-0.04235905 -0.0124283 0.87369245 -0.494119823 -0.5446292758 0.6776610613
-0.096015222 -0.035078701 0.90666693 -0.2062434405 -0.02368691191 0.9782139659
-0.014222279 -0.024897913 0.89500028 -0.6804143786 -0.5735304356 0.4561787844
-0.2323947 0.057760429 0.83099997 -0.2239769846 -0.1519903839 0.9626698494
-0.22554193 -0.0034792405 0.86750013 -0.3272559047 0.4492423832 0.8313151598
-0.064187206 -0.063938685 0.91407907 -0.2014978677 -0.1903944463 0.960806191
-0.18055212 -0.020569229 0.86900002 0.3346784711 0.3210514784 0.8859549761
-0.1550172 0.0055239522 0.85886943 0.4132184088 -0.06754346937 0.9081235528
-0.14499453 0.055996023 0.86156768 -0.2553933263 0.04888092726 0.9656007886
-0.095956683 -0.020738676 0.85799992 -0.05667034164 -0.1255339682 0.9904694557
-0.21567896 0.035364036 0.84534049 -0.5298535228 0.4898937643 0.6922855973
-0.065664463 -0.026644697 0.91383886 -0.2301057577 0.1065731943 0.9673125148
-0.22855487 0.017319301 0.84842861 -0.4924432635 0.5509288311 0.6737781763
-0.20154676 0.033182051 0.86025006 -0.3317255378 0.4708940983 0.8174453378
-0.1111964 -0.051626898 0.90600002 -0.5685061812 -0.4649175704 0.6787137389
-0.20494165 0.024879456 0.8638373 -0.2743619978 0.3536028862 0.894254148
-0.21138187 -0.018515199 0.88000005 0.1067912579 0.5158912539 0.8499717116
-0.14158541 0.023058008 0.82900012 -0.848320961 0.3190847635 0.4225357175
-0.1395101 -0.018651083 0.85100001 0.2613329887 0.2227196693 0.9392023087
-0.10453515 -0.045139372 0.90335709 -0.3097973764 -0.1900419444 0.9316166639
-0.08913333 0.020569229 0.86900002 -0.3119703233 -0.349370569 0.8835240602
-0.16406012 0.024301196 0.86048484 -0.03377207741 0.0297297556 0.9989872575
-0.10479315 -0.034929689 0.90558338 -0.2062434405 -0.02368691191 0.9782139659
-0.084323294 -0.044717621 0.91136366 -0.277839303 -0.03832612932 0.959862709
-0.13530944 0.062964112 0.86536366 -0.2952082455 -0.07699833065 0.9523252249
-0.1554427 0.071845926 0.8609525 -0.2254386544 -0.2096060365 0.9514424205
-0.11569355 -0.024011753 0.85535139 -0.2926459312 -0.03222356737 0.9556777477
-0.054609071 -0.065043867 0.91604775 -0.05816774443 -0.2701122761 0.9610701799
-0.2443248 0.053478226 0.82829428 -0.0003120534238 -0.1612622738 0.9869115353
-0.023393158 -0.043173708 0.86084217 -0.5124391317 -0.3930071592 0.7635126114
-0.25551745 0.019669332 0.83875006 -0.06118277088 0.5020255446 0.8626859188
-0.16442557 0.065191597 0.8559584 -0.2590988874 -0.1376719922 0.9559885859
-0.16532159 -0.0054487931 0.85899985 0.2821129858 0.04039087892 0.9585305452
-0.18549398 -0.02537391 0.87432498 0.3223777711 0.3975573778 0.8590813279
-0.16480534 -0.015220687 0.8617714 0.3215591908 0.2401862442 0.9159204364
-0.22776707 0.028195061 0.83900005 -0.4685397446 0.4835057855 0.7393866777
-0.026478581 -0.02654163 0.87554175 -0.602997303 -0.5658881068 0.5622854233
-0.094886504 -0.054652862 0.90489757 -0.3769595623 -0.341337204 0.8610402942
-0.10533173 -0.055053588 0.86742437 -0.005756935105 0.4407725632 0.8976003528
-0.13148469 0.024335308 0.85527271 -0.7194632292 0.4749133289 0.5067839622
-0.22193989 0.021501016 0.85312498 -0.5228908658 0.5219150186 0.6739361286
-0.029180435 -0.029180435 0.86833334 -0.5336762667 -0.5561782122 0.6370678544
-0.10802654 0.032148942 0.86900008 -0.3159680068 -0.3612892032 0.8772880435
-0.026719684 -0.01597199 0.88700002 -0.6535594463 -0.5521976948 0.5176270008
-0.12867683 0.042780846 0.83344448 -0.9313330054 0.1557863504 0.3291648328
-0.055586223 -0.036118954 0.91700006 -0.2231657654 0.006089307368 0.9747614861
-0.11576703 0.024782993 0.86217004 -0.3418830931 -0.2832177579 0.8960489035
-0.047191672 -0.0064930324 0.87588465 -0.4934098423 -0.5792335272 0.6488722563
-0.036835913 -0.0062148208 0.88655007 -0.5969468951 -0.6103538275 0.520694375
-0.094794281 -0.064733103 0.87463146 -0.4145154357 -0.9043881297 0.1012868136
-0.24186529 0.034968484 0.83100003 -0.1623516679 0.3095640838 0.9369162321
-0.11473553 -0.0053066751 0.85899991 -0.198381871 -0.129012689 0.971596837
-0.14579733 -0.035226986 0.8631292 0.3715988696 0.5198747516 0.7691842914
-0.22044572 0.040550217 0.84100002 -0.4677780271 0.4043691754 0.7859193683
-0.15118818 -0.02030886 0.85800004 0.3851637542 0.3347873688 0.8599804044
-0.1362249 -0.03816691 0.86040002 0.3407021165 0.5583463907 0.7564200759
-0.056470975 0.0024988838 0.8764376 -0.492647022 -0.5752765536 0.6529592276
-0.20801234 0.038158171 0.84871429 -0.4982486367 0.4871836007 0.7172171474
-0.24473956 0.065116115 0.83407295 -0.02076475322 -0.3199625313 0.9472026229
-0.073933363 0.015901145 0.87400001 -0.4099673331 -0.4123468697 0.8135704398
-0.12758341 -0.016553581 0.84700006 -0.2350718528 -0.05778742954 0.9702586532
-0.10079212 0.02977949 0.87100005 -0.246986568 -0.3403153718 0.9072943926
-0.15810823 0.015645344 0.85799992 0.2822377086 -0.09459059685 0.9546698332
-0.050631005 -0.030983154 0.86200005 -0.3788664043 -0.4867423475 0.787109971
-0.014553684 -0.034933105 0.8854 -0.6605920792 -0.5459541678 0.5153174996
-0.17445527 0.033925988 0.85763627 -0.03005537763 0.1012080461 0.9944111705
-0.25440356 0.063374572 0.83684611 0.05421037227 -0.2627121806 0.9633501768
-0.021089969 -0.021089969 0.89100003 -0.6769500971 -0.5734283924 0.4614308774
-0.12239274 -0.041673664 0.85650003 0.02157226391 0.5472144485 0.8367143869
-0.10596347 0.04285932 0.87429166 -0.3167714179 -0.3123374581 0.8956010342
-0.1098288 -0.0492336 0.86400002 -0.02064039558 0.4552812874 0.8901083469
-0.19583671 0.072170831 0.84785718 -0.2974431217 -0.5294709206 0.7944734693
-0.15535969 0.034743421 0.86385375 -0.1321257651 0.03483760729 0.9906205535
-0.091339901 -0.0198565 0.90600002 -0.2273986042 0.01456918288 0.9736927748
-0.14797826 -0.0052315076 0.85249996 0.36370489 0.00861261785 0.9314743876
-0.23628749 0.026031988 0.83764517 -0.3501470089 0.486744076 0.8002982736
-0.023032445 -0.013552083 0.89375007 -0.6669765115 -0.5719057918 0.4775626063
-0.20497486 -0.013725235 0.87544006 0.1509520113 0.4426609278 0.8838918209
-0.2454927 0.019242248 0.83883339 -0.2058429867 0.5787428021 0.7891042233
-0.08490549 0.025244592 0.87253207 -0.3063312769 -0.3546011746 0.8834133744
-0.19691193 0.048005849 0.84794748 -0.3709502816 0.445820421 0.8146410584
-0.019045584 -0.03885299 0.86900002 -0.6310127378 -0.5091055036 0.5853498578
-0.11259715 -0.036075972 0.90450001 -0.6537805796 0.1628231257 0.738958478
-0.18433002 0.052465711 0.85325009 -0.2448587567 0.2729933858 0.9303326011
-0.076201625 -0.066451922 0.8780002 -0.2663600445 -0.9591121078 0.09568877518
-0.22892834 0.050872967 0.82900006 -0.3107020557 -0.01363972202 0.950409472
-0.091037452 -0.06095551 0.90300006 -0.5084249973 -0.7080217004 0.4901115298
-0.095575742 -0.044764493 0.90644467 -0.2337763608 -0.03449192643 0.9716783762
-0.17217207 -0.031234756 0.86900002 0.3320309818 0.3897374868 0.8589878678
-0.11253083 -0.027191423 0.86150008 -0.3672590256 0.1255867183 0.9216011763
-0.075149 -0.025584273 0.91197228 -0.2232275009 0.08736782521 0.9708431363
-0.064917952 -0.0053064208 0.8660233 -0.338873893 -0.4807325006 0.8087401986
-0.22512399 0.024570299 0.84486365 -0.5061494112 0.5365108252 0.6752547026
-0.25471109 0.014635169 0.84384203 -0.1483801901 0.5832912326 0.7985954285
-0.085420214 0.014660385 0.86822593 -0.3112345934 -0.3625283241 0.8784680963
-0.11512753 0.045361843 0.87317026 -0.3617688119 -0.3104019165 0.8790756464
-0.11960626 0.041900288 0.86900002 -0.3912267387 -0.2899435759 0.873426795
-0.057005316 0.011143383 0.88675004 -0.5419897437 -0.5344489813 0.6485456228
-0.21214332 0.032281715 0.85308331 -0.5045307279 0.5173553228 0.6912251711
-0.19620582 -0.0079013128 0.87214297 0.2151097357 0.379496336 0.8998390436
-0.17404801 0.065393001 0.85388911 -0.2549922168 -0.1748842597 0.9509965777
-0.23113316 0.0012571401 0.86066669 -0.3487854004 0.4860242903 0.8013296127
-0.12557392 -0.045802977 0.86370987 0.1595820189 0.5266470909 0.8349709511
-0.023300583 -0.023646377 0.88283336 -0.6580180526 -0.5559659004 0.5078524947
-0.14425111 0.01255036 0.85475004 0.3150446117 -0.1652196795 0.9345851541
-0.11448864 -0.054281607 0.86315179 -0.00445043901 0.4746606052 0.8801576495
-0.16518331 0.0060265823 0.86237156 0.2097249925 -0.01175151486 0.9776898026
-0.12255405 0.051541425 0.87100005 -0.3746369779 -0.2906439006 0.8804392219
-0.24443941 0.0049587963 0.85352635 -0.3260828555 0.5641431212 0.7585594654
-0.03695751 -0.016191699 0.87571436 -0.5297341347 -0.5645582676 0.632973671
-0.23544811 0.015280488 0.84608698 -0.3629177809 0.5827537775 0.7271098495
-0.095565848 0.034669574 0.87489992 -0.2754819095 -0.3552164435 0.8932698369
-0.21454051 -0.014477486 0.87541389 -0.0458529219 0.4830964208 0.8743656874
-0.056593563 -0.0078663286 0.86846668 -0.4266099334 -0.5212298632 0.7391369343
-0.033531781 -0.0032728359 0.89336377 -0.6014893055 -0.6087402701 0.5173450708
-0.22847468 0.0080859354 0.85799992 -0.407428354 0.4956592917 0.7670228481
-0.22278586 0.013112064 0.86145461 -0.4574535489 0.4831910133 0.7465003133
-0.22421589 0.07441321 0.84440547 -0.2854521573 -0.4655948877 0.8376983404
-0.041249942 -0.076151945 0.86866665 0.3440713584 0.123093456 0.9308398962
-0.2147391 -0.0027480454 0.86821729 -0.1644311696 0.4720384181 0.8661074638
-0.21256712 0.022430895 0.86114299 -0.386289686 0.4264418781 0.8178799748
-0.035667181 -0.064554006 0.91278386 -0.0830168277 -0.5139889121 0.8537701964
-0.18323886 -0.014703271 0.86729187 0.2987363338 0.2938756645 0.907961309
-0.15546745 0.055164799 0.85782242 -0.2716834843 0.07478599995 0.9594764709
-0.018098067 -0.064266831 0.85690904 0.0446033515 -0.1537950486 0.9870955348
-0.13598034 0.035071474 0.83676195 -0.8784270883 0.2807650864 0.3866999149
-0.24490768 0.025277749 0.83335322 -0.186201036 0.5012856126 0.8450099826
-0.18498307 0.07376457 0.85399991 -0.2864890397 -0.4274313152 0.8574534655
-0.18127538 0.02933502 0.85800004 0.04463985562 0.1661778986 0.9850848913
-0.14198014 -0.013323918 0.84792316 0.2213054001 0.1472290307 0.9640267491
-0.16021433 -0.0112827 0.85800004 0.3697420955 0.1334672719 0.919498384
-0.08414527 -0.019405894 0.90720004 -0.2289765477 0.0518780835 0.9720485806
-0.14473197 0.064894497 0.86325008 -0.2645101845 -0.01930953562 0.9641895294
-0.19531712 0.035380032 0.8603639 -0.1761609316 0.3844608068 0.9061772823
-0.065013386 0.0055741738 0.87297672 -0.4863906503 -0.4727126956 0.7348243594
-0.18496944 0.064632848 0.84736741 -0.3222478926 -0.2170734107 0.9214311838
-0.13199748 0.014694349 0.85438466 -0.3951760232 0.2080710381 0.8947303295
-0.085394494 -0.065462127 0.87589353 -0.345562458 -0.93030864 0.1229327247
-0.20513961 0.035234135 0.85523099 -0.4034535289 0.503247261 0.7641776204
-0.23436457 0.073082618 0.83766669 -0.1086777821 -0.445029676 0.8888969421
-0.13637449 -0.005681091 0.84596318 -0.07186648995 0.05098012462 0.9961105585
-0.061086133 -0.00076357665 0.87100005 -0.4178250432 -0.5169445872 0.7471214533
-0.045927398 0.0030754302 0.88657153 -0.554092586 -0.6165047884 0.5593775511
-0.10435066 0.035600364 0.87299997 -0.2645635009 -0.3292545676 0.9064202309
-0.2151486 0.055070862 0.83761257 -0.417501837 0.005932463333 0.9086567163
-0.044920396 -0.071391352 0.91500002 -0.05816774443 -0.2701122761 0.9610701799
-0.13175839 0.046709459 0.86625004 -0.2736227214 -0.1949647963 0.941870153
-0.13645525 -0.026332809 0.85300004 0.2499961406 0.3074495494 0.91813761
-0.13210872 0.0049841423 0.85299993 -0.3291634619 -0.04504998773 0.9431977272
-0.13731749 0.025423335 0.83542854 -0.8402628899 0.2926988006 0.4563832581
-0.17619634 0.021781031 0.861 0.08603087068 0.1849076003 0.9789831042
-0.17388576 -0.023931865 0.86811107 0.3404544592 0.375482738 0.8620344996
-0.10435895 -0.02756314 0.90652645 -0.2062434405 -0.02368691191 0.9782139659
-0.20903572 0.062225275 0.83900005 -0.3098106086 -0.2342512012 0.921489954
-0.26768872 0.039487112 0.82900006 0.1469248384 0.1545427144 0.9770003557
-0.10079212 -0.0090261605 0.85800004 -0.05635398999 -0.06804665923 0.9960892797
-0.18389136 -0.031414472 0.87400007 0.3299656212 0.372220546 0.8675105572
-0.1125512 0.038636979 0.87100011 -0.3382603526 -0.3252452314 0.8830602765
-0.12569226 -0.024418756 0.84766686 -0.1334365755 0.072349675 0.9884129763
-0.23045418 0.01197176 0.85350007 -0.449138552 0.5504421592 0.7037670016
-0.24806871 0.05726007 0.83144444 0.02488451451 -0.2396873534 0.9705311656
-0.13080962 0.036297068 0.86250007 -0.430311501 -0.4266387522 0.7954944372
-0.13453867 -0.033837643 0.85634488 0.3045330048 0.4694173634 0.8287985325
-0.26279339 0.019330502 0.83733326 -0.03526597843 0.5084739923 0.8603548408
-0.25182119 0.050509587 0.82900006 0.0670671612 -0.144630149 0.9872102737
-0.13669425 0.05135075 0.82500005 -0.9437870979 -0.2999718487 -0.1388624012
-0.064847849 -0.014628061 0.86013347 -0.2851192057 -0.4350249767 0.8540844917
-0.025783246 -0.073362656 0.8610909 0.3877043426 -0.1882338822 0.9023599029
-0.081004001 -0.073289335 0.88000005 -0.2816641629 -0.9527919888 0.11336983
-0.1221372 -0.011309 0.86000001 -0.3653415442 -0.09149841219 0.9263657928
-0.24686098 0.0069442228 0.8481667 -0.2927934229 0.564711988 0.7716037631
-0.083452761 -0.054019481 0.91096431 -0.271836102 -0.09618946165 0.95752424
-0.14196348 0.0027738528 0.84863639 0.2421945482 0.1386723667 0.9602665305
-0.2039049 0.055277567 0.84236574 -0.4120717943 0.1629576832 0.8964605927
-0.076277189 0.0047924751 0.86800003 -0.3282046318 -0.3876190782 0.8614134789
-0.1978261 -0.022923578 0.88000005 0.2622184753 0.4320560992 0.8628841043
-0.13202026 0.033075351 0.8413077 -0.8876628876 0.2081707418 0.4107548594
-0.1475772 -0.026650084 0.86033338 0.3926539719 0.4338654876 0.8109152913
-0.12608905 0.054932665 0.86761117 -0.3326572478 -0.1884153187 0.9240339994
-0.21871312 0.018789887 0.85733336 -0.5020311475 0.5035682321 0.7031242847
-0.096338086 0.023337429 0.86871421 -0.2227486968 -0.3230709732 0.9197870493
-0.25789252 0.03351146 0.83099997 0.02527028881 0.2740679085 0.9613782763
-0.017783623 -0.036203995 0.8756668 -0.6460636258 -0.5287231803 0.5505030155
-0.2040284 0.08312729 0.86200005 -0.2717545033 -0.5891554356 0.7609502673
-0.16615322 0.072175965 0.85759991 -0.2342816442 -0.2757406533 0.9322441816
-0.19719589 0.081047587 0.85714287 -0.2652674913 -0.5846422911 0.7666984797
-0.25813535 0.047110315 0.83100003 0.08165263385 -0.05067759007 0.9953715801
-0.094774656 -0.015043598 0.85799986 -0.08681190759 -0.04604854062 0.995159924
-0.20291713 0.078091361 0.85159999 -0.2676906884 -0.5717172623 0.775552094
-0.055091567 -0.074767485 0.87584382 -0.007733772043 -0.9998735785 0.01389128715
-0.1488442 0.028099578 0.86625004 0.02195337228 -0.07776580006 0.9967299104
-0.146164 -0.044338815 0.8720001 0.324421823 0.5490007997 0.7702912688
-0.22449365 -0.008185612 0.87250006 -0.2654797435 0.4352095425 0.8602983356
-0.14946891 0.055553865 0.85799992 -0.2312382609 0.02136324532 0.9726625681
-0.21784468 0.046943691 0.83899999 -0.4713558257 0.2505733073 0.8455983996
-0.085957289 -0.061661098 0.90671432 -0.4274538457 -0.6119841337 0.6654011011
-0.087553754 -0.0085748527 0.85799992 -0.07313359529 -0.2845363319 0.9558716416
-0.22270522 0.033184301 0.8411817 -0.4916346371 0.4574667215 0.7409585714
-0.034992442 -0.069219552 0.86766672 0.3749290407 -0.0192888137 0.9268528223
-0.089153484 -0.035422593 0.90800005 -0.2339502424 0.01807322353 0.9720805883
-0.1165879 0.00075218 0.85799998 -0.2579752803 -0.1397800297 0.9559865594
-0.068419889 -0.066031851 0.90750003 -0.2514828444 -0.8354190588 0.4887038171
-0.13550235 0.015557602 0.84305716 -0.8134405017 0.367888242 0.4505250156
-0.095482692 -0.0027645889 0.86019045 -0.07706521451 -0.2252339423 0.9712520838
-0.11515652 -0.044535637 0.85574996 -0.08208288997 0.4292773902 0.8994349837
-0.18169793 0.042220265 0.86000001 -0.06272962689 0.2841384709 0.9567289948
-0.26283774 0.044186082 0.83137482 0.1143674105 0.01742268354 0.9932857156
-0.044992607 -0.045910005 0.92090011 -0.01402610168 -0.1050377488 0.994369328
-0.17074487 -0.0052652601 0.85800004 0.3059936166 0.0902633518 0.9477449059
-0.15353973 -0.013925977 0.85752368 0.3858796358 0.2218358368 0.895480752
-0.13399725 0.044187043 0.83364725 -0.9800215364 -0.1636751592 0.1129966006
-0.14187869 0.037682723 0.82227272 -0.9653429389 -0.2468396425 -0.08475350589
-0.068660535 -0.072517872 0.88000005 -0.1943776906 -0.9784834981 0.0691909194
-0.15505175 0.044461913 0.86121058 -0.2175068408 0.0965128541 0.9712754488
-0.10268864 -0.063707076 0.87200004 -0.5126613975 -0.8552368283 0.07581738383
-0.051838096 -0.046265684 0.92000002 -0.1243779063 -0.1186490357 0.9851154685
-0.011307087 -0.032926168 0.89236361 -0.6735879183 -0.5557710528 0.4872349501
-0.047360919 -0.069229491 0.87328577 0.3258568347 0.1967465729 0.9247205257
-0.17526473 0.0051610754 0.86626321 0.1915595382 0.05428516865 0.979978621
-0.16689791 0.035508707 0.85770369 -0.1038224623 0.05115808919 0.9932792783
-0.23558976 0.054072879 0.82865226 -0.1511698514 -0.1270292997 0.980311811
-0.11960626 0.055613104 0.86900002 -0.3839807212 -0.2770732939 0.8807889819
-0.21277802 0.067682005 0.84099996 -0.3348848522 -0.3017132282 0.8926484585
-0.12228799 0.017038893 0.86000001 -0.3986497521 -0.1225200221 0.9088823795
-0.23672009 -0.0018435504 0.85672724 -0.3840272725 0.5081191063 0.7709332108
-0.083229847 0.018653085 0.87100017 -0.3166687489 -0.3719440997 0.8725700378
-0.23481144 0.043186292 0.83135891 -0.3173536956 0.1526791453 0.9359357357
-0.1533749 0.014895336 0.86025017 0.2684311271 -0.1491423994 0.9516834021
-0.2417196 0.042690687 0.83100003 -0.1293928623 0.1379687041 0.9819481373
-0.031340834 -0.050897513 0.85800004 0.06297430396 -0.04415787384 0.9970377684
-0.19074513 0.079163 0.86000001 -0.2749870121 -0.5251961946 0.8053267002
-0.14205945 0.018212751 0.83099997 -0.8829125166 0.3036101758 0.3581708074
-0.15269661 0.065503202 0.86040002 -0.2564711869 -0.08129960299 0.9631266594
-0.047941685 0.011922568 0.89322215 -0.569611311 -0.6094827652 0.5514287949
-0.089352489 -0.045173761 0.90800005 -0.2354958355 -0.06279373169 0.9698446393
-0.07766258 -0.014479465 0.85799992 -0.1399749964 -0.3577323258 0.9232738614
-0.026012892 -0.046509802 0.85799986 -0.3405217528 -0.2636094093 0.9025270343
-0.25218457 0.029433645 0.82900006 -0.06964965165 0.3759714067 0.9240099788
-0.18599667 0.081233688 0.866 -0.2466108948 -0.518686831 0.8186250925
-0.12564968 -0.032410447 0.84900004 -0.1456836313 0.2823745012 0.9481776953
-0.13563153 -0.048324496 0.871889 0.2798041999 0.5945366621 0.7538141608
-0.16209567 0.042069476 0.86000001 -0.1350154132 0.1095939577 0.9847639203
-0.043531287 -0.057432029 0.91800016 -0.06329032034 -0.2109920382 0.9754366875
-0.12578265 -0.005358032 0.85688919 -0.3487396836 -0.166494146 0.9223124981
-0.11617026 -0.034982085 0.8515172 -0.2700736821 0.2860581279 0.9193644524
-0.017785231 -0.05565653 0.85719991 -0.3644256294 -0.1677478105 0.9159992337
-0.17937389 0.058798909 0.84900004 -0.2621554136 0.1014694422 0.9596762657
-0.1758263 0.046716314 0.85783988 -0.1141486987 0.2334822565 0.9656376839
-0.06437993 0.015250768 0.88081259 -0.5254622698 -0.4995055199 0.6887551546
-0.24590188 0.035816923 0.8283515 -0.07859873772 0.2162642479 0.9731659889
-0.072058938 -0.066456378 0.88150007 -0.2165507227 -0.9674178362 0.1311810315
-0.022836182 -0.064175993 0.85799986 0.2414846569 -0.1218359396 0.9627258778
-0.19443791 0.044883724 0.85570967 -0.2437630445 0.4202025235 0.8740763068
-0.10790276 -0.025980523 0.86071432 -0.349692136 0.09859870374 0.9316617846
-0.094131388 -0.058930408 0.87300003 -0.5091917515 -0.856328547 0.08616943657
-0.20531233 -0.0041662795 0.86852938 0.09032990783 0.4485935271 0.8891593218
-0.17635186 0.038039364 0.86000001 -0.0368443653 0.1743074656 0.9840017557
-0.15870997 0.02030886 0.85800004 0.16468817 -0.007596842479 0.9863164425
-0.11327849 -0.012251416 0.86000007 -0.2289785147 -0.06876918674 0.9709993005
-0.12700824 -0.052177738 0.87100005 0.1906558424 0.5431776643 0.8176847696
-0.13834909 0.044725627 0.8267647 -0.958617568 -0.1982694417 -0.2043075711
-0.063844651 -0.06799531 0.8774001 -0.1918886006 -0.9790523052 0.06808304787
-0.14852487 0.0098011335 0.86000001 0.2349506915 -0.2216939181 0.946387887
-0.034880158 -0.042797334 0.86025006 -0.2350591719 -0.2691803277 0.9339641929
-0.25288123 0.0081709707 0.84716678 -0.226905331 0.5940924883 0.7717306018
-0.16700421 0.026031628 0.85762489 -0.06114141271 0.05187018588 0.9967803955
-0.07804893 -0.070659682 0.87800008 -0.2663600445 -0.9591121078 0.09568877518
-0.20515078 -0.018337168 0.88000005 0.2174209952 0.4682174325 0.856446445
-0.049091581 -0.041848563 0.91800004 -0.06093941256 -0.07636333257 0.9952160716
-0.1417798 0.026608586 0.83150005 -0.8463907242 0.3356254101 0.4134952724
-0.074649401 -0.062719084 0.91047359 -0.3378826976 -0.3182203174 0.8857601881
-0.12771969 0.024458058 0.85738462 -0.6032931209 -0.1019265577 0.7909793854
