# .PCD v0.7 - Point Cloud Data file format
VERSION 0.7
FIELDS x y z normal_x normal_y normal_z
SIZE 4 4 4 4 4 4
TYPE F F F F F F
COUNT 1 1 1 1 1 1
WIDTH 512
HEIGHT 1
VIEWPOINT 0 0 0 1 0 0 0
POINTS 512
DATA ascii
-0.1563533843 -0.2245092988 0.7088653445 0.2798667252 -0.1838338226 0.9397105575
-0.1609570682 -0.2185086012 0.7138544321 0.3622703254 -0.2433682382 0.8970809579
0.07428708673 -0.1175776124 0.7054040432 0.5468758345 0.3278332055 0.7693121433
-0.1410389841 -0.2521034777 0.7046023011 -0.1515268832 0.07611835748 0.9713928699
0.07308378071 -0.1083657146 0.7078891397 0.2579585314 -0.07546307892 0.894759655
0.0802911669 -0.12381991 0.7099542022 0.4774895012 0.2280905992 0.7790130377
-0.1542779356 -0.2439402789 0.7054167986 0.03227785602 -0.04704379663 0.9950344563
-0.1449044645 -0.2452044338 0.7092884779 -0.1308567673 -0.01114800572 0.9338141084
-0.1615167409 -0.2312570065 0.7116508484 0.2075489312 -0.1709166169 0.9616616368
0.05917368084 -0.1076140776 0.752438128 0.2800835967 -0.6713672876 0.6250799894
0.06421775371 -0.1349541992 0.7660583854 0.660027504 -0.5021406412 0.5509760976
0.05733589455 -0.1274380386 0.7657869458 0.4440231323 -0.4967798591 0.7069481611
0.05920691416 -0.1149905622 0.7569519877 0.3556420505 -0.6131737232 0.6378484964
0.06205544993 -0.1226662025 0.7598705888 0.4913884699 -0.5791884661 0.581697166
0.06222539023 -0.1021314114 0.7453448176 0.2686070502 -0.7471629381 0.5509009361
0.06717830896 -0.1122025698 0.7059268951 0.2651058137 0.01674678177 0.9431636333
-0.09769549221 -0.1527959257 0.6988882422 -0.2020401359 -0.6276605129 0.4407505393
-0.1113506481 -0.1550323218 0.7135152221 -0.1305083185 -0.2449127883 0.8431943655
-0.09391310811 -0.1475967169 0.704472065 -0.2112336904 -0.5646256804 0.5723057389
0.07466805726 -0.1140164658 0.7145572305 0.286704123 -0.2027695477 0.7131267786
0.07015843689 -0.1049267799 0.7164552808 0.1054407135 -0.5631049275 0.6672101617
0.06969048828 -0.1203649491 0.7227335572 0.2679653466 -0.07625358552 0.750748992
0.06608127803 -0.1020603031 0.7233926654 0.2217295915 -0.6454284191 0.6064227223
0.07522295415 -0.1213886663 0.7167721987 0.3869021237 0.04453551024 0.7505992651
0.07292690873 -0.1281252801 0.7205577493 0.3248101473 0.1935248226 0.8093050718
-0.1557528228 -0.2340252548 0.7060685754 0.1756816953 -0.1378790885 0.9743250012
-0.1610304564 -0.2399355769 0.7084112167 0.1263239086 -0.1459594369 0.9803706408
0.0647437796 -0.1262325495 0.752304554 0.5900337696 -0.5697377324 0.4086079597
0.06512342393 -0.1234500408 0.7451122403 0.5803863406 -0.5896688104 0.3096258342
0.06428869069 -0.1088775322 0.7361847758 0.3923434317 -0.7029684782 0.3405593038
0.06610282511 -0.1234397367 0.7351290584 0.6279909611 -0.5866535306 0.1189565882
0.0666012913 -0.1321024448 0.7404130697 0.7398841381 -0.5192947388 0.100128822
0.06361540407 -0.1110922024 0.7456874847 0.3819444776 -0.6882769465 0.4915539622
0.06558683515 -0.1346383989 0.7537733316 0.7161147594 -0.5032411218 0.3204112947
0.06389565766 -0.1178703979 0.7509396076 0.4641482234 -0.6359184384 0.4981839955
0.0678390488 -0.1342906654 0.7302638292 0.8183253407 -0.499273926 -0.1091268584
0.06329242885 -0.09999611974 0.735609889 0.2516422868 -0.7738585472 0.461257875
0.06551796198 -0.1524572223 0.7370652556 0.7286416888 -0.6275696158 0.1589848697
0.06630513817 -0.1491586715 0.7467186451 0.7490367293 -0.5705942512 0.2636906505
0.06936547905 -0.1505667716 0.7292560339 0.73408705 -0.645958662 0.002572944155
-0.1321246624 -0.2457741946 0.7046082616 -0.284614265 0.1171945333 0.9452613592
-0.08295731992 -0.2416634113 0.7374557257 -0.2711313963 0.2297563404 0.929884851
-0.007134140935 -0.122995548 0.7454840541 0.1079932749 -0.536252439 0.7972350717
0.0009560198523 -0.1336963177 0.7577304244 0.06462870538 -0.3923150897 0.8767939806
-0.0110835433 -0.1171458736 0.7399610281 0.1307321191 -0.6100155115 0.7557162642
-0.005630863365 -0.1159306616 0.7506716847 0.1168473437 -0.5679431558 0.7728679776
0.01450779568 -0.1368740797 0.7632594705 -0.01154878177 -0.2885536551 0.9442609549
-0.009866365232 -0.1084426939 0.7471472025 0.1466660649 -0.6505984664 0.7232957482
0.0004781835596 -0.1237530038 0.7549081445 0.07655718178 -0.4718044102 0.8313048482
-0.07700140029 -0.1448657364 0.704485178 -0.4040283561 -0.6204503775 0.5844903588
-0.07854539156 -0.1471899003 0.6962823272 -0.4135518372 -0.7971940041 0.3873936832
-0.08524862677 -0.1434591711 0.7099031806 -0.2634625435 -0.5212048292 0.6711242199
0.06057795137 -0.1501208097 0.7627189755 0.6347845793 -0.5392056108 0.5146090984
-0.09257866442 -0.1411082596 0.7192265987 -0.1256940812 -0.3339397311 0.8556131721
-0.08716058731 -0.1471314579 0.7012203336 -0.3039415777 -0.6829482913 0.48436746
-0.08659691364 -0.143499434 0.7272796035 0.006153787952 -0.2846837938 0.9473089576
-0.1575142741 -0.2056851834 0.7177509069 0.412979722 -0.2870240808 0.8632692099
-0.001038234099 -0.1883437037 0.7107780576 -0.1726099998 0.311527878 0.9320415258
-0.1116188467 -0.1486832201 0.72199893 -0.1494760811 -0.1331558824 0.9796881676
-0.08877598494 -0.1490544379 0.6920060515 -0.2690448761 -0.8267406821 0.2889301181
-0.09939332306 -0.1473075747 0.711820662 -0.1683453172 -0.3932853043 0.7422243953
0.07634174824 -0.1362235695 0.7181035876 0.3170620799 0.3743677139 0.8688938022
0.07147260755 -0.131543383 0.7089112401 0.3816241026 0.376606077 0.8351780176
0.08044441044 -0.1320943832 0.7106890678 0.4089974165 0.3368077278 0.8466384411
0.05761873722 -0.1149495915 0.7075145245 0.1664853543 -0.2067626417 0.9623600245
0.06530661881 -0.1062296182 0.7107067108 0.02154424973 -0.5817085505 0.7876071334
0.06322284043 -0.1455195397 0.7199975252 0.649553299 -0.4494633675 0.1572348028
0.06451185793 -0.1357212067 0.7124297023 0.5700413585 -0.07963747531 0.4505650103
0.06794992089 -0.1269102544 0.7273725271 0.5552012324 -0.350696981 0.272413373
0.06610624492 -0.1133800596 0.7261565328 0.3629119396 -0.5342365503 0.4439427555
-0.1264550686 -0.2510183454 0.7141833901 -0.4776103795 0.09528263658 0.8357330561
-0.1340572983 -0.2454745471 0.7126927972 -0.3210003078 0.02995112911 0.8675729036
-0.1396307647 -0.2395198643 0.7107909918 -0.2037290931 -0.02405206114 0.8926938772
-0.1497077644 -0.2378792167 0.7112580538 -0.003548816545 -0.09221322089 0.9295297265
-0.0939059332 -0.2423070818 0.7332446575 -0.4095426202 0.1227767318 0.9023424983
-0.01059322432 -0.1834371537 0.7083483338 -0.05094762146 0.1802642941 0.9769333601
-0.01031399705 -0.1004446074 0.7494019866 0.1695965827 -0.6990534663 0.6874895692
0.03895948082 -0.1724681556 0.727399528 0.5680645108 -0.8151784539 0.09481657296
0.05442964286 -0.1385072023 0.768343389 0.3590990603 -0.4497206807 0.8084869385
0.06632602215 -0.1398310959 0.7602058649 0.7363173962 -0.4949648082 0.4187687635
0.06768874079 -0.1399347931 0.7457124591 0.8103092909 -0.4866564572 0.1357795149
0.0510369353 -0.1321086586 0.7702692747 0.2662535608 -0.3685490787 0.8672906756
0.04046166688 -0.09336855263 0.7488601208 0.1487267315 -0.7000003457 0.6674919128
0.05078912899 -0.1219146177 0.7651446462 0.2970398664 -0.4727481306 0.8067541718
0.04573047534 -0.08714511991 0.7432463765 0.1318757832 -0.7938262224 0.5922070146
0.05146072432 -0.1124603525 0.7585225105 0.2738692164 -0.5894727707 0.7218563557
0.05261876807 -0.1001128256 0.7491477728 0.2034810334 -0.7141565084 0.6316865683
0.05048560351 -0.1607608348 0.7611140013 0.4561352134 -0.6369612217 0.6177883148
-0.007748824079 -0.112677522 0.7297418118 0.1788082272 -0.6872159839 0.702960372
-0.05143527687 -0.2180034816 0.7314442992 0.001356733032 0.437608391 0.8990191221
-0.096144557 -0.148763746 0.7231526971 -0.1046468392 -0.1576223969 0.9815867543
-0.1030030549 -0.1504990309 0.7218870521 -0.1243460998 -0.1538711637 0.9798569083
-0.1051144302 -0.1571906358 0.7043132782 -0.1284470111 -0.4779928923 0.4974538982
-0.1126948297 -0.1636145562 0.7129672766 -0.1434281468 -0.2122184485 0.8665870428
-0.1009719744 -0.1608327478 0.6981834173 -0.1445128769 -0.6179276109 0.3082815409
-0.1373913884 -0.2391723543 0.702501893 -0.1418549716 0.03556730598 0.98098737
-0.1459027082 -0.2344615906 0.7015934587 0.05079439282 -0.0752030611 0.9944424629
0.07476178557 -0.1448077857 0.7181376815 0.3311711848 0.1648410261 0.6456976533
0.05729239807 -0.1016426831 0.718513906 0.1559630185 -0.7721584439 0.6059692502
0.004896818195 -0.1747823656 0.7105355263 -0.06100409478 -0.1849259287 0.7348071933
0.006284741219 -0.1636244953 0.712200582 0.07480663061 -0.3401184976 0.6545652747
0.002594498219 -0.1535850912 0.710398674 0.06897607446 -0.2121176869 0.8920779228
0.01066172216 -0.1705915183 0.7146645188 0.1259283125 -0.527356267 0.3758592904
-0.001279871329 -0.1613483131 0.7095279694 0.0005863779224 -0.08889014274 0.9745323658
-0.08873221278 -0.2370310128 0.7321813107 -0.2940323949 0.1988169253 0.9208655953
-0.1079227328 -0.2506830394 0.7244416475 -0.5552868843 0.1097783893 0.8178466558
-0.101499334 -0.2461859286 0.7287551761 -0.4992265105 0.09335646033 0.8561861515
-0.0585527122 -0.1866397709 0.7214499116 0.2047273368 0.3015529811 0.9308025241
-0.06279934943 -0.1791587919 0.7215268016 0.1599131674 0.4051659405 0.8972792625
-0.03888310492 -0.1595195681 0.7163413763 -0.01955592632 -0.2460299432 0.9671689272
-0.04318917915 -0.148834154 0.7179958224 0.04217503965 -0.3385736942 0.9328584075
-0.0365056619 -0.152098909 0.7172006369 0.0126081584 -0.2753356397 0.9575172067
-0.08199531585 -0.1609091014 0.6844787002 -0.3445682526 -0.9139544964 0.01495658606
0.05407964066 -0.1082755253 0.71289891 0.2056490779 -0.632203877 0.7355584502
-0.02334407344 -0.1237096265 0.7239205837 0.173737511 -0.5091942549 0.8402288556
-0.01699777693 -0.1177152768 0.72730726 0.1487174928 -0.6206505895 0.7689315081
-0.03455320746 -0.1237986684 0.7264204025 0.165756166 -0.4623839259 0.8707984686
-0.01611850969 -0.1035617813 0.7429869771 0.1587582678 -0.7033195496 0.6924030185
-0.0212741252 -0.1085877344 0.7366799116 0.1404405236 -0.6901990175 0.7097291946
-0.02528770827 -0.1160996184 0.7294452786 0.1266456991 -0.5884713531 0.7975479364
-0.08073315769 -0.133033976 0.7262650132 0.04481564462 -0.3477424979 0.9210961461
-0.07718810439 -0.1408127993 0.7116949558 -0.2640986741 -0.5320330262 0.6976806521
-0.08395215124 -0.1374043524 0.7213438749 -0.0859208107 -0.3653330505 0.8685822487
0.06904920191 -0.1455045491 0.7390198708 0.7755972147 -0.5619417429 0.08821202815
0.05783075094 -0.1356345713 0.7168264389 0.5556771755 -0.2834683657 0.433009088
0.05737819523 -0.1469127983 0.7267478108 0.6765304208 -0.674105525 0.1045731157
0.04023530334 -0.1251994073 0.7151964903 0.3430428505 -0.4868619144 0.6683258414
0.0508244969 -0.1315381974 0.7162280679 0.4716520309 -0.366417855 0.5250068307
0.05452234671 -0.140477255 0.722391665 0.5901418924 -0.5488431454 0.2801305652
0.06377878785 -0.1260980815 0.7061047554 0.4846338928 0.2213420719 0.7319071889
0.04702221975 -0.1241629645 0.7114577293 0.3696865141 -0.239465341 0.7241832614
0.05372086912 -0.1234766766 0.7080581188 0.3996669054 -0.006523760501 0.7695612907
0.04326864704 -0.116120778 0.7132876515 0.2403787225 -0.5904972553 0.7486736774
0.05019077659 -0.1166102365 0.7098987699 0.2003684044 -0.3385833204 0.8880586028
0.03476956859 -0.1746241301 0.7467705607 0.5008433461 -0.7164137363 0.3649593294
0.02666149475 -0.1796678454 0.7549908757 0.3796603084 -0.4731778204 0.7092850804
0.03823111206 -0.1732591093 0.7398523092 0.5455354452 -0.7830649614 0.2315276563
0.02264822461 -0.1735305339 0.7596955299 0.137430042 -0.2241486907 0.9589704871
0.0176707767 -0.1871815771 0.757809937 0.3065403998 -0.3152983487 0.8961812854
0.01829974726 -0.1518836319 0.7646045089 -0.00441584317 -0.2671068609 0.9630675316
-0.03687312827 -0.130448699 0.7243697047 0.1647415012 -0.4096873701 0.8954264522
-0.005632122979 -0.1181360558 0.724727273 0.1916003227 -0.6201843619 0.7572811842
-0.002045309637 -0.1347403973 0.7486565113 0.07383079827 -0.4134541154 0.8738147616
-0.07090860605 -0.2364456654 0.7412309647 -0.1141075939 0.3329091072 0.9356386065
-0.08318797499 -0.1675162911 0.6935264468 -0.2676347196 -0.6193097234 0.2617125213
-0.08079250157 -0.1831485033 0.7167264223 -0.1261832118 0.1656658798 0.9414131641
-0.07700280845 -0.1710162014 0.6994462609 -0.4026253819 -0.3051325679 0.5921711326
-0.06498100609 -0.1720206439 0.7000458241 -0.6040189862 -0.02619328536 0.7230173945
-0.07672237605 -0.1647921205 0.6909579635 -0.4849946797 -0.6084869504 0.3876824379
-0.07082228363 -0.1682024747 0.695222497 -0.5475652218 -0.3268933296 0.5488143563
-0.07813583314 -0.1778214276 0.7087798119 -0.2978625 0.01079610456 0.8090522289
-0.08896280825 -0.1822591722 0.7145244479 -0.1084123403 0.0444387123 0.8494989276
-0.09428753704 -0.1797912121 0.7098949552 -0.1816767305 -0.1328034401 0.7280567884
-0.08730885386 -0.1758170128 0.7049755454 -0.1565338671 -0.2640854418 0.5510616302
-0.09405709058 -0.1720006615 0.6980588436 -0.2561553121 -0.5234420896 0.3650416732
-0.1035378128 -0.1821147501 0.7119281888 -0.2439528555 -0.1072857752 0.8253664374
-0.101225391 -0.1728795171 0.6996465325 -0.2749643922 -0.510915637 0.4155513942
-0.09248624742 -0.1623325944 0.6888107657 -0.1945661753 -0.8506159186 -0.01716142148
-0.08759148419 -0.1509936005 0.7240187526 0.02049715631 -0.238490358 0.9688083529
-0.1039657369 -0.159572795 0.7202691436 -0.1378881484 -0.1207216084 0.982837379
-0.081079714 -0.1629110575 0.7228708863 0.1949740648 -0.06717363745 0.9603365064
-0.08813739568 -0.1592469662 0.7232365012 0.003335528309 -0.1695768684 0.9722974896
-0.06734443456 -0.1675219387 0.7214307189 0.1753325164 0.0218806006 0.8444417715
-0.1380454302 -0.2294445783 0.7027243972 -0.08502077311 -0.07293276489 0.9896950126
-0.1451195329 -0.226827845 0.7023140192 0.109101221 -0.1588341594 0.9794879556
-0.1530495733 -0.2102645487 0.7127384543 0.3444662988 -0.2650882304 0.8982153535
0.02801308036 -0.09524616599 0.7485443354 0.1484431624 -0.6670209169 0.7043756247
0.0371229127 -0.1038316563 0.7563708425 0.1043190584 -0.5665599704 0.76885885
0.0380865559 -0.110791184 0.760635078 0.09414542466 -0.4898390472 0.8224045634
0.04228436574 -0.1187044531 0.7656316161 0.07335652411 -0.4089640081 0.8760848641
0.05900144204 -0.09722307324 0.7265009284 0.1820888519 -0.802821815 0.567497313
0.06060452387 -0.09060544521 0.7380003333 0.150097698 -0.8159328103 0.5579886436
0.04490019009 -0.09991437942 0.7288134098 0.1677241474 -0.7879188657 0.5918987989
0.04886288568 -0.09380882978 0.7335771322 0.1556799859 -0.7977260351 0.5815045834
0.05369704962 -0.08838300407 0.7400058508 0.1530427933 -0.8116368055 0.5634881854
0.0192897059 -0.1670433283 0.7194151878 0.2964579463 -0.74535501 0.2211402655
0.01051723864 -0.1539617777 0.7150202394 0.2269924432 -0.4962319136 0.5941278934
0.01256746706 -0.1626444459 0.7162490487 0.231873408 -0.6404180527 0.3270988166
-0.03022720292 -0.1660480946 0.7152273655 0.06665607542 -0.1752289981 0.9791185856
-0.04430807382 -0.166526258 0.7160926461 -0.1536011994 -0.1032881215 0.9450868368
-0.0259722285 -0.1847880036 0.7158757448 0.07443577051 0.1745761186 0.9463475347
-0.07998060435 -0.2058000416 0.7296705842 0.04378129169 0.2177377492 0.9747176766
-0.06959454715 -0.1888969988 0.7184109092 -0.01511639357 0.202751413 0.9301896095
-0.06740093976 -0.1774059832 0.7067617774 -0.4191974699 0.07729914039 0.8148621917
-0.07111284137 -0.1797422618 0.7223402262 0.2160190791 0.2877971232 0.9318596125
-0.06502847373 -0.1946561933 0.7224803567 0.1471417546 0.2555749714 0.9552503824
-0.07697963715 -0.187173143 0.7239050269 0.1280846894 0.2339509577 0.9572693706
-0.04798896238 -0.1580803841 0.7171248198 -0.03105694428 -0.2009786963 0.9279504418
-0.0519557409 -0.1655847728 0.7186865807 0.01337327156 0.04382475838 0.9072211981
-0.05290623009 -0.1558543891 0.7085193992 -0.4837399125 -0.428340435 0.6808710694
-0.05129045621 -0.1481029838 0.713026464 -0.1349462569 -0.4405305386 0.7989181876
-0.05840130523 -0.1504109055 0.7075465322 -0.4062944353 -0.5001716018 0.6663784981
-0.03740707412 -0.1434361935 0.7192286849 0.1367998123 -0.3264090419 0.9339476228
-0.009398332797 -0.164716363 0.7095607519 0.0682272017 -0.08601487428 0.9859213233
-0.004532304127 -0.173023656 0.7078336477 -0.09799554944 0.01235778257 0.987975359
-0.009905985557 -0.1300523877 0.7174447179 0.1835963428 -0.4553690851 0.8702824712
-0.08239366859 -0.1507365108 0.6886224747 -0.3676747382 -0.8743399978 0.2412715107
-0.02141162381 -0.1805978566 0.7071897984 0.05795206875 0.0847081691 0.9883308411
-0.03952427581 -0.1709167808 0.7055949569 -0.3014176488 -0.122140415 0.8345865607
-0.03127872199 -0.1706597209 0.7078788877 -0.09298206121 -0.07044754922 0.9185457826
-0.05170771852 -0.1664305627 0.7036874294 -0.5889723301 -0.238214016 0.7094387412
-0.02834704332 -0.1571989655 0.7127219439 0.03724430501 -0.1611256599 0.9453979731
-0.04616019875 -0.1610514671 0.7073915005 -0.4143704474 -0.2489603162 0.7760105729
-0.01171691157 -0.1651923507 0.74254632 0.08228741586 -0.1695294082 0.9809997082
-0.0181095358 -0.1606781632 0.7390881181 0.03613321483 -0.1977537125 0.9763997197
-0.0164863877 -0.1652775556 0.7322281003 0.08650638163 -0.1785158515 0.9794768691
-0.02442658506 -0.1484724432 0.7283531427 0.1254042834 -0.25291273 0.9547412992
-0.03077324852 -0.1560792476 0.722402513 -0.005763984285 -0.2384822965 0.9696359038
-0.01003550831 -0.1608996987 0.7491410375 0.09230910242 -0.1813142598 0.9757503867
-0.02198359929 -0.1560712457 0.7332313657 0.05864914879 -0.2214621603 0.9684410095
-0.07644236833 -0.1714930534 0.7221679688 0.2690052986 0.1431785822 0.9435536265
-0.07176293433 -0.1561677307 0.7220100164 0.1871176809 -0.4142281413 0.8182265162
-0.07797027379 -0.1538662165 0.726379931 0.1836709231 -0.221535489 0.9231694937
-0.07916107774 -0.1465571374 0.728613615 0.1046799198 -0.3096838593 0.9331244826
0.06161383167 -0.1558971107 0.7250791192 0.6956735253 -0.7131580114 0.01015594415
0.06547899544 -0.147659272 0.7570194006 0.7498629689 -0.5268783569 0.3825201988
0.05726429075 -0.1621316224 0.7254274487 0.668704927 -0.7358864546 0.09641139954
0.05524151772 -0.1608900726 0.7371904254 0.6400392652 -0.6949955225 0.2230781913
0.05703541636 -0.1575316638 0.7476516366 0.6482297182 -0.6378352046 0.3344806731
0.06083827838 -0.1532404274 0.7541390657 0.7035161257 -0.5806566477 0.3726931512
0.04668101296 -0.1423301846 0.7238446474 0.5393563509 -0.6920598745 0.2889247239
0.0400364846 -0.1501315534 0.7243314981 0.5160295367 -0.7280321121 0.2805141807
0.03728827089 -0.1400369704 0.7211675644 0.4250064194 -0.6878852248 0.4442724288
0.03728895634 -0.1570478827 0.7254651785 0.5289275646 -0.7581506371 0.2307059467
0.03742637113 -0.1644138992 0.7273567319 0.5753920078 -0.7884994149 0.1363805681
0.03725973889 -0.1316125393 0.7190328836 0.3732396364 -0.6531031132 0.5504183173
0.05038205907 -0.1495387554 0.7264923453 0.6229288578 -0.7197483182 0.1485592276
0.04785731807 -0.163539663 0.7513529658 0.5284488201 -0.7046818733 0.4145973921
0.03976887465 -0.1050115079 0.7219699621 0.2291703224 -0.7376232147 0.6337222457
0.04773558304 -0.1023508981 0.7216768861 0.211510092 -0.7779223919 0.5892130733
0.03688877076 -0.1014189646 0.7285732031 0.1956129074 -0.7526806593 0.6280369759
0.02794315293 -0.1374709606 0.7677013874 -0.009660100564 -0.2745724618 0.9609550238
0.03275685385 -0.122412689 0.7624227405 0.05927692354 -0.4009087682 0.8794740438
0.02510230429 -0.1053716168 0.7492514253 0.1252856702 -0.6020240784 0.7444773912
0.03195572644 -0.1139505208 0.7572881579 0.09852714092 -0.4931452274 0.8187035322
0.03839728981 -0.1300421655 0.7693570256 0.0344991833 -0.3052358627 0.9445362687
0.0202668719 -0.1430471241 0.7655541897 -0.0277625341 -0.2623595297 0.964507699
0.01191613823 -0.147976175 0.7649835348 0.0007238626131 -0.2409493774 0.9702339172
-0.03102660179 -0.1360907704 0.7198031545 0.1798468679 -0.37101987 0.9108439684
-0.003964673728 -0.1577230245 0.753877461 0.09569286555 -0.1953212172 0.9736340642
-0.01398526412 -0.1501981318 0.7401687503 0.1251933128 -0.2375716269 0.959952414
-0.01904960535 -0.1479926854 0.7341188788 0.1412149817 -0.249693349 0.9548581839
-0.005883869249 -0.1371974647 0.7412132621 0.1199243665 -0.3993981779 0.8849872351
-0.01269917004 -0.1273369193 0.7282107472 0.1582182646 -0.4912608862 0.8455981016
0.0006158691249 -0.1446852237 0.7532271743 0.07721231133 -0.3233334124 0.9184414744
-0.009592497721 -0.1253107488 0.7358114719 0.1219004095 -0.5385854244 0.8085605502
0.005274692085 -0.1450588256 0.7598308921 0.02972546034 -0.2821929157 0.945428431
0.007020975929 -0.154973805 0.7634298205 0.04153733701 -0.1985509247 0.9775092602
-0.005616722628 -0.1523688883 0.7111744881 0.1435530484 -0.1685589105 0.9747299552
0.01441916917 -0.1633411497 0.7614838481 0.08493191749 -0.1980606914 0.9761039019
0.0315008834 -0.172222361 0.7255931497 0.4733678102 -0.866699636 0.03535708413
0.02278777398 -0.1595425308 0.721262753 0.4061493278 -0.6228724718 0.3920899332
-0.08284790814 -0.2192205638 0.7327210903 -0.05053215846 0.2219226509 0.9715582728
-0.07369706035 -0.2134264112 0.7302508354 0.01912628114 0.2626295686 0.9625989199
-0.0711709559 -0.2275778204 0.7318588495 -0.05985774472 0.339517206 0.9367803931
-0.06299459934 -0.216066584 0.7250719666 0.01994166896 0.3497486413 0.9358302355
-0.09481011331 -0.2323647141 0.7324004769 -0.3412657082 0.1588790566 0.9245786071
-0.08887592703 -0.2276216149 0.7338758111 -0.2103131413 0.1961010247 0.9515669346
-0.07718510926 -0.233695671 0.7350159883 -0.1276358664 0.294136256 0.9452280998
-0.06407543272 -0.2311240286 0.737659514 -0.07852885872 0.3868893385 0.9171988368
-0.05461815745 -0.227380529 0.7356888056 -0.05027012154 0.4252449274 0.9007496834
-0.0600913167 -0.2198982835 0.7321872711 -0.008562179282 0.3938581944 0.9160189033
-0.0856872797 -0.1734783649 0.7214277387 0.05600677431 0.06293023378 0.9795337915
-0.1066221744 -0.1901907474 0.7156682611 -0.3118792772 0.06294732541 0.9251430631
-0.1137873083 -0.1920661777 0.7144793272 -0.4018340409 0.01280957647 0.9065445662
-0.08546720445 -0.1886028349 0.7231959701 -0.01710660756 0.1855846047 0.980840385
-0.09225406498 -0.1805355549 0.7215200663 -0.1045259014 0.112217322 0.9835749865
-0.07450540364 -0.1980676055 0.7260535359 0.08030380309 0.2128679752 0.9733815193
-0.0654585883 -0.2093250453 0.7288358808 0.04076734185 0.3200837076 0.9408292174
-0.0631768778 -0.2027677 0.7256274819 0.09456115216 0.3024867475 0.9426550865
-0.08265506476 -0.1990903169 0.7253059149 0.0005276462762 0.2223537862 0.9740515947
-0.07134076208 -0.205831632 0.724894166 0.06455233693 0.2522592545 0.9642637968
-0.0805908516 -0.2138331532 0.7270897627 -0.0008697372396 0.2149384469 0.9750244021
-0.1143085584 -0.252681464 0.7200000286 -0.6211287975 0.1110654101 0.7755309939
-0.1360939443 -0.2025361508 0.7203364968 -0.0275487043 -0.1806029528 0.8565733433
-0.1444561481 -0.199160248 0.7196620107 0.1668337584 -0.2378680557 0.8775888681
-0.1003096402 -0.1792102307 0.7216939926 -0.2128206342 0.01506861765 0.9730622768
-0.09863039851 -0.1668730676 0.7201482654 -0.1457845569 -0.09162523597 0.9846954346
-0.1256303042 -0.2236791551 0.7069411874 -0.4169162512 -0.05961610377 0.8947025537
-0.1346825212 -0.2219126076 0.7038157582 -0.129905045 -0.1065819412 0.9837206006
-0.1108453721 -0.1659715474 0.7060258389 -0.1337919533 -0.3920660615 0.639146328
-0.118982017 -0.1717838794 0.7089433074 -0.114935644 -0.2987292409 0.7996153235
-0.1006833315 -0.1667212993 0.6931595802 -0.1470786631 -0.7217233181 0.1804703921
-0.1115432382 -0.1806762666 0.7096979022 -0.2972342074 -0.2240644693 0.764916122
-0.1182792336 -0.184867397 0.7119406462 -0.2432443351 -0.1394162178 0.9363533854
-0.1196894795 -0.180831939 0.7042703032 -0.08081367612 -0.3518832624 0.7752211094
-0.1115749404 -0.1725535095 0.6999498606 -0.1055987924 -0.5155467391 0.5117846727
-0.1067684591 -0.1664156914 0.6980348825 -0.1248905957 -0.6057397723 0.3585588336
-0.1319827288 -0.1687395573 0.7187466025 0.05733874813 -0.2460524142 0.966362834
-0.1339651346 -0.1780187935 0.7148811221 0.1145443544 -0.2510115206 0.9601733088
-0.1256832778 -0.1839174479 0.7089688182 -0.07094176859 -0.2179215699 0.9728568792
0.03428949788 -0.08595597744 0.7452301979 0.1320020109 -0.7640292645 0.6313191056
0.03920028731 -0.09578488767 0.7354713678 0.1525961757 -0.7700784206 0.6187481284
0.02134229802 -0.1825976074 0.7214350104 0.3059745133 -0.9364398718 -0.1326206326
0.01693622023 -0.1872584671 0.7400925756 0.3121592402 -0.6310293078 0.387126267
0.02189713344 -0.1843491942 0.7317737341 0.3327603936 -0.7718853951 0.1530291438
0.0186642427 -0.1870151907 0.7473435402 0.3250027597 -0.4980257154 0.6077652574
0.02415461652 -0.1825993955 0.7437808514 0.3355366588 -0.5174306631 0.5634203553
0.03047497571 -0.1808020175 0.7244914174 0.4433282614 -0.8648635149 0.0398593694
0.02922378294 -0.1804995835 0.7327439189 0.4236253798 -0.7180382013 0.2735235691
-0.007776201237 -0.1060467586 0.7372277975 0.181194514 -0.7020559311 0.688319087
-0.002443259815 -0.1076479256 0.7517027259 0.1368695498 -0.6122311354 0.7381846309
0.003128604265 -0.1147890612 0.7544932365 0.0999430567 -0.5290301442 0.7898557186
0.008533295244 -0.1245800853 0.7589803338 0.04424840212 -0.4170236886 0.8626453876
0.01588272117 -0.09060076624 0.7453744411 0.2154126018 -0.7210211158 0.6585333943
0.0248790998 -0.1212734655 0.7581058145 0.04799048975 -0.4330272973 0.8550931215
0.02156615257 -0.1150798798 0.7549518347 0.09371887147 -0.4995008707 0.8082557321
0.0003170412674 -0.1039663702 0.7380508184 0.210060671 -0.7039708495 0.6781496406
-0.1007150859 -0.237592563 0.7299719453 -0.4765482843 0.06285353005 0.8764823675
-0.03312724456 -0.1877041906 0.7172846198 0.1111316383 0.2496607304 0.9239768982
-0.03487522528 -0.1777689755 0.7148325443 0.1557286978 0.03705673292 0.9709042311
-0.04681063443 -0.1808942854 0.7189149261 0.1025288478 0.3308289945 0.9113621116
-0.05373894796 -0.1773774326 0.7199867368 0.09419775009 0.3846876323 0.9039481282
-0.04677153751 -0.1910644621 0.7206364274 0.1351162046 0.4065832198 0.8953133225
-0.01572420076 -0.1794183105 0.732727468 0.0969055742 -0.04266096279 0.9815232158
-0.02223176882 -0.1875269264 0.7229092717 0.07433050871 0.196478337 0.9380065203
-0.02260355093 -0.1781750321 0.7193069458 0.08383531123 0.004547483288 0.9794722795
-0.01995262317 -0.1931593865 0.7289732099 0.07291922718 0.2901905477 0.9153084755
-0.0140614612 -0.1882405281 0.7386118174 0.0906926021 0.1244291961 0.9438588619
-0.01745649986 -0.2006820738 0.7200169563 0.00967851188 0.4754982293 0.8769817948
-0.01151147671 -0.1925758719 0.7115725279 -0.07546743006 0.3434771001 0.9292330742
-0.004860319663 -0.1938303411 0.7152035832 -0.1272195429 0.3869351745 0.9062874913
-0.007871872745 -0.1973909438 0.7314488292 0.0915575549 0.2399385273 0.8820786476
-0.000158583076 -0.1967528909 0.7441389561 0.1997984648 -0.002061540261 0.8766563535
-0.04394882545 -0.2142256349 0.7300130725 0.01289492659 0.4430579543 0.8955769539
-0.04992189631 -0.2098474652 0.7274103165 0.05275003985 0.3879014552 0.9175854921
0.01326149981 -0.182896018 0.7167009711 -0.1834680885 -0.07273601741 0.7143619061
0.005156768952 -0.1891951114 0.7151851058 -0.2322442383 0.2800345421 0.9206681252
0.01548947673 -0.1853679121 0.7247965336 -0.01804883778 -0.2897049487 0.5543631911
-0.01054778602 -0.1967315376 0.7241166234 -0.001288916101 0.357113719 0.8918568492
-0.0002516563691 -0.1927013397 0.7268211246 -0.04929773137 0.208212465 0.9018237591
0.009227194823 -0.1903126687 0.7378363013 0.04303293675 -0.03756605089 0.9005050659
0.01116239 -0.188368082 0.7306869626 -0.08862350881 0.03208107874 0.9118046761
-0.002160076052 -0.1949585974 0.7360619903 0.1156157404 0.1116012856 0.887984097
0.009456559084 -0.1922724247 0.7511175871 0.2536892891 -0.2094475627 0.884452641
-0.0009373542271 -0.1666382998 0.7614966631 0.09220928699 -0.1437492222 0.9853037596
-0.007322429214 -0.1444698721 0.7123033404 0.1642444879 -0.2046549767 0.964417696
-0.02322654054 -0.1325973719 0.7210738659 0.1768158376 -0.3995847106 0.8915336132
-0.02220839076 -0.14057675 0.7267543674 0.1564149708 -0.3109669089 0.9313099384
-0.004333222751 -0.1494577974 0.7488097548 0.0971878022 -0.2549698353 0.9554703236
-0.0154461395 -0.1340583414 0.7288763523 0.1547044069 -0.4019641578 0.8896818757
-0.0111669898 -0.1388470829 0.7358332872 0.1349474341 -0.358319968 0.9091504216
-0.008491669782 -0.1452920139 0.74235636 0.1153653339 -0.2918423116 0.9390583038
0.001812568633 -0.1532550305 0.7568612695 0.07526621222 -0.2272703499 0.9675996304
-0.04793667048 -0.1807848364 0.7071126699 -0.0489705205 0.1527497917 0.8731620908
-0.03730889037 -0.1829864979 0.7062366605 -0.02240889706 0.1902692467 0.9183205366
-0.04984026402 -0.1741512567 0.699616313 -0.4854659438 0.003741734661 0.7850640416
-0.02944537625 -0.1880437732 0.7077872753 0.09251156449 0.3240247667 0.9373158813
-0.01676647365 -0.1518261582 0.7138898969 0.1677626222 -0.1627885848 0.9720984697
-0.02485790662 -0.1479112953 0.7156042457 0.1562918127 -0.1866607517 0.9695744514
-0.01801408827 -0.1646770984 0.710968554 0.1293797493 -0.08192557096 0.9820057154
-0.0236228928 -0.1730705649 0.7090572715 0.08147262782 -0.0034377228 0.9927348495
-0.06439688802 -0.1556825042 0.7021003366 -0.5599806309 -0.5946742296 0.5689399242
-0.05864830688 -0.1600846797 0.7037922144 -0.653855443 -0.4294188619 0.6104980111
-0.06342956424 -0.1632806957 0.6973634958 -0.6365084648 -0.4352735281 0.5620391369
-0.0688137114 -0.1497849971 0.7000975013 -0.5842087269 -0.621462822 0.5066400766
-0.07565911859 -0.154626891 0.6922726035 -0.5304244757 -0.7395487428 0.3705182076
-0.04532543942 -0.1254613847 0.7277855277 0.1646799594 -0.4188207388 0.8929694295
-0.03764860705 -0.1167622134 0.7311297059 0.1496646255 -0.5039485097 0.8490524292
-0.06067360565 -0.1540446579 0.7197967172 -0.03249909729 -0.4456594884 0.7663528919
-0.05910709873 -0.1625191569 0.7199739218 -0.003289319575 -0.1371288896 0.8063892722
-0.07205642015 -0.1465996802 0.7246549726 0.1825701892 -0.6076298356 0.7704371214
-0.04397754744 -0.1395362318 0.7208272815 0.1592162549 -0.4017209411 0.9016236067
-0.05338023603 -0.1305824071 0.7280164361 0.1516603976 -0.4224750996 0.8934551477
0.01358965598 -0.1076977402 0.7284377813 0.2242449224 -0.7006312013 0.6772791743
0.04163854942 -0.1673508286 0.7547854185 0.4975023568 -0.7567808032 0.4136722684
0.03523749858 -0.1725040823 0.7541555166 0.5084733963 -0.7805715203 0.3568486273
0.03513851017 -0.1470647156 0.7673840523 0.001961705275 -0.2966012061 0.9549308419
0.04224978015 -0.143944189 0.769517839 0.05433441699 -0.2985353172 0.9527007937
0.03176406026 -0.1566118449 0.7642894983 -0.001269830158 -0.294729948 0.9553100467
0.02884147502 -0.1653192937 0.7620179653 0.04882291332 -0.2505784631 0.9647813439
0.04202251509 -0.1620155722 0.7614815831 0.1659651697 -0.4366939366 0.8772687912
-0.08062851429 -0.2275945693 0.730584085 -0.1162820235 0.287363112 0.9442178607
-0.07553788275 -0.2210881263 0.7278186083 -0.02323718369 0.339746058 0.9400475025
-0.1328067183 -0.2067838609 0.7060911059 -0.07501546293 -0.1357529163 0.9792042375
-0.1354053169 -0.1860460043 0.7118291855 0.08054981381 -0.2547968626 0.9632837772
-0.1362261921 -0.1940450817 0.7086219788 0.1385074854 -0.2436309457 0.9586899877
-0.1448412091 -0.1845071614 0.7188296318 0.2767775655 -0.2837125659 0.9169608951
-0.05694974586 -0.2066545635 0.7224768996 0.07382848859 0.3695521653 0.9254595041
-0.1107416227 -0.2420583814 0.7198280692 -0.6393296719 0.05588229373 0.7668272257
-0.09577115625 -0.2087913305 0.7278587222 -0.1996346563 0.1629117429 0.9593715668
-0.09761707485 -0.1897819191 0.7180350423 -0.2125165462 0.1448918283 0.9448922276
-0.09110850096 -0.2004642636 0.7256066203 -0.09388794005 0.2061421573 0.9722474813
-0.1233371049 -0.191211015 0.7202962041 -0.1829738468 -0.05854021385 0.9047239423
-0.1369801164 -0.214042604 0.704420507 -0.03346313909 -0.1509024054 0.9775958061
-0.1497246474 -0.2157499939 0.7074192762 0.2825756669 -0.2221629471 0.9319063425
-0.146605581 -0.2065205127 0.709525764 0.2537885308 -0.2499969751 0.9339226484
0.02881384268 -0.09211034328 0.7396835089 0.168416515 -0.7394421697 0.6515105963
0.01182341669 -0.09849523753 0.7393286824 0.2291681468 -0.7132050395 0.6623753309
0.007392553147 -0.09368163347 0.7455528975 0.222104907 -0.7180482745 0.6595927477
0.01412694901 -0.1103239954 0.7525349259 0.1349535882 -0.5572558045 0.7676717043
0.01458597463 -0.1012441069 0.7475941181 0.1857067794 -0.6508128047 0.704264164
0.02131750993 -0.1327838451 0.7640146613 -0.0004127963621 -0.3131308258 0.9311419129
0.0178802982 -0.126215294 0.7603337169 0.04038140178 -0.3860735595 0.881585896
0.005766494665 -0.1052902117 0.7492353916 0.1660908163 -0.6227251291 0.7232347131
0.001286043203 -0.09759198129 0.7456974387 0.2096728235 -0.7114254832 0.6656090021
-0.09306392074 -0.2265571952 0.7266287208 -0.2650071084 0.1769837737 0.9099174738
-0.03638887033 -0.1927226633 0.7122543454 0.132334128 0.3950248957 0.9075840712
-0.04352093488 -0.1859078109 0.7117714882 0.2278227657 0.2668985426 0.9338448048
-0.06141084805 -0.1860618144 0.7131635547 -0.1423816681 0.164408952 0.8684305549
-0.05219752342 -0.1891358048 0.7150131464 0.1018096581 0.2200731635 0.9123606086
-0.0565976575 -0.1799119264 0.7063325047 -0.3125079572 0.09298618138 0.8104534149
-0.05198090151 -0.2010795325 0.720328033 0.1232386231 0.3713774383 0.917799294
-0.02303513139 -0.1687429398 0.7184763551 0.09035512805 -0.1458074003 0.9829443693
-0.01957819611 -0.1688582003 0.7258358598 0.09650212526 -0.1587270051 0.9810522199
-0.009716968983 -0.1772833318 0.7450735569 0.1097711697 -0.1047817096 0.9875119328
-0.003436102765 -0.1799423844 0.7574866414 0.1204297915 -0.1249070615 0.9845243096
-0.005570232868 -0.1664103419 0.7528709769 0.09170597792 -0.1533083022 0.9836956859
-0.02875145525 -0.1953579634 0.7130711675 0.07252658904 0.4541551769 0.8843665123
-0.03303135559 -0.2001402676 0.7206788063 0.06104684621 0.4987151027 0.8642394543
0.01550272293 -0.179063201 0.76127702 0.1834568679 -0.2374410033 0.9436360598
0.01083768811 -0.1900148392 0.7614226937 0.2897292376 -0.3129583299 0.8985905051
-0.03966958448 -0.1973152459 0.7172670364 0.1099694744 0.4294471145 0.8951977491
-0.04361402988 -0.2071923167 0.7238771915 0.04063244164 0.4597765803 0.8855627179
-0.0353263244 -0.2076046914 0.7246056199 0.02740725875 0.5224432349 0.8513377309
-0.01669081114 -0.126378864 0.7208434939 0.1734932363 -0.4889770448 0.8546066284
-0.01561615895 -0.1387596875 0.7160997987 0.1823767126 -0.2996390164 0.9308826327
-0.0949678123 -0.1570625305 0.7212133408 -0.1163700894 -0.1390018016 0.9814187884
-0.06881139427 -0.1411587596 0.7073171139 -0.3308156431 -0.6297252178 0.6083391309
-0.06461068988 -0.1334412098 0.7187362313 -0.07195442915 -0.5110489726 0.7695518136
-0.06111562997 -0.1447754949 0.7216210365 0.08911653608 -0.5742686987 0.8051256537
-0.05210030079 -0.1388885975 0.7169038057 -0.03328872845 -0.4768913984 0.7851617932
-0.05845695734 -0.1430258751 0.7105807066 -0.2745992243 -0.5216968656 0.6834496856
-0.05611683801 -0.1334683448 0.720870018 -0.009237464517 -0.4874699116 0.8014636636
-0.07041047513 -0.129097864 0.7298592329 0.1341783106 -0.4126443863 0.9008085132
0.0294149518 -0.1074963063 0.7235831618 0.2202747166 -0.7067138553 0.6719046235
0.02124977857 -0.1078637913 0.726005435 0.2167133689 -0.6992477179 0.6809174418
0.01445664279 -0.1211331785 0.7156338692 0.2311867028 -0.558127284 0.7966912389
0.007269146852 -0.1229502037 0.7167293429 0.2240293622 -0.542032361 0.809599638
-0.004337274004 -0.1255688965 0.718934238 0.1969071925 -0.5140548348 0.8302310705
0.01695006527 -0.1476672441 0.7183234096 0.3261427879 -0.5180089474 0.6226691008
0.02985640056 -0.1608279496 0.7248578668 0.4976529181 -0.7142260075 0.2802493274
0.003091794439 -0.1408414692 0.7113195658 0.1681903154 -0.2804104984 0.9326497316
0.01128744241 -0.1385129392 0.7154505849 0.2387675941 -0.4443691671 0.7995986938
0.02152224816 -0.1330191642 0.7170285583 0.2766438723 -0.5612748861 0.7205225229
0.01943789795 -0.1404163986 0.7186997533 0.3141633868 -0.5682965517 0.650107801
0.02958336659 -0.1331951916 0.7180739045 0.3202773631 -0.6311768889 0.6265047789
0.03109813854 -0.1255999058 0.7162804604 0.2784578204 -0.6185902953 0.7059247494
0.0278494712 -0.1463303119 0.7212853432 0.3972667158 -0.660559237 0.4790732563
0.02409074269 -0.0872458145 0.7454096079 0.1649901569 -0.7327829003 0.6598640084
0.0242850855 -0.09912508726 0.7341967821 0.1859324276 -0.723395884 0.6647737026
0.01869102195 -0.09548868239 0.7394054532 0.2088676393 -0.7198477387 0.6617926955
0.04619880021 -0.1653196961 0.7440965772 0.5702823997 -0.7462385893 0.2798448205
0.04734197631 -0.1656708568 0.7360354066 0.6095920205 -0.7542455196 0.1752577275
0.04985233396 -0.1664994508 0.7280084491 0.6406574249 -0.7590710521 0.0976877138
0.05047147349 -0.1578627527 0.7278848886 0.65660429 -0.7471253872 0.07347390056
0.04335286096 -0.1507106572 0.7659144402 0.06529419869 -0.3095780313 0.9477545619
0.0518056415 -0.152531743 0.7635094523 0.2832255363 -0.4803783894 0.810795784
-0.1311150044 -0.2138156891 0.7181215882 -0.1660781056 -0.1211005077 0.8322525024
-0.1200303212 -0.2142566442 0.7202233076 -0.4159554839 -0.0547549203 0.8095183969
-0.1416221112 -0.2091342807 0.7176427245 0.07169019431 -0.1889591217 0.859164238
-0.1275957078 -0.1962774843 0.7077532411 -0.1475894749 -0.1748470962 0.9646722078
-0.1325409114 -0.2344958484 0.7105567455 -0.3034321964 -0.002780095208 0.8623562455
-0.1435794681 -0.2297282219 0.7109370828 -0.03103324585 -0.08761107177 0.8907556534
-0.1243092194 -0.234609589 0.7097239494 -0.4847188592 0.03517536819 0.8497022986
-0.1237883121 -0.244225964 0.7092142701 -0.5043930411 0.1000316218 0.8540627956
-0.1156433448 -0.2366294414 0.7143659592 -0.645113945 0.04515938088 0.7623720169
-0.1128415093 -0.1854791045 0.7199670672 -0.2906018496 -0.006691720802 0.9473720193
-0.1277272552 -0.1788570434 0.7199158072 -0.04011269659 -0.1533314288 0.9547403455
-0.1152982116 -0.177270487 0.7203105688 -0.2280185074 -0.04013583809 0.960937202
-0.1242587939 -0.1711817533 0.7194427252 -0.08339191228 -0.148543939 0.9675206542
-0.1141882017 -0.1669844985 0.7203866243 -0.1196911782 -0.09641216695 0.9853547812
-0.122645326 -0.1615919769 0.7200351954 -0.07858925313 -0.1405040026 0.9857866764
-0.1074090004 -0.1711770594 0.7206591964 -0.1531571746 -0.06146546081 0.9849411845
-0.1045980379 -0.2319922894 0.7262737751 -0.5349928737 0.08037927747 0.8392675519
-0.08845692873 -0.2142003179 0.7275999188 -0.07610973716 0.1813667268 0.9772342443
-0.09885712713 -0.219241485 0.7292644382 -0.3344369233 0.1202678084 0.9252714515
-0.110409379 -0.2137713134 0.7222704291 -0.5835735798 0.01231127884 0.8075065613
-0.1183680892 -0.2222818732 0.7101931572 -0.5921339989 -0.02692787722 0.8043761253
-0.1002410874 -0.2250990421 0.7237961292 -0.3805363476 0.112653099 0.8837476373
-0.000255247578 -0.174014166 0.7621899247 0.1205597743 -0.1326741725 0.9837454557
0.01045917999 -0.1705828607 0.7610842586 0.1179348007 -0.1336901188 0.9838916659
0.002552937716 -0.1833481789 0.7612240314 0.1238656938 -0.1313946545 0.9835612774
-0.01106509659 -0.1911689043 0.747145474 0.09160900861 0.1022141874 0.9395641088
-0.02460474707 -0.2017641813 0.7263037562 0.04985105991 0.4277462065 0.8814453483
-0.006227050908 -0.1874212027 0.7546388507 0.106450215 -0.0142139513 0.9602568746
-0.02762459219 -0.2103517503 0.7254526615 0.02036159858 0.5240775347 0.8512747288
-0.0007916082395 -0.1964282393 0.7528815866 0.2524895072 -0.1222948581 0.8798526525
-0.007554863114 -0.1985920221 0.7399525642 0.1556162387 0.1294310838 0.875969708
-0.01925718039 -0.2062897682 0.7352455854 0.1006283984 0.3042304814 0.8595190644
-0.01472403575 -0.1972032785 0.7442166209 0.08102522045 0.1831869185 0.9142163992
0.002124969848 -0.1915460527 0.7587466836 0.2510572672 -0.20793657 0.9085955024
-0.03493345156 -0.2150463164 0.7290682197 -0.0138663901 0.513238132 0.8576979041
-0.05306778848 -0.1219517887 0.7294052243 0.1490211636 -0.4220508039 0.8941921592
-0.06026184931 -0.1274382621 0.7304144502 0.1694425493 -0.4207397401 0.8911674023
-0.06419954449 -0.1396153569 0.726077795 0.1702447832 -0.4595923722 0.8694579005
-0.07092306018 -0.136354059 0.7145860195 -0.1689975262 -0.551920712 0.7128425837
0.03388286009 -0.1140342653 0.7165048122 0.259170115 -0.6648036242 0.7000142336
0.01421239693 -0.1133621335 0.7229215503 0.2313064486 -0.6360043287 0.7350968719
0.004860029556 -0.1121605486 0.7268621325 0.216543451 -0.6663772464 0.7120757699
0.002177788876 -0.1192319244 0.722584188 0.2175251544 -0.5851960778 0.779576242
0.02068228275 -0.1149792075 0.7184088826 0.2338277549 -0.6111441255 0.754542172
0.02151727304 -0.1253301799 0.7155979872 0.2370362431 -0.5471882224 0.7985916734
0.003425310366 -0.1302887052 0.7141973972 0.213697359 -0.4712329805 0.8534783721
-0.1176430881 -0.2115868628 0.7131049037 -0.5852640867 -0.04568528011 0.8047249317
-0.1264866889 -0.2102895975 0.707705617 -0.3277112544 -0.1005814672 0.937654078
-0.112132445 -0.2001497895 0.7162562013 -0.4538081288 0.02742217481 0.8754128814
-0.105362244 -0.1980378479 0.7192070484 -0.3478125036 0.09877609462 0.9091593623
-0.1003394425 -0.2127477974 0.7236320972 -0.2894876599 0.1074032784 0.9215101004
-0.1052413955 -0.2051132619 0.7253495455 -0.426115036 0.09428435564 0.8991996646
-0.1211236939 -0.1994074583 0.7111323476 -0.42175439 -0.08127326518 0.8983803391
-0.1066548005 -0.2216360867 0.7194984555 -0.4550664425 0.04963696003 0.8511007428
-0.1104655564 -0.2320899814 0.7207579017 -0.636292994 0.05580962822 0.7678439021
-0.1186890304 -0.2222453505 0.718313098 -0.4845460653 -0.04278304428 0.7927194834
-0.1438302696 -0.2170946449 0.7131761312 0.08910775185 -0.1945498884 0.860393405
-0.1160075366 -0.2292854488 0.7159699798 -0.5934934616 0.02107430063 0.7996583581
-0.1229944751 -0.2023353875 0.7205674648 -0.3058359325 -0.06163841859 0.8423345089
-0.1308849454 -0.1965411901 0.7202991843 -0.09980016202 -0.1310048103 0.8635722995
-0.1501804292 -0.1925988197 0.720005393 0.3196410537 -0.2902704179 0.8976485729
-0.1364228874 -0.1908302605 0.7201574445 0.07580494136 -0.1795423627 0.8940786719
-0.1515980363 -0.1988443732 0.715554595 0.3584127128 -0.3038816452 0.8806070089
-0.1453487873 -0.1931747198 0.7136729956 0.2723044157 -0.2721601427 0.9194737673
