# .PCD v0.7 - Point Cloud Data file format
VERSION 0.7
FIELDS x y z normal_x normal_y normal_z
SIZE 4 4 4 4 4 4
TYPE F F F F F F
COUNT 1 1 1 1 1 1
WIDTH 512
HEIGHT 1
VIEWPOINT 0 0 0 1 0 0 0
POINTS 512
DATA ascii
-0.034758437 0.0342029 0.72692299 0.3328818977 -0.4493175447 0.8290376067
-0.16171354 -0.13132769 0.7323333 -0.08675447106 0.2107787281 0.9736765027
-0.13718837 -0.01548147 0.74123538 -0.024550464 -0.07227475941 0.9970825315
-0.067912735 -0.093464062 0.76700002 -0.2889899611 0.5596926808 0.7766781449
0.050576873 0.033715501 0.71224999 0.4200431406 0.3596267104 0.8332061172
-0.015764341 -0.042902794 0.73565519 -0.2320363224 0.5260674357 0.8181761503
0.014677655 0.015081207 0.77316368 0.08575230092 -0.146132201 0.9855414629
0.014344548 0.078306153 0.75059998 0.1727310419 -0.8022143245 0.5715034008
-0.082883395 -0.031128153 0.71300006 -0.5899566412 -0.3365495503 0.7339519858
-0.1703863 -0.069320664 0.73900002 0.2139499485 -0.1976575702 0.9566383362
-0.085655011 0.017174853 0.74158335 0.268650353 -0.3346280158 0.9032447338
-0.11561403 -0.071259268 0.74846661 -0.2306750864 0.1622251719 0.9594123363
-0.1117522 -0.1222917 0.75133342 -0.6030632257 0.1233419925 0.7880999446
-0.031932354 -0.0052405228 0.76786971 -0.2881954312 -0.1034016013 0.951972425
0.030243246 -0.00064347335 0.73400003 -0.8093802333 0.552988708 -0.1977552027
0.0069154399 0.052405771 0.71733326 0.3674753904 -0.6476528049 0.6674636006
-0.06830246 -0.061681099 0.73888886 -0.06104726717 0.4572602808 0.8872351646
-0.045038931 -0.015226933 0.72355348 0.06542435288 -0.0810437724 0.9945610166
0.041263826 0.042608984 0.76660001 0.2388400584 0.4799522161 0.8441571593
-0.14299183 -0.094100438 0.73044997 -0.3025998473 -0.1408141404 0.9426583052
-0.1054031 -0.035171527 0.74324608 0.02056732588 0.06677949429 0.9975557327
-0.021396803 0.067484923 0.75099999 0.3350273073 -0.6911456585 0.6403704882
-0.1135452 -0.015054499 0.70197958 -0.2575176954 -0.9504062533 0.1743921191
0.00067415665 -0.020898856 0.76900005 0.2147619575 -0.3649258912 0.9059284925
-0.01415729 0.030337051 0.76900005 -0.1342587471 -0.04476189986 0.9899348021
-0.037477501 -0.063777499 0.75000006 -0.2062318772 0.6717488766 0.7114927173
-0.14506474 -0.045088034 0.73336697 -0.1284843236 -0.0600432232 0.9898921847
-0.11414973 0.0040451819 0.74322492 0.08949381858 -0.09462733567 0.9914819598
-0.095266797 -0.094613902 0.75467873 -0.3362491131 0.3034484684 0.8915467262
-0.17318073 -0.10504224 0.73190331 0.2516554594 -0.04960853606 0.9665446281
-0.044711683 -0.043516058 0.72636127 0.007863515057 0.5984288454 0.8011373281
-0.13430537 -0.12486232 0.73415506 -0.4321988523 0.2708511055 0.8601417542
0.032396927 0.062048715 0.72466677 0.06692458689 -0.8150444031 0.5755204558
0.0069143386 -0.016393967 0.73428935 -0.5629110336 0.8151883483 -0.1363785863
-0.057861138 0.018817738 0.73010004 0.372618258 -0.2935019135 0.8803477883
0.015452914 0.042900465 0.7749002 0.08332714438 -0.04208349809 0.9956332445
-0.075064972 -0.0052023861 0.73094732 0.1402516812 -0.2538674474 0.9570165873
-0.12249681 -0.094220854 0.74397057 -0.586797595 -0.1201696098 0.8007670641
-0.078719407 -0.038068373 0.73600006 0.2789445817 0.37384969 0.8845486641
-0.021488853 -0.0302187 0.76600003 -0.5588955879 -0.4448607564 0.6998104453
-0.05261841 0.040925428 0.74100006 0.3698979914 -0.5858124495 0.7211097479
-0.027103905 -0.029310033 0.71899998 -0.2786297202 0.00286659319 0.9603943229
-0.09352193 -0.064161487 0.74899995 0.2046197802 0.3145527244 0.926923573
-0.035413794 0.0053232517 0.71946287 0.183557421 0.03421324492 0.9824134111
-0.0040321271 0.061424658 0.73753846 0.2985304892 -0.7286058664 0.6164519787
-0.01495048 0.044718608 0.72490001 0.3719212711 -0.5365991592 0.7574535608
0.025066214 0.045757454 0.70610428 0.1675044447 -0.1360092461 0.9764444232
-0.0047401367 0.0047424273 0.77251035 -0.06448877603 -0.1220467463 0.9904270768
-0.057525322 -0.075182453 0.7522307 -0.2084673643 0.663708806 0.7183536291
-0.13612169 -0.06456989 0.73683327 -0.3912888169 -0.02275605686 0.919986546
-0.12446888 -0.045256943 0.74211997 -0.1279994845 0.08470978588 0.9881500006
-0.088363171 -0.11121042 0.7665 -0.4519550502 0.2968517542 0.8411989212
-0.030449264 0.051180676 0.73900002 0.3638317883 -0.6610108018 0.6562706828
-0.094461545 -0.012734695 0.73488462 0.3332942426 -0.4459120631 0.8307089806
0.043132197 0.017216416 0.72259098 0.1658964753 0.4538754225 0.8754858375
-0.064687058 -0.024448778 0.73056537 0.07338743657 -0.08225613087 0.9939055443
0.014194109 -0.00608319 0.77100003 0.1004310027 -0.1800593436 0.978515327
-0.16204816 -0.088827685 0.7280001 0.2247674316 -0.1940438598 0.9548960924
-0.027720019 -0.018309183 0.73540008 -0.2333854586 -0.08332544565 0.9688075781
0.030435676 0.027055249 0.77149999 0.172793597 -0.105987668 0.979238987
-0.096029833 -0.017055575 0.71621603 -0.4982697368 -0.6955431104 0.5176360011
0.014996701 0.064845555 0.73231816 0.2284516692 -0.8241629601 0.5182328224
-0.15501957 -0.11494541 0.7249648 -0.0136996964 0.09649223834 0.9952394366
-0.069508269 0.02923245 0.74100006 0.3539330661 -0.4212058485 0.8350551128
-0.024273274 0.014276179 0.76772332 -0.1501460671 0.01405785792 0.9885638952
-0.0044297376 0.075343892 0.75080001 0.2170103043 -0.7451450825 0.6306071281
-0.10493443 -0.053183727 0.7384547 0.06329882145 0.2724489272 0.9600858688
-0.083945334 -0.079047032 0.75228584 -0.05375622213 0.5856154561 0.8088045716
-0.1509506 -0.02915355 0.73900002 -0.06057773158 -0.05513985083 0.9966393113
-0.061736718 -0.042264778 0.72433335 0.1781963557 0.4258410931 0.8870769143
-0.15503453 -0.065215074 0.73255587 0.04061727598 -0.1419574916 0.9890390635
0.041080602 0.050417099 0.71000004 -0.09895893931 -0.3416442573 0.9346048832
-0.017497214 0.028377933 0.72146678 0.3399949968 -0.4124029875 0.8451787829
-0.014819973 -0.014818655 0.76840657 0.01439623814 -0.07407417893 0.9971488118
-0.041057225 0.054450933 0.75133342 0.3670735955 -0.6604182124 0.6550608873
-0.035745256 -0.052073948 0.7383889 -0.203349784 0.7244533896 0.6586471796
-0.11224379 -0.10377741 0.75241667 -0.5936412811 0.01929405332 0.8044984937
-0.1255825 -0.13084249 0.75000006 -0.5885666013 0.2296686769 0.7751398087
-0.084287375 -0.05329461 0.7364518 0.210552007 0.2049168199 0.9558644891
-0.094460472 0.0039823018 0.73825014 0.2284018844 -0.3210575581 0.919105351
-0.031516168 0.020800671 0.71900004 0.3119315803 -0.2744625509 0.9095982909
-0.0014707544 0.039290156 0.71900004 0.3993256092 -0.5652846098 0.7217980027
-0.1305716 -0.081201248 0.74100006 -0.5501161814 -0.08364694566 0.8308882713
-0.013995986 -0.028573198 0.72738093 -0.3046488464 0.3232118487 0.8959481716
-0.081629939 -0.071264237 0.73900002 0.05705345422 0.4415024817 0.8954442739
-0.1252306 -0.024965338 0.73835307 -0.06186445802 -0.01629518159 0.9979515076
-0.17383933 -0.085497737 0.73745978 0.2900722027 -0.1962081939 0.9366751909
-0.05536541 -0.053584747 0.73635906 -0.05709857866 0.5729688406 0.8175857067
-0.1217507 -0.11530831 0.74195462 -0.6173875332 0.09691739082 0.7806661725
-0.042487212 -0.029268831 0.71800005 0.06460274011 -0.006504686549 0.9978898764
-0.12471241 -0.0076354523 0.7390002 0.0276283212 -0.07307362556 0.9969437718
-0.062976129 0.0051574544 0.72800022 0.3049231172 -0.1554086655 0.9396116734
-0.098679796 -0.11628896 0.75800002 -0.5318342447 0.1771992743 0.828101933
-0.083464481 -0.095699452 0.7625851 -0.3069250882 0.4336076975 0.8472197652
0.016288172 -0.0063719037 0.73784876 -0.7148314714 0.6541179419 -0.247276485
-0.11394379 -0.084607519 0.75290912 -0.3323478699 0.02255019359 0.9428872466
-0.045132328 0.015257119 0.72501773 0.3416570723 -0.2235232741 0.9128569365
0.0047510676 0.025111407 0.77416313 -0.02043750882 -0.1127115041 0.9934175611
0.026515441 0.070982821 0.73774999 0.1805656552 -0.8325948119 0.5236238241
-0.13466583 -0.10524291 0.73258179 -0.4748483896 -0.0500966087 0.8786406517
-0.13465014 -0.034930497 0.7353335 -0.1031757295 -0.03996365145 0.9938600063
-0.14536257 -0.075216338 0.7313531 -0.2021412849 -0.2093275934 0.9567240477
-0.027687181 -0.040719315 0.72700006 -0.2797737718 0.586748302 0.7599033713
0.032480944 0.012980524 0.73040909 -0.8951051235 0.4393132329 -0.07609640062
-0.092267491 -0.038213819 0.73881817 0.2660131454 0.3061675131 0.9140560627
-0.10349169 -0.024297297 0.70390916 -0.418397665 -0.8928092122 0.1668385714
-0.1450845 -0.13333029 0.73396552 -0.266998589 0.3005937338 0.9156173468
-0.17040427 -0.12089102 0.7335 0.1468171328 0.04692922905 0.9880498052
-0.016889859 0.059114508 0.74100006 0.3309397399 -0.686286211 0.647680521
-0.054796051 -0.064591154 0.74414295 -0.1740601957 0.5778794289 0.7973445654
-0.073745966 -0.034579296 0.72214895 -0.005612354726 0.6358918548 0.7717577815
-0.054800298 -0.0050964449 0.72681272 0.2575858235 -0.008405241184 0.9662188888
-0.049277432 0.0287985 0.73000002 0.3580960631 -0.427989006 0.8298147917
-0.004566635 0.052780557 0.72532356 0.3710148335 -0.6375622153 0.6751758456
0.024981689 0.056521907 0.7136445 0.107351087 -0.7241200805 0.6812678576
-0.10463481 -0.0051021706 0.73816383 0.2959364355 -0.3462812901 0.8902308345
-0.10349418 0.012192969 0.74246687 0.1857245564 -0.2618284822 0.9470756054
-0.015320629 -0.002253033 0.77099997 -0.02217703126 -0.03918584809 0.998985827
-0.16282681 -0.057131562 0.73861533 0.05763575807 -0.1284487993 0.990039885
-0.074813463 0.01483655 0.73562992 0.3193505406 -0.2996476591 0.8990141749
-0.10581367 -0.0093364995 0.71000004 -0.4402174354 -0.7917108536 0.4235593677
-0.10363706 -0.074636191 0.74900001 -0.0371843949 0.2389588952 0.9703174829
-0.065493084 -0.08354073 0.75666654 -0.2626228333 0.6344746947 0.7269601822
-0.052475825 -0.036921591 0.71811759 0.1723576635 0.2229633182 0.9594687223
0.0041828272 0.069005564 0.74257135 0.2075585872 -0.785892427 0.5824881792
0.038639724 0.027761882 0.71827275 0.3021037579 0.3994137645 0.8655645251
-0.11590479 -0.055881187 0.74304867 -0.04606872052 0.2681422532 0.962277174
-0.11718382 -0.034090459 0.73875785 -0.03666693345 0.04524858668 0.9983026385
-0.12545359 -0.065060496 0.74493444 -0.3502060771 0.1541725844 0.9238974452
-0.10566824 -0.06160244 0.74705887 -0.001448757364 0.3187560141 0.9478356838
-0.13272756 -0.13483988 0.7412501 -0.4824511409 0.2962015867 0.82432127
-0.012453559 0.013805152 0.77125806 -0.1166469976 -0.06751897186 0.990875721
-0.14691141 -0.10485899 0.72731805 -0.1804918796 -0.0359560214 0.9829190373
-0.095061071 -0.082625516 0.74826074 0.0622020252 0.4295714796 0.9008880258
0.021842673 0.0068763979 0.76900005 0.1387564838 -0.1742011756 0.9748849273
-0.085995257 -0.018493285 0.7218889 -0.4143204093 -0.616371572 0.6696451902
-0.028150393 -0.015189001 0.77242857 -0.3281773627 -0.2844210565 0.9007798433
-0.13175261 -0.054130286 0.74138099 -0.2625692487 0.1235131025 0.9569754004
-0.14649676 -0.12407196 0.72751164 -0.1817110777 0.2483590096 0.9514719844
-0.0040254337 0.03357777 0.77291685 -0.08520200104 -0.06617366523 0.9941638112
0.0064822757 0.0019187535 0.76900005 0.04750652239 -0.1558312625 0.9866406322
-0.062242601 -0.01346966 0.72799993 0.09062900394 -0.1081274748 0.9899973869
-0.054052353 -0.025609681 0.72728312 0.2189096957 -0.07956329733 0.9724958539
0.014440631 0.046504825 0.71169239 0.2846081555 -0.5562210083 0.7807793617
-0.094404459 -0.055165302 0.74265975 0.1174811721 0.1990299821 0.9729261398
-0.14068601 -0.11412739 0.73000002 -0.3609496057 0.1002009436 0.9271866679
0.03236296 0.042475514 0.77284622 0.1042479128 0.2925600708 0.9505476952
-0.044128466 -0.057777893 0.74135005 -0.181163162 0.6639828086 0.7254700065
-0.073501408 -0.077806674 0.75178945 -0.1806321293 0.6438068748 0.7435621619
-0.0048311614 -0.004885253 0.76840472 0.002970285947 -0.1069908291 0.9942555428
-0.074744157 -0.021773456 0.73049992 -0.05608481914 -0.04579493776 0.9973751903
-0.036858223 -0.0047387537 0.72128892 0.1259705275 0.09440590441 0.9875317216
-0.075868085 -0.087792069 0.76384997 -0.277620554 0.5697196126 0.7735285163
-0.084853955 -0.01443161 0.73172742 0.0271381475 -0.2218945771 0.9746929407
-0.026264654 -0.052707866 0.74222738 -0.2451514751 0.6677246094 0.7028830647
-0.0045146728 -0.026220752 0.73044747 -0.3268612325 0.2662155628 0.9068026543
-0.025167271 0.035080709 0.72211879 0.3206450939 -0.4522688389 0.832249701
-0.11282855 -0.046769366 0.73873919 -0.01644029096 0.09715148807 0.9951338172
-0.075142704 0.0051402412 0.73257154 0.2876890004 -0.2103998512 0.9343270063
0.022793751 0.07405962 0.74695241 0.1809852421 -0.82570678 0.5342776775
-0.14489038 -0.055170409 0.73250902 -0.1887831241 -0.04768187925 0.9808605313
0.014781829 0.068704434 0.74166673 0.1907806993 -0.8073347807 0.5584024191
-0.12587878 -0.10463525 0.73755175 -0.5809556842 -0.06326147914 0.811473012
-0.10131048 -0.10702886 0.7610001 -0.4801832736 0.16070804 0.8623206615
-0.14955465 -0.086867929 0.7280001 -0.1283015609 -0.1931845695 0.9727376103
0.014927874 0.02510597 0.77399963 0.08550803363 -0.1162046194 0.9895377159
-0.065461002 -0.046253193 0.73274994 0.1861108392 0.4050369263 0.8951579928
-0.044973582 0.0050682756 0.72248214 0.3117720187 -0.08912287652 0.9459679127
-0.13545197 -0.044804614 0.73634386 -0.1539731026 -0.01752719097 0.987919569
-0.085023604 0.0050894665 0.73531747 0.2447676659 -0.2936716974 0.9240377545
0.0047467262 0.014922196 0.77362478 -0.03230053186 -0.1108051017 0.9933171272
-0.10516032 -0.095240727 0.75442868 -0.3479146361 0.1769095063 0.920683682
0.0056421394 0.041586347 0.77510011 0.02843577228 -0.06875319779 0.997228384
-0.16449146 -0.10463785 0.7271961 0.1612710655 -0.02941403538 0.9864717126
-0.035421167 -0.037951998 0.72150016 -0.2296651602 0.3400183022 0.9119437933
-0.1096561 -0.11293921 0.74900001 -0.5906784534 0.1112402156 0.7992024422
-0.15437287 -0.045333289 0.73650014 -0.03256111965 -0.07159332186 0.996902287
-0.14503314 -0.065449171 0.73209113 -0.1684028357 -0.107155405 0.9798766375
-0.04382778 0.042820852 0.73714828 0.3689289391 -0.6135829687 0.6981456876
0.031011209 0.017696612 0.76900005 0.2161434889 -0.1335083097 0.9671905041
-0.13626462 -0.075115763 0.73605561 -0.4735780358 -0.09631845355 0.8754693866
-0.16193418 -0.12109975 0.72780007 0.006203781813 0.1297140867 0.9915320277
-0.10930465 -0.026515368 0.74166673 -0.003048522631 0.04234835133 0.9990982413
0.025109427 0.034612633 0.77414274 0.1639690399 -0.09184098989 0.982180953
-0.024907187 0.0047113323 0.76789796 -0.09217819571 -0.02160617709 0.9955080748
-0.12493325 -0.074865252 0.74545324 -0.4370685518 0.03076365218 0.8989019394
-0.15492289 -0.075455576 0.73082262 0.03030131571 -0.2218308896 0.974614203
0.034610152 0.045315683 0.70515084 0.2637819052 0.1844438761 0.9467837811
0.0019201922 0.059544075 0.73033333 0.3111492693 -0.7194398046 0.6209609509
-0.035824999 -0.025042122 0.72329545 -0.171364516 -0.0940528512 0.9807080626
-0.0749152 -0.054900046 0.73833328 0.1412981153 0.3117276132 0.9396066666
-0.024820825 -0.045428418 0.7352224 -0.2741963267 0.6523263454 0.7066022158
-0.084910125 -0.0050748135 0.7326616 0.1536135674 -0.400480628 0.9033372402
-0.1443062 -0.022921951 0.74100012 -0.04617378116 -0.05294859409 0.9975291491
-0.026136456 0.046893567 0.73199999 0.3523606062 -0.585919857 0.7297533154
-0.10563102 -0.12164247 0.76099998 -0.566059351 0.1641778797 0.8078504801
-0.065085351 -0.072266437 0.74776179 -0.1220710352 0.5922866464 0.796426475
-0.15503599 -0.055200711 0.73401988 0.03028057143 -0.07891494036 0.9964213371
-0.13444254 -0.024798747 0.73839331 -0.05846045166 -0.03904588148 0.9975258112
-0.17476958 -0.094568722 0.73661369 0.3328591287 -0.164821893 0.9284603
-0.086031094 -0.058248177 0.74466676 0.2111723572 0.2459135354 0.9460088611
0.0044023502 0.077699773 0.75061542 0.1939450949 -0.7747820616 0.6017458439
0.034030188 0.05592772 0.71283793 -0.171421349 -0.6903054714 0.7029175162
-0.1645795 -0.074820779 0.73467386 0.19850564 -0.2034405917 0.9587530494
0.011708322 0.058549061 0.72200006 0.307821691 -0.7512851954 0.5837948322
-0.11580825 -0.0060154982 0.73897636 0.07913787663 -0.07878858596 0.9937452078
-0.15551011 -0.094963178 0.72700006 0.03328323364 -0.1136370599 0.992964685
-0.10494731 -0.085144967 0.75287753 -0.1329544783 0.21813263 0.9668201804
-0.094736867 0.014169122 0.74176306 0.2173770666 -0.2845259905 0.9336981177
-0.034539085 0.044641323 0.73441058 0.3773981631 -0.626431942 0.6820217371
0.036686745 0.035005476 0.76790029 0.3094641268 -0.3023815751 0.9015527368
-0.018623419 0.022662513 0.7678889 -0.134028092 -0.05456665158 0.9894740582
-0.073899485 -0.067107074 0.74311125 -0.02167501859 0.5038310885 0.8635302186
-0.13457114 -0.095070407 0.7327323 -0.4858391285 -0.1262551546 0.8648815155
-0.015239769 -0.024228061 0.76725543 -0.09950095415 -0.428624481 0.8979869485
-0.026091283 0.05746837 0.7432 0.3563880026 -0.6791107655 0.6417134404
-0.089827649 -0.10047389 0.75900006 -0.3898161352 0.352148056 0.8509025574
-0.011162597 0.070258699 0.74900001 0.2782863975 -0.7181835175 0.6377845407
0.043777816 0.042283967 0.71000004 0.6111890078 0.3209607303 0.7234861255
-0.038976602 0.048720751 0.74100006 0.366928339 -0.6424606442 0.6727614403
-0.15539855 -0.10498032 0.72626758 0.04506852478 -0.0008851376479 0.9989835024
-0.0047452706 0.025089869 0.77351022 -0.08176869899 -0.08104696125 0.9933505058
-0.11353937 -0.095287211 0.75291491 -0.4774297774 0.04473556951 0.8775303364
-0.13479398 -0.084722675 0.73460978 -0.4838502705 -0.1363968253 0.8644563556
-0.078938745 -0.10126289 0.76700002 -0.3554190099 0.4453985989 0.8217648268
-0.14512131 -0.034734126 0.73660362 -0.08112666756 -0.03462373093 0.9961022139
-0.075046808 -0.045486387 0.73465514 0.2445412576 0.3770869076 0.8933112621
-0.044999208 -0.025005182 0.72476351 0.05265140533 -0.1902105361 0.9803304672
-0.10234769 -0.021892469 0.71360004 -0.3243509233 -0.9442900419 0.05579224601
-0.08917103 -0.028758174 0.708 -0.5523996353 -0.5227977633 0.6492589116
0.015419269 0.05441479 0.71425933 0.287122637 -0.6954689026 0.6586984396
-0.0047080442 -0.01479453 0.76710689 0.02794011869 -0.104946427 0.9940853119
0.014929658 0.034610253 0.77410686 0.1283629537 -0.06623953581 0.9895126224
0.0043593631 -0.024051595 0.73218429 -0.5938346982 0.7985907197 0.09804677963
-0.065488979 0.016039247 0.73171747 0.3449757397 -0.2763908803 0.8969948888
-0.084811077 -0.045315947 0.73848212 0.2680715919 0.3316735625 0.9045055509
-0.12404016 -0.12544391 0.74397612 -0.5916734338 0.2257261127 0.7739316821
-0.05481087 0.0050985552 0.72696888 0.3023146391 -0.09747909755 0.9482107759
-0.063150391 -0.0053184438 0.72800022 0.224032715 -0.05181558058 0.9732031822
-0.044965442 -0.0050659915 0.72237498 0.1682523936 0.07531990111 0.9828621745
-0.16812107 -0.093586072 0.73056245 0.295781374 -0.1696698219 0.9400667548
-0.1252882 -0.034655247 0.73847175 -0.08504603803 -0.01690673083 0.9962335825
-0.07339453 -0.040207438 0.72800004 0.2183400244 0.5027537346 0.8364008069
-0.076522298 0.025151754 0.7410714 0.3299285173 -0.4034868181 0.8534316421
-0.064866692 0.025214462 0.73577988 0.3590596318 -0.3796964884 0.8525882363
-0.12693353 -0.095467769 0.73736864 -0.570094049 -0.1225003749 0.8123955131
-0.045025941 -0.037373424 0.72116673 0.08626347035 0.2535971999 0.9634557962
-0.004743001 0.014913583 0.77326775 -0.06658753008 -0.09865348786 0.9928915501
-0.037036408 -0.015438179 0.72277278 -0.05649958923 -0.1085675657 0.9924821854
-0.11627462 -0.10556465 0.74571741 -0.6345463991 -0.05063907802 0.7712240815
0.0031931216 -0.013490885 0.7669065 0.03036212549 -0.1474505067 0.9886032939
-0.1633451 -0.064737797 0.73630005 0.1395387053 -0.1712372452 0.9752982855
-0.095020577 -0.074701019 0.74748236 0.1350398809 0.3231628835 0.9366589189
0.022244742 0.017453961 0.77253848 0.1318131387 -0.1454319507 0.9805482626
-0.12451553 -0.084614262 0.74486423 -0.5170800686 -0.05473133177 0.8541854024
-0.025374085 0.025728436 0.72010529 0.3050031662 -0.3542896211 0.8839976788
-0.1214129 0.001172454 0.74220008 0.07982414961 -0.09409075975 0.9923583269
-0.015283149 0.054808058 0.73461366 0.3409187496 -0.6485725045 0.6805351377
-0.045546666 0.035274666 0.73244447 0.3608076572 -0.4905086458 0.793233335
-0.15446427 -0.12338728 0.72692299 -0.05265194178 0.1724328697 0.9836130738
-0.17270267 -0.11361708 0.73170584 0.1706223041 0.02179246582 0.9850955009
0.0043678293 0.056075986 0.72374284 0.3659558594 -0.6882661581 0.626391232
-0.080961332 -0.024451109 0.7215001 -0.5101055503 -0.409627229 0.7563053966
-0.11693265 -0.026312463 0.73874092 -0.03676374629 0.008776203729 0.9992854595
-0.064843118 -0.05505145 0.73673594 0.003728179494 0.4582341313 0.888823688
-0.02013791 -0.048071139 0.74100006 -0.2679591775 0.6368976235 0.7228826284
0.0053165015 0.06419944 0.73554999 0.2204852998 -0.7821183801 0.5828182101
0.023433123 -0.0036805975 0.73640025 -0.7655040026 0.6065487862 -0.2147141248
-0.054803036 -0.015293998 0.72684389 0.2407400608 -0.09236232936 0.9661849737
-0.062904924 0.032604214 0.73888898 0.3616134524 -0.4613277912 0.8101927638
-0.0057999338 0.045311604 0.72104257 0.3933855295 -0.5650342703 0.7252476215
0.013850798 -0.014166059 0.73661119 -0.690236032 0.7020223141 -0.1753251702
-0.024060354 -0.03572987 0.72181076 -0.3501902223 0.367087841 0.8617501259
-0.094324291 -0.023849249 0.71317774 -0.5324485302 -0.6171431541 0.5793383121
0.0100729 -0.0100729 0.76600003 -0.5619854927 0.6176699996 -0.5501418114
-0.034757681 -0.046940356 0.73286831 -0.2040565014 0.7105768323 0.6733806133
-0.17190897 -0.078237891 0.73858333 0.2259518504 -0.2131901979 0.9505239129
0.024893131 0.043072607 0.77405274 0.1309685856 -0.07796072215 0.9883164167
-0.09472283 -0.0051548607 0.73500013 0.1272326857 -0.5015563965 0.8557178378
-0.0057101799 0.065774053 0.74351221 0.2630590498 -0.7342934608 0.6257899404
-0.055313319 -0.047980871 0.73127991 0.06690953672 0.5270457268 0.847198844
-0.097008429 -0.048287675 0.74100012 0.09773210436 0.2472901046 0.9640000463
-0.054746248 0.034711447 0.73730791 0.3573732674 -0.5329994559 0.766939342
0.00063119998 0.0492336 0.72000003 0.4108766019 -0.5951059461 0.6906731129
-0.011867788 0.050915577 0.72780007 0.3613189757 -0.6015928984 0.7124146223
-0.015254641 0.035504017 0.72174603 0.3612233996 -0.4585844874 0.8119223714
-0.085353233 -0.10434964 0.76355815 -0.4398418963 0.3813634217 0.8130812049
-0.034532011 0.053854648 0.74464101 0.3693418503 -0.6624272466 0.6517490149
-0.13187084 -0.0075169154 0.74100012 0.01968653686 -0.08541939408 0.9961505532
0.012262939 0.0084005957 0.77099997 0.09511064738 -0.1639026254 0.981880784
-0.060796835 -0.030718399 0.73000002 0.1873051971 0.02724582888 0.9819238186
-0.064760618 -0.035581321 0.7234444 0.1133572832 0.1563539356 0.9811745882
-0.030258149 0.01008605 0.76700002 -0.1027619541 -0.01799038053 0.9945432544
-0.054448038 -0.043109406 0.72409689 0.1655709594 0.458042711 0.8733745813
-0.036345318 0.015474885 0.72045827 0.3074492216 -0.2171666473 0.9264521599
-0.095321931 -0.11256547 0.76333332 -0.4985952377 0.2204669565 0.8383299708
-0.075147137 -0.082650036 0.75699991 -0.2219013274 0.6208075881 0.7519027591
0.030799929 0.06097129 0.71700001 -0.07283460349 -0.7579618096 0.6482198834
-0.12866016 -0.087373428 0.73750007 -0.5636638999 -0.1193990558 0.8173291087
-0.080793604 -0.03156 0.72000003 -0.2635836005 0.6042990088 0.7518951893
-0.023749109 0.053406745 0.73762083 0.3634566665 -0.6776089668 0.6393319964
-0.0058319303 0.057439856 0.73186958 0.3459099829 -0.6630554795 0.663855195
0.025411827 0.0045094327 0.73503995 -0.8093802333 0.552988708 -0.1977552027
0.0047497796 0.034605533 0.77399981 -0.03636274114 -0.08746191114 0.995503962
-0.024883104 -0.0047074314 0.76712233 -0.01871879026 -0.04108871147 0.9989801645
-0.031601202 -0.059912276 0.75100005 -0.5381590724 0.7922235131 0.28769207
-0.085093245 -0.084939107 0.75608164 -0.1887181848 0.5528844595 0.8116059303
-0.097511269 -0.026645871 0.70688236 -0.6091803908 -0.5918714404 0.5278137922
-0.056044538 0.025402589 0.73190242 0.3716440201 -0.4021929204 0.8367326856
-0.11528549 -0.064627469 0.74605775 -0.1704602689 0.2624597549 0.9497674108
-0.085520774 -0.025184074 0.715644 -0.5807947516 -0.5157436132 0.629830122
-0.013848235 0.0045575569 0.77184457 -0.04940509796 -0.03880557045 0.9980247021
-0.10548043 -0.041818645 0.74100012 0.0433826521 0.06276664883 0.9970849156
-0.084964335 -0.03669887 0.73885739 0.2825049162 0.3064897656 0.9089856744
-0.12517709 -0.054767895 0.74370307 -0.1868901402 0.2009880692 0.9616006613
-0.12797825 -0.12349124 0.73853332 -0.5364822149 0.2175927758 0.8153773546
-0.1154462 -0.11477453 0.74553573 -0.6297329664 0.07747578621 0.7729384899
-0.045357857 -0.063577913 0.74505574 -0.1748200357 0.6338835359 0.7534120083
0.025424868 0.062448911 0.72500002 0.1862740964 -0.8112717271 0.554202199
-0.12616347 -0.014427613 0.73823547 -0.009657052346 -0.05013695359 0.9986956716
0.030775908 0.066573717 0.73440003 0.1326937079 -0.8374346495 0.5301845074
-0.10309207 0.0016658542 0.73892862 0.2030458152 -0.2641365528 0.9428702593
0.0047100787 -0.0047076452 0.76769388 0.03137868643 -0.1439446211 0.9890881181
-0.075379543 -0.073632687 0.74510348 -0.03889378533 0.5657572746 0.8236540556
-0.13672198 -0.055276297 0.73663831 -0.242661193 0.02429923415 0.9698067307
-0.024088381 0.04269328 0.72684008 0.3358129561 -0.5387595892 0.7726368904
-0.086182758 -0.074521028 0.74312824 0.09775997698 0.4664064348 0.8791518807
-0.064729206 -0.065462641 0.74349999 -0.09140400589 0.4986141622 0.8619914055
-0.064756021 -0.077497408 0.75231248 -0.1638237387 0.6502351165 0.7418598533
-0.10517756 -0.11484212 0.75605667 -0.5259254575 0.1624755859 0.8348677158
0.0089349858 0.060630266 0.72800004 0.2630693316 -0.7778584361 0.570728302
-0.15481324 -0.13183194 0.73242104 -0.1110319123 0.2113130987 0.9710915089
-0.044627596 -0.048219651 0.73139989 -0.05727238953 0.6754460931 0.7351819277
0.036609501 0.016332364 0.72602397 0.09560397267 0.461517632 0.8819645047
-0.12683666 -0.11489537 0.73736989 -0.5741484761 0.1217127889 0.8096539378
-0.054264087 -0.05850821 0.74100012 -0.1132790968 0.6220721602 0.7747219205
-0.035010509 -0.05666605 0.74338889 -0.2057787478 0.6930567026 0.6908889413
-0.16353816 -0.11452889 0.72687882 0.100688763 0.06126221269 0.9930300713
-0.014653689 0.063776366 0.7454474 0.3308844566 -0.6943074465 0.6391029954
-0.017923303 0.048862036 0.73016667 0.3500823975 -0.5900409818 0.7275259495
-0.10472036 -0.014777307 0.71395993 -0.4024149477 -0.8456876874 0.3505346477
-0.075991832 -0.093762308 0.76710552 -0.2968541086 0.5316931605 0.7932086587
-0.03113197 -0.023270676 0.73224998 -0.2359570861 -0.01104713697 0.9717006683
-0.13453566 -0.11491027 0.73276007 -0.4772212505 0.09823794663 0.873274982
-0.088156804 -0.094006978 0.75779998 -0.3515889943 0.4277424514 0.8327193856
-0.10978409 -0.00064961001 0.74100006 0.117697373 -0.1072389185 0.9872421622
-0.15257856 -0.035683535 0.73814303 -0.1084869057 -0.07301471382 0.991412878
-0.16515981 -0.084113382 0.73175514 0.2693035305 -0.1968647093 0.9427193999
-0.075146519 -0.026459487 0.72428012 -0.4313649833 -0.1546905041 0.8888166547
-0.035044461 0.02541876 0.72241813 0.3361824155 -0.3638174832 0.8686876297
-0.041058391 0.032123405 0.7280001 0.3600287139 -0.4346797764 0.8254894614
-0.0064224042 -0.032650623 0.73025787 -0.3326550722 0.3996933699 0.8541579843
0.032375131 0.0066814665 0.73270363 -0.8201931119 0.5425274372 -0.1815136373
-0.13152951 -0.074571997 0.74111122 -0.530700624 -0.03927047551 0.8466491103
-0.079902031 -0.0584649 0.74100006 0.1735259742 0.2692186236 0.9473173022
-0.10233492 -0.011370742 0.73814291 0.3602413535 -0.1395648569 0.9223599434
-0.0056543248 -0.022410139 0.76760012 0.02794011869 -0.104946427 0.9940853119
0.039151318 0.033874489 0.71570003 0.4200431406 0.3596267104 0.8332061172
-0.035752706 -0.029457655 0.71833336 -0.157998085 0.005721173249 0.9874228239
-0.014579623 -0.038217958 0.73112494 -0.2578997612 0.4878651798 0.8339515924
-0.10559973 -0.10520564 0.75629997 -0.493593812 0.1166564897 0.8618331552
-0.1101707 -0.014315967 0.71000004 -0.3002279699 -0.9234218597 0.2390716225
-0.024195254 0.06282229 0.74729627 0.3482030332 -0.6852867007 0.6396380067
0.0050121499 0.045498133 0.71682435 0.387193203 -0.6297430992 0.6734278202
-0.094341576 -0.10626168 0.76181555 -0.439740032 0.2180005312 0.8712660074
-0.044461705 0.025221923 0.72736216 0.3732655346 -0.3715533614 0.8500711322
0.031751201 0.035363067 0.77219045 0.1639690399 -0.09184098989 0.982180953
-0.067381479 -0.08806292 0.7610001 -0.285538733 0.6246862411 0.7267975807
-0.11692303 -0.12343172 0.74749994 -0.6209288239 0.1219641864 0.7743204236
-0.075456358 -0.015291112 0.7301107 -0.04697475582 -0.2177831084 0.9748660922
-0.13109131 -0.047681373 0.74100006 -0.1795338392 0.04576537386 0.9826866984
-0.086031333 -0.064692594 0.74413031 0.1491642594 0.3330644667 0.9310306311
-0.16466229 -0.12528911 0.73189467 0.03491344303 0.09705481678 0.9946664572
-0.12724905 -0.13170075 0.74250013 -0.5607763529 0.2800042629 0.7791838646
-0.088853233 -0.080985144 0.74800003 0.01294474024 0.4834321439 0.8752861023
0.018711573 0.00064522668 0.73600006 -0.7655040026 0.6065487862 -0.2147141248
-0.13138363 -0.065610617 0.74100012 -0.4335846007 0.03291947395 0.9005113244
-0.11811198 -0.086617738 0.74849987 -0.4184748828 -0.01590217091 0.9080891609
0.044599675 0.026217692 0.71658689 0.3575643301 0.377147615 0.8543462157
-0.05668414 -0.070365906 0.7481429 -0.1988438368 0.5960526466 0.7779346704
-0.062022734 0.012242091 0.7280001 0.3316750824 -0.2644433677 0.9055723548
-0.12087379 -0.10574204 0.7412858 -0.6013976932 -0.03104157001 0.7983465195
0.015574159 0.061410028 0.72613335 0.2455447763 -0.8071421385 0.5368699431
-0.051498909 0.023221146 0.72800004 0.3718566895 -0.3711780906 0.8508521914
-0.03504204 -0.041414909 0.72676194 -0.2660271227 0.5675545335 0.779173553
-0.12147707 -0.038976602 0.74100012 -0.1067053974 0.01279090345 0.9942083955
-0.017652735 0.016144307 0.76860017 -0.1189462021 -0.05125834793 0.9915767312
-0.023916591 -0.014136628 0.76790494 -0.3281773627 -0.2844210565 0.9007798433
0.021485345 0.069664605 0.74266672 0.1820971966 -0.8287439942 0.5291728973
0.037034418 0.023210993 0.72216678 0.2203118801 0.4306140244 0.875233829
0.01924108 0.04779236 0.708 0.2033647746 -0.2889641225 0.935490489
-0.11291467 -0.020864666 0.70000005 -0.3134024739 -0.9388841391 -0.1423919052
-0.09133333 -0.015856709 0.72350001 -0.4230280221 -0.668094337 0.6121252179
0.035138555 0.051054921 0.70733327 -0.04044709727 -0.3880964518 0.9207307696
-0.15554088 -0.081546351 0.73013318 0.1291860193 -0.2048445344 0.9702317715
0.024912642 0.025233163 0.77342558 0.1836304814 -0.1158559918 0.9761440754
-0.045793328 -0.05328998 0.73755902 -0.1387919337 0.6786541343 0.7212249041
-0.095734827 -0.10144441 0.75805879 -0.4457576275 0.2986605763 0.8438613415
-0.14477812 -0.084863663 0.73111123 -0.2616613507 -0.1636750996 0.9511802197
-0.036033846 0.05775414 0.75075001 0.3630263209 -0.6736043692 0.6437926888
-0.08127927 -0.087685958 0.76120007 -0.256688416 0.5575729609 0.7894450426
-0.0068604685 0.037379637 0.72088897 0.3938674629 -0.5234271884 0.7555742264
-0.079902031 0.018838691 0.74100006 0.2724467218 -0.3158149719 0.9088639617
-0.11472464 -0.076503031 0.75120932 -0.2424512208 0.1334178299 0.9609459639
-0.012966825 0.025106505 0.77162862 -0.1315499246 -0.05634771287 0.9897068143
-0.055953421 -0.034633689 0.72239989 0.1903135329 0.04176975042 0.9808343649
0.048413038 0.039102841 0.708 0.567222476 0.3155244291 0.7607253194
-0.12805967 -0.041678775 0.73900002 -0.1301418543 0.04006440192 0.9906855822
-0.030754661 0.0039734519 0.76718193 -0.09217819571 -0.02160617709 0.9955080748
-0.10503907 -0.05799669 0.74191666 0.05068891495 0.3167205751 0.9471635222
-0.13550256 -0.13204895 0.73682153 -0.4093298316 0.2939515114 0.8637369871
-0.10503391 -0.066415437 0.75045013 0.03442568332 0.3145312071 0.9486227036
-0.054349255 0.014674605 0.72775948 0.3562152982 -0.243759945 0.9020486474
-0.11094479 -0.0092970496 0.70700002 -0.3473246694 -0.8732868433 0.341666013
-0.14568441 -0.11488011 0.72698301 -0.2120388448 0.1180298105 0.9701074362
0.044875924 0.034852117 0.71293539 0.4200431406 0.3596267104 0.8332061172
-0.022184225 -0.024467502 0.76680005 -0.2375934571 -0.4835929871 0.8424293399
-0.019550543 0.0067415666 0.76900005 -0.08854372799 -0.009524850175 0.9960267544
-0.14188516 -0.1045283 0.73021418 -0.3239707649 -0.03433098271 0.9454439878
-0.11831766 -0.095196642 0.74784201 -0.5504283309 -0.0813716352 0.8309075236
-0.10551526 0.0060520307 0.74176085 0.1649378389 -0.2714945674 0.9482015967
-0.14759587 -0.095563404 0.72736657 -0.1728312522 -0.1076534316 0.9790506363
-0.096815459 0.0082942983 0.74117655 0.1966322511 -0.2633639574 0.9444443583
0.015097186 0.0042675035 0.76829201 0.09752388299 -0.160195902 0.9822557569
-0.068206087 0.0050503798 0.73014796 0.3224049211 -0.1728750616 0.9306821823
-0.057815287 0.037677377 0.74100006 0.3744398952 -0.5539331436 0.7436079979
0.025511507 0.014512112 0.76900053 0.1772004068 -0.160585627 0.9709852338
0.015062758 0.07400766 0.74702954 0.1750612706 -0.8043997288 0.5677099824
-0.075361684 -0.064415805 0.73839998 0.0498322621 0.4112344682 0.9101664424
-0.095757313 -0.035494067 0.74227494 0.09795362502 0.09490614384 0.990655303
0.027961941 0.011249168 0.73325002 -0.8274151087 0.5287812352 -0.1891419739
-0.090376005 0.011985349 0.73900002 0.2370343953 -0.2747795582 0.9318320155
-0.16399516 -0.095613047 0.7273823 0.227685377 -0.1355510652 0.9642537236
-0.068326667 -0.0047869859 0.73003978 0.1529391408 -0.1288032234 0.9798057675
-0.084340341 0.012767038 0.7384401 0.2596541345 -0.2831844091 0.923247695
-0.026543967 -0.023726821 0.73592591 -0.2951660752 0.1633205265 0.941383779
-0.1111175 -0.068379998 0.75000006 -0.1105133742 0.2879887521 0.951235652
-0.06703762 -0.028397867 0.72747058 -0.002855100203 0.07404913008 0.9972504973
-0.036350109 0.038525995 0.73000002 0.3318098187 -0.5209973454 0.7864248157
0.024901945 0.051144645 0.70736843 0.165165782 -0.3991553783 0.9018842578
-0.066510208 -0.016148198 0.73026651 0.03812431544 -0.1390118897 0.9895566106
-0.058818758 -0.025075059 0.73000008 0.1652153283 -0.05503810197 0.9847206473
-0.1203225 -0.073639996 0.75000006 -0.3848055899 0.1279941201 0.9140799642
-0.13923307 -0.020570982 0.741 -0.04617378116 -0.05294859409 0.9975291491
0.025347425 0.066382244 0.73362076 0.1887522787 -0.8225409985 0.5364688635
-0.015589337 -0.033721365 0.72646153 -0.2807433903 0.3911680579 0.8764534593
0.0055554365 0.073678404 0.74711436 0.185390681 -0.7849407792 0.5911838412
-0.028360602 0.016385864 0.71889991 0.3021443188 -0.2607709765 0.9169009328
-0.1549152 -0.086450458 0.72759992 0.1103056222 -0.2055807263 0.9724038243
0.0040958836 0.0057530766 0.77194458 0.01630321518 -0.1400838047 0.9900054336
-0.10479641 -0.046530738 0.7384792 0.06610624492 0.1358689219 0.9885188937
-0.13233528 -0.015546809 0.73892874 -0.03642761707 -0.0549649857 0.997823596
-0.031685364 -0.010449428 0.76900005 -0.2091494352 -0.1221022382 0.9702306986
-0.094315432 -0.044281885 0.73890001 0.1538861245 0.2262350917 0.9618402719
-0.11623045 -0.044156224 0.74174184 -0.04560051858 0.1019782126 0.9937409163
-0.14261284 -0.12613441 0.73034769 -0.3140977621 0.2636548281 0.9120464325
-0.12477838 -0.002884689 0.74116004 0.05893510953 -0.07310665399 0.9955812693
-0.11285663 -0.051958106 0.73899996 -0.02715531364 0.2360837311 0.9713532329
-0.10903279 -0.01501087 0.70444447 -0.3576618433 -0.9010689855 0.2452605069
0.019550543 0.011460663 0.76900005 0.1295365095 -0.1610766798 0.9784041047
-0.17189576 -0.073464319 0.7416001 0.2590914369 -0.2023599297 0.9444162846
-0.13891776 -0.11849494 0.72799999 -0.3759955764 0.1453323364 0.9151534438
0.012464245 -0.003516309 0.76692319 0.2832218707 -0.3523941934 0.8919662237
-0.088698007 -0.018782333 0.71757144 -0.4830261469 -0.5902302861 0.6467719674
0.025802931 0.061056331 0.71800005 0.1194212064 -0.7841681838 0.608948946
-0.11320667 -0.03583822 0.74141377 -0.03765088692 0.03933351487 0.9985165596
-0.016445149 0.068353705 0.75036371 0.337546438 -0.692761004 0.6372947693
-0.094690226 -0.08666449 0.75129038 -0.1453677565 0.3207075298 0.9359566569
-0.072995678 0.022846581 0.73829645 0.3304249942 -0.386822015 0.8609228134
-0.16833006 -0.11554013 0.73038888 0.1468171328 0.04692922905 0.9880498052
-0.11076408 -0.11754145 0.7514286 -0.6014969349 0.08787662536 0.7940271497
0.020382499 0.076927498 0.75000006 0.1773788631 -0.8133103251 0.5541327
-0.045378149 -0.03453391 0.71735537 0.1093558371 0.1107339114 0.9878154397
-0.10717789 -0.12063898 0.75671434 -0.5769723058 0.1485283524 0.8031452298
-0.11428805 -0.0018622155 0.74100012 0.08964431286 -0.09552741051 0.9913820624
-0.15645526 -0.12795965 0.7304166 -0.1004987657 0.2098821551 0.9725479484
-0.08375673 0.021382248 0.74213332 0.279641211 -0.3361698687 0.8993278742
-0.0012033444 0.043836124 0.71899992 0.4005187452 -0.5782267451 0.710801363
0.033419695 0.025245432 0.76860029 0.2053582817 -0.1357865185 0.9692213535
-0.096729986 -0.052277043 0.73900002 0.1074458882 0.2293690294 0.9673909545
-0.044823091 0.044823091 0.74100006 0.3659265339 -0.6148809195 0.6985837221
0.043150995 0.021049643 0.7203334 0.2203118801 0.4306140244 0.875233829
-0.032382861 0.014182277 0.71899992 0.2951077223 -0.1750086993 0.9392994046
-0.014752305 -0.0060283514 0.76883358 -0.02226878516 -0.06063914299 0.997911334
0.040963128 0.038277019 0.76600003 0.686799407 0.05579338223 0.7247024775
0.028988736 0.021573013 0.76900005 0.2053582817 -0.1357865185 0.9692213535
-0.0047075856 0.071742937 0.74839121 0.2168038785 -0.751157999 0.6235044003
-0.081557959 -0.067017175 0.73899996 0.09233766049 0.3959904313 0.9136002064
-0.14409883 -0.026358061 0.73864734 -0.06543865055 -0.0582774803 0.9961533546
-0.16947469 -0.10600228 0.7302857 0.2205335796 -0.04726725817 0.9742333889
-0.030999264 -0.017989747 0.73287499 -0.1993030757 -0.1252188832 0.9719045758
-0.010589257 0.030866558 0.77100009 -0.1222153977 -0.05019924417 0.9912332892
-0.10127236 -0.11114608 0.76100004 -0.4801832736 0.16070804 0.8623206615
-0.10560063 0.012309276 0.73900002 0.1746873409 -0.2741585076 0.9456856847
-0.03521511 -0.033330098 0.71732473 -0.1987348348 0.03656819463 0.9793708324
-0.031973697 -0.013956095 0.77270007 -0.1673206836 -0.1348270029 0.9766398668
-0.020436853 0.071197607 0.75200003 0.337546438 -0.692761004 0.6372947693
-0.037834916 -0.06166447 0.74670005 -0.2062318772 0.6717488766 0.7114927173
-0.027857836 -0.051180676 0.73900002 -0.2319874316 0.6850270033 0.6905938387
-0.0095731998 -0.032548878 0.72800004 -0.3326550722 0.3996933699 0.8541579843
-0.02218931 0.021853108 0.76700008 -0.1470438093 -0.03592311591 0.9884774685
-0.027613387 -0.032852992 0.71847361 -0.3058283925 -0.01766377315 0.9519227743
0.037887279 0.042792976 0.76785719 0.1730219871 0.4304926693 0.8858551979
-0.027944334 0.021220885 0.71900004 0.2933668196 -0.2892197371 0.9112012982
0.043228827 0.044809785 0.70755184 0.5512208939 0.2988341749 0.7790081501
-0.015480273 0.071717061 0.75052631 0.31290856 -0.7109681964 0.629771769
-0.1096561 -0.1096561 0.74900001 -0.5707572699 0.05293679237 0.8194106817
0.040287215 0.051443677 0.70700002 -0.09895893931 -0.3416442573 0.9346048832
-0.1124731 -0.026311669 0.74106264 -0.01595125161 0.03286303207 0.9993325472
-0.025081141 -0.028668167 0.72133332 -0.2786297202 0.00286659319 0.9603943229
-0.0960503 -0.065455839 0.7502858 0.1847573519 0.3125703931 0.9317534566
-0.064527929 0.033851895 0.74100012 0.369944483 -0.4582173824 0.8081942201
