# .PCD v0.7 - Point Cloud Data file format
VERSION 0.7
FIELDS x y z normal_x normal_y normal_z
SIZE 4 4 4 4 4 4
TYPE F F F F F F
COUNT 1 1 1 1 1 1
WIDTH 512
HEIGHT 1
VIEWPOINT 0 0 0 1 0 0 0
POINTS 512
DATA ascii
-0.11488757 -0.094898783 0.74334979 0.07370385528 -0.2843866646 0.9558723569
0.073421158 -0.094798729 0.80163163 -0.8059549928 -0.2670428157 0.5283225179
-0.24044862 -0.1078335 0.76400006 0.4917429686 -0.1528601646 0.8572179675
-0.015044629 -0.1638566 0.76462734 -0.06329006702 -0.8492841125 0.5241287351
-0.024762286 -0.065156594 0.79404098 0.1575705409 0.496073097 0.8538635969
-0.16538191 -0.16186523 0.78000003 -0.04788911715 0.5113105774 0.8580607176
0.035238396 -0.10454937 0.72370899 -0.1864871681 -0.3806785643 0.9057076573
-0.088323295 -0.1732232 0.78100002 0.3939697444 0.757894814 0.5199839473
-0.04344935 -0.10117435 0.72040015 -0.424559623 0.3261083663 0.8446315527
-0.17554714 -0.067057244 0.77375871 0.1104592457 -0.8423033357 0.5275641084
0.0050156582 -0.12545615 0.81773484 0.05819353461 -0.1690900922 0.9838811159
0.030081939 -0.049670178 0.79800004 -0.09734686464 -0.8120697141 0.5753836632
-0.10515178 -0.071938679 0.79350001 0.007288811263 -0.9543746114 0.2985230386
-0.074538141 -0.14317872 0.73641956 0.2833269835 0.6269342899 0.7257266641
-0.16496401 -0.11492274 0.75284207 0.1071161553 0.3994549215 0.9104734659
-0.0053027687 -0.074669287 0.74632341 -0.2035565227 -0.8736093044 0.4420084655
0.032139152 -0.13682976 0.76294732 0.7931078076 -0.3983005583 0.4607999921
-0.061473619 -0.069405697 0.75400001 0.1887972057 -0.7165925503 0.6714541912
-0.12220997 -0.1403973 0.75900006 0.138394475 0.5719932914 0.8084989786
-0.21101104 -0.15033694 0.76900005 -0.08450068533 0.5613996983 0.8232192993
-0.041032966 -0.11503649 0.81166673 -0.07756857574 0.0176524166 0.9968307614
0.044761211 -0.084446207 0.76618195 -0.6753543019 -0.5778728724 0.4582134187
-0.095034778 -0.11678319 0.70394111 0.3336395323 -0.7462739944 0.5759859085
-0.035304591 -0.12871483 0.75139999 0.392490238 0.2709646225 0.8789366484
-0.02526913 -0.1528116 0.8029002 -0.002103816718 -0.9419437051 0.3357642889
-0.21512257 -0.077350564 0.77503848 0.3017036319 -0.7774326801 0.5518816113
0.062416386 -0.13086021 0.73100001 0.1850263923 0.23207663 0.9549375176
-0.053116795 -0.15118627 0.77683336 -0.1954103112 0.2855727971 0.9382233024
-0.20494461 -0.11479662 0.75203508 -0.1126543656 0.2155290544 0.9699774384
-0.13502941 -0.071777441 0.77193338 -0.131508857 -0.9047833085 0.4050587118
0.03695054 -0.13730848 0.79799998 0.4887733161 -0.8113273382 0.3207001686
-0.073758319 -0.095113613 0.73470724 0.3713265359 -0.6188524365 0.6921980977
-0.093001053 -0.1242232 0.75899994 -0.08146136999 0.5747102499 0.8142924309
-0.044881389 -0.16226296 0.74733335 -0.2346523106 0.5054956675 0.8303086758
0.015155775 -0.066093929 0.7745958 0.05668322742 -0.8681149483 0.4931160212
-0.093619011 -0.069474734 0.75475001 0.1469691545 -0.6534590125 0.7425573468
0.0047303471 -0.14647934 0.78283334 0.3299407363 -0.8931763768 0.3055734038
-0.014893689 -0.097872816 0.80900002 -0.1062059924 0.3250255883 0.9397226572
-0.15574154 -0.0829335 0.75164878 0.1342471689 -0.5058895946 0.8520876765
-0.13448359 -0.16115899 0.78227276 -0.007821454667 0.6552104354 0.7554059029
0.06282606 -0.06709449 0.79576486 -0.6919962168 -0.4485996664 0.5655966997
-0.18484063 -0.13489766 0.76356894 -0.1374953091 0.4572095871 0.8786662817
-0.034890126 -0.07752911 0.73700023 0.04633947462 -0.7842365503 0.6187290549
0.024400745 -0.084317461 0.74301761 -0.2418742329 -0.7765516639 0.581776917
0.036472287 -0.15112944 0.73700005 0.7594285607 -0.2653677166 0.5940103531
-0.19503412 -0.085108899 0.75530177 0.1642776579 -0.5786824822 0.7988362908
-0.071672469 -0.17091054 0.75466675 0.25759992 0.7402257323 0.6210540533
-0.061567795 -0.11819845 0.74371433 -0.2685919106 0.695913434 0.6660051942
-0.13537775 -0.11231248 0.7474401 0.133892566 0.4304026961 0.8926512599
-0.23385522 -0.13418338 0.76265377 0.2583627701 0.3733622134 0.8909822106
0.061607599 -0.10312829 0.77649999 -0.8007460833 -0.2443470359 0.5469005704
0.01069095 -0.099069469 0.81300002 -0.02307647467 0.1415606141 0.9896605611
-0.10414186 -0.15371005 0.77466673 0.1450688392 0.7134103179 0.6855660081
-0.15430984 -0.14144498 0.76863635 0.07212456316 0.5485762358 0.8329838514
0.004923997 -0.054860957 0.79527265 0.2007586211 -0.8314313293 0.5180906057
0.013550637 -0.16063954 0.76349998 0.4669651389 -0.7439837456 0.4779453576
-0.047706645 -0.07287845 0.8011539 -0.3932821155 0.5342453718 0.7482720613
0.03064739 -0.11831318 0.81300002 0.09075740725 -0.1533546448 0.9839946628
0.038617406 -0.12632343 0.73754543 0.253341496 0.3651663065 0.8958078027
-0.19078019 -0.15932541 0.78000003 -0.08737447858 0.5108906031 0.8551938534
-0.071489163 -0.1352431 0.76314276 -0.1827338338 -0.3731558919 0.9095949531
-0.094417639 -0.11434508 0.73672736 0.5799959302 0.3233118951 0.7477126122
-0.15459479 -0.06254366 0.78358346 -0.03782775998 -0.874314189 0.4838840365
-0.076857254 -0.11491802 0.72143489 -0.06923118234 -0.4446899295 0.8930050135
-0.015056942 -0.13493915 0.81443489 0.07654070854 -0.4454178214 0.8920451403
0.045068033 -0.092931315 0.74390018 -0.419357121 -0.7860532999 0.4541583359
-0.11328929 -0.11878073 0.75133342 0.08307164162 0.5600625277 0.8242748976
0.014369781 -0.14251408 0.80261284 0.2686701715 -0.8894371986 0.3697537482
-0.0054800436 -0.070521705 0.78100008 0.2351711094 -0.8690018654 0.4353507459
-0.21501648 -0.095233552 0.7531476 0.2239775658 -0.460460633 0.8589587212
-0.13480116 -0.085911669 0.74597913 0.09950223565 -0.4519590437 0.8864718676
-0.18531634 -0.10511346 0.75155586 0.06575205922 0.186654821 0.9802227616
-0.028498679 -0.14995734 0.77400005 -0.1239699721 -0.9514786601 0.2816377282
0.035481416 -0.063240007 0.78089666 -0.2660461068 -0.7297096848 0.6298756003
-0.055340879 -0.084773041 0.73328841 0.236443609 -0.6395298243 0.7315025926
-0.042758539 -0.11078349 0.73900002 -0.232450366 0.6431629658 0.7295945883
-0.11502147 -0.077340186 0.7540499 0.1285335124 -0.7948566675 0.5930278301
0.057249177 -0.08254949 0.78358334 -0.7335201502 -0.3591089249 0.5770519972
-0.20503697 -0.13441056 0.75763839 -0.1340407133 0.449929297 0.8829477429
-0.19551179 -0.07244207 0.77363652 0.252119571 -0.8179671764 0.5170739293
-0.052565813 -0.1403973 0.75900006 0.3231295049 0.7943258882 0.5144255757
-0.086533166 -0.14469703 0.75240618 0.2476049513 -0.4201924205 0.8730006218
-0.22722898 -0.11499158 0.75109094 0.3408161104 0.03939536214 0.9393042326
-0.17514813 -0.0845626 0.75280356 0.09442555159 -0.4639242291 0.8808280826
-0.084968209 -0.084857047 0.74657381 0.1843618155 -0.5439206958 0.818633616
-0.080162399 -0.13507679 0.72000003 -0.3645607829 0.5055289865 0.782007575
-0.11541745 -0.075100921 0.778 0.0005852174945 -0.9464060664 0.3229786754
0.052635863 -0.10520861 0.73218179 -0.2799531519 -0.3047945201 0.9103441834
-0.033304863 -0.13440925 0.81729627 -0.02170385234 -0.2246087641 0.9742072821
-0.10373132 -0.14131489 0.75750005 0.09894713014 0.5225608349 0.8468409777
-0.14262833 -0.13186589 0.7586363 0.1141359881 0.5183963776 0.847489357
-0.17385361 -0.14660904 0.77181089 -0.05012634769 0.4856386781 0.8727212548
0.051197331 -0.054002665 0.80000001 -0.465143621 -0.642709434 0.6087412834
-0.10274808 -0.17091419 0.79114288 0.08252431452 0.6876143217 0.7213711143
-0.056967072 -0.1450728 0.73703456 -0.4313144386 -0.2125833333 0.8767988086
-0.059964001 -0.1110912 0.72000003 -0.2726098597 0.3995921612 0.8752199411
0.019048214 -0.13946013 0.77600002 0.4402813315 -0.8709947467 0.2179919183
-0.014909004 -0.11465055 0.81340009 -0.06180968136 0.1974125057 0.9783700109
-0.15683129 -0.069329783 0.76780003 -0.008554686792 -0.8400253654 0.5424796939
-0.011594794 -0.14936821 0.77800006 0.0225228928 -0.9444678426 0.3278310299
-0.0053551649 -0.14438781 0.80395752 0.1813842058 -0.8198352456 0.5431113243
-0.13146055 -0.15033694 0.76900005 0.1004101261 0.6060883403 0.7890340686
-0.2245267 -0.086881287 0.7651332 0.3925839961 -0.6784289479 0.6209766865
0.031996928 -0.078991875 0.7572 -0.4085744917 -0.8015398383 0.436578542
-0.015271403 -0.083490886 0.73685014 -0.1634926498 -0.6327283978 0.7569180727
0.014970503 -0.074649632 0.75166667 -0.2150555849 -0.8593459725 0.4639779627
-0.052259561 -0.16611868 0.76099998 0.2506207228 -0.9393700361 0.2340366393
-0.11475041 -0.16238995 0.78289998 0.05679517984 0.7004694939 0.7114188671
-0.093881622 -0.095423408 0.73853862 0.1264009625 -0.3464716971 0.9295053482
0.024274992 -0.15248778 0.75505263 0.7015260458 -0.5523779988 0.4502663314
-0.15441561 -0.10410573 0.74828273 0.117014274 0.1361202747 0.9837575555
-0.080549009 -0.16044314 0.74700004 0.591628015 0.4501177371 0.6688574553
-0.16480456 -0.12828885 0.76109099 0.05745906383 0.5022488236 0.8628120422
-0.06741178 -0.081355914 0.7424286 0.3054878414 -0.6477845311 0.6978913546
-0.028345611 -0.15849589 0.75900006 -0.3350865245 -0.7549356818 0.5637279153
-0.134534 -0.063329168 0.78450012 -0.1522756517 -0.9076892734 0.3910400271
0.0053313207 -0.084437244 0.74219388 -0.2153714895 -0.7739502788 0.5954965353
-0.011607768 -0.058874827 0.79760003 0.2952258587 -0.8069740534 0.5115022659
-0.14509115 -0.15307598 0.77573919 0.04346029833 0.5690886974 0.8211268187
0.03444127 -0.093237817 0.73355305 -0.1963804215 -0.667948246 0.7178300023
0.015184744 -0.11517177 0.81465226 0.06777731329 0.01154671237 0.997633636
-0.028944187 -0.087412901 0.72781831 -0.1966317743 -0.3551454544 0.9138969779
0.047726173 -0.071331739 0.78050005 -0.5331607461 -0.5774664283 0.6182816029
-0.07528989 -0.073903456 0.75269997 0.1382336617 -0.6499518752 0.7472978234
-0.026013155 -0.069939762 0.74560004 -7.999284571e-05 -0.8106484413 0.5855332017
0.024398098 -0.13129088 0.81158817 0.1317682713 -0.3651432991 0.9215788245
-0.19479938 -0.14497522 0.76622736 -0.1535446346 0.5212221146 0.8394948244
-0.23089033 -0.098477721 0.75900006 0.3910268545 -0.4410706162 0.807808578
-0.10458475 -0.085651852 0.74684185 0.006584260147 -0.4384292066 0.8987416029
-0.065056697 -0.15458721 0.74364156 0.01995268837 0.6264083385 0.7792396545
-0.21476059 -0.12487455 0.75234586 0.03074339405 0.3200161755 0.9469131231
-0.22201847 -0.14084089 0.75900006 0.0242387075 0.4717311263 0.8814092278
-0.18457133 -0.074525528 0.7650907 0.1668628752 -0.7502535582 0.6397471428
-0.20611729 -0.081977524 0.76323807 0.2669490874 -0.773013711 0.5754894018
-0.051873244 -0.13066804 0.74900001 -0.1249932423 0.4861113727 0.8649117947
-0.19488797 -0.12505056 0.75685012 -0.154745996 0.3763414621 0.9134663343
0.062700607 -0.094629571 0.7874347 -0.8116696477 -0.2394527793 0.53278023
-0.16459489 -0.095083207 0.74800014 0.07753186673 -0.08563440293 0.9933053851
-0.14498219 -0.094838157 0.74535066 0.1311050802 -0.1078041345 0.9854896069
-0.1249098 -0.1050326 0.74289644 0.12581788 0.155958578 0.9797177315
-0.12470342 -0.12577014 0.75324339 0.1346770078 0.5093746185 0.8499409556
-0.11843708 -0.14889337 0.77200007 0.05480107293 0.690107882 0.7216286659
-0.065706201 -0.12678361 0.75307411 0.0299301967 -0.9858614206 -0.1648678929
-0.10677613 -0.10529898 0.74132413 0.2020496279 0.006258531939 0.9793552756
-0.064753354 -0.14605893 0.77285725 -0.5572003126 -0.05887425318 0.8282883763
-0.035858199 -0.072461046 0.79503715 -0.2560572028 0.6102708578 0.749669373
-0.049238861 -0.069865949 0.75900006 0.1508186013 -0.7980273962 0.583443284
0.038526867 -0.071421154 0.77100009 -0.413830936 -0.6930465698 0.5902799368
0.016902374 -0.14757617 0.76581836 0.5576351285 -0.6604037881 0.5029014945
-0.045642689 -0.074265555 0.74372727 0.123430185 -0.782712698 0.6100211143
-0.054257255 -0.095588952 0.72509611 0.08540981263 -0.4574487209 0.885124743
-0.031664733 -0.10642523 0.80900002 -0.0874857381 0.220098123 0.9715467095
0.045719463 -0.11603755 0.73062158 0.05404739454 0.1459096521 0.9878204465
-0.038999394 -0.14079443 0.75400001 -0.8514105678 -0.2537347972 0.4590411186
-0.0047091194 -0.10523929 0.81161928 -0.0803077966 0.2000965029 0.9764794111
-0.14481109 -0.077401072 0.75502771 0.02057450451 -0.7853361964 0.6187275052
0.025469473 -0.056870509 0.78515816 -0.0867362693 -0.8065254092 0.5848021507
-0.024955286 -0.12518333 0.81534064 -0.03146997094 -0.0022090415 0.9995022416
0.025273716 -0.10144924 0.7308889 -0.06695349514 -0.5166884661 0.8535515666
-0.086293884 -0.12704918 0.71253848 -0.3329708576 -0.1997718662 0.9215322137
0.062366262 -0.1183948 0.73177779 0.07261642814 0.1394708157 0.9875599742
-0.0046495777 -0.15838525 0.76880002 0.05787453055 -0.806135416 0.5888940096
0.0040845196 -0.062620714 0.78181493 0.2311476171 -0.7992764711 0.5547322631
0.04221613 -0.086037941 0.75414288 -0.4581047297 -0.7725707889 0.4396298528
-0.047725439 -0.15311012 0.73900008 -0.539724648 -0.027567029 0.8413901329
-0.041462876 -0.15509011 0.77535295 -0.1720278859 -0.8833947778 0.4359128773
0.048133384 -0.060599584 0.79000002 -0.4040211141 -0.68088305 0.6108725071
-0.21865557 -0.10637296 0.74899983 0.1800390929 -0.1674732119 0.9692980051
0.0040637883 -0.071154647 0.77300012 0.06805376709 -0.9437654614 0.3235359192
0.066329643 -0.084355853 0.79294127 -0.808749795 -0.267801404 0.5236469507
-0.044742338 -0.088453807 0.72750008 0.07723453641 -0.4953398108 0.8652591109
-0.15343745 -0.16279459 0.78152186 0.00449746009 0.5408514738 0.8411060572
-0.032252438 -0.14539154 0.81242859 -0.1748501658 -0.4472748041 0.8771389127
-0.20639345 -0.071169391 0.78060007 0.2688539028 -0.8195515275 0.5060167313
-0.095920041 -0.15894625 0.78150004 0.06345254183 0.6557029486 0.7523479462
0.025053162 -0.072807997 0.76462495 -0.2122763395 -0.866473496 0.4518433511
-0.17420898 -0.10250697 0.74851513 0.07869752496 0.08682729304 0.9931101203
-0.084438778 -0.13230793 0.75839996 0.1375916004 -0.4516139328 0.8815403581
-0.17413229 -0.1216039 0.75844437 0.005357905291 0.4390118122 0.8984653354
0.0037104916 -0.1458012 0.79450011 0.2604012787 -0.9299824834 0.2594681382
-0.087386586 -0.10516725 0.73483872 0.4148521721 -0.567540586 0.7111929655
-0.012577537 -0.15022121 0.79700005 0.1954648644 -0.9408189654 0.2768630683
-0.16511311 -0.078453802 0.7566818 0.09510039538 -0.6591701508 0.7459561825
-0.12533802 -0.074934945 0.76662505 -0.08893173188 -0.9173375964 0.3880500495
-0.17664833 -0.16388406 0.78000003 -0.07391051203 0.4947629571 0.8658792377
-0.12499806 -0.081018604 0.75000006 0.05835251883 -0.6476162076 0.7597290277
-0.098352067 -0.14808887 0.76666665 0.02540226094 0.6897428632 0.7236086726
0.067162804 -0.10322613 0.79328573 -0.814635694 -0.2425536662 0.5268172622
-0.13202968 -0.1285595 0.76140004 0.1308411062 0.5122563839 0.8488073945
-0.18548623 -0.093968175 0.75004554 0.1306605786 -0.2338292152 0.9634581804
-0.15485893 -0.12470933 0.75726664 0.09080222994 0.4921185672 0.8657795787
-0.071245529 -0.10357095 0.7277779 0.3572141528 -0.5636870265 0.7447516322
-0.074953265 -0.12567052 0.72362506 -0.6950371861 0.1393191069 0.7053463459
0.0036903438 -0.15259369 0.77337039 0.3191881478 -0.7980661392 0.5110864639
-0.014651875 -0.069117427 0.74850005 -0.122435458 -0.9052860737 0.4067759514
0.022117069 -0.10658846 0.81380004 0.05834827945 -0.0151544027 0.9981812835
0.036301997 -0.13608715 0.74215996 0.7013788223 0.05433970317 0.7107143998
-0.16544847 -0.062725417 0.78200006 0.02390206419 -0.8756216168 0.4824058712
-0.14502005 -0.068572685 0.77512503 -0.1076935977 -0.8764385581 0.4693160951
-0.23389247 -0.12474874 0.75711119 0.3818251193 0.1822403818 0.9060894251
-0.015528787 -0.071208805 0.78522229 0.403532505 0.1796476096 0.8971556425
0.015727576 -0.090734288 0.74140012 -0.185327515 -0.7445496321 0.6413264275
-0.14517972 -0.11556378 0.75075006 0.1212717369 0.420330137 0.899230659
0.034751944 -0.12978786 0.80900002 0.1492331475 -0.613982141 0.7750841379
0.0058093192 -0.13915329 0.80820006 0.1158562154 -0.619843781 0.7761256099
-0.14546221 -0.073433027 0.76500005 -0.04180490598 -0.8564516902 0.5145317316
0.034821346 -0.085846752 0.74472231 -0.2455299497 -0.806198597 0.5382925868
-0.16489872 -0.14089875 0.76900005 -0.0008345658425 0.4956922233 0.8684978485
-0.18420456 -0.14875557 0.77128571 -0.108087562 0.5195339918 0.8475857377
-0.12396199 -0.1607925 0.778 0.03017116338 0.7198733091 0.6934494376
-0.2047323 -0.09479139 0.7509107 0.1192357913 -0.3819453418 0.9164609313
0.044884969 -0.1346028 0.73596621 0.3795590699 0.2723090947 0.8841847181
0.01530788 -0.058121048 0.78284615 0.1172661483 -0.8236003518 0.5549154282
-0.034238577 -0.1630244 0.75162071 -0.6298007369 -0.552264452 0.5462188125
0.031366035 -0.14065132 0.75325 0.8200677633 -0.3310470879 0.4667940438
-0.12635309 -0.069137432 0.77700007 -0.1296123415 -0.9297488332 0.3446269631
0.051192071 -0.092279978 0.76833338 -0.7636753917 -0.4635252655 0.4493820071
-0.10472853 -0.076371104 0.75370461 0.1269755512 -0.7654228806 0.6308763623
0.0014184467 -0.097163595 0.80900002 -0.05981253088 0.2083466947 0.9762244225
-0.036632217 -0.093924686 0.7229501 -0.2844878137 -0.1424304992 0.9480401874
-0.024893187 -0.11570589 0.81132454 -0.04063711688 0.1456734687 0.9884977937
0.004968219 -0.11504942 0.81465977 -0.03047433123 0.04138762131 0.9986783266
-0.11649443 -0.068537578 0.78575003 -0.02691312879 -0.959603548 0.2800656259
-0.086359851 -0.0712239 0.76166672 0.199247092 -0.7701042295 0.6060034037
-0.22360259 -0.080004603 0.78000003 0.3848117292 -0.7360699177 0.5568850636
-0.15550816 -0.15415016 0.77658069 0.002834206447 0.5352235436 0.8447057009
-0.18505837 -0.11449876 0.75540733 -0.04338516295 0.3347773552 0.9412979484
0.014583296 -0.13319719 0.81330317 0.124790974 -0.4756466746 0.8707395792
-0.20471771 -0.12479577 0.75360036 -0.1359057575 0.3299611509 0.9341601729
-0.17502953 -0.13509327 0.76588255 -0.0744067654 0.4750588238 0.8768025637
-0.0049993312 -0.13494788 0.81504244 0.06861688197 -0.5185095072 0.8523142934
0.0044280426 -0.16299105 0.7670691 0.2688704729 -0.7799426913 0.5651531219
-0.18514574 -0.084422618 0.75330538 0.1341642141 -0.5045559406 0.8528911471
-0.063913532 -0.096782304 0.72779322 0.2596020997 -0.5880728364 0.7660137415
-0.024946641 -0.077886291 0.73775017 -0.0838297233 -0.6854466796 0.7232810259
-0.14446236 -0.14254166 0.76746452 0.08166433126 0.5580694675 0.8257659078
-0.22467838 -0.1246316 0.75306815 0.2639835477 0.2635213733 0.9278303385
0.054008886 -0.08505737 0.77456677 -0.7362113595 -0.3782350421 0.5611872077
-0.045095772 -0.12463051 0.74508351 -0.1819440871 0.3950333595 0.9004693031
0.024958219 -0.066463597 0.77581829 -0.1076555252 -0.806176424 0.5817987919
-0.12521994 -0.095218703 0.74393725 0.09902215004 -0.1962148845 0.9755482078
-0.0050893538 -0.11500579 0.81434762 -0.08981247246 0.1453796327 0.9852910638
0.0044752373 -0.075635947 0.74704152 -0.2110963464 -0.8457285762 0.490083158
-0.11530145 -0.13381574 0.75663412 0.1558601707 0.5373876095 0.8288077116
-0.005011973 -0.12539811 0.81736749 -0.0132458983 -0.07021355629 0.9974440336
-0.094820611 -0.085004158 0.74592876 0.08854851127 -0.4829592109 0.8711541295
-0.19528022 -0.11507849 0.75372869 -0.1195754856 0.2867420912 0.9505159855
-0.064712904 -0.16812012 0.76100004 -0.3192333877 -0.8356601596 0.4469475448
0.055355635 -0.1248712 0.73423463 0.1686471701 0.2495444268 0.9535647631
-0.205081 -0.1045767 0.7504074 0.01704664901 -0.1210130081 0.9925045371
-0.10802703 -0.12676185 0.75345463 -0.01072291657 0.5284203291 0.8489151597
-0.13504681 -0.07811299 0.75513321 0.02224762738 -0.8038551807 0.5944088101
0.044903118 -0.096384548 0.73474193 -0.3687545061 -0.5975800157 0.7119818926
-0.0044095749 -0.083635695 0.7418043 -0.1835447103 -0.6210950017 0.7619398236
-0.11438211 -0.14428639 0.76438439 0.1348895282 0.6347219348 0.7608763576
-0.10603743 -0.15813775 0.78410518 0.08640924096 0.6894069314 0.719201982
-0.074187763 -0.12633936 0.7578333 0.0191418007 0.6701667905 0.741963625
-0.055232964 -0.075237036 0.74506003 0.2172670513 -0.7438476682 0.6320487857
-0.014866686 -0.12530501 0.81576598 -0.02407277003 -0.03824438527 0.998978436
-0.015146494 -0.14531988 0.80500007 0.1634525657 -0.8041545749 0.5715056062
-0.067442842 -0.13770647 0.7326923 -0.6338123679 0.09903935343 0.7671200037
-0.21503247 -0.13448396 0.75692463 -0.006213349756 0.4664923847 0.8845033646
-0.15481918 -0.11535489 0.75136 0.1197321489 0.4056452811 0.906154573
0.03238282 -0.14475517 0.74457687 0.8288527727 -0.3199524879 0.4589482248
-0.19460458 -0.077262931 0.76535988 0.2244927138 -0.7586183548 0.6116381288
-0.14489457 -0.10436705 0.7469815 0.1393581182 0.1726345867 0.9750777483
0.01442478 -0.053496592 0.79509097 0.1199390665 -0.840724647 0.5280119777
-0.10531571 -0.095179655 0.74340343 0.0427701287 -0.3289606869 0.9433745742
-0.19478454 -0.10493562 0.75030005 0.01589898579 0.03911720216 0.9991081357
-0.13496938 -0.095194459 0.7437498 0.1730020791 -0.1274448186 0.9766412377
0.015678346 -0.071978725 0.76613045 -0.1496948749 -0.9084511399 0.3902665675
-0.12440662 -0.1142837 0.74509084 0.1473422348 0.4298398495 0.890801847
-0.026306136 -0.098825753 0.81100005 -0.08696322143 0.3162098527 0.9446950555
-0.15510346 -0.094893798 0.74651009 0.1091935411 -0.08048912138 0.9907563925
-0.17526226 -0.073516712 0.76420933 0.1065122262 -0.76630193 0.6335901618
-0.14522815 -0.063229196 0.78407162 -0.12755844 -0.8862928152 0.4452122152
-0.097484797 -0.10614628 0.74100012 0.2506884336 -0.03978298232 0.9672500491
-0.19476606 -0.094748609 0.75056255 0.1320390701 -0.3173147738 0.9390830994
-0.19475485 -0.15428865 0.77329284 -0.110580951 0.5416226387 0.8333167434
-0.11531394 -0.086415507 0.7470209 0.09013649821 -0.4245157242 0.9009227753
-0.16461499 -0.066782556 0.77373087 0.02373148873 -0.8534285426 0.5206693411
0.043483112 -0.14371298 0.73579496 0.5196408629 0.1838077754 0.8343788385
-0.096835881 -0.13739367 0.75281811 0.1491181701 0.1820794195 0.9719109535
-0.16565533 -0.10617311 0.75012916 0.1026562527 0.200638324 0.9742720127
-0.084817499 -0.093364999 0.75000006 0.2228843421 -0.4732009768 0.8522930145
0.023426624 -0.14117144 0.80238473 0.339886874 -0.8558664918 0.3898325861
0.025415365 -0.094460011 0.736691 -0.163849026 -0.7269821167 0.6668211818
-0.052905358 -0.10583261 0.71807992 -0.3045909405 0.3660022914 0.8793558478
-0.18624766 -0.12348818 0.75882882 -0.09758721292 0.3908843696 0.9152519703
0.041237649 -0.098402321 0.72685724 -0.2597784102 -0.4883606434 0.8330780268
-0.21481609 -0.14482827 0.763111 -0.03024469316 0.5189214349 0.8542867303
-0.17488931 -0.15486915 0.77493495 -0.0629426986 0.49401173 0.8671739101
-0.16524272 -0.073458709 0.76402444 0.04230961204 -0.7996451855 0.5989803672
-0.21459305 -0.084141463 0.76476914 0.3213312328 -0.7345291972 0.5976731181
-0.23489907 -0.11517897 0.75549048 0.3865547478 0.0255600661 0.9219121933
-0.033758737 -0.12511781 0.81493759 -0.1092387885 -0.05583900958 0.9924458861
-0.049021445 -0.14437823 0.76600003 0.2420088947 0.7270448208 0.642524302
-0.21371745 -0.11492259 0.75171441 0.06538043171 0.05760122463 0.9961965084
-0.085779272 -0.07457865 0.75363898 0.1483339816 -0.5736214519 0.805577755
0.015043477 -0.12535456 0.81708175 0.08714866638 -0.1967175156 0.9765794277
0.055170156 -0.11593423 0.73600006 0.05355602503 0.14154239 0.9884824157
-0.0062431814 -0.060675856 0.79100001 0.2840172648 -0.8106521368 0.5120325089
-0.075552531 -0.084050104 0.74376082 0.2532885671 -0.6031314135 0.7563579679
-0.20442946 -0.086665846 0.75634295 0.2352063805 -0.6324480176 0.7380294204
0.055424623 -0.064446941 0.79209548 -0.5736199617 -0.580344975 0.5780656338
-0.1838939 -0.067983598 0.77481818 0.1552790552 -0.846645236 0.5089992285
0.0049064294 -0.13473989 0.81535554 0.06803583354 -0.4605666697 0.8850138187
-0.19458888 -0.13801579 0.76145822 -0.1683129966 0.4654273987 0.8689350486
-0.0038809057 -0.14823499 0.78122234 0.1972077787 -0.9329255223 0.3012623787
-0.10914763 -0.072645858 0.78550005 0.007288811263 -0.9543746114 0.2985230386
-0.13491225 -0.104931 0.74342853 0.1593292803 0.1527238488 0.9753407836
-0.23406868 -0.10613235 0.75766665 0.445332557 -0.1967658997 0.8734770417
0.035806846 -0.053311352 0.79306269 -0.2263298184 -0.765624702 0.6021574736
-0.077876315 -0.092437223 0.74150008 0.3353905678 -0.5132071376 0.790019989
-0.054028783 -0.12389059 0.74458152 0.09553506225 0.3644185066 0.9263218641
0.056317803 -0.095789209 0.77393943 -0.7935438752 -0.282473594 0.5389775634
-0.20303296 -0.15187179 0.77099997 -0.09941393137 0.5627872944 0.8206018209
-0.2050243 -0.14497985 0.76667476 -0.1343753487 0.5365781188 0.833082974
0.036384165 -0.1122125 0.72685015 0.09003076702 0.08077991009 0.9926576018
-0.025049888 -0.13525683 0.81634706 -0.01625834592 -0.2853722274 0.9582788348
-0.11577287 -0.11413796 0.74485105 0.1751134843 0.3820565343 0.9073963165
-0.023474649 -0.072143525 0.78750008 0.3547175527 0.4421076775 0.8238423467
-0.12560835 -0.14444892 0.76541936 0.1185830161 0.5921180844 0.7970785499
-0.095796108 -0.16561656 0.78645474 0.04860925674 0.7014656067 0.7110436559
-0.11505686 -0.10484307 0.74148983 0.1841354072 0.05228887871 0.9815090299
-0.091585077 -0.13154842 0.7625556 -0.03149597347 0.4508767426 0.8920303583
0.0244946 -0.052099846 0.79243487 -0.04315202683 -0.8307621479 0.554952383
-0.1253449 -0.065573536 0.78432435 -0.1388769746 -0.9337971807 0.3297514617
-0.055307567 -0.15443444 0.74175584 -0.231998384 0.3722858727 0.8986545205
-0.22423837 -0.096355163 0.75477141 0.3339161277 -0.4818086624 0.8101607561
-0.2141638 -0.088759243 0.75799996 0.2963024676 -0.665004313 0.685546577
-0.145089 -0.086928584 0.74721962 0.1128914878 -0.3682286143 0.9228559732
-0.15522115 -0.13467562 0.76423979 0.07582363486 0.532499969 0.8430269957
-0.044764988 -0.13517524 0.75294453 0.5391942263 -0.02327222005 0.8418598175
-0.083185144 -0.14797609 0.74577785 0.4546513855 -0.2769059539 0.8465312719
-0.013956863 -0.10561358 0.81125027 -0.07666216046 0.2385907471 0.9680895209
-0.06025067 -0.079686366 0.73900002 0.2158514857 -0.7238062024 0.6553721428
-0.077682525 -0.10787624 0.71750003 0.2440524399 -0.7073856592 0.6633580923
-0.17515048 -0.11447109 0.75473475 0.04815103486 0.3578069508 0.9325532913
-0.053983763 -0.1164496 0.74140525 -0.119655624 0.713706255 0.690149188
0.029083999 -0.15110724 0.74833339 0.7710577846 -0.4633328319 0.4367980659
0.054953601 -0.074919216 0.78488576 -0.6619423032 -0.4561572373 0.5947713256
-0.16529456 -0.15433683 0.77709085 -0.03572360799 0.5077217817 0.8607801199
0.064254671 -0.074763529 0.79377788 -0.7486961484 -0.369756788 0.5502126217
0.0049858894 -0.10466743 0.8121838 -0.05161137506 0.1650740355 0.9849298596
-0.066479392 -0.16094838 0.74833339 0.1538066417 0.6509748101 0.7433540821
-0.22576299 -0.10431711 0.75191432 0.2978097796 -0.2769443393 0.9135705829
0.038612258 -0.081631348 0.76200008 -0.4570350349 -0.7697957158 0.4455709755
0.054407921 -0.13267171 0.73529637 0.295329541 0.2281600386 0.9277518392
-0.042116381 -0.14766312 0.778 -0.1601498425 -0.9785821438 -0.1293407381
-0.12859331 -0.1356689 0.76160008 0.1199195236 0.5551964045 0.8230287433
-0.064826183 -0.14465828 0.73537767 -0.3710640669 0.1560949981 0.9153938293
-0.024392333 -0.15578622 0.76523417 -0.1666964293 -0.8685394526 0.4667457044
0.0295875 -0.080872498 0.75000006 -0.2721349001 -0.8115429282 0.5170499682
-0.064669818 -0.085773796 0.73659188 0.3167800903 -0.6233905554 0.714866817
-0.069508269 -0.14876069 0.74100006 0.4094847143 -0.2208121121 0.885191679
-0.096385114 -0.15380444 0.77404356 0.1729442626 0.6791563034 0.7133281231
-0.14620543 -0.16253904 0.78437495 0.003556727897 0.5600917935 0.828422904
-0.039212674 -0.15694901 0.74728572 -0.5972232819 -0.2948027551 0.7459327579
-0.033469375 -0.15709248 0.76464278 -0.1339496225 -0.8951478601 0.4251680076
-0.18489096 -0.078504734 0.7584666 0.1387913823 -0.6758620739 0.7238420844
0.023182577 -0.1433592 0.7643199 0.6706969142 -0.5952749252 0.4425080419
-0.15467744 -0.077516988 0.75703222 0.02037149481 -0.7585769892 0.6512648463
0.051520526 -0.078073017 0.7766667 -0.6547471881 -0.4613411427 0.5987240076
-0.021825118 -0.16345012 0.76100004 -0.2088379562 -0.8541553617 0.4762407839
-0.10561062 -0.14643885 0.76476467 0.02844361402 0.690102458 0.7231525183
0.044605225 -0.064815857 0.78463995 -0.4530138671 -0.6209275126 0.6397088766
0.040922798 -0.068886712 0.77800006 -0.417363435 -0.6445944905 0.6405510902
-0.21328853 -0.073345035 0.78307694 0.2912605703 -0.7984136939 0.5269752145
-0.054459851 -0.071041122 0.75149995 0.1678255051 -0.779640317 0.6033204198
-0.1447189 -0.12531547 0.75536543 0.1168287098 0.5055423975 0.8548555374
0.042276155 -0.077645272 0.76850009 -0.5540290475 -0.6472017765 0.5236235857
0.022467652 -0.078879394 0.74825007 -0.2250598967 -0.8323905468 0.5064325929
-0.22352174 -0.082334422 0.77280003 0.3853322566 -0.7222670913 0.5743250847
-0.089998603 -0.12227396 0.708 0.3041880727 -0.7162171602 0.6280944347
-0.075158492 -0.15518726 0.7465198 0.7125967741 0.3083095253 0.6301992536
-0.17452274 -0.078201286 0.75837493 0.101840958 -0.6839764714 0.7223604321
-0.17559165 -0.091577478 0.75016671 0.1118454635 -0.2714614868 0.9559284449
0.066161454 -0.12508981 0.7280001 0.1254307926 0.1591654718 0.9792515039
0.05956687 -0.092429601 0.78100008 -0.7961540818 -0.26954934 0.541739583
-0.12827007 -0.11796397 0.75033337 0.1336772591 0.4694613218 0.8727751374
-0.16509163 -0.083939739 0.75160015 0.1054921374 -0.5156422257 0.850284934
-0.0030936315 -0.14779875 0.79685718 0.214738816 -0.9295330048 0.2997592092
-0.071874797 -0.088012069 0.73861533 0.3304353654 -0.5824794173 0.7426507473
-0.21101104 -0.078876331 0.76900005 0.285567373 -0.7879328132 0.5455393791
0.011802758 -0.14432554 0.78188896 0.3335230649 -0.8932054043 0.3015733361
0.045333918 -0.12525918 0.73451847 0.1902231127 0.3088600934 0.9318909049
-0.025930172 -0.14112581 0.8118571 -0.01285658963 -0.3491430283 0.9369812608
-0.13548614 -0.12456402 0.75619984 0.1323010623 0.5054785013 0.8526358604
-0.16499573 -0.13477211 0.76464701 0.0405607 0.5057193041 0.8617440462
-0.064609692 -0.10439064 0.72466666 0.1759654433 -0.4581938684 0.871260345
0.072609916 -0.10210028 0.801 -0.8181570768 -0.2350099683 0.5247755051
-0.13503596 -0.07444603 0.76508325 -0.07860866189 -0.8919593692 0.4452292919
-0.13482256 -0.15368472 0.77461535 0.05737264082 0.6183678508 0.7837918401
0.034692332 -0.058177415 0.78616661 -0.2253318727 -0.7583640218 0.6116449833
0.034827374 -0.075237744 0.76594126 -0.4142174721 -0.7615027428 0.4985353053
-0.18963616 -0.13174722 0.75900006 -0.1328835785 0.4470759332 0.884570539
0.043537423 -0.10534821 0.72636592 -0.2185284197 -0.362634927 0.9059476852
-0.063824564 -0.13303553 0.75637496 0.2015534043 0.8175999522 0.5393574834
0.038744722 -0.11815538 0.73049998 0.08830149472 0.1885620207 0.9780834317
-0.22467715 -0.13431442 0.7571395 0.1184903607 0.396513015 0.9103502035
-0.0248504 -0.08290755 0.73247051 -0.1466270089 -0.4651601613 0.8729985952
-0.04644075 -0.1547683 0.78065729 -0.1306535006 -0.9735207558 0.1875820011
-0.057676937 -0.09178181 0.73027271 0.2691207826 -0.5553232431 0.7868863344
0.024164971 -0.11559878 0.81477791 0.1116794869 -0.1106768101 0.9875618219
0.026287168 -0.14547655 0.75510252 0.7471349239 -0.4763886034 0.463511914
0.025344025 -0.077301845 0.75469238 -0.2631323636 -0.8381234407 0.4778184593
-0.10537767 -0.13471125 0.75513333 -0.02165227383 0.4257856309 0.9045649767
0.020977952 -0.15485138 0.7610001 0.5843003988 -0.664193213 0.4663051367
0.060177028 -0.078852661 0.78900003 -0.7499555349 -0.352992177 0.5594311953
-0.087884918 -0.11314972 0.73400015 0.4238381684 -0.4930862784 0.7597546577
-0.20484164 -0.074803799 0.77461296 0.2683804929 -0.8137657642 0.5155164599
-0.015148612 -0.063164517 0.79307157 0.4026068747 -0.6682181954 0.625613451
0.025002727 -0.12503861 0.81504077 0.1373025924 -0.20524849 0.9690309763
0.014937608 -0.10483661 0.81323802 0.02796171978 0.1318895519 0.9908699393
0.045426585 -0.07432355 0.77400005 -0.5266560912 -0.6065775156 0.5955644846
-0.15515608 -0.067208275 0.77442318 -0.04428180307 -0.8620963693 0.5048059225
-0.074888818 -0.16495614 0.75236374 0.3846467137 0.6980658174 0.603946209
-0.18427058 -0.16208616 0.78100002 -0.07110457122 0.4899302423 0.8688570261
-0.14583606 -0.13608055 0.76341939 0.1055691168 0.5386947989 0.8358606696
0.034059703 -0.067887612 0.77529639 -0.290630579 -0.7292493582 0.6194588542
-0.035041902 -0.082519636 0.73191679 -0.009792229161 -0.595143199 0.8035600185
0.058299214 -0.071483105 0.79166669 -0.6765846014 -0.4369191527 0.5927351117
0.010138649 -0.15072793 0.77100003 0.3979009986 -0.7342273593 0.5500771999
-0.024392264 -0.14589655 0.80432659 -0.037631616 -0.8896660209 0.4550585449
0.032766577 -0.13516603 0.80332351 0.2953384817 -0.8221411109 0.486681819
-0.0048455507 -0.15318833 0.77363425 0.1112547219 -0.905067265 0.4104578495
-0.015477929 -0.15748453 0.7677002 -0.04982563481 -0.8229928017 0.5658624172
-0.04488701 -0.083318785 0.73234785 0.1449558437 -0.6687884927 0.7291843295
-0.028864875 -0.071513951 0.792 0.2366152555 0.4749909937 0.8475828767
-0.12481453 -0.15466851 0.77462512 0.05244851485 0.6797105074 0.7316029072
0.014960441 -0.14506435 0.77480024 0.4888723493 -0.7805820107 0.3894811571
-0.038100172 -0.12396276 0.74505568 0.1899728775 0.261978358 0.9461911321
-0.083392918 -0.12586771 0.7610001 -0.05925565958 0.5600413084 0.8263428211
-0.0032874998 -0.069037497 0.75000006 -0.204456389 -0.891403079 0.4044726491
-0.0055286693 -0.097760774 0.80846673 -0.07451638579 0.2308675051 0.9701275826
-0.19880871 -0.080724344 0.76100004 0.2015191615 -0.7296642065 0.6534371972
0.051393785 -0.067579441 0.78736365 -0.5494781733 -0.5429702401 0.6350252032
-0.064530484 -0.076531902 0.74652505 0.2665359378 -0.7131686807 0.6483432651
-0.12264805 -0.1215239 0.74814284 0.1377138495 0.4996579289 0.8552057147
0.041501399 -0.058793649 0.78900003 -0.3682502806 -0.7020101547 0.6095682383
-0.051685385 -0.089241043 0.72785723 0.1735715121 -0.5824953318 0.794085741
0.061347179 -0.085684516 0.78822219 -0.803111434 -0.2747949362 0.5286773443
0.067454331 -0.094920278 0.79245454 -0.814635694 -0.2425536662 0.5268172622
-0.064720578 -0.14238261 0.76700002 -0.01747493446 0.773435235 0.6336343884
-0.095408171 -0.17208885 0.78416663 0.3904288113 0.7609784007 0.5181478858
-0.18494239 -0.15448277 0.77500021 -0.09343223274 0.5297885537 0.842967689
-0.035135105 -0.072995946 0.74213338 0.04490018636 -0.7924333811 0.6083036065
-0.11485953 -0.12523085 0.7530002 0.09467250109 0.528888762 0.8433942199
-0.045730777 -0.1412548 0.75592315 0.8547898531 0.1285920292 0.5027905703
-0.057853281 -0.12833142 0.7513333 0.1907492876 0.6664372087 0.7207469344
-0.13461724 -0.14476998 0.76662523 0.108962886 0.5995451212 0.7928888798
-0.038590286 -0.1157712 0.74106681 -0.1262060553 0.6760653257 0.7259529829
-0.19163233 -0.07918141 0.75900006 0.157667011 -0.6890087128 0.7073952556
0.015413516 -0.13769181 0.80726087 0.1844855696 -0.6452521682 0.7413600087
-0.035649829 -0.14735295 0.77600008 -0.2603182793 -0.954734683 -0.1439309269
0.070861258 -0.086013563 0.79766673 -0.8029575348 -0.2761258185 0.5282175541
-0.045077048 -0.095101535 0.72284752 -0.292334497 -0.162654072 0.9423822165
-0.055038825 -0.13519831 0.7554878 0.3580023646 0.6270820498 0.6918109655
-0.014573526 -0.074485302 0.74442589 -0.1572058052 -0.7786828279 0.6074038148
-0.11258417 -0.15033694 0.76900005 0.01023716759 0.7149288058 0.6991223097
-0.092583887 -0.079451419 0.74900001 0.1024771258 -0.4922498763 0.8644006848
-0.074097604 -0.13681825 0.73227262 -0.8374841213 0.04934171587 0.5442295074
-0.031934019 -0.15199113 0.80300003 -0.1334571242 -0.8932279348 0.4293402135
-0.18530372 -0.14348249 0.76732373 -0.1313114017 0.5091784 0.8505849242
-0.024814172 -0.10492841 0.80871379 -0.0581721589 0.2129775286 0.9753238559
-0.15543927 -0.14669023 0.77262187 0.03835204616 0.5335531831 0.8448964953
-0.083688341 -0.078531913 0.74828571 0.1784192771 -0.5934762359 0.7848263979
-0.10531045 -0.11180832 0.74150008 0.1751650125 0.3169579804 0.9321238399
-0.015158579 -0.14090778 0.81146157 0.1169091314 -0.5463874936 0.8293328285
-0.14793751 -0.10947375 0.75000006 0.1668045074 0.2987214029 0.9396498203
-0.055679772 -0.14439592 0.7658335 0.4207395315 0.7807829976 0.4619048834
0.033133939 -0.088925801 0.73845458 -0.2093627751 -0.7819825411 0.5870864987
-0.21799895 -0.12016207 0.74900001 0.1184216067 0.2075995505 0.9710194468
-0.065642342 -0.13782801 0.76146668 0.02405921184 0.6714137197 0.7406920791
-0.044375341 -0.077839322 0.73833346 0.1481704265 -0.7599052191 0.6329214573
-0.00070922333 -0.139717 0.80900002 0.1156779453 -0.5757029057 0.8094348311
0.050869022 -0.099161081 0.73450005 -0.3633923233 -0.4546742737 0.8131527305
-0.094043694 -0.14330314 0.75348568 0.4699175358 -0.006879247259 0.8826835155
-0.0084370393 -0.15116364 0.80200005 0.1881790608 -0.9224902987 0.3370464444
-0.051579036 -0.148241 0.74100006 -0.3947773576 -0.1151986271 0.9115262628
-0.17747085 -0.14244491 0.76838464 -0.09781435132 0.4915355742 0.865346849
0.048816931 -0.082262263 0.77185714 -0.7058275342 -0.4497046471 0.5473328233
-0.13462575 -0.11749945 0.7515555 0.1326003969 0.4747601748 0.8700689077
0.052886143 -0.05742728 0.79306668 -0.465143621 -0.642709434 0.6087412834
-0.11452627 -0.13876583 0.7610001 0.1835537106 0.5783666968 0.7948584557
-0.19233716 -0.068886712 0.77800006 0.2083546966 -0.8369076252 0.5061363578
-0.1049306 -0.16371427 0.78717643 0.08252431452 0.6876143217 0.7213711143
0.0049685487 -0.14270793 0.80287874 0.2112737894 -0.8556553125 0.4724588692
0.026077859 -0.062189415 0.78050005 -0.09637602419 -0.7918743491 0.6030312181
-0.12364356 -0.13491054 0.75596869 0.1328561008 0.5347136855 0.8345241547
0.0087640369 -0.069438137 0.76900005 -0.04161741212 -0.9348599911 0.3525687754
-0.23683588 -0.12875867 0.76099998 0.3517966568 0.2048651874 0.9133834839
0.042727217 -0.088491924 0.74772739 -0.44570297 -0.7979574203 0.4057250023
-0.017547945 -0.15137988 0.80066663 0.1330507845 -0.9357033968 0.326736331
-0.075626396 -0.13176276 0.72500014 -0.569463551 0.3869689703 0.7252352834
-0.034803201 -0.11490441 0.812442 -0.04421707243 0.05793422461 0.9973406792
0.0055128084 -0.15693709 0.76831281 0.3352976739 -0.767975688 0.5457003117
-0.0048148292 -0.065113194 0.7841112 0.2639000118 -0.7937355042 0.5480335355
0.014974265 -0.084634081 0.74266106 -0.2106368989 -0.7424966097 0.6358701587
0.03190431 -0.1507391 0.74275005 0.8040412664 -0.3588721752 0.4740552902
-0.075540617 -0.14782915 0.74240011 0.5861182809 -0.009265352972 0.8101725578
-0.14574508 -0.14809987 0.77200001 0.06471925229 0.5871337056 0.8068986535
-0.22024409 -0.089827649 0.75900006 0.3322240114 -0.6645420194 0.669336319
-0.035608962 -0.15347664 0.77387196 -0.1204841286 -0.8887458444 0.4422831237
-0.20374499 -0.1392947 0.76128578 -0.1461606771 0.4702822268 0.870328486
-0.22659166 -0.091808476 0.76194447 0.4424785674 -0.6010277867 0.6655661464
-0.067498349 -0.16633578 0.75526315 -0.2498698831 -0.9563524127 0.1515093297
-0.074608088 -0.0774085 0.74765515 0.2188630104 -0.6166071892 0.7562370896
-0.1545452 -0.087799959 0.74803698 0.103846848 -0.3414173424 0.9341573715
-0.07060235 -0.1405323 0.76700002 -0.3265255392 -0.5997785926 0.7305113077
-0.063012727 -0.12238698 0.74800009 0.4767312706 -0.6444831491 0.5978032351
