# .PCD v0.7 - Point Cloud Data file format
VERSION 0.7
FIELDS x y z normal_x normal_y normal_z
SIZE 4 4 4 4 4 4
TYPE F F F F F F
COUNT 1 1 1 1 1 1
WIDTH 512
HEIGHT 1
VIEWPOINT 0 0 0 1 0 0 0
POINTS 512
DATA ascii
-0.14483485 0.0067117023 0.80879998 0.2207776606 0.2337056547 0.9469102025
0.10239537 -0.12365419 0.89160001 0.3718524873 0.1981502771 0.9068970084
-0.052716248 -0.12714103 0.8422001 0.5763174891 0.5333886743 0.6191564202
-0.029797023 -0.0094478363 0.82900006 -0.5111358166 -0.7190141082 0.4709128141
0.045382757 -0.074845769 0.82385719 -0.5065814257 -0.0683920756 0.859475255
0.03352724 -0.16098903 0.84366673 0.417780757 -0.2982183099 0.8582103848
0.007606836 -0.098894715 0.89766675 -0.1954756081 0.0921850875 0.9763663411
-0.11559332 -0.062958471 0.84862542 0.2237683982 0.554631114 0.801443696
-0.023382861 -0.075843409 0.79707706 0.4998947084 -0.05318998545 0.8644513488
-0.084879942 0.036019601 0.84452957 -0.4735321999 -0.7747511268 0.4189604819
0.086845562 -0.12563422 0.82125002 0.2817915678 0.003455252619 0.9594694376
0.072580993 -0.067779489 0.88260001 0.3564604223 0.3060372174 0.8827667832
0.046800192 -0.14198034 0.90100002 -0.04618825391 -0.3250310719 0.9445747733
-0.089488089 -0.018953241 0.82100004 0.2407337427 0.2515313327 0.9374322891
-0.064918347 -0.074848019 0.83519512 0.3623559177 0.4590598941 0.8111487031
0.01095395 -0.038703956 0.83300006 -0.266105175 -0.5701162219 0.7772744298
-0.0075099259 -0.10525452 0.83372724 -0.9071298838 0.2579984963 0.3324938416
-0.15636285 -0.026598943 0.84266669 0.3936441839 0.5722777843 0.719404161
-0.12640785 0.04399322 0.82469243 -0.1654782891 -0.7838971019 0.5984331369
-0.0048823957 -0.14482746 0.84540915 -0.6263945699 -0.4246456921 0.6536864042
-0.045041047 -0.045036033 0.81536734 0.2126896679 0.100564152 0.9719310403
-0.084440529 -0.10027313 0.86000001 0.4324785769 0.4076415598 0.804232955
-0.048390251 0.011784154 0.85800004 -0.659175694 -0.7012495399 0.2715446949
0.061142821 -0.10522863 0.89800006 0.05775269866 0.1617025286 0.9851481915
0.07561776 -0.091846615 0.84150004 -0.7307118177 -0.5462262034 0.4095085263
-0.10469132 0.015024022 0.81283325 -0.2512510121 -0.04223341867 0.9670001268
-0.011690351 -0.13015257 0.88900012 -0.6722185612 -0.5838319659 0.4552608132
0.014125099 -0.073215939 0.80396008 -0.204961732 0.1662631184 0.9645451307
0.076755673 -0.16075525 0.82600003 0.1689801067 0.1105850041 0.9793961048
-0.063849278 0.0064967568 0.82299989 -0.4268630743 -0.5381816626 0.7267382145
-0.12198496 -0.028735675 0.83099997 0.02776722237 0.4671078622 0.8837642074
-0.042820081 -0.095447429 0.81860012 0.6008360982 0.03978987038 0.7983813286
0.092210099 -0.095520109 0.87707704 -0.727894783 -0.3143399358 0.6093928218
-0.0041501401 -0.050493371 0.78900003 -0.155310452 -0.6958553791 0.701187551
0.017925203 -0.14106356 0.88900012 -0.3083953261 -0.4030314684 0.8616600037
-0.082856745 -0.047410484 0.83199996 0.2825991809 0.3719148338 0.8842042089
-0.15532061 0.032964248 0.82099998 0.4232159853 -0.3365520537 0.8412020802
0.034733735 -0.086241692 0.89196801 0.03329594061 0.2938764691 0.9552633166
-0.013707241 -0.076571256 0.82681811 0.0649952814 0.4536016881 0.8888313174
0.044772703 -0.057631183 0.88786954 0.2672569454 0.2717429698 0.9245157838
-0.014768035 -0.044886749 0.81624448 -0.2536679506 -0.6259215474 0.7374786735
0.034009058 -0.11399332 0.89800006 -0.03476268798 0.0963094309 0.9947442412
-0.025497852 -0.13315544 0.83099997 0.2518145144 0.9167634249 0.3100553155
-0.16275911 -0.0038705808 0.82677782 0.5590022206 0.3964705169 0.7282360196
0.072231524 -0.13540567 0.8968696 0.243516311 -0.1362698227 0.9602761865
0.055169385 -0.14746866 0.83375847 0.3655834496 -0.1362490505 0.9207523465
-0.057768166 -0.10216104 0.84749997 0.6942014098 0.1734013408 0.6985816956
-0.065137692 -0.025033399 0.81570834 0.1048084721 0.09533620626 0.9899122119
-0.019196371 -0.10166966 0.81100005 -0.5699370503 0.3446348011 0.7459213138
-0.03689013 -0.067801043 0.83160001 0.2259609699 0.3187371492 0.9205152392
-0.13573961 -0.046956431 0.84173679 0.2180596888 0.5477114916 0.8077512383
0.024978723 -0.055976603 0.81781089 -0.3569005132 -0.5962747931 0.7190816402
-0.093112737 -0.072763659 0.84800005 0.3480939865 0.5651890635 0.7479250431
-0.12666655 0.024674952 0.80794436 -0.1423816979 -0.1890968382 0.9715811014
-0.02014317 -0.1171288 0.85100001 -0.6549836993 -0.2516767979 0.7124992609
-0.11420547 -0.007567022 0.82191658 -0.08561953902 0.4295583367 0.8989710212
-0.11209197 0.048916124 0.84357136 -0.3275958002 -0.8214345574 0.4668256938
0.068525597 -0.11349455 0.83361536 0.3303370178 -0.3409234285 0.8801412582
0.0015113733 -0.12922242 0.86200005 -0.7447776794 -0.6436134577 0.1762609929
0.091697581 -0.07915774 0.89400005 -0.6081768274 -0.5424237251 0.5795665979
-0.084903203 0.025054306 0.8239727 -0.4239200652 -0.6222708821 0.6580810547
-0.06550803 0.023300415 0.84600013 -0.6028313637 -0.7130835056 0.3579193652
-0.10529205 0.036146432 0.82450002 -0.3404934406 -0.7780752182 0.5278855562
-0.1048467 -0.044805329 0.83482975 0.2524690032 0.424259305 0.8696340919
-0.13508683 -0.012923788 0.81722224 0.01126928814 0.4966517389 0.8678767681
-0.015577009 -0.025790816 0.82668185 -0.3546407819 -0.4544538856 0.8171300888
-0.033351641 -0.11316844 0.82594115 0.265940994 0.416988939 0.8691349626
0.014960371 -0.1451007 0.85318762 -0.1783538014 -0.3914848864 0.9027344584
-0.085206479 0.00501158 0.81675518 -0.08811171353 -0.04110074788 0.9952623248
-0.048310466 -0.0083081704 0.81900012 -0.3091933727 -0.427441895 0.849525094
-0.0017809484 -0.060863022 0.81200004 -0.4674627781 -0.4330359995 0.7706869245
0.011638501 -0.082915507 0.82242858 0.07291387767 0.4877417386 0.8699376583
0.015972679 -0.1236545 0.90128601 -0.2238842249 -0.1927962303 0.9553561807
-0.035503291 -0.02546904 0.81740916 -0.1708649099 -0.2716934681 0.9470944405
-0.064787872 -0.055074971 0.82626855 0.3133541644 0.3128591478 0.896620512
-0.048105329 0.0031761632 0.83566666 -0.613535881 -0.7284460664 0.3048606813
0.062833056 -0.077258833 0.83594733 -0.5441408753 -0.278763026 0.791329205
-0.1626661 0.014684397 0.81815803 0.5344262719 0.07596665621 0.841794312
0.076944157 -0.086086035 0.86900002 -0.6863636971 -0.6483182311 0.3295274079
-0.023709452 -0.061643403 0.81133342 0.606384635 -0.2422855943 0.757360816
0.061661098 -0.15230818 0.89357144 0.08004879206 -0.2417445034 0.9670324922
-0.037001599 -0.0026648161 0.85142851 -0.621055305 -0.7390230298 0.2610273063
0.094494313 -0.11444942 0.87561917 0.09655364603 0.4469783604 0.8893187046
0.055477079 -0.12521881 0.90400004 0.08623521775 0.003234094242 0.9962695837
0.10388763 -0.10076319 0.89100003 -0.7685842514 -0.2321940362 0.596124351
-0.051835109 -0.11237903 0.82700002 0.6203228235 0.3628120124 0.6953898668
-0.12441893 0.0044436334 0.81251359 -0.1897673458 0.3191824555 0.9284992814
0.067796215 -0.13587733 0.82746178 0.2981321216 0.06291355938 0.9524490237
-0.021719769 -0.094170481 0.83139992 -0.3678913414 0.05166795105 0.9284322262
-0.070707552 -0.090059087 0.84900004 0.481167227 0.3978501856 0.7811487317
-0.14446051 0.024302116 0.80814993 0.2941697538 -0.2505453825 0.9223291874
0.041909635 -0.058382783 0.82900006 -0.5636439323 -0.4530897439 0.6906628609
-0.10474383 -0.024985807 0.82709086 0.1614339501 0.3459527791 0.9242595434
-0.14451775 -0.023663482 0.82714838 0.3002715111 0.5924949646 0.7475203872
-0.051702235 -0.082849853 0.8275333 0.5988419056 -0.1433395147 0.7879353762
0.08274328 -0.14495395 0.827609 0.1674306095 0.129161194 0.9773864746
-0.0063339169 -0.1279425 0.84522229 -0.7222059965 -0.3505851924 0.5962453485
0.031570081 -0.14569379 0.85164273 0.3650457263 -0.1351708323 0.9211245775
-0.032055706 -0.084273778 0.8085556 0.8254544735 0.02945534699 0.5636996627
0.048692692 -0.16206674 0.82900006 0.468287617 -0.3447976708 0.8135240078
-0.018238854 -0.11668384 0.81766665 -0.411356926 0.2655576169 0.8719315529
0.082779519 -0.10331739 0.83223087 0.03956763074 -0.4386657476 0.8977788091
-0.099532351 -0.058982134 0.84100002 0.2828427851 0.5098490715 0.8124369979
0.018716833 -0.16096477 0.85400003 0.1939936131 -0.2272136658 0.9543272257
0.070299022 -0.11927138 0.90100002 0.1680755466 0.02330373973 0.9854986072
-0.084747732 -0.063074268 0.83575016 0.3250288367 0.4655315578 0.8231868744
0.019114256 -0.08692617 0.89600009 -0.05717874318 0.206425041 0.976790309
-0.075180113 -0.036333106 0.82327777 0.2682221234 0.3311974406 0.9046353698
0.058457542 -0.092593007 0.83560002 -0.4608845413 -0.2710254788 0.8450624943
-0.098726399 0.040911987 0.83833337 -0.3911931515 -0.7994812727 0.455848217
0.0048538339 -0.13209945 0.88838458 -0.4499228895 -0.6098120809 0.6524558067
0.057471931 -0.067478202 0.87800008 0.3300099671 0.2070746124 0.9209851027
0.028134363 -0.071605511 0.81099999 -0.324090004 -0.04532530904 0.9449398518
-0.14072603 0.040925428 0.81900007 0.1296716481 -0.6504227519 0.7484220266
0.0048343493 -0.048575934 0.81886679 -0.2938989997 -0.7005454898 0.6502763629
0.045725912 -0.10378534 0.89800018 -0.009968928993 0.1891597211 0.9818957448
-0.085155971 -0.085644901 0.85514712 0.4092932045 0.4663390517 0.7842237949
0.032277111 -0.13844295 0.89800012 -0.2140207887 -0.2482346147 0.9447616935
-0.0036214555 -0.11825286 0.89406252 -0.3664269149 -0.2484706938 0.8966569304
0.00069958001 -0.069258422 0.79800004 -0.3135604262 0.2580795586 0.9138242602
0.0013014993 -0.093641855 0.82540005 -0.4139415026 0.7016755342 0.5799171329
-0.10395411 -0.076331243 0.85790741 0.2823509872 0.5440413952 0.7901245952
0.01276602 -0.058865536 0.80900002 -0.3245448768 -0.4793728888 0.8153969646
-0.07231383 -0.10546971 0.84686679 0.6541226506 0.1469632685 0.7419739962
-0.13025075 -0.06028749 0.84900004 0.2122353464 0.5360811353 0.8170515299
0.044290271 -0.14742824 0.84366679 0.50192976 -0.339774102 0.795374155
-0.075270683 0.025716335 0.83544451 -0.5141640902 -0.7237330079 0.4602671266
-0.052160453 -0.094326146 0.83649999 0.7820823193 0.02458277345 0.6226900816
-0.075313941 -0.015064984 0.8181839 0.07710623741 0.07241934538 0.9943892956
-0.13483004 -0.03506688 0.83278376 0.1650821418 0.5431751013 0.8232306242
-0.094857469 -0.035355311 0.82729787 0.24654755 0.3677453399 0.8966479897
-0.0051551284 -0.035550918 0.82558346 -0.2959000468 -0.491528362 0.8190500736
-0.098604836 -0.0079171769 0.82100004 0.1140674353 0.2666434646 0.9570213556
-0.05844333 0.013038663 0.83539999 -0.6019363999 -0.6993336678 0.3854932487
-0.025066281 -0.035093814 0.81700003 -0.1758483946 -0.3407815099 0.9235503674
-0.05510392 -0.035065893 0.8162654 0.1594865918 0.09764920175 0.9823586941
-0.054340709 -0.064674556 0.82605869 0.1943474412 0.3147894144 0.9290515184
-0.038053472 -0.061747141 0.81900007 0.5279888511 0.1477734745 0.8362958431
0.087276556 -0.081978224 0.88100004 -0.6165780425 -0.5471609831 0.5660797954
0.090739131 -0.15633108 0.82614291 0.1326841712 0.1514820009 0.9795142412
-0.013877864 -0.063383244 0.80194747 0.06813231856 -0.4830307961 0.8729485869
0.038226176 -0.15133838 0.89600009 -0.1640436202 -0.4201509058 0.8925037384
0.072567068 -0.1242329 0.82219988 0.3879474699 -0.04457071796 0.9206031561
-0.14667016 -0.036171589 0.84205258 0.3343472779 0.5526565313 0.7634020448
0.054075863 -0.067806371 0.83166671 -0.5779488683 -0.2339642197 0.7818157077
-0.15754461 -0.016806711 0.83346152 0.4572470188 0.5527791381 0.696678102
-0.07435488 0.016876759 0.82259983 -0.4284757972 -0.5316412449 0.7305929661
-0.11608011 -0.048742175 0.84100002 0.1781890392 0.4824105501 0.8576297164
-0.076041259 -0.076151267 0.84211105 0.3929109871 0.5413752794 0.7433261275
0.064481869 -0.15435916 0.82763821 0.2658237815 -0.1239009276 0.9560263157
-0.01544599 -0.14048496 0.83900005 -0.6910824776 -0.3946087062 0.605548501
-0.11566577 0.034786277 0.81667441 -0.2919595242 -0.6026675105 0.742665112
-0.12383386 -0.016178366 0.82323521 -0.1014756784 0.4610041976 0.8815768957
-0.06519296 -0.0050136195 0.81720406 -0.1939025819 -0.2965693474 0.9351194501
-0.095712155 0.024601895 0.81690705 -0.3331428766 -0.507093966 0.7949034572
-0.039682318 -0.081526786 0.82300001 0.6701752543 -0.1627674252 0.7241352797
-0.14492334 -0.0049170391 0.81483316 0.2163330466 0.4531204402 0.8648016453
-0.013882016 -0.12830305 0.83357143 -0.8162516356 -0.1738366336 0.5509211421
-0.13511936 0.014853899 0.80695885 0.04043159634 0.01632202044 0.9990490079
-0.040707264 -0.11626466 0.83557141 0.4607152045 0.4690483809 0.7534819841
-0.015385324 -0.10827062 0.84360009 -0.5798133016 0.2872093618 0.7624482512
0.025191894 -0.10549109 0.8980003 -0.03107594512 0.1452791393 0.9889025688
0.062400255 -0.14138792 0.90100002 0.1284815073 -0.2283561677 0.9650626779
-0.061691903 -0.044901986 0.81900018 0.2910907865 0.3248494267 0.8998550177
-0.058182739 0.022183048 0.85557145 -0.6513898373 -0.6957342029 0.3027296662
-0.15491255 0.0049303309 0.81500018 0.4541163743 0.2610266209 0.8518470526
0.030702619 -0.12674671 0.89800006 -0.2102299035 -0.1481208205 0.9663661718
0.015511844 -0.11219125 0.89788228 -0.1706489772 -0.0417105183 0.9844486713
-0.12287448 0.045741711 0.83571434 -0.2698342204 -0.7953788042 0.5427356958
-0.04725511 -0.055534054 0.82265222 0.1999169737 0.3867123127 0.9002704024
0.045050059 -0.11538981 0.90152413 -0.02302244678 0.1707177013 0.9850509763
0.0030598587 -0.15241404 0.84900004 -0.4398163557 -0.3940729797 0.8070117831
-0.12593311 -0.042450272 0.83772004 0.1022967994 0.5149233937 0.8511105776
-0.01119328 -0.049670178 0.79800004 -0.1579380929 -0.6533186436 0.7404257655
-0.13571198 0.031581298 0.80900002 0.03554933891 -0.3819053173 0.9235175252
0.098120406 -0.10529356 0.88128573 -0.7685842514 -0.2321940362 0.596124351
-0.03517323 -0.10383528 0.81879336 0.3222916126 0.4257355332 0.8455042243
0.066886671 -0.073207729 0.87450004 0.363591522 0.2222593278 0.9046557546
-0.11461946 0.024818243 0.81166697 -0.2636660039 -0.2860862911 0.9212138057
0.014884684 -0.045812491 0.82532442 -0.2535933554 -0.6310315132 0.7331368923
0.083676621 -0.11526369 0.8237499 0.3137560785 -0.2975919545 0.9016630054
-0.074129179 -0.060320798 0.82900006 0.3467427492 0.3644075096 0.8642780781
-0.0052239061 -0.084818594 0.82512772 -0.3524011374 0.6044836044 0.7144320011
-0.12152074 0.014718533 0.81109989 -0.2245867252 0.09177417308 0.9701228142
-0.04660368 0.0041151531 0.84627271 -0.640617013 -0.716960907 0.2749124765
-0.051306915 -0.098521836 0.82433337 0.6920535564 0.1445270926 0.7072296143
0.050630715 -0.082608007 0.82900006 -0.5694285035 -0.2076248527 0.795388639
0.054374512 -0.097142361 0.8968001 0.009065369144 0.2148264498 0.9766101837
0.1018584 -0.11449455 0.88500011 0.2237630337 0.3417880237 0.9127491713
-0.15149012 0.01489369 0.80900002 0.3744726181 -0.01316139661 0.927144587
-0.031465147 -0.12339558 0.82700002 0.2546924353 0.6105308533 0.7499225736
-0.12517361 -0.0051659346 0.81653214 -0.1528528482 0.4310001433 0.8893114924
-0.10601874 -0.068262085 0.85164279 0.2758912742 0.562227428 0.7796052694
-0.056422379 0.0142706 0.84550005 -0.6632490158 -0.6805437803 0.3113853931
-0.035352983 -0.044926669 0.81172746 0.1983523816 -0.09159207344 0.9758418202
-0.10506624 0.0049971803 0.8150416 -0.1362613589 0.2346903235 0.9624724984
0.034435496 -0.065844178 0.81669712 -0.4910544157 -0.3089165092 0.8145158887
0.069362745 -0.14729841 0.88900006 0.2034387738 -0.2420451194 0.9486974478
-0.054829281 -0.0148983 0.81476736 -0.1220436171 -0.1842924505 0.9752649069
0.02512702 -0.095017828 0.89571446 -0.02290421911 0.194183737 0.980697751
-0.085380435 0.015029867 0.81787521 -0.2422997952 -0.3040281832 0.9213347435
-0.059227895 -0.088718958 0.84100002 0.6127521992 0.3263463378 0.7197449207
-0.11479089 -0.035096593 0.83399981 0.07475186884 0.4365511239 0.8965685964
-0.10477623 -0.015176264 0.82422483 0.1032279134 0.3519591391 0.9303057194
-0.00074779667 -0.13310386 0.85300004 -0.5679255128 -0.3486421406 0.7455932498
-0.075173646 0.0050137998 0.81667376 -0.1920398921 -0.1850827634 0.9637764692
-0.065055199 -0.015009236 0.81540829 0.006639416795 -0.0213310793 0.9997504354
-0.085232161 -0.0050136573 0.81700009 0.02871508896 0.06535832584 0.9974486232
-0.045023795 -0.035017233 0.8152042 0.04696826264 -0.01885028183 0.9987185001
-0.11500362 0.0048178919 0.81613046 -0.166472286 0.3109079003 0.9357474446
-0.075142197 -0.0050114724 0.81630647 -0.005109459162 -0.05126015469 0.9986722469
-0.075758159 0.032204259 0.84594744 -0.5175366402 -0.7506597638 0.4106893539
-0.094808541 0.01488544 0.81407332 -0.2027396411 -0.116385974 0.9722915888
0.026983831 -0.15521429 0.84844017 0.3080345988 -0.2272607833 0.9238328934
-0.054775201 -0.025197832 0.81513047 0.007463267539 -0.014355544 0.9998691082
-0.095073543 0.004815835 0.81595677 -0.06078373268 0.05899401382 0.9964060783
0.025471702 -0.1171173 0.9018696 -0.1073694825 0.01889046095 0.9940397143
-0.086085059 0.032631092 0.83533329 -0.4579933584 -0.7471485734 0.4816752672
0.0553382 -0.13507895 0.90442097 0.07906599343 -0.1706279516 0.9821581841
-0.079274587 -0.027658707 0.82100004 0.234024033 0.2999176979 0.9248146415
0.0048074047 -0.12487057 0.89504904 -0.2609972358 -0.2649180889 0.9282773733
0.083565325 -0.13470392 0.82313317 0.2313029915 0.07790136337 0.9697578549
0.066425666 -0.10404544 0.83528548 -0.274679184 -0.4293989241 0.8603301048
-0.15480201 0.024853218 0.81553662 0.4123612046 -0.2304778099 0.8813842535
0.0059317695 -0.065839089 0.80547494 -0.4242789745 0.01266829204 0.9054428935
-0.035001557 -0.034848712 0.81482995 -0.06002677232 -0.1925363094 0.9794521928
0.045087662 -0.1552932 0.83499992 0.4844152927 -0.3790631294 0.7884497046
-0.084772162 -0.035580441 0.82465988 0.237747848 0.3511022627 0.9056506753
-0.10502318 0.025086759 0.81420934 -0.3133608103 -0.3835126758 0.8687479496
-0.02451632 -0.024279665 0.8232162 -0.2677811384 -0.3588539362 0.8941572309
-0.13370103 0.0020580904 0.81099993 -0.08291485906 0.3441877663 0.9352325201
-0.11309788 0.041325189 0.82700002 -0.3208792508 -0.780317843 0.5367872715
-0.1349584 -0.025071012 0.82637793 0.09156809002 0.5553675294 0.8265483975
-0.075113848 -0.095385589 0.85573179 0.4377811253 0.4152459204 0.7974449992
-0.045102052 -0.025056155 0.81663281 -0.1063730493 -0.1500650495 0.9829370379
-0.017246589 -0.12412905 0.8255834 -0.7147676945 -0.0001293757086 0.6993619204
0.04508863 -0.12497988 0.90228581 -0.0451239571 0.0214917995 0.9987502098
0.0048696091 -0.11535712 0.89743769 -0.2547928393 -0.1040227562 0.961384356
0.054800294 -0.14655222 0.89692318 0.04916027188 -0.2763262391 0.959805727
0.00072675664 -0.10247269 0.82900006 -0.2413154095 0.3413372636 0.9084358811
-0.12468995 0.035236713 0.81368309 -0.1825460941 -0.5386397243 0.8225230575
0.034667607 -0.095126882 0.89529288 -0.004110620823 0.2014175057 0.9794968367
-0.066189997 -0.066001989 0.83203214 0.3253385723 0.3462739587 0.8799142838
-0.036574222 -0.054228369 0.81280661 0.4631200433 0.03416239098 0.8856369257
0.083091028 -0.09319102 0.86809087 -0.78292346 -0.4958147407 0.3757639527
0.066774398 -0.14532228 0.82900029 0.2275677323 0.06440353394 0.971630156
0.0047068237 -0.077622689 0.81900012 0.207332924 0.4548506439 0.8660969734
-0.096792065 0.032267295 0.82519996 -0.4043519199 -0.7086111903 0.5782470703
-0.0055814846 -0.045728061 0.81778592 -0.2891011536 -0.6715385914 0.6822437048
-0.11543116 -0.022658033 0.82861918 -0.00859750621 0.4262775183 0.9045515656
-0.094828762 -0.025405541 0.8249169 0.2629258335 0.2849083245 0.9217902422
-0.0064628744 -0.057913385 0.8017 -0.1516443938 -0.6913522482 0.7064248323
-0.15372923 -0.0036451453 0.81804013 0.4363790751 0.4435881972 0.7828172445
-0.065206364 -0.10250596 0.85284215 0.5947996974 0.1890315861 0.7813324332
0.055000804 -0.11647278 0.90151876 0.05175420642 0.1346201003 0.9895448089
-0.10597429 -0.035522766 0.831963 0.2086477429 0.3958284259 0.8943075538
0.021663779 -0.0663075 0.80753344 -0.268684417 -0.1623180062 0.9494532943
-0.096172169 -0.045432396 0.83258623 0.2557189167 0.4004025459 0.8799350262
-0.013756325 -0.034459524 0.82331252 -0.33719787 -0.4402835071 0.8321346045
-0.15348102 -0.014109249 0.8259601 0.4113072455 0.5519074798 0.7254133224
-0.045312006 -0.063499719 0.82618523 0.2345131636 0.3575832248 0.9039567709
0.088801198 -0.10212678 0.87214291 -0.7423765659 -0.2633542717 0.6160532236
-0.084710978 -0.074337751 0.84547627 0.3808416128 0.5577198267 0.7375013828
-0.034971353 -0.014806821 0.8241365 -0.4162220657 -0.58102566 0.6994057298
0.034196019 -0.10514666 0.8980003 -0.02630444989 0.1623812765 0.986377418
0.044972669 -0.095210083 0.89595747 -0.003788473317 0.2013829798 0.9795052409
0.015794624 -0.095931388 0.89615792 -0.1006309092 0.1518634409 0.9832654595
-0.16450727 0.0034206435 0.82212502 0.5552461147 0.2627691031 0.7890843749
-0.066482686 -0.035489582 0.82217646 0.2499430627 0.2862420678 0.9249832034
0.0033609211 -0.038319431 0.82862508 -0.266646564 -0.5630365014 0.7822336555
-0.054143589 -0.074538589 0.82628208 0.3547059298 0.1592578143 0.9213146567
0.053063903 -0.0595375 0.88583344 0.3058612347 0.2241874933 0.9253047705
-0.0095618032 -0.13362007 0.83900005 -0.7210515141 -0.3185538352 0.6153114438
0.075192928 -0.11560875 0.82582617 0.4200060964 -0.2983122468 0.8570908308
0.05497301 -0.15605012 0.8283515 0.3468187749 -0.262263298 0.9005191326
-0.026032422 -0.096450366 0.81225926 -0.4605035782 0.3650735319 0.8091092706
-0.035118278 -0.095051393 0.81460875 0.3872306347 0.2095310837 0.8978580832
-0.05409148 -0.048554994 0.82100004 0.2910918295 0.2858122289 0.9130043387
-0.09339536 -0.083211809 0.85589468 0.3731642663 0.5189945698 0.7690207958
-0.020287819 -0.067859262 0.79800004 0.294885695 -0.06717141718 0.9531686306
-0.013704554 -0.092194267 0.82900017 -0.4963923991 0.5106559396 0.7020150423
0.035287295 -0.058189575 0.8235333 -0.5446771979 -0.4686183035 0.6955024004
0.042596117 -0.086832389 0.89527279 0.07096195966 0.3199276328 0.944780767
-0.062864617 -0.093296558 0.84823078 0.5219702125 0.3814334869 0.7629256845
-0.016254682 -0.051830485 0.81161535 -0.1142052785 -0.6382761598 0.7612888217
-0.055990979 0.0040106075 0.82489198 -0.4573686123 -0.6366173625 0.6209124923
0.044223811 -0.065623097 0.82529402 -0.5925680995 -0.333642602 0.7331750393
-0.14564495 -0.016380196 0.82306045 0.3236083984 0.5408903956 0.7763473392
0.074371479 -0.10382103 0.83215779 -0.04420595616 -0.4585259557 0.8875808716
0.026061855 -0.14285541 0.89447063 -0.2498561591 -0.3371455967 0.9076920152
0.071639456 -0.12711005 0.898 0.2436502725 -0.07044760138 0.9673012495
-0.094801635 -0.054935563 0.83547628 0.3075981736 0.4498396218 0.8384674788
0.07128907 -0.085499845 0.83833337 -0.7210754156 -0.5330656767 0.4425959885
0.083974488 -0.085499443 0.87424999 -0.6395158768 -0.4916683733 0.5910005569
0.0067999121 -0.1448895 0.8517105 -0.3404836059 -0.3412760496 0.8761287332
0.015281502 -0.134317 0.89302886 -0.2881035507 -0.3384384513 0.8957989216
-0.041072708 -0.087722249 0.81620008 0.6330068111 -0.06277819723 0.7715966105
-0.073524669 -0.043134045 0.82766676 0.2742245197 0.3409135044 0.899210155
0.021617724 -0.04972278 0.82200003 -0.2961943746 -0.6417628527 0.7073961496
-0.051533096 -0.11839296 0.8326 0.5910091996 0.3946823776 0.7035154104
-0.026137611 -0.016500361 0.82688236 -0.41868186 -0.6336324811 0.6505500674
-0.036425501 -0.0050995699 0.83100003 -0.5329815745 -0.7237906456 0.4382438958
-0.081871897 -0.081127606 0.84900004 0.3967545033 0.5101489425 0.7631080747
0.074686058 -0.13498276 0.82319224 0.2830586433 0.09023297578 0.9548485875
-0.055870004 -0.0056594084 0.81760007 -0.2558825016 -0.3995571136 0.8802716732
-0.095548384 -0.065776668 0.84299994 0.3199033737 0.5202206969 0.7918536663
0.07465706 -0.1449692 0.82680941 0.2221322805 0.1421345025 0.9646009803
-0.16050276 0.026630504 0.82100004 0.4849406779 -0.1854583621 0.8546565175
-0.1252718 -0.054784413 0.84578043 0.1861488223 0.5455087423 0.817171216
-0.042663597 -0.073432684 0.8322174 0.4410158694 0.1307403296 0.8879256845
-0.0079838019 -0.028301081 0.8278001 -0.3381067514 -0.4684553146 0.8162312508
-0.066305317 0.013339524 0.82648152 -0.4810241163 -0.6286640763 0.6110624075
-0.024937581 -0.10482723 0.81568182 -0.4117547274 0.265522331 0.8717545271
-0.14486453 0.035422452 0.81484222 0.2548497021 -0.4691895247 0.8455252051
-0.10279033 -0.052069038 0.83850002 0.2783426642 0.4613331556 0.8424352407
0.078260906 -0.11954534 0.81900007 0.4742971957 -0.1909572333 0.8594053388
0.013623108 -0.13747098 0.85533339 -0.2829701602 -0.3298614621 0.900621593
-0.05571479 -0.085647836 0.83446163 0.6118329167 0.1047555581 0.7840195894
0.064950012 -0.065459125 0.88195825 0.3303534389 0.2448402941 0.9115480185
-0.031478971 -0.078544453 0.80300003 0.7064737678 -0.1052108407 0.6998753548
-0.15370841 -0.024174359 0.83552635 0.4149054885 0.5636919737 0.7142162323
0.084990203 -0.16160102 0.82439995 0.1588475108 0.1189262569 0.9801142812
-0.11510327 -0.015205891 0.82577562 -0.02626478858 0.4078065753 0.9126905203
-0.13496146 -0.0050626001 0.81436163 -0.01439737529 0.4516947865 0.8920563459
0.090406246 -0.11933625 0.82500005 0.3398262262 -0.1665451229 0.9256245494
-0.068566732 -0.078888603 0.84100002 0.463391304 0.5161281228 0.720333457
0.064339444 -0.13964774 0.83400005 0.3027124703 0.01780449785 0.9529156089
0.064835787 -0.12493265 0.90194458 0.1694669425 -0.02353379875 0.9852548242
0.069041885 -0.11991485 0.82900006 0.4754876494 -0.2094809115 0.8544175029
-0.069384374 0.021820525 0.83900005 -0.5519448519 -0.6989642978 0.4547590613
-0.058511008 -0.078355938 0.83220005 0.4559781551 0.2516686022 0.8536667228
-0.10603598 -0.0018159894 0.81888252 -0.02946949936 0.3233144581 0.9458326101
-0.077096567 -0.053800534 0.8322593 0.2988455892 0.3681338429 0.8804367185
-0.035481334 -0.075633131 0.82609099 0.07550200075 -0.1178061068 0.9901621938
-0.060320802 -0.070495397 0.82900006 0.306542784 0.3436570466 0.8876549602
0.040925428 -0.069645032 0.81900007 -0.5132291317 -0.2338598371 0.8257756829
-0.04613122 -0.10403224 0.82216644 0.5434846878 0.2889907658 0.7881045341
-0.0013784573 -0.055406749 0.81761557 -0.2419267744 -0.7088727355 0.6625487804
-0.10485981 0.045900136 0.8437618 -0.3793465495 -0.8059575558 0.4544541538
-0.0041131945 -0.13105427 0.88757145 -0.5804452896 -0.6606096625 0.4761072397
-0.11513807 0.045273323 0.83578575 -0.295063287 -0.8118285537 0.5038571954
0.05598861 -0.075207829 0.83289194 -0.5429551601 -0.1973170042 0.8162510395
0.074156843 -0.075683996 0.87513804 -0.5861170292 -0.7274284363 0.3568118811
-0.025356416 -0.042576563 0.81528592 -0.0450200364 -0.4104522169 0.9107701182
-0.085263029 -0.054621626 0.83308524 0.2956413627 0.4113524258 0.8621979952
-0.045074604 0.0060689873 0.85409993 -0.6504915357 -0.7162488699 0.2526821792
0.02481821 -0.13567731 0.89687514 -0.2517282665 -0.2513298094 0.9345941544
-0.074322335 -0.083811112 0.84645468 0.4450260997 0.454325676 0.7717123628
-0.020976402 -0.064709954 0.80490917 0.3505546451 -0.401827246 0.8459588289
-0.04563193 -0.015352149 0.81800008 -0.2233154178 -0.3606901765 0.9055566192
0.08377865 -0.11073352 0.83100003 0.2453133464 -0.3861559331 0.8892159462
0.0059308587 -0.072880723 0.80266678 -0.1851462126 0.6032824516 0.7757391334
0.081448473 -0.097589076 0.83700007 -0.6263831854 -0.5875909925 0.5122313499
-0.045302264 -0.11178011 0.82323533 0.4246946871 0.4310862422 0.7961149812
-0.13320707 -0.053750962 0.84664714 0.2264367044 0.5498275161 0.8040000796
-0.051559396 0.0084217861 0.84260005 -0.6577165127 -0.6912792325 0.2992357314
-0.016312785 -0.056405198 0.8056522 0.08627599478 -0.5771199465 0.8120892644
-0.13431235 0.043931957 0.82150006 0.007766280789 -0.7379000187 0.674865365
-0.10616034 0.032120291 0.81822246 -0.3249536455 -0.619317472 0.7147384286
-0.018837187 -0.087108985 0.83099997 -0.4461115897 -0.093637079 0.8900654912
-0.12467703 -0.035344575 0.8332051 0.0888318494 0.4932927191 0.8653156757
-0.018433319 -0.019012621 0.82779998 -0.3684276044 -0.4785825908 0.7970067859
-0.065684184 -0.085719883 0.84313792 0.518625617 0.4059079289 0.7525066137
0.00074429001 -0.13918222 0.84900004 -0.5930544734 -0.4203336835 0.6867357492
0.015135332 -0.15493926 0.85154533 0.06178549677 -0.292250514 0.9543438554
-0.056676101 -0.095196269 0.8435455 0.7615818977 0.1149926633 0.6377849579
-0.094480671 0.03556763 0.83544427 -0.4037141204 -0.7788766026 0.4799647331
-0.014342493 -0.10280149 0.83514816 -0.7266945243 0.5261973143 0.4416235983
-0.092540756 0.03881792 0.84180003 -0.4126226604 -0.8057808876 0.4248054326
0.081333041 -0.078767329 0.87800002 -0.5847815871 -0.5692299008 0.5779340863
0.015002642 -0.054891177 0.8147676 -0.2078753263 -0.6069277525 0.7670896649
0.038202502 -0.16088763 0.83800006 0.4604070187 -0.372870326 0.8056010604
-0.029509477 -0.1079615 0.82100004 -0.05255600438 0.4074665904 0.9117065668
-0.085613169 -0.067797825 0.8413077 0.3519245088 0.5175899863 0.7799036503
-0.028213909 -0.11621356 0.82166672 -0.001171716722 0.3455134034 0.9384130836
0.035058919 -0.072840549 0.81458348 -0.4468402267 -0.1293705553 0.8852101564
-0.038915057 -0.018236944 0.81900007 -0.249877274 -0.3388877213 0.9070371985
-0.13474953 -0.018097468 0.82239997 0.01020157803 0.523927927 0.851701498
-0.077133767 -0.088015959 0.85185713 0.4383296669 0.4249923527 0.7919902802
-0.055062741 -0.054884225 0.82448727 0.2820711732 0.3781485558 0.8817253113
-0.053677425 -0.10536546 0.82366663 0.6977291703 0.2637009323 0.6660599113
0.014830473 -0.064957649 0.80546427 -0.2734869421 -0.2126186639 0.9380822182
-0.13507015 0.024753934 0.80667323 0.01707436889 -0.2198027968 0.9753949046
-0.093742669 -0.012809066 0.81889492 0.1696232706 0.2613363862 0.9502269626
0.0047010556 -0.084644243 0.82152611 0.2599309683 0.4880464673 0.833214581
0.061335284 -0.16080573 0.82700002 0.2771961391 -0.1499310583 0.9490432143
-0.063734829 0.026545467 0.85422218 -0.6148847938 -0.7221931219 0.316786617
0.064215824 -0.11545285 0.90114319 0.1251420975 0.09737840295 0.9873484373
0.024501823 -0.14533399 0.8528114 0.2203502953 -0.1981509924 0.9550821781
-0.092398033 -0.061990153 0.83780003 0.3181857467 0.4833415747 0.8155604005
0.0049959794 -0.054967515 0.8143878 -0.2901366055 -0.6494305134 0.7028945684
-0.047239184 0.00072675664 0.82900006 -0.5585659742 -0.6915248036 0.4580366015
-0.12630731 0.041200116 0.81811118 -0.1673789173 -0.6751560569 0.7184348106
0.093261622 -0.085746676 0.88199997 -0.6881657243 -0.4082513154 0.5997989774
-0.01767035 -0.036816645 0.81782371 -0.243918255 -0.4871388674 0.8385699987
-0.15176298 -0.030646807 0.83900005 0.3584564626 0.5621901155 0.7452859879
-0.15662526 0.014992315 0.81437504 0.4609369636 0.02619475126 0.8870462179
-0.10550682 0.041880414 0.8364445 -0.3592739403 -0.7927904129 0.4923470616
-0.11495036 -0.054925632 0.84430009 0.2097907066 0.5284087062 0.8226615787
0.065242343 -0.094562382 0.83618391 -0.4442207217 -0.3463779092 0.8262507319
-0.12707075 -0.012795133 0.81794757 -0.1387394965 0.4640190303 0.8748929501
0.094643474 -0.12150338 0.87533337 0.1107359454 0.4584802389 0.8817785382
0.045059647 -0.13518429 0.90177584 -0.07752203941 -0.1791640967 0.9807602167
0.011846835 -0.049182314 0.81900007 -0.2313323319 -0.6637266278 0.7113032937
0.072401486 -0.14224991 0.89524996 0.2137053907 -0.2019188106 0.9558026791
-0.088210203 -0.089718066 0.86000001 0.4054466486 0.4486498237 0.796446085
-0.11459713 0.015099132 0.81214911 -0.2677073181 0.07087434083 0.9608899951
-0.075140908 -0.10192647 0.85221428 0.4734944701 0.3979160488 0.785789907
0.065113664 -0.14533359 0.89590722 0.1284815073 -0.2283561677 0.9650626779
-0.049162589 -0.12327598 0.83700001 0.5718441606 0.426514715 0.7007706165
-0.015392375 -0.13525249 0.83442116 -0.7658436894 -0.3005670607 0.5684565902
0.055348955 -0.084848188 0.83357888 -0.5381596088 -0.2230848819 0.8127837181
-0.053740673 0.014880665 0.85485709 -0.6632490158 -0.6805437803 0.3113853931
-0.058798909 0.020095831 0.84900004 -0.6514061093 -0.688277483 0.3192869723
-0.14287186 -0.033877335 0.83676469 0.3067101538 0.5746247172 0.758772254
-0.088285364 0.022071835 0.81875008 -0.3493008316 -0.4327017367 0.8311185837
0.048962362 -0.1474748 0.83860004 0.4844152927 -0.3790631294 0.7884497046
-0.01845962 -0.13067083 0.82900012 -0.8103371263 -0.3417478502 0.4759854972
-0.11775036 0.040925428 0.81900007 -0.2745998204 -0.7162285447 0.641569674
-0.16618367 -0.0066529205 0.83205897 0.5127539635 0.4827210009 0.7099745274
-0.08236371 -0.021847408 0.81900012 0.1973217279 0.2446683198 0.9493163824
-0.12573901 -0.024785042 0.82680959 -0.03006172925 0.4946321547 0.8685823679
0.014944745 -0.10539187 0.89714289 -0.1162166223 0.09063755721 0.9890796542
0.025080817 -0.12394378 0.90137058 -0.1599068493 -0.1489727348 0.9758262634
-0.14507802 -0.02822981 0.83223081 0.3164673448 0.5662643909 0.7610473633
-0.075080924 -0.065403804 0.83350003 0.3765191734 0.3984866738 0.8363263011
-0.076534495 0.022447979 0.82594115 -0.4867100418 -0.6471942663 0.5867307186
-0.0053176242 -0.13523924 0.84412187 -0.6645632982 -0.3080555201 0.6807770729
-0.1236368 -0.061978582 0.84885722 0.205600068 0.5376976132 0.8176857233
-0.14299411 -0.012197198 0.81838477 0.2363074422 0.5354001522 0.8108671308
-0.11070547 -0.072356559 0.85440004 0.265827775 0.5669472218 0.7796835303
-0.14307944 -0.041951861 0.84199995 0.2845005989 0.5526977777 0.7833163738
-0.022712631 -0.054919809 0.81111759 0.3644185364 -0.4027711153 0.8396276236
0.026083844 -0.064355277 0.8123126 -0.3894428015 -0.4250983298 0.8170836568
0.043900486 -0.16193126 0.83380002 0.4622139633 -0.3764056861 0.8029178381
-0.114738 -0.043602146 0.83678389 0.147380814 0.4622794092 0.8744007349
0.084717862 -0.076191619 0.88342309 -0.5904675722 -0.576728642 0.5645636916
-0.12865311 0.031063983 0.80900002 -0.1021609679 -0.4153924584 0.9038872719
0.082321629 -0.15080157 0.83100003 0.1493859589 0.1193818897 0.9815456271
-0.0080136098 -0.099077351 0.83100003 -0.6591447592 0.5256419778 0.5377998948
0.050731678 -0.07482554 0.82866669 -0.5720409155 -0.1750074327 0.8013373613
-0.058140531 0.01090135 0.82900006 -0.5370581746 -0.6753262877 0.5054729581
-0.15675882 -0.0070723039 0.82300001 0.4404783249 0.4930240512 0.7502707243
-0.042025469 -0.0019312967 0.847 -0.6397116184 -0.7175963521 0.2753624618
0.039634101 -0.077827841 0.82200003 -0.457023412 0.0568139106 0.8876383305
-0.15043862 -0.021075943 0.82900006 0.3812900484 0.5600303411 0.7355160713
-0.027385605 -0.028103596 0.81850004 -0.2487432063 -0.3771676719 0.8921162486
0.055717863 -0.14166299 0.90150005 0.08316063136 -0.2501225173 0.9646362066
-0.030496603 -0.090780586 0.80900002 0.4891052246 0.3830190003 0.7836278081
-0.0096073896 -0.11159353 0.84300005 -0.9471809268 0.1466082036 0.2852267325
0.063893452 -0.1350553 0.90251529 0.1345219761 -0.1640448421 0.9772375226
-0.042586669 -0.054265954 0.81804776 0.2787068486 0.3951211274 0.8753295541
-0.045308523 -0.0049338071 0.823919 -0.4350507259 -0.6128227711 0.6596810818
-0.062634028 -0.082231626 0.83833337 0.447989583 0.4280854464 0.7848873734
-0.10481859 -0.063487247 0.84713805 0.2708736062 0.5413911343 0.7959416509
-0.071968921 0.027189964 0.84200007 -0.533536315 -0.7353489399 0.417852819
0.0062917639 -0.10540289 0.89725018 -0.2164438963 0.004809035454 0.9762831926
-0.02504342 -0.1242787 0.82576931 -0.697363615 -0.1300108284 0.7048270702
-0.046525698 -0.075802051 0.82742864 0.4585775733 0.06204258651 0.8864859343
-0.085119195 -0.014817999 0.81830442 0.1649495959 0.1808787286 0.9695743918
-0.13439532 0.036586661 0.81306458 -0.03479000181 -0.5603999496 0.8274911046
-0.031827737 -0.021746418 0.82140005 -0.2513127029 -0.3639833331 0.8968601227
0.10133317 -0.095494993 0.88800001 -0.7685842514 -0.2321940362 0.596124351
-0.13841689 -0.02986891 0.83100003 0.2217030525 0.5751237273 0.7874518633
0.034780446 -0.1441824 0.89606065 -0.2048575431 -0.3585319817 0.9107624292
-0.045134332 -0.084419109 0.82520521 0.5981426835 -0.2253497839 0.7690532207
-0.16115324 0.0214871 0.81700003 0.4992226362 -0.09632614255 0.8611028194
-0.098364629 0.030873571 0.81900007 -0.3731390834 -0.6060842276 0.7024451494
0.0051391232 -0.043991491 0.82352924 -0.2623811662 -0.6114778519 0.7464924455
0.026862333 -0.16175717 0.84855562 0.3088039458 -0.2970821857 0.9035387635
-0.14219928 0.030851215 0.80900002 0.2368225753 -0.3532544971 0.9050559998
0.074849971 -0.095851876 0.8364054 -0.5546633005 -0.5530281663 0.6216980815
0.034609098 -0.15463056 0.84465945 0.413189292 -0.307127893 0.8572905064
-0.15202521 -0.033170629 0.84500015 0.3495409191 0.554374516 0.7553079128
-0.052437037 -0.0021603988 0.82188892 -0.3740814328 -0.5429353714 0.7518538833
0.03527724 -0.13447979 0.90220022 -0.1910143197 -0.2371190488 0.9525167346
-0.034152105 -0.12208489 0.8327778 0.2227611691 0.7090444565 0.6690541506
-0.015650742 -0.11377702 0.84700012 -0.625630796 0.192271024 0.7560542226
0.074842714 -0.15470378 0.82727438 0.1689801067 0.1105850041 0.9793961048
0.024889108 -0.11197068 0.898 -0.06941377372 0.07876895368 0.9944733381
-0.14515835 0.014869428 0.80769348 0.3084320128 0.01069424022 0.9511862993
-0.067322128 0.0031587179 0.81870019 -0.2857518494 -0.4217144251 0.8605247736
-0.048810169 -0.093977787 0.83100003 0.7261672616 -0.0807826966 0.6827556491
0.044404816 -0.15185434 0.89423531 -0.09931893647 -0.3885732293 0.9160494208
0.025325084 -0.085725546 0.89478588 -0.01363679767 0.2407151759 0.9704999924
0.0048741875 -0.13534397 0.85513633 -0.4972670078 -0.3878065646 0.7761002183
-0.12417688 -0.047548529 0.84117377 0.1468178332 0.5148667097 0.8446045518
0.096242905 -0.094357602 0.88191307 -0.727894783 -0.3143399358 0.6093928218
0.027908975 -0.13164611 0.90100002 -0.2277653962 -0.2197239548 0.9486012459
-0.0046767313 -0.094578989 0.82793009 -0.4656114876 0.5971846581 0.6531282067
-0.095852621 -0.076355331 0.85249996 0.3545232713 0.5545601249 0.7528454661
-0.14833026 0.02810155 0.81150007 0.3004816473 -0.3121146262 0.9012742043
-0.036205862 -0.074936464 0.83238471 0.07208701968 0.03094751388 0.9969180822
-0.076069899 -0.046639618 0.83233339 0.2763862908 0.3584209085 0.8917090893
0.030873571 -0.058875181 0.81900007 -0.4608280659 -0.5292591453 0.7124059796
-0.063976854 0.016155504 0.8350001 -0.5651213527 -0.6879933476 0.4553054571
0.035965115 -0.14838251 0.84792316 0.4380096793 -0.2960122824 0.848837018
0.065261081 -0.085054502 0.83638108 -0.4968690276 -0.2710826695 0.8244000077
-0.07424017 -0.031735159 0.81900012 0.2403701246 0.3036771119 0.9219557643
-0.085622661 -0.044287171 0.82725 0.2596918941 0.3464473486 0.9014068842
-0.12019713 -0.0093566636 0.82100004 -0.1172876954 0.4471925497 0.8867143989
-0.076351531 0.012278637 0.81878966 -0.3402233124 -0.4158851802 0.8433786631
0.098422319 -0.12454803 0.88680011 0.3981294632 0.1261558831 0.9086130261
0.087758154 -0.094595514 0.87205285 -0.690000236 -0.3585009575 0.6287898421
-0.06626083 -0.096321777 0.85303342 0.5123925805 0.3729370832 0.7735449076
0.09315446 -0.10496658 0.87565225 -0.7685842514 -0.2321940362 0.596124351
0.044602498 -0.14592889 0.89673686 -0.09931893647 -0.3885732293 0.9160494208
-0.011892859 -0.055842936 0.7980001 0.002318537328 -0.5129948854 0.8583885431
-0.011710389 -0.12671027 0.84242862 -0.7595514655 -0.2178026885 0.6128976345
-0.12661415 0.014984182 0.80761087 -0.1598309577 0.075632222 0.9842427969
0.014635108 -0.11722801 0.90132022 -0.1784658134 -0.07538305223 0.9810541868
0.038309015 -0.10860804 0.90100002 -0.03447544202 0.1889852136 0.9813745618
