# .PCD v0.7 - Point Cloud Data file format
VERSION 0.7
FIELDS x y z normal_x normal_y normal_z
SIZE 4 4 4 4 4 4
TYPE F F F F F F
COUNT 1 1 1 1 1 1
WIDTH 512
HEIGHT 1
VIEWPOINT 0 0 0 1 0 0 0
POINTS 512
DATA ascii
-0.18521227 0.0046678791 0.78673065 0.09035085887 -0.01773406379 0.9957520962
0.061352056 -0.0057786945 0.82333344 -0.7345910072 -0.2235042751 0.6406418085
-0.06485381 -0.072759524 0.78126937 -0.2061628401 0.07456829399 0.9756723046
-0.042878643 0.021802701 0.82900006 0.206357494 0.3669752181 0.9070533514
-0.10202149 0.0021247477 0.72733337 -0.17479527 0.7055953741 0.6867181063
0.023208415 -0.063680947 0.76523995 0.5671628118 0.2266955227 0.7917925715
-0.14425439 -0.064556934 0.82256508 0.1231097877 0.7157648206 0.6874042749
-0.0090930788 -0.051363606 0.84100002 0.04155266657 -0.3844897449 0.9221935868
-0.25107732 -0.022267334 0.80000007 0.175797686 0.2263206691 0.9580574632
0.0045740185 0.0044293469 0.77502239 -0.2454685122 -0.7931768894 0.557328999
-0.12785499 0.027061474 0.81660002 -0.07221835107 -0.9151988626 0.3964789808
-0.20548986 -0.055860531 0.82281232 -0.0202201698 0.5729571581 0.8193358779
-0.054860476 0.011608329 0.76800019 0.1237592325 -0.5111650229 0.8505256772
-0.10698736 -0.027903993 0.79458821 0.1797961891 0.5211018324 0.8343417645
0.014969083 0.033042569 0.82442862 -0.08092463762 -0.7851656675 0.6139756441
-0.2217809 0.031414475 0.81433338 0.1741936058 -0.7241235971 0.6673092246
-0.053183932 -0.025116136 0.84258348 0.03070755675 0.09698686004 0.9948118329
-0.012000487 -0.073025398 0.79800004 0.4105664492 -0.5601161122 0.7195172906
-0.099150121 -0.04136727 0.74900001 -0.4588504136 0.4966998398 0.7367126942
-0.16150172 -0.030762672 0.79750007 0.1991000623 0.5394546986 0.8181368113
-0.17448656 0.035530072 0.81593341 -0.009720817208 -0.8409409523 0.5410395861
-0.09199477 0.02005901 0.78900003 0.1873908192 -0.5556978583 0.8099904656
-0.0060939165 -0.008170275 0.83829409 -0.03353441507 0.2357696444 0.9712302089
-0.13515188 0.0051309695 0.78022748 0.09099023789 -0.3399381042 0.9360356927
0.042498291 -0.026930448 0.76257145 -0.1163577214 -0.2086006552 0.9710543752
-0.05723669 -0.032495987 0.7754001 0.06529219449 0.5214673877 0.8507694602
-0.20469785 -0.024758529 0.80143124 -0.08826556802 0.4894751906 0.867538631
-0.10149433 -0.066753782 0.77700007 0.4265081882 0.65558213 0.6231395006
0.034981031 -0.0045595784 0.79736018 -0.7423904538 -0.4507136643 0.4956951141
-0.04795235 -0.061598983 0.84150004 -0.2128952891 -0.7990935445 0.5622500777
-0.108946 -0.075035647 0.82300001 0.4907290041 0.6617534161 0.5668045878
-0.084556885 -0.01086461 0.7616365 0.2480490804 -0.6395586133 0.7276238203
-0.22531593 0.0048035476 0.7918334 0.2019269466 -0.3219013512 0.9249892235
-0.066230707 -0.058395937 0.81233335 -0.3541809022 -0.2810274363 0.8919526339
-0.010620818 0.017702529 0.80766672 0.09053274989 -0.8982064724 0.4301499724
-0.025146846 -0.0012908579 0.76584619 -0.2282333225 -0.5498725176 0.8034611344
0.04482317 0.023464819 0.82280952 -0.4499442577 -0.551175952 0.7026771903
-0.1751224 -0.052833505 0.81748009 0.1060576439 0.5930562615 0.7981453538
0.021279329 -0.047695048 0.83700001 0.2968312502 -0.1042265519 0.9492249489
0.0103885 -0.051942497 0.79000002 0.7674670815 -0.05796401575 0.6384626031
-0.15517192 0.021535525 0.79476202 -0.04110584781 -0.7790808082 0.62557441
-0.1350383 -0.045186281 0.80228561 0.1893167049 0.6196425557 0.7617101073
0.016160596 -0.016159745 0.75648564 -0.09153415263 -0.4147165418 0.9053351283
-0.083283216 -0.044266641 0.79386675 -0.3340065479 0.4724052548 0.8156426549
-0.034831431 -0.0057537309 0.83519012 8.611630619e-05 0.2952181399 0.955429852
-0.0275489 -0.058989324 0.82260007 0.1038512886 -0.9472512603 0.3031995296
-0.22456519 -0.043468844 0.8080768 -0.09237764031 0.5673161149 0.818302393
-0.20446265 0.021634471 0.796 0.1684901267 -0.6559726 0.7357383966
-0.058568057 -0.011713143 0.75633341 -0.4219512641 0.3346690834 0.8425875306
-0.084719189 -0.081432439 0.79585731 0.07867510617 -0.974727869 0.2090832889
0.014970764 0.015963297 0.80281073 -0.2410292923 -0.7624214888 0.6005150676
-0.10661449 -0.0053245542 0.7743032 0.220826149 -0.4289056659 0.8759427667
0.048317485 -0.050965015 0.75500005 0.2326677889 0.194071129 0.9529963732
-0.11339036 -0.023715843 0.73811781 -0.4344342053 0.4749357402 0.765312314
-0.085501939 -0.014116365 0.73684216 -0.2597385645 0.7488560081 0.6097134948
-0.045807518 -0.067129545 0.79638481 -0.469180584 -0.7280887365 0.4997563362
-0.084269583 -0.050561745 0.76900005 -0.4893709421 0.3868743777 0.7815653086
-0.13477941 -0.025192106 0.78738296 0.218880102 0.5226357579 0.8239802122
-0.11673497 0.020437513 0.79025 0.07765790075 -0.7678058743 0.6359586716
-0.11244273 -0.051342566 0.79500008 0.6539414525 0.442522496 0.6136240363
0.031496756 -0.0076521733 0.77385718 -0.554454565 -0.7118507028 0.4311017692
0.012336116 -0.026320837 0.84300011 0.08223382384 -0.01936013997 0.996424973
-0.25084355 0.0011688889 0.80000001 0.2966010869 -0.1842300594 0.9370629787
-0.078660235 0.0088153221 0.77350008 0.2578916848 -0.6029703021 0.7549296021
-0.0590172 -0.048604153 0.79200006 0.5036032796 0.6577747464 0.5601036549
-0.18477325 -0.034564793 0.80681396 0.08579945564 0.5200638175 0.8498070836
-0.024521245 -0.034889661 0.84445816 0.0141386278 -0.001556790899 0.9998988509
0.019398004 -0.041472469 0.76300001 0.218087703 0.2986831963 0.9290996194
-0.15532835 -0.004620696 0.78235584 0.2348269075 0.1311885118 0.9631437659
-0.20533718 -0.0049476866 0.79141688 0.04582601786 0.2478138357 0.9677232504
0.046060633 -0.022604894 0.80325013 -0.7962902188 -0.2152117789 0.5653368831
-0.17510349 -0.014912332 0.79142237 0.204803586 0.4626829326 0.8625427485
-0.080974087 -0.027600488 0.78055567 -0.5749801993 0.5905947089 0.5662117004
-0.22532089 -0.02333444 0.79609525 -0.0376328975 0.4113692641 0.9106915593
-0.10127223 -0.022382177 0.75833338 0.6393832564 -0.4687241018 0.6094971299
-0.012178303 0.014914906 0.78039998 -0.2220439315 -0.8408794999 0.4935769439
-0.19483237 0.03436387 0.81508344 0.09569511563 -0.8228139877 0.5601960421
0.055489823 -0.02522566 0.82203442 -0.8245034218 0.1545577347 0.5443399549
-0.01082245 0.031024357 0.82300001 0.1987374574 -0.8090254068 0.5531557202
0.0061859353 -0.070882879 0.78500003 0.6550579667 -0.4118337333 0.6334761381
-0.17519183 0.022120126 0.79458356 0.02346881665 -0.7312677503 0.6816866398
-0.15481408 0.033557583 0.81429034 -0.1291760504 -0.8676528931 0.4800958633
0.045816533 0.0058047012 0.81393337 -0.6314693689 -0.3148385584 0.7086064816
-0.12571074 -0.062785707 0.81716001 0.142552495 0.7234918475 0.6754541397
-0.13527024 0.020186126 0.79399997 0.0419966951 -0.8480322957 0.528277874
-0.1517738 -0.050354857 0.80900002 0.1791383177 0.6352365017 0.7512549758
-0.034006886 0.013871498 0.7723549 -0.1697534323 -0.6306378841 0.7572844028
-0.12823503 -0.011571249 0.77628577 0.2368706018 0.2361786664 0.9423969388
-0.03156 -0.077848002 0.80000001 -0.04478308931 -0.822355628 0.5672086477
-0.23529971 0.016081544 0.80196768 0.2776776254 -0.5617377162 0.7793239951
0.022374446 0.0021966079 0.78636378 -0.4136330783 -0.7829800844 0.4645964205
-0.084777832 -0.031096024 0.74675 -0.4727493227 0.527798295 0.7056465149
-0.085291393 -0.064995535 0.78352183 -0.04110493511 0.6068032384 0.7937885523
-0.0051877378 -0.034838755 0.84544909 0.02757485397 -0.03655264527 0.9989511967
-0.20602937 -0.040425729 0.80900002 -0.09693555534 0.5405697823 0.835695982
-0.044964351 -0.045254599 0.84626096 0.02351055108 -0.1425007284 0.9895154238
-0.026734469 0.025668442 0.82418507 0.267611742 0.3763432205 0.8869891167
-0.025374806 -0.0184347 0.8411175 -0.02048956603 0.2546693981 0.9668110609
-0.021458754 -0.059190486 0.80699998 0.1827756017 -0.8817714453 0.4348243475
-0.045246519 0.0013307803 0.75899994 -0.04794980586 -0.3969573379 0.9165837169
-0.067705512 -0.057515915 0.77525008 -0.5441665649 0.1470514834 0.8259894848
-0.051282078 -0.008059781 0.83566666 -0.005269038957 0.2799234986 0.9600078464
-0.1091038 -0.021685228 0.77300006 0.7059211135 0.2477231026 0.6635575294
0.032798544 0.012695747 0.80678958 -0.4489039183 -0.5680859089 0.6897562742
0.025065945 0.025069544 0.8144359 -0.252168268 -0.7154424191 0.6515775323
-0.092050761 -0.03669136 0.76273334 -0.7314651012 0.2931858301 0.6156304479
-0.16520829 -0.062847197 0.82482606 0.1248165369 0.6298704147 0.766605556
-0.11554401 0.0063569918 0.78014725 0.06910149753 -0.449421972 0.890642941
-0.21951734 0.018936001 0.80000001 0.1790441126 -0.6711769104 0.7193502188
0.0047584889 0.026889125 0.81413347 0.0376550816 -0.7905400991 0.6112515926
-0.0966525 -0.0098625002 0.75000006 0.3279615939 -0.9446871281 -0.002717306372
-0.0652164 -0.018966975 0.77577782 0.1129876077 0.6447795033 0.7559716702
0.03205594 -0.050806586 0.764 0.3468207717 0.2253269106 0.9104631543
-0.034088109 -0.056365784 0.83648401 0.04625813663 -0.8018306494 0.5957581401
-0.093518808 0.0052807112 0.77649999 0.2451870143 -0.538820684 0.8059501052
0.005877174 -0.049240906 0.83833337 0.08878743649 -0.2030583024 0.9751328826
-0.0061340365 -0.059592672 0.80242866 0.3906908631 -0.7885107994 0.4749856293
0.015719024 -0.05461828 0.77481484 0.7352243662 0.0542050004 0.6756529808
-0.15493856 -0.02005901 0.78900003 0.2335511446 0.4834139347 0.8436615467
-0.068271004 -0.0011119056 0.76099998 0.1679775417 -0.467197448 0.868049562
-0.14693737 -0.035948429 0.80166668 0.1973604113 0.5719565749 0.79618752
0.014294304 -0.0055087768 0.76697803 -0.2165717781 -0.7533240318 0.6209666133
-0.12530567 -0.035749644 0.79223543 0.1478781253 0.4899950325 0.8590907454
-0.18425611 -0.061708294 0.8251999 0.06661781669 0.5884199739 0.8058063984
-0.14487797 0.025012506 0.80493742 -0.08316957951 -0.887781322 0.4526888132
-0.2347766 -0.034493666 0.8021701 0.02649702132 0.479707092 0.8770285249
0.01037535 0.01037535 0.78900003 -0.3283795118 -0.8163567185 0.4751091003
-0.11384266 -0.0058845053 0.73090923 -0.2818849087 0.6879197955 0.668810308
-0.16515389 0.014234838 0.78700018 0.08867348731 -0.4290017188 0.8989408016
-0.048985504 -0.039326388 0.78700006 0.2223002911 0.5756301284 0.7869132757
-0.19450645 -0.013224256 0.79623526 0.06630492955 0.4495697021 0.8907809854
-0.077268228 -0.020912593 0.75333339 -0.4521095753 0.4436281919 0.7738158107
-0.10815173 -0.062312588 0.81700003 0.4718293846 0.6574585438 0.5874736309
-0.20831616 0.029150045 0.81100005 0.1490526199 -0.7751228809 0.613977015
-0.12170588 -0.072105542 0.82800007 0.1486695558 0.7270596623 0.6702847481
-0.23521654 -0.01457231 0.79146951 0.1944654882 0.1343875974 0.971660018
-0.054115355 -0.062011901 0.80636364 -0.4926050603 -0.8682612181 0.05884505063
-0.16375227 -0.043406148 0.8078571 0.1882069558 0.583022058 0.7903565168
-0.10526272 0.014537449 0.7843402 0.133629024 -0.5303884745 0.837156713
-0.089605726 -0.0037379812 0.72785717 -0.2159650177 0.5998613834 0.7704060078
-0.21472855 -0.014748353 0.79349023 -0.09137367457 0.372297734 0.9236044884
-0.14468406 0.013982555 0.78454548 0.04412740469 -0.6247063875 0.7796118855
-0.16481285 0.027497025 0.80239147 -0.04552190378 -0.7974911332 0.6016108394
-0.12554145 -0.053500608 0.80712122 0.1902851015 0.7100192308 0.6779854298
-0.10110246 -0.053604659 0.77400005 0.7078852057 0.2180964649 0.6718128324
-0.18487725 0.027309161 0.80240917 0.05977249146 -0.7761560082 0.6277014613
-0.034336861 -0.064521097 0.80267507 -0.1787574887 -0.7352424264 0.6538075805
-0.14474183 -0.014362777 0.78276002 0.2126680464 0.3858163059 0.8977293968
-0.17534669 -0.027203886 0.80122739 0.2063514739 0.5408252478 0.8154306412
-0.0043815798 -0.060611855 0.83300006 0.1173367053 -0.9113955498 0.3944492638
-0.073201194 -0.052262422 0.79626667 -0.8002442718 0.1609830409 0.5776621699
-0.20385091 0.010770602 0.78900003 0.1146670952 -0.3328800201 0.9359713197
0.02717988 -0.011582666 0.76233339 -0.3439038396 -0.5413264632 0.767265141
0.025143281 -0.025142135 0.75467211 0.05976134166 0.0006932652905 0.9982124567
-0.18514411 -0.045152038 0.81404364 0.0576865226 0.5467091203 0.8353331089
-0.014634144 0.004899078 0.77283001 -0.2482917309 -0.6651083231 0.7042599916
-0.09475138 -0.072221778 0.78773671 0.4401615858 0.7130622864 0.5457105041
0.048418649 -0.014098728 0.81219995 -0.7320007086 -0.2188769132 0.645188272
-0.065447859 0.014392783 0.77403462 0.1964458376 -0.6527494192 0.7316606045
-0.021629119 0.018301293 0.81333345 0.4692428112 -0.7780885696 0.4175995588
0.04847572 -0.03884773 0.75750005 0.2339238673 0.06073957682 0.9703557491
-0.19500037 -0.052177049 0.81777787 0.01698601805 0.5684679747 0.8225300312
0.0041671726 -0.017348608 0.84207147 0.002674567979 0.09139704704 0.995810926
-0.10237012 -0.048418298 0.78900003 0.5025803447 -0.1986168772 0.8414061666
-0.2318269 0.025151858 0.81200004 0.270958066 -0.6610464454 0.6997137666
-0.015517958 -0.025128944 0.84299988 -0.03583659604 0.1781302392 0.9833541512
-0.024336485 -0.051255852 0.84125006 0.07286932319 -0.2988829911 0.9515035748
-0.077705979 -0.07161139 0.79000002 -0.1907980144 0.2411336303 0.9515517354
-0.25184879 -0.0104937 0.79800004 0.2257501334 0.03245070949 0.9736446142
-0.0045184274 -0.0029376799 0.77316689 -0.2019402981 -0.7351769805 0.6470972896
-0.16417934 -0.011955366 0.7881999 0.1922258288 0.3673045039 0.910020113
-0.065881215 -0.017291082 0.74900001 -0.5642371774 0.3888378441 0.7283141613
-0.04497388 -0.016220083 0.84099972 -0.006315593142 0.2385659069 0.9711057544
-0.14545022 -0.025080003 0.79342109 0.2094247788 0.5608976483 0.8009588718
-0.034706939 -0.025109487 0.84233332 -0.005800523795 0.2086068839 0.9779824018
-0.091294944 -0.004134485 0.76814288 0.3440437019 -0.6079949737 0.7155250311
-0.21474802 -0.04722761 0.81276011 -0.09104181826 0.5658370852 0.8194753528
-0.13511012 -0.057546545 0.81309104 0.1219257265 0.7071998119 0.696421206
-0.1249918 0.014183559 0.78524482 0.06632532179 -0.5850433111 0.8082854152
-0.21469693 -0.034506507 0.80441177 -0.1358980983 0.5064596534 0.8514871597
-0.17517816 -0.040425729 0.80900002 0.1387613565 0.5688468218 0.8106532097
-0.034513447 0.0049516661 0.76398051 -0.180617258 -0.454211086 0.8723930717
-0.13845809 0.030848438 0.81833339 -0.09943342954 -0.9076117873 0.4078649282
-0.18511517 0.018027022 0.79085714 0.0912059173 -0.5593525767 0.8238969445
-0.074196152 -0.041310985 0.78800005 -0.3126475811 0.5170253515 0.796828866
0.056643795 0.004030562 0.82099998 -0.6736962795 -0.2749776542 0.685945034
-0.19507417 -0.0021340735 0.78821731 0.08719406277 0.2316595167 0.9688813686
-0.065502122 -0.037259281 0.78100014 -0.03798627481 0.3960508704 0.9174425006
-0.21373221 0.0057995548 0.78899997 0.1398402303 -0.1854296476 0.9726564288
-0.084815688 0.015218334 0.7821877 0.2354552895 -0.5764243603 0.7824932933
0.034983143 -0.034977052 0.76272148 0.2116163075 0.1840550303 0.9598657489
-0.055163715 -0.073695354 0.78638464 -0.3412682712 -0.736717999 0.5837658048
-0.19503641 -0.040425729 0.80900002 -0.009855900891 0.5097302794 0.8602777719
-0.056140412 -0.015523408 0.76633346 -0.3138289154 0.6127369404 0.7253032923
0.012145795 -0.064817369 0.77466685 0.7718595862 0.006768628955 0.6357570291
-0.01595174 -0.012571839 0.83859998 -0.033390183 0.2737950087 0.9612082839
-0.17478694 -0.004980979 0.78725523 0.1780904084 0.2280257493 0.9572293758
-0.18295878 -0.021036495 0.79688883 0.1736938208 0.5234646797 0.8341553807
0.042669997 -0.0050599282 0.80473918 -0.7055517435 -0.256452024 0.6606277823
0.025269663 0.031240767 0.8232857 -0.1867538095 -0.7452017665 0.6401541233
-0.10451069 -0.064348496 0.76723814 0.8539982438 0.398691684 0.3342633247
-0.045203142 -0.034830086 0.84528559 0.02482020296 0.03514800593 0.999073863
0.0023125003 -0.064538307 0.79233336 0.6441147327 -0.3814996481 0.6630039215
0.056941964 -0.014980023 0.82119054 -0.7381638288 -0.1965569705 0.6453522444
0.0051856623 -0.034829661 0.84528583 0.112556763 -0.04340985045 0.9926965833
0.0061828233 -0.011965754 0.76695007 -0.1422403306 -0.6939573884 0.7058263421
-0.034800105 -0.045161486 0.84455127 0.04157340154 -0.1844730675 0.9819579124
-0.15479909 0.013707495 0.78631711 0.1028563827 -0.4393112361 0.8924271464
-0.19509502 0.026918335 0.80266672 0.1119510531 -0.7671691775 0.6315999031
-0.1650352 -0.05284185 0.81580001 0.1684722453 0.6112254858 0.7733178139
0.038917102 -0.013933739 0.79746681 -0.7860124111 -0.3906455636 0.4791456461
-0.15491773 0.026523992 0.80531251 -0.1368798614 -0.8524435163 0.5045829415
-0.024001598 0.0084517244 0.77124995 -0.224163577 -0.5893791914 0.7761332393
0.0049283067 0.016897563 0.80300009 -0.03082619421 -0.8299179673 0.5570331812
0.036003947 0.028268619 0.82371432 -0.346496433 -0.6554795504 0.6710340977
0.018284386 -0.032306042 0.7564286 0.1371952444 0.1916596144 0.9718251228
-0.17526665 0.0049973815 0.78521729 0.103737995 -0.05535044521 0.9930633307
-0.10383349 -0.016510775 0.76616669 0.489991039 -0.4366839528 0.7544639707
-0.127312 0.023610307 0.80718189 -0.007218919694 -0.8884186745 0.4589773118
-0.12032951 -0.012868151 0.73400003 -0.30175668 0.7320136428 0.6108182669
-0.0051732082 -0.025127027 0.84300011 -0.0009640039643 0.09371183813 0.9955989122
-0.0051393313 0.025512498 0.81474215 0.1241137534 -0.8000998497 0.586886704
-0.15528235 -0.062111393 0.82383329 0.134407267 0.6725452542 0.7277482748
-0.18712275 -0.0076264599 0.79076922 0.1704397351 0.4007323682 0.9002021551
-0.024888568 -0.0065881503 0.83499974 -0.0304893814 0.3130197227 0.9492570758
-0.083591133 -0.035430931 0.78614295 -0.551232934 0.607270062 0.5721585155
-0.14496906 -0.0047868034 0.78001779 0.248454228 0.1079863533 0.962605536
0.015262004 0.026777895 0.81403226 -0.09867081791 -0.7697163224 0.6307145357
-0.19502516 0.017209448 0.79090917 0.1259764582 -0.4223660529 0.8976284862
0.052413274 0.012804154 0.81900018 -0.6080829501 -0.3786474466 0.6977543831
-0.22491427 -0.034564774 0.80324072 -0.07724282891 0.505269587 0.8594976664
-0.14499967 -0.057038344 0.81284028 0.1653004736 0.646089375 0.7451471686
-0.10541741 -0.034194164 0.74637502 -0.6724793315 0.1507739276 0.7245956063
-0.11543786 -0.035782702 0.79217672 0.2728031576 0.5191764832 0.8099594116
-0.1348422 0.014455423 0.78476936 0.07999145985 -0.6241600513 0.7771908641
-0.17509685 0.031685084 0.80689478 -0.0006900861626 -0.8165689111 0.57724756
-0.16498032 0.022281416 0.79406673 -0.009265945293 -0.7580367327 0.6521460414
-0.034778129 -0.034781065 0.84406108 0.001209160662 0.01551896613 0.9998788238
-0.11517823 -0.059011068 0.81100005 0.2702616751 0.7232747078 0.6354780197
-0.22500069 -0.0049867718 0.79151863 0.1477266699 0.01896896213 0.988846302
-0.19522552 -0.02467199 0.80393904 0.00205810694 0.5071049333 0.8618818521
-0.045108255 0.01186358 0.76708001 -0.04405394942 -0.5670843124 0.8224807382
-0.24555258 -0.030081939 0.79800004 0.1337248832 0.3201821446 0.9378705025
-0.23492661 -0.0048507568 0.79049003 0.2500978708 -0.04320403188 0.9672561288
-0.20526633 -0.014237238 0.79588014 -0.03098083474 0.3979087174 0.9169017673
-0.031282976 -0.060433015 0.81100005 -0.02747994103 -0.9144985676 0.4036548734
-0.16556656 0.0048963949 0.78416008 0.129554674 -0.08961477131 0.9875144362
-0.014959948 -0.034773108 0.84634888 0.009840635583 -0.02085896954 0.9997339845
-0.015065674 -0.045398507 0.8458637 0.004001047928 -0.1900691837 0.9817625284
-0.13468197 -0.03523564 0.79475015 0.2310438156 0.5576064587 0.7973040938
-0.1141946 -0.003419 0.78000003 0.137701571 -0.3363993764 0.9315974116
-0.078921042 -0.0228284 0.74400002 -0.4792440534 0.6361390948 0.6046918035
-0.23483759 -0.024423897 0.79479176 0.1092708409 0.3075643778 0.9452322721
0.021007564 -0.046758771 0.77300006 0.5138871074 0.2898698151 0.807400465
-0.13543922 -0.01609388 0.78100008 0.1870014668 0.3826154768 0.9047849774
-0.014871417 -0.065163724 0.8033269 0.3357490003 -0.6443812251 0.6870556474
-0.17469804 -0.06280449 0.82344443 0.1068219692 0.5893515348 0.8007832766
-0.14499913 0.0047884476 0.78017849 0.145154953 -0.3063831627 0.9407759309
-0.12415048 0.0031892564 0.77741945 0.09357058257 -0.3576454818 0.9291577935
-0.23482493 0.0049336064 0.79284453 0.283382982 -0.3004645109 0.9107223153
-0.095257647 -0.057950225 0.78018183 0.2083277106 0.527782917 0.8234347105
0.053962301 -0.0044313553 0.81744456 -0.7271476984 -0.2102176845 0.6535019279
-0.119928 -0.048392002 0.80000001 0.2885106206 0.5528517962 0.7817394137
-0.14578383 0.020811189 0.79566669 -0.04162231088 -0.8385493159 0.5432334542
-0.21478687 -0.004886467 0.79108357 -0.008820164017 0.2309238613 0.9729318619
0.020987399 0.0104937 0.79800004 -0.4310674071 -0.7030530572 0.5655946732
-0.064358011 -0.054737516 0.80383331 -0.2451592237 0.3796550632 0.8920532465
-0.22408871 0.023994463 0.80679989 0.2160204053 -0.6942206621 0.6865805387
-0.24474271 -0.0053011538 0.79472226 0.2455114424 -0.04761213437 0.9682237506
-0.073811039 -0.0082449643 0.75849992 -0.2116583288 -0.6026724577 0.7694066763
0.013627491 0.0024339189 0.77383327 -0.2821357548 -0.7967879772 0.5343484879
-0.15554567 0.0047149328 0.78204173 0.2073291987 -0.1305655986 0.9695190787
-0.1651857 0.036093764 0.81544447 -0.09449831396 -0.8636133671 0.495219171
-0.22521201 -0.014599157 0.79289287 0.01165506151 0.284342289 0.9586519599
-0.081914499 0.0017519307 0.76840001 0.1890299022 -0.5548437834 0.8101950884
-0.014821021 0.024192626 0.81521052 0.1912020594 -0.8707110286 0.4531049728
-0.21487679 0.014519193 0.79345471 0.1848267168 -0.5136172771 0.8378761411
-0.17448033 0.013844582 0.78745008 0.08563843369 -0.3930060565 0.9155393243
-0.087436177 -0.024573494 0.75259995 0.448074013 -0.334079951 0.8292286992
0.005865192 0.032513522 0.82411116 0.009672372602 -0.7844739556 0.6200863123
-0.18581632 0.035091743 0.81460011 0.05351695046 -0.8389875889 0.5415124893
-0.052552953 -0.040710937 0.84433335 0.03528532013 -0.003318895819 0.999371767
0.014538076 -0.035086509 0.84325653 0.0793806389 -0.05959305167 0.9950615168
-0.07093285 -0.030692101 0.77800006 -0.1128266528 0.6028471589 0.7898388505
-0.10732913 0.0039777285 0.77733326 0.169781968 -0.4657888114 0.8684554696
-0.22436219 0.01296923 0.79513359 0.1950642914 -0.526599288 0.8274316192
0.015306291 -0.043804038 0.84229738 0.085385032 -0.08649615198 0.9925864339
-0.14539374 -0.04444015 0.80297929 0.2026212513 0.5901858807 0.7814251184
-0.19291839 -0.061416633 0.82420003 0.03586242348 0.5677264929 0.8224357367
-0.13592976 0.022868864 0.80808008 -0.05211753026 -0.9076420069 0.4164969921
-0.014736497 -0.056796052 0.83723074 0.07900990546 -0.7935410142 0.6033656597
-0.24261884 0.0036566276 0.7964707 0.3179061115 -0.245383516 0.9158180356
-0.096060328 -0.035151239 0.75522506 -0.2940217257 0.551733911 0.780474782
-0.093463182 -0.043735992 0.76747829 -0.821834445 0.3709577024 0.432410121
0.042133912 -0.043134626 0.76137507 0.2326677889 0.194071129 0.9529963732
-0.0045723175 -0.016791547 0.84111404 -0.02169383317 0.2035682201 0.9788203835
-0.23405978 -0.04157874 0.806889 0.003473351477 0.5322450995 0.8465831876
-0.05580483 -0.037780914 0.78210002 0.06869790703 0.525605917 0.8479498625
0.047345262 -0.0047697676 0.81209993 -0.727435112 -0.2106547356 0.6530411243
0.024680639 0.014813893 0.80428892 -0.363129437 -0.6729900241 0.6443768144
-0.24460857 -0.014013885 0.7953549 0.2014838606 0.09411811084 0.9749594927
0.014320599 -0.051954396 0.83471435 0.1270689219 -0.5226656199 0.8430148959
-0.094853334 0.014610003 0.78317785 0.1995677203 -0.5312390924 0.8233819008
0.02431445 -0.0034702362 0.77522224 -0.3564026058 -0.8038172722 0.4762929976
-0.2154835 -0.022381745 0.79696786 -0.1406710446 0.4446435571 0.8845924139
-0.13656463 -0.0042493283 0.78000015 0.1782657653 0.1095720008 0.9778625965
0.024722299 -0.054878172 0.7646001 0.4389673769 0.3199143112 0.839620471
0.034673557 0.02368072 0.8168065 -0.3702455759 -0.6373058558 0.6758397818
0.041523609 0.0029501291 0.80733341 -0.5962516665 -0.380734086 0.7067711949
-0.02374946 -0.07499788 0.80074984 0.0533115752 -0.7921814919 0.6079525948
-0.14405802 0.028848028 0.81250012 -0.1138898358 -0.8866640329 0.448169589
-0.075560398 -0.05527648 0.77371114 -0.5265593529 0.147924751 0.8371699452
0.0048792078 0.012748805 0.79581827 -0.1794326752 -0.8876074553 0.4242133498
-0.10988403 -0.012851933 0.73300004 -0.2216268778 0.6325970292 0.7420933247
-0.051834088 -0.050450709 0.78833342 0.808463037 0.4591361284 0.368214041
-0.064251766 -0.042919289 0.78685707 0.0921433419 0.5956012011 0.7979779243
-0.061348256 -0.021573013 0.76900005 0.08250609785 0.7351652384 0.6728482842
0.01646854 -0.024194533 0.75475657 -0.0001500713988 -0.1461860836 0.9892570972
-0.18524271 -0.052347381 0.81795257 0.06660916656 0.5627692938 0.8239259124
-0.055214807 0.0050306227 0.76313734 0.09238764644 -0.4221166968 0.9018214941
-0.16485529 -0.024022665 0.79437214 0.1955914497 0.5247469544 0.8284833431
-0.076795004 0.015195147 0.78073341 0.2499538511 -0.6021176577 0.7582726479
-0.0052769547 -0.044954509 0.84427661 0.06915879995 -0.1930081248 0.978756845
-0.035037804 0.023099218 0.8273077 0.2139223367 0.360688895 0.9078220129
-0.045060627 -0.025117256 0.84261906 -0.02944611013 0.1718253642 0.9846872687
-0.13614221 -0.064223215 0.82235998 0.1341727376 0.7207657695 0.6800694466
-0.074484184 0.0045383917 0.76687241 0.2595802546 -0.5802079439 0.7719953656
-0.15499158 -0.035785466 0.8012647 0.2240258157 0.560269773 0.7974398136
-0.21533988 0.023586903 0.80499995 0.1737459898 -0.7107786536 0.681620121
0.043552037 -0.035451878 0.76308089 0.191708684 0.0873978287 0.9775527716
-0.24262986 0.013389007 0.80368441 0.3587897718 -0.468283087 0.8074533343
-0.12313703 -0.043139275 0.79490006 0.2509548366 0.4870444238 0.836546123
0.0048101824 0.010714707 0.7833001 -0.2589088678 -0.8221461773 0.5069929361
-0.11774685 -0.066462733 0.82400006 0.1706963778 0.7424150109 0.647829175
0.025132282 0.0052832048 0.79364717 -0.5338053703 -0.6777163148 0.5057197213
0.04505235 0.01493761 0.81690246 -0.5406250358 -0.4857726693 0.6868402362
-0.035080098 -0.017290322 0.84099972 -0.006273864768 0.2415991724 0.9703558683
0.024263561 -0.015818834 0.75629544 -0.1780121475 -0.3488550782 0.9201151133
-0.1094343 0.00063996669 0.73000002 -0.1908253282 0.7266384363 0.6599865556
-0.0057973969 0.010912746 0.77799994 -0.2523522079 -0.7854482532 0.5651454926
0.012750341 -0.012442834 0.76257676 -0.1618678123 -0.5560736656 0.8152183294
-0.051717974 -0.055168342 0.84411114 -0.3628384471 -0.4848397672 0.7957880497
-0.10894118 0.020404855 0.78900003 0.1217225194 -0.5986995101 0.79167068
-0.071799003 -0.019830199 0.78000003 0.1730066389 0.6049208641 0.7772641182
-0.07496798 -0.035188876 0.78297877 -0.4897597432 0.4381503463 0.7537636757
0.035228539 0.0056803874 0.80358821 -0.5786215663 -0.4882837236 0.653281033
0.017923286 -0.057560127 0.76793754 0.5671628118 0.2266955227 0.7917925715
-0.14322957 -0.03295061 0.79549998 0.206031993 0.5576565266 0.8040958047
0.044528004 -0.014656838 0.80282611 -0.7623475194 -0.2237905711 0.6072430015
-0.12974666 -0.039976001 0.80000001 0.209983781 0.5626894236 0.7995545268
-0.16499929 -0.0048507806 0.78516674 0.1755857766 0.1241167858 0.9766087532
-0.17475358 -0.022066677 0.79543996 0.2182551473 0.5175318718 0.8273605108
-0.15517935 -0.044538144 0.80515546 0.2089191377 0.5856148601 0.783203721
-0.11215137 -0.014612385 0.77388477 0.3913639784 0.1559700221 0.9069220424
-0.00069870334 -0.058690205 0.79700005 0.6073733568 -0.2821098566 0.7426383495
-0.11503032 0.014301475 0.78589362 0.09933145344 -0.6013075709 0.7928193212
-0.15461792 -0.054048367 0.81512511 0.1557784677 0.6291969419 0.7614750862
0.032088395 0.0026059314 0.79727274 -0.6513569355 -0.5355466008 0.5375165343
-0.094410688 -0.024832137 0.75578433 -0.329636991 0.2338323146 0.9146922231
-0.075425245 -0.066482373 0.78478128 -0.1835519969 0.5113189816 0.8395603299
-0.12587175 -0.0039736368 0.77533352 0.1713753939 -0.07058820128 0.9826737642
-0.041363321 0.015596339 0.77350008 -0.07885164768 -0.5797885656 0.8109424114
-0.0949862 -0.065301351 0.7821154 0.127736479 0.6474794745 0.7513013482
0.028439067 0.019196371 0.81100005 -0.3430576622 -0.6632422209 0.6651474833
-0.16533695 -0.034731425 0.80269992 0.1985399127 0.552886188 0.809258163
-0.09127064 -0.015102336 0.74900001 0.594540894 -0.799390018 0.08658334613
-0.088839211 -0.033152685 0.75625008 -0.5089905858 0.4717098176 0.720012784
-0.084964037 -0.055383593 0.77475554 -0.4127916694 0.2823337317 0.8659622669
0.027737733 0.0087780636 0.801 -0.4444469512 -0.6436000466 0.6230938435
-0.12728626 -0.024630338 0.78766656 0.1553053856 0.579279542 0.8001971245
-0.21456696 0.032587856 0.81609118 0.1689364314 -0.7745574117 0.6095255017
-0.044322707 -0.073553517 0.7927779 -0.3295515478 -0.7903491855 0.5164726377
-0.0042999652 0.016438065 0.80380648 -0.0332984291 -0.9028205276 0.4287263453
-0.024552446 -0.065192848 0.80371165 0.0533115752 -0.7921814919 0.6079525948
-0.056728285 -0.066849835 0.78378588 -0.4534057379 -0.2756271362 0.8476160169
0.02784173 -0.0024028337 0.78412497 -0.6497014761 -0.679220438 0.3413907588
-0.064670146 -0.0056458674 0.75625467 -0.04397241771 -0.1487705559 0.9878935814
-0.044115365 -0.0059987148 0.83617932 -0.006336483173 0.285744518 0.9582848549
-0.095226109 -0.048509885 0.77294123 0.8866354227 -0.4620223343 -0.02032293938
0.00073552335 -0.01103285 0.83900005 -0.02143549919 0.1933130026 0.9809029698
0.020770863 0.030798176 0.81700003 -0.1433642805 -0.7602372169 0.6336293221
-0.087449379 -0.071836948 0.78900003 0.03137923405 0.5272724628 0.8491166234
0.0028125779 -0.002814054 0.77205259 -0.2201734334 -0.7828423977 0.5819634795
-0.0032269428 -0.066315793 0.79692322 0.5136067271 -0.4664109051 0.72018677
-0.064985141 0.0046971631 0.76418352 0.2087090462 -0.5046426058 0.8377209306
0.0012473213 -0.07168223 0.79079998 0.6049228907 -0.5101271868 0.6114233732
-0.18545823 -0.025677135 0.80205405 0.1221818104 0.5213801265 0.8445320129
0.019296309 -0.0099808499 0.75900006 -0.2109025568 -0.5270587206 0.8232430816
-0.072573215 -0.07325305 0.78462499 -0.1036541834 0.5183486342 0.8488642573
-0.044576041 -0.062803566 0.80219233 -0.3325318992 -0.8200083375 0.4658420384
-0.055034298 -0.0053002811 0.75633919 -0.06401629746 -0.02847225033 0.9975426197
-0.054404493 -0.044441428 0.78475523 -0.6779853106 0.3464361131 0.6483193636
-0.085368633 0.0055152909 0.77361554 0.2876554728 -0.5710584521 0.7688605785
-0.18468307 -0.014712941 0.79372728 0.1405597031 0.4664565325 0.8733047843
0.014389705 0.021703348 0.80722231 -0.1312653571 -0.7716400623 0.6223672628
0.0051744194 -0.025131904 0.84314293 0.08516803384 0.02028912678 0.9961600304
-0.1418473 -0.021876341 0.78800011 0.2209270149 0.5114201903 0.8304460645
-0.052119788 -0.017411072 0.8409999 -0.01835091598 0.2003332078 0.9795559645
-0.21234922 -0.05358937 0.82233334 -0.07377833873 0.5747933388 0.8149658442
0.03589927 0.016170247 0.81233335 -0.4227942228 -0.5535929203 0.7174816728
-0.23335081 0.011494217 0.79672724 0.272646904 -0.4240781963 0.8636094928
-0.042077564 -0.058417466 0.8387779 -0.07937353104 -0.7427517176 0.6648456454
-0.02539791 -0.055496812 0.83551604 0.1595000178 -0.8782227039 0.4508709311
-0.15005991 -0.061029151 0.81900007 0.145741269 0.6675260663 0.7301838398
0.01498837 0.0061346213 0.78547615 -0.3209381402 -0.8023779988 0.5031781793
-0.086532578 -0.016490413 0.74378574 -0.4816157818 0.7459802032 0.4599562883
-0.13529186 -0.052275512 0.80830753 0.1446416676 0.6649378538 0.7327594757
-0.056285638 -0.025936143 0.77280015 0.18273893 0.7036390305 0.686657548
-0.22641136 0.017558647 0.80112505 0.2233290523 -0.607417047 0.7623441815
0.024827383 -0.037253857 0.76117224 0.1746991724 0.2130097747 0.9613048434
0.039103717 0.0085317194 0.81100005 -0.5519499779 -0.4328803122 0.7127172351
-0.073068164 -0.061878387 0.7768572 -0.3603894413 0.1350519806 0.9229736924
0.0050715981 -0.044484749 0.84351164 0.08878743649 -0.2030583024 0.9751328826
0.03124243 -0.025260493 0.75825 -0.01649602503 -0.09337387979 0.9954944253
-0.19526242 0.0048299506 0.78704089 0.08023262024 -0.005640414078 0.9967601895
-0.0047524627 0.0047580809 0.77469403 -0.2363129258 -0.7163378596 0.6565182805
-0.17508905 -0.045695156 0.8137002 0.1222653165 0.5779514313 0.8068601489
0.03603144 -0.024967726 0.7646001 -0.1265495718 -0.1996460706 0.9716618061
-0.094975352 0.0019120937 0.72709543 -0.275716871 0.67478019 0.6845815778
-0.087720573 -0.0089880256 0.73216671 -0.1994624138 0.6721618772 0.7130309939
-0.082833461 -0.0151892 0.75641662 0.3001829684 -0.6467691064 0.7011275887
-0.12519588 0.02005901 0.78900003 0.07474431396 -0.7382671237 0.6703543663
0.021985924 0.020922089 0.80900002 -0.2583791614 -0.7127560377 0.6520882249
-0.18443587 0.031433865 0.80800009 0.03400526941 -0.8081874847 0.5879426599
-0.024611335 -0.044985548 0.84423423 0.04257991165 -0.2559100688 0.9657623768
-0.071011752 -0.055543847 0.80200005 -0.6653335094 -0.3475988507 0.6606863141
-0.074968658 -0.046201814 0.79336852 -0.5657548308 0.2645611763 0.7809793949
-0.060283981 -0.060283981 0.80900002 -0.317620188 -0.6385512948 0.7009776235
0.034682926 -0.044692803 0.76212728 0.2326677889 0.194071129 0.9529963732
-0.16761868 -0.028754666 0.80000001 0.1874500215 0.5509380698 0.8132218122
0.010257 -0.060858201 0.78000003 0.7683191895 -0.09209732711 0.6334064007
-0.052196734 -0.06675183 0.79384619 -0.4591580033 -0.7800559402 0.4250724912
-0.035970401 -0.052200571 0.84162509 0.03537515551 -0.4070245922 0.9127319455
0.014377334 0.011082661 0.79454553 -0.346589148 -0.8002596498 0.489346981
-0.12891077 -0.017830962 0.78216672 0.2363489121 0.4013212323 0.8849183321
-0.1443615 -0.051877808 0.80840003 0.1625156254 0.6415991187 0.7496261001
-0.06567739 -0.047604837 0.79318184 0.0228575971 0.7372561097 0.6752265692
-0.10848487 -0.027446022 0.74100012 -0.4213978052 0.431992054 0.7973749042
-0.01594981 -0.052426338 0.84230012 0.03925463185 -0.3381326199 0.9402794242
0.041275218 -0.020287819 0.79800004 -0.8025433421 -0.3163838089 0.5057919621
-0.0029420932 -0.049280062 0.83900005 0.02344728075 -0.3006384969 0.9534499049
-0.013726176 -0.0017116142 0.77158821 -0.2243945748 -0.6431213617 0.7321488857
0.0051004463 -0.055864953 0.79157156 0.7198223472 -0.1552138031 0.6765829325
-0.064367823 0.010718048 0.76845461 0.1884798855 -0.5772051811 0.7945498824
-0.21100929 0.020262396 0.79700005 0.1683763713 -0.6690341234 0.7239079475
0.027958654 -0.00069315109 0.79066664 -0.6835817099 -0.5751757026 0.4493205547
-0.20492835 -0.03429867 0.80636722 -0.1051395461 0.4950454235 0.8624823093
0.0053274105 0.021801084 0.80763167 0.03434890509 -0.795290947 0.6052541137
-0.065058731 -0.025378814 0.77368754 0.1233285293 0.7461470366 0.6542589068
-0.20487922 0.02643848 0.80587506 0.1496758163 -0.7552654743 0.6380996704
-0.025099408 -0.025101259 0.84205562 -0.01086829975 0.2039022297 0.9789309502
0.017087113 -0.065397337 0.76746684 0.6606212854 0.173995465 0.7302774191
-0.11465155 -0.045088526 0.7938298 0.3892171085 0.5133876801 0.7648157477
-0.18746084 -0.039103717 0.81100005 0.07422611862 0.5380807519 0.8396187425
-0.15851142 0.030851215 0.80900002 -0.1148130298 -0.8545845747 0.5064614415
-0.23361178 0.021589169 0.80542862 0.2685305774 -0.6145119071 0.7417994738
0.051105171 -0.044322845 0.75462508 0.2511355877 0.1785942167 0.9513332844
-0.0054062852 -0.07296773 0.7967335 0.4256911278 -0.6065782309 0.6714535356
-0.06335941 -0.066332445 0.78004348 -0.3691428304 -0.07290048152 0.9265090823
-0.036416866 -0.068478331 0.79769236 -0.2239063084 -0.7498423457 0.6225771904
-0.077053741 -0.049341429 0.77100003 -0.4297894537 -0.01410287432 0.9028189778
-0.19466685 0.030778306 0.80811119 0.1012593135 -0.7906061411 0.6038944125
-0.085160367 -0.0047766822 0.7656042 0.2887541652 -0.6284950972 0.7222291231
-0.11580089 -0.074182585 0.82570964 0.3557308018 0.7335904241 0.5790515542
-0.13610922 -0.032202013 0.78900003 0.2178685516 0.5666956306 0.7946001291
-0.038592618 0.00133078 0.75900006 -0.1333638132 -0.3810939491 0.9148669243
-0.12605979 -0.046845187 0.80204785 0.2819014788 0.631313622 0.7224781513
-0.1151709 -0.062182847 0.8168335 0.2114217132 0.74947685 0.627363801
-0.19597009 -0.018071167 0.80050009 0.04682317749 0.4923850894 0.8691170812
-0.01445711 -0.059167109 0.80609107 0.2657358944 -0.8684652448 0.418512255
-0.12449821 -0.058336467 0.81150001 0.1656051278 0.7171515226 0.6769554615
0.048942547 0.018353455 0.82100004 -0.521873951 -0.4857673049 0.7011973262
-0.20424628 -0.051400628 0.81811118 -0.03279727697 0.5831739902 0.8116849661
-0.20869356 -0.021324476 0.79750007 -0.09407553077 0.4624765217 0.8816264868
-0.17512508 -0.034626499 0.80595922 0.1692401916 0.5455632806 0.8208035827
-0.23705067 -0.028754666 0.80000001 0.06793304533 0.3950860202 0.9161288738
-0.004332487 0.031049488 0.82366663 0.1396806389 -0.8125115633 0.5659631491
-0.037806749 0.010678926 0.76814288 -0.1282772273 -0.5166655183 0.8465232849
-0.20494884 -0.045260962 0.81321758 -0.07700134069 0.554199636 0.8288145661
0.01108545 -0.01995381 0.84300005 0.04964991659 0.004455532413 0.9987567663
-0.17514308 0.027082203 0.80233335 0.01225819066 -0.779537499 0.6262356043
-0.064260237 -0.032498665 0.7768001 0.1129713058 0.4711346328 0.874796927
-0.075030208 -0.015227683 0.75544894 -0.3223199248 -0.450211525 0.8327181339
-0.051678624 0.0011089833 0.75900006 0.02576184459 -0.3431642056 0.9389220476
-0.0041883145 0.021064786 0.80827278 0.1019470245 -0.8556597233 0.5073985457
-0.022551836 0.023227589 0.81735301 0.3827731609 0.06174101681 0.9217769504
0.024844108 -0.04482403 0.76354164 0.2967017889 0.2893600464 0.9100762606
-0.19475198 -0.03410396 0.80809075 -0.01073859539 0.4980370402 0.8670892715
-0.20128179 -0.00069169002 0.78900003 0.0803603977 0.1144547909 0.990172863
-0.24305397 -0.024344537 0.79696012 0.1499738842 0.2585354745 0.9542888999
-0.13171303 0.029509477 0.82100004 -0.06198302284 -0.9133253694 0.4024858475
-0.086570829 -0.039476302 0.79000002 0.1957954168 -0.841360569 0.503762424
-0.08593788 -0.060702153 0.77800006 -0.05321223661 0.6199976206 0.7827971578
-0.19517504 -0.0069485852 0.79228586 0.09051873535 0.374117434 0.9229531288
-0.073763482 0.01276973 0.77576929 0.2613276243 -0.6123423576 0.746153295
-0.015489823 0.01833535 0.81161535 0.1732225567 -0.8846498728 0.4328840375
-0.1349242 0.027506335 0.81433344 -0.07435174286 -0.9109761119 0.4057022333
-0.21536207 -0.042346824 0.80884004 -0.1126882806 0.5561406016 0.8234130144
0.032347064 -0.014986382 0.76339984 -0.2839600742 -0.4493628144 0.8470181227
-0.225128 -0.028244603 0.80000013 -0.05580883473 0.4442329705 0.8941713572
-0.16726042 -0.046709899 0.81187499 0.179684028 0.5947261453 0.7835907936
-0.15457299 -0.02494278 0.79291683 0.2354011685 0.5244954824 0.8182241321
-0.24253261 -0.033472564 0.80229169 0.1005976647 0.3784056306 0.9201571941
-0.073556609 -0.024943799 0.77687514 -0.2798857093 0.6399185061 0.7156593204
-0.19457971 0.02185164 0.79504359 0.136948362 -0.6514146328 0.7462601066
0.011242446 -0.055869311 0.78525013 0.7674670815 -0.05796401575 0.6384626031
-0.045691606 -0.054662406 0.84264994 -0.1726531088 -0.5378274322 0.8251863718
-0.075912528 -0.0035836988 0.76202607 0.09038285911 -0.5387222767 0.837621212
-0.053946964 -0.034659319 0.84435296 0.001576580224 0.02223934978 0.9997514486
-0.11641192 -0.055030618 0.80641669 0.3148881495 0.6970932484 0.6441323161
-0.19495499 -0.044861328 0.81330431 0.00954504963 0.5570070148 0.830452919
-0.20742372 0.00069256668 0.79000002 0.1296563745 0.05107153207 0.9902428389
