# .PCD v0.7 - Point Cloud Data file format
VERSION 0.7
FIELDS x y z normal_x normal_y normal_z
SIZE 4 4 4 4 4 4
TYPE F F F F F F
COUNT 1 1 1 1 1 1
WIDTH 512
HEIGHT 1
VIEWPOINT 0 0 0 1 0 0 0
POINTS 512
DATA ascii
0.01431882568 0.01567900181 0.751517117 0.7475355268 -0.4151495993 0.4604034722
0.006377793383 0.005354097113 0.759338975 0.6298809648 -0.4412993491 0.6030231118
0.01164125651 0.004168063402 0.7418066859 0.7218796015 -0.4727537334 0.3793922067
0.008083597757 0.00254493719 0.7492565513 0.6955771446 -0.4663505256 0.4605557024
0.01771247573 0.03880487755 0.7107533813 0.2074565142 -0.1725669205 0.8124140501
0.02286877856 0.02694216743 0.7056522369 0.3707743287 0.2509612441 0.8837797642
0.01532412879 0.009502414614 0.737641871 0.7176412344 -0.3176476359 0.4145055413
0.0180347953 0.01002132054 0.7298858762 0.4971856773 0.0009858726989 0.6619125009
0.01546785701 0.02805980481 0.7461488843 0.5950647593 -0.3729545772 0.5727686882
0.01649800688 0.02680873126 0.7377767563 0.5348464251 -0.2296251655 0.6411780715
0.01437402051 0.03650360554 0.7284696102 0.3048869967 -0.4063366652 0.6690536737
0.01657536067 0.03194100782 0.717633307 0.2702259719 -0.131598711 0.7703885436
0.01733616553 0.02730395831 0.7253148556 0.4105454683 -0.08774322271 0.7327605486
0.01166667975 0.04854354262 0.7190155387 0.04233998805 -0.6509199142 0.6874227524
-0.08532093465 -0.04454193264 0.712377429 -0.1716918945 -0.0695605576 0.8901796341
-0.04383643717 -0.04941999167 0.7174681425 -0.1856950819 0.3928268552 0.8885585666
-0.1487262547 -0.1447563171 0.729534328 -0.4641557932 0.1529829353 0.86741364
0.01015767083 0.01442970615 0.76475811 0.5480783582 -0.4024601281 0.7295354009
-0.00588209182 0.01753607765 0.717820704 -0.02302410081 -0.05197593942 0.7024244666
-0.01282153651 0.0253552217 0.7132558227 0.2895196378 -0.406278491 0.7475289106
0.01132693421 0.003296410199 0.7237446904 -0.09996277839 0.4124483466 0.7391790152
-0.03726688027 0.02029836923 0.7119515538 0.3700933754 -0.3924916387 0.8357674479
-0.1835753173 -0.1308175921 0.7203372121 0.2048655897 0.08410961926 0.9737545848
-0.1950480789 -0.1206451207 0.7290855646 0.4088730812 -0.07147434354 0.9056150317
-0.1919950247 -0.1289019734 0.7244282365 0.3102754354 0.0625237152 0.9464871287
-0.1652560085 -0.06295019388 0.7324109674 -0.01745911315 -0.05704599246 0.9821488857
-0.1725914776 -0.05941496789 0.7327711582 0.05378560349 -0.07861805707 0.9819056392
0.005369145889 0.05026374757 0.7399077415 0.154466778 -0.4588597119 0.655210495
0.0006572126294 0.05204232782 0.7488954067 0.1514172554 -0.3910768032 0.6633810997
0.003528520465 0.04323117808 0.7568698525 0.1135085672 -0.03551608697 0.764662981
-0.01595516875 0.01305578742 0.7684609294 0.004347015638 -0.1268891394 0.991684854
-0.01880751178 0.01135935728 0.7592434287 0.1437497288 -0.2010104358 0.8182413578
-0.05020933226 -0.03038524091 0.7650176287 -0.350378871 -0.4213613272 0.8191378117
-0.09765964746 -0.04802462459 0.7117217779 -0.2228223979 0.0315723978 0.7757074833
-0.09064624459 -0.05196153745 0.7157477736 0.08220587671 0.3615102768 0.8726536036
-0.1726453602 -0.1481700093 0.7244701385 -0.09408346564 0.1755239218 0.9777584672
-0.1784286797 -0.1425040662 0.7224251628 0.03143983334 0.16929923 0.9804031849
-0.1862942427 -0.1231012195 0.7221339941 0.2735474706 -0.004260609392 0.9544988871
-0.1808256954 -0.1138789654 0.7241352797 0.1615390778 -0.1096268669 0.9220536947
-0.1951432228 -0.111939542 0.7306805849 0.5076361299 -0.1627018303 0.8439051509
-0.1879325509 -0.1107702404 0.7286499143 0.3461500108 -0.1638322324 0.8568066359
0.01110288035 -0.00386862224 0.7279990911 0.8291881084 -0.5231596828 0.1653346866
0.001884783269 -0.00654149428 0.7471410036 0.7235674858 -0.5106242299 0.4145211577
0.007689057849 -0.003272356698 0.7393053174 0.773329556 -0.5026810765 0.3058390319
0.002797525609 -0.002498815767 0.7552906871 0.6941452026 -0.4741450548 0.5047049522
0.01160551514 0.04483705014 0.729077816 0.1970622689 -0.6612634659 0.6267002225
0.01154398546 0.03804415092 0.7405471206 0.444359988 -0.5761687756 0.5630517602
0.005299532786 0.05254060775 0.7295855284 0.2261062562 -0.761592865 0.5795827508
0.01367693767 0.02860631235 0.7557096481 0.5875794888 -0.2894105911 0.5748817921
0.007900010794 0.04339213669 0.7456687093 0.2489070147 -0.3388430774 0.6561045647
0.009641036391 0.03733886778 0.7543868423 0.1576484889 0.04269057512 0.7638583779
0.006530404091 0.04716104269 0.7135505676 0.00808295235 -0.6795402169 0.7263876796
-0.002905102214 0.04739277437 0.7144235373 0.2018190026 -0.724516809 0.6535866857
-0.00210211589 0.05244471133 0.7215866446 0.2199709862 -0.7660958767 0.6027077436
-0.00237151538 0.0008656673017 0.7372002006 0.6661958098 -0.4411197901 0.3350976408
-0.01685920916 0.003694180865 0.756280303 0.210927546 -0.235258922 0.7608402371
-0.008345824666 0.0008974091033 0.7444281578 0.4895128012 -0.369657129 0.500564158
-0.000179853203 0.009683812037 0.7220164537 -0.1120657772 0.1350505352 0.6354317069
-0.007572142873 -0.007460103836 0.7631210089 0.3228257596 -0.3537522554 0.8288932443
-0.02354726382 0.009879528545 0.7184172273 0.5338704586 -0.4173648655 0.612795651
0.003118285909 0.001859134063 0.729655087 0.835976243 -0.5047143102 0.1805297583
-0.006767799612 -0.004203349352 0.7274499536 0.7290905118 -0.5314394236 0.3157935441
-0.006887034979 0.004767800216 0.7254603505 0.7226786017 -0.4725982547 0.3424439132
-0.01405957714 0.00100922666 0.7237216234 0.6447685361 -0.4878020585 0.4423504174
-0.03196471557 0.0140035795 0.7144097686 0.4314810634 -0.3870134354 0.7570167184
-0.02060941979 0.02439670078 0.7128373384 0.3724759817 -0.5582258701 0.7099506855
-0.01646708883 0.01390817668 0.7179595232 0.4979676306 -0.5407803059 0.5769428015
-0.02874237671 0.02411322482 0.7114534974 0.3545239866 -0.4775810838 0.79317981
-0.001639311668 -0.009655896574 0.7304362059 0.7889465094 -0.5753465295 0.2140817642
-0.003036921844 0.04807686806 0.7557730675 0.116654329 -0.2678197026 0.7478271723
-0.0006018455024 0.03643804416 0.7649478316 0.04609188065 0.129682973 0.8947904706
-0.006309232209 0.0553246811 0.7503060102 0.1508544683 -0.5450699925 0.665869534
-0.007177259773 0.06226697937 0.7447613478 0.1964681298 -0.7727649212 0.5750442743
-0.006443733349 0.04237560183 0.7618325949 0.08400536329 -0.1896712035 0.8455793262
-0.01142219547 0.0512759909 0.7554975748 0.1509909183 -0.4325897098 0.7326545119
-0.008368875831 0.03544474766 0.7674583793 0.0545027107 -0.032333415 0.9402199388
-0.1792305708 -0.06452459842 0.7311118841 0.2273666263 -0.1327339113 0.9634022117
-0.1726184636 -0.06857588142 0.7336931229 0.1165568233 -0.09714721888 0.9629101157
-0.1653448045 -0.0746968165 0.7334443927 -0.119562678 -0.05062434077 0.9338023067
-0.1579056382 -0.06647135317 0.7325562835 -0.09760332108 -0.03833503649 0.9794334173
-0.1890421361 -0.09688457102 0.7289680243 0.4591709673 -0.2492531389 0.8492999077
-0.1501532495 -0.06816389412 0.73360008 -0.1965387017 0.05620112643 0.9732536077
-0.1560946703 -0.04425813258 0.73064816 -0.06427847594 -0.09977257997 0.9928694367
-0.154841885 -0.03613303602 0.7230284214 -0.0456000939 -0.3222716153 0.8295021057
-0.1427241117 -0.03093550727 0.7094311714 -0.04851527512 -0.6406177878 0.5925478339
-0.02014186606 0.06233172119 0.7432054877 0.2552649975 -0.7802733183 0.5702157021
-0.01701669209 0.04535499215 0.7584608197 0.1483281404 -0.3961933255 0.8080018759
-0.0181127321 0.05510084331 0.7514670491 0.2041559219 -0.6005400419 0.6807254553
-0.04995749518 -0.01340657193 0.7633831501 -0.03200630471 -0.1514142901 0.9844147563
-0.003857438918 -0.01623860188 0.7425934076 0.6787564158 -0.577155292 0.377030015
-0.003760445397 -0.01227625273 0.7521236539 0.6336095929 -0.5300230384 0.517424643
-0.001487803296 -0.01773467287 0.7306820154 0.7555930018 -0.6105256081 0.2097816616
-0.01215328928 -0.02187369019 0.7299745679 0.6925909519 -0.6943327785 0.1776304245
-0.07503599674 -0.04616938531 0.7145631313 0.04295075312 0.0923884064 0.9872477055
-0.121142149 -0.03520395979 0.7000075579 -0.4311326444 -0.7915529609 0.3197026253
-0.1328498423 -0.03036979213 0.6970674992 -0.1239589453 -0.9235221148 0.3055644035
-0.1610822976 -0.1499779671 0.7261180282 -0.3104736209 0.156036377 0.9329325557
-0.1746090651 -0.1235806569 0.7214906812 5.19312307e-05 0.005518659018 0.9423233271
-0.1754184514 -0.1313489974 0.7178721428 0.1088100299 0.1070576832 0.9867261052
-0.1583537459 -0.1418949068 0.7215723395 -0.3344245553 0.159902066 0.9269815683
-0.1503327489 -0.1366566867 0.7271851301 -0.4878397286 0.1231771857 0.8631516695
-0.1604681611 -0.1290924549 0.7229265571 -0.3356775939 0.06228211895 0.9011398554
-0.1677969396 -0.1402119994 0.724178493 -0.1778024584 0.1514848769 0.9391358495
-0.141376093 -0.141299203 0.7341732383 -0.5370483994 0.09223779291 0.8355324864
-0.1193259805 -0.1300514489 0.7491775751 -0.4765359759 0.04106423631 0.8779218793
-0.01444583945 -0.01970598474 0.7614010572 0.4997036755 -0.5129373074 0.670314908
-0.01343535352 -0.02332496271 0.7539738417 0.5881309509 -0.5841770172 0.5184487104
-0.0088824993 -0.02624393255 0.7391055226 0.658456862 -0.6461600065 0.3062016368
-0.02432184108 -0.02652837709 0.7617059946 0.3290666044 -0.4648626745 0.7705744505
-0.03461339697 -0.02736852132 0.7611764073 0.02759776264 -0.2378600091 0.9463942051
-0.01170160156 -0.03303380683 0.7309322357 0.4253237545 -0.4096312225 0.2633077502
-0.01749988832 -0.03450981528 0.7393639088 0.1764580905 -0.1858718842 0.4575128257
-0.01675292663 -0.03924129158 0.727327466 -0.2957078815 0.3779342473 0.4221661091
-0.02397665381 -0.03304701671 0.7547403574 0.2761388123 -0.3648096621 0.6515138745
0.01372095011 0.02200314961 0.7615770698 0.6443686485 -0.4172723293 0.6204179525
0.001100629568 0.009290038608 0.7671738863 0.1181976125 -0.1398125291 0.9826244712
-0.02186048031 -0.004188036546 0.7660732269 -0.01889991201 -0.1538278162 0.9878738523
-0.01590500958 -0.002712379443 0.7506625056 0.3186142445 -0.3358569145 0.647898376
-0.01464955509 -0.01197361574 0.7408818007 0.5069164634 -0.508312583 0.4253119528
-0.007913663983 -0.009331327863 0.7365232706 0.634293735 -0.5212663412 0.3416558206
-0.02124218456 -0.0135566825 0.7636497021 0.06091057137 -0.2018540502 0.9730094671
-0.04607085884 -0.02411400527 0.7651976347 -0.2228737175 -0.3075446784 0.8792875409
-0.03430781886 -0.01141454 0.7651056051 0.01745983213 -0.1195190549 0.9924281836
-0.03060538322 -0.02037425525 0.763209641 0.1408246607 -0.239287883 0.9136739373
0.004802903626 0.01726996899 0.7166050673 0.1950443089 0.1388371885 0.8624641299
-0.00171612564 0.0297257863 0.7090008855 0.1423570067 -0.3077562451 0.8557097316
-0.006385718472 0.03840240464 0.7072510719 0.1737295389 -0.592422843 0.7849689722
0.01191825699 0.0174152758 0.7143428922 0.1850892603 0.2568857372 0.9108567834
0.004329667427 0.02480816841 0.7107664943 0.137107566 -0.04952774569 0.8942351341
0.01769728586 0.02085843869 0.7444216609 0.6563509107 -0.1680370122 0.6107308269
0.02104000933 0.009895378724 0.7160494328 0.2905976772 0.3376007378 0.8880143166
0.02088851668 0.01743403077 0.7185074687 0.4379155338 0.2183859944 0.8083460331
-0.03296699375 0.014891156 0.7661129236 -0.06751184165 -0.09763600677 0.9918283224
-0.02801070176 0.00792022422 0.7536720037 0.0574394241 -0.1804119647 0.9609723091
-0.03265331686 0.01910607144 0.7276133895 0.2639410198 -0.3812145591 0.8465837836
-0.03191861138 0.01189733576 0.7377483249 0.1723229587 -0.245122999 0.923679173
-0.0288803149 0.01375257596 0.7459074855 0.1240702495 -0.2682269216 0.9106761813
-0.03417087346 0.02393243834 0.7186567783 0.3355225921 -0.4545776248 0.8044958711
-0.05762219802 -0.0218201559 0.7160871625 -0.004810682964 -0.004775955342 0.9978921413
-0.04462115094 -0.03410693258 0.7156129479 -0.1104060858 0.1166865006 0.9829752445
-0.0418856144 -0.04235102981 0.715552628 -0.1603638679 0.1941779107 0.9655981064
-0.0327873975 -0.03996146843 0.7189184427 -0.2362356931 0.1700008214 0.9516291022
-0.0504229106 -0.04196910933 0.7143031359 -0.1099585369 0.09761724621 0.9887031317
-0.05465565249 -0.03382127732 0.7153915167 -0.06860904396 0.02310789563 0.9941882491
-0.06260316074 -0.03149759024 0.7153065801 -0.001990370918 0.002361443359 0.9990916848
-0.0179246366 0.0338695012 0.7104561925 0.2791855335 -0.5652855039 0.7714476585
-0.0009267673013 0.05836790055 0.7325988412 0.1890011877 -0.8081908226 0.5572401285
-0.00917903427 0.05744149908 0.734701395 0.2100751549 -0.7947545648 0.5692488551
-0.009688524529 0.04843285307 0.7195947766 0.2476395816 -0.7394677401 0.6255927682
-0.01673986018 0.04426021874 0.7184447646 0.2773064971 -0.7085993886 0.6475151181
-0.1848707199 -0.1038883626 0.7232489586 0.404804647 -0.2158567458 0.8880922198
-0.1195242107 -0.04308718815 0.7323880196 0.2113912702 0.05413810536 0.9248322845
-0.1283367276 -0.007094269153 0.7360901237 0.3219670355 -0.4824289083 0.8102915883
-0.1387493759 -0.03363813832 0.7346310616 0.1479193419 -0.1315699816 0.9469589591
-0.1427724361 -0.02420332283 0.7355854511 0.279493928 -0.2357138395 0.9084014893
-0.1572127193 -0.05957243592 0.7258445621 -0.09108798206 -0.1152830049 0.9327522516
-0.1435134858 -0.04909786209 0.7096192241 -0.07555019855 -0.3294607699 0.5204695463
-0.1317023486 -0.03877003118 0.69693923 -0.1037985533 -0.2865948677 0.2669311464
-0.1483106762 -0.01868756488 0.7374378443 0.2760456204 -0.2387889475 0.9277409315
-0.1476401389 -0.03076256067 0.7211308479 -0.01752579398 -0.3883654475 0.7824269533
-0.153341502 -0.05332107469 0.7308260202 -0.06601272523 -0.04698181897 0.9963114262
-0.1413744986 -0.05576905608 0.7334323525 -0.0809577629 0.06180767342 0.9889053702
-0.135313794 -0.05078130215 0.7329284549 -0.02302079834 0.06033346057 0.9952458739
-0.01287600119 0.02279763296 0.769712925 0.04466922954 -0.1078505442 0.992944479
-0.005457228981 0.02540705912 0.770701766 0.0717414543 -0.05757087842 0.9838122725
-0.06503395736 -0.0793710202 0.7415285707 -0.2848622203 0.619361937 0.7280508876
-0.077431418 -0.09383749217 0.7485316992 -0.2084681839 0.6091782451 0.7642959952
-0.07012723386 -0.08839775622 0.745280087 -0.2604789436 0.6198568344 0.7371922135
-0.01839041151 -0.03062677383 0.7496631145 0.5390432477 -0.6172814965 0.4979747832
-0.08851283044 -0.03157348558 0.7191257477 -0.09111294895 -0.1451578438 0.9662293196
-0.1284523904 -0.03772492707 0.7323373556 0.1753916591 -0.08796840161 0.9459240437
-0.1293581426 -0.02327529714 0.7313228846 0.3983795643 -0.4458459616 0.7712685466
-0.1124205589 -0.02408107184 0.7121540308 -0.2404628098 -0.6213150024 0.6498979926
-0.1068481132 -0.01561047789 0.7185334563 -0.02481317893 -0.477776438 0.762101531
-0.1004763395 -0.009803297929 0.7229004502 0.1366332471 -0.3560710847 0.8551419377
-0.1036343649 0.001376059023 0.7316797376 0.2701866627 -0.312487483 0.9105263948
-0.07427785546 -0.07661668211 0.7362777591 -0.1734725237 0.5665968657 0.8047551513
-0.1671237051 -0.1266704202 0.7174003124 -0.1252629906 0.06156766042 0.9841816425
-0.1602636129 -0.1205082759 0.7198858857 -0.3119570017 -0.03174900264 0.9328305125
-0.1514465958 -0.1279281825 0.7249339223 -0.4859344661 0.04401055723 0.8616527319
-0.153340742 -0.1191885099 0.7242907286 -0.5005905628 -0.06849794835 0.8582879901
-0.1433487236 -0.1187792718 0.7314110398 -0.5818811655 -0.08660619706 0.8071275353
-0.1444113255 -0.126660496 0.729819417 -0.5704058409 -0.0001973231847 0.8192712069
-0.01266976632 0.003577320836 0.7677803636 0.0151592046 -0.1421721131 0.9882209301
-0.007518012542 0.0107468944 0.7685691714 0.06168815494 -0.1285451651 0.9885616302
-0.0008752078284 -0.0001617933303 0.7640842795 0.5049846172 -0.3709251285 0.7061127424
0.01185729355 0.0295371376 0.7639770508 0.1406888813 0.3242124617 0.8466404676
0.002150871092 0.02018851228 0.7681714296 0.1265213937 -0.172119379 0.9715639949
0.005110413767 0.0310082715 0.7679358721 0.06037914753 0.3114075959 0.9292539358
0.01280986983 0.02489459701 0.7081676722 0.1595101058 0.1062018499 0.947258532
0.02234219201 0.01759109646 0.7100619674 0.3704886734 0.3232880533 0.8706375957
0.007047203835 0.03429592401 0.7019002438 0.07616961002 -0.1722014546 0.9738205075
0.007554091513 0.04182038084 0.7053235769 0.0187040437 -0.4379518032 0.896122396
0.0210818667 0.03461509198 0.7036791444 0.2785128355 0.1157718971 0.9325218201
-0.04844696447 0.0008560012793 0.7633703351 -0.1031011492 -0.06852865964 0.9810941815
-0.05836254731 -0.04650852829 0.7138613462 -0.08560453355 0.1383002549 0.9742134809
-0.02219332382 0.05094042048 0.729331851 0.250813216 -0.7635367513 0.5946406722
-0.03053052165 0.05143433064 0.7346699834 0.334022671 -0.7326757312 0.5910180807
-0.03132151067 0.03853194416 0.7583237886 0.01852877997 -0.2366778553 0.8113048077
-0.01894240081 0.039038077 0.7629264593 0.1234451234 -0.2676808536 0.8822703362
-0.02543040179 0.04641991109 0.7569229007 0.1787576675 -0.4228574634 0.7711385489
-0.02594240941 0.03158345073 0.7636902332 -0.03927765787 -0.08945458382 0.9114513993
-0.015488551 0.03264254332 0.7672804594 0.05843281001 -0.1297961771 0.9652725458
-0.03229478374 0.05587048084 0.7498006225 0.260941267 -0.6238114834 0.6376980543
-0.02760336548 0.02160672285 0.7659926414 -0.1104059964 -0.02394895442 0.9817751646
-0.03014951944 0.02104994468 0.7357842922 0.1992623508 -0.3379301429 0.8697077632
-0.0258243084 0.02022575028 0.7428616285 0.1361130625 -0.2980071604 0.892875731
-0.02673024125 0.02479352243 0.7223948836 0.2886486053 -0.4492249787 0.8093266487
-0.01815990172 0.01435630769 0.7466760278 0.2522055805 -0.2977791429 0.7485251427
-0.01291084103 0.01510994695 0.7258136272 0.5208381414 -0.4747677743 0.537003696
-0.01079004351 0.008469463326 0.7485749125 0.3934580088 -0.3113636672 0.5872433782
-0.01283648983 0.01323846076 0.7339710593 0.4607073665 -0.4136107564 0.5707840919
-0.006269946694 0.007063476834 0.7398387194 0.5549783111 -0.394263953 0.4452499747
-0.02051342465 0.01873158105 0.7348629236 0.2918626666 -0.377845794 0.7512718439
-0.03314951062 0.03774333745 0.7187998891 0.3639388978 -0.6084361672 0.7048413754
-0.04153625667 0.03866989538 0.7247247696 0.4120510519 -0.6390688419 0.6473889947
-0.01427136827 0.05076687038 0.725900948 0.2288663536 -0.7780764103 0.5841611028
-0.166846171 -0.1072833017 0.7193343043 -0.2170299143 -0.1395136565 0.9646680355
-0.1801952124 -0.09529123455 0.7227579355 0.2758559883 -0.2596045434 0.9153348207
-0.1104491577 -0.06341761351 0.7374950051 0.1406913996 0.3069012165 0.9362724423
-0.1146678329 -0.05497714132 0.7331998944 0.1775297076 0.3813792765 0.9030502439
-0.1133773699 -0.0176345706 0.7297348976 0.2467213422 -0.4107358456 0.8694995046
-0.1242955253 -0.01068505738 0.7281312346 0.1525063813 -0.504935205 0.7791681886
-0.1214344203 -0.01663040742 0.7322303653 0.2789016664 -0.4770283699 0.831716001
-0.1392136365 -0.01726957969 0.7328905463 0.2782351971 -0.3560911119 0.8587673306
-0.1422829181 -0.0241691079 0.7271463275 0.3006471395 -0.476228267 0.7392424941
-0.1384524852 -0.02294417657 0.719593823 0.08966872841 -0.5669466853 0.6789134145
-0.1321439743 -0.02267459966 0.7108978629 -0.04977137223 -0.7490121126 0.5563557744
-0.1322741061 -0.01228613965 0.7294209003 0.2329904288 -0.5979985595 0.705757618
-0.1302033216 -0.01676788181 0.7190368772 0.06466844678 -0.6776328683 0.6299848557
-0.1639770716 -0.04707220569 0.7306193709 -0.04341077805 -0.1030571461 0.9931731224
-0.1554082483 -0.05168507621 0.7208970785 -0.04430327937 -0.2671269774 0.7706753612
-0.1391884834 -0.03812752292 0.7014419436 0.03001967259 -0.8206205368 0.1859250665
-0.1515803188 -0.04370019212 0.7224923968 -0.03969659656 -0.2874037027 0.7761415839
-0.1460376978 -0.04052498937 0.7150534987 -0.01592679694 -0.4875883162 0.5614817142
-0.1719649583 -0.0509429425 0.7323358655 -0.01269511599 -0.07737113535 0.9953964949
-0.165841192 -0.05484400317 0.7286223769 -0.04043784365 -0.04777897149 0.9973997474
-0.1911839843 -0.08572406322 0.7373015285 0.4321660995 -0.2481774688 0.8663948178
-0.1828487813 -0.07827530056 0.7291226387 0.3524224162 -0.216597423 0.9094382524
-0.1872926354 -0.07744776458 0.737236917 0.3540163338 -0.187934503 0.9144904613
-0.08940433711 -0.09821284562 0.7495027184 -0.1704648286 0.5562494993 0.8122777343
-0.08859715611 -0.0914529264 0.7438144684 -0.09941115975 0.5532391071 0.8263614774
-0.03625182062 -0.04442837462 0.7559478283 0.2530331612 -0.5777057409 0.5553570986
-0.03634510189 -0.05414158106 0.7485690117 0.6404627562 -0.6568439007 0.1639257073
-0.05442946032 -0.06645232439 0.7348991632 -0.2967236638 0.6988034248 0.6503170133
-0.04534409195 -0.04771325737 0.7558582425 -0.2604881525 -0.1348771751 0.782301724
-0.04766021296 -0.05441981554 0.7512548566 -0.2805601954 0.1358772367 0.7336469889
-0.04773954675 -0.04090537876 0.7598380446 -0.3105674982 -0.2731151283 0.7929410338
-0.08326885104 -0.05039963871 0.7235739231 0.1614201665 0.2479190826 0.9306634665
-0.1175920069 -0.02932445332 0.7074144483 -0.409293443 -0.7183140516 0.5542834401
-0.1486264914 -0.03911234066 0.7322878242 -0.003489521798 -0.1090053245 0.9935283661
-0.1482185572 -0.03137757629 0.7354635 0.04619667679 -0.08125007153 0.993642509
-0.1409270167 -0.04145040736 0.7335947752 0.01349161193 -0.03858067095 0.9968389869
-0.09778757393 -0.05928691477 0.7243793011 0.2313675731 0.3871659338 0.8911512494
-0.09801974148 -0.05375854671 0.7184989452 0.02678215131 0.2230012566 0.8384925723
-0.05479137599 -0.01381412894 0.7146101594 0.06535330415 0.04506232217 0.9841002226
-0.04561302811 -0.01591438241 0.7153450847 0.05810008571 -0.01748266816 0.9554807544
-0.04554910585 -0.02540124767 0.715993464 -0.06015391648 0.08083242178 0.9766818881
-0.04277265072 -0.006675316952 0.715475142 0.1697556078 -0.1245117858 0.9286353588
-0.02692873962 -0.03344184905 0.7219759822 -0.1921404302 0.107104592 0.9592707157
-0.03472667187 -0.01819922961 0.7188741565 0.007848612964 -0.02206025831 0.9413249493
-0.05259817094 0.01201133989 0.7154825926 0.3784592152 -0.2864847481 0.8759181499
-0.04288938642 0.01255004667 0.7124837041 0.3507027924 -0.2923992872 0.886336863
-0.03695888072 0.001971155871 0.71759969 0.4378163815 -0.3626945615 0.7227136493
-0.02164571732 -0.005688876845 0.7234983444 0.5846871734 -0.5449120402 0.447750628
-0.02988500893 -0.001837716554 0.7204251289 0.5067366362 -0.4468596876 0.5936661959
-0.04927713051 0.0006301740068 0.7195950747 0.1934909225 -0.04687331617 0.9593259096
-0.0241439417 -0.01540050656 0.7243910432 0.4254963994 -0.3899858594 0.5469690561
-0.02797021158 -0.02419799753 0.7219573855 0.03361188993 -0.06639622897 0.8392660022
-0.0179402288 -0.02994140424 0.7269067168 0.382476002 -0.5115970373 0.364302814
-0.09471880645 -0.005005992949 0.7262119651 0.2654651403 -0.2568899989 0.9292352796
-0.06819482893 -0.006435831077 0.7177116871 0.242645815 -0.06379052252 0.9678430557
-0.06268429756 -0.0148447603 0.7161076665 0.07573955506 0.07343039662 0.9935816526
-0.1158203408 -0.007387282792 0.7295883298 0.2016314566 -0.3730990887 0.8640642166
-0.1149701625 -0.01167214382 0.7227780819 0.07072003186 -0.4619434476 0.7809836864
-0.1223575026 -0.02181512304 0.7103836536 -0.2008042634 -0.7009429932 0.5854662657
-0.1073241085 -0.00582639128 0.7288620472 0.2234016955 -0.3112655878 0.898365736
-0.1160884872 -0.01755174249 0.7151412368 -0.07127037644 -0.5835052133 0.6817061901
-0.1128178313 -0.0001772719261 0.7346531153 0.2498637587 -0.2932236195 0.9227988124
-0.09684131294 0.009087878279 0.7327544093 0.291915983 -0.3332838714 0.8964157104
-0.09085126966 0.01401596703 0.7329448462 0.3088079691 -0.3498596251 0.8840400577
-0.04667877033 0.04685930535 0.7491135001 0.3080256283 -0.5592100024 0.6460149884
-0.04179511219 0.04059050232 0.7532522678 0.1575017571 -0.3750762045 0.7305496335
-0.09252887219 -0.06564003229 0.7301757932 0.1802371144 0.4280282259 0.8773304224
-0.1233771071 -0.1055508032 0.7399083972 -0.3211131692 0.1278634816 0.9013991952
-0.08040004224 -0.08784301579 0.7436448932 -0.1630726755 0.579323709 0.7972376943
-0.08118858933 -0.08152790368 0.738765955 -0.1292288899 0.5521082878 0.8226106763
-0.09040356427 -0.08394711465 0.7418730855 -0.07984100282 0.5013431907 0.8491595387
-0.118170552 -0.1219534203 0.7491621375 -0.4203110039 0.1222932786 0.8985229135
-0.1073398367 -0.1231085435 0.7553917766 -0.377700001 0.2165826112 0.8994622827
-0.04896368459 0.03776533902 0.7505611181 0.2521722019 -0.4695131481 0.6948821545
-0.04106430337 0.02644224092 0.7595123053 -0.00937277358 -0.1465097368 0.8616861105
-0.04781089723 0.03103798628 0.7541816831 0.1767644137 -0.382745862 0.7700761557
-0.02543666214 0.01176957227 0.7668710351 -0.04188679904 -0.1209714487 0.99175632
-0.01743753068 -0.01543482672 0.733930409 0.5832828879 -0.5460024476 0.3542031348
-0.02965937927 -0.006394685712 0.743180573 0.2851750255 -0.2937004566 0.6895705462
-0.04713945463 -0.00413489854 0.7289494276 0.155119136 -0.03007725999 0.9349512458
-0.03002976626 -0.0006994599826 0.7574137449 0.1255874783 -0.2366534173 0.8187673688
-0.03597235307 -0.005101568997 0.7392686009 0.2249586135 -0.1941457242 0.7886635661
-0.02780884132 -0.01146844588 0.7322443724 0.4332026243 -0.365663439 0.5574425459
-0.03504867852 -0.0014443486 0.7497406006 0.1269505173 -0.1736616492 0.8586198688
-0.02361879684 -0.01075142063 0.7388951778 0.4294221699 -0.4173851013 0.5262609124
-0.03712604195 -0.009868831374 0.7256757617 0.3529079854 -0.2215470225 0.6969102621
-0.03730679303 -0.002514873166 0.7653617263 -0.01104223263 -0.1200491413 0.9925210476
-0.03427090496 0.004620087799 0.7656446695 -0.04016977549 -0.1219298169 0.9892598987
-0.02401028201 -0.00542737823 0.7510845661 0.2770269215 -0.350425005 0.6586028337
-0.04321056977 0.0006125196232 0.7444824576 0.04952819645 -0.04703184962 0.9887121916
-0.04488013312 0.003431571648 0.7294157743 0.1553280205 -0.09389135242 0.9583712816
-0.03999506682 0.008289016783 0.7346223593 0.1596473753 -0.1780680418 0.9402038455
-0.03640073538 0.009761591442 0.7446870804 0.11249616 -0.2045219243 0.9439842701
-0.0359294638 0.006902132183 0.7550619245 0.03320578486 -0.1564500034 0.9693886042
-0.03789068758 0.01511944924 0.7228103876 0.2749818563 -0.2943272591 0.8937160969
-0.02666531131 0.005773643032 0.7620398998 -0.004055289552 -0.1447350085 0.9812334776
-0.03429576382 0.03188760206 0.7601071596 -0.07236425579 -0.1002266258 0.8567848206
-0.04261181504 0.05447906628 0.7451297045 0.3701252341 -0.7039377689 0.5839499831
-0.03808940947 0.04883144796 0.7502061129 0.217276454 -0.5196071863 0.6682911515
-0.02874539606 0.0628291443 0.7453206778 0.3012488484 -0.7654159665 0.5681128502
-0.03726794198 0.0517074056 0.7385750413 0.3772628605 -0.7163071632 0.5868135691
-0.03198639676 0.04578553885 0.7272720933 0.3431800306 -0.6987983584 0.6261211634
-0.03987383842 0.03184260055 0.7184535861 0.3863181174 -0.5501806736 0.7399569154
-0.02586873807 0.03322480619 0.712947607 0.3585066199 -0.5678104162 0.7402758598
-0.02537821978 0.04276539758 0.7201440334 0.3349397182 -0.6667711735 0.665346384
-0.05248720944 0.008295341395 0.7588371038 -0.1736153066 -0.1271288544 0.8916324973
-0.04608539119 0.01192689501 0.7626792192 -0.09079371393 -0.1128808111 0.9518271685
-0.05029388517 0.01723023131 0.7579328418 0.00848736614 -0.2329438478 0.8706638217
-0.0558321476 0.03047932871 0.74987638 0.2644690275 -0.4811919928 0.7299460173
-0.171625793 -0.0793402493 0.7249166369 0.1189317256 -0.1886363477 0.9617203474
-0.1420973092 -0.06499154866 0.7340212464 -0.1517892927 0.1884248853 0.9685963988
-0.1225372106 -0.04470698908 0.7008713484 -0.3973331153 0.3397193551 0.6712072492
-0.121151872 -0.05038484558 0.7114540339 -0.3634928465 -0.03218003362 0.8031829
-0.1151586995 -0.04341237247 0.7031014562 -0.5975800753 -0.3866070807 0.6219868064
-0.1275167912 -0.04892845824 0.7067418694 -0.2194092125 0.5622879863 0.706220448
-0.1403503716 -0.05738386139 0.7182636857 -0.144576937 0.2749780118 0.8603340387
-0.1365973502 -0.0617025122 0.7266161442 -0.04024657235 0.1969522387 0.9557529688
-0.149250567 -0.05927703902 0.7194006443 -0.166474238 0.170470506 0.8850736022
-0.1320168376 -0.05413317308 0.7146479487 -0.1515426785 0.4080992043 0.806594193
-0.1221048385 -0.05844131857 0.7242742777 -0.05963174254 0.1732573807 0.8945294023
-0.1125606149 -0.05095944181 0.7138060331 -0.2865777612 -0.1388389468 0.7175673246
-0.1078863218 -0.05872017518 0.7232801318 0.0500494577 0.1910896003 0.8412341475
-0.115767397 -0.05537481979 0.7197533846 -0.1357999891 0.04637450352 0.8120322824
-0.1088305116 -0.04586042836 0.707805872 -0.4830104411 -0.3336381912 0.6365190744
-0.1743742526 -0.1138631031 0.7184688449 0.05033567175 -0.06744425744 0.9932515025
-0.1537156254 -0.1094525456 0.7250310779 -0.4980356991 -0.1536316127 0.8514864445
-0.1777207851 -0.1065793708 0.7189999819 0.2601401806 -0.1708175689 0.9439858198
-0.08762711287 -0.03846395761 0.7235572338 0.1261769831 0.05384562537 0.962679863
-0.09198335558 -0.04671050981 0.7255246639 0.1834041476 0.2910425961 0.8979611993
-0.05603614077 -0.01732242294 0.7592402101 -0.1081146449 -0.2171290368 0.9647267461
-0.06166877598 -0.02240297943 0.7522743344 -0.1257809848 -0.255936265 0.9438006282
-0.09140538424 -0.1032138094 0.7554294467 -0.2242615372 0.4995027781 0.8322731853
-0.03270180151 -0.0557637997 0.7372640371 0.2218949795 -0.1341956556 0.1873881966
-0.02691883594 -0.04802394658 0.7358080149 -0.009920032695 0.06678024679 0.3179956377
-0.02981221117 -0.03854576126 0.755202651 0.4791917205 -0.5540176034 0.5313290954
-0.02779104374 -0.04136460647 0.746825695 0.2332261354 -0.253045857 0.4698929191
-0.03140683472 -0.04959630221 0.7437575459 0.3391174972 -0.3282209933 0.2740024328
-0.02396595106 -0.04111786932 0.723377645 -0.3523927927 0.3351713717 0.821010232
-0.03105213866 -0.05055253208 0.722738564 -0.3214138746 0.5576488972 0.7638499141
-0.047858309 -0.06258388609 0.7456382513 -0.1428432018 0.2661888003 0.5798838139
-0.04036439583 -0.06230548397 0.7447996736 0.6251317859 -0.618493259 0.0239325203
-0.06068181619 -0.05586401746 0.7210396528 -0.1621373147 0.5017831326 0.8422384262
-0.03976072744 -0.0369114317 0.7614967823 -0.1587082446 -0.4820067286 0.8555825353
-0.03903933242 -0.05286188796 0.7252021432 -0.2375511974 0.6045675278 0.7590937018
-0.1320978403 -0.1074506938 0.7358806133 -0.4095290899 0.02732852288 0.8652173281
-0.1377552897 -0.1140878126 0.7362467647 -0.5368070602 -0.07530811429 0.827429533
-0.1396847516 -0.1051879674 0.7383148074 -0.4779883921 -0.0689650476 0.8749222755
-0.1079461128 -0.07254187018 0.7403640747 0.08352320641 0.3340938985 0.9370868802
-0.1032863259 -0.06382666528 0.7343871593 0.1628783047 0.3857296705 0.9049087763
-0.07424349338 0.005343100522 0.7224966884 0.3516488969 -0.2875118256 0.8908798695
-0.09183668345 -0.01537664793 0.7234524488 0.183685869 -0.228561461 0.9517661333
-0.1026761159 -0.02558736503 0.7147341967 -0.1977615654 -0.4762434065 0.7223049402
-0.07803276181 -0.01338977367 0.7203688025 0.2103100568 -0.08098552376 0.9729230404
-0.07933801413 -0.009995802306 0.7300440669 0.1931458861 -0.1864352524 0.9524906278
-0.07559856772 -0.02284642681 0.7202914953 0.1256095171 -0.0546118021 0.9894663692
-0.06939316541 -0.01993342862 0.7420884967 -0.003632884473 -0.183381319 0.9782087207
-0.08065091819 -0.02122090943 0.727619648 0.09243316948 -0.1664168984 0.9770597219
-0.0923358649 -0.02203474753 0.7178485394 -0.05573464185 -0.2336235046 0.8476014137
-0.1109610945 -0.03270320594 0.7107715011 -0.4658014774 -0.6052524447 0.5932684541
-0.1032560542 -0.03471947834 0.7104291916 -0.4815820158 -0.3648538888 0.6784379482
-0.09587844461 -0.03281159326 0.7156048417 -0.2313603908 -0.2238906473 0.8778404593
-0.05935459957 -0.04293402657 0.7496585846 -0.2906967402 -0.04476205632 0.7958954573
-0.07615874708 -0.04261415079 0.7220238447 0.06991329789 0.0708450228 0.9818084836
-0.06001069024 -0.05122311413 0.7454010248 -0.299449861 0.1976054758 0.750205338
-0.06389763951 -0.04560322687 0.7411323786 -0.2007842213 0.06544733047 0.8285812736
-0.06805919111 -0.04256274179 0.7354224324 -0.1033344343 0.009232307784 0.8935101032
-0.06312585622 -0.05633090436 0.7382996082 -0.2468111664 0.3670822978 0.7517135739
-0.07081446052 -0.0483475402 0.728656292 -0.06026213989 0.1954342425 0.8867622614
-0.06999756396 -0.05792010948 0.7275798917 -0.1053385064 0.45504421 0.8115565777
-0.06978780776 -0.05658482015 0.7192071676 -0.0439199172 0.4896379113 0.8690021634
-0.1119249165 -0.1174034402 0.7512536049 -0.3889033198 0.2155201286 0.8955577612
-0.1234735698 -0.1162960976 0.7445963025 -0.4388718307 0.106401287 0.8864619136
-0.1299596131 -0.1339087486 0.7416243553 -0.5453185439 0.01451199967 0.8376248479
-0.125952825 -0.1258561164 0.7439842224 -0.5099462271 0.03483584896 0.8588396907
-0.1329686493 -0.1260660887 0.7381099463 -0.5571249127 -0.02345930599 0.8292453289
-0.1394687295 -0.1313903779 0.7353106737 -0.5513237119 0.04388172925 0.8322809339
-0.1031047031 -0.1159505844 0.7545235157 -0.3383888006 0.3065571189 0.8865383863
-0.09626305103 -0.1116545275 0.7592212558 -0.287419945 0.3881578147 0.8717576861
-0.0475798957 0.04009664059 0.7321494818 0.4282184541 -0.6677186489 0.6087488532
-0.0524228178 0.04343331978 0.7412454486 0.4354886711 -0.6758513451 0.5944445133
-0.05196448043 0.0238186568 0.7191075087 0.4136928916 -0.4197223485 0.804574132
-0.07575646788 -0.003420828609 0.7210644484 0.2951861322 -0.1826779991 0.936841011
-0.08579465002 -0.0009362828569 0.7248018384 0.2936112583 -0.2548960447 0.9196425676
-0.091402933 0.004316862673 0.7274867892 0.2877310216 -0.3068624735 0.9068465233
-0.08283249289 0.006679741666 0.7258128524 0.3221581876 -0.3171885014 0.8916775584
-0.06199867651 0.0007337023853 0.7547655106 0.1010520235 -0.1839159578 0.9580338001
-0.0723015815 0.005039303098 0.7464269996 0.1779045761 -0.2520408928 0.9279751182
-0.08206463605 0.01130744442 0.7373779416 0.268294394 -0.3360180557 0.8894712329
-0.07932023704 -0.0004261817667 0.743768096 0.1522768587 -0.2704066336 0.929489255
-0.05682077631 -0.003736159764 0.7601584196 0.04386492819 -0.1294450611 0.9836171865
-0.08202111721 -0.002940261038 0.7352138758 0.2006083578 -0.253659755 0.9300308824
-0.06092158705 -0.01226026379 0.7536068559 -0.008139659651 -0.2030597627 0.9649803638
-0.07133310288 -0.008022915572 0.7436004281 0.100453645 -0.2228369117 0.9488117695
-0.06792153418 -0.007485220674 0.7518358231 0.03510857001 -0.2440103889 0.948371768
-0.07590696961 0.0166128967 0.7275999784 0.3540093005 -0.4203417897 0.8305606842
-0.06784503907 0.01660532318 0.723995626 0.383264184 -0.3877725601 0.8360311389
-0.05860377103 0.0382774733 0.7400208712 0.4386688173 -0.6567908525 0.6131240726
-0.163932696 -0.06898830086 0.7259485126 -0.0783290267 -0.09595634043 0.990925312
-0.1569067836 -0.07467644662 0.7276136279 -0.1634986103 -0.03109075688 0.9807806611
-0.1729828268 -0.07980044931 0.7343881726 0.00842070207 -0.1395959258 0.9050906897
-0.1470526755 -0.07596024126 0.7303048968 -0.2660037577 0.05097099766 0.9298149347
-0.1127087772 -0.02682551928 0.7296019197 0.2374623716 -0.3366730213 0.8586043715
-0.1109559983 -0.04613810405 0.7321152687 0.2447591722 0.1796820909 0.9233360291
-0.1024243459 -0.02107810415 0.7265183926 0.1440555155 -0.3026547134 0.9190783501
-0.1047930345 -0.02894296311 0.7287044525 0.1922497153 -0.1367433965 0.9156392217
-0.104665868 -0.04046468809 0.7301528454 0.2084330767 0.09110396355 0.93183887
-0.05448203161 -0.05988835916 0.727832973 -0.276883781 0.6846553087 0.6651715636
-0.05031834915 -0.05394432321 0.7206149101 -0.1889639646 0.4921618402 0.8273712993
-0.04681609571 -0.05682564527 0.7291445136 -0.252833277 0.6483104229 0.7135758996
-0.04622249305 -0.06314801425 0.7362882495 -0.2948462069 0.6872316003 0.6638282537
-0.06554233283 -0.02313816547 0.7171624899 0.02942451276 0.01268788334 0.9985533357
-0.07294786721 -0.03477632999 0.7170214057 0.07204235345 0.04646751285 0.9948977232
-0.06739418209 -0.04469076544 0.7128414512 0.02066389658 0.06164652109 0.9973914027
-0.08064002544 -0.03176514059 0.7186351418 0.001789199421 -0.06216411293 0.9813522696
-0.0606536679 -0.03408148512 0.751399219 -0.2456985712 -0.2880854011 0.8613070846
-0.07140822709 -0.03405847028 0.7395911217 -0.1011194289 -0.200861454 0.9160900712
-0.06487569958 -0.03604923189 0.7436751723 -0.160777986 -0.2003527731 0.8949181437
-0.07876442373 -0.03693912178 0.7269892097 0.03903637454 -0.06282533705 0.9712973237
-0.0575572066 -0.02747498639 0.7580566406 -0.231581077 -0.3124454618 0.8986014128
-0.07757247984 -0.03030551784 0.731921494 0.01430559997 -0.1478261054 0.9706374407
-0.06606425345 -0.02734054439 0.7467857003 -0.1120540053 -0.2375086993 0.9404911399
-0.1157589555 -0.07063120604 0.7397379279 0.07516007125 0.3021504581 0.9462521672
-0.1326721609 -0.09578391165 0.7360191345 -0.2325909138 0.07819393277 0.9320006371
-0.1054535806 -0.08815295994 0.7371203899 -0.003387097036 0.4035221636 0.9141222239
-0.09656251222 -0.08533814549 0.7349537015 -0.02191993594 0.4791376293 0.8770393729
-0.09893936664 -0.09188299626 0.7420588136 -0.07732395083 0.4881060123 0.8654859066
-0.1784975082 -0.08784407377 0.7337159514 0.1742502451 -0.2194054127 0.8642237782
-0.1676135659 -0.08958716691 0.7324935198 -0.1203873828 -0.1793704182 0.8590267897
-0.157227248 -0.09937699884 0.7260893583 -0.4516161084 -0.1755877286 0.8720759749
-0.1788395047 -0.09681919962 0.7313882113 0.2211133987 -0.2090906799 0.8320720196
-0.1922578514 -0.10366676 0.7316151857 0.5165610313 -0.2180858552 0.8063337803
-0.1683308035 -0.1032098755 0.7302492857 -0.0927394554 -0.179217726 0.826816082
-0.178111881 -0.1044668034 0.7298713326 0.1420231462 -0.198993966 0.8219931722
-0.07832753658 -0.07056877017 0.7322893143 -0.08185500652 0.5675790906 0.801635325
-0.0872945711 -0.07219672203 0.7339587808 0.04187267274 0.4770046771 0.8551555276
-0.09552073479 -0.07752569765 0.7403172255 -0.02782724053 0.4276316464 0.8870529532
-0.1084674299 -0.06959877908 0.7321346998 0.1251400709 0.3445985615 0.9250706434
-0.1050286591 -0.07707354426 0.7332493663 0.09650753438 0.3724248409 0.9171262383
-0.06520345807 0.007361485157 0.7192239761 0.3480597436 -0.2566900551 0.9012432098
-0.05748451501 0.004491124302 0.7151885033 0.3266057074 -0.1790706068 0.9272200465
-0.05789652094 -0.004188440274 0.7150612473 0.2205761671 -0.0215080902 0.9731400609
-0.06236821786 -0.06443982571 0.7356334329 -0.2665607333 0.5782740116 0.7052037716
-0.05528567359 -0.03944184631 0.7575908303 -0.3652861118 -0.1774363369 0.7757394314
-0.05528542772 -0.05039336905 0.7516089678 -0.355935216 0.1154530421 0.7309502363
-0.06423303485 -0.07344774157 0.7364496589 -0.269539237 0.6236901879 0.7324850559
-0.05697649345 -0.07297257334 0.7402272224 -0.3058487475 0.6602350473 0.6856597662
-0.06923497468 -0.06532085687 0.72917974 -0.1600666195 0.6313921809 0.7502136827
-0.08053824306 -0.06066981331 0.7219732404 0.06683829427 0.4459600449 0.8870871663
-0.080373317 -0.05380111933 0.7146642804 0.06581468135 0.4048615992 0.9100732803
-0.1287265569 -0.08854088932 0.7420174479 -0.1417242736 0.154973343 0.9654775858
-0.1222151145 -0.09238923341 0.7390851378 -0.0949518308 0.2216425836 0.969176054
-0.06055533513 0.01526369061 0.7196808457 0.3858332932 -0.3170078099 0.865657866
-0.06679065526 0.03348127007 0.7397945523 0.4037866592 -0.6148209572 0.6696523428
-0.07858294994 0.02270560898 0.7389749289 0.2934313118 -0.4835421741 0.7902995348
-0.06176737696 0.02580571175 0.7474834323 0.2028355002 -0.4527505338 0.737683773
-0.059189789 0.01863662712 0.7513921857 0.05685770884 -0.3265403509 0.7992986441
-0.0670029521 0.0130913062 0.7488374114 0.02802080661 -0.2756084502 0.8611633778
-0.07039729506 0.02438147552 0.7430599928 0.2522118688 -0.4712035358 0.7631665468
-0.07350193709 0.01651304215 0.7439749241 0.1428648978 -0.3609325588 0.83938694
-0.05910968408 0.02411745675 0.7238429189 0.4076185226 -0.5020057559 0.75906986
-0.06376586109 0.02877268381 0.7303197384 0.416193217 -0.5973891616 0.6849790812
-0.05625507236 0.03505958617 0.7330048084 0.4456968307 -0.6389825344 0.6267908812
-0.04725528136 0.03263425454 0.7231631279 0.4275917113 -0.5848330855 0.6879550219
-0.1497279406 -0.08459576964 0.7337765694 -0.4141834676 -0.01344261132 0.9061588645
-0.102196075 -0.04881370813 0.7295765281 0.2326438278 0.3617763519 0.8869517446
-0.1319943219 -0.06075158715 0.7344948649 -0.03320272639 0.1691519767 0.9822109938
-0.1224207729 -0.05980459228 0.7365680933 0.09494420886 0.2160103023 0.9670324326
-0.1243030652 -0.05193775892 0.734297812 0.1288630664 0.1828984469 0.972094059
-0.1223838404 -0.07465215772 0.7403398752 0.007607447915 0.2683537304 0.9603870511
-0.1122093871 -0.08013660461 0.7353041768 0.01308163907 0.3501577079 0.935115993
-0.1187222898 -0.06671082973 0.7321086526 0.048290167 0.3024093807 0.9503929019
-0.1493764967 -0.1027226374 0.7299395204 -0.5277395248 -0.1461987197 0.8313319683
-0.1521306038 -0.09239689261 0.7312865257 -0.497721523 -0.1107827872 0.8558707237
-0.140134424 -0.0888813585 0.7410262823 -0.3187111616 0.06836941838 0.944378078
-0.1641256213 -0.08769905567 0.7247932553 -0.2302948236 -0.1767957807 0.9494003654
-0.1718744636 -0.09829345345 0.7190656066 -0.002611794509 -0.2313472927 0.9660621881
-0.164957881 -0.09943591803 0.7220010757 -0.2533169091 -0.1832984686 0.949405551
-0.1777618378 -0.08757277578 0.72420609 0.2446197271 -0.2442368269 0.9343748093
-0.1274311393 -0.09908491373 0.7429760695 -0.2195475698 0.1023325324 0.9678151011
-0.1304027438 -0.1073083431 0.743716836 -0.3536621332 0.05085275322 0.9296610951
-0.1283760965 -0.07201978564 0.7340585589 -0.04360862076 0.2546734214 0.9633153081
-0.1293223649 -0.08055069298 0.7370865345 -0.07025849074 0.2018842995 0.9739824533
-0.142201677 -0.07561355829 0.7367168665 -0.2344575375 0.1812278181 0.9513219595
-0.09497695416 -0.02663913183 0.7237536311 0.05033162236 -0.2219127566 0.9680251479
-0.09925676137 -0.03409219161 0.726685524 0.1170227453 -0.05799349397 0.955123961
-0.09832764417 -0.09782700986 0.7479128242 -0.1807431281 0.4915956855 0.8460181952
-0.106599398 -0.09709086269 0.7436919212 -0.1498591602 0.4013226032 0.8955165148
-0.1019413918 -0.1067573726 0.751365006 -0.2605288029 0.3947850466 0.878485322
-0.1151608303 -0.1106156185 0.7468213439 -0.3482807577 0.2314023674 0.9052066803
-0.1195455715 -0.09922561795 0.7440268993 -0.2007730305 0.1902204007 0.9517753124
-0.09547055513 -0.07480037957 0.7322381735 0.08972337097 0.4328816533 0.8965187669
-0.1110486686 -0.09103671461 0.7452353239 -0.1104754359 0.3542566299 0.9178134799
-0.1198066622 -0.08377301693 0.7422263026 -0.03144524246 0.2772335708 0.9577566981
-0.1117806509 -0.08209612221 0.7431474924 0.0002031505137 0.3423068523 0.9356226921
-0.1039170697 -0.08462098241 0.7445855141 -0.03307647631 0.4060277343 0.8998038769
