# .PCD v0.7 - Point Cloud Data file format
VERSION 0.7
FIELDS x y z normal_x normal_y normal_z
SIZE 4 4 4 4 4 4
TYPE F F F F F F
COUNT 1 1 1 1 1 1
WIDTH 512
HEIGHT 1
VIEWPOINT 0 0 0 1 0 0 0
POINTS 512
DATA ascii
0.040526461 -0.025879988 0.62810004 -0.9088144898 0.05644262955 0.4133647978
-0.23202989 -0.033731017 0.63555557 0.2763100863 0.1840018928 0.9432899952
-0.095171042 0.033926621 0.64432728 -0.0587711744 -0.217181921 0.9743602872
-0.1358528 -0.062112559 0.68016666 0.09933909774 0.7538499832 0.6494935751
-0.035333049 -0.050894883 0.68300003 0.2455214709 -0.7538858652 0.6094056964
-0.00295902 0.038357336 0.67469239 -0.1735018492 -0.7556656003 0.6315588951
-0.17527203 0.025376227 0.64220005 0.05788760632 -0.3117642701 0.9483944774
-0.084773965 -0.035661332 0.63445193 0.09402596951 0.189483732 0.9773715138
-0.025260476 -0.0044503468 0.63247061 -0.03610004112 -0.3270770311 0.9443079233
0.021368213 -0.025815057 0.69205558 0.1253190935 -0.775554359 0.6187168956
-0.18675363 -0.061676279 0.65749997 -0.5038018227 0.567204535 0.6515080333
-0.13367589 -0.010626953 0.63800001 0.1241908222 0.3380846977 0.9328855276
0.040686101 0.01104337 0.66300005 -0.4632131755 -0.6246157289 0.6287199259
-0.045821436 0.031280871 0.6559 -0.1430942267 -0.6889426708 0.710550487
-0.021048766 -0.0078181131 0.68600005 -0.1431844085 -0.04564578086 0.9886428714
0.013784633 -0.051150944 0.65558332 0.358561784 -0.8725963235 0.3316762447
-0.1916481 -0.0149121 0.63000005 -0.2217705697 0.08640095592 0.9712634683
-0.1152506 0.014377083 0.60742861 -0.3427107334 -0.629668951 0.6971846223
-0.053384617 -0.060127936 0.64100003 -0.01776708476 0.7566082478 0.653627038
-0.13493577 0.036979251 0.64505404 -0.03528045863 -0.10211467 0.9941468239
-0.065234512 0.0050180396 0.63600045 0.03398343921 -0.09699145705 0.9947049022
-0.16488802 -0.025442597 0.65487897 -0.3428685069 0.4708687663 0.812849164
0.004780212 0.013794192 0.64674991 -0.2002188265 -0.6329458952 0.7478582263
-0.099090509 -0.056788713 0.66100001 0.1739445478 0.7136892676 0.6785210967
-0.13555896 -0.043117099 0.65240008 0.2317090482 0.4504705369 0.8621990681
-0.10180116 -0.0020750698 0.6351819 -0.3180364966 -0.0001799703459 0.9480784535
-0.21373497 -0.060768906 0.64014286 -0.2057708055 0.5560179949 0.8052964807
-0.0050679091 -0.041539669 0.68373084 0.1029359773 -0.838321805 0.5353697538
-0.20394772 0.012811024 0.63999999 0.2123010308 -0.4306743145 0.877181828
-0.055741157 -0.024671189 0.63544267 0.1504760534 -0.02552955598 0.9882839918
-0.019056603 -0.054859672 0.65871429 0.1337910593 -0.9300932884 0.3420913219
-0.0523456 -0.027150642 0.6863125 -0.04413263872 -0.01584617794 0.9988999963
0.0063261432 -0.011222736 0.63386667 -0.1083498001 -0.4901628196 0.8648703694
-0.1664886 -0.0043336954 0.63634497 -0.3888791502 0.3666050732 0.8452063203
-0.18960722 -0.040829875 0.63800001 -0.5238056183 0.4784847796 0.7047553062
-0.22199835 -0.0066215824 0.63422722 0.2967940271 -0.2510230541 0.9213581085
-0.16582252 -0.063400522 0.6734761 -0.2979216576 0.5066962242 0.8090127707
-0.14514983 0.014838687 0.63522249 -0.1334348172 0.0520179905 0.9896914959
-0.10687369 -0.025837861 0.64449012 0.2888445258 0.2619866729 0.9208321571
-0.076175734 -0.054819033 0.65173686 0.241424188 0.6805183887 0.6918157935
-0.014999839 0.026349094 0.65465313 -0.1499541849 -0.7179697156 0.6797302961
0.042375244 -0.0087782573 0.64833331 -0.722682178 -0.4338274002 0.538074553
-0.1164635 0.016681455 0.64009088 -0.004359368701 -0.1052515507 0.9944360852
0.03313661 -0.044363134 0.64172113 0.502148509 0.4447033107 0.7416777015
-0.035225227 0.016385889 0.64080304 -0.07420043647 -0.5530778766 0.8298187852
0.015586046 0.026557911 0.66195261 -0.3006021678 -0.7107002735 0.6360373497
-0.15548879 -0.046493441 0.66250008 -0.02954281494 0.5048446655 0.8627045155
-0.024910878 -0.032169677 0.6900003 -0.06243730336 -0.1218987629 0.9905767441
0.03013454 -0.036043271 0.67400002 0.4411866963 -0.8245782852 0.3541538715
-0.074805401 0.025216943 0.6419366 -0.1181935444 -0.4305425286 0.8947979808
0.024536014 0.0042514382 0.64534992 -0.3990807831 -0.6423329711 0.6543262601
-0.082219057 -0.010626953 0.63800001 -0.1330531389 0.1070028022 0.9853157997
-0.18434559 0.0045587644 0.62724674 -0.006767450832 -0.1708327085 0.9852768183
-0.055045903 -0.051567722 0.69000006 0.1407111585 -0.7435967326 0.6536545157
-0.21521783 -0.024827898 0.6265713 0.1932869405 -0.01736030169 0.9809886813
-0.11442801 -0.046248037 0.65263051 0.1550614685 0.5828507543 0.7976471186
-0.17593351 -0.044487491 0.65722752 -0.505036056 0.4468005896 0.7384496331
-0.11864807 -0.059324034 0.67000002 0.1894802004 0.7494867444 0.6343239546
-0.045037545 -0.0049992958 0.63419735 0.1066411659 -0.1450507492 0.9836604595
-0.065210186 -0.045502208 0.63464171 0.05499382317 0.3041226566 0.9510442019
0.0094044413 -0.038794693 0.67050004 0.3158014417 -0.873891592 0.3695712984
-0.14522319 -0.025099725 0.65435821 0.2003055513 0.3850522041 0.9008953571
-0.16425219 0.014792096 0.63004678 -0.07855793834 -0.2030048072 0.9760213494
-0.1009014 -0.020694008 0.62666672 0.03762155399 0.348872304 0.9364148378
-0.0050997115 -0.024998991 0.69401491 -0.1337384433 -0.1317012757 0.9822264314
-0.20822667 -0.042453974 0.62891668 -0.1387846321 0.3771009147 0.91571486
-0.014176522 0.0089134527 0.64043742 -0.1369009316 -0.5060620308 0.8515628576
0.021729207 -0.021176906 0.63016671 -0.09561160207 -0.09163177758 0.9911922216
-0.09525612 0.015131484 0.63632536 -0.1615907103 -0.2896001637 0.9434087873
-0.11314263 0.035150405 0.64092594 -0.08667058498 -0.1994781494 0.976061821
-0.041311599 -0.060246725 0.65450001 -0.03941626102 -0.998411119 0.04026897252
-0.12486688 -0.025139684 0.64632845 0.1562803835 0.277813226 0.9478376508
-0.17890549 -0.024912883 0.63742113 -0.5962780118 0.3752553761 0.7096731067
0.032972209 -0.0072996994 0.63334614 -0.3969447315 -0.5715901852 0.7181361318
-0.15157391 0.030762233 0.63800001 -0.07801891118 -0.1716292799 0.9820674062
-0.0047121057 -0.047272552 0.66372514 0.1838198602 -0.9023656845 0.3898031116
-0.09452872 -0.044130336 0.64530444 0.2622673213 0.5768118501 0.7736303806
-0.20126952 0.00055142335 0.62900001 0.120200932 -0.2762559056 0.9535378218
-0.054861158 0.024730215 0.64382863 -0.1196987927 -0.5581743717 0.8210442066
-0.034373742 -0.017023029 0.68681848 -0.09208638966 -0.04427696019 0.9947661161
-0.061693419 0.033647425 0.65654546 -0.1540958732 -0.6040932536 0.7818732858
-0.20211793 -0.06281285 0.65313053 -0.3945670426 0.6629240513 0.6362770796
-0.10598899 0.00054353336 0.62 -0.8405516148 -0.2616338432 0.4743634462
-0.11552191 -0.005805999 0.64181256 0.2112350017 0.1974471509 0.9572849274
-0.15522113 -0.014728147 0.64827913 -0.05093641579 0.4725942016 0.8798068762
-0.1902016 0.021881599 0.64000005 0.1703727394 -0.4720259011 0.8649651408
-0.15261571 0.0026945521 0.64050007 -0.1706269085 0.3959671557 0.9022729397
-0.075137481 -0.025860587 0.64082819 0.05074095353 -0.1787652075 0.9825825095
-0.02457683 0.034254432 0.66322738 -0.1323908269 -0.7641965151 0.631249845
-0.091037452 -0.021700568 0.64300001 -0.01920767687 0.05866504461 0.9980929494
-0.19854222 -0.031180929 0.62840009 -0.2642235458 0.2609822154 0.9284794927
0.027609067 0.018152799 0.66138464 -0.3928948641 -0.625792861 0.6738077402
-0.19918722 -0.051714126 0.63600004 -0.3954382241 0.575056076 0.7161976695
-0.23065977 -0.019453233 0.634 0.2693710923 -0.03009496816 0.9625660777
-0.13520274 0.025037836 0.63466626 -0.08659852296 0.009041504003 0.9962022901
-0.085288607 0.0050180829 0.63587683 -0.01712501422 -0.03135628253 0.9993615746
-0.20491058 -0.014791154 0.6249584 0.07865554094 -0.07902282476 0.9937649369
0.0049951272 -0.034882326 0.6927461 0.1685649008 -0.6978529096 0.6961229444
0.01079396 0.037011728 0.67650002 -0.2492053062 -0.7348371148 0.6308019757
0.0048098313 0.0022662806 0.63699996 -0.1625532061 -0.5565699935 0.8147431016
0.025590388 -0.039065532 0.65211111 0.3412542641 -0.9396705627 -0.02376490273
-0.1305795 -0.051651448 0.66200006 0.1831874549 0.7359439135 0.6517890096
-0.1367321 0.0024805989 0.64048404 -0.02019421756 0.2725583315 0.9619272947
-0.18600947 -0.051712766 0.64820838 -0.5377753377 0.5719058514 0.6194524765
-0.15406096 -0.057127513 0.67075002 -0.1565195918 0.593667984 0.7893414497
-0.065232553 -0.015054355 0.63597566 0.1482203156 -0.03817551211 0.9882172942
-0.10567333 0.024470223 0.63740867 -0.2372879684 -0.5149593353 0.8237180114
-0.22519585 -0.0449269 0.63285011 0.1797584295 0.3249314427 0.9284968972
-0.15458259 -0.034786444 0.65627164 0.08888044953 0.4051801264 0.9099062085
-0.025342777 0.022956869 0.6471352 -0.1124474704 -0.6713893414 0.732524395
0.0046273316 -0.016118269 0.69413966 -0.0423768796 -0.1718887091 0.9842044711
-0.065043233 -0.053885672 0.64462078 0.1471347064 0.6648782492 0.7323170304
-0.17784888 -0.034575306 0.64604872 -0.6568480134 0.4336357713 0.6168555021
-0.087104432 -0.060568899 0.65800005 0.2268485725 0.7355575562 0.638353169
0.01554398 0.016120307 0.65331817 -0.3182955384 -0.6528044343 0.6874113679
0.041627638 -0.016066574 0.63688892 -0.6671167612 -0.3112399876 0.6768196821
0.0048035439 0.022950647 0.65621173 -0.2130434811 -0.7059296966 0.6754818559
-0.21341592 0.0026490763 0.63415998 0.2427128404 -0.3298714459 0.9122912288
0.03532489 0.022527315 0.67033339 -0.3943172395 -0.6610041857 0.6384257078
-0.17513105 -0.055110574 0.66384602 -0.4524645209 0.4584033489 0.7649459243
-0.11526297 -0.034800429 0.64659709 0.2146591097 0.3930882812 0.8940934539
0.0045335251 0.032447658 0.66425002 -0.2132378519 -0.7388800979 0.6392071843
-0.05548431 0.012486628 0.6377275 -0.04870248586 -0.3888368607 0.9200184345
-0.035124213 0.0050202794 0.63593882 -0.0009320463869 -0.3770667315 0.9261856079
-0.004858919 -0.0049036187 0.63433743 -0.08530528843 -0.461340636 0.8831126094
-0.12455571 0.032931395 0.6371333 -0.06298266351 -0.1193646193 0.9908508062
0.028766064 -0.030598298 0.62700003 0.4097227752 0.3969330192 0.8213229775
-0.064492479 -0.033114452 0.63585716 0.07237297297 0.09195414931 0.9931296706
0.041925304 -0.036069576 0.63438457 -0.3299677968 0.4492099285 0.8302600384
-0.025199234 -0.04445209 0.68403071 0.04515949264 -0.7748129964 0.6305754781
-0.098452643 -0.0075554638 0.62460005 -0.6774076223 -0.06159029901 0.7330248952
-0.034893021 0.028031906 0.65251851 -0.1080026776 -0.6916558743 0.7141061425
-0.06512738 0.031180725 0.64547366 -0.1314768046 -0.5140679479 0.8476131558
-0.044729672 -0.044795189 0.68679488 0.2613465786 -0.6485655308 0.7148851156
-0.035601433 -0.049956851 0.65500003 -0.1198604628 -0.964016974 0.2372861207
-0.17543364 -0.014160914 0.634597 -0.5088116527 0.3710222244 0.7768225074
0.01673553 -0.035280682 0.6871739 0.2274897844 -0.8050557375 0.5478445888
-0.036288131 -0.011759073 0.63086969 0.08187585324 -0.1839259714 0.9795241356
-0.025280962 0.010738817 0.63800001 -0.08380988985 -0.4815025628 0.872428298
-0.22242676 -0.034705754 0.62836117 0.2161262482 0.1842258722 0.9588275552
0.035118636 0.0051723476 0.65485007 -0.4632113278 -0.6248376966 0.6285007
-0.074680254 -0.048694454 0.64139998 0.2503230274 0.5960746408 0.7629111409
-0.18851875 -0.025847483 0.62888235 -0.453117907 0.3228096962 0.8309500813
-0.075384222 0.015079815 0.63696325 -0.04707380384 -0.1929347813 0.980081737
-0.14482628 -0.0050763455 0.64280003 0.009496154264 0.3810042739 0.9245244861
-0.1752748 0.01618718 0.63166642 0.02812176943 -0.335072279 0.9417726398
0.032174237 -0.017851871 0.62829411 -0.4094991982 -0.3176345527 0.8552302122
-0.14546515 -0.042438779 0.65732133 0.2267636508 0.4760884941 0.8496575952
-0.17814235 -0.0044555482 0.62879163 -0.3055835366 0.1697191745 0.9369173646
-0.014227266 -0.03398452 0.69130033 -0.109308131 -0.2045351118 0.9727368951
-0.085639171 0.018719224 0.63999999 -0.03245480731 -0.1996745765 0.9793246388
-0.034926042 -0.034925841 0.6869064 0.03504537046 -0.1079043001 0.9935433865
-0.013307936 -0.045776699 0.67815393 0.1688025892 -0.8695046306 0.464184612
-0.12558664 -0.042204484 0.64858067 0.2009225637 0.4564332664 0.8667749166
-0.16538577 -0.01484795 0.64504033 -0.4106941819 0.5042532682 0.7596439123
0.014957353 -0.0049622026 0.6336925 -0.1613238007 -0.5470873117 0.821383059
-0.16502927 -0.05319209 0.66639543 -0.2404378653 0.5062085986 0.8282164335
-0.015161271 -0.014947874 0.69113904 -0.1506475061 -0.1024302915 0.9832666516
-0.11238845 0.0068422891 0.61425006 0.7898310423 0.412460953 0.4539194703
-0.1247806 -0.015134444 0.64321709 0.1759154946 0.2770442367 0.944616437
-0.056554493 -0.049063385 0.64083338 -0.1446747333 0.404794544 0.9028901458
-0.092351571 -0.0090892799 0.64000005 -0.1307310909 0.08281309158 0.9879531264
-0.16352335 -0.035721414 0.66151345 -0.2004788667 0.4292069077 0.8806756735
0.034251209 -0.0031380684 0.64518189 -0.4262174964 -0.6380621195 0.6412608027
-0.094837949 -0.025089413 0.63381433 -0.08545229584 0.1319286078 0.9875690937
-0.0052970294 0.014925683 0.64482641 -0.1734407842 -0.6175331473 0.7671838999
-0.055184465 -0.0050164703 0.63583982 0.1288427711 -0.08658898622 0.9878774881
-0.0046358132 0.029263565 0.66100007 -0.1789256632 -0.7450128794 0.6426051855
-0.1043388 -0.042559113 0.64766669 0.2199833095 0.5883696079 0.7780928612
-0.14505704 -0.055872243 0.67539275 0.04028721526 0.6469576955 0.7614609003
-0.16559947 0.02840024 0.64328581 0.006967510097 -0.2308447659 0.9729656577
0.0051510283 -0.044823837 0.66298658 0.3140719235 -0.8806683421 0.3546577692
-0.16928697 0.0060656564 0.62900001 -0.2184268087 0.02487327345 0.9755362868
-0.070030764 -0.038048211 0.62900001 0.01674320363 0.08985608816 0.9958140254
-0.048397295 -0.055881169 0.64868432 -0.1756150275 0.6181371808 0.7662021518
-0.085347794 0.032270942 0.64268976 -0.1303619146 -0.365131706 0.9217833877
-0.045167342 0.005018774 0.63607454 0.03188184276 -0.2831322253 0.9585508108
-0.065221332 -0.0050171642 0.63586462 0.09708767384 -0.01422809623 0.9951741099
-0.075270593 0.0050180391 0.63600045 0.01627848111 -0.05417012423 0.9983990192
-0.14441854 -0.014512282 0.64599991 0.06122472137 0.4280444086 0.9016814828
-0.1475352 -0.051475495 0.66570002 0.0608702302 0.6723906994 0.7376893163
-0.045133673 -0.03490312 0.68645883 0.129659906 -0.225504458 0.9655755162
-0.014642335 -0.0035104188 0.63380021 -0.08366656303 -0.4235972464 0.9019785523
-0.014775407 0.033119116 0.66184622 -0.1423131824 -0.763614893 0.6297929883
-0.20533085 -0.024782987 0.62517852 -0.008618417196 0.05269655585 0.9985733628
-0.045080528 0.024378661 0.64504921 -0.1312330514 -0.6237635612 0.7705172896
-0.13537817 0.01532306 0.63596159 -0.05220389366 0.04013251141 0.9978297353
-0.014604771 -0.048120197 0.66413039 0.1567888558 -0.9208035469 0.3571246862
-0.095196903 0.0050104745 0.63499975 -0.3868479133 -0.2067530751 0.8986667395
-0.055119604 -0.01502976 0.63504934 0.1863452792 -0.06670599431 0.9802172184
-0.065748274 0.014734556 0.63728797 -0.07957369834 -0.3426386416 0.9360912442
-0.14490221 0.025142878 0.63387972 -0.08383520693 -0.04472883046 0.9954752326
-0.12515029 0.01733242 0.63595641 0.01545593143 -0.04168493673 0.9990112782
-0.078774057 -0.058452625 0.66233337 0.2086800784 0.7065424323 0.6762029529
-0.0049414178 -0.015270818 0.69372755 -0.1130996197 -0.1030875072 0.9882213473
-0.21111119 -0.0085433358 0.62875003 0.1400122643 -0.1875614226 0.9722228646
-0.13709392 -0.033830766 0.65417641 0.2750779688 0.3857623041 0.8806358576
-0.19502836 -0.053611759 0.64572883 -0.4651496708 0.5939339995 0.6564131379
0.015532606 0.0065514101 0.64326799 -0.2240274847 -0.6097452044 0.7602779269
-0.1154226 -0.015802409 0.64470184 0.2510007322 0.2293251008 0.9404300451
-0.088324159 -0.0495755 0.65000004 0.2208088338 0.677580893 0.7015180588
-0.11566381 -0.056103189 0.66162068 0.1914876848 0.7275648117 0.658773005
-0.10493434 0.015069546 0.63668066 -0.1873032153 -0.3665445149 0.911352098
-0.045509111 -0.01418369 0.63243079 0.1402347982 -0.05394236743 0.988647759
-0.15450846 -0.025255203 0.65315497 -0.04089048505 0.4804608226 0.8760623932
-0.15443256 0.024335125 0.63189209 -0.1453061849 -0.1065080464 0.9836372137
-0.11520118 0.025167078 0.63651282 -0.1262700707 -0.5779254436 0.8062617779
-0.099235818 -0.03673825 0.64225006 0.3135391474 0.4572461545 0.8322374225
-0.20383413 -0.05727059 0.64589292 -0.3759023547 0.6162461638 0.6920535564
-0.19423841 0.014286012 0.63659006 0.1596844792 -0.4130980372 0.8965772986
-0.17336179 -0.035257597 0.65411109 -0.5242730975 0.4372642636 0.7307103872
-0.0050319289 -0.034218222 0.69200015 -0.004790432751 -0.4312638342 0.9022131562
-0.13342044 -0.02188272 0.6455 0.191899389 0.2878397405 0.9382552505
-0.21539326 -0.048061717 0.63015008 -0.02755350061 0.3891884685 0.9207459688
-0.028423283 -0.023899686 0.68800002 -0.1123514548 -0.04455223307 0.9926692247
0.015858341 -0.013822466 0.63153595 -0.1435617656 -0.4959820807 0.856382966
-0.19494009 -0.0050977534 0.62557477 0.01829085872 -0.1376760751 0.990308404
0.0049156668 -0.025211042 0.69487083 0.02007541433 -0.4437098503 0.8959456086
-0.15528326 0.015037462 0.6315062 -0.1825017631 0.0719275102 0.9805710316
-0.093297176 -0.034776166 0.63144654 0.1649331301 0.4174451232 0.8936087489
-0.22291531 -0.052988358 0.6362223 0.01177345496 0.4659187496 0.8847491741
-0.015033655 -0.025077982 0.69250041 -0.1461752057 -0.1186667979 0.9821155667
-0.075334445 -0.005024435 0.63653111 0.03277686983 0.06010740623 0.9976536632
-0.073980689 -0.014516041 0.63727266 0.1151765287 0.0692820698 0.9909260273
-0.1854267 0.015638893 0.63604558 0.1282926947 -0.4177919328 0.8994392157
-0.10559275 0.0041518928 0.64000005 0.04562748224 0.01744683087 0.9988061786
-0.0051619229 0.0035302264 0.63658935 -0.1061372608 -0.4937281907 0.8631148934
-0.17517056 -0.024691837 0.64527929 -0.5834383965 0.4791151583 0.655780673
-0.023679623 -0.016125748 0.69000041 -0.138872847 -0.06599860638 0.9881085753
-0.16485909 -0.044988047 0.66361749 -0.1914583594 0.4842089117 0.8537478447
0.013066278 -0.017592508 0.69535726 -0.03818524256 -0.55003196 0.8342701793
-0.094511732 0.026038768 0.64086539 -0.05887774378 -0.2033422589 0.9773358107
-0.1263226 0.037352927 0.64494747 -0.06012885273 -0.139729917 0.9883623123
0.013089946 -0.041593883 0.66205561 0.3492001891 -0.8791264892 0.3243390024
-0.15516995 -0.0051091835 0.64308983 -0.1136958972 0.4990801811 0.8590647578
-0.02462776 -0.048820909 0.66100001 0.1319807023 -0.9119654298 0.388458699
0.023653809 -0.031762868 0.68364704 0.3433179259 -0.8204079866 0.4572346509
-0.06461931 -0.024693754 0.63707584 0.1469504088 -0.08327578008 0.9856321216
-0.1957034 0.0063419826 0.63175559 0.1424986124 -0.3590864241 0.9223616719
-0.21744461 -0.013603994 0.63124138 0.2208958566 -0.1173340008 0.9682136774
-0.096758477 -0.048412755 0.65222228 0.197316885 0.7076109648 0.6784930229
-0.16484617 0.022855068 0.63228887 -0.0349268578 -0.2189101875 0.97511971
-0.11507612 -0.024938188 0.64598584 0.2485183179 0.2941567302 0.9228816032
0.024794795 -0.0058968617 0.63433355 -0.3002194762 -0.5959569812 0.744784236
-0.044969577 0.017359834 0.64065111 -0.1045093685 -0.5447142124 0.8320842385
-0.0085271904 0.021603843 0.64850003 -0.1675235927 -0.6749637127 0.7185817957
-0.032631945 0.034663618 0.66175002 -0.1265831441 -0.7481468916 0.6513470411
-0.034763377 0.0232215 0.6459111 -0.1140869036 -0.6544088125 0.7474846244
-0.07507807 -0.043859832 0.63483065 0.1536608189 0.3556825519 0.921888411
-0.05405717 -0.035077754 0.6867829 0.25905177 -0.544687748 0.7976261377
-0.042322088 -0.018666612 0.68685728 -0.05820330605 -0.02600480616 0.9979659915
-0.10803906 -0.018567933 0.64784622 0.2394387722 0.2100032121 0.9479281306
-0.19335939 -0.058055401 0.65226316 -0.4920805395 0.6026050448 0.6282705665
-0.052735783 -0.044115543 0.6876061 0.3625148833 -0.6570076346 0.6610022187
0.02719602 0.0087434016 0.65146154 -0.4154416919 -0.6238000393 0.6620284915
0.020220317 0.020220317 0.65900004 -0.3490904272 -0.6636209488 0.6616215706
-0.10779724 -0.057096098 0.662875 0.137884289 0.7099010348 0.6906724572
-0.14099211 -0.021604136 0.64850003 0.2008488029 0.3560944796 0.9126096964
-0.12700136 -0.0075140628 0.64213043 0.06081090495 0.2711337209 0.9606188536
0.0020093201 -0.040773183 0.68733335 0.2273231745 -0.8045725226 0.5486230254
-0.19665627 -0.044061564 0.63619643 -0.4088009596 0.5002648234 0.7632934451
-0.1723178 -0.017297842 0.64200008 -0.5175372362 0.435649544 0.7364541292
-0.21504007 -0.054049741 0.63593662 -0.1121482328 0.5313974023 0.8396663666
-0.15940429 -0.00055931334 0.63800001 -0.2945911884 0.4075002074 0.8643839359
-0.20516503 0.0049836929 0.63427407 0.1902883798 -0.3640641272 0.9117278457
-0.058010567 0.030143086 0.64875007 -0.1732940376 -0.5763376355 0.7986264229
-0.090882279 -0.040701881 0.63600004 0.2878872454 0.5249877572 0.800942421
0.023942655 -0.01367637 0.63071722 -0.2190236896 -0.5387473106 0.8134985566
-0.18475114 -0.044950075 0.64445978 -0.595536828 0.5043736696 0.6252544522
-0.1054557 0.033936076 0.64167875 -0.08320088685 -0.2213634551 0.9716356397
-0.18554775 -0.034497831 0.63586676 -0.5698119402 0.4000793993 0.7178097367
-0.075561441 0.03205879 0.64560711 -0.1271808445 -0.4429228902 0.8874933124
-0.12520038 0.02511899 0.63575 -0.01046585664 -0.154981479 0.9878619313
-0.1672347 -0.012118455 0.63800001 -0.4930929244 0.4405633509 0.7501755357
-0.20575388 -0.033859182 0.6277231 -0.09606486559 0.2495326996 0.9635896087
-0.14497066 -0.035116095 0.65496045 0.2645807564 0.3768806159 0.8876699805
-0.13262179 -0.035802118 0.64821631 0.2323176265 0.3872036636 0.8922454119
-0.04938877 -0.021088216 0.63300002 0.1856577545 -0.09209024161 0.9782896042
-0.16863059 -0.022274267 0.64845461 -0.497107923 0.4721117318 0.7280070186
-0.055207089 0.0050192946 0.63609922 0.02937196568 -0.2205144614 0.9749413729
-0.045570858 -0.052367534 0.68717861 0.2717230916 -0.7109592557 0.648616612
0.031306423 0.012263251 0.65824997 -0.4226535857 -0.6186922789 0.6622565985
-0.21490324 -0.034583457 0.62711221 0.1302274466 0.1252156943 0.9835455418
-0.17124647 -0.05897643 0.67050004 -0.3493776917 0.4840092659 0.8022906184
0.014419099 0.0017665536 0.63748014 -0.1903432757 -0.5895082951 0.7850155234
-0.00055843667 -0.010610296 0.63700002 -0.08621747792 -0.4704678655 0.8781950474
-0.18431762 -0.016573876 0.63091075 -0.3944336176 0.2313600779 0.8893225789
-0.16927293 -0.041018356 0.65900004 -0.4579094052 0.4511531591 0.7660155296
-0.13597587 -0.02644103 0.65495646 0.2493181527 0.3395944238 0.9069267511
-0.17189348 -0.028105745 0.65235716 -0.545751214 0.4894988537 0.6801077127
-0.08459767 -0.025149688 0.64130235 -0.1305482388 0.0483485274 0.9902623892
0.024213808 0.014342296 0.65593112 -0.3969821632 -0.6360793114 0.661670804
-0.18256922 -0.038377449 0.64166671 -0.6234877706 0.4266956747 0.6551288366
-0.17894486 -0.041699179 0.64800006 -0.6401212811 0.4607813656 0.6147562861
-0.12479116 -0.034903735 0.64729393 0.1760856956 0.3503910005 0.9199021459
-0.22453536 -0.015305455 0.63271654 0.2692039609 -0.10592141 0.9572407603
-0.029225437 -0.010477044 0.62900001 -0.002769455779 -0.2403892428 0.9706726074
0.038285874 -0.0036543845 0.65179998 -0.4680771828 -0.6361846924 0.6133292913
-0.1021755 -0.013830698 0.62328207 -0.4425721467 0.212052092 0.8713001013
-0.10557929 -0.047912862 0.65259999 0.2197584063 0.6078421474 0.7630426884
-0.20615181 -0.054140836 0.6363585 -0.2926635444 0.5758031607 0.7634125948
-0.22084373 -0.05900405 0.64100003 -0.1286389083 0.5520751476 0.8238112926
-0.004834976 0.024751624 0.65525466 -0.1745096147 -0.7108806968 0.6813185811
-0.14812784 -0.018124316 0.65112501 0.09414542466 0.4422883987 0.891917944
-0.20878544 -0.001815201 0.63028574 0.1869773269 -0.2661864758 0.9456131458
-0.015237256 0.01524854 0.64383936 -0.1509056687 -0.6087885499 0.7788478136
-0.14540333 0.0035923875 0.64057994 -0.1039713919 0.3435658216 0.9333555102
-0.1349813 0.032103512 0.63633335 -0.0393200703 -0.09154990315 0.9950239062
-0.045018166 -0.025399175 0.68654323 -0.04413263872 -0.01584617794 0.9988999963
0.026267892 -0.0011933624 0.64087504 -0.3582563996 -0.6246311665 0.6938935518
0.014601709 -0.025269834 0.69459152 0.1170202047 -0.6602417231 0.7418808341
0.035125725 0.015459855 0.66434884 -0.4112211466 -0.6230478883 0.665363431
0.013652455 0.012029953 0.64752382 -0.2731916606 -0.6414644718 0.71686095
0.020005533 -0.050871212 0.65200001 0.4393338561 -0.8715381026 0.217731759
-0.1790729 -0.032050934 0.6376667 -0.6042513251 0.3928069472 0.6932409406
-0.015644578 0.021745713 0.64826316 -0.1437071562 -0.6724582911 0.7260496616
0.0041119 -0.051647179 0.66123819 0.2469801754 -0.9124758244 0.3261727095
-0.2218599 -0.026071321 0.62874997 0.2036069036 0.002047787653 0.9790505767
-0.16210562 -0.018244311 0.6503334 -0.2514672577 0.5146687627 0.8196830153
-0.051364779 0.029106211 0.65100002 -0.1500296146 -0.6189134121 0.7709976435
-0.10434338 -0.05403905 0.65711135 0.1547859162 0.7202745676 0.6761995554
0.041521393 0.0024174959 0.65600002 -0.4767768383 -0.6286422014 0.6144044399
-0.074033484 -0.032817159 0.64094603 0.198331967 0.03733626008 0.9794235229
-0.14409238 -0.061600726 0.67937493 0.02998206578 0.6919304132 0.7213413715
-0.19519995 -0.024598714 0.62712085 -0.2513998747 0.204536438 0.9460248351
-0.034951024 -0.0050252401 0.63228744 0.02878717333 -0.2462889105 0.9687688351
-0.18441789 -0.055761416 0.65370369 -0.5249122977 0.5564385653 0.6440832019
-0.057686057 -0.031489942 0.63575011 0.06064165011 0.0634752959 0.9961392879
-0.02422712 0.027660646 0.65218759 -0.1245965734 -0.6974482536 0.7057206631
-0.21546371 -0.004652855 0.63259101 0.2390370667 -0.262911588 0.9347399473
-0.17691708 -0.06181832 0.66400009 -0.4313190281 0.5139907002 0.7414698005
0.027580949 -0.044514481 0.64586055 0.3044913411 0.7486736178 0.5888742208
-0.18158151 0.010694282 0.62879997 0.07915644348 -0.307412833 0.9482782483
-0.17877467 -0.050748918 0.65783334 -0.5564739704 0.4841452241 0.6752333641
0.011842598 0.031839069 0.66433334 -0.2648538053 -0.7239076495 0.63703233
0.038246583 -0.042319708 0.63757145 0.5833391547 0.3094695508 0.7509620786
0.031770777 -0.036016848 0.65214288 0.8466469049 -0.4410474598 0.2977685928
0.0052395836 0.0072898907 0.64164448 -0.1687175781 -0.5780411363 0.7983751297
-0.085122652 -0.0045618322 0.63672233 -0.08231464028 0.01413997356 0.9965060949
-0.19470744 -0.035202459 0.63239193 -0.3973752558 0.370941937 0.8393419981
-0.12459566 -0.05026193 0.65900004 0.2382643372 0.6870085597 0.6864760518
-0.064847969 0.025107203 0.64236015 -0.1115810573 -0.4985646009 0.8596411943
-0.13471404 -0.0047343704 0.64126289 0.07876548916 0.3641391098 0.9280079007
-0.085665636 -0.04685998 0.64438242 0.2831233144 0.6421111822 0.7124145031
-0.0054188827 -0.044627536 0.67770588 0.2038376182 -0.8698849678 0.4491663575
0.024371834 0.023856513 0.66301847 -0.3609586358 -0.6820948124 0.6359682083
-0.13487539 -0.015517103 0.64250028 0.1581528634 0.3536332846 0.9219171405
-0.18468058 -0.0049145548 0.62716818 -0.2206820995 0.0707507655 0.9727762938
-0.1158879 -0.041673586 0.6478889 0.1165012419 0.4443864524 0.8882275224
-0.068795539 0.020694593 0.63800001 -0.09077933431 -0.3888631463 0.9168121815
-0.034935184 -0.025298469 0.6870783 -0.04674318433 -0.06026873738 0.997087121
-0.23152417 -0.025665183 0.63637507 0.2291702926 0.03389256075 0.9727960825
-0.17215945 -0.047780458 0.66168422 -0.444991529 0.4711422324 0.7615822554
-0.08484187 0.025288131 0.64092559 -0.08122051507 -0.3230077028 0.9429047108
-0.14400974 0.031344634 0.63620013 -0.04767656326 -0.08591029048 0.9951614738
-0.18867515 0.008511031 0.63040006 0.1171302497 -0.3189016283 0.9405223131
-0.094864056 -0.054324839 0.65650928 0.1944741905 0.6966283321 0.6905713081
-0.10519122 -0.034977932 0.64460021 0.2741008401 0.4430389404 0.853572011
-0.22001791 -0.019299816 0.62900001 0.2232959419 -0.05648856238 0.9731125236
-0.084056392 -0.04222862 0.63496435 0.2658731043 0.4306688309 0.8624591827
-0.18111961 -0.057250373 0.66169238 -0.4930893779 0.5180279016 0.6989348531
0.021966243 -0.04462738 0.65223682 0.4393338561 -0.8715381026 0.217731759
-0.089451164 -0.027074736 0.63736367 -0.08638599515 0.0952622667 0.9916968346
-0.015297575 0.0040794262 0.63623089 -0.1089129299 -0.4308332205 0.8958352208
-0.085470684 -0.055156615 0.65479338 0.2426466048 0.6821075082 0.68982023
-0.15927762 0.028986108 0.64200002 -0.04549007118 -0.1800482124 0.9826053381
-0.059008431 -0.047318961 0.63499999 -0.00383330835 0.3365158737 0.9416700006
-0.19325209 -0.046675801 0.64102781 -0.4875178039 0.5382807851 0.6874446869
-0.18388632 0.023191897 0.64019352 0.1503144503 -0.4778570831 0.8654814363
0.0062825768 0.018197356 0.65118748 -0.2249047011 -0.6666960716 0.7105872631
-0.03486675 -0.045082685 0.6857087 0.2642666399 -0.5201686025 0.8121500611
-0.10835977 0.011264903 0.61190003 -0.6171760559 -0.488238126 0.617022872
0.032512732 -0.03833852 0.64384621 0.7640493512 0.1078470275 0.6360798478
-0.18410616 -0.024902351 0.63344455 -0.5351711512 0.3661162257 0.7612823248
-0.15571789 0.006090506 0.63603455 -0.2374639213 0.2386976779 0.9416126013
0.0050037857 -0.00500528 0.63455546 -0.1121708676 -0.5245726705 0.8439438343
-0.09704487 -0.015545462 0.62668902 -0.6575944424 -0.06101656705 0.7508971691
-0.12500376 -0.054719202 0.66354716 0.2043231875 0.7316224575 0.6503695846
-0.094870932 -0.0044917092 0.63640583 -0.2578904331 -0.02142794244 0.9659365416
-0.025061099 0.0050170128 0.63527149 -0.05994502455 -0.4249557555 0.9032270908
-0.0047387336 0.0084244488 0.64059997 -0.1467442662 -0.5479660034 0.8235285878
-0.20740764 -0.060408175 0.64000005 -0.3103928864 0.6121786833 0.7272506952
-0.075546704 -0.036837123 0.63184464 0.06767240167 0.08670426905 0.993933022
-0.013916733 -0.0088341702 0.69020003 -0.1485940367 -0.07347457856 0.9861649275
-0.1751058 0.021634871 0.63481265 0.006407842971 -0.2814142108 0.9595649838
0.014083327 0.021818254 0.6581111 -0.2852282226 -0.6952700019 0.6597306132
-0.084558062 -0.031293966 0.64007694 0.1271432787 0.02974532172 0.9914382696
-0.10371011 -0.0048288694 0.62221581 -0.7647621036 0.001312999055 0.6443114281
-0.025039168 0.03123194 0.65778959 -0.1288358718 -0.7351118326 0.6655914187
-0.025293713 0.015809236 0.64160562 -0.1082895473 -0.5934838057 0.7975276113
-0.061444614 0.018237224 0.64008337 -0.1156485155 -0.4557648599 0.882555306
0.034390312 -0.025065633 0.62810934 -0.8384775519 -0.03158710152 0.5440199375
-0.12460841 -0.046732765 0.65266651 0.1954281777 0.5510517359 0.8112643361
-0.0028491667 0.019716233 0.65000004 -0.1779373437 -0.6606462598 0.7293043733
-0.1624862 -0.0065408652 0.64048386 -0.3288983107 0.4831950366 0.811386764
-0.19341554 0.0021032824 0.62790906 0.09084662795 -0.2911251783 0.9523618221
-0.23078366 -0.042387124 0.63333338 0.2302272618 0.2499748021 0.9404828548
-0.13622653 0.0076180585 0.63716006 -0.05985732749 0.1912545413 0.9797136188
0.0051866858 0.037332855 0.67402858 -0.2239958197 -0.7433440685 0.6302899718
-0.084929444 -0.015286937 0.64091116 -0.2094133347 0.04300160334 0.976881206
-0.015715603 -0.042929787 0.68300009 -0.06725421548 -0.8028281331 0.5924052
0.013530032 -0.033093948 0.6918751 0.2139588445 -0.7654799223 0.6068459749
0.031562191 0.0018167163 0.64750004 -0.4501809776 -0.6379830837 0.624751687
-0.18034728 -0.046530738 0.65355563 -0.6029706597 0.4895464778 0.6298972964
-0.064570695 -0.051172294 0.63677782 0.09775814414 0.4449844658 0.8901866078
-0.15596606 -0.05295362 0.66676474 -0.1797649413 0.5648903847 0.805346787
-0.20471248 -0.0052486886 0.62738711 0.1170178503 -0.2213507295 0.9681480527
0.026739504 -0.023804214 0.62800014 0.1124870479 0.2563536167 0.9600153565
-0.22130458 -0.040621523 0.62900001 0.2082631141 0.2576208413 0.9435348511
-0.045733903 0.01242744 0.63724333 -0.05262676999 -0.4543251693 0.8892800808
-0.1372423 -0.057349052 0.67672229 0.1162906364 0.7103736997 0.6941510439
-0.10081112 -0.024790963 0.63300002 0.2814245224 0.341604948 0.8967197537
-0.054582268 -0.054692775 0.64332348 -0.0007210820331 0.6023326516 0.7982448339
-0.097001858 0.021525234 0.63775015 -0.05669733882 -0.1764303893 0.9826788306
-0.22625919 -0.023861863 0.63221943 0.2372388989 -0.04629874974 0.9703474045
-0.072416939 -0.021389678 0.63787502 0.1051130295 -0.09866848588 0.9895533323
-0.17319235 -0.064004421 0.67315143 -0.370472014 0.4954191744 0.7856909633
-0.082498714 -0.050637145 0.64900005 0.2022000551 0.6981152296 0.6868407726
-0.22763492 -0.035809264 0.63113803 0.228409335 0.2063347101 0.951448977
-0.15935609 -0.039983891 0.66100001 -0.1333434582 0.4648433328 0.8752943277
-0.15335913 -0.042565279 0.65854555 0.09626115113 0.5049920678 0.8577393889
0.040413894 -0.02103693 0.63150001 -0.7831983566 -0.1673732847 0.5988209844
-0.017152382 -0.037593856 0.68763638 -0.1184617057 -0.350202322 0.9291529059
-0.20454316 -0.045235019 0.63261771 -0.2437777817 0.4721150398 0.8471598029
-0.054803114 0.032864228 0.65391904 -0.1525874287 -0.6637542248 0.7322208881
0.035164136 -0.014290481 0.63187283 -0.5145086646 -0.4290759265 0.7424114347
0.0098212967 -0.048528761 0.65900004 0.3388415277 -0.8640223742 0.3723596632
-0.0059162942 -0.052611239 0.66167516 0.188624993 -0.9094426036 0.3705871105
-0.10722365 0.0049312911 0.61634886 -0.7398500443 -0.3865776062 0.5506175756
-0.026188532 -0.054447412 0.66104782 0.07800240815 -0.9395135045 0.3335116208
-0.17501627 0.0053111757 0.62851381 -0.1328399628 -0.0006985433865 0.9911372662
-0.035733987 0.011408327 0.63790005 -0.0788762942 -0.4599713087 0.8844234943
-0.16525666 -0.058191914 0.67104155 -0.3060388863 0.4776620865 0.8235163093
-0.10252558 0.028464783 0.64000005 -0.07038075477 -0.2013463825 0.9769883156
-0.1736341 -0.0053016064 0.63214761 -0.3450837433 0.2544130683 0.9034330249
-0.21333155 -0.016080542 0.62822503 0.1646416634 -0.08534685522 0.9826540947
-0.19553551 -0.062466528 0.65506804 -0.4614674747 0.6255642176 0.6290605664
-0.20295388 -0.037781339 0.63066673 -0.2480343282 0.3633979261 0.8980094194
-0.19474953 -0.014881353 0.62528151 -0.1097873002 0.03631746769 0.993291378
0.034170128 -0.030679828 0.62866664 -0.333248049 0.3577522039 0.8723297119
-0.14402761 0.0082568172 0.6377309 -0.1029338241 0.1831260771 0.9776857495
-0.07379096 -0.052727159 0.64713347 0.2438122183 0.6817132831 0.6897989511
-0.034681041 0.031610079 0.65754175 -0.1128787622 -0.7149646878 0.6899883151
-0.014755868 -0.053679034 0.66204268 0.157958582 -0.9212754965 0.3553878963
-0.092954539 -0.014458029 0.64124453 -0.1914418042 0.03515505046 0.9808741808
-0.15475622 -0.021620354 0.64900005 -0.03556228429 0.5018361211 0.864231348
-0.16448446 0.0048384005 0.63133758 -0.2629371583 0.2143451422 0.9407019615
-0.078175284 -0.016644977 0.6400001 0.00137533294 0.03132296726 0.9995083809
-0.08696533 -0.0089770658 0.64000005 -0.1637800187 0.0008662358159 0.9864965081
0.015548774 -0.046111729 0.65624571 0.3675079644 -0.8695289493 0.3299352825
-0.18578671 -0.01195231 0.62862504 -0.3162170649 0.1469771117 0.9372323751
-0.043568701 -0.056249622 0.65181386 -0.03160445392 -0.9955495596 -0.08878192306
-0.16747856 -0.034301985 0.65826845 -0.2739861906 0.4411292672 0.8545972705
0.0058992105 0.0281727 0.66141397 -0.2308351696 -0.72120893 0.6531254053
-0.066580877 -0.03365773 0.64069235 0.1366384625 0.07346109301 0.9878934026
0.025715942 -0.034168031 0.67616117 0.4268822968 -0.8031716943 0.415555954
-0.11433632 -0.052202951 0.65834486 0.1705445498 0.6652222276 0.7269070745
-0.06801375 -0.027367586 0.64000005 0.13281174 -0.06593934447 0.9889454246
-0.18258958 -0.062060665 0.66272736 -0.4576313794 0.5184957385 0.7223127484
-0.05493892 0.016925339 0.64020002 -0.08112895489 -0.4623653591 0.8829702139
-0.034871534 -0.05483203 0.65609717 0.0006896179984 -0.9767927527 0.2141854167
-0.085337669 0.014356852 0.63747782 -0.02106589451 -0.1585006267 0.987134099
-0.14699717 -0.047405019 0.66276473 0.1580977142 0.6378914714 0.7537238598
-0.024380499 -0.025894394 0.69025022 -0.08658582717 -0.1333988458 0.9872728586
-0.04313489 0.028717408 0.65250003 -0.1260663867 -0.6692035794 0.7323071957
-0.15503277 -0.061616924 0.67279994 -0.1781024337 0.582121551 0.7933561802
0.026557019 -0.017232042 0.62832147 -0.3375771642 -0.4107521474 0.8469499946
-0.0041270773 -0.038723037 0.6876924 0.1317484379 -0.7203661203 0.6809661984
-0.025578851 -0.036487471 0.68769038 -0.02493833005 -0.1789738089 0.9835377336
-0.17423949 0.012262691 0.62889647 -0.001445684116 -0.2806369364 0.9598128796
-0.21420714 -0.04355431 0.62860674 0.05881041288 0.337032944 0.9396542311
-0.13211171 -0.042330369 0.64900011 0.2145950049 0.4411754608 0.8713858128
-0.11607615 0.032663897 0.63800031 -0.08890374005 -0.3447299302 0.9344823956
0.039835732 -0.012904533 0.64000005 -0.5917867422 -0.4132649899 0.6920986176
-0.090331733 0.019637333 0.64000005 -0.02951134183 -0.1846608967 0.9823591113
-0.0048248009 0.03307863 0.66362524 -0.1701825112 -0.7505714893 0.6384985447
0.029016789 -0.039258011 0.64900005 0.3843006194 -0.9069221616 -0.1726420373
0.032365657 0.02205494 0.66681826 -0.3953641355 -0.6617465019 0.6370076537
-0.016881201 0.03102337 0.65837502 -0.1401934922 -0.7409822941 0.6567275524
-0.11283791 0.012108994 0.61170846 -0.4573711753 -0.6364288926 0.621103704
-0.027493434 -0.014626306 0.68799996 -0.1245202199 -0.0521685034 0.990844667
0.041288193 -0.011873223 0.64520001 -0.7326724529 -0.3840555847 0.5618651509
0.025114506 -0.028728448 0.68663645 0.3126897812 -0.8102536201 0.4956956208
0.0070157442 -0.039162673 0.66675001 0.2888353467 -0.8849508166 0.3652891815
-0.17225625 0.0021478336 0.63000005 -0.281059891 0.1594394296 0.9463531971
0.0376288 -0.03584566 0.63541657 -0.3299677968 0.4492099285 0.8302600384
-0.20286067 -0.059832498 0.65000004 -0.3904624879 0.6563568711 0.6455498934
-0.021776401 -0.0090734996 0.69000006 -0.138872847 -0.06599860638 0.9881085753
-0.01829545 -0.010253494 0.68800002 -0.1502670199 -0.08949991316 0.9845860004
-0.168249 0.015342544 0.62900001 -0.1206280068 -0.1651015878 0.9788720012
0.042427156 0.0087578995 0.66599995 -0.4628265202 -0.627294302 0.6263333559
-0.055166882 -0.04742416 0.69000006 0.1407111585 -0.7435967326 0.6536545157
-0.1131824 0.017397851 0.63769716 -0.08228109032 -0.3504095376 0.9329753518
0.015060757 -0.039556582 0.66499996 0.3847285509 -0.8600367308 0.3351429105
-0.027165707 -0.010535342 0.63250005 -0.003121039364 -0.2381456941 0.9712244272
0.041817002 -0.041693099 0.6360001 0.9196590185 -0.1781823784 0.349969089
-0.19312091 -0.026326301 0.63000005 -0.3366036415 0.2775834799 0.8998029828
-0.1534954 -0.01841558 0.65090913 -0.0367616117 0.5002176166 0.8651189804
-0.21708409 -0.058558412 0.64022225 -0.1286389083 0.5520751476 0.8238112926
0.042044196 -0.0039986954 0.65249997 -0.4867506325 -0.6191458702 0.6162241697
0.012392121 -0.037532292 0.67249995 0.3349134922 -0.8584717512 0.3884060085
-0.10352337 0.0057566823 0.63734883 -0.2537349761 -0.2726210356 0.9280605316
0.037991557 0.0089907646 0.66162503 -0.4677499831 -0.626241684 0.6237237453
-0.18468526 0.020694593 0.63800001 0.1189151332 -0.4274854958 0.8961670399
-0.052416325 -0.052416325 0.68799996 0.1566212922 -0.7828637362 0.6021578908
-0.1384567 -0.060359024 0.67900002 0.080392465 0.7291160822 0.6796519756
-0.20342165 0.010869985 0.6376667 0.180728361 -0.3678523004 0.9121523499
-0.1215849 -0.059324037 0.67000002 0.1622399986 0.7718926668 0.6147030592
0.0090509988 -0.051224802 0.65899998 0.3388415277 -0.8640223742 0.3723596632
-0.081422023 -0.058988418 0.66183341 0.202045396 0.7324394584 0.6501615644
-0.024421126 -0.054693088 0.6589821 0.08999493718 -0.9487336278 0.3029940724
-0.099177301 -0.020937867 0.62849998 0.03762155399 0.348872304 0.9364148378
