# .PCD v0.7 - Point Cloud Data file format
VERSION 0.7
FIELDS x y z normal_x normal_y normal_z
SIZE 4 4 4 4 4 4
TYPE F F F F F F
COUNT 1 1 1 1 1 1
WIDTH 512
HEIGHT 1
VIEWPOINT 0 0 0 1 0 0 0
POINTS 512
DATA ascii
0.006524427328 -0.03887346014 0.9029898643 -0.01442784164 -0.3880858719 0.6323997378
0.009485618211 -0.02858004346 0.8960021138 -0.3252326846 -0.619328618 0.5169438124
0.002434271621 -0.05040724948 0.9106967449 0.3094435334 -0.1092460006 0.776309073
0.000193816144 -0.04112379625 0.9089060426 -0.03099645115 -0.1533870399 0.7674103975
-0.03494092822 -0.07500361651 0.8732358217 0.08734775335 -0.9705187678 0.1577326953
-0.02945560962 -0.05756413937 0.8670719862 -0.03805151954 -0.7966427207 0.4333931804
-0.02466526255 -0.04586883634 0.8626698852 -0.1277650148 -0.6792398691 0.6204322577
-0.03391430527 -0.04789464921 0.865465939 -0.06968145818 -0.7056165338 0.5715633631
-0.02156987414 -0.03474811465 0.8588365912 -0.205695346 -0.568652153 0.7954268456
-0.005599963013 -0.04674319178 0.8567505479 0.07462266088 -0.1363736987 0.9297977686
0.009245331399 -0.04713776708 0.8549823165 -0.2012643069 -0.2195348889 0.9281378388
0.003066912759 -0.05248653516 0.8553047776 0.1916414797 -0.004515399691 0.9757885337
-0.01027378999 -0.05398555845 0.9173646569 -0.03392426297 0.03429948539 0.9839373231
-0.0721641928 0.01017744374 0.8774996996 -0.2109016925 -0.5659506321 0.7936785817
-0.2463629693 -0.01348042022 0.8383088112 -0.09038807452 -0.08303722739 0.9895979762
0.007605224382 -0.06653389335 0.8644701838 0.4173896015 0.007460303605 0.8876021504
0.003491689684 -0.06453000754 0.8955669403 0.6132667661 -0.3070957363 0.6324124932
0.001244220301 -0.06876772642 0.8767074943 0.4533426762 -0.04157248139 0.8100825548
0.003103957046 -0.06588966399 0.8880876303 0.5542113781 -0.2097321153 0.7004410028
-0.01066796202 -0.04058038816 0.8571253419 -0.08968052268 -0.3850088418 0.8446306586
-0.01991985738 -0.0796064809 0.8789989948 0.1217897907 -0.1208893955 0.5951020718
-0.01946720295 -0.07720056921 0.8911536336 0.03027115203 -0.2736492455 0.677660346
-0.02780988999 -0.07954758406 0.8828496933 0.06454752386 -0.7789809108 0.2970597148
0.009808985516 -0.05765874311 0.8714066148 0.2791728675 -0.2340426296 0.768971622
0.006486688275 -0.05167460442 0.8919735551 0.2398523688 -0.5282470584 0.5665799975
0.006590218283 -0.05811514705 0.8883706927 0.4077057242 -0.372666955 0.6411901116
0.008221102878 -0.0633841306 0.8771704435 0.4891245365 -0.1736643016 0.7660048008
0.009575375356 -0.0487835668 0.8768568039 0.05115604401 -0.4526533186 0.6624063849
0.004677093122 -0.05744566768 0.898899138 0.4590367675 -0.4770840704 0.554966867
0.01129528042 -0.03963167593 0.8720018864 -0.2750922143 -0.5864006877 0.6341845989
0.0113674812 -0.05295079574 0.8653089404 0.07811588794 -0.2712755799 0.7825890183
0.004765543621 -0.05012344569 0.902897656 0.2534048557 -0.3673918247 0.6332400441
0.006706038024 -0.0444606021 0.8966069818 0.04746845737 -0.4875031114 0.5859410763
0.008391087875 -0.04246878624 0.8862190247 -0.07390294969 -0.6549660563 0.5441958904
0.009769483469 -0.03472185135 0.8870761395 -0.2993520498 -0.6278303266 0.5445346832
-0.2482830137 -0.05183385685 0.842338264 -0.2459294349 0.3434202969 0.9049398899
-0.04518590495 -0.05694332719 0.8660100698 -0.09103251249 -0.7975742817 0.4513519406
-0.03608293831 -0.06177559868 0.8694751859 0.008954708464 -0.8421004415 0.3595188558
-0.0407708697 -0.06906826794 0.870379746 0.01156355534 -0.9144611955 0.2584302425
-0.03673469648 -0.03653022274 0.8623816967 -0.13592574 -0.5963363051 0.7438184619
-0.05387435108 -0.03221029416 0.8574451208 -0.05312016606 -0.4200499952 0.8971310258
-0.04561474174 -0.0342688933 0.8598098755 -0.1001361683 -0.5087448955 0.8220912218
-0.0451730527 -0.04436405748 0.8626173139 -0.1046333238 -0.6432728767 0.6542344093
-0.0525393337 -0.06146543473 0.8655930758 -0.06646316499 -0.8103163242 0.4104177058
-0.05509277433 -0.04047944397 0.8593981266 -0.04788704216 -0.5183948278 0.7675300837
-0.07926234603 -0.01845174097 0.8612808585 0.0001888651022 -0.3727681935 0.9258080721
-0.07252214104 -0.01816046424 0.895562768 -0.2144028693 -0.3305204213 0.8830033541
-0.06808821857 0.004982791841 0.8850020766 -0.2492402494 -0.5768688917 0.7594770193
-0.07212462276 -0.008661174215 0.890403688 -0.2256426513 -0.4236623645 0.8410625458
-0.08662966639 -0.07102816552 0.8590784669 -0.02786846086 0.4230801463 0.9046077132
-0.22937572 -0.06720668077 0.8584387898 -0.4173240066 0.4242959321 0.8001170158
-0.2343783528 -0.06294061244 0.8516390324 -0.3699415028 0.4381237328 0.8165122867
-0.1107573807 -0.06713817269 0.8613407612 0.1998046488 0.5689027905 0.7973496914
-0.1724351794 -0.001234093332 0.865372479 -0.1809630096 0.07161545008 0.9772526622
-0.1705424786 0.007166900206 0.8669150472 -0.1954933852 -0.006934658159 0.9746308327
-0.1726407558 0.01626350172 0.8706257939 -0.2058846503 -0.05712591857 0.969103694
-0.1351787299 -0.001379456953 0.8284016252 -0.04867018759 0.4440775514 0.52892524
-0.1415154934 0.007021280937 0.8278819919 -0.7269225717 -0.5824642777 -0.3518546224
-0.1613107473 0.0157797914 0.8505979776 -0.4428246319 -0.2988020182 0.5803314447
-0.16494672 0.02237886563 0.8624572754 -0.2520029545 -0.1763540655 0.8952780962
-0.1537466794 0.01581146196 0.8440345526 -0.546800673 -0.3939196169 0.3504433632
-0.1698548496 0.01618766598 0.8585956097 -0.3159301877 -0.1862142384 0.8537176847
-0.1464847773 0.01624065265 0.8404242396 -0.5964859724 -0.4569017291 0.2135080248
-0.1560750008 0.02193981409 0.8570296764 -0.3283937275 -0.2617276907 0.7064828277
-0.1564595103 0.002254708204 0.8648211956 -0.1407219619 -0.05627282336 0.9856987596
-0.01509983651 -0.004911034834 0.8919658661 -0.3806178272 -0.7712675929 0.5092489719
-0.008780889213 -0.006162045058 0.8960880637 -0.4232160747 -0.7615094781 0.4903932214
-0.008680825122 -0.02135800384 0.8737511039 -0.4062033296 -0.7242794037 0.5546737313
-0.0701815635 -0.01912778616 0.86088866 -0.02047831565 -0.4232355058 0.9043501019
0.001396000385 -0.0732492283 0.8616181016 0.3607624471 0.1120015979 0.9254763722
-0.003784285858 -0.06965532899 0.8954200745 0.4743323922 -0.2135388106 0.6812793016
-0.004263066221 -0.07029698044 0.9026944637 0.3712951243 -0.4358482063 0.6322196722
0.0002970792993 -0.06476213783 0.9082843065 0.6648371816 -0.4149172902 0.5381447077
-0.004516358487 -0.07177035511 0.8810809255 0.4205007851 0.01440356113 0.8048725128
-0.004797298927 -0.07335940003 0.871671021 0.356693089 0.1232046932 0.8862790465
-0.009995700791 -0.07692749798 0.8867236972 0.2034896165 0.03620281816 0.7483847737
-0.01167935319 -0.07881872356 0.8782180548 0.2015713155 0.3073182106 0.8039492369
-0.01187134162 -0.07542692125 0.8969772458 0.0930763185 -0.12866956 0.7890325785
-0.01439021714 -0.07300012559 0.9105130434 -0.05853812024 -0.3627394438 0.8683586121
-0.04159675539 -0.06677157432 0.9115591049 -0.190642029 -0.2484703064 0.9275614023
-0.004875248298 -0.06998108327 0.9149808884 0.1840868145 -0.7691614032 0.5913216472
-0.004472727887 -0.06171692908 0.9157665372 0.1036239117 -0.3552466631 0.8396350741
0.01084965933 -0.03296747804 0.8772045374 -0.4115001857 -0.7294710875 0.5447355509
-0.08150026947 -0.08141167462 0.869122088 0.01265448239 0.3957096934 0.5791832209
-0.07366264611 -0.07933962345 0.8781599402 -0.1229426265 -0.4309923947 0.3795880675
-0.07726617903 -0.07495863736 0.892421186 -0.1970097274 -0.3082320988 0.6727221608
-0.0722771287 -0.08153609931 0.870908618 -0.0813690275 -0.4534878433 0.2475499213
-0.06450742483 -0.0813267976 0.8728997111 -0.113526091 -0.9485653043 0.1666201353
-0.1203691661 -0.0684119463 0.8643652797 0.2055223286 0.5506964326 0.8083254099
-0.1224926561 -0.07622703165 0.8725337982 0.1822613031 0.5738239288 0.7983881831
-0.07150249183 -0.06017062441 0.9046202898 -0.2009240687 -0.1808437854 0.9596200585
-0.04797779396 -0.05680886656 0.9118289948 -0.219973579 -0.1209048256 0.967931211
-0.1088084877 -0.05532886833 0.8517835736 0.07867442071 0.1951312721 0.9606294632
-0.1124792919 -0.06000081077 0.8564997911 0.1685811877 0.3905866146 0.8712509871
-0.08218112588 -0.01055390108 0.8648865223 -0.06497911364 -0.4302613437 0.8990758657
-0.06816290319 -0.006720543373 0.8689573407 -0.1426708698 -0.5654296875 0.8116813302
-0.06505459547 -0.01452805009 0.8637188077 -0.06318832189 -0.5080667734 0.8585062027
-0.07426851988 -0.01259681676 0.8643245101 -0.06327663362 -0.4649443924 0.8808015585
-0.2413676083 -0.04728057981 0.8403122425 -0.2440827042 0.3286506236 0.9108653069
-0.1773553789 -0.02646329254 0.8676082492 -0.06015221775 0.2381716967 0.9619441628
-0.1836214811 -0.01672687754 0.8655943274 -0.2497674823 0.2908386588 0.9207599759
-0.1455525011 0.0007307684282 0.8352802992 -0.4413907528 -0.3086512089 0.0367860496
-0.1510353386 -0.006749103777 0.8462356925 -0.1047741771 -0.009951408952 0.5906251073
-0.1715838909 0.0005403175601 0.8579588532 -0.1946101934 0.02104746178 0.9542101622
-0.159196943 -0.006386233494 0.8534719348 -0.1043093875 -0.03236762434 0.7747457623
-0.1622312516 0.003928009421 0.8470571041 -0.4106379449 -0.2003810108 0.4632015526
-0.09271690995 0.01155669242 0.8743696213 -0.1745470464 -0.4392584264 0.8805031776
-0.08245238662 0.0111993039 0.8754738569 -0.1648394465 -0.502702117 0.8479914069
-0.1016984358 0.008395297453 0.872915864 -0.1693442911 -0.3980955184 0.901319921
-0.1587728411 0.02784953825 0.8724005222 -0.1777441502 -0.1758671254 0.9669299722
-0.1699325144 0.02906922437 0.8744848967 -0.2106280625 -0.1652133763 0.9619083405
-0.145601809 0.02581483126 0.8723911643 -0.1293566972 -0.2202185541 0.9650857449
-0.1368404925 0.02339802682 0.8722397685 -0.1316831708 -0.3203551769 0.9307886362
-0.13972193 0.01370723359 0.834328711 -0.7417880297 -0.5299522281 0.1148947626
-0.1482140273 0.02093932964 0.8552362919 -0.3809152544 -0.2969774902 0.7103692889
-0.158626765 0.02084206231 0.8690373302 -0.1497460008 -0.2120313793 0.9612506032
-0.1593725234 0.01188200898 0.8669626117 -0.1804184616 -0.1102949083 0.9762233496
-0.008597110398 -0.01750410721 0.8811087608 -0.4303848147 -0.7413490415 0.5111042261
-0.01949246787 -0.06162971258 0.9155220985 -0.124360472 -0.1231661066 0.9845361114
-0.07025980949 -0.02865625173 0.8577487469 0.0240925476 -0.3171655536 0.9436312914
-0.06017620116 -0.02810575068 0.8573226333 -0.02312225848 -0.4029194117 0.9142050147
-0.03019111976 -0.03227252886 0.8602757454 -0.1758844256 -0.5524955392 0.8138182163
-0.03900426626 -0.02299788222 0.8619141579 -0.1685249656 -0.5880513191 0.7895793915
-0.03525529802 -0.07314351946 0.9102888703 -0.1554690003 -0.5528054833 0.816444397
-0.02710346319 -0.06731649488 0.9135119915 -0.1378194988 -0.1353882849 0.9807062149
-0.02962947264 -0.07813884318 0.8910986781 0.003195390804 -0.7021387815 0.4310117364
-0.02756239288 -0.0759973228 0.9015294909 -0.06306493282 -0.4548465908 0.6872914433
-0.0107553741 -0.06694620103 0.8635849953 0.2078408897 0.2064132988 0.9482912421
-0.004985108506 -0.05845891684 0.8588630557 0.224262163 0.1239424124 0.9601520896
-0.01226028986 -0.05604683235 0.8629087806 0.02586817741 -0.06941587478 0.9271867275
-0.02070191316 -0.05658175796 0.8659172058 -0.04516820237 -0.5687113404 0.6258155107
-0.01324350201 -0.04765021801 0.86216259 -0.1040121838 -0.3122417629 0.889477253
-0.01878589578 -0.06501284987 0.8670717478 0.05570844561 -0.1659589559 0.7789607644
-0.02428915352 -0.07607466727 0.8707255721 0.1474859416 -0.2147537172 0.6200248003
0.01087744441 -0.02686583437 0.8869034648 -0.4685421884 -0.7485345602 0.4691418707
-0.09266562015 -0.08007974923 0.8687794805 0.08303090185 0.692574203 0.71205616
-0.08315763623 -0.06166076288 0.9037647247 -0.4051766694 -0.398235023 0.7943606973
-0.07646536827 -0.06827110797 0.9033814669 -0.3080400527 -0.5138707757 0.7703586817
-0.2109856904 -0.07177668065 0.8706074953 -0.3637721837 0.3599100113 0.8555736542
-0.2221033126 -0.07001419365 0.8654824495 -0.4432355762 0.4133397043 0.7932309508
-0.1632431746 -0.04803953692 0.872094214 0.1150276512 0.2271246761 0.9541047215
-0.1643856168 -0.05525667593 0.8759350777 0.1160122901 0.3198316991 0.9187443256
-0.08365813643 -0.07711797953 0.8632256389 -0.002028980991 0.5505715013 0.8119522333
-0.05366118252 -0.07802876085 0.8855654001 -0.04998414218 -0.8965343237 0.3673685789
-0.04881309345 -0.08003534377 0.877559185 0.007957436144 -0.9585515857 0.2301537395
-0.05639730394 -0.08046033978 0.8763413429 -0.04986047 -0.9506720901 0.2551834583
-0.04662389308 -0.07437396049 0.904879868 -0.121314913 -0.7732483745 0.6162814498
-0.04959062859 -0.07537898421 0.8978723288 -0.08043061197 -0.8199582696 0.5234873891
-0.04597401991 -0.07741650194 0.8904085159 -0.04226527363 -0.874558568 0.402792573
-0.03927464783 -0.07641183585 0.8994337916 -0.08963832259 -0.8182439804 0.5074071288
-0.03930350393 -0.07943863422 0.8832274079 0.01653810963 -0.9351813793 0.2581170201
-0.04096899182 -0.08075366169 0.8746417761 0.06749948114 -0.9844978452 0.1475889683
-0.04825471342 -0.07590324432 0.8705572486 -0.01077907532 -0.9820324779 0.1719781011
-0.0643799901 -0.06392335892 0.9049176574 -0.1956716478 -0.1511196792 0.9689277411
-0.05854154378 -0.05628243461 0.9085735083 -0.1921404451 -0.1325317323 0.9723263383
-0.06569568813 -0.07856216282 0.8822106719 -0.1515233964 -0.8625943661 0.3814193904
-0.06612953544 -0.07371552289 0.9017019272 -0.252595216 -0.7184079885 0.6409826279
-0.06647132337 -0.07544414699 0.8944470882 -0.2168720067 -0.7682626843 0.5472428799
-0.05854839832 -0.07540724427 0.8959155083 -0.1288554668 -0.8111338615 0.5333188176
-0.07912411541 -0.06382070482 0.8588578701 -0.06788638234 0.2353642434 0.9348719716
-0.07539463788 -0.07276462764 0.8618157506 -0.1179242879 0.3447757661 0.9180878997
-0.07696274668 -0.03454460576 0.8994283676 -0.1678547412 -0.1637062281 0.9675768614
-0.09292887151 -0.01514386479 0.86810112 -0.07672256976 -0.3199376464 0.9407268167
-0.09501317143 -0.006727740169 0.8665383458 -0.08393155783 -0.3817047775 0.9198963642
-0.08440566063 -0.02181361429 0.8864080906 -0.1373447329 -0.2624628842 0.9442030191
-0.08819034696 -0.01443533599 0.8779471517 -0.1177042648 -0.3254196346 0.928760767
-0.09644082934 0.001360043883 0.8692199588 -0.1202773303 -0.4217459857 0.898489356
-0.05546816438 -0.006488465238 0.8714448214 -0.2141406834 -0.6456356645 0.7319384813
-0.06971977651 0.003956133965 0.874376297 -0.2041354328 -0.5804953575 0.7859520912
-0.2517500222 -0.04420452192 0.839166522 -0.1794848293 0.2449257821 0.9521666765
-0.1805451661 0.01534918509 0.8675447106 -0.3019250929 -0.05693890899 0.94042629
-0.1783308089 0.008115374483 0.8670625687 -0.2485603392 0.006063165609 0.955270648
-0.1865050793 -0.02375165746 0.8676928282 -0.2394120693 0.2738341689 0.9297116995
-0.1858891249 0.02542642131 0.8646757007 -0.3317180574 -0.1899318993 0.9224961996
-0.1503892839 0.007706728764 0.8665590286 -0.1222450063 -0.1630348563 0.9730745554
-0.141111359 -0.01124178991 0.8414398432 -0.3263222873 0.2424580902 0.7182841897
-0.1748924553 0.02591053955 0.867495656 -0.2560275495 -0.1403899789 0.956022501
-0.1760170609 0.02070995793 0.8622509241 -0.2827893198 -0.1444903463 0.9477345347
-0.2434337735 -0.00554625364 0.8407598734 -0.1332945824 -0.2044946551 0.9695410132
-0.2380706817 -0.0119460253 0.841625452 -0.2071163356 -0.07151519507 0.9616659284
-0.2319683135 -0.0190351177 0.8419071436 -0.3000227213 0.03262462094 0.9341726303
-0.2382769734 -0.0002028588642 0.8396677375 -0.1371257752 -0.1975456476 0.9696007371
-0.2234777659 0.01093042549 0.8401671648 -0.1959761977 -0.2112149596 0.9569813013
-0.2379643917 -0.01740399003 0.8361986876 -0.1534956545 -0.02729896083 0.9856231809
-0.2340000272 -0.02572523616 0.8365882635 -0.2119134516 0.0560653396 0.9720041156
-0.228188619 -0.0301557593 0.8385515809 -0.3390501738 0.1674293131 0.9217363596
-0.1595692188 0.01050943788 0.8423429728 -0.5468047857 -0.3802093267 0.2649521828
-0.1513722986 0.01082645077 0.8359903693 -0.6536313891 -0.4751293063 0.0623581782
-0.1716323644 0.009004294872 0.8519713283 -0.4226058722 -0.1618858576 0.6675512791
-0.178786546 0.01046514325 0.8578724861 -0.3499809504 -0.08239911497 0.9251663685
-0.1849365085 0.02047795616 0.8579339981 -0.3657781482 -0.1651877761 0.9158431888
-0.1101018488 0.003966192715 0.8626836538 -0.3266794086 -0.3395220637 0.7898151278
-0.1157256141 0.01190072391 0.8587620854 -0.4985154569 -0.3011825979 0.6561937928
-0.1113745272 0.01674674079 0.873822093 -0.1965310276 -0.4322735369 0.8732987642
-0.002624021377 -0.01277193334 0.8920001388 -0.4560703635 -0.7479511499 0.481526345
0.003179951338 -0.0244615078 0.8804962039 -0.4568660855 -0.7379629016 0.4955675602
-0.027889302 -0.05710431561 0.9155003428 -0.1438174695 -0.1131217927 0.9828434587
-0.03870325908 -0.05724772066 0.9133036137 -0.1943070292 -0.1055797264 0.9749298096
0.0004562343529 -0.01878066733 0.8865203261 -0.477694273 -0.7372063994 0.4777993858
-0.002397703705 -0.03078777529 0.9049832225 -0.2195356786 -0.2938344181 0.701944232
-0.009306305088 -0.03652653471 0.9106156826 -0.07520186901 -0.003831240116 0.8372026682
-0.009479948319 -0.04496946186 0.9160470963 0.04394240677 0.170719102 0.9410629869
0.002914787969 -0.02459129505 0.89906317 -0.3630310595 -0.5351830125 0.572301805
-0.01111795008 -0.01167227421 0.8886797428 -0.4217564762 -0.7586734295 0.4959856272
-0.01008078549 -0.02829247154 0.9061696529 -0.1742539406 -0.1611115187 0.7481303811
-0.01810904592 -0.037234433 0.9138567448 0.009230431169 0.1988595575 0.9304537177
-0.0117360577 -0.01736942865 0.9024522305 -0.308041811 -0.4833855033 0.6449263692
-0.02286001109 -0.0317523554 0.9115419984 -0.1811508238 -0.2015683353 0.8975945115
-0.03149490803 -0.01800717786 0.9044709206 -0.2553337514 -0.4009909034 0.7662991285
-0.02329171821 -0.02227889746 0.9068051577 -0.2280572057 -0.3667795956 0.7901101708
-0.01835971326 -0.01108037494 0.8996709585 -0.3314374089 -0.6107700467 0.6151755452
-0.02966252342 -0.02785484865 0.9095384479 -0.2016380727 -0.2334958017 0.8754070401
-0.02820709348 -0.01051406749 0.9011274576 -0.2858586609 -0.5449370742 0.6728788614
-0.05841136351 0.007481601555 0.8852847219 -0.2776347101 -0.6758146882 0.6781835556
-0.06175559014 0.004592031706 0.8783842921 -0.2548364997 -0.6350538731 0.7290218472
-0.06988185644 -0.04980367795 0.9065929055 -0.1847844869 -0.14116925 0.9725499749
-0.06098332629 -0.04614650086 0.9084456563 -0.1890228093 -0.1270918548 0.9736761451
0.0115095228 -0.05613543466 0.8557274938 0.2081943303 -0.01988953538 0.9744740725
0.004712660331 -0.06334253401 0.8567774296 0.2836837471 0.04512778297 0.9526167512
0.004752372857 -0.03163430467 0.8694159985 -0.4053878784 -0.6902768016 0.5963146091
-0.003484281478 -0.02642283402 0.8698490262 -0.3968453407 -0.7100414038 0.5786183476
-0.06590572745 -0.04019276798 0.9075248837 -0.1903104335 -0.1279166639 0.9733546376
-0.05981982127 -0.01745194383 0.8958657384 -0.2404285222 -0.4006807804 0.8231189847
-0.06507249922 -0.02278734371 0.899659276 -0.2127035111 -0.2922024727 0.8934876323
-0.06517440826 -0.002034954028 0.8889682889 -0.2444820553 -0.5162571073 0.7828761935
-0.06635594368 -0.0132108219 0.8947485089 -0.2255642265 -0.3912572861 0.8462059498
-0.06722983718 -0.02911912091 0.9026704431 -0.2034535259 -0.2260936052 0.9259518981
-0.02433230542 -0.01266620588 0.8739213347 -0.2943921387 -0.7354595661 0.6070569754
-0.01536867023 -0.01660988107 0.8754589558 -0.3630914688 -0.7428347468 0.5622421503
-0.01206851192 -0.0311718937 0.8614019156 -0.2575782537 -0.5943128467 0.7562016845
-0.01243139897 -0.02477410808 0.8659347296 -0.313749671 -0.6706475616 0.6705903411
-0.02040865272 -0.02812134661 0.8622410297 -0.249311924 -0.6172403693 0.7448381186
-0.1197563484 -0.06016398594 0.8597763777 0.2467124164 0.43444857 0.8494396806
-0.1159631461 -0.01055503171 0.8621500731 -0.2422373295 -0.3117723465 0.9080469608
-0.1277900636 -0.01418121532 0.863075316 0.02741856501 -0.1895443946 0.943053782
-0.0100305099 -0.07883992046 0.869777739 0.2314366251 0.4141250849 0.8612395525
-0.01866916195 -0.08095946908 0.8711530566 0.1720775962 0.0432237424 0.6625926495
-0.1389761716 -0.04180417955 0.8612976074 0.2983464003 0.07022173703 0.9508125782
-0.1464799494 -0.02295744978 0.8649815321 0.2646195889 0.0549595803 0.9618026614
-0.1022685692 -0.07462337613 0.8858286142 -0.0287139751 -0.04331925139 0.7054607868
-0.09428791702 -0.07128052413 0.8913125396 -0.1414060146 -0.3733516634 0.6636294127
-0.1096364707 -0.07784600556 0.8800367713 0.08091136068 0.3008740842 0.7418119311
-0.08744264394 -0.07383742929 0.8929190636 -0.1857477874 -0.2964401543 0.6697728038
-0.0847563073 -0.07629363984 0.884784162 -0.1187664419 -0.001140058623 0.674287796
-0.0893406719 -0.0783309117 0.8777342439 -0.02188233472 0.3413445055 0.684974432
-0.2015520185 -0.07157340646 0.8749572039 -0.2599205375 0.3352169394 0.90505898
-0.1877316684 -0.03444413841 0.8710002303 -0.185282588 0.2017680109 0.9521225095
-0.1843615025 -0.04483124986 0.8712152243 -0.04001324624 0.1754617542 0.9789945483
-0.1795029044 -0.03491259739 0.8710019588 -0.06923555583 0.1739117056 0.9640098214
-0.05776787922 -0.07244887948 0.9034562707 -0.1541481167 -0.6893851161 0.6723400354
-0.04909365624 -0.06686673313 0.909309864 -0.1916032732 -0.2940324843 0.9163188338
-0.07837684453 -0.02731609158 0.858353138 0.04923978448 -0.2594256997 0.9630113244
-0.07408900559 -0.04010509327 0.9068841934 -0.2091874033 -0.1239426062 0.967643559
-0.08476823568 -0.05145150796 0.8560903072 -0.1036162078 0.02798631601 0.9760705829
-0.09596985579 -0.07098323107 0.8606365323 0.0801416859 0.4860448837 0.8628666997
-0.09901571274 -0.06442607939 0.8553941846 0.0287066251 0.4228629172 0.9015513062
-0.0953515023 -0.05815700069 0.8508982658 -0.1032100022 0.1861900836 0.9708586335
-0.0806273669 -0.04386118427 0.8559539914 -0.03156414628 -0.1267720461 0.9832643867
-0.0911058858 -0.05111575872 0.8519394398 -0.0825625658 0.02948733233 0.9832490087
-0.1102865487 -0.01079571806 0.8530532718 -0.4662175179 -0.1540382802 0.6933247447
-0.12224821 -0.01480219886 0.8466525078 -0.6827939153 0.1855335385 0.6436884999
-0.1297145933 0.0001756334532 0.835914433 -0.7893140912 -0.02869244106 0.4248597622
-0.07547023892 -0.007478417363 0.8834832311 -0.1775385886 -0.4323189557 0.8620256782
-0.07493732125 -0.002273228718 0.8708674312 -0.1681470275 -0.5371375084 0.8260262012
-0.08620244265 -0.004027678631 0.8677630424 -0.1110789776 -0.4504763484 0.8854191899
-0.08429591358 0.002643857384 0.8722322583 -0.142386511 -0.4948293567 0.8566742539
-0.08016632497 -0.0156791117 0.8819963336 -0.1459724009 -0.3494155705 0.9094177485
-0.07590783387 -0.0277992785 0.8960420489 -0.1749258488 -0.2341850102 0.9406419992
-0.2134375721 -0.06416778266 0.8687453866 -0.3850120306 0.3611827791 0.8428871632
-0.2028389275 -0.06177229062 0.8725847006 -0.2823285758 0.3104124963 0.9069105983
-0.1968146563 -0.03648912534 0.8680649996 -0.3649815619 0.2600412667 0.8925781846
-0.1981735826 -0.04483375326 0.8704100251 -0.3025395572 0.2549720407 0.9159821272
-0.1922200173 -0.05283239484 0.8647465706 -0.2042751014 0.3465830386 0.8655023575
-0.1834219098 -0.05448184162 0.8682017326 -0.008611422963 0.3058830202 0.937735796
-0.1702087373 -0.0272333324 0.865999043 0.0459182784 0.1512691528 0.9841273427
-0.1743047833 -0.01652612351 0.8657991886 -0.06492095441 0.2362345606 0.9687085152
-0.1639513969 -0.01013206691 0.8651861548 -0.05185749009 0.08875463158 0.985575676
-0.2320988178 0.003909575287 0.8442684412 -0.1737238765 -0.2168288529 0.9605426788
-0.1456585974 0.015151239 0.8678663969 -0.0870353803 -0.2951934636 0.9466068745
-0.2445621639 -0.02565645985 0.8366940618 -0.08124113083 0.06749366969 0.9938597679
-0.2419826686 -0.0390265286 0.8375416398 -0.1696112007 0.2232425958 0.9540839791
-0.1115770563 0.008771830238 0.8723290563 -0.1770318747 -0.3840368688 0.9061463475
-0.1176890731 0.004847269505 0.8687958717 -0.2391058654 -0.4088484347 0.8756015897
-0.1267457902 0.01107812021 0.8449093103 -0.7955956459 -0.2988733053 0.4101558328
-0.1309741139 0.01161319576 0.8347815871 -0.8774599433 -0.3642616868 0.2744300961
-0.1272109598 0.01536620129 0.8533378839 -0.6043468118 -0.486014396 0.4808187187
-0.1279584616 0.01875626668 0.8606488705 -0.424492538 -0.6680456996 0.5349546671
-0.1278083771 0.02134066075 0.8721560836 -0.1814815402 -0.4780700207 0.8579986691
-0.1206120104 0.01269541867 0.8712180257 -0.1843469888 -0.4347245693 0.8803116679
-0.1184815317 0.02116263844 0.871863246 -0.2548789084 -0.5412741899 0.8001520038
-0.1360619515 0.01526693627 0.8425766826 -0.6314655542 -0.5200465918 0.367434144
-0.1401832998 0.02121379972 0.8656082153 -0.1571235955 -0.4967724681 0.7718228698
-0.1475544423 0.0232578069 0.8636593223 -0.2250840217 -0.1989849508 0.8923116922
-0.1405936331 0.01852251589 0.8504083753 -0.4872477651 -0.3499414623 0.585405767
-0.02774932981 -0.04832164943 0.9153934121 -0.1440834105 -0.0869339928 0.9852183461
-0.02613235265 -0.03820949793 0.9150741696 -0.1316576451 -0.07381686568 0.9884440303
0.008706182241 -0.02110603452 0.892213583 -0.4932995439 -0.7394531965 0.457921952
-0.0366784893 0.003289466957 0.8938859701 -0.3187744915 -0.7597087622 0.5666565895
-0.04293208197 -0.007846702822 0.8984030485 -0.2722241879 -0.546043098 0.701299727
-0.03718448058 -0.0008977014222 0.8865529299 -0.3005395234 -0.7595071197 0.5767288208
-0.04641856253 -0.02471945249 0.9056708813 -0.2196565419 -0.2642896175 0.871729672
-0.04875482619 -0.03419552371 0.909573257 -0.1926547289 -0.1191490665 0.9607189298
-0.04844475538 -0.01605307683 0.9010773301 -0.2428646535 -0.417717278 0.7860375643
-0.05469667539 -0.02808514051 0.9052185416 -0.2095570117 -0.2495695204 0.8940250874
-0.0596447289 -0.03367203474 0.9066262245 -0.1984706968 -0.1812126189 0.9382361174
-0.0524250865 -0.002056157682 0.8906783462 -0.2807444632 -0.6243932247 0.6819214225
-0.04582753032 0.003653834574 0.8923410773 -0.2987157702 -0.7295761704 0.5991399884
-0.04624071345 -0.04264719784 0.9119501114 -0.1881693304 -0.08530915529 0.9783576727
-0.05386763066 -0.0402969718 0.9095977545 -0.1825348586 -0.1126897857 0.9765979648
-0.05327159166 -0.05049823597 0.9104196429 -0.194319874 -0.1184553355 0.9735604525
-0.03817675263 -0.04275600985 0.9133025408 -0.1853228062 -0.06983831525 0.9801403284
-0.04058753699 -0.01906470954 0.9040964842 -0.2463843226 -0.3696498275 0.8004485369
-0.03550568223 -0.003595523071 0.8976371288 -0.2987860739 -0.6422331333 0.6337013841
-0.0398876071 -0.03449614346 0.9113499522 -0.1924136132 -0.09710206836 0.9614838362
-0.02853523381 0.002266042167 0.8941728473 -0.3307305574 -0.7755990028 0.5368663669
-0.02358025685 -0.004035979044 0.8876966238 -0.3319692612 -0.7827503681 0.5261580944
-0.02004779503 0.001072526444 0.8945295215 -0.3501651585 -0.7814165354 0.5163305402
-0.03044231795 -0.005036202259 0.8840684891 -0.3086509109 -0.7763130069 0.5491604805
-0.0195146855 -0.009697006084 0.8821493983 -0.3532192409 -0.7664837241 0.5359982252
-0.05485173315 0.000146043094 0.8780071139 -0.2620696425 -0.6796849966 0.6825771928
-0.04676015675 -0.005725518335 0.8746814132 -0.2539528906 -0.7105557919 0.6555892229
-0.003020977834 -0.03819048032 0.8580192924 -0.3004018366 -0.505173862 0.8025800586
-0.02214444615 -0.01832501031 0.8686828017 -0.2761226594 -0.6814670563 0.6773073077
-0.0288943015 -0.02189954743 0.8647313118 -0.2266420573 -0.6405179501 0.7331063151
-0.129577145 -0.0549197793 0.8602741957 0.2748192847 0.3302964568 0.9000912905
-0.1387797445 -0.05658677965 0.8642498255 0.2444193065 0.3294868171 0.9055037498
-0.1382765025 -0.07375878841 0.87238276 0.1836986989 0.54754287 0.8148885965
-0.1490363926 -0.05054345727 0.8682002425 0.2391505837 0.2144243121 0.9273880124
-0.1569832563 -0.03920185938 0.8705437183 0.1695548892 0.1031646132 0.9749022722
-0.1444733441 -0.008555268869 0.8661489487 0.08398577571 -0.1178728864 0.9842172265
-0.1372389644 -0.002761983778 0.8664958477 -0.04056664184 -0.2616092265 0.9301328063
-0.1263084114 -0.002074680524 0.8649585843 -0.1818337142 -0.3844948113 0.8644415736
-0.1376511008 -0.01598449238 0.8641356826 0.2360670865 -0.1003951505 0.9656607509
-0.1413769573 0.006140112877 0.8686266541 -0.07416108996 -0.2749367654 0.9349652529
-0.1319042742 0.004166753963 0.8674166203 -0.1388129294 -0.3895123899 0.8848372698
-0.1343821287 0.01125700772 0.8695982695 -0.1104785502 -0.413729459 0.885135293
-0.1522417068 -0.01679751836 0.8682656884 0.0792620033 -0.03612878546 0.9892007113
-0.1605262607 -0.03021047637 0.870288074 0.1244820729 0.08086250722 0.9842043519
-0.1539530307 -0.007618829608 0.8657889962 -0.007256780751 -0.04041711614 0.9959847927
-0.1602496505 -0.01906647719 0.8669446707 0.04330876097 0.0474126637 0.9919360876
-0.1270447522 -0.01456584968 0.8397473097 -0.8230454922 0.1399639547 0.5120764971
-0.1372637749 -0.02357641235 0.8624171019 0.2329939902 -0.01276169531 0.9711287618
-0.1556850225 -0.01751509123 0.8593859076 0.1362136006 0.07515246421 0.98446244
-0.1441705227 -0.01632221229 0.8487744927 -0.2740984857 0.1198065504 0.7874653935
-0.1518451273 -0.01429999527 0.8538715839 -0.07140844315 0.0990447998 0.9010415673
-0.1346144974 -0.02134685777 0.8450657725 -0.3795213997 0.1283580959 0.6986367106
-0.1410140246 -0.02897763811 0.8552184105 0.01732428372 0.09328700602 0.8417882919
-0.1325010806 -0.03536266834 0.8575181961 0.3286081553 0.04485676065 0.9381420016
-0.146238476 -0.05784819275 0.8643200994 0.2462438941 0.3230853379 0.9090283513
-0.1422712952 -0.04949736223 0.8622222543 0.2825264335 0.1747382581 0.939319551
-0.1550774574 -0.06118573248 0.8672944307 0.2371684611 0.3815242946 0.8910373449
-0.1634836197 -0.03694140166 0.8656681776 0.1334578544 0.1070512831 0.9838451743
-0.1582121402 -0.05237675086 0.8641179204 0.2091493756 0.2141507864 0.951405406
-0.1001937315 -0.07878786325 0.8704459071 0.1200789511 0.6414762139 0.7519899011
-0.1063976139 -0.07286252081 0.8661315441 0.1678936332 0.5960107446 0.7850568891
-0.1147007123 -0.07759705931 0.8722493052 0.1880952418 0.5907506347 0.7844761014
-0.07699736208 -0.05080934986 0.858045876 -0.04073018953 -0.1345912516 0.8625271916
-0.0578430444 -0.07757579535 0.868509531 -0.08113174886 -0.9819400311 0.10695187
-0.05923700333 -0.06659449637 0.8651632667 -0.1020798758 -0.8380045295 0.1761736572
-0.05922524258 -0.04964487255 0.8607273102 -0.07465480268 -0.6140354276 0.5154063106
-0.06181499735 -0.06011046097 0.8627011776 -0.1195864007 -0.7395732403 0.2109152973
-0.06606926024 -0.07273622602 0.8648478389 -0.1776338369 -0.8784080148 -0.1666392982
-0.06425046921 -0.03727902099 0.8569209576 -0.03190623596 -0.3610947132 0.8660573959
-0.06912248582 -0.05336261168 0.8600047231 -0.0842275098 -0.527528882 0.4637678862
-0.06988622248 -0.0627406016 0.8620654941 -0.1218079701 -0.6595863104 0.1952530742
-0.07071813196 -0.0417708382 0.8571361899 -0.02912718803 -0.3214853108 0.8371793032
-0.1601955891 -0.07422216982 0.8809538484 0.1469092667 0.5537906885 0.8185768723
-0.1661347002 -0.06836986542 0.8797320724 0.1078548208 0.4859929979 0.8653917313
-0.1924320757 -0.07242418081 0.8761406541 -0.1885487735 0.3506784737 0.9160236716
-0.1893343776 -0.06170615554 0.8691082597 -0.100007005 0.3872729242 0.9027480483
-0.1972132176 -0.03652180359 0.8581950665 -0.3294610977 0.2173947692 0.8625813723
-0.2032614499 -0.03284080327 0.8534836173 -0.4693500996 0.2574352622 0.8036264181
-0.1977702677 -0.0458224453 0.8625355959 -0.3201997876 0.273688525 0.8517181873
-0.1752222031 -0.04594429955 0.8672693372 0.07711134851 0.1246493682 0.9875301719
-0.09131563455 -0.04210134968 0.8538979292 0.009265539236 -0.1297847927 0.9863955975
-0.08634220809 -0.03669989854 0.8570685387 0.01732779667 -0.2106661797 0.9754492044
-0.101801455 -0.0523538366 0.8490719199 -0.05682985857 0.06560601294 0.9910926223
-0.1138684899 -0.03887801617 0.8590157628 -0.03112777695 -0.06929253787 0.963999927
-0.1222236156 -0.006126972847 0.8454496861 -0.8062041998 -0.05170400441 0.4731565416
-0.1001059264 -0.01328672282 0.8595439792 -0.1935776919 -0.2744775116 0.8578849435
-0.1050235331 -0.00483605545 0.8593158126 -0.3499617279 -0.2812106311 0.7511845231
-0.1072573587 -0.01199910324 0.8632810712 -0.1873369068 -0.3108180165 0.9294680953
-0.1024875492 0.002476469846 0.8633835316 -0.2638469934 -0.3850654662 0.7953801155
-0.1099374369 0.0008961281856 0.8544993997 -0.4607828856 -0.3171011806 0.6552836895
-0.166789487 -0.05383618176 0.8671124578 0.1245736033 0.2496038079 0.9592254758
-0.1756711155 -0.05724426359 0.8682360649 0.05368606001 0.3290907443 0.9374858737
-0.1786308736 -0.05785927922 0.8753516078 0.02845660783 0.3428420126 0.9264702797
-0.1679405123 -0.04152130336 0.8712291718 0.1216191724 0.2190839052 0.9552848339
-0.171345517 -0.06244121492 0.8780907393 0.06492172927 0.4029558003 0.9070906043
-0.2334948331 -0.04510511458 0.8414191604 -0.3251657188 0.3564521074 0.8743271828
-0.225127548 -0.0431070812 0.8473313451 -0.4656974375 0.3704363704 0.8018926978
-0.2276720852 -0.0379441157 0.8421382308 -0.3937334716 0.2935347259 0.8639752269
-0.240228951 -0.03164898604 0.841999054 -0.2466830313 0.1767702103 0.9221356511
-0.2538885176 -0.03174870089 0.8399263024 -0.08523452282 0.108136721 0.9873634577
-0.2518039346 -0.02256294712 0.8388406038 -0.05718108267 0.02800855041 0.9954295754
-0.2260311842 -0.05980238691 0.8545140028 -0.4501262009 0.4334830344 0.7801400423
-0.2040937841 -0.05955278128 0.864862442 -0.3356134892 0.3930464983 0.8289731741
-0.2096132934 -0.05363675579 0.860607326 -0.4781709611 0.383500129 0.7740265727
-0.2301079482 -0.05196606368 0.846830368 -0.3996816576 0.4197941422 0.8132168055
-0.2422612309 -0.05966743082 0.8455223441 -0.305292815 0.425455451 0.8517166376
-0.1998340786 0.02067735419 0.8564744592 -0.2770391703 -0.2268957943 0.9330790043
-0.193363592 0.02391265146 0.8613772392 -0.2950144112 -0.2250410765 0.9269837737
-0.1875841171 0.01238971576 0.8599376082 -0.3304171264 -0.09642831236 0.9309098721
-0.2264314741 -0.003736207029 0.8437714577 -0.2247651666 -0.1840048879 0.9564991593
-0.01956592686 -0.05307006091 0.9167077541 -0.1273876876 -0.1113543361 0.9855568409
-0.04728234559 -0.02569827065 0.8583526015 -0.1214428097 -0.5261470079 0.8415397406
-0.05201705545 -0.01534133684 0.8644530177 -0.1506021917 -0.5739174485 0.8043166995
-0.05759207904 -0.02093588002 0.8599935174 -0.08392510563 -0.5043832064 0.8573220968
-0.04293419421 -0.002733419882 0.8803874254 -0.2805994451 -0.7405528426 0.6103779078
0.01266453322 -0.04462359473 0.861608088 -0.2562245727 -0.3592165112 0.7998021841
0.005454605911 -0.04058323801 0.8575745821 -0.3856391609 -0.4336087704 0.8081699014
-0.1347636282 -0.0687026009 0.8670156598 0.1835721731 0.4962243438 0.8476765156
-0.1437764466 -0.06790659577 0.8709636927 0.2180585712 0.4702692628 0.8545289636
-0.1273816377 -0.0701398924 0.8682082891 0.1887066513 0.5259497762 0.8273493648
-0.1263083369 -0.06216197833 0.8628701568 0.2399391085 0.4610132873 0.8505483866
-0.1469104588 -0.04126795381 0.8631138206 0.2880651355 0.09377610683 0.9521915913
-0.1550829262 -0.04380373284 0.8642822504 0.2221206576 0.1338174343 0.9654657245
-0.1494716108 -0.02986206859 0.8655370474 0.2393088341 0.06920494884 0.9676090479
-0.1562453806 -0.03435539454 0.8642092347 0.1888508946 0.09503601491 0.9752859473
-0.1498240381 -0.07177762687 0.8749470711 0.2091650516 0.5141449571 0.8315000534
-0.1590242982 -0.06899948418 0.8755500913 0.1632810533 0.4912627637 0.8546801209
-0.157317996 -0.05290070549 0.8734534383 0.1637459844 0.2792735398 0.9209144115
-0.1709847897 -0.07376147062 0.8830226064 0.05906955153 0.5045583248 0.8588427901
-0.1827943474 -0.07330136001 0.8802960515 -0.06613694876 0.415220052 0.9035322666
-0.1837252229 -0.06701613963 0.8735947609 -0.05812908337 0.3771871626 0.9221842885
-0.1638504416 -0.06309206784 0.8724887371 0.1214164644 0.466006279 0.8755546808
-0.2027427554 -0.03156853467 0.8625702262 -0.5588825345 0.2799886465 0.7783849239
-0.2242341191 -0.0186261721 0.8401150703 -0.3235637844 -0.02990293317 0.9435563087
-0.2210334539 -0.03079806827 0.8427776694 -0.4470184445 0.2364402562 0.8518557549
-0.08604001254 -0.03726623207 0.8927082419 -0.2967743874 -0.1475167274 0.9224064946
-0.0882993713 -0.02734333649 0.8812124133 -0.1731151938 -0.2255250812 0.9393022656
-0.09193612635 -0.02244726382 0.8729630709 -0.1363324374 -0.2650204599 0.9372798204
-0.08145863563 -0.04347546771 0.9034929276 -0.3496006429 -0.09845671058 0.9228902459
-0.08197785914 -0.02956267074 0.8894050121 -0.1395423114 -0.2048364431 0.9611899257
-0.1231862158 -0.04179495946 0.8595606685 0.09309089929 0.0126724625 0.9568410516
-0.121346496 -0.03628342226 0.8463872671 -0.1480628401 0.05722757056 0.856502831
-0.1234824732 -0.02844373323 0.8419376016 -0.3980989158 0.0790849179 0.753692627
-0.1231673732 -0.02888233587 0.8601775765 0.02340623364 -0.08804670721 0.9784677625
-0.1158002689 -0.03048414551 0.8593527079 -0.09639363736 -0.1347421259 0.9799093604
-0.1192393899 -0.01810997725 0.8611901999 -0.1250335723 -0.1861154586 0.9523416162
-0.2125825733 -0.03488600999 0.8541491032 -0.5439644456 0.2916352749 0.7850804329
-0.2193748653 -0.04766307771 0.8518357277 -0.5180838704 0.3942658305 0.7577249408
-0.205824554 -0.04670248553 0.8639262915 -0.5246594548 0.3077462912 0.792190671
-0.2199193686 -0.05508974567 0.855985105 -0.4996439815 0.4140687287 0.7594102621
-0.2232673913 -0.06223926693 0.8616027832 -0.4766877294 0.4307879806 0.7659164071
-0.1753115952 -0.007297279779 0.8575140238 -0.211315766 0.1644234657 0.9269363284
-0.04256597906 -0.0152295595 0.8662174344 -0.1855164617 -0.6207173467 0.7607278228
-0.03584520519 -0.008934339508 0.8748084307 -0.2511678338 -0.7427392006 0.6187974811
-0.08824108541 -0.05110623688 0.893471241 -0.3804254532 -0.1735870391 0.8893488646
-0.09374948591 -0.04580489174 0.8803254962 -0.2697091997 -0.1905852705 0.9215152264
-0.101171352 -0.03880889341 0.8689098954 -0.1823736578 -0.2144295424 0.9466861486
-0.09111130983 -0.04282397404 0.8884186745 -0.2980746329 -0.1398136616 0.928761363
-0.08496984094 -0.05291063711 0.9034407139 -0.4568087161 -0.153060928 0.8709846735
-0.1050317958 -0.0658512041 0.8777445555 -0.001413394581 0.3475654125 0.8093494177
-0.09752564132 -0.04645394906 0.8675091863 -0.1160035133 -0.1185702682 0.9390079975
-0.1023327634 -0.05894275382 0.8741509914 -0.04287518188 0.1811635643 0.8554924726
-0.1096284688 -0.06807201356 0.8713709116 0.1063093245 0.4569508731 0.7996979356
-0.09206265211 -0.05153302103 0.8851872087 -0.2740370631 -0.1078578234 0.8947352767
-0.10401804 -0.05522951484 0.8658879995 0.01422164217 0.1387283057 0.8846516013
-0.09739026427 -0.05587085336 0.8801088929 -0.1560427994 0.05107853934 0.8708100915
-0.09671258926 -0.050663881 0.874661386 -0.1529526711 -0.05400638282 0.9074736834
-0.09842340648 -0.06507553905 0.8867154121 -0.1303685308 0.1050779372 0.783434391
-0.08801796287 -0.06617643684 0.8968003392 -0.2679583728 -0.5071637034 0.6787409186
-0.09324578941 -0.06249001622 0.8931497335 -0.2446994632 -0.04412250221 0.7906876802
-0.1052479148 -0.03830008209 0.860137403 -0.06882166117 -0.1614208519 0.9591522813
-0.1023168489 -0.04644659907 0.8605605364 -0.006289471872 -0.04644416645 0.9437750578
-0.2221400738 0.003493103199 0.8390227556 -0.2233885378 -0.1865979135 0.9561458826
-0.2108552307 -0.02712145261 0.8481186032 -0.5694108605 0.2523291409 0.780057013
-0.1974034309 -0.02530869097 0.856698513 -0.4502075911 0.2689191997 0.805546999
-0.1905104071 -0.02745162882 0.8598457575 -0.3005591333 0.2367100418 0.8600009084
-0.2163923383 -0.01536475308 0.8449944258 -0.4104638994 0.02739909291 0.9087843299
-0.2178105414 -0.02344959602 0.8448494077 -0.4735470116 0.1511295438 0.8633928299
-0.09267874807 -0.03135032952 0.8568567038 0.006658708677 -0.1976905763 0.9775365591
-0.100008361 -0.04426036403 0.851621151 0.01036585588 -0.07435292751 0.9917274714
-0.08728848398 -0.0250029806 0.8590574861 0.0318252109 -0.2577591538 0.9647788405
-0.1086473614 -0.02236929908 0.8512154222 -0.3677918613 0.01675900258 0.7974353433
-0.1182873547 -0.02252472378 0.8469825387 -0.5326668024 0.1528006643 0.7224360108
-0.1120560244 -0.03570196033 0.8479968905 -0.257137835 0.07057373226 0.8639285564
-0.09989744425 -0.02743152343 0.8543827534 -0.1519302726 -0.1044837609 0.9019598961
-0.1007111892 -0.03572797403 0.8529512286 -0.06044603139 -0.08943724632 0.9536551833
-0.09343589097 -0.02049338073 0.8607179523 -0.02918906696 -0.2827495933 0.9568988681
-0.0938283354 -0.02857322246 0.8690832257 -0.1084697992 -0.1927590072 0.9623386264
-0.09376816452 -0.03461500257 0.881465137 -0.2674704194 -0.1495214552 0.9398983121
-0.1009789109 -0.02608434483 0.8640464544 -0.1532488614 -0.2037789226 0.9617054462
-0.09826666117 -0.03343740106 0.8744980097 -0.2343491763 -0.1726145595 0.9473929405
-0.1082608551 -0.02867028117 0.8606090546 -0.149076283 -0.1882389039 0.9690690637
-0.1167163178 -0.04972232133 0.8594489694 0.1380717158 0.198826015 0.911641717
-0.1199922785 -0.04744099081 0.8524618149 0.1603018194 0.05949897692 0.9725208879
-0.1271870434 -0.04827070609 0.856372714 0.2589596212 0.1708857119 0.9458764791
-0.1268707514 -0.0380259566 0.8519653082 0.07621897012 0.1116369143 0.8883984089
-0.1290071756 -0.03034022264 0.8480175138 -0.1446779072 0.1194442213 0.7965433598
-0.2110810131 -0.04182662815 0.8575835824 -0.5578039885 0.3534412682 0.7493496537
-0.1854788363 -0.003922174219 0.8571561575 -0.3897828162 0.2107002884 0.8884174228
-0.1670693904 -0.007943862118 0.8574826717 -0.06995666772 0.08591961861 0.9631979465
-0.2041281462 -0.01894969493 0.8547814488 -0.5216639638 0.2152798623 0.820941031
-0.2109103203 -0.003748570569 0.8522499204 -0.3726450801 0.03085364401 0.8903196454
-0.2181503773 0.001212696661 0.8505564332 -0.285058558 -0.09336199611 0.9325082898
-0.2245677114 0.004312366247 0.8478077054 -0.1927556694 -0.2067244798 0.9588778615
-0.219064787 -0.006957042962 0.8465206623 -0.325139612 -0.06741453707 0.9302549362
-0.2197887301 0.0106097497 0.8510121703 -0.214721024 -0.1644552946 0.9626572132
-0.198179692 -0.003621651558 0.8491883278 -0.3683174551 0.07184886932 0.9257369637
-0.1906494945 0.006801068783 0.8532568812 -0.3522414565 -0.02130817808 0.9313644171
-0.1945616156 -0.01770116761 0.8611192703 -0.510422647 0.3119864762 0.8007209301
-0.1843215674 -0.01240232028 0.8584150672 -0.336134851 0.2267386019 0.87908566
-0.2050857395 0.00193955563 0.8482792974 -0.2682026029 -0.0326041393 0.9613924623
-0.2134523094 0.006147554144 0.8428663611 -0.2517490089 -0.1311239451 0.9530121684
-0.1961192191 0.01290104352 0.8544412851 -0.3166616559 -0.1526710987 0.9277549386
-0.2037168145 0.009841358289 0.8523667455 -0.292960763 -0.06956616044 0.9397751093
-0.210938856 0.005972468294 0.85178262 -0.2784800828 -0.07914425433 0.9423350096
-0.2119883895 0.01412637345 0.8523357511 -0.2386639118 -0.1789655089 0.9533877969
-0.2114426494 0.01604870707 0.8442027569 -0.2341147959 -0.2039578706 0.949398756
-0.2056307942 -0.01295281574 0.8490689993 -0.4813257158 0.1765335947 0.8575677872
