# .PCD v0.7 - Point Cloud Data file format
VERSION 0.7
FIELDS x y z normal_x normal_y normal_z
SIZE 4 4 4 4 4 4
TYPE F F F F F F
COUNT 1 1 1 1 1 1
WIDTH 512
HEIGHT 1
VIEWPOINT 0 0 0 1 0 0 0
POINTS 512
DATA ascii
0.03919814527 0.02114441991 0.8974289298 -0.041672308 -0.2398472875 0.8692874312
0.04020996392 0.01105214842 0.9049265981 0.1097634509 0.07967170328 0.8863356709
0.03568414599 0.01183383819 0.9108647704 0.03798554838 0.02890965529 0.9559195042
0.02806965448 0.02614377998 0.9056386948 -0.0591304712 -0.1324400902 0.9310442209
0.03511772677 0.0211496409 0.9048035741 -0.06136955693 -0.175795868 0.9267884493
0.02624101564 0.02142784931 0.9113202691 -0.02591706254 -0.02659644373 0.9724897742
0.03966851532 0.02820745856 0.8916227221 -0.1138534471 -0.4052856565 0.8370278478
0.03889875114 -0.001277590287 0.9106715322 0.02477199212 -0.2823747694 0.8830510974
0.02914617956 0.01120363548 0.914890945 -0.003735343227 -5.561733633e-05 0.9999001026
0.04252828285 0.02011468075 0.8852072954 -0.07555001974 -0.7180864215 0.673774004
0.04274490103 0.008922970854 0.8963509798 -0.009153107181 -0.7717943788 0.6147024632
0.04340764135 0.02774296142 0.8810479641 -0.1207956895 -0.6848213077 0.7071518302
0.04239330813 0.003231354523 0.9045317769 0.09196805209 -0.4352742434 0.6837232113
0.044591479 0.0112448046 0.8620718718 0.2236228138 -0.2018097639 0.8148494959
0.04422459379 0.01931582205 0.8649793267 0.09869439155 -0.3910441995 0.7812154889
0.04101685435 0.003256940981 0.8643628359 0.236679405 -0.06384719163 0.8395388722
0.0510224849 0.006889454089 0.8519699574 0.4299265146 -0.03178960085 0.8610723019
0.05004585907 0.01522393245 0.8541374207 0.1177615449 -0.2814775705 0.8915868402
-0.06018516421 -0.01884897053 0.8790227175 0.1459699273 0.2415626496 0.7612178922
-0.05880338326 -0.02039906196 0.8707436323 0.1697673798 0.4621361792 0.7960773706
-0.0445083119 -0.01553203817 0.8924461007 -0.1391866952 -0.3461693823 0.7290939093
-0.05406160653 -0.01651343517 0.8896066546 0.006966893096 -0.1417453885 0.7273966074
-0.04935538769 -0.02113783546 0.864773035 0.07062156498 0.5126662254 0.832724154
-0.05077418312 -0.0193746537 0.8741550446 0.04163016379 0.2608205974 0.7934210896
-0.2082172036 0.02603198215 0.8458172679 -0.0844674632 0.1127398461 0.9875869751
-0.2039546072 0.02046343498 0.8521060348 -0.1586567909 0.2301935703 0.9202121496
-0.0914491117 0.07016891241 0.8335833549 0.1474170685 0.2681210637 0.1658457518
-0.07903885096 0.0708873868 0.8568025827 -0.5259045959 -0.241878286 0.5889238119
-0.07993273437 0.07633744925 0.8624699116 -0.4624767601 -0.5844562054 0.533051312
0.03662348539 0.04021253809 0.8855229616 -0.1932445467 -0.5127025843 0.7897006869
0.0329278633 0.03541623801 0.8929027915 -0.1462718844 -0.3705608845 0.8419653773
0.04511150345 0.02599616349 0.8603212237 -0.1071359217 -0.6594367623 0.7423878908
0.04501374066 0.03232612088 0.8679762483 -0.1125254631 -0.6692948341 0.7317184806
0.04427986965 0.03810494393 0.8737556338 -0.1672575772 -0.6484235525 0.7397971749
0.03873306885 0.0415875949 0.8772987723 -0.2235311568 -0.619981885 0.7506389618
0.02640238032 -0.00158659101 0.9143913984 -0.009334634058 -0.099982813 0.9935891628
0.03331052884 0.003161819652 0.9144779444 -0.008938811719 -0.04357841238 0.9982680678
-0.1929018199 0.06529396027 0.8552796245 0.06294522434 -0.3506902754 0.9333999753
-0.1870731264 0.06954879314 0.856974721 0.04822919518 -0.3790630698 0.9225859642
-0.2010488212 0.03381812572 0.844427526 -0.05250310525 0.014933642 0.9967371821
0.05098668113 -0.0007035377203 0.8520560265 0.4782187045 0.09071536362 0.8711795807
0.04297492653 0.01785978116 0.8526647091 0.0942806229 -0.3934311867 0.8239818811
0.03831942007 0.008048693649 0.8520233035 0.3145576417 -0.0004452199792 0.9453901052
-0.08513173461 0.07567206025 0.8542432189 -0.5855491757 -0.48467049 0.5083111525
-0.08287833631 0.08172537386 0.8693858385 -0.2887836695 -0.7382777333 0.5812904239
0.03570986539 0.03386887163 0.8697143197 -0.1660898477 -0.655005157 0.7312624454
0.03510934487 0.02594442293 0.8612744212 -0.1197900996 -0.6966441274 0.7068322301
0.03269992396 -0.008865618147 0.9118587375 0.06516335905 -0.5603814125 0.7948366404
0.0458474122 -0.008574161679 0.8847632408 0.222556293 -0.3665832281 0.7034794688
0.04547419772 -0.01386132278 0.8657257557 0.3582726717 0.05654279515 0.842989862
0.04483951256 -0.006502424367 0.8940416574 0.1592217088 -0.5597819686 0.6395260692
0.0473988615 -0.009626490064 0.8741108775 0.2945455313 -0.1487378329 0.7749545574
-0.05641941354 -0.01995237544 0.8623895645 0.1799607873 0.5608199835 0.8066183329
-0.2097649276 0.01553440932 0.8470324278 -0.1628618538 0.2329636067 0.9559220672
-0.1970006526 0.0106601296 0.855348289 -0.267926991 0.3994724154 0.8611257672
-0.198101908 0.01417676173 0.8486436605 -0.2229836881 0.3297756314 0.9171680808
-0.1932606995 0.02902736329 0.8449379206 -0.1328438222 0.1469502002 0.9679608941
-0.188591674 0.0168937277 0.8506352305 -0.310916692 0.4023464322 0.8590986729
-0.1890108883 0.00910641253 0.8573818803 -0.369761616 0.454744935 0.8086794615
-0.1881951988 0.0004494712921 0.8611276746 -0.3575561345 0.4621423185 0.8086202741
-0.1942418963 0.00343670696 0.8572654128 -0.3119193614 0.446919024 0.8350544572
-0.1800837666 0.0128115844 0.8590424061 -0.4203763306 0.4449467063 0.7897358537
-0.0731336996 0.06940118968 0.8726760745 -0.2300231159 -0.5171176195 0.8238318563
-0.02941626869 -0.02127128653 0.8656428456 -0.09935275465 0.06343472004 0.5781403184
0.05013591051 -0.01311322488 0.8562726378 0.4121389687 0.1945975572 0.8900593519
0.0401715301 -0.01627759635 0.859564662 0.4058521986 0.2111313045 0.8875883222
-0.08652874082 0.07352795452 0.8728052974 -0.102817513 -0.4066457748 0.8975769281
-0.002831034828 0.06059905142 0.8735439181 -0.2287741899 -0.4002381563 0.8869285583
-0.0004366755893 0.04927548766 0.8870990872 -0.2201667726 -0.1047329232 0.8931825161
-0.002501571784 0.05401120707 0.8812648058 -0.2194951773 -0.2268975228 0.8922256827
-0.1169979051 0.07918094844 0.8480571508 0.1127418801 0.2581933439 0.623187542
-0.1117047295 0.07514578849 0.8418036103 0.282006979 0.3912109733 0.4752979875
-0.1237579584 0.07914581895 0.8513156772 -0.07680393755 0.2363757193 0.8168691993
-0.1068334058 0.06687321514 0.8326577544 0.4307233989 0.6468653083 0.3793562949
-0.1391422153 0.08403339982 0.8594399691 -0.1939883232 0.005658941809 0.9752104878
-0.1305896342 0.0837642327 0.8590970039 -0.226624012 0.07324568182 0.9679231644
-0.1069634333 0.07814225554 0.848022759 0.2199394256 0.2496990114 0.5362730622
-0.1031080782 0.07420879602 0.8369022608 0.5311183929 0.4316904247 0.2242555469
-0.1128836796 0.08232209831 0.8592406511 -0.1153925806 0.06786239892 0.8682995439
0.02444511838 -0.009630176239 0.913626194 -0.008220260963 -0.1451320797 0.9868927598
0.04146465659 0.0005692584673 0.8534196615 0.3820770681 0.08801240474 0.914817512
0.04127579555 0.004558789078 0.8740509152 0.1615289897 -0.2850023508 0.7689744234
0.04131355882 0.02703259885 0.8731710911 -0.1062618122 -0.6454725266 0.729452312
0.04142581671 0.01634095423 0.8771701455 -9.47323133e-05 -0.5481131077 0.7229107618
0.04089606926 -0.007082478609 0.8646039367 0.3589629233 0.1067439914 0.8595412374
0.04205968231 0.0001097810746 0.8959835172 0.08552099019 -0.6641268134 0.6227856278
0.04177443311 0.0108638173 0.8872227669 0.006831235718 -0.6639524102 0.6629046798
0.0412000753 -0.002594694495 0.872579515 0.2571533024 -0.1340013593 0.793951869
0.04174121842 0.0008559315465 0.8871636987 0.1287558526 -0.4940944612 0.6836961508
0.003013736568 0.05585389212 0.8733527064 -0.2442479581 -0.4263873696 0.8702620268
0.007728205062 0.04659089074 0.8717354536 -0.2506684959 -0.4747777283 0.8431661725
-0.00737296883 0.05112692341 0.8692846298 -0.1927426755 -0.4190399349 0.8867555857
0.0007566148415 0.0437650159 0.866293788 -0.1957556605 -0.4712111652 0.8584108353
-0.1955927163 0.04534528032 0.8450106382 0.008436211385 -0.1151254326 0.9931060672
-0.1784805655 0.03943284228 0.8475376964 -0.2466481775 0.1154289544 0.9568687677
-0.1935300529 0.03828162327 0.8437958956 -0.05510471761 -0.02374309301 0.9960486293
-0.1822132319 0.05166843906 0.8467718959 -0.04965763167 -0.1738295853 0.9788987637
-0.1652579904 0.05874817446 0.8486403823 -0.144709304 -0.09648617357 0.9787634015
-0.1762494743 0.05706023052 0.8475907445 -0.06727790833 -0.2197110951 0.9695968032
-0.1933450997 0.02403489687 0.8538028598 -0.2348917127 0.2799433768 0.8738095164
-0.2095854729 0.04415234551 0.8500666618 0.03279734403 -0.07910771668 0.9949133992
-0.2035518885 0.05631084368 0.8530253768 0.05378914997 -0.2614774704 0.9634625316
-0.1860601306 0.05975414068 0.8485856056 0.0439642258 -0.3342811763 0.9404698014
-0.1863289475 0.02454062551 0.8480692506 -0.2945714593 0.3396527767 0.8917438388
-0.2025237083 0.04249496013 0.8495668769 -0.02685687505 -0.03398004547 0.9702037573
-0.1969800442 0.03382920846 0.852478683 -0.1531200558 0.1429243833 0.9099892378
-0.1925027519 0.04146631435 0.8524878025 -0.1379196197 0.008560095914 0.8987641335
-0.1853248626 0.03201589361 0.8510716558 -0.250824362 0.1914631575 0.8822200298
-0.1869833767 0.04552320763 0.8478224277 -0.07925061136 -0.08199255913 0.9732231498
-0.1765395105 0.007329168729 0.8633760214 -0.4292541742 0.4435194731 0.7859492898
-0.1773042977 0.02086339705 0.8561406732 -0.4235177338 0.4096184373 0.8060843945
-0.1688694358 0.02430309355 0.8599876165 -0.4897606969 0.3804140091 0.7841534019
-0.08503548801 0.06560521573 0.8720608354 -0.03385983407 -0.3845589757 0.8740970492
-0.09340934455 0.05982466415 0.8703683615 0.140224725 -0.2014226317 0.8936661482
-0.06924985349 0.07125302404 0.861651361 -0.3752906621 -0.3309328556 0.6932505369
-0.0786645636 0.06346721947 0.8465514183 -0.6632952094 0.2167561203 0.6485778689
-0.0617371127 0.0717221424 0.8655819297 -0.2570602894 -0.4113406241 0.7717219591
-0.07184997946 0.06475917995 0.8513414264 -0.5392186046 0.0900227502 0.7132971883
-0.05646643788 0.07162646949 0.8709518313 -0.1421539336 -0.4627562761 0.8724421263
-0.06564854831 0.07159594446 0.8740250468 -0.1753314286 -0.499792546 0.8455894589
-0.07283844054 0.0787120983 0.8692788482 -0.2941688299 -0.682182014 0.625757277
-0.05769147351 0.0003440211294 0.8526611924 0.1310008913 0.1836990714 0.9681149721
-0.04696597904 0.002705228515 0.8505501151 0.02276170626 0.08237690479 0.9875712991
-0.06817365438 0.05316850916 0.8527490497 -0.3717892468 0.06481426954 0.8168826699
-0.07675872743 0.05662057176 0.8486471772 -0.4920061529 0.2789981067 0.7515624762
0.03640717641 -0.01867474616 0.8775744438 0.2712033391 -0.5706177354 0.4304668605
0.03891256452 -0.01263721474 0.8922010064 0.1385667175 -0.5149030685 0.6565841436
0.03953838721 -0.01768662967 0.8694760799 0.3325453401 -0.210678041 0.6444200873
0.03381376341 -0.02327950299 0.8690507412 0.3515315652 -0.7011107802 0.2136245072
0.04200798273 -0.005603448022 0.9044738412 0.08496186882 -0.7627812028 0.5748233795
0.03846444562 -0.01105790772 0.9000950456 0.07456080616 -0.6579351425 0.6276701689
0.04084659368 -0.01322199684 0.8820380569 0.2261094153 -0.2687010765 0.7453702092
-0.0407104902 0.001303854166 0.8542887568 -0.05022049323 -0.2869905531 0.756891489
-0.04334046319 0.009864535183 0.8516310453 0.02503637597 -0.1189464554 0.954240799
-0.03582953289 0.00739823468 0.8587754965 -0.0383467041 -0.3976226449 0.7529882193
-0.03687920049 -0.00454622414 0.8580844998 -0.1131278649 -0.454149127 0.5878810287
-0.03335185349 -0.01531520393 0.8632743955 -0.178770259 -0.1943928748 0.5975015759
-0.03812791035 -0.01855438016 0.8771719933 -0.1035292 0.2402098775 0.7166936398
-0.03962683678 -0.01702383161 0.8849442601 -0.1343180388 -0.02197187394 0.7043693066
-0.04070686176 -0.0204985626 0.8670423627 -0.03479320928 0.4665363431 0.7887840867
-0.02988494001 0.008429082111 0.9099430442 -0.1223424375 -0.03454404697 0.9891357422
-0.03409987688 0.01578483172 0.9089232087 -0.07024873793 -0.03980313987 0.9955602288
-0.0224566292 0.01169212069 0.9092689157 -0.1346608102 -0.03528990969 0.9873366952
-0.09067498893 0.08052510023 0.8718748093 -0.1061877534 -0.5305245519 0.809807241
-0.09233805537 0.07265425473 0.8417758346 -0.2529606521 0.04240245 0.4119660556
-0.1051839516 0.08322190493 0.8646991849 -0.1787641346 -0.03425974771 0.9422447681
-0.09795120358 0.06669535488 0.8279486895 0.6714988351 0.7011592388 0.1046529934
-0.09299499542 0.06256669015 0.8321008086 0.1038148552 0.6462765336 0.3777590394
-0.09959503263 0.07942273468 0.8702619672 -0.1311360002 -0.1488500088 0.96680516
-0.08298755437 0.05181804299 0.8489609957 -0.2892176211 0.4682533145 0.8062439561
-0.0890269354 0.0505454503 0.8439056873 -0.07430496812 0.6200358868 0.7473432422
-0.08625584096 0.06029627472 0.8390972614 -0.4109998941 0.5130608678 0.5899922252
-0.006944320165 0.04004149139 0.8965330124 -0.1882376224 0.02940070629 0.9318794012
0.01809438691 0.04501703009 0.8908987641 -0.2190233916 -0.1670454592 0.8455290794
0.008320607245 0.0321011208 0.9062561393 -0.1090065986 0.2681681514 0.9088945985
0.02212000079 0.03720989078 0.8982567787 -0.1481234133 -0.1418461353 0.8869178891
0.01895953342 0.02524431236 0.9112440944 -0.04387405887 0.07923046499 0.9666697383
0.0300296694 0.05044430494 0.8830221891 -0.2615154088 -0.4982683063 0.8029897213
0.02628047951 0.04578019679 0.8885807395 -0.2219700515 -0.3482781053 0.8316353559
0.01563806459 0.03365493193 0.9032080173 -0.1195521429 0.06435693055 0.9052366018
0.02179414406 0.05176505074 0.8814421296 -0.2739118636 -0.4208029211 0.825137794
0.009083211422 0.03873577714 0.8980608582 -0.1652189493 0.1111309454 0.8815787435
0.006628041621 0.05227904394 0.8820550442 -0.2301578671 -0.2446282208 0.8742078543
0.009890070185 0.04619915411 0.8872351646 -0.2174994946 -0.1378711313 0.8692779541
-0.001459590974 0.0334319286 0.9052128196 -0.1579973996 0.3274576664 0.9106993675
0.001968767494 0.04441154748 0.8929227591 -0.1818875521 0.03623245656 0.8961189985
0.009910653345 0.01773180813 0.9137145877 -0.1357102692 0.06459174305 0.9870150089
-0.1733536869 0.0701861009 0.8543545008 -0.003903527744 -0.3626105189 0.9312697649
-0.1770395041 0.06441863626 0.851133287 -0.009911016561 -0.3390284479 0.9398552775
-0.06179136783 -0.01329649426 0.8619240522 0.2376192808 0.4801883101 0.8381549716
-0.05428649858 -0.01227213815 0.8575896621 0.1594082713 0.4313510656 0.8802464008
-0.05056861416 -0.004753449932 0.8527702689 0.06743331999 0.2490217835 0.9606567025
-0.1066047177 0.04105636105 0.8612379432 0.01750218309 0.3233959973 0.8803920746
-0.09853095561 0.04044133425 0.8582291603 0.1603322774 0.3357208073 0.8729188442
-0.0948081091 0.0465917699 0.8511040807 -0.08165064454 0.6148469448 0.7321427464
-0.1716942191 0.04282815009 0.8487161994 -0.3120446503 0.149386555 0.9347288013
-0.177545622 0.03124111518 0.8486096859 -0.3695165515 0.2575478852 0.8892644644
-0.1071689874 0.03982868418 0.8692492843 0.2982039154 0.1378037333 0.9372980595
0.004508782178 0.002420412377 0.9142201543 -0.1763818711 -0.01479681302 0.9833565354
-0.003090763465 0.003513837 0.9118883014 -0.2271778435 0.004324100912 0.9734355211
-0.1656408906 -0.00681272801 0.8778349757 -0.2886205316 0.4012847841 0.8654117584
-0.1719789803 -0.003016857896 0.8713707924 -0.3711342514 0.4049024582 0.8323042393
-0.1704682559 0.004529673606 0.8680438995 -0.4107536077 0.4131070077 0.8125865459
-0.1797977835 -0.00165990286 0.8658907413 -0.4031290412 0.4485986829 0.7971383333
-0.1255213022 -0.01076328754 0.8836824298 0.1178751737 0.4372653663 0.8914624453
-0.06047636271 0.0519323796 0.8582527041 -0.2044903338 -0.1449058056 0.8917313218
-0.1518366933 0.06117209047 0.8528497219 -0.2902466953 0.03145266324 0.9499939084
-0.1447535157 0.06123878062 0.8569144607 -0.35489133 0.1615669429 0.9173933268
-0.1518042684 0.06773424894 0.8624666333 -0.1991008818 -0.01173903514 0.9213763475
-0.1543615311 0.0747891739 0.8623623252 -0.1238173842 -0.1313501447 0.940869689
-0.1208712533 0.0733840093 0.8440875411 0.08984595537 0.3699744046 0.6610217094
-0.1326572597 0.07751646638 0.8548614979 -0.2222228944 0.1132776886 0.9140571952
-0.1140630022 0.06552384049 0.8375255466 0.2802223563 0.5418387651 0.4881875813
-0.1796569824 0.0726448521 0.8580496311 0.03656213731 -0.4059232771 0.9129858017
-0.1711992174 0.07612729073 0.8616333604 0.001451562042 -0.3861924112 0.9219198227
-0.0611133948 0.06711492687 0.8580332398 -0.3477514088 -0.09313481301 0.804237783
-0.05345194414 0.06875466555 0.8622148037 -0.2161172628 -0.2063714415 0.8659032583
-0.06389038265 0.05987647921 0.8560661077 -0.3272210956 -0.06396321207 0.8200080991
-0.0503754206 0.04163487628 0.8605802059 -0.0288563706 -0.2378451675 0.9697439671
-0.05868952349 0.03335147351 0.8646767735 -0.05889977142 -0.1212940961 0.9888601303
-0.04998040944 0.02415437438 0.8833690882 -0.04920784384 -0.09408953041 0.992046237
-0.04314043373 0.01453941129 0.9029151797 -0.05743550137 -0.04673236981 0.9967480898
-0.039337378 0.0341437012 0.8830989599 -0.02605948225 -0.1655408293 0.9787780046
-0.04244443029 0.04089585319 0.8709986806 -0.01319025178 -0.2312535048 0.9681692719
-0.03863431513 0.02815364674 0.8911013603 -0.03658736125 -0.1066034511 0.9892619252
-0.05028805882 0.02966023795 0.8740130067 -0.02779684961 -0.1347122788 0.9885355234
-0.04256265983 0.02152190916 0.8941446543 -0.04352496192 -0.07838967443 0.9940047264
-0.03660218418 0.02271992527 0.900328517 -0.04606492445 -0.06328830868 0.9956923127
-0.08120836318 0.05936960131 0.8700397015 -0.09793721884 -0.2974438667 0.8865641356
-0.08105779439 0.04817672819 0.8660528064 -0.09385450929 -0.06932279468 0.9164664149
-0.07419879735 0.04694042727 0.8626195788 -0.3005706072 -0.01809880137 0.9341711998
-0.08885684609 0.04974196479 0.8700124025 0.1410698295 -0.1308097392 0.8959135413
-0.09398327023 0.04371530563 0.8691405654 0.2603257298 0.01128520351 0.9071974158
-0.09812286496 0.05140961334 0.8699887395 0.2316065282 -0.01837201044 0.9005554914
0.02669205517 0.01792224683 0.8581110239 -0.09080975503 -0.5535652637 0.8252439499
0.03544154018 0.01852765121 0.8556197882 -0.04633220285 -0.5220245719 0.8239468932
0.01072902698 0.03048196808 0.8610979915 -0.2043903023 -0.5791407824 0.7884246707
0.01487897895 0.04390532896 0.8689438105 -0.2642214 -0.5195744634 0.8093749881
0.01691786759 0.05153696612 0.8745550513 -0.2843696475 -0.4774435461 0.8301389217
0.008995956741 0.03935868666 0.8662028313 -0.2310659736 -0.5187722445 0.8207457066
-0.0284655299 -0.0005241683102 0.8625386357 -0.1496178508 -0.6551329494 0.4887423515
-0.03324517235 0.01477634255 0.857644856 -0.01485269889 -0.3507316709 0.8436455131
-0.02834873088 -0.008809523657 0.8649032116 -0.2005005479 -0.7760959268 0.3348569274
-0.01932541654 0.004428760614 0.8634626865 -0.1155615598 -0.6721956134 0.550190866
-0.0236812681 0.01906043105 0.8577273488 -0.06921598315 -0.4407390952 0.7943301797
-0.02272520959 -0.01923682727 0.8698137403 -0.1845751554 -0.9638217092 0.1730211079
-0.01883931458 -0.01575557701 0.8994416595 -0.1546151489 -0.7741559744 0.5880112648
-0.03589748219 -0.01537799928 0.8966139555 -0.1987119615 -0.4633467197 0.666590035
-0.03222506121 -0.01788049005 0.8846384287 -0.1929979473 -0.4729065001 0.5242428184
-0.0250283163 -0.02073928341 0.8773679733 -0.1990522891 -0.9125500321 0.2960920036
-0.02837892063 -0.01521902345 0.9000744224 -0.2085720152 -0.7598599195 0.5982720256
-0.02399839647 -0.01860341616 0.8864460588 -0.1927824765 -0.8562275171 0.4164325893
-0.01714877784 0.002414859599 0.9080976844 -0.151656121 -0.03441623598 0.9847137332
-0.09781892598 0.05171620473 0.8431403637 0.04619333893 0.6933109164 0.6378365755
-0.09933190048 0.05466081202 0.8363463283 0.1503566206 0.7562139034 0.5595896244
-0.1060393155 0.04788739607 0.8559741378 0.09809522331 0.4181908071 0.8148086667
-0.1093952134 0.07476329058 0.8668536544 -0.1684881747 -0.06153165177 0.9768233895
-0.0985057652 0.08089400083 0.8621476889 -0.3166679442 -0.1737364531 0.8667815328
-0.09321586043 0.07781701535 0.8569008708 -0.4558282793 -0.2361174524 0.7523337603
-0.08815679699 0.07981109619 0.8629515171 -0.3700137734 -0.5363030434 0.6352415085
-0.01673397981 0.02549009211 0.9058997631 -0.1240071207 0.03539747745 0.9903675318
-0.03041602112 0.03013927676 0.8973212242 -0.0669137463 -0.0932065323 0.9847862124
-0.03251102939 0.0464569591 0.8774424791 -0.08266574144 -0.2319639474 0.9587638974
-0.02329548262 0.04173751548 0.8846827149 -0.126352489 -0.1892421246 0.9540751576
-0.02325668186 0.02865858935 0.9000487328 -0.09587162733 -0.03854300827 0.9849581718
-0.01416670531 0.03409836069 0.8997626901 -0.1616700292 -0.01606822014 0.9743589759
-0.02178806625 0.03623714298 0.8921446204 -0.1222320646 -0.111921683 0.9674307704
-0.02512342483 0.01903438196 0.9080794454 -0.09369710833 -0.0137068443 0.993239224
-0.00978175085 0.03042431176 0.9061971903 -0.1777958572 0.05773136765 0.9823461175
-0.0374109596 0.04129242152 0.8607637882 -0.03039489128 -0.3044227362 0.9507185221
-0.06697061658 -0.007302010898 0.8614302278 0.2911831737 0.4034608305 0.8673055172
-0.07024028152 -0.01219835691 0.8665280342 0.3026050329 0.4630185962 0.8317556381
-0.09241734445 -0.01280190144 0.8735061884 0.2713787258 0.4598357677 0.845033884
-0.07906303555 -0.006610054988 0.8655582666 0.3243519068 0.4449276328 0.8346015811
-0.08411811292 0.005346497521 0.8637866378 0.2837245464 0.2962397039 0.8836473823
-0.08425430208 0.01354064979 0.8613469601 0.2706970572 0.1701779813 0.9223777056
-0.06730130315 0.0007250509225 0.8736838698 0.2101409435 0.2583692968 0.8919796944
-0.05972060189 0.007050786633 0.8833474517 0.08740479499 0.07752223313 0.9467418194
-0.07200513035 -0.003748830874 0.8682872653 0.2893784642 0.3807438612 0.8556514382
-0.05481252074 0.01009933837 0.8907481432 0.01381589752 -0.02018344402 0.9777166843
-0.06767290831 0.009229652584 0.8635782003 0.1666885912 0.1040528417 0.9270166159
-0.05710030347 0.01458150428 0.8808479905 0.01498838887 -0.08392259479 0.9885403514
-0.06301016361 0.01936530508 0.862698257 0.0561494492 -0.1227895841 0.9874235988
-0.06273432821 0.008155555464 0.8755505085 0.1158854663 0.08241111785 0.9404605031
-0.06933972985 -0.008894236758 0.8758431673 0.254280597 0.3736804724 0.8549194336
-0.06348680705 -0.004631316755 0.8849018812 0.1708618551 0.2644040883 0.8918169737
-0.04232163727 0.002872146666 0.9063127041 -0.0641566813 -0.09032188356 0.9901104569
-0.03283185139 0.001974791754 0.9054913521 -0.06466766447 -0.1200423986 0.9855372906
-0.03855706379 -0.003909797408 0.9047204852 -0.1166343763 -0.3123000264 0.8810979128
-0.03991064429 -0.01289638039 0.9043669105 -0.2146463692 -0.6884637475 0.6776313186
-0.06530059874 0.007569638081 0.8531929851 0.1754976511 0.07982128114 0.9773529172
-0.07351802289 0.01272266079 0.8553923965 0.1912943125 0.06227308512 0.9766531587
-0.0645005554 -0.0006173431757 0.8559020758 0.2357654274 0.2621303201 0.930609405
-0.05782120675 0.01241482515 0.85214293 0.08353347331 -0.05017261207 0.9938925505
-0.1573436111 0.0101052355 0.8702856898 -0.2660869956 0.3806144893 0.855604887
-0.1586545557 -0.009437763132 0.8818992972 -0.1734963953 0.4083130956 0.8950298429
-0.1567743719 0.0008036599611 0.8772063851 -0.2121685892 0.3629095256 0.9063982964
-0.1144935191 0.03371977434 0.8686640859 0.1175156683 0.1032050475 0.9849488735
-0.1193153858 0.02506633848 0.8683429956 0.0909788385 0.1352322847 0.982524693
-0.1228831559 0.01171791181 0.8688896298 0.1087226346 0.1984431148 0.9697633386
-0.1278477758 0.024755463 0.8687226176 0.017257303 0.1805389822 0.9756308198
0.01109686587 0.009052316658 0.9148216844 -0.1106859744 0.01166822296 0.9915581942
0.01956870966 0.009136469103 0.9150004983 -0.02860217914 -0.02399607003 0.9985442162
0.01244137902 0.0007438950706 0.914673388 -0.06585661322 -0.07789064199 0.9910928011
-0.0962074101 0.03147473186 0.859955132 0.3150859475 0.2305597514 0.912037015
-0.1064287424 0.02712744661 0.8666521311 0.2369378656 0.110928148 0.9601174593
-0.1013074741 0.03174539655 0.869045198 0.3082232177 0.1035328507 0.9416204095
-0.1008767262 0.0212587174 0.8684375286 0.2961212099 0.07709607482 0.9443997145
-0.1471674442 -0.003778825747 0.8776552081 -0.04962681234 0.3861810565 0.9192324877
-0.1155828834 -0.009194560349 0.8801018596 0.1688160151 0.4330964983 0.8852550983
-0.1157347858 0.0189324338 0.871763587 0.1394527406 0.0776938647 0.9868084788
-0.1247066632 -0.004103896208 0.8799989223 0.1103869975 0.3809353113 0.910810709
-0.117318444 0.008739164099 0.8747304082 0.1456743777 0.2044871002 0.9529886246
-0.07449038327 0.05482307449 0.866030097 -0.2818934917 -0.2006198615 0.8944249153
-0.08303380758 0.03742775321 0.8638342619 0.05224368349 0.07235504687 0.9519020915
-0.09196574241 0.03301875293 0.8663585186 0.2856909335 0.09677875042 0.9365599155
-0.06778116524 0.03446332738 0.8613179326 -0.08573099226 -0.05690475926 0.9933004975
-0.05874848738 0.02106923051 0.8778085709 -0.03461486474 -0.1010057479 0.9922314882
-0.06135006249 0.02511898614 0.8708394766 -0.04194978625 -0.1054274142 0.9914640784
-0.04653585702 0.009473949671 0.9082277417 -0.06324050575 -0.04574679211 0.9968991876
-0.05167717859 0.01675628684 0.8949660063 -0.07374375314 -0.05651105195 0.9953392744
-0.07582852244 0.005022656173 0.8637245893 0.2184756547 0.2536888123 0.8856634498
-0.02214504406 0.05717805773 0.8691661358 -0.1581381261 -0.35783571 0.9200659394
-0.04036737978 0.04349013418 0.8799682856 -0.04582541808 -0.2139772326 0.9679654241
-0.04521846771 0.05354431272 0.8653967977 -0.03974492848 -0.2983810902 0.9534647465
-0.05355751142 0.0503138639 0.8626454473 -0.052781187 -0.2891771197 0.9546219707
-0.01696497202 0.04884789512 0.8821020722 -0.1690678895 -0.2174457014 0.9402944446
-0.02124136686 0.05147187039 0.8752572536 -0.1567642242 -0.2842265666 0.9321885109
-0.009419161826 0.05144229159 0.8835638762 -0.1968489289 -0.2395459265 0.9268856049
-0.008490398526 0.04520844296 0.8902150393 -0.1948390156 -0.1594109386 0.9399431944
-0.01191480272 0.0581092909 0.8766783476 -0.1938700974 -0.3130193651 0.9178286195
-0.01277039014 0.05723188445 0.8694673777 -0.1844385862 -0.384267211 0.9039960504
-0.03331017122 0.05135174096 0.8715472221 -0.08816862106 -0.280801028 0.9498143792
-0.02900463901 0.03710345551 0.8887227178 -0.08099782467 -0.132949695 0.9740789533
-0.05670121685 0.03808394447 0.857753396 -0.03595456854 -0.1244008318 0.9520381093
-0.0657922402 0.04146328196 0.8546715975 -0.1212948263 0.1041000038 0.9081002474
-0.05995694548 0.02054765262 0.8556660414 0.08551156521 -0.1291099489 0.9845765233
-0.04694660753 0.01656933129 0.852003634 0.03988344967 -0.1004287601 0.9892650247
-0.08871938288 0.04274303839 0.8502365351 -0.04338011518 0.5344148278 0.7751338482
-0.09147993475 0.0170784276 0.8615274429 0.3328970671 0.1265460551 0.9325016141
-0.08507368714 0.02809433639 0.863340795 0.170882374 0.01487839222 0.9647032022
0.03037216328 0.03055929765 0.8658753633 -0.1751032919 -0.6611451507 0.7248363495
0.0283622276 0.04295990616 0.8753746748 -0.2634633482 -0.573284924 0.7729107738
0.02280555107 0.04050761461 0.8705404997 -0.2655888498 -0.5632429719 0.7782648802
0.01627416909 0.03524699062 0.8641808629 -0.2463630587 -0.5777966976 0.7773358822
0.02269924618 0.0303418301 0.8630306125 -0.2177146971 -0.6441676617 0.7307117581
0.003598212963 0.03581937402 0.8624770641 -0.1891793758 -0.5026293397 0.8429566026
-0.004969600122 0.03857958317 0.8632771969 -0.1712579727 -0.4599120915 0.8704929948
-0.02367599122 -0.009210638702 0.9050418735 -0.2017189115 -0.3561419249 0.8282290101
-0.0246196799 0.002298130421 0.9052938819 -0.07947140932 -0.04970533401 0.9948659539
0.003331335261 0.01080226339 0.9128715396 -0.1994157583 0.03754374385 0.9787467718
-0.01556213852 -0.005611556582 0.8692399263 -0.05849567428 -0.7974526286 0.4449864626
0.01836319081 -0.005003358237 0.9143266082 -0.01446782704 -0.1395655572 0.9900978804
0.02045983076 -0.009158673696 0.8664687276 0.1897868365 0.1211239547 0.9118443131
0.02905138955 0.006441977341 0.8582345843 0.1360737085 -0.1576284319 0.8994728923
0.02145926096 0.007426097523 0.8627591729 -0.00906792935 -0.308961004 0.8232423663
0.01908819564 0.01618120447 0.8602768779 -0.1079497784 -0.4775123596 0.768733263
0.02037981153 -0.0002702512429 0.8648082018 0.07617923617 -0.1146231219 0.8570002317
0.01071646437 0.02112801932 0.8613109589 -0.1187758595 -0.4562264979 0.8081967831
0.01096067671 -0.0006968894158 0.8681178689 0.03409319744 -0.4109417498 0.6638263464
0.008982863277 -0.008951375261 0.8718521595 0.05723210424 -0.6007589102 0.4951942265
0.0110896267 0.01056653168 0.8644348383 -0.0380432643 -0.3960026503 0.759409368
0.01478710026 -0.01657629572 0.8709574938 0.2012924403 -0.03032708354 0.7509673834
-0.01466170885 -0.02141949907 0.8712283373 -0.06295637786 -0.9182212949 0.216029197
0.007369557396 -0.01705286838 0.870778203 0.1506283432 -0.1312894672 0.7049155235
-0.005523263477 -0.02068931609 0.869525075 0.01979506388 -0.5699991584 0.3987001181
0.01819217578 -0.0142871188 0.9071527123 -0.003248597495 -0.2925526798 0.8557983637
0.01862154528 -0.01785783656 0.8922117352 0.05107615888 -0.5945731401 0.5310495496
0.02084747143 -0.0234203618 0.8733721375 0.1902919859 -0.9582756162 0.1072282717
0.03074481525 -0.02138337307 0.882158041 0.245914191 -0.7899926901 0.2533510327
0.03398049623 -0.01824650727 0.8881459236 0.1866035759 -0.8712012768 0.2946922779
0.03016016819 -0.01572263427 0.8985012174 0.105426833 -0.5820252299 0.5744712353
0.02702163719 -0.01346711908 0.9075178504 0.03431677818 -0.3388060629 0.8139258027
-0.124378182 0.06818784028 0.8648254871 -0.2415588647 0.136651054 0.9604359269
-0.129492119 0.07533217967 0.8618881702 -0.2147809416 0.0825047642 0.9700542092
-0.1234129891 0.08325792104 0.8620986938 -0.2419203371 0.1163592115 0.9631016254
-0.1024390906 0.06661070138 0.8698278666 -0.02675110847 -0.1104104966 0.9711626768
-0.03931677714 0.0211136546 0.8543990254 0.03320121765 -0.1947965324 0.9747925997
-0.004653542768 0.02490041405 0.9081069231 -0.1891521364 0.07438331097 0.9790920019
0.004707421176 0.02254792117 0.9109326005 -0.1764526069 0.08081745356 0.9809285402
-0.005682237912 0.01135269459 0.9099017978 -0.2192962617 0.03231507167 0.9747704268
-0.01295236498 0.009460237809 0.9093306661 -0.1877920032 0.001635191846 0.9814973474
-0.01515071001 0.04821598902 0.8663029671 -0.1574076861 -0.4036875069 0.9011130929
-0.02133633569 0.0419606939 0.8630187511 -0.116803959 -0.3867259026 0.9145159721
-0.007945023477 0.03227505833 0.8578881025 -0.1287360489 -0.465579927 0.8742169142
-0.01297272369 0.03935454786 0.862788856 -0.1502835751 -0.4104649127 0.8988558054
-0.1604355276 0.04608665779 0.8543508649 -0.4221910834 0.2728456259 0.857352972
-0.1673769057 0.05052601174 0.8486812711 -0.2496083379 0.06687156856 0.9589813948
-0.07817836851 -0.01488998998 0.8708270192 0.3237679601 0.49566558 0.8053963184
-0.06943206489 -0.01659376547 0.8770132661 0.2340781689 0.3183800876 0.7733564377
-0.06251274049 -0.01488194056 0.8852455616 0.1057178378 0.0107431449 0.7499206662
-0.04735134542 -0.01246948168 0.900981009 -0.1478518248 -0.5654422045 0.7031111717
-0.07684034854 -0.01260272134 0.8788030744 0.2079718113 0.2713617384 0.811444819
-0.05696911737 -0.00534247281 0.8953344226 -0.009346977808 -0.1790228784 0.8250584006
-0.07296282053 -0.008402762003 0.8839761615 0.1780545413 0.2775242329 0.8603311181
-0.05003245547 -0.005626592785 0.899183929 -0.09936405718 -0.4356497526 0.7824414968
-0.05190110579 0.004003596492 0.9030878544 0.004023849964 0.04716853797 0.96413064
-0.1091488078 -0.005136077758 0.8762806058 0.2188834697 0.4000964761 0.8889740109
-0.04407522455 -0.01034112927 0.8565475941 -0.03983856365 0.3079498708 0.9400001168
-0.04150720313 -0.01612649113 0.8604926467 -0.06781546772 0.4130907059 0.9029015303
-0.07337561995 0.02873878926 0.857786715 0.03102449887 0.03442357108 0.992158711
-0.06682519615 0.01745020784 0.8547067046 0.09650345892 -0.04531243816 0.9917821288
-0.05152529478 0.03114845417 0.8580000401 0.05069880933 -0.2204974145 0.9732143283
-0.1644621789 0.01726668142 0.8657306433 -0.4386753142 0.3786278963 0.8025488853
-0.1651196182 0.01010850258 0.8713818192 -0.3896977305 0.3679313362 0.8438782096
-0.1387101263 0.02944127657 0.8714277148 -0.07905813307 0.2209766805 0.9637548923
-0.1251805574 0.03276478127 0.8717055917 0.01079654228 0.129801631 0.9913348556
-0.1335427165 0.04056622833 0.8678639531 -0.1254269034 0.2308983505 0.9588087797
-0.154792577 0.02168757841 0.8672481775 -0.2769478858 0.3112764657 0.8777132034
-0.1607138216 0.03091730736 0.8640589118 -0.4634337425 0.3725617528 0.8019319773
-0.1650215387 0.03152856603 0.8573600054 -0.4796659052 0.3514739573 0.7921618819
-0.1444909126 0.03059794381 0.8660404682 -0.1765414029 0.2599951625 0.9272198081
-0.1528813839 0.02890902758 0.8630867004 -0.2987662256 0.3049406111 0.8675031066
-0.1721100658 0.02910044417 0.8540306687 -0.4806105494 0.3465578258 0.8041741848
-0.1563527733 0.03587047756 0.8596835732 -0.3723189831 0.3076387346 0.8496441245
-0.177029565 0.0529169105 0.8569339514 -0.1713436246 -0.09419003129 0.8624350429
-0.1932771802 0.05741342157 0.853186965 0.005351607688 -0.2839226425 0.9296478033
-0.1672563702 0.03972339258 0.8600513935 -0.3965472579 0.2242019624 0.8111194372
-0.1846635342 0.04860652983 0.8549650311 -0.1701293141 -0.05245504528 0.8853440881
-0.1744817644 0.0420377329 0.8583192229 -0.3148884475 0.1340118051 0.8412273526
-0.08647546917 -0.002868661424 0.8667436838 0.3116979301 0.4230024517 0.8472089767
-0.09526975453 0.006938901264 0.8663501143 0.3435434699 0.2568727732 0.9001821876
-0.1351989061 0.003473228309 0.8743029237 0.09447878599 0.3288267255 0.939037919
-0.1265400648 0.001129055046 0.873724401 0.1319050342 0.3306245506 0.9332485199
-0.1510334313 -0.009946366772 0.8829752207 -0.07286534458 0.4215824008 0.9017601013
-0.1374842376 -0.003525473177 0.8798546195 0.05167368427 0.4069755375 0.9107398987
-0.1415004581 -0.009728646837 0.8833945394 0.02081285603 0.4336762726 0.8998919725
-0.148815304 0.003725566901 0.8758730888 -0.08953210711 0.367127955 0.9203548431
-0.07314497232 0.06204512343 0.8690105677 -0.2670418024 -0.3905626535 0.8487265706
-0.06434846669 0.05398586392 0.8651455045 -0.235722065 -0.3216958642 0.8932350278
-0.06230511889 0.06415662169 0.8692800999 -0.2058295459 -0.4681283832 0.853882134
-0.1373025328 0.07459894568 0.8610723615 -0.20966506 0.06672207266 0.9693407416
-0.142768532 0.06820815802 0.8619775176 -0.2150839418 0.06720531732 0.9453678131
-0.1463702172 0.07787550241 0.8616443276 -0.1204932481 -0.08534736186 0.9697839022
-0.1356485337 0.06082941964 0.8631819487 -0.2560126483 0.193968147 0.9442273378
-0.1224476248 0.05915311351 0.8667987585 -0.1682440937 0.1550664455 0.96927315
-0.1122588068 0.06079247221 0.8675954938 -0.0714988187 0.04801755026 0.9873718619
-0.1066747233 0.04711924866 0.868508637 0.3216699064 0.1535114348 0.9263772368
-0.1159201413 0.05407305062 0.8672702312 0.04777909443 0.172455743 0.9820556641
-0.1205232069 0.04772523791 0.8686009049 -0.002997785807 0.1683548242 0.9815589786
-0.1487832814 0.0736740306 0.854816258 -0.1599604338 -0.108145602 0.9764787555
-0.1586026549 0.06509070098 0.8505712152 -0.1606523693 -0.1338733286 0.9710155725
-0.159172982 0.08117809892 0.8621582389 -0.04012108222 -0.2783199847 0.9549306035
-0.1578453779 0.07752804458 0.8552035093 -0.0483748503 -0.2804778218 0.9560094476
-0.03583865985 0.04942404851 0.863077879 -0.06700130552 -0.3360612392 0.939263463
-0.03437808156 0.05648878589 0.8655256033 -0.08720108867 -0.3422042429 0.9352273941
-0.02978819236 0.0625461787 0.8682553768 -0.1220405102 -0.3477469087 0.9292431474
-0.07950326055 0.01856182888 0.8564626575 0.2177126855 0.05560076237 0.9733141661
-0.01422773022 -0.007538947742 0.9065705538 -0.1760573387 -0.291174978 0.8656550646
-0.009463838302 -0.001012596069 0.9101652503 -0.2231349796 -0.02504609525 0.9744197726
-0.007808316033 -0.00754450867 0.8714126348 -0.07826080173 -0.8715965748 0.3918019235
0.0006857708213 0.005539266393 0.8680096865 -0.1090624332 -0.766651094 0.5389304161
-0.01457322948 -0.01339710969 0.8725292683 -0.05095288903 -0.89558357 0.3400669098
-0.01194964256 0.01114279963 0.863648355 -0.07344629616 -0.6188415885 0.6639838815
0.002959653968 0.02068637684 0.8619406223 -0.1513248235 -0.623976171 0.7205712199
-0.006299121771 0.0003819164122 0.8683976531 -0.09743391722 -0.7954090834 0.4879694581
-0.00394520117 0.01201258134 0.8643282056 -0.113621898 -0.673263073 0.6359420419
-0.00780774001 0.02350682952 0.8595284224 -0.0988157168 -0.5023046732 0.8130961657
-0.01583633199 0.01956275478 0.8599994183 -0.05733793974 -0.4850250185 0.7990372777
0.007479881868 -0.01319553051 0.9113551378 -0.1228619218 -0.3153709769 0.93586272
0.005770637654 -0.005676649511 0.9134825468 -0.1324925423 -0.09436698258 0.9854989648
0.02995904163 -0.00633471692 0.8610975742 0.3106397092 0.1671665907 0.9256059527
0.03207649291 -0.01374595612 0.8642293215 0.356341064 0.2388278544 0.8992113471
0.03748619184 -0.004372279625 0.8586281538 0.3688648343 0.1453098059 0.9108858109
0.04502902552 -0.006262388546 0.8542209268 0.4377407134 0.1528501511 0.8853542209
0.01123041473 -0.01981417648 0.8871597648 0.04599791393 -0.7394796014 0.4221700132
0.0134470528 -0.02133431099 0.8797675371 0.08031908423 -0.8754565716 0.261027813
0.009107031859 -0.01786982454 0.8958883286 -0.0003582075005 -0.5934237838 0.6008636951
0.004429334775 -0.01563572697 0.9035699964 -0.1247719303 -0.654114306 0.6486126184
-0.03917049989 0.03270433098 0.8580450416 0.0201875139 -0.2833958864 0.9582335949
-0.1065825075 0.004043769091 0.8738908768 0.2298312336 0.2923058867 0.9110985398
-0.113815017 0.001022165641 0.8749999404 0.1901759803 0.2993765771 0.9259383678
-0.101654008 -0.00259743724 0.8717162609 0.2429244369 0.3580492735 0.8990525603
-0.08360994607 0.03326380625 0.854840517 0.1179038212 0.2439094782 0.9368121028
-0.08030340075 0.04314951226 0.8526393771 -0.03811845183 0.3703552783 0.9026973844
-0.07598065585 0.03629813716 0.8561208248 0.003111862112 0.1695487201 0.9605459571
-0.1411138624 0.02209448814 0.872413516 -0.06460370868 0.2125700265 0.9705480933
-0.1286974698 0.01151780877 0.8739452362 0.09416773915 0.1731595248 0.9729017615
-0.1336825341 0.01878657937 0.8727232218 0.0587294586 0.1415600032 0.9876728058
-0.1378963292 0.04941928759 0.8657832146 -0.2469025254 0.2825109065 0.9253721237
-0.1427654177 0.05397675931 0.8623937964 -0.360303849 0.2727615535 0.8916407228
-0.1292609274 0.04641819 0.8647001386 -0.1419555098 0.1975147873 0.96345824
-0.1302803755 0.05503525212 0.8660892248 -0.1993622929 0.2396873832 0.9482694268
-0.1235074475 0.05071537197 0.8539842367 -0.05070994794 0.3636801541 0.8244141936
-0.1211299077 0.05377895385 0.8469661474 -0.008048003539 0.4746814072 0.7322772741
-0.1152963564 0.05752340332 0.8367874622 0.08762298524 0.645136714 0.5953128338
-0.1036136374 0.05758583173 0.8302822709 0.2614701688 0.7856314778 0.4966670573
-0.1289117485 0.05654413253 0.8460606933 -0.1171475053 0.4569134414 0.7316895127
-0.1207136288 0.06133374572 0.8419650197 -0.009428952821 0.5088224411 0.6848529577
-0.137995407 0.05805752426 0.8518225551 -0.2585253716 0.3220098019 0.823679328
-0.1340812892 0.06649173796 0.8545194864 -0.2366905361 0.2104921341 0.8886338472
-0.108375065 0.05312290788 0.8429738879 0.208467707 0.5701129436 0.6624544263
-0.112060301 0.05060211197 0.8500967622 0.1541740298 0.4494409263 0.7574052215
-0.1163609549 0.04835769907 0.8563272953 0.07985627651 0.3444915414 0.8425242901
-0.1168557629 0.04056818038 0.8675293326 0.0792080462 0.1388137937 0.9817839265
-0.1261273921 0.04050543904 0.8697670698 -0.05688937008 0.1715943366 0.9783725739
-0.1502003372 0.02789263055 0.8709372878 -0.2737133205 0.3131336868 0.9062463641
-0.1473971903 0.01772351563 0.8729662895 -0.1298231184 0.2666237354 0.9500541687
-0.1587239057 0.04313694313 0.8620918393 -0.411115557 0.2866334021 0.8214815259
-0.1709711105 0.06597767025 0.8619168401 -0.1000076085 -0.2151445448 0.8862118721
-0.1696612239 0.05783298984 0.8617303371 -0.1973455399 -0.07880757749 0.8600258827
-0.1602945328 0.05363797024 0.8623880148 -0.287425667 0.1127905622 0.8555570245
-0.1546018571 0.05790011585 0.8652888536 -0.1870538294 0.04798991606 0.9079921246
-0.149564594 0.05051315948 0.865677774 -0.2530779839 0.2030352354 0.8994413614
-0.1628796756 0.06856799126 0.8643363118 -0.1039956287 -0.1760413647 0.913393259
-0.1551245898 0.05272663385 0.8546637297 -0.3994338512 0.2501915693 0.8799605966
-0.03821425512 0.06536968797 0.8679943681 -0.08559809625 -0.3459222913 0.9341488481
-0.04686964676 0.06706169993 0.866666317 -0.063908346 -0.3439732194 0.9366452098
-0.05426236615 0.06395339966 0.8690367341 -0.09882707149 -0.379293412 0.919819355
-0.007635828108 -0.01091492269 0.907869339 -0.1683271825 -0.522543788 0.7601109147
0.0006542277406 -0.007193633821 0.8734022379 -0.04137889296 -0.8731524944 0.385738939
0.0001068215061 -0.01411160454 0.8759437799 -0.004861303605 -0.9314405918 0.29972139
0.001843973063 0.02903879248 0.8590006232 -0.1557025462 -0.5295532942 0.8271990418
0.001788123278 -0.01812428609 0.8944055438 -0.09991345555 -0.8326313496 0.4669165909
-0.0007812057738 -0.02279066108 0.8772750497 0.002679536585 -0.9635480642 0.2485675067
0.00207324978 -0.02018705569 0.8869902492 -0.04174350575 -0.8926647902 0.3635051847
-0.003002719721 -0.01558143459 0.9017465711 -0.1462270916 -0.7720219493 0.5870211124
-0.01087463554 -0.01670584269 0.8968123198 -0.1134212911 -0.7972969413 0.548538208
-0.0075266934 -0.01856825501 0.8906784654 -0.08723066002 -0.8500518799 0.4573851526
-0.007238930557 -0.02141179331 0.8812147975 -0.05245025828 -0.9204128981 0.3340470493
-0.03110072576 0.03220279142 0.8577237129 -0.01247228775 -0.3258963525 0.9446656108
-0.02405727282 0.02748083137 0.8553128242 -0.01830458827 -0.3216068447 0.9460436106
-0.01938077807 0.03459940851 0.8588725924 -0.08237408102 -0.3858020008 0.9182687998
-0.1103627235 0.009123451076 0.8678287864 0.2040171325 0.1872639358 0.9568353295
-0.1028654352 0.005173553713 0.8673670292 0.2397462875 0.2530407608 0.935185194
-0.09474088997 -0.0005692432751 0.8688514233 0.2866314352 0.374384582 0.880726099
-0.1024576873 0.01352334395 0.8657954335 0.2731077075 0.1236157343 0.9513486624
-0.1002028286 -0.01059467252 0.8746156693 0.2387428433 0.431471169 0.8673799038
-0.1069435626 -0.01208718866 0.8782963157 0.2122242451 0.4426398873 0.8701229095
-0.1480314881 0.03753106669 0.8676362038 -0.3053733408 0.3437591791 0.8861141205
-0.1433713883 0.04222011566 0.8632497191 -0.2560918629 0.2856037021 0.9056145549
0.02600899152 -0.01984996721 0.8676494956 0.3101094067 0.3150262833 0.8925932646
