# .PCD v0.7 - Point Cloud Data file format
VERSION 0.7
FIELDS x y z normal_x normal_y normal_z
SIZE 4 4 4 4 4 4
TYPE F F F F F F
COUNT 1 1 1 1 1 1
WIDTH 512
HEIGHT 1
VIEWPOINT 0 0 0 1 0 0 0
POINTS 512
DATA ascii
-0.1790954 -0.21914154 0.76133329 0.8545625806 0.5104548335 0.09570075572
-0.26131973 -0.028371856 0.73000002 0.1241484955 -0.1539426595 0.9802493453
-0.14778461 -0.086403906 0.77347374 -0.3238063753 0.1469868422 0.9346359372
-0.25021952 -0.13155216 0.77350008 0.4166921079 0.2856744826 0.8629934788
-0.10288502 -0.22053485 0.80200005 -0.9191204906 -0.1434977055 0.3669140637
-0.12803382 -0.15670983 0.77704757 -0.6397898197 -0.2039395124 0.7409977317
-0.12645498 -0.27088344 0.75573331 0.2858346403 -0.3686842024 0.8845170736
-0.19607158 -0.035932548 0.7544046 -0.6303627491 -0.3442594409 0.6957932711
-0.19124481 -0.14903578 0.74760002 0.1433428079 -0.2502657771 0.9575071335
-0.15674886 -0.25643986 0.80873913 -0.2139585465 -0.3978109658 0.8921704888
-0.23708588 -0.081293613 0.74727273 -0.2075788081 0.6567764878 0.7249522209
-0.15497732 -0.20483641 0.80476934 -0.3667919636 0.1987829059 0.9088173509
-0.13260272 -0.20123294 0.75900012 -0.6318896413 -0.1588314772 0.7586092949
-0.19356814 -0.093699276 0.76130277 -0.08743492514 0.07234642655 0.993539691
-0.15534814 -0.11317612 0.73528576 -0.8263992071 0.3211072385 -0.46255216
-0.21334586 -0.18435775 0.76517385 0.5471769571 0.2120588422 0.8097088337
-0.22544448 -0.043371871 0.72662514 -0.3500150144 0.02435329184 0.936427474
-0.11501049 -0.23497222 0.76637024 -0.8798505068 -0.1839056611 0.4382257462
-0.1558553 -0.24753195 0.77158821 0.5316966176 0.6356781721 0.559653461
-0.16408022 -0.17451863 0.75080961 -0.4149974585 -0.3302798867 0.8477572203
-0.18154758 -0.23182441 0.79650003 -0.8818389773 -0.2775068581 0.3812478483
-0.14086279 -0.1224002 0.78000003 -0.5963110328 -0.2309574783 0.7688119411
-0.11212305 -0.18512131 0.79300004 -0.8489460945 -0.1338980645 0.5112355947
-0.16871159 -0.059059281 0.7626667 -0.4332221448 -0.05532792211 0.8995873332
-0.22447203 -0.11500457 0.75564152 0.008113526739 -0.05939339474 0.9982016683
-0.26136342 -0.10238358 0.75790918 0.0794987455 0.4681171477 0.8800830841
-0.26401085 -0.065094911 0.73763442 0.3203497231 0.3747012019 0.8700431585
-0.1647844 -0.13409582 0.76100004 -0.2883150578 -0.2184275836 0.9322895408
-0.22452901 -0.15425918 0.76272702 0.3932841718 0.1649631858 0.9044969082
-0.18378437 -0.19590989 0.79366672 -0.6921428442 0.09979920834 0.7148275375
-0.20527698 -0.064667054 0.74532139 -0.3737515807 0.4662813842 0.8018051386
-0.18595193 -0.19406024 0.74661297 0.2468842715 0.2844828367 0.9263464212
-0.13940972 -0.22734641 0.81550002 -0.1386372596 0.05876315013 0.9885982871
-0.13625942 -0.27043152 0.79300004 0.3907850683 0.9119498134 -0.1250384599
-0.16806722 -0.10772665 0.76855558 -0.3919423521 -0.06354186684 0.9177927971
-0.19581012 -0.12117469 0.76136374 -0.1252514571 -0.2125437707 0.9690909386
-0.23061155 -0.021437129 0.74100006 -0.2974346876 -0.5516490936 0.7792405486
-0.14271449 -0.17312138 0.76190478 -0.5186372995 -0.2445453703 0.819275856
-0.10721195 -0.24001643 0.78900003 -0.9087216258 -0.1953026801 0.3688927293
-0.21640825 -0.082235061 0.75800008 -0.207171008 0.5219364762 0.8274433613
-0.12369493 -0.18490729 0.77248943 -0.7387327552 -0.1699121743 0.6522298455
-0.14544307 -0.14495397 0.76656657 -0.5577995777 -0.1835756004 0.8094192743
-0.11258841 -0.21410462 0.78278589 -0.8861168027 -0.1815749109 0.4264124036
-0.24493091 -0.054266047 0.72508192 0.04459418356 0.2570584714 0.9653664231
-0.2149346 -0.13491015 0.7543751 0.1405372471 -0.04334647581 0.9891260862
-0.18655835 -0.073350146 0.75748479 -0.2907060385 0.3271677792 0.8991391659
-0.19841328 -0.17646287 0.75000006 0.5399644971 0.1387721896 0.8301690221
-0.16036426 -0.23234999 0.81300002 -0.3764599264 0.1317475885 0.9170171618
-0.13617259 -0.25538865 0.81520528 -0.002153466921 -0.2807487547 0.9597789049
-0.22480097 -0.064725049 0.73676187 -0.2885352969 0.5229029059 0.8020722866
-0.14552528 -0.26274499 0.76116657 0.2100254297 -0.259591043 0.9426037669
-0.20028239 -0.20294397 0.75900006 0.523211956 0.3366901875 0.7828722596
-0.20873013 -0.03815078 0.73759997 -0.6147063971 -0.2677128911 0.7419338822
-0.17769782 -0.16501835 0.7390002 -0.3352435827 -0.1844677627 0.9238957763
-0.26275134 -0.082151406 0.7486667 0.01582739502 0.5408215523 0.8409884572
-0.1649912 -0.15531035 0.75689656 -0.4511582553 -0.1114094332 0.8854627013
-0.27015623 -0.043730326 0.73900002 0.340534389 0.1681860238 0.9250674248
-0.1517005 -0.10621097 0.78160006 -0.413461715 -0.04561470076 0.9093782306
-0.24530159 -0.1155676 0.76352924 0.3100787997 0.3088847995 0.8991336226
-0.1731815 -0.21525173 0.80208826 -0.4509346783 0.1317074895 0.8827859759
-0.18468586 -0.055131167 0.75175416 -0.4871247411 -0.1443519592 0.8613198996
-0.16507795 -0.085109599 0.76610327 -0.3316318095 0.1697055548 0.9280195832
-0.23613641 -0.13491738 0.76151597 0.4364455044 0.1567974389 0.8859626651
-0.11538664 -0.2557973 0.7573489 0.06710901111 -0.2862043977 0.9558156133
-0.24481806 -0.035339557 0.7244038 0.01001442596 -0.09527286887 0.995400846
-0.1907105 -0.21329343 0.79250008 -0.9150555134 0.009711544961 0.4032109976
-0.12944531 -0.13698113 0.78125 -0.6272457838 -0.2438117564 0.7396746278
-0.17268637 -0.24215358 0.76863647 0.7323201299 0.6638409495 0.1517314464
-0.16199519 -0.12615287 0.74557906 -0.7499590516 0.6572508216 0.07471780479
-0.12464343 -0.21474203 0.76657611 -0.7964799404 -0.2444620878 0.5530443192
-0.17468658 -0.13789903 0.74719995 -0.1135665998 -0.3986095786 0.9100620747
-0.23517953 -0.095071286 0.7576316 -0.206122905 0.2670968175 0.9413674474
-0.17261153 -0.24348363 0.80545467 -0.5987043381 -0.07101775706 0.7978155017
-0.14611229 -0.099330716 0.73100001 -0.9219318032 0.2070051432 -0.3273997605
-0.20534301 -0.10501324 0.76295912 -0.06314077973 -0.0370554179 0.9973164797
-0.12081847 -0.20091206 0.77425003 -0.8071888685 -0.1608435065 0.5679573417
-0.18045482 -0.15930261 0.75400001 -0.2587490678 -0.2462692857 0.9340237379
-0.14751583 -0.12791511 0.76629406 -0.6630315185 -0.1379824281 0.7357649207
-0.1849627 -0.043501109 0.76343989 -0.5593250394 -0.3283337951 0.761152029
-0.1810627 -0.13249466 0.76100004 -0.1076395139 -0.4579502344 0.8824371696
-0.16823372 -0.19480583 0.79760009 -0.4090701044 0.1227877513 0.9042039514
-0.15167999 -0.18451115 0.74900001 -0.4641129971 -0.2302038223 0.8553392887
-0.20502903 -0.15502097 0.75247073 0.3941814899 0.009553592652 0.9189829826
-0.19501016 -0.13493837 0.75274146 0.01462123077 -0.3487611115 0.937097609
-0.17863064 -0.18303519 0.73879993 -0.1015366614 0.1603273302 0.9818276167
-0.18348938 -0.10526248 0.76197761 -0.1877905577 -0.06034033 0.9803538918
-0.10706525 -0.20508236 0.7938711 -0.8953252435 -0.1266954392 0.4270139635
-0.15247217 -0.21826984 0.81099993 -0.3599711657 0.170472905 0.9172566533
-0.11859985 -0.16727589 0.78200006 -0.7706016898 -0.1895375997 0.6084805131
-0.24370645 -0.073327199 0.73707914 -0.009915056638 0.6018444896 0.7985517383
-0.15891133 -0.068809271 0.76700002 -0.3252474666 0.1424750388 0.9348341823
-0.21522358 -0.026636083 0.7430833 -0.5289955735 -0.4268004596 0.7334882617
-0.14546593 -0.26447648 0.80517936 0.4147973657 0.7440035343 -0.5238338709
-0.15055202 -0.16122632 0.76099998 -0.4008840322 -0.2889561653 0.8693654537
-0.23281987 -0.030334419 0.73000002 -0.2539714575 -0.3717684746 0.8929091096
-0.13737743 -0.18584856 0.75900006 -0.586004436 -0.1762190759 0.7909144163
-0.21372074 -0.16455634 0.7578277 0.4486623704 0.1746429652 0.8764712811
-0.21496572 -0.054807264 0.73688525 -0.4506779313 0.272526443 0.8500698209
-0.20481046 -0.075026505 0.75553679 -0.2201227099 0.5193550587 0.8257216811
-0.1388571 -0.10550596 0.77642858 -0.4295322299 -0.05373748392 0.90145123
-0.18247853 -0.23273702 0.76599991 0.8114024401 0.5821355581 0.05238652602
-0.1862755 -0.20581861 0.75373799 0.442024678 0.3749292791 0.8148878813
-0.13779202 -0.15655777 0.76755559 -0.5533249974 -0.2490380257 0.7948657274
-0.13310409 -0.25890225 0.75725001 0.1890419126 -0.3310334086 0.9244890809
-0.2546581 -0.044807848 0.72562003 0.2734535336 0.09873750061 0.9568040967
-0.20863201 -0.11887863 0.75757152 -0.06507288665 -0.1678550094 0.9836616516
-0.17511581 -0.09497869 0.76481825 -0.2761704028 0.05961826816 0.9592578411
-0.14538173 -0.24564457 0.81691849 -0.0602135919 -0.1461069435 0.9874346256
-0.19235967 -0.21726634 0.76099998 0.8258820176 0.5470586419 0.1365494579
-0.17433669 -0.076122947 0.76274413 -0.2868424356 0.1832010746 0.9402971864
-0.21608555 -0.095475666 0.75882608 -0.1321855485 0.07482093573 0.9883970618
-0.19618289 -0.045420915 0.74543136 -0.6465834379 -0.2155134082 0.7317675948
-0.26112667 -0.11238189 0.76628578 0.2246464193 0.414929837 0.8816843033
-0.19384106 -0.16494013 0.74668306 0.3680512905 -0.03535672277 0.929132998
-0.11556081 -0.19551133 0.78458136 -0.8579569459 -0.1643009484 0.486739248
-0.14785013 -0.11431964 0.7455219 -0.9696750045 0.2442905307 -0.00724947406
-0.13860393 -0.2734265 0.76133329 0.1834715009 0.9376779795 0.295124054
-0.22092631 -0.17356177 0.76320004 0.5038853884 0.2156283706 0.8364232779
-0.10920373 -0.22752956 0.78840005 -0.9060052037 -0.1594727784 0.392075181
-0.23391674 -0.057090968 0.73064524 -0.1583138257 0.37441203 0.9136478305
-0.12914614 -0.25758657 0.80500007 0.4845154881 -0.2027957886 0.850951612
-0.18480371 -0.08503823 0.76378572 -0.1860308945 0.1695973277 0.9677960873
-0.19421276 -0.066058278 0.75120944 -0.3708996475 0.3508602977 0.8598433137
-0.13523856 -0.14543965 0.77337027 -0.5903850794 -0.2161830664 0.7776312232
-0.24449302 -0.10546041 0.75716656 0.06711096317 0.3706049919 0.9263628125
-0.11290563 -0.22521716 0.77293754 -0.8612363935 -0.2401479781 0.447884798
-0.20342468 -0.18518689 0.75635713 0.5331192613 0.2301599234 0.8141316175
-0.22478148 -0.14352337 0.75762862 0.3483588099 0.1114435866 0.9307128787
-0.21498489 -0.071107954 0.74663639 -0.3068825006 0.6208149791 0.7213957906
-0.26392558 -0.055308182 0.73142511 0.3480551839 0.262830466 0.8998765349
-0.12160004 -0.24398717 0.76327282 0.04963950813 -0.3122234643 0.9487109184
-0.18578492 -0.17477956 0.74261212 0.1592776477 0.0256137643 0.9869015217
-0.22832082 -0.076106943 0.74200004 -0.2746952176 0.6181566119 0.736495018
-0.1543075 -0.09567003 0.77209771 -0.355742991 0.1002212688 0.9291946292
-0.25486752 -0.071783178 0.73836851 -0.004340652376 0.5841245055 0.8116524816
-0.24499792 -0.025741778 0.7304399 -0.03782457113 -0.3570583165 0.9333159328
-0.15073186 -0.12085682 0.77450001 -0.5103439689 -0.3171190917 0.7993651032
-0.16750515 -0.12322503 0.76237506 -0.1411335617 -0.505507946 0.8512009382
-0.20606349 -0.084868528 0.76155859 -0.08649862558 0.2993218005 0.9502233863
-0.14175574 -0.13344598 0.77411771 -0.597309351 -0.2165490687 0.7722228169
-0.19513172 -0.19506726 0.75302219 0.5229631662 0.2958188355 0.799375236
-0.17519972 -0.1154717 0.76489651 -0.2420174628 -0.157214582 0.9574503303
-0.19444963 -0.10455118 0.75900018 -0.07600307465 -0.02453782037 0.9968056083
-0.17289212 -0.14735883 0.75275004 -0.4371291697 -0.2066797614 0.8753293753
-0.17176794 -0.25159368 0.81300002 -0.3841229081 -0.02998884581 0.9227948189
-0.16161902 -0.14570872 0.76107693 -0.4533563554 -0.09912924469 0.8857998848
-0.10821581 -0.24356972 0.76580948 -0.8709049225 -0.05034482479 0.4888660312
-0.16498396 -0.22450089 0.80703902 -0.4256925881 0.1677325964 0.8891859055
-0.21851717 -0.10595722 0.7586922 -0.0709271282 -0.06872087717 0.9951114655
-0.17505948 -0.064987704 0.75642186 -0.3793198764 0.1450439095 0.913826406
-0.25503409 -0.094698429 0.75399977 0.01708466746 0.4830907583 0.875403583
-0.15373197 -0.077879854 0.77099997 -0.3294225633 0.1840341538 0.9260735512
-0.25226942 -0.12148301 0.76900005 0.3710796237 0.3524546325 0.859113276
-0.10757061 -0.2343625 0.77388895 -0.8776580095 -0.2143841237 0.4286674857
-0.15408 -0.1353877 0.76271993 -0.5723442435 -0.1163312644 0.8117198348
-0.17291999 -0.17423217 0.74502933 -0.3264935315 -0.1166026294 0.9379796386
-0.12079309 -0.18139602 0.78200006 -0.8124173284 -0.1603629589 0.5605905652
-0.1781753 -0.049559195 0.75779998 -0.5128783584 -0.2284663618 0.827501595
-0.1255469 -0.17463188 0.77330005 -0.7469908595 -0.1924585551 0.6363680959
-0.23619425 -0.12453078 0.76268733 0.3846895099 0.1181063503 0.9154587984
-0.17803194 -0.20428832 0.79600018 -0.4019181728 0.1291448921 0.9065226912
-0.21456975 -0.045200158 0.73268342 -0.4883134663 -0.03606801853 0.8719226122
-0.16762567 -0.25076261 0.77100003 0.7145436406 0.689979732 0.1155651361
-0.15537795 -0.2452607 0.81495929 -0.2036220133 -0.05355876684 0.9775835276
-0.23406757 -0.1129072 0.75833338 0.1894097924 0.09930416942 0.9768636823
-0.22479632 -0.091895901 0.76266664 -0.2301737666 0.1873603165 0.9549430013
-0.12475631 -0.20469007 0.76534551 -0.7349508405 -0.1858242303 0.6521630287
-0.24465159 -0.094956525 0.75412524 -0.1093640178 0.4167886972 0.9024005532
-0.20496835 -0.14497215 0.75262076 0.2866915762 -0.0799754113 0.9546789527
-0.22370158 -0.16417474 0.76538718 0.4401085377 0.2212623954 0.8702570796
-0.16488346 -0.20501952 0.80334586 -0.4061334729 0.1555535644 0.9004769325
-0.14524178 -0.23539679 0.8161431 -0.1235434785 0.007218261715 0.9923129082
-0.2247518 -0.12493929 0.75590384 0.1552899629 -0.05328129232 0.9864310026
-0.20300312 -0.055431623 0.74244738 -0.5001660585 0.1720707566 0.8486610651
-0.22391357 -0.077110477 0.7540713 -0.2787311673 0.6291083694 0.7256249785
-0.21459764 -0.15477987 0.75653481 0.3805817962 0.1385297924 0.9143123031
-0.20498115 -0.13510783 0.75192165 0.1202679798 -0.2156196088 0.9690427184
-0.18714093 -0.11710864 0.75900006 -0.1476643085 -0.1688033789 0.9745258689
-0.15535174 -0.25555903 0.76589829 0.185548529 -0.1605945677 0.9694231153
-0.17393067 -0.22506179 0.8022691 -0.4595655501 0.1543611586 0.8746268749
-0.21464674 -0.14461313 0.75364608 0.3121226132 0.1097313464 0.9436835051
-0.20291018 -0.029646674 0.75150007 -0.6379998922 -0.3879850805 0.6651493907
-0.2346482 -0.044982102 0.72390598 -0.1831999719 0.07294213772 0.9803658724
-0.12275504 -0.22415258 0.76518184 -0.8041749001 -0.2376132607 0.5448327065
-0.20840494 -0.19217536 0.76228577 0.5504463315 0.2576604187 0.7941158414
-0.16495158 -0.16533889 0.75367212 -0.4662424326 -0.2939824164 0.8343814015
-0.2113498 -0.17384247 0.75859994 0.5143274069 0.182144165 0.8380279541
-0.12717749 -0.19540523 0.76520586 -0.7202823162 -0.1813547909 0.6695549488
-0.15762572 -0.12909164 0.7536 -0.4537686408 0.5064364672 0.7332231402
-0.20493484 -0.16458942 0.75285435 0.4745457172 0.08793140948 0.8758278489
-0.18152019 -0.15626957 0.7385 0.04698960111 -0.1856373549 0.9814941287
-0.10694829 -0.21541211 0.7950322 -0.9105316997 -0.1602309793 0.3811272979
-0.24464634 -0.064968742 0.73260367 -0.00936622452 0.5026665926 0.8644296527
-0.21458447 -0.12479132 0.75314277 0.06990607083 -0.148485437 0.9864406586
-0.19678909 -0.085086741 0.75899994 -0.1061528698 0.2227398455 0.9690812826
-0.24512647 -0.044970468 0.7232542 0.07711178064 0.01410383731 0.9969226718
-0.12782651 -0.14609458 0.78326929 -0.6764838099 -0.2085396945 0.706314981
-0.17509936 -0.085201666 0.76526546 -0.2751191258 0.1509433091 0.9494870305
-0.15480587 -0.17512722 0.75228983 -0.43282637 -0.2779574692 0.8575552106
-0.11408538 -0.20487499 0.78367454 -0.8807752728 -0.1436116099 0.4512323141
-0.10881926 -0.19629204 0.79642862 -0.8834294677 -0.1425714344 0.446347177
-0.22509868 -0.055044118 0.73286688 -0.3307565153 0.3343982399 0.8824839592
-0.13606837 -0.24563953 0.81690472 -0.09177774936 -0.2514512241 0.9635087848
-0.13626152 -0.16564378 0.76635575 -0.590739131 -0.2439878285 0.7690885663
-0.2541759 -0.054274026 0.72569555 0.2786715329 0.2119921744 0.9366971254
-0.24577343 -0.083881669 0.74552399 -0.08938781172 0.5823020339 0.8080434203
-0.18483919 -0.06514924 0.75371194 -0.3771523237 0.2472312599 0.8925428987
-0.11608082 -0.21519525 0.7743637 -0.8367605805 -0.2134233117 0.5042640567
-0.16619855 -0.13451189 0.74680001 -0.2334340662 0.107564494 0.9664049149
-0.18438448 -0.093979575 0.76199991 -0.1937177628 0.02846761234 0.9806441665
-0.13491902 -0.26454082 0.80557775 0.2687062025 -0.6667173505 0.6951869726
-0.14499088 -0.11435034 0.78013349 -0.4835501015 -0.167632699 0.8591150045
-0.16277143 -0.098621421 0.77099997 -0.393890202 0.06632518768 0.9167613983
-0.20432797 -0.093287677 0.759 -0.02557388879 0.1026081443 0.9943930507
-0.16521701 -0.075014628 0.76553208 -0.301451534 0.1896850169 0.9344231486
-0.22497565 -0.025469877 0.7353518 -0.406557709 -0.450358659 0.7949137688
-0.19066249 -0.20452884 0.7908572 -0.9161860347 0.04232252017 0.3985121846
-0.14507452 -0.25520816 0.8155418 -0.06472105533 -0.3337278962 0.9404450655
-0.19524662 -0.07477431 0.75614601 -0.2024149746 0.3869608343 0.8996052146
-0.22450563 -0.13481818 0.75584608 0.2432234585 0.006143584847 0.9699508548
-0.1959109 -0.1857532 0.75167656 0.5404481292 0.2164985985 0.813046217
-0.11737151 -0.17542006 0.78757137 -0.8085713387 -0.1647320241 0.5648679137
-0.2347066 -0.065116495 0.73430926 -0.1535349041 0.5234896541 0.8380845189
-0.17408818 -0.23507875 0.803298 -0.4587379694 0.1091647297 0.8818404078
-0.14651188 -0.094840907 0.77608687 -0.3722914159 0.08121476322 0.9245557189
-0.16513146 -0.21460178 0.80551064 -0.422739774 0.156087622 0.8927080631
-0.19456284 -0.12590228 0.75408465 -0.08118932694 -0.350387454 0.9330792427
-0.24314074 -0.13240735 0.7661429 0.4467093945 0.2244209647 0.8660750389
-0.12650396 -0.16504964 0.77493483 -0.6843532324 -0.2142308205 0.6969689727
-0.18588351 -0.18550815 0.74489754 0.1814489514 0.227188617 0.9567975998
-0.18598923 -0.046924189 0.75502568 -0.5545612574 -0.3221445978 0.7672578692
-0.18619692 -0.16570535 0.74261761 0.2075413913 -0.1206642687 0.9707557559
-0.21561588 -0.063353457 0.73809111 -0.3761175573 0.465415746 0.8012014627
-0.13520631 -0.17535245 0.76547688 -0.6223273277 -0.2305209041 0.7480432987
-0.18741454 -0.14208764 0.75085717 0.03792438656 -0.3873441517 0.9211548567
-0.20518744 -0.035627976 0.74498153 -0.6349464655 -0.3443804383 0.6915526986
-0.25473723 -0.084908225 0.74744916 -0.02433918417 0.5472375154 0.8366233706
-0.17671257 -0.22646943 0.76528007 0.8221691251 0.5624247789 0.08784229308
-0.21932621 -0.071167797 0.73800004 -0.3103789091 0.6042593122 0.7338498235
-0.18657835 -0.12635489 0.75882375 -0.1289404631 -0.3428895473 0.9304843545
-0.1954812 -0.054691419 0.74639404 -0.5716130733 0.02012121677 0.8202765584
-0.2350512 -0.1045878 0.75678575 0.005087304395 0.132831797 0.991125524
-0.21381664 -0.11357658 0.76172948 -0.05572338402 -0.1227492616 0.9908720851
-0.263607 -0.035446115 0.73406905 0.2438991368 0.01914589293 0.9696115851
-0.18537652 -0.21490042 0.75685376 0.7618166804 0.4646671712 0.4513532221
-0.25254864 -0.035837337 0.72763634 0.191532895 -0.04830694199 0.9802966714
-0.1443281 -0.18433627 0.75462502 -0.4893950224 -0.2282532156 0.8416608572
-0.26351559 -0.075512022 0.74368751 0.07012294233 0.52433604 0.848619163
-0.16777422 -0.23568131 0.76690918 0.7449250221 0.6613445282 0.08780739456
-0.1834024 -0.22418422 0.7938379 -0.8970965147 -0.1887106448 0.3995073736
-0.15690574 -0.15607753 0.75813526 -0.3699669838 -0.162484616 0.9147257209
-0.10874436 -0.25017875 0.76100004 -0.8211849928 0.1441548169 0.5521544814
-0.12809151 -0.26485589 0.7610001 0.2858346403 -0.3686842024 0.8845170736
-0.16472414 -0.24493493 0.80687743 -0.3783982396 -0.001160818501 0.9256421924
-0.23513722 -0.035558175 0.72421718 -0.1824536026 -0.2513756454 0.9505372047
-0.20468494 -0.11499207 0.76351649 -0.09993191808 -0.1441482604 0.9844973087
-0.23485509 -0.085805111 0.75364715 -0.2384853214 0.5170399547 0.8220672011
-0.1213184 -0.25184566 0.76120007 0.06710901111 -0.2862043977 0.9558156133
-0.1489255 -0.2516638 0.77100009 0.1895439625 -0.1992670447 0.9614394307
-0.2443386 -0.12459538 0.76756793 0.3764438927 0.2576528192 0.8898904324
-0.14076725 -0.19280443 0.76100004 -0.5927759409 -0.16565229 0.7881472111
-0.18424675 -0.22509581 0.76302779 0.8302667141 0.5455744267 0.1140426174
-0.15511774 -0.16523661 0.75582528 -0.3904791772 -0.3053753078 0.8684883118
-0.25344422 -0.10207053 0.75836837 0.05538090318 0.4299937487 0.9011316895
-0.16730651 -0.11512209 0.76525003 -0.2030006051 -0.3890420794 0.8985750079
-0.17872176 -0.1549357 0.74575001 -0.252961427 -0.2199062109 0.9421527386
-0.25364015 -0.026665278 0.73000002 0.121532172 -0.2275046855 0.9661633372
-0.19111574 -0.038757212 0.76225007 -0.5982677341 -0.3024341166 0.742030561
-0.17515156 -0.12501101 0.76257128 -0.09764870256 -0.4524119496 0.8864469528
-0.17539695 -0.13489318 0.75614995 -0.1328365803 -0.3326481879 0.9336485267
-0.17411338 -0.16389914 0.75409299 -0.4978773594 -0.2089401037 0.8417019248
-0.11749975 -0.26321253 0.75600004 0.1657698154 -0.3945831656 0.9037834406
-0.20485441 -0.17465496 0.75404662 0.5264977217 0.1674442887 0.8335241675
-0.23592906 -0.073401935 0.73775697 -0.1779375076 0.6259364486 0.7593035102
-0.17390655 -0.15506725 0.75398177 -0.4843766689 -0.2115710527 0.8488916159
-0.13094769 -0.21018785 0.76600003 -0.7132641077 -0.192399472 0.6739708781
-0.21539856 -0.035246231 0.73482764 -0.5170865059 -0.3247326314 0.7919408083
-0.20561704 -0.12560564 0.75508624 -0.06489244103 -0.2454438657 0.9672363997
-0.17642255 -0.19506368 0.79600012 -0.4019181728 0.1291448921 0.9065226912
-0.21467188 -0.076087192 0.75359458 -0.2320883274 0.6087850928 0.7586275339
-0.16380151 -0.25339857 0.80781478 -0.3423213065 -0.165030539 0.9249762297
-0.25918651 -0.0403179 0.73000002 0.2438991368 0.01914589293 0.9696115851
-0.23091269 -0.079386994 0.75150001 -0.2450172454 0.6371386647 0.7307673097
-0.20757991 -0.028315771 0.74481827 -0.6289698482 -0.3759912252 0.6804612875
-0.16527119 -0.06595365 0.76375002 -0.3180078566 0.1589762866 0.9346644282
-0.22508276 -0.035690669 0.72652024 -0.3759643734 -0.2555771768 0.89069134
-0.19147013 -0.079390056 0.76099998 -0.1596837044 0.288629204 0.9440308809
-0.2030967 -0.19413428 0.75708336 0.5300172567 0.2557052672 0.8085150123
-0.15762895 -0.08514329 0.76796687 -0.3331139088 0.1936816722 0.9227797985
-0.24275897 -0.087812334 0.75138462 -0.1641034037 0.5213478208 0.8374165893
-0.14143087 -0.26678312 0.79733342 0.4647780657 0.877987504 -0.114539586
-0.15346019 -0.10621876 0.73266655 -0.8706818223 0.1795918792 -0.4578863382
-0.20658033 -0.0454791 0.73798048 -0.5976991057 -0.1204076186 0.7926271558
-0.14389986 -0.16413708 0.76335317 -0.4859330952 -0.2851305008 0.8261777163
-0.22551847 -0.084325507 0.75596064 -0.2581311762 0.4866884947 0.8345673084
-0.14647168 -0.13546216 0.76651239 -0.5616609454 -0.2068437487 0.8010946512
-0.17982888 -0.18954936 0.79200006 -0.7338916063 0.07712064683 0.6748744249
-0.25484934 -0.06513866 0.73465222 0.1987023354 0.4551098347 0.8679817915
-0.19230939 -0.043461103 0.75259995 -0.6355221868 -0.2844125628 0.7177889943
-0.14496209 -0.15503071 0.76556665 -0.4953111112 -0.2417034656 0.8344137669
-0.18570726 -0.13480559 0.75557882 -0.07204863429 -0.4273743331 0.9011992812
-0.17509855 -0.23483334 0.76559252 0.7601094246 0.6397810578 0.1136391312
-0.11932573 -0.2083144 0.76900005 -0.8091950417 -0.1837933213 0.5580531955
-0.16530322 -0.24323574 0.76900005 0.7078483701 0.6794211864 0.1932292134
-0.13571893 -0.26568371 0.75888258 0.1926418692 -0.3072087765 0.9319398403
-0.12866698 -0.18843712 0.76728576 -0.7048634887 -0.2005670816 0.6803971529
-0.232031 -0.1440094 0.75900012 0.4470972717 0.16447182 0.8792343736
-0.1771397 -0.17474462 0.7390002 -0.1390562505 0.01123875566 0.9902207255
-0.15286162 -0.26333186 0.76165503 0.2033590525 -0.18463175 0.961538434
-0.16505773 -0.23519206 0.80807674 -0.4329850674 0.1287419498 0.8921599984
-0.19523796 -0.14479554 0.7521072 0.1336728483 -0.2285319418 0.9643156528
-0.20882581 -0.060682576 0.73900002 -0.4514957368 0.3514421582 0.8201463223
-0.14363365 -0.26170838 0.81244439 -0.06472105533 -0.3337278962 0.9404450655
-0.21595505 -0.11644665 0.7553243 -0.02205580473 -0.1229069233 0.9921730757
-0.20169644 -0.068548322 0.75040001 -0.3195900619 0.5151489377 0.7952885032
-0.17466098 -0.10502934 0.76687086 -0.270778209 -0.09118233621 0.9583135843
-0.26484069 -0.044738255 0.73407912 0.3165440857 0.1197085679 0.9409939647
-0.15385146 -0.22535414 0.81215155 -0.3715209961 0.1331747174 0.9188234806
-0.2032354 -0.12179578 0.76145458 -0.08645272255 -0.2001550347 0.9759425521
-0.10997871 -0.20958208 0.78900003 -0.8974226117 -0.1563842744 0.4125246704
-0.1981709 -0.15409054 0.75044447 0.3380832672 -0.1292093396 0.9322041869
-0.11647639 -0.18473697 0.78665859 -0.8359413743 -0.1616007835 0.5244876146
-0.16564818 -0.093758576 0.76658171 -0.3681274652 0.1055009291 0.9237703681
-0.14610584 -0.17617391 0.75638461 -0.4664381444 -0.2398580909 0.8514127135
-0.13816546 -0.23605111 0.81700015 -0.138856709 -0.06773485988 0.9879933
-0.1905435 -0.058780503 0.75000006 -0.5001938343 0.1174709052 0.8579083085
-0.19680728 -0.20881586 0.76100004 0.7656196356 0.5056644082 0.3976557553
-0.13334803 -0.15400612 0.77318442 -0.5957042575 -0.2191738337 0.7727219462
-0.13806772 -0.25862461 0.76230007 0.1926418692 -0.3072087765 0.9319398403
-0.10480584 -0.23488133 0.79323804 -0.9198698401 -0.1690141261 0.3539402485
-0.14553544 -0.2175971 0.81220007 -0.3278692067 0.1714229435 0.9290403724
-0.19433554 -0.20442636 0.75549996 0.4857836962 0.3641392589 0.7946174145
-0.118994 -0.21844694 0.76860005 -0.8306604028 -0.2490712851 0.4979626834
-0.26204759 -0.094456807 0.75339997 0.02925748751 0.5047260523 0.8627836108
-0.19914643 -0.039304696 0.74725002 -0.650398612 -0.2970790863 0.6990891695
-0.1610875 -0.18081249 0.75000006 -0.4212585688 -0.2276436239 0.8779063821
-0.18368511 -0.077524416 0.76232129 -0.2450850606 0.2424690574 0.9386916757
-0.20818922 -0.070708953 0.74820006 -0.3166565895 0.5732038617 0.7557551861
-0.15333955 -0.26249319 0.80852383 -0.1309283376 -0.3554695249 0.9254724383
-0.1551795 -0.10239628 0.77353859 -0.384350419 0.03314786777 0.9225919843
-0.10596158 -0.22457783 0.79374355 -0.9272330403 -0.1600636989 0.3385534585
-0.13854642 -0.11562965 0.77799994 -0.506890595 -0.1817571074 0.8426305652
-0.17791566 -0.21459103 0.79712015 -0.4509437084 0.1360545307 0.882121861
-0.25471044 -0.11487775 0.76606667 0.2729511857 0.381477505 0.8831605315
-0.18415658 -0.14611173 0.74632573 0.03088299744 -0.3882292509 0.9210451841
-0.12179084 -0.23570043 0.76566672 -0.7223656774 -0.1793954521 0.6678361297
-0.14873746 -0.20738645 0.80600011 -0.355971843 0.1918543875 0.9145905972
-0.16260339 -0.25294819 0.76692307 0.36673522 0.264012754 0.8920776844
-0.16903858 -0.14148611 0.74833339 -0.4050020278 -0.07520190626 0.9112178683
-0.23152205 -0.12678118 0.75838459 0.367049098 0.04688831791 0.9290190935
-0.15504205 -0.14501977 0.76232159 -0.4818490148 -0.1143003479 0.8687674999
-0.25501874 -0.076686494 0.74296653 -0.001613908331 0.569796741 0.8217840791
-0.17635651 -0.14440414 0.74706978 -0.3078477681 -0.3337336779 0.8909834623
-0.10833244 -0.23635536 0.76753342 -0.8743671775 -0.1980159283 0.4430256784
-0.18134315 -0.13830088 0.74766666 -0.09204247594 -0.444481194 0.8910469413
-0.17383611 -0.20529234 0.80110514 -0.4105654955 0.1281093359 0.9027867913
-0.14572747 -0.25677192 0.76413327 0.2038069963 -0.258654356 0.944224894
-0.11850276 -0.18753061 0.77575004 -0.8187760115 -0.159164384 0.5516090393
-0.11509472 -0.24498653 0.76412117 -0.6374320388 -0.1097577885 0.7626490593
-0.24651283 -0.077429213 0.74147069 -0.05358778685 0.5957636833 0.8013700843
-0.2225997 -0.022952884 0.74100012 -0.4482634366 -0.5221173167 0.7255710959
-0.14608911 -0.10931194 0.74157149 -0.9754505754 0.1302266419 -0.1775872558
-0.22462402 -0.10499752 0.75645453 -0.09585279971 -0.01109307632 0.9953337312
-0.11686619 -0.22554924 0.76770979 -0.8238850832 -0.2511469424 0.5080733895
-0.13495965 -0.19505058 0.75894761 -0.6200963855 -0.1636976898 0.767257154
-0.12208664 -0.19453835 0.77339303 -0.77813977 -0.1621567458 0.606797874
-0.1101181 -0.2181585 0.79000002 -0.9176571369 -0.1486704051 0.3685138226
-0.13296497 -0.1844326 0.76442218 -0.6603318453 -0.2140309513 0.7198281288
-0.17617173 -0.071688689 0.75833327 -0.3047480583 0.2454939187 0.9202507138
-0.22405918 -0.03104233 0.7309444 -0.3962877989 -0.3055439889 0.8657937646
-0.2250547 -0.096066065 0.75769782 -0.1925480962 0.1188909709 0.9740586281
-0.25850984 -0.058704376 0.73049998 0.2949699163 0.2990096807 0.9075163603
-0.14825729 -0.16680396 0.75876462 -0.4384572506 -0.2806649208 0.8538047075
-0.24277492 -0.11145852 0.75871426 0.2066062391 0.2698614895 0.9404725432
-0.15848468 -0.092306867 0.76855564 -0.3567169011 0.1212281883 0.9263135195
-0.21963437 -0.15821773 0.7615 0.3650132716 0.1845277697 0.9125320911
-0.22665681 -0.14830989 0.76166672 0.4209031165 0.1645433158 0.8920571804
-0.19436775 -0.11498336 0.76140749 -0.09506198019 -0.1264785528 0.9874038696
-0.21927243 -0.042260267 0.72762507 -0.4607040286 -0.07965198904 0.883972466
-0.20190993 -0.043970097 0.74199998 -0.6392008662 -0.2184777707 0.7373532057
-0.12876393 -0.17797735 0.76900005 -0.6922581792 -0.191639334 0.69573915
-0.17465751 -0.16651735 0.74433345 -0.3858964741 -0.1853574663 0.9037292004
-0.25636956 -0.10641392 0.76187074 0.1499258131 0.4470227659 0.8818689585
-0.15862755 -0.13389671 0.75749993 -0.3190752268 0.07007296383 0.9451352954
-0.1563777 -0.12338278 0.74537498 -0.4392823875 0.6761189699 0.5915184617
-0.18493508 -0.21477428 0.79438615 -0.795560658 0.0007701099967 0.6058734655
-0.12152278 -0.175238 0.78277278 -0.7832977772 -0.1692791432 0.5981547832
-0.18530044 -0.15453555 0.7431429 0.1465167254 -0.2293624878 0.9622503519
-0.25927415 -0.088324167 0.75000006 -0.0170291774 0.5091007352 0.8605384827
-0.22024409 -0.15170893 0.75900006 0.3468400538 0.1529058069 0.9253765941
-0.19381699 -0.17438297 0.7463637 0.4443680346 0.0410085395 0.8949052095
-0.15338896 -0.11649963 0.74374199 -0.8747440577 0.4457622468 -0.1900497526
-0.21205108 -0.031879783 0.74215388 -0.5732057691 -0.356790483 0.7376555204
-0.22400467 -0.048235279 0.73017639 -0.3645149469 0.09501007944 0.9263378978
-0.1860725 -0.19922251 0.75000006 0.385122478 0.3324816525 0.8608929515
-0.23595345 -0.052906897 0.72660542 -0.1428157389 0.2648641765 0.9536511898
-0.14814915 -0.21336439 0.80857146 -0.3526025712 0.1876989156 0.9167554379
-0.26529211 -0.070972674 0.73885715 0.2457096279 0.4514650106 0.8577914238
-0.14616521 -0.10453098 0.73416221 -0.9593036771 0.161837101 -0.2313984931
-0.17294879 -0.1980565 0.80000007 -0.4090701044 0.1227877513 0.9042039514
-0.19110206 -0.22300096 0.76257151 0.845770061 0.5232598186 0.1042693779
-0.21800078 -0.16639809 0.76172733 0.4626581073 0.213089928 0.8605464101
-0.24510723 -0.059516903 0.73000002 0.03963695094 0.3865414262 0.9214199185
-0.13162337 -0.16366015 0.77206671 -0.6477110386 -0.2300337106 0.7263297439
-0.10805716 -0.23415348 0.78788882 -0.9017009139 -0.1685117185 0.3981698453
-0.16834366 -0.063877441 0.75900006 -0.3502027392 0.1279813945 0.9278894067
-0.21398194 -0.08622995 0.76179391 -0.1313612759 0.2789365351 0.9512826204
-0.20749694 -0.054761063 0.73850006 -0.5058515668 0.213725999 0.835724473
-0.19882803 -0.16529551 0.75000006 0.456138283 0.00405770028 0.8898996711
-0.18505013 -0.20483366 0.7929433 -0.8484682441 0.08723451197 0.5220074654
-0.19224434 -0.18230872 0.74842864 0.4402207136 0.1529489756 0.8847668171
-0.15392105 -0.25399536 0.81340015 -0.1252042204 -0.2751098275 0.9532253146
-0.11296952 -0.17811836 0.79057151 -0.8175893426 -0.1492299885 0.5561277866
-0.21877743 -0.02718397 0.7383334 -0.4905833602 -0.4327126145 0.7563648224
-0.17668737 -0.055244178 0.75689739 -0.4512580633 -0.1097121015 0.8856237531
-0.12297001 -0.25603142 0.7574001 0.1657698154 -0.3945831656 0.9037834406
-0.15581663 -0.21414825 0.80844992 -0.3746380806 0.1683740318 0.9117546082
-0.15319408 -0.12648831 0.76679313 -0.5267175436 -0.3518208563 0.7738156915
-0.2252118 -0.072589353 0.73846895 -0.2658588886 0.6125025749 0.7444189787
-0.1447452 -0.12422092 0.77600002 -0.5625374913 -0.2709553242 0.7811112404
-0.18786177 -0.10278057 0.75899994 -0.1618857384 -0.03151631355 0.9863061309
-0.11497976 -0.25130895 0.76105547 -0.02981335856 -0.359782815 0.932559669
-0.23381227 -0.077388428 0.74350011 -0.2133639008 0.6378151178 0.7400457263
-0.2359542 -0.1174114 0.7615217 0.3081346154 0.1887982488 0.932420671
-0.15815678 -0.22300009 0.80900002 -0.3814040422 0.1588886231 0.9106510878
-0.14476147 -0.22525254 0.81465024 -0.3148472905 0.1069168672 0.9431012273
-0.19716474 -0.062142622 0.74812496 -0.4145703912 0.3060007989 0.8570267558
-0.15276907 -0.15394856 0.76155859 -0.4314315021 -0.1692915261 0.8861191869
-0.13672534 -0.13495927 0.77647728 -0.6050159931 -0.2328041047 0.7614183426
-0.18976414 -0.053186495 0.74900001 -0.5789402723 -0.09818018973 0.8094373345
-0.1854537 -0.22119465 0.75900012 0.8545625806 0.5104548335 0.09570075572
-0.13131678 -0.20491853 0.76318187 -0.7104876637 -0.1835739017 0.67934376
-0.16364583 -0.13571823 0.75547826 -0.3540279865 -0.03530273959 0.9345682859
-0.16571499 -0.14473225 0.75723416 -0.4105649889 -0.01816538535 0.9116503596
-0.25722784 -0.033981893 0.73030752 0.1663922369 -0.07798633724 0.9829708934
-0.20867942 -0.18583924 0.76227278 0.5473336577 0.2302010953 0.8046324253
-0.17905886 -0.22530918 0.79733342 -0.4778597355 0.1036302671 0.8723020554
-0.11065637 -0.23093416 0.78400004 -0.900513351 -0.1815588623 0.3951102793
-0.18086042 -0.23561119 0.80066663 -0.7850694656 -0.1899295598 0.5895699263
-0.13803206 -0.26109555 0.81300002 -0.06472105533 -0.3337278962 0.9404450655
-0.1119388 -0.22476408 0.78428566 -0.9140318632 -0.1743110865 0.3662804961
-0.16767827 -0.12775488 0.75900006 -0.1547020972 -0.4058737457 0.9007406831
-0.16409463 -0.10408686 0.77110249 -0.4008878469 -0.001859037671 0.9161252379
-0.1702925 -0.17423749 0.75000006 -0.3287938535 -0.222817421 0.9177401662
-0.19210856 -0.21277177 0.75766671 0.7659887671 0.5153864622 0.384236902
-0.19378012 -0.15523764 0.74716133 0.2258139253 -0.1746796072 0.958381474
-0.13416401 -0.27221635 0.75814277 0.2326906025 -0.2671624422 0.9351359606
-0.23508237 -0.025864705 0.73247623 -0.1901487559 -0.4401854277 0.8775421381
-0.19856501 -0.02978475 0.75500005 -0.6302194595 -0.3893165886 0.6717559099
-0.21409199 -0.10475194 0.76171726 -0.08147655427 -0.08389890194 0.9931377172
-0.21212371 -0.19116645 0.76620001 0.5560456514 0.2463400066 0.7938072085
-0.16158211 -0.15117468 0.76100004 -0.4313877523 -0.00881554652 0.9021235704
-0.14376813 -0.10368444 0.77793539 -0.4403782189 -0.04239855707 0.8968106508
-0.13692087 -0.12558186 0.77799994 -0.6038489938 -0.2389055341 0.7604541779
-0.15561207 -0.23495218 0.81355327 -0.3339140713 0.08216583729 0.9390155077
-0.16560073 -0.19814098 0.80100012 -0.4061334729 0.1555535644 0.9004769325
-0.15247613 -0.084482968 0.77192003 -0.357902348 0.170334354 0.9180915356
-0.12198817 -0.24708147 0.75900006 0.1273173541 -0.3440351784 0.930284977
-0.23155572 -0.13418698 0.759 0.4460876584 0.1507900506 0.8821950555
-0.1574021 -0.074669592 0.76900023 -0.3216716349 0.1800409108 0.9295765758
-0.17587709 -0.13171138 0.76130426 -0.1258677989 -0.4349869192 0.8915961385
-0.17956035 -0.21542943 0.75766665 0.5593239665 0.4850928485 0.6721916795
-0.11810819 -0.20518029 0.77527785 -0.8224637508 -0.1658722311 0.544095397
-0.18554875 -0.098002434 0.75899994 -0.1686087102 0.02291580848 0.9854166508
-0.18401973 -0.11435042 0.76198149 -0.1230900958 -0.1176051572 0.9854024053
-0.24883142 -0.12736075 0.77099997 0.4166921079 0.2856744826 0.8629934788
-0.14398164 -0.26689684 0.75875771 0.1972729713 -0.2691118717 0.9426888227
-0.1117126 -0.19396906 0.79305255 -0.8820281029 -0.1392123401 0.4501625896
-0.18075199 -0.17816059 0.73900002 0.01478932519 0.08555097878 0.9962240458
-0.12521091 -0.1546047 0.7804783 -0.6907145977 -0.2013455331 0.6945310235
-0.21384849 -0.067791723 0.74321741 -0.3414941132 0.5589891076 0.7555878162
-0.17215484 -0.24609913 0.77144444 0.7244623899 0.6868709922 0.05798721313
-0.17957947 -0.04673028 0.7615 -0.5369349122 -0.2623051405 0.8018085361
-0.10521387 -0.24208862 0.79290909 -0.9536195993 0.3008366823 -0.01033889689
-0.11053057 -0.23055413 0.77350008 -0.8865564466 -0.2223794162 0.4056661725
-0.13106734 -0.14321174 0.78113335 -0.6255286932 -0.2334586084 0.7444534302
-0.11922667 -0.19553325 0.77714288 -0.8191145658 -0.1557088941 0.5520924926
-0.21635832 -0.17464606 0.7622118 0.5216716528 0.2001520544 0.8293357491
-0.12426181 -0.26518553 0.7581346 0.1846547723 -0.3450165093 0.9202533364
-0.11054981 -0.20376518 0.79088891 -0.8882729411 -0.1268558055 0.4414507151
-0.17746715 -0.18224673 0.74333334 -0.1190935522 0.129539907 0.9843963385
-0.17229031 -0.056235097 0.76137495 -0.4661176503 -0.1166716143 0.8769960403
-0.23709625 -0.029996026 0.72800004 -0.1242624447 -0.3886171281 0.912981689
-0.1420016 -0.27117968 0.75842857 0.2488858104 -0.1686938852 0.9537286162
-0.26099014 -0.1061326 0.76140004 0.1499258131 0.4470227659 0.8818689585
-0.22276586 -0.087905124 0.76155561 -0.2159382552 0.3572123945 0.908718884
-0.18346441 -0.12385041 0.76099986 -0.14673163 -0.3291068673 0.9328228831
-0.26371986 -0.085985117 0.750875 -0.02919996716 0.5478827357 0.8360453844
-0.20250031 -0.085455082 0.75899994 -0.08168952912 0.2627505362 0.9613994956
-0.14747077 -0.10604282 0.78038883 -0.4017567933 -0.03601450846 0.91503793
-0.15932569 -0.24831438 0.76900005 0.36673522 0.264012754 0.8920776844
-0.19623458 -0.096315205 0.759 -0.0472464785 0.04370581359 0.9979266524
-0.17144883 -0.25005776 0.77300006 0.7126520872 0.696429193 0.0843410939
-0.27015623 -0.039519258 0.73900002 0.275819689 0.1262191683 0.9528862834
-0.20562531 -0.096425772 0.76144814 -0.02030293271 0.02873941138 0.9993807077
-0.2459456 -0.028916804 0.72789466 -0.01393585559 -0.3132039905 0.94958359
-0.18161128 -0.16367482 0.73884612 -0.1214338541 -0.1894658655 0.9743492603
-0.13315158 -0.1355281 0.78015786 -0.5949378014 -0.2168407887 0.7739697099
-0.13192832 -0.19363371 0.76117641 -0.6649263501 -0.1822945923 0.7243214846
-0.15430579 -0.18214102 0.75059998 -0.4464008212 -0.2557681501 0.8575015664
-0.18814552 -0.039104592 0.76466662 -0.5758188367 -0.3049854934 0.7585621476
-0.10392621 -0.2169829 0.80100006 -0.9136201739 -0.1551898867 0.375784874
-0.12190375 -0.16551183 0.78147066 -0.7255048156 -0.1954487562 0.6598806977
-0.19583933 -0.10726114 0.76112509 -0.06795659661 -0.05020026118 0.9964244962
-0.17815971 -0.23179416 0.79800004 -0.6347463131 -0.005432799459 0.7727015018
-0.13652925 -0.26803544 0.79580009 0.5012001395 0.8615295887 -0.08102602512
-0.1374438 -0.1210326 0.78000003 -0.5963110328 -0.2309574783 0.7688119411
-0.16697645 -0.17547667 0.74878931 -0.4078607261 -0.2611172795 0.8749099374
-0.26230568 -0.031272452 0.72800004 0.2438991368 0.01914589293 0.9696115851
-0.19430462 -0.085074402 0.76165891 -0.09940581024 0.1614398509 0.9818633795
-0.15252474 -0.25163835 0.7712 0.3214001656 0.2039664686 0.9247159958
-0.23321424 -0.14133908 0.7610001 0.4712681472 0.179414317 0.8635489941
