# .PCD v0.7 - Point Cloud Data file format
VERSION 0.7
FIELDS x y z normal_x normal_y normal_z
SIZE 4 4 4 4 4 4
TYPE F F F F F F
COUNT 1 1 1 1 1 1
WIDTH 512
HEIGHT 1
VIEWPOINT 0 0 0 1 0 0 0
POINTS 512
DATA ascii
-0.26267597 -0.11726879 0.8462308 0.3715175688 -0.8204721212 0.4345114827
0.020545561 -0.10577246 0.86800003 -0.1109942123 0.3266419768 0.9386081696
-0.11321645 -0.18371448 0.81225002 0.1521216631 0.5303658843 0.8340089917
-0.072338849 -0.078619286 0.81380004 -0.1490813494 -0.5939632654 0.7905582786
-0.20675345 -0.20190848 0.84100002 -0.07076063752 0.3849062622 0.9202391505
-0.1649951 -0.10333119 0.82266665 0.1737039238 -0.5106511712 0.8420584202
-0.06465593 -0.14470607 0.8780002 0.06048822403 -0.2107644975 0.9756636024
-0.014743891 -0.14377496 0.80443585 0.4101745188 0.2404903471 0.8797279596
-0.27151418 -0.18372084 0.82424998 0.104970403 0.2969796062 0.9490965605
-0.11748188 -0.12122306 0.77575004 0.3095314503 -0.6576480269 0.6867964268
-0.029471779 -0.059699245 0.86200005 -0.07327195257 -0.852747798 0.5171580315
-0.2152829 -0.14475526 0.8181892 0.05458361283 0.1834505647 0.9815123677
-0.013581758 -0.087577239 0.81550002 -0.2875596285 -0.8712605834 0.3977617621
-0.2103772 -0.099573553 0.85400003 0.05200342834 -0.9517478943 0.3024426401
-0.059388034 -0.17344587 0.81900012 -0.01425967924 -0.7956218719 0.6056257486
-0.164352 -0.16713473 0.8229261 0.06350500137 0.4849765003 0.8722183704
-0.075893909 -0.081455164 0.87281835 0.1080549508 0.3263206482 0.9390628338
-0.028544266 -0.1134056 0.88000005 -0.005417917855 0.00817782525 0.9999518991
-0.087683804 -0.13680756 0.81318188 -0.3591909409 0.2955169976 0.885240972
-0.11702957 -0.091543637 0.81199998 0.3612400293 -0.6574070454 0.6613029242
-0.10083245 -0.12084499 0.87800002 0.003937802743 0.1660373658 0.9861115813
0.017533334 -0.11081067 0.80000001 0.0498063378 -0.1655494571 0.9849429727
-0.28404734 -0.14567113 0.82753342 0.4637898505 -0.2477050722 0.8506122231
-0.1371024 -0.19466259 0.84178269 0.2504273355 0.6277421117 0.737038672
-0.026093544 -0.15273681 0.87550002 0.1466054767 -0.4683451355 0.8712977171
-0.093013808 -0.17109326 0.8434 0.1440445781 -0.9895573258 0.005235160701
-0.1541626 -0.11775298 0.76241171 -0.8004772067 -0.149696961 0.580368042
-0.14572538 -0.13200067 0.80044448 0.5050525665 -0.09232272953 0.8581365943
-0.12397557 -0.15007569 0.82700002 -0.2452344298 0.4081424177 0.8793632984
-0.23524094 -0.17482463 0.82364011 -0.2757128477 0.2828875482 0.9186713696
-0.1798771 -0.13465898 0.81100005 0.07808939368 0.191712901 0.9783394933
-0.0027516379 -0.082318343 0.85624999 -0.618771255 -0.5700528026 0.540520072
-0.23480283 -0.11719061 0.82592851 0.2276804894 -0.6861197352 0.690942347
-0.17653662 -0.10190992 0.85556251 0.1170916259 -0.964081645 0.238403365
-0.17416385 -0.20021401 0.84900004 -0.1291846484 0.6007359028 0.7889408469
-0.040260918 -0.076126225 0.83500004 -0.04652623832 -0.9495542049 0.3101324737
-0.11511701 -0.15462868 0.79582876 -0.383446008 -0.09709894657 0.9184448719
-0.036737718 -0.15329932 0.83099997 0.4262818098 -0.896104753 0.123612605
-0.19485852 -0.17355059 0.82743752 0.05330343172 0.4039318264 0.9132348299
-0.25518492 -0.14510374 0.8153674 0.03931757808 -0.1697315425 0.9847056866
-0.19667076 -0.1105812 0.82175004 0.2203247994 -0.6523958445 0.725145936
-0.013535351 -0.11336237 0.79800016 -0.1605126858 -0.07544498891 0.9841461778
-0.095620222 -0.10400338 0.79320014 -0.5575758219 0.08843052387 0.8254024386
-0.23814036 -0.19980198 0.84100002 -0.1941301972 0.4018754959 0.8948796391
-0.065154232 -0.11508736 0.87587804 -0.07253652811 0.1723845303 0.9823553562
-0.085423291 -0.16749661 0.80644 -0.5653472543 -0.4224949479 0.7084352374
-0.1145718 -0.12690036 0.80806667 0.07634454221 0.5210391879 0.8501115441
-0.13706362 -0.14087859 0.76766664 -0.6657691002 0.07921185344 0.7419413328
-0.049005665 -0.1605878 0.86000001 0.2632415891 -0.9276286364 0.2649698555
-0.085054554 -0.16254488 0.8804 -0.005715940148 -0.4549706876 0.8904880881
-0.13602839 -0.17368311 0.82405883 0.5611453652 0.4036568403 0.7226182222
-0.054685671 -0.067126736 0.86128581 0.3980458081 -0.7813354135 0.4807021022
-0.044013757 -0.092383921 0.81499994 -0.00322538591 -0.8186738491 0.5742497444
-0.14000805 -0.095492668 0.81900007 0.2905700803 -0.639190495 0.7120425105
-0.095018685 -0.15542054 0.82548493 0.280500114 0.73564291 0.6165623665
0.0037103042 -0.1023502 0.84600013 -0.7806919813 -0.4781796634 0.4023235142
-0.23342289 -0.10319553 0.85446155 0.2258688807 -0.906193614 0.3574862778
-0.04458097 -0.13432536 0.8780002 0.06341995299 -0.140340507 0.9880700707
-0.18784055 -0.15453723 0.81781828 0.09512776881 0.3787974715 0.9205776453
-0.21532972 -0.16518375 0.82785004 -0.01002392266 0.3197641373 0.9474441409
-0.082049511 -0.10305689 0.8682 -0.007154790685 0.250707984 0.968036294
-0.26481307 -0.16507232 0.81461918 0.138224259 0.1294504553 0.9819045663
-0.26367491 -0.12677824 0.82639128 0.3817615211 -0.6836321354 0.6220170856
-0.13288137 -0.11419962 0.80200005 0.3561340868 -0.5813735127 0.7315554619
-0.009926497 -0.063376866 0.87100005 -0.4091371596 -0.727502048 0.5507699847
-0.15553655 -0.184095 0.83725798 -0.03888954595 0.6304594278 0.775247395
-0.1450557 -0.15606292 0.81536382 0.1196771264 0.3940959573 0.9112440944
-0.084663592 -0.13515091 0.87686497 0.01673587039 0.05704756081 0.9982311726
-0.019088978 -0.079293184 0.83750004 -0.3715310097 -0.8700894713 0.3238965869
-0.094867833 -0.08622317 0.80489999 0.1413551122 -0.6973004937 0.7027024627
-0.030157333 -0.10029066 0.80000001 -0.02544000931 -0.6306714416 0.7756328583
0.013342084 -0.086093798 0.86826324 -0.7223613262 -0.4447301328 0.5295367837
-0.16127247 -0.12131576 0.81400001 0.2400930524 -0.3308942318 0.9126139879
-0.21518116 -0.18547854 0.83258146 -0.1079207361 0.3465594351 0.9317991734
-0.21505256 -0.1078179 0.8361001 0.1469686925 -0.8836364746 0.4445073605
-0.23567124 -0.13525014 0.81700009 0.02266071737 -0.1066714004 0.9940360785
-0.017743733 -0.13037786 0.88000005 0.05559666827 -0.1961926222 0.9789879918
-0.063158281 -0.15915094 0.83233339 0.03345256671 -0.728413403 0.6843206882
-0.046012294 -0.10589349 0.87437141 -0.09033554792 0.1457698047 0.9851855636
-0.28357685 -0.16512972 0.82416129 0.3737686276 0.001992306905 0.9275198579
-0.23371427 -0.15524018 0.82271421 -0.1953246146 0.1926132143 0.961638391
-0.17473435 -0.18510284 0.83354545 -0.06913932413 0.5718410611 0.817445755
0.0036382666 -0.12438092 0.80234283 0.06889654696 -0.00769073097 0.9975941777
-0.13057731 -0.13126549 0.78600007 0.6288924813 -0.5944789052 0.501087904
-0.25433117 -0.19215511 0.82678944 -0.1526539624 0.4171684086 0.8959169984
-0.023693671 -0.16059043 0.81900007 0.4265883565 0.09540671855 0.8993997574
-0.21508941 -0.12566577 0.81659091 0.1426215321 -0.3222215474 0.9358591437
-0.16463779 -0.14602165 0.8130002 0.04387684911 0.3143051267 0.9483075142
-0.0010669034 -0.10137598 0.81150007 -0.3130476475 -0.588241756 0.7456358075
-0.19485226 -0.10244431 0.84421444 0.06748425961 -0.9573372602 0.2809825838
-0.055420235 -0.077252455 0.82100004 -0.04029481485 -0.911452353 0.4094275236
-0.10513105 -0.14447045 0.81464118 0.305998832 0.4140945971 0.8572574854
-0.11544935 -0.11389666 0.79250008 -0.3913115859 0.9189833403 -0.04842436314
-0.068721905 -0.16111468 0.87100005 0.2059973925 -0.4413094223 0.8733905554
-0.037825886 -0.17087266 0.82660007 0.3744151592 -0.9041942358 0.2055385709
-0.095762856 -0.11660749 0.80581254 -0.382612139 0.3923438489 0.8364653587
-0.097702391 -0.15752824 0.79720008 -0.4189888239 -0.138823241 0.897316277
-0.13104413 -0.16362983 0.80800003 0.6531177759 0.03596559912 0.7564017773
-0.24634649 -0.11165191 0.84346145 0.3107940257 -0.8455030322 0.4342024326
-0.038794253 -0.070874117 0.85100001 0.1168508083 -0.8530439734 0.5085881352
-0.079455368 -0.16328311 0.83150005 -0.161840573 -0.9863656759 -0.02983870544
-0.19502866 -0.12450148 0.81300014 0.1816903055 -0.2936658561 0.9384822845
-0.021947874 -0.071222499 0.85159999 -0.2711564004 -0.8227679133 0.4995269477
-0.062453732 -0.091429897 0.81266671 -0.115648523 -0.6438091397 0.7563961744
-0.01888866 -0.088846661 0.79800004 -0.2137534022 -0.7520242333 0.6235134602
-0.15106457 -0.10992961 0.80900002 0.3077571988 -0.5280402899 0.7914916277
-0.052844595 -0.078150451 0.84900004 0.2469024956 -0.9374223351 0.2455168366
-0.045966033 -0.15176602 0.87286675 0.1127077714 -0.4994215965 0.8589965105
-0.17543648 -0.11468895 0.81468201 0.1176032275 -0.420058161 0.8998447657
-0.24539928 -0.16477762 0.81728595 -0.2351011038 0.1792964041 0.9552906752
-0.2717548 -0.14633693 0.81790918 0.3893432617 -0.2532976866 0.8855801225
-0.025653545 -0.081291482 0.8235333 -0.1433930993 -0.9139114618 0.3797423542
-0.23364358 -0.18826781 0.83099997 -0.2053207755 0.3626440763 0.9090284109
-0.27756232 -0.13215171 0.83100003 0.4683926105 -0.5846171975 0.6624432802
-0.10682184 -0.17085399 0.80700004 -0.2791296244 0.4787445962 0.832400322
-0.007513253 -0.098896548 0.79725003 -0.3316448927 -0.5187515616 0.787977457
-0.076155096 -0.091382384 0.80615395 -0.1892433316 -0.4669097662 0.8638184071
-0.22396751 -0.20178936 0.83625001 -0.1362243593 0.3761972785 0.9164707065
-0.074745744 -0.17422786 0.81450009 -0.1426110268 -0.8101069331 0.5686728954
-0.25324684 -0.17839353 0.82100004 -0.139447853 0.3339173496 0.932230413
-0.086666971 -0.079502277 0.81700009 0.0292425286 -0.775917232 0.6301565766
-0.099556893 -0.1819241 0.81700003 0.3153044879 -0.920357585 0.2313547283
-0.023862386 -0.14664952 0.81563646 0.4163993001 0.2460958809 0.8752419353
-0.25145781 -0.11991485 0.82900006 0.2826268077 -0.7573159337 0.5887229443
-0.031902481 -0.088615805 0.80866671 0.01638149284 -0.8464190364 0.5322654247
-0.19488665 -0.1952012 0.83727938 -0.0816687271 0.4913581014 0.8671202064
-0.20333476 -0.1522139 0.81900012 0.09982166439 0.3538914919 0.9299443364
-0.1232116 -0.17397296 0.80251718 0.3263450861 0.4929584861 0.806530118
-0.13302071 -0.11741167 0.78549999 0.5366681814 -0.6396397352 0.5503165126
-0.081775472 -0.14889306 0.88000005 0.06130205467 -0.1153964698 0.9914261103
-0.05482598 -0.12482324 0.87719512 -0.06942776591 0.09712215513 0.9928479791
-0.23352449 -0.10878097 0.83700001 0.2270559967 -0.8492897749 0.4766051173
-0.0055966396 -0.13361979 0.79800004 0.1805630922 0.2031584233 0.9623531699
-0.20521089 -0.13514002 0.81561226 0.2085149139 0.06215396151 0.9760422111
-0.12758008 -0.090675212 0.8222 0.3338007927 -0.6547368765 0.6781567931
0.0098239267 -0.11184162 0.86200005 0.02573426813 0.4092734456 0.9120488167
0.0050936537 -0.075355008 0.86655009 -0.6398005486 -0.5369719267 0.5498331189
-0.074660175 -0.12482309 0.87639999 -0.02463453077 0.1804373562 0.9832779169
-0.2151769 -0.11448039 0.82404774 0.2087491006 -0.653123796 0.7279101014
-0.091794312 -0.10918152 0.87500006 -0.02280636504 0.1565326303 0.9874094129
-0.062430941 -0.080483258 0.85800004 0.444486618 0.1032022014 0.8898207545
-0.11657893 -0.10387988 0.80125916 0.4374441206 -0.4378035963 0.7854747772
-0.2529718 -0.12947752 0.81900007 0.2330510318 -0.5220051408 0.8204863667
-0.17510104 -0.17479548 0.82527035 0.01735015213 0.4486233294 0.8935524821
-0.12577666 -0.14347103 0.78616661 -0.8844490051 -0.007906801999 0.4665699303
-0.10551761 -0.093372174 0.80335891 0.2759488225 -0.6198934317 0.7345641255
-0.034524456 -0.12459966 0.87800002 0.01487168483 -0.05668364838 0.9982814193
-0.14550331 -0.17874986 0.83099997 0.00586483255 0.6230661273 0.7821471691
-0.01374245 -0.071135364 0.86140001 -0.3819892704 -0.7472648621 0.5437641144
-0.018545885 -0.14147384 0.87420005 0.09744691849 -0.273222506 0.9570024014
-0.18480271 -0.10698118 0.82316655 0.1683911234 -0.7978346348 0.5788819194
-0.035343837 -0.15288267 0.86650014 0.1111027896 -0.4930878282 0.8628560305
-0.18468228 -0.16492099 0.82377225 0.05641826987 0.3873045146 0.9202240109
0.012535895 -0.12049652 0.79449999 0.07139541209 -0.05251469091 0.9960647225
-0.11875239 -0.13110813 0.78300005 -0.8480276465 0.3536249697 0.3947131634
-0.25563803 -0.11087152 0.85371429 0.332021594 -0.8509833813 0.4069261849
-0.17255153 -0.15378867 0.81783348 0.08518853039 0.4069949687 0.9094492793
-0.012661967 -0.12456139 0.80238461 0.05791801959 0.1119930297 0.9920197129
-0.035209082 -0.14435667 0.875 0.1263087392 -0.3600382805 0.9243476391
-0.15472957 -0.097077601 0.82291305 0.2120592296 -0.5443001986 0.8116453886
-0.13627486 -0.18413961 0.83628005 0.272836715 0.5769175887 0.7698871493
-0.15468068 -0.19343708 0.84458345 -0.06824462861 0.6327260137 0.7713627219
-0.15476672 -0.16211736 0.81825018 0.1199306995 0.4719125032 0.87345016
-0.15487108 -0.17390375 0.82578576 0.04598837346 0.5895187855 0.8064444661
-0.13777822 -0.12484774 0.79560006 0.4143482447 -0.5831058621 0.6987868547
-0.005816157 -0.085985072 0.84554994 -0.6393840313 -0.6118168235 0.4656911194
-0.20462026 -0.17894025 0.83100009 0.01638892107 0.3801534176 0.924778223
-0.14625552 -0.12631567 0.76312888 -0.7260158062 -0.1777765006 0.6643015146
-0.2252744 -0.10536148 0.84640008 0.1763168275 -0.8904567361 0.4195226133
-0.11405946 -0.15445225 0.82271427 -0.1012115106 -0.3061621487 0.9465838671
-0.24370027 -0.19414546 0.83130014 -0.1856095046 0.3908361197 0.9015521407
-0.12877917 -0.13884401 0.77560008 -0.8619357347 0.2106455564 0.4611889124
-0.12152631 -0.13425507 0.8138333 -0.3236927688 0.3911147416 0.8615406156
-0.19473034 -0.099407665 0.85544443 0.04361562803 -0.9587762356 0.2807950079
-0.043809824 -0.077210985 0.82172734 -0.01612528786 -0.918287456 0.3955857754
-0.054572172 -0.16552581 0.82602048 0.09458640963 -0.6770440936 0.7298387885
-0.098909616 -0.11176097 0.7853334 -0.7609024048 0.4647577703 0.4527998865
-0.10438809 -0.13448508 0.8089512 -0.06156562269 0.3106782436 0.9485192299
0.0085003786 -0.094242543 0.86175007 -0.724213779 -0.3912608624 0.5678286552
-0.15284956 -0.12447383 0.80718189 0.3807660341 -0.1734165698 0.9082642198
-0.20477436 -0.11729659 0.81788898 0.17522569 -0.5253249407 0.8326641917
-0.16548705 -0.13570097 0.80895633 0.09296615422 0.142685324 0.9853923917
-0.16570801 -0.17915741 0.83100003 -0.06698825955 0.5859236717 0.8075927496
-0.26239488 -0.13701147 0.81761551 0.3089117706 -0.3941507041 0.8655742407
-0.27191886 -0.17262268 0.81840008 0.1274330914 0.1693063527 0.9772902131
-0.054002661 -0.14272131 0.88000005 0.1275740415 -0.3069318533 0.9431424737
-0.18386944 -0.18096241 0.82900012 -0.02747131325 0.5103801489 0.8595100045
-0.27854067 -0.15442494 0.82100004 0.4360066652 -0.1024014503 0.8940985203
-0.24479857 -0.18487078 0.82372743 -0.2085781544 0.4054779112 0.8899903297
-0.09231884 -0.14580721 0.88000005 0.1158461422 -0.03014895134 0.9928095341
-0.21526738 -0.15555573 0.82265723 0.01424255874 0.3144000769 0.9491837025
-0.22723603 -0.14661193 0.82113343 -0.01035556942 0.159731105 0.9871062636
-0.17267501 -0.1267841 0.80900002 0.05260474607 -0.1517626494 0.9870161414
-0.19541276 -0.14528494 0.81636196 0.1245564669 0.331584245 0.9351671338
-0.26278433 -0.18739539 0.81900007 -0.01061389595 0.3733512759 0.9276293516
-0.093926638 -0.16421562 0.835087 -0.4185681641 -0.7676668167 0.4852714539
-0.22585544 -0.12077292 0.82099998 0.1746710837 -0.5491466522 0.81726861
-0.14542925 -0.1685099 0.82275003 0.1075453237 0.5994887352 0.7931249738
-0.1146083 -0.16523558 0.80204105 -0.01067856513 0.3836612105 0.9234122038
-0.0034198766 -0.11598335 0.80062479 0.00190309668 -0.05846993625 0.9982873797
-0.1637459 -0.19206351 0.83899999 -0.06997711957 0.6343399286 0.7698805332
-0.19494775 -0.18545654 0.83285725 0.01262148656 0.4265683293 0.9043672681
-0.18528329 -0.19798715 0.8409999 -0.07968404144 0.5382702947 0.838996768
-0.12694134 -0.15800038 0.80000007 0.5353652239 0.2604900897 0.8034482002
-0.19078107 -0.133334 0.80900002 0.2132316679 0.02711838111 0.9766252637
-0.088441201 -0.097529598 0.79750007 -0.0002422081161 -0.5633803606 0.8261976242
-0.1847368 -0.12301866 0.81141204 0.1693546474 -0.2670697868 0.9486794472
-0.20511752 -0.16515291 0.82541031 0.083261244 0.3724431396 0.9243125319
-0.24622893 -0.10627349 0.85369998 0.2848282456 -0.8847458959 0.3689139783
-0.22234125 -0.17804785 0.83099997 -0.1696974933 0.2956945002 0.9400891066
-0.085007675 -0.12487546 0.87525529 -0.00608857302 0.1805007309 0.9835560322
-0.20560902 -0.10614651 0.83216667 0.1417333335 -0.9018487334 0.4081428349
0.0075860885 -0.10308608 0.85555553 -0.7320063114 -0.3803006113 0.5652770996
-0.13791634 -0.15536989 0.82280004 -0.03464572877 0.3556509912 0.9339764714
-0.089030758 -0.15005991 0.81900007 0.7124624848 0.692292273 0.114579998
-0.20507282 -0.10254808 0.8454802 0.04237474501 -0.9493771195 0.3112674356
-0.22543982 -0.13466452 0.81685722 0.06403113157 -0.03556863219 0.9973138571
-0.12341901 -0.098714046 0.80842865 0.3512329757 -0.5841878653 0.7316829562
-0.094618164 -0.14420524 0.81274372 -0.9674029946 -0.1546811163 0.20051229
-0.1057412 -0.10402033 0.79364109 0.3094244897 -0.545009017 0.7792443037
-0.065249622 -0.16449538 0.824 -0.1409460157 -0.7517892718 0.644163847
-0.074558064 -0.13495502 0.87720007 -0.00530363014 0.03741183132 0.9992858768
0.0053442162 -0.084428541 0.86212915 -0.6950590014 -0.4692869484 0.544667542
-0.094597146 -0.17168552 0.80675 -0.3277324736 0.1839802861 0.9266837239
-0.26493728 -0.15498692 0.81486976 0.1869945675 -0.04225855321 0.9814516306
-0.015857069 -0.085948475 0.8251819 -0.3240837157 -0.8911850452 0.3174254596
-0.11731816 -0.087088943 0.82100004 0.3051310182 -0.7204298973 0.6227967739
-0.12259453 -0.18212138 0.8083334 0.332893908 0.6553744078 0.6779867411
-0.1948572 -0.10510835 0.83455551 0.09580399841 -0.9388019443 0.3308662772
-0.17529464 -0.10405502 0.82207686 0.1845959127 -0.7411875129 0.6454188228
-0.022081563 -0.10388775 0.79533339 -0.2042398453 -0.3894016743 0.8981382847
-0.0042969938 -0.074186258 0.86231452 -0.5142250061 -0.6495386362 0.5600644946
-0.24522716 -0.14513472 0.81553072 -0.07626561821 -0.04775759578 0.9959431291
-0.18520144 -0.14512275 0.81595647 0.1218806133 0.3304281831 0.9359285831
-0.25507054 -0.15504289 0.81500006 -0.05674029514 0.04783930257 0.9972421527
-0.13520224 -0.10177495 0.81311119 0.3224410117 -0.6433278322 0.6943781972
-0.064655922 -0.12469355 0.8780002 -0.07446565479 0.1549164057 0.9851171374
-0.075003646 -0.11513265 0.87472975 -0.04141252488 0.1738228649 0.9839057922
-0.22510201 -0.16549413 0.82674998 -0.1777852327 0.2672016919 0.9470985532
-0.064775653 -0.13461773 0.8779301 -0.01050653867 0.01273582596 0.9998636842
-0.24546193 -0.12366468 0.82219976 0.2080501616 -0.5725229979 0.7930526733
-0.24545427 -0.13549744 0.81721747 0.02247218229 -0.2275740802 0.9735014439
-0.044917956 -0.12455003 0.87784225 -0.0448044613 0.0577818267 0.9973233342
-0.055280309 -0.11516706 0.87577784 -0.1111503765 0.1568601578 0.9813462496
-0.22275662 -0.10956375 0.8276667 0.1688500047 -0.7868127227 0.5936458707
-0.085303515 -0.087544262 0.80603451 -0.08459492773 -0.5869171023 0.8052155375
-0.034036346 -0.13518792 0.87800002 0.1249696016 -0.2512542009 0.9598197341
-0.14524351 -0.18948008 0.84100002 -0.01249073073 0.6535393596 0.7567894459
-0.25519654 -0.16512923 0.81540823 -0.08345378935 0.1661204249 0.9825677872
-0.065193132 -0.10585175 0.87334985 -0.05250805989 0.2457874268 0.9679005146
-0.24512061 -0.15527898 0.81638467 -0.1718367934 0.1009066775 0.9799438715
-0.045495499 -0.065353744 0.86312491 0.2181888074 -0.8977549076 0.382661432
-0.17245153 -0.14219992 0.80877781 0.03557962552 0.2867688537 0.9573388696
-0.19522326 -0.16482493 0.82370013 0.08269745111 0.368298769 0.9260222316
-0.045332674 -0.1151052 0.87718183 -0.05644199252 0.1093119681 0.9924037457
-0.21528861 -0.13509637 0.81644684 0.1077625975 0.02256836742 0.9939204454
-0.10735748 -0.12157701 0.81100005 0.09280356765 0.5515092015 0.8289903998
-0.10256422 -0.16059394 0.82740003 -0.629920125 -0.09276482463 0.7711001039
-0.28204748 -0.17414969 0.82600003 0.3234989643 0.1707988828 0.9306858778
-0.025201904 -0.12486737 0.8780002 0.02860694751 -0.1281870455 0.991337359
0.0036068375 -0.1078236 0.80668432 -0.02433310822 -0.3397254944 0.940209806
-0.045277126 -0.16528995 0.82584631 0.2581941783 -0.6457651854 0.7185562849
-0.0054823598 -0.1435734 0.80364293 0.2974745035 0.2458505481 0.922532618
-0.11411551 -0.14433743 0.81700003 -0.7311143875 0.1293024719 0.6698900461
-0.23502554 -0.16555713 0.82380003 -0.2789770663 0.2318448871 0.9318904281
-0.21477407 -0.1944916 0.83464438 -0.08556194603 0.3894121051 0.9170808792
-0.055005234 -0.1523812 0.87466675 0.167236805 -0.4853599966 0.8581710458
-0.14385773 -0.13431758 0.76706684 -0.758831203 -0.2317886502 0.6086454391
-0.23563936 -0.10639071 0.84560877 0.2511935532 -0.8845182061 0.3931022584
-0.07442987 -0.10637919 0.87207144 -0.02382469922 0.2092316896 0.9775758386
-0.054821927 -0.085063398 0.81630456 -0.1092663407 -0.7543630004 0.6473000646
-0.025439989 -0.084458731 0.81499994 -0.1061589643 -0.8922122717 0.4389618337
-0.14220147 -0.10965785 0.80700004 0.4245019853 -0.5504100919 0.7189205885
-0.084946081 -0.11479713 0.87295216 -0.02353244089 0.1603622884 0.9867776632
-0.16242208 -0.15810362 0.82100004 0.03440790623 0.4442621469 0.8952358365
-0.29067549 -0.15080157 0.83100003 0.4662340283 -0.1738322824 0.8674146533
0.001571661 -0.1333576 0.80353856 0.1898203194 0.04397882149 0.9808333516
-0.24491893 -0.11521117 0.83526087 0.301820755 -0.8058511019 0.5094195604
-0.1756697 -0.16575538 0.82366681 0.05095636472 0.4057911038 0.9125442505
-0.23584899 -0.14429542 0.81714284 -0.07842899114 0.05794928223 0.9952340126
-0.01577637 -0.077276535 0.84566677 -0.4676354229 -0.7863822579 0.4036335349
-0.054986995 -0.10515486 0.87360001 -0.09736779332 0.2060510814 0.9736849666
-0.07414905 -0.14393635 0.8780002 0.05787065253 -0.1215872318 0.9908922911
-0.24410634 -0.17612767 0.82164836 -0.2724875212 0.3176997006 0.9081946015
-0.18517177 -0.11485881 0.81513047 0.1861976832 -0.4364946485 0.8802288771
-0.0059064785 -0.09397503 0.8129999 -0.4775828421 -0.7161653638 0.5089418292
-0.16686043 -0.11320922 0.81265217 0.1552504748 -0.4578948915 0.8753454089
-0.22490306 -0.15542366 0.82408732 -0.1057820097 0.2718339562 0.9565126896
-0.18619072 -0.10305644 0.84617239 0.06558116525 -0.9590709209 0.275467068
-0.054558847 -0.15771534 0.86633354 0.1860377192 -0.5169944167 0.8355278373
0.015548374 -0.095153272 0.86706066 -0.7317910194 -0.4203611314 0.53644979
-0.1063014 -0.15542023 0.79727286 -0.4619545937 -0.2529168725 0.850077033
-0.11529757 -0.1752931 0.8061707 0.0956337899 0.5252221227 0.8455743194
-0.037997015 -0.10783964 0.87740004 -0.04109612852 0.0673680529 0.996881485
-0.074077316 -0.1562808 0.87591183 0.1215527728 -0.3003379703 0.9460560679
0.00909454 -0.10983406 0.79800004 -0.009480442852 -0.1647397876 0.9862915277
-0.18472318 -0.098897643 0.85557139 0.1029935852 -0.9621181488 0.2524301708
-0.044790093 -0.15716021 0.82890934 0.3744151592 -0.9041942358 0.2055385709
-0.054828648 -0.13430601 0.87799996 -0.01392532419 -0.1111644581 0.9937044382
-0.014147177 -0.13517353 0.80374432 0.3030728698 0.2550698817 0.9181972742
-0.21483187 -0.10352932 0.84357148 0.1179489717 -0.9183800817 0.3777116835
-0.046291191 -0.17380174 0.82507163 0.206784457 -0.5996688604 0.773070097
-0.09580896 -0.13491637 0.8088181 -0.1766227335 0.1241420582 0.9764185548
-0.0030560221 -0.093971916 0.84404355 -0.7167130113 -0.547686398 0.4316967726
-0.095440164 -0.1251362 0.80642843 0.01762775891 0.5959493518 0.8028285503
-0.065304995 -0.15448336 0.87504327 0.1885586381 -0.4137439728 0.8906522989
-0.02461642 -0.13461007 0.87742853 0.09123250097 -0.2188492119 0.9714842439
-0.074955948 -0.16476403 0.82447821 -0.08777086437 -0.9263938069 0.3661841452
-0.2047352 -0.19480295 0.83688575 -0.05466487631 0.4063076079 0.912099719
-0.020567477 -0.139717 0.80900002 0.4621486366 0.2376025468 0.8543791175
-0.082595676 -0.17629942 0.81219995 -0.1685527116 -0.8451960683 0.5071819425
-0.025605073 -0.14759189 0.86884624 0.1466054767 -0.4683451355 0.8712977171
-0.1249309 -0.12540172 0.78389484 0.4903485775 -0.6802579761 0.5448002815
-0.10472728 -0.17534959 0.81364691 0.1199120432 -0.3669422567 0.9224827886
-0.015464397 -0.096218981 0.79650009 -0.3506378531 -0.5354709029 0.768325448
-0.018199099 -0.15501221 0.81642872 0.427565217 0.2049771845 0.8804386854
-0.024515264 -0.088093132 0.80509096 -0.03575360775 -0.8247863054 0.5643130541
-0.036289148 -0.078612871 0.82473344 -0.09661243111 -0.9075604677 0.4086563289
-0.04458639 -0.15596953 0.86516219 0.1361250579 -0.5363278389 0.8329600692
-0.20514047 -0.12508261 0.81532663 0.205590263 -0.2798161805 0.937782228
-0.12306461 -0.11560711 0.77366662 0.2647882402 -0.7469036579 0.6099361777
-0.25511912 -0.11434146 0.84514832 0.3105127513 -0.8340895772 0.4559346139
-0.15652227 -0.14535315 0.81287086 0.07671220601 0.3476340473 0.9344869256
-0.11447763 -0.095804088 0.80557144 0.3635649979 -0.6107937098 0.7033857703
-0.06879466 -0.087943688 0.80900002 -0.1469636112 -0.5906955004 0.7933980823
-0.27288461 -0.12656152 0.8345294 0.4669411778 -0.7122363448 0.5241042972
-0.029053608 -0.14814818 0.82166672 0.3867452741 0.2372853458 0.891136229
-0.13568196 -0.16455396 0.8145715 0.5225247741 0.3581590652 0.7737505436
-0.27268502 -0.16458124 0.81639141 0.2523434758 0.086589396 0.9637557268
-0.00485007 -0.12516427 0.80039972 0.1779014319 -0.005337957293 0.984033823
-0.21619967 -0.20160629 0.83842856 -0.09359302372 0.3822826147 0.9192934036
-0.13421817 -0.10620482 0.8064515 0.3608740866 -0.6342010498 0.6837828159
-0.0062682182 -0.096473917 0.80535311 -0.3896016777 -0.6236733198 0.6776740551
-0.20560689 -0.14471413 0.81719047 0.1493398696 0.2858941555 0.9465527534
0.0052459734 -0.094701044 0.85442859 -0.7320063114 -0.3803006113 0.5652770996
-0.086136878 -0.15345758 0.82566661 0.2600406706 0.7537518144 0.6035205126
-0.076468073 -0.16296831 0.87166685 0.08622865379 -0.5746933818 0.8138133287
-0.082749642 -0.15596782 0.87641191 0.1538766623 -0.1759840548 0.9722919464
-0.15384887 -0.10362463 0.8184287 0.225774765 -0.5484675765 0.8051143289
-0.19490238 -0.11553163 0.81574416 0.1975214183 -0.4855448604 0.8516052365
-0.12276489 -0.11427758 0.79566675 0.4590436518 -0.7644224167 0.4526999593
-0.10675959 -0.15094361 0.81900018 0.2095618695 0.7665624619 0.6070138216
0.015892772 -0.11337683 0.86690909 0.06057262048 0.3567923307 0.932217896
-0.085180409 -0.14419709 0.81460005 -0.867519021 -0.3562520444 0.3471242189
-0.19766802 -0.1575986 0.82154554 0.06712377816 0.36094594 0.930167973
-0.23496269 -0.12745294 0.81796306 0.1013187245 -0.3535304368 0.9299197793
-0.25360504 -0.11836831 0.83642852 0.3174850345 -0.7935710549 0.5190839767
-0.10607409 -0.11415184 0.78747052 -0.6561626196 0.6505564451 0.382396251
-0.26111078 -0.1198903 0.83900005 0.3615170717 -0.7919152975 0.4921134114
-0.055217352 -0.074713573 0.85563648 0.3961133659 -0.8700228333 0.2935208678
-0.17092282 -0.11914952 0.80900002 0.1252857 -0.3105798066 0.9422545433
-0.26446494 -0.17481728 0.81742114 0.05499931797 0.2664561868 0.9622765779
-0.15591525 -0.11570799 0.81109089 0.2740780115 -0.4354484677 0.8574764729
-0.094738238 -0.16563922 0.80178368 -0.3752808273 0.004968137015 0.9268978238
-0.044461906 -0.075387195 0.84806663 0.2064435929 -0.8882061839 0.4104519188
-0.044562951 -0.068566084 0.85573334 0.2481763661 -0.8498259783 0.464977771
-0.1246539 -0.10448515 0.80333364 0.3398213089 -0.6652035713 0.6648501158
-0.053053237 -0.15851371 0.82900006 0.1965082288 -0.8912878633 0.4086446762
-0.11653705 -0.12072401 0.79600006 -0.6325297952 0.7255152464 0.2711710036
-0.17717519 -0.19040972 0.83860004 -0.1090595499 0.5568501949 0.8234220743
-0.035518061 -0.084876351 0.81435013 -0.03147090971 -0.8689644933 0.4938727319
-0.22458151 -0.19483708 0.83304322 -0.1482410133 0.3957093656 0.9063325524
-0.065129451 -0.078730933 0.81642866 -0.09678911418 -0.8290457726 0.5507403612
-0.2241708 -0.18546569 0.83117628 -0.1734195203 0.3493572176 0.9208014011
-0.014758013 -0.073881961 0.85435289 -0.4277044833 -0.7506332397 0.5036056638
-0.065021366 -0.073800169 0.86059093 0.6094273925 -0.2780725956 0.7424782515
-0.014654932 -0.10538479 0.79608178 -0.2652448118 -0.2688440084 0.9259417057
-0.069325924 -0.081515096 0.86900002 0.1504641473 0.3220427632 0.934691906
-0.12299304 -0.14703463 0.79226089 -0.9084524512 -0.0462702103 0.4154193103
-0.09222094 -0.13478722 0.87744457 0.01673587039 0.05704756081 0.9982311726
-0.15480092 -0.15497467 0.81573176 0.1018289998 0.4411584437 0.8916333914
-0.28471205 -0.15480271 0.82536846 0.4520430565 -0.1283328682 0.8827161193
-0.094364382 -0.1239598 0.87562072 0.003937802743 0.1660373658 0.9861115813
0.0038808419 -0.1142344 0.80149984 0.01360830944 -0.1483787298 0.9888370037
-0.12383042 -0.16481331 0.80089456 0.3166460097 0.4310783148 0.8449300528
-0.094455637 -0.092564352 0.8008461 0.1271160245 -0.6382351518 0.7592743039
-0.095956653 -0.17612819 0.81268412 0.2344434708 -0.9692659378 0.07456420362
-0.090842247 -0.0827775 0.81166673 0.1102089658 -0.7074558139 0.6981118917
-0.26594049 -0.12402335 0.833 0.4123485088 -0.7346762419 0.5387202501
-0.008001483 -0.076884396 0.85566664 -0.5422024727 -0.6545140743 0.5269039869
-0.045098905 -0.085033268 0.81599981 -0.07591812313 -0.8080663681 0.5841790438
-0.2149287 -0.17254734 0.82900029 -0.05644760281 0.318642199 0.946192801
-0.02861979 -0.15585944 0.82200003 0.3939003944 0.1175098419 0.9116106033
0.00190412 -0.068906002 0.86849999 -0.5369740129 -0.6411206126 0.5482912064
-0.062123232 -0.15851572 0.86871433 0.246643275 -0.5005144477 0.8298507929
-0.10688257 -0.1831899 0.81671435 0.2601013482 -0.9654330611 0.01692103595
-0.12168484 -0.12875953 0.80700004 -0.5756869316 0.3547869027 0.7366890907
-0.04414434 -0.14572249 0.87675685 0.09986645728 -0.3915248811 0.9147321582
-0.02495151 -0.07385958 0.84540004 -0.2362132967 -0.8706100583 0.4315569699
-0.022779357 -0.095620021 0.79582369 -0.1213553324 -0.5851599574 0.8017859459
-0.27075323 -0.12920576 0.82800007 0.4110748768 -0.652793467 0.6363003254
-0.0091719786 -0.079080299 0.84833336 -0.5196586847 -0.7029114962 0.4856648445
-0.22624539 -0.10220659 0.85327268 0.1768859476 -0.9205563068 0.3482634127
-0.075420514 -0.099798858 0.86900008 -0.006523880176 0.3041627705 0.9525977373
-0.19598208 -0.1350437 0.81386507 0.202425614 0.1068984717 0.9734457135
-0.17937389 -0.10345631 0.84900004 0.09554865956 -0.9575752616 0.2718825042
-0.14543666 -0.12493987 0.8022607 0.4598925412 -0.2419699132 0.8543707728
-0.2824018 -0.13755424 0.83166671 0.5082976818 -0.4966450036 0.7035461664
-0.015282813 -0.065934636 0.86626089 -0.3823861778 -0.7300776839 0.5663632751
-0.085089386 -0.15878132 0.83225018 0.2731310427 0.8428868055 0.4636176527
-0.055783354 -0.09224771 0.81636858 -0.07985177636 -0.747548461 0.6593899131
-0.17088163 -0.16298373 0.81900007 0.06014175341 0.4267246127 0.9023796916
-0.14705119 -0.12043559 0.75900006 -0.7260158062 -0.1777765006 0.6643015146
-0.16479878 -0.18503086 0.8351081 -0.06805165857 0.6162896752 0.7845737338
-0.01273972 -0.092454366 0.80200016 -0.3779562712 -0.6002963185 0.7048357129
-0.11278411 -0.11777234 0.78707695 -0.6336158514 0.7577090859 0.1562302858
-0.13678104 -0.11872872 0.79200006 0.441182971 -0.6647452116 0.6028859019
0.01142735 -0.079229623 0.86900002 -0.7040068507 -0.4819189906 0.5216593146
-0.10496445 -0.16485015 0.80357134 -0.2120206654 0.2802732289 0.9362126589
-0.23880348 -0.16183496 0.81900007 -0.2555794418 0.2075848132 0.9442391992
-0.15392375 -0.17869309 0.83099997 -0.03447913006 0.6406090856 0.7670927048
-0.13687922 -0.1784569 0.83200002 0.393922925 0.5223010778 0.7563242316
-0.19508341 -0.20127651 0.84099996 -0.108149007 0.4927183986 0.8634421825
-0.16557691 -0.10805163 0.81728584 0.1677035689 -0.5171154737 0.8393253684
-0.19026735 -0.10985247 0.81900007 0.2125487924 -0.5637620687 0.7981199026
-0.2130037 -0.11942568 0.81900007 0.1441574097 -0.5340838432 0.8330504894
-0.18309836 -0.15511166 0.82293314 0.08607131243 0.369297266 0.9253168702
-0.035021953 -0.11514208 0.8779999 -0.02001501061 0.03055065125 0.9993327856
-0.11527324 -0.13668616 0.81186968 -0.6311008334 0.4194444418 0.6525167227
-0.26514524 -0.14504233 0.81604177 0.3132048547 -0.2542842329 0.915009439
-0.1250166 -0.094606936 0.81383342 0.346319586 -0.6539498568 0.6726160645
-0.20518167 -0.18547669 0.83334166 -0.0214516446 0.3835798502 0.923258543
-0.25505546 -0.12481783 0.82373166 0.2800403237 -0.6552864313 0.7015533447
-0.034845497 -0.073076181 0.84571427 -0.002542819362 -0.8929668069 0.4501153529
-0.14448793 -0.18437001 0.83635491 0.0004466118407 0.6427800059 0.7660506964
-0.13282815 -0.17016363 0.81900007 0.5458923578 0.3351851106 0.7678883076
-0.10273042 -0.11864193 0.80675006 -0.04178927839 0.546269834 0.8365661502
-0.035010904 -0.066904515 0.85524237 0.03321164474 -0.8842682838 0.4657966793
-0.14027631 -0.13417734 0.77300006 -0.7894400358 -0.4071218669 0.4593868256
-0.13193785 -0.12453529 0.78681815 0.5873939991 -0.601646781 0.5412849784
-0.1036752 -0.098163284 0.79666674 0.2667859197 -0.5834252834 0.767098546
-0.22412315 -0.10779359 0.83420014 0.1928347498 -0.862198174 0.4684325457
-0.027113127 -0.093465351 0.80163175 -0.03998041898 -0.7298930883 0.6823911667
-0.1754535 -0.14578705 0.8138333 0.06645526737 0.354837358 0.9325632453
0.0019526875 -0.087326519 0.85579997 -0.7006312013 -0.4417856634 0.5603047013
-0.1553127 -0.16746122 0.82253844 0.04571041837 0.5142877102 0.8563987017
-0.054774351 -0.17414936 0.82403451 0.08298516273 -0.7505164742 0.6556206942
-0.037845071 -0.093490995 0.8122856 0.03401187062 -0.7971324325 0.6028458476
-0.23486213 -0.19443096 0.8336668 -0.1911729723 0.3946275115 0.8987335563
-0.084410504 -0.1079155 0.87236857 -0.00559211662 0.1883154511 0.9820926785
-0.018507309 -0.14877735 0.81200004 0.4751969278 0.2146998942 0.8532829881
-0.16776097 -0.19584499 0.84300011 -0.1059902459 0.5978551507 0.7945660949
-0.14486073 -0.16286622 0.81545466 0.2506419122 0.5838918686 0.7721715569
-0.015290117 -0.08415062 0.83469999 -0.4311993122 -0.8568429351 0.2826435268
-0.2218589 -0.15005991 0.81900007 -0.05046286806 0.2509130836 0.9666934013
-0.039344799 -0.12883493 0.88000005 0.03242466226 -0.06722039729 0.9972111583
-0.27342623 -0.15515308 0.81670386 0.3698455691 -0.099253878 0.9237764478
-0.25506225 -0.18469393 0.82239133 -0.09995813668 0.3683295548 0.9243060946
-0.25506029 -0.13557185 0.81716681 0.1285338253 -0.3200722635 0.9386335015
-0.22448702 -0.1153604 0.82481843 0.1774702966 -0.6705757976 0.7203002572
-0.1039796 -0.1553662 0.82348257 -0.6836245656 -0.6234160066 0.3794864118
-0.0021895724 -0.10560136 0.80427784 -0.1041721627 -0.3423339128 0.933785677
-0.24366528 -0.11857195 0.82609087 0.2718169987 -0.72710675 0.6304215193
-0.12493784 -0.13462164 0.78493994 -0.9368314147 0.2182491273 0.2733390331
-0.20560122 -0.11253128 0.8224166 0.1956457496 -0.6296682358 0.7518248558
-0.21242246 -0.15067533 0.81900012 0.07315128297 0.2999137342 0.9511575103
-0.21893479 -0.12099008 0.82150006 0.1560235769 -0.4757519364 0.8656308055
-0.094424151 -0.11525186 0.87474197 -0.01860282011 0.1597582251 0.9869808555
-0.080695853 -0.16672403 0.81100005 -0.4548932016 -0.7490422726 0.4816718996
-0.17421946 -0.19515754 0.84473914 -0.1134575903 0.583807528 0.8039254546
-0.19574505 -0.17904535 0.83100003 0.02744076215 0.4191141725 0.9075187445
-0.018782582 -0.069119029 0.85700005 -0.3173543215 -0.7943022251 0.518044591
-0.18461958 -0.17521037 0.82585013 0.01644704491 0.4334637225 0.9010209441
-0.024815131 -0.077942744 0.83453846 -0.2544585764 -0.9098513722 0.3277519643
-0.15996975 -0.13864045 0.81100005 0.146984458 0.2323939502 0.961451292
-0.091792256 -0.15954369 0.83100003 0.4967463911 0.819144547 0.2867843211
-0.09504687 -0.097585358 0.79666674 0.00237029721 -0.5026595592 0.8644812107
-0.03382368 -0.076649718 0.83614296 -0.1372647434 -0.9412901998 0.3084334433
-0.17229261 -0.17957771 0.83100003 -0.0444993414 0.5664206743 0.8229140043
-0.12226573 -0.14488533 0.82338089 -0.2807859182 0.4154395759 0.8651989698
-0.085046224 -0.093888223 0.80176306 -0.1052102 -0.5088031292 0.8544297218
-0.066194601 -0.16822213 0.81869251 -0.2283468843 -0.7177609801 0.6577817798
-0.23851241 -0.15443413 0.81833351 -0.1593310386 0.1521452069 0.9754309058
-0.20519491 -0.17326663 0.82778794 0.03426979482 0.3605341911 0.9321162105
-0.26611051 -0.13410738 0.82214272 0.3554783165 -0.5144330859 0.780380547
-0.0059467088 -0.067206495 0.86759114 -0.4567256272 -0.7059292793 0.5413552523
-0.025254397 -0.067486472 0.85574079 -0.1448517442 -0.8559011221 0.4964385331
-0.064873882 -0.084578641 0.81365132 -0.1291717291 -0.6233214736 0.7712230682
-0.27591074 -0.17599057 0.82223064 0.2387992591 0.1973555386 0.9508026838
-0.035402741 -0.062272955 0.86178577 0.03030762449 -0.8754828572 0.4822978377
-0.1363695 -0.15838647 0.81638461 0.4677003026 -0.6610823274 0.5867082477
-0.095492668 -0.15005992 0.81900012 0.4232113361 0.8544957042 0.3012129068
-0.12798615 -0.11752083 0.78145462 0.449608475 -0.714923501 0.5354778767
-0.03582342 -0.16480482 0.8259787 0.4424065351 -0.878370285 0.1809476912
-0.14514492 -0.1153615 0.80712479 0.3801066875 -0.5418985486 0.7495764494
-0.22544551 -0.17423315 0.82690722 -0.2031734437 0.2747666836 0.9397999048
-0.24255352 -0.16913968 0.82100004 -0.2820641994 0.2410891503 0.9286096096
-0.14522725 -0.17376342 0.82638478 0.03146095201 0.5895446539 0.8071228862
-0.10381506 -0.088041417 0.80638474 0.2240883261 -0.7370137572 0.6376481652
-0.0068004197 -0.1051969 0.79713345 -0.230963856 -0.2269247621 0.9461293817
-0.11052897 -0.1769423 0.81166673 -0.2223228365 0.5183149576 0.8257858157
-0.18529224 -0.18576668 0.83287096 -0.05651141703 0.510348618 0.8581088185
-0.018315071 -0.13500191 0.87571436 0.05559666827 -0.1961926222 0.9789879918
-0.11372778 -0.12057892 0.78150004 0.3678837419 -0.6367880702 0.6776153445
-0.01648712 -0.087704726 0.80380017 -0.1930035502 -0.7876136303 0.5851618648
-0.013165195 -0.081827186 0.84216672 -0.5645403862 -0.7549129128 0.3337674439
-0.12565596 -0.11198455 0.8007369 0.2989961207 -0.6433103681 0.7048071027
-0.11701834 -0.14803855 0.79385716 -0.7756313086 -0.2176282853 0.5924811959
-0.22496642 -0.12578475 0.81736356 0.1358264536 -0.2846836746 0.9489501715
-0.17685978 -0.15528636 0.82281816 0.08607624471 0.4005503953 0.9122226834
-0.025071898 -0.1432029 0.87325001 0.1310802996 -0.3022275567 0.9441803098
-0.11338501 -0.10688138 0.7968697 0.4012648463 -0.3269762397 0.8556126952
-0.15186541 -0.12368418 0.763125 -0.8004772067 -0.149696961 0.580368042
-0.19026735 -0.16011177 0.81900007 0.08466023207 0.3655999005 0.9269138575
-0.084662497 -0.16486371 0.83445454 -0.160841465 -0.9820717573 0.09831112623
-0.13891046 -0.16913968 0.82100004 0.4643598199 0.4743456841 0.7479078174
-0.23558715 -0.12250221 0.82161528 0.1941521764 -0.5816405416 0.7899361849
-0.23537967 -0.18419804 0.82668436 -0.2243067324 0.3683902025 0.9022057056
-0.032675818 -0.094378255 0.80666667 0.0318721123 -0.8074044585 0.5891368389
-0.16523436 -0.17409432 0.82755172 -0.008535386994 0.5143272877 0.8575515151
-0.20317438 -0.10800583 0.82685721 0.1762246341 -0.7977710366 0.5766335726
-0.13342902 -0.13762107 0.77179998 -0.7205216885 0.1536145061 0.6762034297
