# .PCD v0.7 - Point Cloud Data file format
VERSION 0.7
FIELDS x y z normal_x normal_y normal_z
SIZE 4 4 4 4 4 4
TYPE F F F F F F
COUNT 1 1 1 1 1 1
WIDTH 512
HEIGHT 1
VIEWPOINT 0 0 0 1 0 0 0
POINTS 512
DATA ascii
0.01131485961 -0.03822743148 0.8563091159 -0.4537623525 -0.3945579529 0.7962093353
-0.02000787295 -0.06494569778 0.9047139287 0.02650571242 -0.6678834558 0.6164435744
0.009564127773 -0.02937511913 0.8690508008 -0.4735946953 -0.5870085359 0.646694541
-0.2508364618 0.0009879481513 0.8429253697 0.03695425764 -0.2239267081 0.9737275839
-0.2431041449 0.008187967353 0.8437212706 0.004345275462 -0.3281973004 0.9436916113
0.0005581877194 -0.05055807903 0.9073091149 0.5740514398 -0.4206334054 0.5091446638
0.003126913449 -0.03179742768 0.9002943039 -0.08648242056 -0.3168757558 0.6876322627
0.001168033923 -0.03908494115 0.9041023254 0.1517470479 -0.2802221775 0.6614347696
-0.01481637824 -0.03689232096 0.9143200517 0.009437059984 0.04978476092 0.9706591964
0.003217660822 -0.05189007148 0.8885982037 0.4358823299 -0.3772788942 0.6031653285
0.008393075317 -0.04073987901 0.8761075735 -0.1086121574 -0.4435925186 0.6548325419
0.006135726348 -0.04728692025 0.8710966706 0.08791294694 -0.2870258093 0.7471675873
0.006675085053 -0.04383016378 0.8840495944 0.0870013237 -0.4679037631 0.5959925652
0.00410542544 -0.05370466784 0.8633022904 0.2517947853 -0.1060859635 0.8663217425
0.002683005761 -0.05183912814 0.8973604441 0.5213983655 -0.4616167843 0.5157637596
0.003792574629 -0.05224522948 0.8773102164 0.3366184533 -0.2638182044 0.7176417708
0.009880122729 -0.0382479988 0.8680964708 -0.2823824286 -0.4086763859 0.7182475924
-0.0111900121 -0.04492624477 0.9160280824 0.08722290397 0.09181558341 0.9587090611
-0.01910670847 -0.05833638087 0.9146173 -0.05518834665 -0.408906728 0.8511230946
-0.01925011352 -0.04872415215 0.9161149263 -0.1022873819 -0.1217127144 0.9872255921
-0.008976961486 -0.06122168154 0.9140543342 -0.06434047222 -0.7324288487 0.6197038293
-0.2533603609 -0.009501585737 0.8402553201 0.1012395769 -0.120428361 0.9872297049
-0.2347584665 0.01459676307 0.8473695517 -0.07628809661 -0.3472680748 0.9319710135
-0.198147729 0.01833137684 0.8515635133 -0.2798395157 -0.1154090092 0.9510227442
-0.2053989172 0.02940962836 0.8546459675 -0.2063063979 -0.2342243493 0.9469225407
-0.001705131261 -0.01746889018 0.8977233171 -0.3131830096 -0.4805012345 0.6860929132
0.009395401925 -0.02289296128 0.8910112381 -0.31210199 -0.665836215 0.5509100556
0.01034504641 -0.02822239697 0.8829103708 -0.3160446882 -0.6730964184 0.5670194626
0.005280599929 -0.04299830645 0.8953666687 0.253811717 -0.5879963636 0.4965827465
0.008135025389 -0.03364065662 0.8897722363 -0.0804124251 -0.635130465 0.5326154232
-0.02304277942 -0.03867870942 0.9159041643 -0.1048508137 -0.09003649652 0.9902613163
-0.1493412703 0.02498518303 0.8427874446 -0.6091833115 -0.4117196798 0.4697996676
-0.1561198384 0.02893724665 0.8518921733 -0.4452649653 -0.2555049658 0.6820120215
0.002480011201 -0.06002228707 0.8770387769 0.5067899823 -0.1752582043 0.7490095496
-0.0006271774764 -0.05940313637 0.8863620758 0.5599776506 -0.2334746271 0.6688985825
0.00324870646 -0.06151103228 0.8674656153 0.4352521896 -0.0753396675 0.84610039
0.005651667714 -0.0317690894 0.8599935174 -0.3989579976 -0.5534484386 0.7067641616
-0.001812356175 -0.02920622379 0.8584219217 -0.3509052694 -0.5337055922 0.7666394114
-0.005303144921 -0.01900622435 0.8670887351 -0.379313767 -0.6952668428 0.6103961468
0.002407679334 -0.0226240512 0.8705852032 -0.3923348188 -0.6974821687 0.5992593169
0.001325301011 -0.01707481593 0.8775992393 -0.4150649905 -0.6933045983 0.5889642239
-0.0008578584529 -0.009449914098 0.8841961026 -0.4245615304 -0.6792963743 0.5976181626
-0.2080616504 0.02086531743 0.8488844633 -0.228922531 -0.2281231284 0.9420183897
-0.2321589589 0.008091624826 0.843424499 -0.1153621301 -0.3082651198 0.9405819774
-0.2251749188 0.001368814963 0.8422918916 -0.2568593323 -0.1913035214 0.9398404956
-0.01783001423 -0.06958989799 0.8823909163 0.2468398809 -0.8853996992 0.129564032
-0.01852720231 -0.06762862951 0.8927018046 0.1479037255 -0.8384527564 0.3333967626
-0.04365249723 -0.03162937611 0.9127107263 -0.1970514208 -0.0630466491 0.9781435728
-0.08062004298 -0.06539864838 0.9008242488 -0.3238828778 -0.6402043104 0.6471150517
-0.07574595511 -0.07134675235 0.8737020493 -0.2721199691 -0.8885455728 0.03152450919
-0.0783733651 -0.06758700311 0.8936129212 -0.3036640882 -0.7203214765 0.4693747759
-0.07673697174 -0.06975364685 0.8828849792 -0.285169214 -0.8142311573 0.2301961929
-0.02843482979 -0.02955054864 0.9131761789 -0.1532649398 -0.08002875745 0.9740800261
-0.03197682649 -0.04521271959 0.9018339515 -0.01424875483 -0.3412400782 0.685895443
-0.02787457034 -0.05618062988 0.8875938654 0.1766447425 -0.6510866284 0.3507509828
-0.02998062782 -0.05073763058 0.8947279453 0.08091254532 -0.4959658086 0.5184946656
-0.02515113167 -0.02147000469 0.9085918069 -0.2135189325 -0.195902586 0.9105857015
-0.01628484949 -0.02991338447 0.9108163714 -0.103971757 -0.09422932565 0.9160524607
-0.01029946841 -0.01772292145 0.901442945 -0.2987895608 -0.4027781785 0.7551446557
-0.1107096374 -0.04523350671 0.8502104878 0.009979797527 0.1201357394 0.9830804467
-0.1057224348 -0.05529794097 0.8804860711 -0.04622929171 0.2993899882 0.8635281324
-0.1012810022 -0.0544495061 0.8891135454 -0.1684066355 0.2133611143 0.8722844124
-0.1091502905 -0.06760233641 0.8665241599 0.1658802032 0.5082970858 0.8443538547
-0.1974036396 -0.06280206144 0.8765565157 -0.20965828 0.3004312515 0.9185358882
-0.1982903928 -0.055613067 0.8733897805 -0.2267451137 0.2715376019 0.9333242774
-0.008152723312 -0.05788609385 0.862834692 0.2320636511 0.1114680544 0.9572922587
0.004937013146 -0.06179424375 0.8588690758 0.3749509454 -0.003374652471 0.926803112
-0.007589674089 -0.0663882941 0.8794230223 0.3132889271 0.09806111455 0.7397012711
-0.006101629697 -0.06611787528 0.8650569916 0.3401061594 0.1073487252 0.930880487
-0.02145506628 -0.07225384563 0.8724442124 0.2090754658 -0.6593550444 0.1517097205
-0.02963929251 -0.07284449041 0.872705102 0.08588480949 -0.6011422276 0.2467055619
-0.01035535336 -0.06535251439 0.8991988301 0.01504109614 -0.6419625878 0.4599001706
-0.003579223761 -0.05943800136 0.9024727345 0.4211595654 -0.3817647398 0.5160999298
-0.007192754652 -0.06382057816 0.8899848461 0.248997584 0.0008304489893 0.60747087
-0.01322124898 -0.07103438675 0.8703324199 -0.05227806792 0.5980767012 0.7568743825
0.01089292672 -0.04529689252 0.8614481688 -0.07732684165 -0.2325723022 0.8484963179
0.01106114779 -0.05426874384 0.8560946584 0.2087164372 -0.03894676268 0.97667557
0.009800097905 -0.04554176331 0.8515623212 -0.1333519965 -0.1431113183 0.9692453146
-0.1965514868 -0.02600968257 0.8704122901 -0.3202061057 0.1958224922 0.9186198711
-0.2014362812 -0.03170095012 0.8678477407 -0.4292656481 0.2138475925 0.8665263057
-0.01494647097 -0.04106910527 0.8618580103 -0.09695124626 -0.403082639 0.8004324436
-0.01472064201 -0.05416812003 0.8656224608 0.09142071754 -0.1136514246 0.8535401225
-0.02187160403 -0.06021814793 0.8710072041 0.2289462537 -0.7478585839 0.2788132429
-0.007602342404 -0.02626309171 0.9051963091 -0.1688938886 -0.2423322499 0.8147916794
0.004936911631 -0.01301288977 0.8912492394 -0.4305075407 -0.6667427421 0.5834020972
-0.01404234674 -0.009692650288 0.8987658024 -0.3319703639 -0.4501129091 0.7539920211
-0.004010867327 -0.004148321692 0.8923582435 -0.4249852002 -0.6418855786 0.6173594594
-0.01242860965 0.002710017841 0.8913825154 -0.401922971 -0.633222878 0.6550512314
-0.01719218679 -0.02031368762 0.9052365422 -0.2644924819 -0.3026301563 0.8315223455
-0.2185044885 -0.03837229684 0.8540264964 -0.5762491822 0.356134057 0.7347438931
-0.2264163643 0.01554721966 0.8462864161 -0.1523532271 -0.3357852399 0.9284120202
-0.2401055694 0.0006849869969 0.8386527896 -0.02360827103 -0.2183307111 0.9724186659
-0.2169033885 -0.01150535792 0.8460484743 -0.514996767 0.153509438 0.8146754503
-0.1863641888 0.03358345479 0.860422194 -0.2582678199 -0.07642341405 0.9627344012
-0.1921799779 0.02355101518 0.8555939198 -0.2736091912 -0.122797519 0.9534388781
-0.0269862581 -0.04904662445 0.9150970578 -0.1166045964 -0.1174568236 0.9856598377
-0.03133383766 -0.0408875756 0.9149925709 -0.1468235105 -0.08377056569 0.9850577116
-0.04440864176 -0.05455902964 0.9116292596 -0.1958149672 -0.1131907254 0.9720601439
-0.1383694708 0.0143377604 0.8301594853 -0.8257125616 -0.5359745026 -0.01821508817
-0.1402529329 0.001013290486 0.8337650895 -0.1280206442 0.3282815218 0.5873916745
-0.1464247406 -0.002027808456 0.841914475 -0.1647515297 0.2426085919 0.7096814513
-0.1597316861 -0.005117568187 0.8547266126 0.04499508068 0.1980926096 0.93881917
-0.1408613175 0.008328704163 0.8259366155 0.3533087969 0.5423107743 0.4884161055
-0.1880984455 -0.007571561728 0.8655876517 -0.2295282483 0.3176165223 0.9102283716
-0.01935778931 -0.02710595168 0.8823968768 -0.159488678 -0.6207784414 0.5918658376
-0.02609447017 -0.03450870141 0.9021958113 -0.07772829384 -0.2992048562 0.7701812983
-0.0228797663 -0.02942173742 0.8938645124 -0.1370318383 -0.4258603752 0.7172089815
-0.02169344202 -0.04216148332 0.8802895546 0.03186177462 -0.7245909572 0.3956311047
-0.01958058402 -0.03427206725 0.8780795932 -0.0664492026 -0.7294636369 0.4547490776
-0.0168859791 -0.02075652964 0.8777423501 -0.2369081676 -0.6761345267 0.6015114188
-0.02376694232 -0.05083461478 0.8817897439 0.1404884756 -0.735853672 0.3183838129
-0.02373964712 -0.03979508951 0.889618516 -0.003537313081 -0.5473567843 0.54515028
-0.01532951929 -0.02865339443 0.8663949966 -0.209793672 -0.6038207412 0.69801718
-0.02031181566 -0.04692487791 0.871761322 0.06935967505 -0.7898081541 0.3466646969
-0.01789453812 -0.03713791445 0.8698102236 -0.0720031783 -0.7077074051 0.510307014
-0.04171698913 -0.07196110487 0.8746137619 0.04703317955 -0.9877672791 0.1301012039
-0.0604615584 -0.008774818853 0.8625477552 -0.1031693518 -0.5109334588 0.8527194262
-0.05255737528 -0.04649616033 0.8660407066 -0.06775716692 -0.7678790092 0.4777138233
-0.05442898721 -0.06397181749 0.8709141612 -0.08363310248 -0.9335974455 0.219032988
-0.04861225188 -0.0545232296 0.8695945144 -0.03656790033 -0.8459566832 0.3720558882
-0.05289703608 -0.034762308 0.8625218272 -0.06385525316 -0.6567384005 0.6468496323
-0.05056055635 -0.006465728395 0.866874516 -0.1778615862 -0.5751622915 0.797005713
-0.09445393831 -0.05668935925 0.8534023166 -0.07928283513 0.2234424502 0.9706686735
-0.08431047946 -0.05792004615 0.9036322236 -0.2217918038 -0.2589676976 0.8893283606
-0.07414451987 -0.06081843376 0.9050523639 -0.1917129755 -0.3208948374 0.8467656374
-0.1248820424 -0.05901944637 0.8640657663 0.2395874858 0.4672884345 0.8498302698
-0.1158277392 -0.06084625795 0.8641222715 0.2138878405 0.5011683106 0.8380308151
0.0007598098018 -0.04934085533 0.8559544086 0.2130700797 -0.0061442554 0.9703192711
-0.0133361537 -0.06332235783 0.8675271273 0.2298237383 0.1542871147 0.9380018711
-0.008740483783 -0.04790350422 0.8599659204 0.07010351866 -0.07383816689 0.9388939142
-0.257085979 -0.01964110322 0.8396526575 0.06407990307 -0.00224004616 0.9968711734
-0.2565648258 -0.03006591089 0.8411141634 -0.05139585957 0.1119590849 0.9811660051
-0.2427737862 -0.01132814586 0.8361437917 0.00100643863 -0.07769623399 0.9933499098
-0.1890912205 -0.05429628119 0.8759734631 -0.0895088166 0.2578316629 0.9533765316
-0.01526651066 -0.005603535101 0.8804924488 -0.3714700937 -0.660345614 0.6516069174
-0.1333988458 0.01911389641 0.8392077684 -0.8217231035 -0.4562187493 0.305900842
-0.1598825157 -0.06556206942 0.8784329891 0.1628181189 0.3511924744 0.9187956452
-0.1406308562 -0.06718924642 0.8733438849 0.1956573576 0.431955725 0.8778325915
-0.154054895 0.009347638115 0.8365407586 0.2748583257 0.4220612645 0.6900544763
-0.1551782489 -0.0001628394966 0.8456121683 0.2077847719 0.3329563141 0.8192620277
-0.1668730676 0.007706449367 0.8512701988 -0.02718743682 0.1742358655 0.8815631866
-0.1594671905 0.008152303286 0.8431773186 0.145146206 0.3138064444 0.7769459486
-0.1719439775 0.01473093126 0.8511262536 -0.2217691839 0.03163421527 0.8079675436
-0.1921182126 0.01004198473 0.8525150418 -0.3232152462 0.03236769885 0.9432672858
-0.1846547127 0.01235528011 0.8563822508 -0.3084672093 0.04458735138 0.9458273649
-0.2206027657 -0.05358311534 0.8623951077 -0.4976924956 0.3103201985 0.806248486
-0.2116813511 -0.04974032193 0.8647719026 -0.4596614838 0.2731204629 0.8415309787
-0.05219247565 -0.05693081394 0.9089437723 -0.1841720641 -0.2335623354 0.9342935681
-0.06832941622 -0.07174780965 0.8875201344 -0.2263092995 -0.8633645177 0.2945163548
-0.06742146611 -0.07235452533 0.8778296709 -0.2129480541 -0.922370851 0.110399656
-0.06081174687 -0.07015266269 0.8707944155 -0.1375982165 -0.9831885695 0.09477722645
-0.1081573293 -0.01932180487 0.8604521751 -0.1771257669 -0.2313997298 0.9560186267
-0.08658803254 -0.05470558256 0.8551262021 -0.1479745507 0.1643932015 0.9707098603
-0.1899046004 -0.0199233219 0.8712700009 -0.2008529156 0.2149578631 0.9552545547
-0.1350675821 0.0289157033 0.8621069789 -0.3904065788 -0.667188108 0.5454868674
-0.1469308585 0.02839795314 0.8527784944 -0.4634786844 -0.2891370952 0.6482825279
-0.1395381391 0.02409201302 0.8418372273 -0.6560050249 -0.5282863379 0.3734377921
-0.1518641412 0.03300771117 0.8671347499 -0.1729838401 -0.2339769155 0.9208604097
-0.1442901343 0.03021236509 0.8629882336 -0.2332437932 -0.5332126617 0.7363693714
-0.1298691928 0.01154989842 0.8417982459 -0.8831614256 -0.2132490873 0.3975161612
-0.1338797063 0.006596677005 0.8366495967 -0.9037115574 -0.04544787481 0.3844691515
-0.1725459844 0.007794706151 0.8634896874 -0.1617857814 0.09081747383 0.9812487364
-0.170553416 0.0179900229 0.8625801802 -0.2232806385 0.004039847292 0.9731696248
-0.1784463078 0.01920780167 0.8608134389 -0.2390365899 -0.003780804807 0.9680554271
-0.1856458932 0.02456823364 0.8608723283 -0.2378705889 -0.0584879294 0.9654920697
-0.1936195046 0.03124286607 0.8610039353 -0.2331673801 -0.1251741499 0.9634251595
-0.1664841473 0.02569445595 0.8635472655 -0.2333629876 -0.0377041623 0.971555531
-0.1715852022 0.03412867337 0.8632522821 -0.2164632678 -0.05304754898 0.974806726
-0.01312439237 -0.02135563083 0.8627492785 -0.3150060773 -0.6702851057 0.6709403396
-0.01480865106 -0.01314742956 0.8717426658 -0.3474598825 -0.675468266 0.6493753195
-0.07100759447 -0.001589182299 0.8817728162 -0.1610977948 -0.3267097175 0.9069031477
-0.06640258431 -0.005289418623 0.8888915181 -0.1819737554 -0.2748981714 0.9069397449
-0.05823189393 0.006614246406 0.8840624094 -0.2162226439 -0.4657168984 0.8281974792
-0.05888025463 -0.002338041319 0.8906835914 -0.211503163 -0.3440927863 0.8657090068
-0.06182221323 0.01313611865 0.8773015141 -0.2047674358 -0.5348551273 0.8175083399
-0.06168878451 -0.01349547505 0.8979817033 -0.1982876211 -0.1829244941 0.9206533432
-0.052913066 -0.01266877353 0.901047647 -0.2093512714 -0.2084048986 0.9168957472
-0.0600033626 -0.0247440394 0.9072318673 -0.1898781955 -0.02705815993 0.9768798947
-0.05421549082 -0.03323270753 0.9109178782 -0.2024601251 -0.0477511175 0.9779999256
-0.0570942983 -0.03272264823 0.9026427865 -0.2049152255 -0.126174435 0.9544447064
-0.05032934994 -0.02662030049 0.880908668 -0.1794417053 -0.356608808 0.872289896
-0.04813579842 -0.0243377611 0.8727488518 -0.1679271013 -0.4405200779 0.8434403539
-0.05432939902 -0.02232692763 0.8648284674 -0.1098599583 -0.4594122469 0.8633782864
-0.05516285822 -0.02844471671 0.8871533275 -0.1704797149 -0.2686795294 0.9125404954
-0.05274733528 -0.04854083061 0.893532455 -0.126801163 -0.4598650336 0.6362192035
-0.0424622111 -0.02889050543 0.8767595291 -0.1967892945 -0.4941219091 0.764993012
-0.03563474119 -0.02191508934 0.864562273 -0.2139081061 -0.6036081314 0.7533604503
-0.04804955423 -0.05456033349 0.8832446337 -0.08627391607 -0.6898425221 0.4550859928
-0.04662005976 -0.03528694808 0.8838111758 -0.175976932 -0.4581559002 0.7376963496
-0.05174711347 -0.03619958088 0.8937283754 -0.1840339154 -0.3141106069 0.8156496882
-0.04005322605 -0.04241166636 0.8696562052 -0.1255607605 -0.7611976266 0.505135715
-0.04512456805 -0.05926778913 0.8766710162 -0.05640143529 -0.8467488885 0.3269521892
-0.04464892671 -0.04295931011 0.878592968 -0.1340900511 -0.6282157898 0.5793372393
-0.02755898982 -0.02527761832 0.8587033153 -0.2418091893 -0.6241938472 0.7384827733
-0.04097487032 -0.01987783797 0.8579282165 -0.1746279448 -0.5825125575 0.7896611094
-0.05032500625 -0.01915859245 0.8576235175 -0.1176057085 -0.5432662964 0.82911098
-0.03476545215 -0.03171855584 0.898530066 -0.1816099882 -0.2469537705 0.8956819773
-0.03336852044 -0.02823171578 0.8719285131 -0.1497611254 -0.5727689862 0.7076907158
-0.03404700384 -0.02916026488 0.8827663064 -0.1691628247 -0.4349667728 0.7930359244
-0.03152774274 -0.0368536748 0.8728528023 -0.03984458372 -0.648888886 0.5629585385
-0.03225691617 -0.03980509937 0.8898180723 -0.05065273494 -0.4485834539 0.6699026823
-0.03438668698 -0.03653899208 0.9070129395 -0.1433316022 -0.1812022179 0.889639914
-0.03175516799 -0.03886341676 0.8811091781 -0.03761587664 -0.5573053956 0.604801476
-0.03155707568 -0.03219793737 0.8628804684 -0.1981700063 -0.7014247775 0.6277211308
-0.03859078139 -0.05652237684 0.8701396585 -0.08524221927 -0.8829203844 0.3335773945
-0.03514303267 -0.06363701075 0.8740397692 0.04043141752 -0.9359301329 0.2674383223
-0.03097403049 -0.05202654377 0.8688659072 -0.06335186213 -0.8406510949 0.4112081826
-0.02820049226 -0.01446883008 0.8650215864 -0.2633147538 -0.6621764302 0.7010016441
-0.02864424326 -0.02672573738 0.9025507569 -0.1744351685 -0.1986528635 0.9268212318
-0.01999913901 -0.01880773343 0.8857475519 -0.2656481564 -0.5040453672 0.7509119511
-0.02830565162 -0.02291499451 0.8851597309 -0.2099898607 -0.4161306024 0.8231084943
-0.02457883023 -0.01893131249 0.8751900196 -0.2545213103 -0.5812642574 0.7315016985
-0.02069953084 -0.01912340708 0.8659880161 -0.2888697386 -0.6666836143 0.685166657
-0.02172813006 -0.03302657232 0.8603603244 -0.1854807585 -0.677562058 0.6257295012
-0.02737784572 -0.04202755168 0.867067039 0.0231114924 -0.7732508183 0.4208673537
-0.09127456695 -0.06963334978 0.862560153 -0.006213703658 0.4509941041 0.8868541718
-0.1011299193 -0.0707263425 0.8677065969 0.08344061673 0.3156023026 0.7439885736
-0.09067321569 -0.06707881391 0.8851543665 -0.1551705003 -0.2186184973 0.6792219281
-0.09153553098 -0.06957430393 0.8746743202 -0.08552520722 -0.1608688384 0.5415652394
-0.08282037824 -0.07119251788 0.8700261712 -0.1783381999 -0.5770481825 0.1840717047
-0.1313742399 -0.06713912636 0.8705788851 0.2082376033 0.4763491452 0.8536906838
-0.1146574542 -0.06273540109 0.8807451129 -0.006882009562 0.2946048975 0.8344265819
-0.1064184606 -0.066897735 0.8841849566 -0.02611689642 0.05291782692 0.7928014994
-0.1133569553 -0.06886704266 0.8746959567 0.1098818332 0.3452098072 0.8229596615
-0.1033999175 -0.06899209321 0.8748419881 0.05068216845 0.2826935947 0.8280184865
-0.09697330743 -0.05652758107 0.8981186152 -0.339607805 -0.1021646783 0.8289719224
-0.1228817478 -0.06859171391 0.8732981682 0.1723879725 0.4539301991 0.827306509
-0.09143703431 -0.06425072253 0.897172153 -0.2446561754 -0.3780554235 0.755014658
0.00200228719 -0.03959882632 0.8551498055 -0.1894368231 -0.2396606654 0.9051981568
-0.2524121702 -0.04003654048 0.8403548002 -0.1713652015 0.2338340431 0.951982975
-0.2442884594 -0.04154083505 0.8387362361 -0.2161937505 0.307256788 0.9255176187
-0.2121352851 -0.05819376931 0.8674358726 -0.4244244993 0.2666810453 0.8629333377
-0.2043931484 -0.06064883247 0.8709099889 -0.3148744106 0.2628003359 0.906162262
-0.1868288815 -0.06327469647 0.8778070211 -0.0675637722 0.3269970715 0.9374477267
-0.1714888513 -0.06316036731 0.8761478662 0.1065463349 0.3317587376 0.9334107637
-0.2420605421 -0.02503720671 0.8436887264 -0.2152998894 0.1680604815 0.8711150885
-0.2344097644 -0.02422367223 0.845487833 -0.3588582277 0.2124277353 0.816159904
-0.2259109318 -0.0326128602 0.8468168974 -0.5537619591 0.3693404794 0.7416586876
-0.2466799021 -0.01462457329 0.8437879086 -0.09010011703 0.01194627769 0.9143742323
-0.228289783 -0.04124311358 0.8507630229 -0.4864345789 0.3713395894 0.7847083807
-0.2272793204 -0.05072641373 0.8576855659 -0.5428026915 0.3516671956 0.7626325488
-0.220104903 -0.04645609111 0.8591530323 -0.5288452506 0.3318352401 0.7801166773
-0.2415702939 -0.03239656985 0.8374865651 -0.1789607257 0.241923362 0.9469769001
-0.1471150964 -0.06241229922 0.8700456619 0.2162432224 0.3953844905 0.8925349712
-0.1552011669 -0.06095430255 0.8718528748 0.2171592861 0.379160583 0.8989157677
-0.1959872991 -0.04755299538 0.871604979 -0.1849738061 0.1858128011 0.9633693099
-0.1985831112 -0.0397557281 0.8705710769 -0.274520278 0.1693600565 0.9391114116
-0.008474133909 -0.008693972602 0.8775751591 -0.3927446902 -0.6704840064 0.6281741858
-0.04310243204 -0.009922064841 0.8652139902 -0.2033277005 -0.5989855528 0.7737381458
-0.1207207516 0.01925260015 0.8670539856 -0.4002833068 -0.6087174416 0.6467902064
-0.1208309308 0.01359861996 0.8600672483 -0.5696071982 -0.4604558647 0.6073924899
-0.1230748817 0.02502638474 0.872597754 -0.3257885873 -0.7118861079 0.6114076376
-0.1132382601 0.02271731012 0.8756186962 -0.2009672821 -0.4495244622 0.8687153459
-0.1049567237 0.01950376853 0.8745085001 -0.1364434212 -0.3957532644 0.9076145291
-0.1378877163 0.02086381614 0.8693651557 -0.1610418111 -0.584408164 0.7113541961
-0.1440219879 0.02619970776 0.871512711 -0.08293419331 -0.3286808729 0.9094597101
-0.1954302937 0.004562923685 0.8575570583 -0.3857899606 0.1891278476 0.8879806995
-0.2004098892 0.01400370616 0.8600907922 -0.3162681162 0.04789600149 0.8906456828
-0.2034619898 0.02185662836 0.8591503501 -0.2628778517 -0.0920207426 0.9234724641
-0.1919266582 0.01670659147 0.8603674769 -0.2463096231 0.03310025483 0.9430723786
-0.2165297717 0.001603370882 0.8441521525 -0.3311030865 -0.1232990623 0.9301456809
-0.205166474 0.01334520336 0.8483988047 -0.2646130621 -0.1679992825 0.9489834905
-0.213006869 0.009356857277 0.8463777304 -0.2912322283 -0.1829346269 0.9386663437
-0.2189072818 0.02148434147 0.8487355709 -0.1945110112 -0.3100712895 0.927726984
-0.1405810416 -0.05490966141 0.8666288257 0.2337068617 0.3712821007 0.8963288665
-0.1842970848 -0.0244831387 0.8671420217 -0.05956209823 0.1506806314 0.9763463736
-0.2048503458 -0.01291460544 0.8519275188 -0.5257620811 0.2640019357 0.7837145329
-0.1917998046 -0.02035442926 0.8615446091 -0.2275021076 0.1906290501 0.9073557258
-0.220051527 0.0111313602 0.8506804705 -0.2609944344 -0.2025449872 0.8894706368
-0.2174373865 -0.02154751122 0.8465186954 -0.5745201707 0.2785978019 0.7665392756
-0.2341016829 -0.004649227019 0.8422831297 -0.2168327272 -0.07660844922 0.9068937898
-0.2250958532 -0.0239561107 0.8439723849 -0.5198267102 0.2858801186 0.7899748087
-0.2338603288 -0.01614151895 0.8429145813 -0.3142927587 0.1170987859 0.8590590954
-0.2138078511 -0.03227924556 0.8568308949 -0.5955834985 0.3319296837 0.7300872207
-0.2186031044 -0.02931748144 0.8511808515 -0.5966454148 0.353794843 0.718994081
-0.02022084966 0.006154309958 0.8877013326 -0.3685581684 -0.6254251003 0.6860215664
-0.02013941109 -0.003925950266 0.8958246112 -0.3409650028 -0.4916120172 0.7404550314
-0.02953265235 -0.01555099618 0.904112041 -0.2513672709 -0.2628244162 0.8714672923
-0.0472311154 -0.06890084594 0.8937618136 -0.04125327617 -0.7846397161 0.4915517569
-0.04597856477 -0.06646454334 0.9032430649 -0.05783017725 -0.6387110949 0.7125974298
-0.04689363763 -0.0710253343 0.8829106688 -0.0165766459 -0.9137634635 0.2802286446
-0.05433502048 -0.06580426544 0.906139791 -0.1567915827 -0.5468917489 0.7998803258
-0.05329991132 -0.07219084352 0.8761205673 -0.02000622824 -0.9848737717 0.1580198407
-0.05695836991 -0.07097511739 0.9003126621 -0.08663006127 -0.8982627988 0.4084351063
-0.06684565544 -0.0569894053 0.9054585695 -0.1645574272 -0.1557554007 0.935541749
-0.06777461618 -0.07105382532 0.8991031051 -0.2122711986 -0.8167538047 0.4806400239
-0.05999590829 -0.07156407833 0.8886608481 -0.09155844897 -0.9138748646 0.3210183084
-0.03530148044 -0.07149924338 0.8807937503 0.07814571261 -0.8619682193 0.2562714517
-0.03762097284 -0.06488391757 0.9066050053 -0.1153251529 -0.4063117802 0.8850231767
-0.03878593445 -0.06737725437 0.8973523974 -0.02937217429 -0.6169793606 0.6378061175
-0.02857687324 -0.06595607847 0.901170969 -0.01575885899 -0.5203165412 0.6901678443
-0.02813618444 -0.06988528371 0.8856065273 0.123268187 -0.7714754939 0.3344102502
-0.03147770092 -0.06304727495 0.9108399153 -0.1365437508 -0.1918316782 0.9689094424
-0.03675520793 -0.04870212078 0.9137260318 -0.1683573276 -0.1009087116 0.980211854
-0.05315483734 -0.04191314429 0.9116004705 -0.2092457712 -0.07825174183 0.9745885134
-0.04280591011 -0.03970133141 0.9130902886 -0.2002458125 -0.08160229027 0.9762527347
-0.0712653026 -0.07167577744 0.8661257625 -0.2284741998 -0.6837735176 0.1545315236
-0.08173918724 -0.07113602757 0.8611466885 -0.1261700243 0.3071822524 0.8267332911
-0.112515673 -0.05223574489 0.856246233 0.1659525782 0.3875429928 0.9047581553
-0.08739826828 -0.02967754379 0.8556043506 -0.02361723594 -0.1921693087 0.9712620378
-0.1046392322 -0.04032234848 0.8494593501 -0.1054707989 -0.03760681674 0.9908421636
-0.1054221392 -0.05875964835 0.8577746153 0.1295529157 0.4029117525 0.9050534964
-0.1008641943 -0.05142812431 0.8521504402 -0.04775765911 0.186800018 0.9658561349
-0.09284327924 -0.04621008411 0.8521946073 -0.1479001641 0.0317912288 0.9844717979
-0.09705451876 -0.03764887899 0.8806530237 -0.2448064834 -0.1383221447 0.940766573
-0.09212698042 -0.04640227556 0.9017322063 -0.3990286887 -0.02326078713 0.908390522
-0.08992820978 -0.03586009517 0.8910959363 -0.1962471604 -0.0974303484 0.9653588533
-0.08331196755 -0.03563535959 0.9027834535 -0.1781579554 -0.04699050635 0.9810929298
-0.1088351905 -0.05386217684 0.8727340698 0.03994880989 0.3323477209 0.8634482026
-0.09758573025 -0.0441740267 0.8873181939 -0.2719435096 -0.0192749612 0.9118800759
-0.1024447158 -0.04220261797 0.8742700815 -0.1431187689 -0.004650236573 0.9156752229
-0.09699307382 -0.04928741232 0.894251883 -0.2829930484 0.08758600056 0.8918539882
-0.1118488759 -0.05256227404 0.8645566106 0.1197758391 0.3396977186 0.8661118746
-0.1080992296 -0.03789008409 0.8605336547 -0.02961151302 -0.05260618404 0.9312070012
-0.1107733399 -0.0287784338 0.8601596951 -0.1372574717 -0.2017516643 0.9456184506
-0.1177436486 -0.03868563473 0.8609622121 0.01179694571 0.05305153131 0.9105679989
-0.110044688 0.01231751312 0.8701279759 -0.1757632494 -0.4145748317 0.8911721706
-0.127164498 -0.009388784878 0.8455845118 -0.6558353901 0.15128012 0.704026401
-0.05805972964 -0.01878702827 0.857449472 -0.05945959687 -0.4631234407 0.8778905869
-0.07826209813 -0.04189566895 0.8562563062 -0.11877314 -0.03777521104 0.960056901
-0.07889749855 -0.06128687784 0.857555151 -0.2197981775 0.1926761717 0.9459944963
-0.06809768081 -0.03441238403 0.8574013114 -0.07844801247 -0.1866913587 0.9283710718
-0.0692826435 -0.04424166679 0.8576389551 -0.1480453908 -0.08379364759 0.9156959057
-0.06405486166 -0.06072579697 0.8661074042 -0.2013124228 -0.8539680839 0.1141612008
-0.06029789895 -0.031339176 0.8576939106 -0.1221288964 -0.3566578925 0.8537139297
-0.07121279091 -0.0569050163 0.8596844077 -0.2051906437 -0.1282250732 0.743099153
-0.06107923761 -0.05227831006 0.8648740053 -0.1634658426 -0.8151454926 0.27206406
-0.05829064548 -0.04080361873 0.8624511361 -0.1251049638 -0.7094384432 0.5021454096
-0.1771234125 -0.05778345838 0.8791909218 0.05069928989 0.3141149282 0.9467068911
-0.1866569072 -0.04607625678 0.8716954589 -0.05764282122 0.2302043885 0.9689574242
-0.1145580932 -0.03567122668 0.8490000367 0.02466777526 0.01235757861 0.9853224158
-0.1177457273 -0.02359553985 0.8602273464 -0.1165092587 -0.2143505365 0.9472281337
-0.1496939957 0.01052444056 0.8668569922 -0.03101358563 -0.1099039614 0.9822624326
-0.1467837691 0.01852025092 0.8695263267 -0.04542975873 -0.1987321675 0.9651607275
-0.1568766832 0.02137855627 0.8431927562 -0.55651474 -0.3982353508 0.422802031
-0.1729691625 0.02457096986 0.8540742397 -0.320663631 -0.1654990464 0.8237627745
-0.1443463564 0.02006650902 0.8350895643 -0.7367854714 -0.5654350519 0.157619521
-0.1531630158 0.01751632988 0.8350983262 -0.6264448762 -0.4296242893 0.1199197918
-0.1645013839 0.01888970286 0.8450146317 -0.4678123295 -0.2624053657 0.4849281609
-0.1469373852 0.01468290202 0.8293427825 -0.7279700041 -0.5078445673 -0.094309479
-0.04987937957 0.0002766527759 0.8912757635 -0.2304876596 -0.4127998948 0.8356717825
-0.05183423311 0.01238686312 0.8809193373 -0.2376870662 -0.5827098489 0.7767766714
-0.00556515716 -0.03865440562 0.8557435274 -0.03109566309 -0.2181482464 0.9051039815
-0.07807792723 -0.0246643126 0.901735127 -0.164218992 -0.100335069 0.9719141722
-0.07466683537 -0.01901205815 0.8966884017 -0.167063266 -0.1539135277 0.956171751
-0.07377526909 -0.008573603816 0.8870180845 -0.1612955332 -0.2676942348 0.9267181158
-0.06904283166 -0.01270346902 0.8923985362 -0.1691354215 -0.1831661165 0.941942811
-0.09027893096 -0.0001631227933 0.8825018406 -0.1126701981 -0.2919130325 0.9350045919
-0.08175355941 -0.005507598165 0.8855543733 -0.1394068152 -0.2798058689 0.9296193123
-0.09193057567 0.007441250607 0.879342258 -0.111334227 -0.3395941854 0.9234585762
-0.08544085175 0.009774368256 0.8738816381 -0.1197498441 -0.4063696563 0.9010301828
-0.07869466394 0.003403874114 0.8765183687 -0.1385675222 -0.3857503533 0.9004693031
-0.06879933923 0.01093022712 0.8730252981 -0.1781777292 -0.4991054833 0.8473424315
-0.240537867 -0.04746322334 0.8438769579 -0.3269742429 0.3622861803 0.8624696732
-0.2328593135 -0.05208405107 0.8514997959 -0.4517173171 0.3930067718 0.8001714945
-0.2309124321 -0.009464475326 0.8365981579 -0.1958154291 -0.08181106299 0.9723396301
-0.2204812318 -0.005613685586 0.8418415189 -0.3690819442 -0.004206272308 0.9184527993
-0.225817591 -0.0151164569 0.8389332891 -0.370108217 0.08262560517 0.9199739099
-0.2493791133 -0.01737431064 0.8368189335 0.04535295442 -0.01545927767 0.9967696667
-0.2353974283 -0.02045595273 0.8358811736 -0.177127406 0.08806462586 0.9725910425
-0.2325783521 -0.03286299855 0.8416267633 -0.3764244914 0.3314899206 0.8468768001
-0.1349766552 -0.04931762442 0.8621146679 0.3031669855 0.3619159758 0.8776561022
-0.127356112 -0.04209581017 0.8610765338 0.1754341573 0.1891425848 0.8954132199
-0.2040037215 -0.04679682478 0.8694229126 -0.3608364463 0.2062460035 0.9074729681
-0.2129668295 -0.04228252172 0.861537993 -0.5185491443 0.3045777977 0.7971268296
-0.1355487555 0.0317171663 0.8712479472 -0.2133077085 -0.7576355934 0.6137839556
-0.1293305159 0.01527255587 0.8698683977 -0.1700031608 -0.4269879758 0.8511093855
-0.1360224783 0.006861609872 0.8681534529 0.01142144669 -0.2799819708 0.9029589295
-0.204828918 0.006225815974 0.8552700281 -0.4254305959 0.09388012439 0.8445081115
-0.1990100294 -0.01036720537 0.8605615497 -0.5211469531 0.3440397978 0.7782217264
-0.2124289721 0.01516047679 0.8524332643 -0.2923603058 -0.1652681231 0.9130434394
-0.2059583366 -0.004188840743 0.8552684188 -0.5211428404 0.2016893178 0.7723832726
-0.207600534 0.002177249873 0.8472344875 -0.361012578 -0.01511740405 0.9258038402
-0.2101823986 -0.006297446322 0.8472258449 -0.5032413006 0.1553979069 0.844369173
-0.2055814564 -0.02405342832 0.8618978262 -0.5768752098 0.2883274555 0.7617416978
-0.1922480762 -0.03332585096 0.8712709546 -0.1495237499 0.1508672088 0.9752154946
-0.198917672 -0.03823998198 0.8621128798 -0.2765217125 0.2479842454 0.8674515486
-0.1912869066 -0.04100923985 0.8654437661 -0.1462601274 0.2092463374 0.9315773249
-0.2124491185 -0.02241078578 0.852789104 -0.6244253516 0.3204188049 0.7121815085
-0.05364560336 0.0008628642536 0.8711076379 -0.1957850903 -0.5891081095 0.7837694287
-0.06390816718 0.003353244625 0.8703802824 -0.1898209304 -0.525039196 0.8292691708
-0.05586152896 0.007592584938 0.8753247857 -0.2134653032 -0.581651032 0.7845798135
-0.04686837643 0.004297771025 0.875533998 -0.2383553535 -0.6131836176 0.7529298663
-0.1168150231 -0.01186212618 0.8612335324 -0.2349430025 -0.1868071854 0.9388519526
-0.1286237985 -0.01089902129 0.8627203703 0.04923819005 -0.1288679093 0.9478350878
-0.1085588112 -0.007268383168 0.8628377318 -0.2175738662 -0.2459630072 0.9417167306
-0.1260511279 0.0001511489245 0.8453013897 -0.8084074259 -0.004468551837 0.5520923138
-0.09496090561 -0.0152749382 0.8810759187 -0.1711106598 -0.1818544567 0.9621082544
-0.09728490561 -0.009338419884 0.8710746765 -0.1298528165 -0.2571157515 0.9509931803
-0.08758994937 -0.02156264149 0.8922806382 -0.1583871841 -0.1291200668 0.9720654488
-0.08745617419 -0.02922515944 0.8949557543 -0.1717888713 -0.09038067609 0.9767990708
-0.1023461446 -0.0145832533 0.8668928146 -0.175433144 -0.2059368491 0.9603362083
-0.0952494964 -0.02281101048 0.8797643185 -0.1733054519 -0.1425424218 0.9703822136
-0.09223232418 -0.002636342542 0.8747802973 -0.08164186776 -0.3165780306 0.9349616766
-0.08992008865 -0.008109310642 0.8806684613 -0.0970473364 -0.264292717 0.945299983
-0.08921136707 -0.001014503883 0.8655154109 -0.03736736625 -0.3790338337 0.9243082404
-0.1112442091 0.001889430452 0.8564537168 -0.414747715 -0.2335596234 0.7504042387
-0.1006087065 0.0001170621181 0.8650055528 -0.110946238 -0.3492289186 0.9186903238
-0.09986966103 -0.0224553328 0.8702479601 -0.1620227545 -0.1881077141 0.9649383426
-0.08778610826 -0.01260886807 0.8610408902 0.0123249935 -0.2806351185 0.9587284327
-0.08399985731 -0.0211451035 0.857644558 0.02817619033 -0.2536414862 0.9666205645
-0.1179168597 -0.007367759012 0.8500111699 -0.583217442 -0.005978101399 0.692224443
-0.1043966562 -0.01323981676 0.8574941158 -0.2286455333 -0.1583311111 0.8908615112
-0.1334476322 -0.01999972574 0.8613507748 0.1999745667 -0.05120564997 0.945006609
-0.1575277299 0.02535745874 0.866227448 -0.198621884 -0.1197961792 0.9626427293
-0.1614585221 0.01808941178 0.8634018898 -0.2060853392 -0.03234633058 0.9774736166
-0.1795319766 -0.009668260813 0.8662674427 -0.0544946827 0.2686052024 0.9607872963
-0.1786391139 0.000744300778 0.8643820286 -0.1475777775 0.2033756524 0.9620562196
-0.1916073114 -0.009290393442 0.8581510186 -0.3274076581 0.2784739435 0.8402235508
-0.1732771248 -0.007313359994 0.8578641415 -0.1157553643 0.2052351534 0.9301134944
-0.04424927756 -0.002461205237 0.8714462519 -0.2290390283 -0.611798346 0.7570581436
-0.02486041747 5.638842049e-05 0.8814145327 -0.3451900184 -0.634960115 0.6908248663
-0.02480917983 -0.006761211436 0.8754764795 -0.3281894028 -0.6491594911 0.6861034632
-0.05542445928 -0.03657153994 0.8719006181 -0.09192820638 -0.5620865226 0.6785207987
-0.05597980693 -0.02802899107 0.8735491037 -0.1174123064 -0.4201540053 0.8354319334
-0.05517539382 -0.05924760178 0.8809379935 -0.06637788564 -0.7678956389 0.357406199
-0.05617922544 -0.04819796234 0.8861960769 -0.1091514379 -0.5444703102 0.5826008916
-0.05631081015 -0.03550833091 0.8810533881 -0.1231816784 -0.4303861856 0.7616912127
-0.05756167695 -0.04123725742 0.897720933 -0.161871165 -0.2990573347 0.7828745842
-0.05577842519 -0.04345270246 0.8793460131 -0.09893483669 -0.5646022558 0.6145274043
-0.05504650995 -0.05237607285 0.8759618998 -0.06709814817 -0.7340455055 0.4387991726
-0.05733175576 -0.04993923381 0.9092015028 -0.1843493432 -0.08125349134 0.9790419936
-0.0609016642 -0.03954819217 0.9087539911 -0.1878908426 -0.06427438557 0.9796543121
-0.07143644989 -0.05011329055 0.9056965709 -0.1508155465 -0.05734845996 0.9867610335
-0.07741699368 -0.04313090816 0.9053516388 -0.152608797 -0.05227062106 0.9868976474
-0.07308133692 -0.0353519246 0.9056318402 -0.1649261415 -0.05245064944 0.9848998189
-0.07167431712 -0.008136995137 0.8629174232 -0.05515263602 -0.438501358 0.8968117833
-0.07250533253 0.001915660338 0.868262291 -0.1291312277 -0.4507620037 0.8813376427
-0.08079063147 0.003496893216 0.8678521514 -0.0884308368 -0.412076205 0.9064975381
-0.08085852116 -0.007565294858 0.8629823327 -0.02065333724 -0.3768076897 0.9253984094
-0.06796379387 -0.01599455997 0.8584806919 -0.004806185141 -0.3969321847 0.9144608974
-0.1042509824 0.01226591598 0.8645727634 -0.2337918878 -0.3607837856 0.8295248747
-0.09496503323 0.01911335438 0.8739197254 -0.1110094562 -0.4074161053 0.9063785076
-0.09543604404 0.0090410579 0.8685184121 -0.08209103346 -0.3830121756 0.9198874831
-0.1795864999 -0.01747902855 0.8685488105 -0.0146121243 0.2130999267 0.9658663273
-0.1312758625 -0.03005950898 0.8517545462 0.2393819243 0.1383450776 0.9413458109
-0.1332847327 0.02558354288 0.8531942368 -0.5875135064 -0.5936776996 0.4286519885
-0.1270093322 0.02425999753 0.8623775244 -0.4901320338 -0.6530925035 0.4962452948
-0.1551911384 0.003303474747 0.8646207452 -0.06672906876 -0.01560935099 0.9928104877
-0.1341492534 -0.007976274006 0.8407089114 -0.3914695978 0.2313742787 0.6974388361
-0.1655402184 0.003471686272 0.8636335135 -0.09519391507 0.08103866875 0.9879457951
-0.1962514371 -0.0020046141 0.8530032635 -0.4378587902 0.2018514723 0.849478066
-0.1841025949 -0.003657994093 0.854814589 -0.2751995623 0.1891380847 0.8972268701
-0.1838630438 0.004139438737 0.8576239347 -0.2948828042 0.197962895 0.9247662425
-0.1997427344 0.006547173019 0.8489236236 -0.3572173119 0.03402312472 0.9295377135
-0.1229445189 -0.04961856455 0.8565526605 0.2534576952 0.3769779503 0.8892256618
-0.1328784674 -0.05896462128 0.8648509383 0.2334978431 0.4158149362 0.8784813881
-0.1098633036 0.005174594466 0.8665447831 -0.2109777033 -0.3459120691 0.9047651291
-0.1260408163 0.01277590357 0.8529980779 -0.7858111858 -0.3789698184 0.4421403706
-0.1215418056 0.005700529553 0.8500674367 -0.6680008769 -0.1641298085 0.6072137952
-0.09763360769 -0.03072384745 0.8727275729 -0.143176809 -0.1931904405 0.9656475782
-0.09323659539 -0.03076243028 0.8825152516 -0.1523002684 -0.151673466 0.9699764848
-0.09445518255 -0.0231474191 0.8591187 -0.01864305325 -0.2497795075 0.9680600762
-0.1627425402 -0.00709170755 0.8638955355 0.06980389357 0.1485700756 0.9826170802
-0.1713920534 -0.01166038215 0.8653692603 0.07050831616 0.203464672 0.9741210341
-0.1404913962 -0.01087747607 0.8640872836 0.2915892005 -0.06011508778 0.9538526535
-0.0353237614 -0.004344354849 0.8727709651 -0.2698692977 -0.6233581305 0.7335975766
-0.03572781384 0.002532008104 0.878188014 -0.2954780459 -0.6146749258 0.7312062383
-0.07804690301 -0.0287065208 0.855977118 0.002986945678 -0.1864814013 0.9680626988
-0.08594933897 -0.04230950028 0.8548346162 -0.1312549859 -0.006414360832 0.9781709909
-0.0857296288 0.0175194256 0.8716310263 -0.1145570576 -0.4294650257 0.8954056501
-0.07733631879 0.01478879806 0.8727321029 -0.151190266 -0.4576460123 0.8758065104
-0.1801371574 -0.04076312482 0.8714566231 0.02528861165 0.1802076995 0.9762555361
-0.1803850979 -0.03025487438 0.8710862398 0.01853283867 0.1220142096 0.9855418801
-0.1726786792 -0.03571763635 0.871227026 0.1153325215 0.1239730194 0.9805574417
-0.1241817549 -0.03529940173 0.8495662808 0.1388811618 0.06564738601 0.9848207235
-0.1156308353 -0.001920277369 0.8627741933 -0.3602487743 -0.2417914569 0.8928049803
-0.1333030313 -0.003364116419 0.8641902208 0.02148546465 -0.1954699755 0.8833088279
-0.1267522871 0.008073564619 0.8666852117 -0.2156334072 -0.373788625 0.8212503791
-0.1249389797 -0.002227085875 0.8626720905 -0.2492033243 -0.2364509851 0.8532165885
-0.1030067801 -0.02825563215 0.8560864329 -0.1570149064 -0.2133296579 0.9490340352
-0.1217210442 -0.01888120547 0.8485172391 -0.396756351 0.1247423887 0.8816230297
-0.1162242964 -0.02575351298 0.8492024541 -0.2908213139 0.04922639206 0.9202408791
-0.09573786706 -0.0312198773 0.8537527323 -0.04856717214 -0.1680988073 0.9770883322
-0.1136140078 -0.01405373402 0.8526721001 -0.4571153522 -0.08202141523 0.7786687016
-0.1514434367 -0.008710172959 0.8529871106 0.06700042635 0.2672934234 0.9463783503
-0.146864906 -0.01742012054 0.8555119038 0.1693916023 0.2358667552 0.9339703321
-0.1385726184 -0.01469057146 0.8488592505 0.1560011804 0.3641641736 0.8996302485
-0.1554676294 -0.0133027602 0.8581979871 0.1086136624 0.1723217964 0.9651392102
-0.1597291678 -0.01594675891 0.8654181361 0.1535774469 0.1024469361 0.981562674
-0.1498102993 -0.01946887001 0.8649368286 0.2716684341 0.03447258845 0.9599162936
-0.1637321413 -0.02566040866 0.8696089983 0.1765732318 0.1043072268 0.9784428477
-0.1539604813 -0.00698841922 0.8640006781 0.1250050068 0.05379382521 0.9869419932
-0.148505494 -0.0002117223048 0.866407752 0.1110181883 -0.0679050535 0.9866897464
-0.1570816487 -0.03953648731 0.8642655611 0.2387970537 0.1484475285 0.9554367065
-0.1491376162 -0.0426097922 0.8654094338 0.2599782646 0.2017667592 0.940647006
-0.1495123208 -0.05390628427 0.8678604364 0.2514965236 0.3210309148 0.9124932885
-0.1407354176 -0.04379552975 0.8620860577 0.3277758658 0.2445311993 0.9094023705
-0.1373834759 -0.03551054001 0.8579623103 0.3387796283 0.07797782868 0.9368472099
-0.1337005794 -0.02836509608 0.8606023788 0.2289693654 -0.006895240396 0.9388406873
-0.1253563017 -0.02644690499 0.8603497148 0.05163779482 -0.1120171025 0.942261219
-0.1572850794 -0.02496234514 0.8649015427 0.2078355253 0.0827293992 0.9727520347
-0.1759017259 -0.05531653762 0.8705350161 0.07463543862 0.2836768627 0.9474356174
-0.1704118252 -0.04389971867 0.8666408062 0.1242369339 0.1793660969 0.9746448398
-0.1660750359 -0.05424275994 0.8692504168 0.1871452332 0.2883299291 0.9348387122
-0.1567156166 -0.04989159852 0.8666611314 0.255192101 0.2591929734 0.9291444421
-0.03034124151 0.009327392094 0.8840988278 -0.319750756 -0.6106358767 0.7241815925
-0.03969911858 0.009184262715 0.8823360205 -0.2785921395 -0.6050961614 0.7454371452
-0.04818275198 -0.01880054176 0.9066224098 -0.2171972841 -0.1343027204 0.9377996922
-0.04810494557 -0.0251441393 0.9117394686 -0.1984774619 -0.03893607855 0.9788813591
-0.04265582934 -0.004543512594 0.8962028623 -0.2574246526 -0.3584144413 0.842512548
-0.02778642811 -0.001473294338 0.8908611536 -0.3141052723 -0.4959915578 0.7662594318
-0.03233882785 -0.006743117236 0.8970816135 -0.2660393715 -0.374203831 0.8314808011
-0.03933041543 -0.02175100893 0.9097824693 -0.2022416443 -0.1131940186 0.9509726167
-0.03978322074 -0.01311051287 0.9033010006 -0.2323620319 -0.2370496988 0.8953586817
-0.03699358553 0.002876988612 0.8912905455 -0.282666564 -0.4791305959 0.7899432182
-0.1513575464 -0.03297914937 0.8649666905 0.2733128071 0.1072262004 0.9532048106
-0.1451143622 -0.02881589159 0.862976253 0.3361541629 0.07351483405 0.9359533787
-0.1390298903 -0.02429670468 0.8529891968 0.2580904365 0.2678849697 0.902744472
-0.1410825402 -0.02131062932 0.8622533083 0.3148444295 0.007361351047 0.9490708709
-0.1702176332 -0.04350336269 0.8747202754 0.1340446919 0.197975561 0.9639431834
-0.1623280942 -0.03848272189 0.8700390458 0.1991400123 0.1622352451 0.9607449174
